# .PCD v0.7 - Point Cloud Data file format
VERSION 0.7
FIELDS x y z
SIZE 4 4 4
TYPE F F F
COUNT 1 1 1
WIDTH 1512
HEIGHT 1
VIEWPOINT 0 0 0 1 0 0 0
POINTS 1512
DATA ascii
2.0746737 -7.3020382 -1.5629371
2.0321853 -7.3231158 -1.5647961
1.985678 -7.3297811 -1.5635568
1.9351639 -7.3210163 -1.5590128
1.8831223 -7.3052764 -1.553023
1.8389779 -7.3195405 -1.5536426
1.7998474 -7.3544459 -1.5588063
1.7533267 -7.3596401 -1.557567
1.7032746 -7.3492904 -1.553023
1.6568576 -7.3538761 -1.5517837
1.6110761 -7.3610363 -1.551164
1.5642523 -7.3631268 -1.5495117
1.5289185 -7.4205012 -1.559839
1.4812506 -7.4191885 -1.557567
1.4330993 -7.4146881 -1.5546753
1.3827213 -7.3973742 -1.5490986
1.3364363 -7.4009051 -1.5480659
1.2903279 -7.4051104 -1.5472397
1.2413007 -7.3916602 -1.5426956
1.180306 -7.3025479 -1.5220411
1.1365278 -7.3164206 -1.523487
1.090315 -7.3145471 -1.521628
1.0456899 -7.3230362 -1.5220411
1.0017962 -7.3370705 -1.5236934
0.95271105 -7.3120317 -1.517084
0.90710425 -7.311914 -1.5158447
0.86222208 -7.3173423 -1.5158447
0.81730753 -7.322495 -1.5158447
0.77287525 -7.3322372 -1.5168774
0.72690445 -7.327105 -1.514812
0.68166047 -7.3285046 -1.5141923
0.63659608 -7.3315744 -1.5139859
0.59144104 -7.3333917 -1.5135727
0.5462876 -7.3349314 -1.5131596
0.50187165 -7.3469305 -1.5150186
0.45672151 -7.3488951 -1.514812
0.41129243 -7.3456979 -1.5135727
0.36587104 -7.3412428 -1.5121269
0.32060534 -7.3384619 -1.5110942
0.27575517 -7.3451796 -1.5121269
0.23058851 -7.3437996 -1.5115073
0.18552347 -7.3450761 -1.5115073
0.14075154 -7.3617282 -1.514812
0.095718466 -7.3732152 -1.517084
0.050583474 -7.3893185 -1.5203887
0.0053157322 -7.4853764 -1.5406302
-0.040661082 -7.4940739 -1.5424892
-0.086631835 -7.4927049 -1.5422826
-0.13324329 -7.5282292 -1.5499247
-0.17868865 -7.4959688 -1.5433153
-0.22544062 -7.5201592 -1.5486856
-0.26893419 -7.4452991 -1.5331945
-0.31560299 -7.4669704 -1.5381516
-0.3614608 -7.4658709 -1.5383582
-0.40737024 -7.465466 -1.5387713
-0.45494738 -7.4921255 -1.5449677
-0.49790841 -7.4442849 -1.5354666
-0.54856265 -7.5093985 -1.5499247
-0.59486073 -7.5088172 -1.5505444
-0.6404236 -7.4991765 -1.5493052
-0.6858905 -7.4892597 -1.5480659
-0.73316306 -7.4985433 -1.5509576
-0.78350818 -7.5357509 -1.559839
-0.83058876 -7.5385823 -1.5614914
-0.87716824 -7.5362597 -1.562111
-0.92172688 -7.517139 -1.5592194
-0.96858376 -7.5171642 -1.5604587
-1.0154756 -7.5168977 -1.5616978
-1.0650015 -7.5347457 -1.5668615
-1.1090714 -7.5135498 -1.5637634
-1.1536651 -7.4969325 -1.5616978
-1.1937653 -7.4529996 -1.5538491
-1.2438103 -7.4715939 -1.5594258
-1.2951275 -7.4956388 -1.5662419
-1.3410954 -7.4875507 -1.5662419
-1.3841593 -7.4637885 -1.5629371
-1.4321413 -7.4666862 -1.5654157
-1.4807813 -7.4721546 -1.5685139
-1.5246413 -7.4533424 -1.5664485
-1.5675187 -7.4304438 -1.5635568
-1.6099647 -7.4063439 -1.5604587
-1.662002 -7.4259253 -1.5668615
-0.69519019 -3.0180571 -0.61427259
-0.70941395 -2.9956443 -0.61034822
-0.725932 -2.983629 -0.60869586
-0.76105368 -3.0465188 -0.62336063
-1.8659393 -7.2814059 -1.5472397
-0.77625221 -2.9527278 -0.60497802
-0.79130185 -2.9365721 -0.60249949
-0.80514157 -2.9165704 -0.59919477
-0.82541633 -2.9200494 -0.60105366
-2.0837963 -7.2047634 -1.5437285
-2.1404548 -7.2340631 -1.553023
-2.1839519 -7.2179837 -1.5524033
-1.0844237 -3.5055766 -0.73510188
-2.2900503 -7.2466183 -1.5647961
-2.3347719 -7.2333612 -1.5650027
-2.3879912 -7.2458487 -1.5709925
-1.0893449 -3.2377133 -0.68160653
-1.1044267 -3.2170866 -0.67850834
-1.1180037 -3.1927028 -0.67458397
-2.5789087 -7.2237649 -1.5796673
-2.6081285 -7.1664295 -1.5703728
-1.1605918 -3.1284659 -0.66487628
-1.1735411 -3.1048107 -0.6611585
-1.2196304 -3.1678636 -0.67706251
-1.2468998 -3.1803617 -0.68160653
-2.869519 -7.1902871 -1.5947452
-2.8837607 -7.0991163 -1.578015
-2.923902 -7.0731502 -1.5761561
-2.964592 -7.0487628 -1.5747102
-1.2819157 -2.9957829 -0.64835262
-1.2967604 -2.9797859 -0.64649373
-1.3126447 -2.9664042 -0.64525443
-1.3284137 -2.95294 -0.64401519
-3.1891787 -6.9758644 -1.5796673
-3.2327464 -6.9579396 -1.5800805
-3.2753787 -6.937973 -1.5800805
-3.3195798 -6.9212737 -1.5809066
-3.3739831 -6.9254045 -1.5866899
-3.4216197 -6.9150953 -1.5891684
-3.4587145 -6.8834791 -1.5866899
-3.4831014 -6.8272638 -1.5784281
-3.5208776 -6.7979436 -1.5765692
-3.5734491 -6.7969975 -1.5815263
-3.6173904 -6.7792597 -1.582559
-3.6607823 -6.7603779 -1.5833852
-3.7050211 -6.7429338 -1.5846244
-3.7634752 -6.7508397 -1.5920601
-3.8101244 -6.736989 -1.5943321
-3.8591795 -6.7270632 -1.5976368
-3.907764 -6.7159429 -1.6007351
-3.9608316 -6.7120633 -1.6056921
-3.9843585 -6.6582475 -1.5984631
-4.0489912 -6.6729908 -1.6081706
-4.0616641 -6.6021848 -1.5968107
-2.6125438 -4.1885729 -1.0025786
-2.6653824 -4.2154694 -1.013319
-2.6769447 -4.1767926 -1.0077422
-2.7019897 -4.1594682 -1.0075357
-2.7285368 -4.1444454 -1.0079488
-2.7110207 -4.063323 -0.99163163
-2.8350813 -4.1933322 -1.0290164
-2.7756085 -4.0515437 -0.99720842
-2.8645699 -4.1268764 -1.0209612
-2.928107 -4.1636481 -1.0350063
-2.9371369 -4.1224928 -1.0290164
-2.9749732 -4.1218481 -1.0335604
-3.0082922 -4.1145749 -1.0364521
-3.0352287 -4.0983982 -1.0370717
-3.0415328 -4.0546494 -1.0304623
-3.0604358 -4.0281191 -1.0283968
-3.0839009 -4.0077138 -1.0279837
-3.1619563 -4.0574069 -1.0463663
-3.2225525 -4.0832472 -1.0585525
-3.1736391 -3.9709084 -1.0335604
-3.1579382 -3.901921 -1.0201349
-3.1539145 -3.8484142 -1.0108404
-3.2018344 -3.8583565 -1.0188957
-3.2223017 -3.834892 -1.0178629
-3.2470393 -3.8165388 -1.0182761
-3.3061533 -3.8380601 -1.0298426
-3.3585787 -3.8508863 -1.0391371
-3.3938003 -3.8434086 -1.042855
-3.4101465 -3.8144879 -1.040583
-3.4577789 -3.8203344 -1.0482252
-3.4527335 -3.7680244 -1.0393437
-3.4298778 -3.6972697 -1.0250921
-3.4545085 -3.6782947 -1.0257117
-3.5295951 -3.7123423 -1.0418223
-3.5380595 -3.6758103 -1.0374848
-3.576251 -3.6701508 -1.0422354
-3.5973294 -3.646745 -1.0418223
-3.6051197 -3.6100633 -1.0374848
-3.6355495 -3.5961325 -1.0399634
-3.6575465 -3.5737574 -1.0399634
-3.5013044 -3.379323 -0.98770732
-3.4787786 -3.3165877 -0.97510803
-3.4385226 -3.2381573 -0.9575516
-3.4905624 -3.2469893 -0.96684617
-3.4974523 -3.2135932 -0.96312833
-3.5120332 -3.1874692 -0.9616825
-3.4054956 -3.0528607 -0.92595011
-3.402189 -3.0124469 -0.91975373
-3.589257 -3.1390331 -0.9670527
-3.6617584 -3.1630058 -0.981924
-3.7629707 -3.2103391 -1.004644
-3.9569256 -3.3341005 -1.0527692
-3.8923283 -3.2390299 -1.0294296
-3.9665518 -3.259819 -1.0443008
-3.970526 -3.2224698 -1.0399634
-3.9970949 -3.2035542 -1.0418223
-4.0013328 -3.1668227 -1.0376914
-4.0106673 -3.1343782 -1.0350063
-3.9461701 -3.0451465 -1.0126994
-3.9927967 -3.0422256 -1.0201349
-3.9793324 -2.9935503 -1.0116665
-3.9465718 -2.9311526 -0.99824113
-3.9487026 -2.8953092 -0.99411023
-3.9957178 -2.8922555 -1.0017524
-4.0221457 -2.8739417 -1.0040244
-4.0373054 -2.8475163 -1.0034047
-4.0747757 -2.8366673 -1.0085684
-4.2291899 -2.9058168 -1.0436811
-4.2517986 -2.8831074 -1.0449204
-4.1254859 -2.7606392 -1.0083618
-4.1815367 -2.7611558 -1.0182761
-4.1615119 -2.7114079 -1.0089815
-4.1928844 -2.6953471 -1.0126994
-4.1696844 -2.6444128 -1.0027851
-4.2040796 -2.6301966 -1.0073291
-4.181839 -2.5807114 -0.99782801
-4.2469044 -2.5850224 -1.0100142
-4.3365045 -2.6032372 -1.0281903
-4.3296638 -2.5631204 -1.0226135
-4.2734871 -2.4945729 -1.0050571
-4.3124566 -2.481972 -1.0108404
-4.3267536 -2.4549818 -1.0106338
-4.3425894 -2.4288647 -1.0108404
-4.399395 -2.425323 -1.0209612
-4.3935609 -2.3870709 -1.0160041
-4.4460773 -2.3803909 -1.0250921
-4.4320421 -2.3379979 -1.0182761
-4.3811927 -2.2769141 -1.0027851
-4.5170083 -2.3124197 -1.0317016
-4.458601 -2.2480919 -1.0145582
-4.569582 -2.269001 -1.0374848
-4.5465016 -2.222867 -1.0288099
-4.5265551 -2.1788001 -1.0209612
-4.5796266 -2.1698401 -1.0302557
-4.5103884 -2.1032364 -1.011047
-4.5223193 -2.0751135 -1.0108404
-4.61344 -2.0827606 -1.0290164
-4.5474434 -2.0194614 -1.0108404
-4.5920272 -2.0056217 -1.0182761
-4.6986423 -2.017957 -1.0399634
-4.7677207 -2.0130703 -1.0529758
-4.8278775 -2.0036597 -1.0639226
-4.921617 -2.0072598 -1.0825118
-4.7603731 -1.907499 -1.0430615
-4.7856441 -1.8836303 -1.0461597
-4.8354411 -1.8690495 -1.0548346
-4.8687725 -1.8476781 -1.0597918
-4.8332577 -1.8003472 -1.0492579
-4.8276725 -1.7646095 -1.0455401
-4.8448563 -1.7372665 -1.0469859
-4.8849607 -1.7178959 -1.0535954
-5.0036311 -1.7252132 -1.0777612
-5.1559405 -1.742417 -1.1093627
-5.4043126 -1.7895005 -1.1622385
-5.4840617 -1.7786489 -1.1775228
-5.5284429 -1.7556292 -1.1849585
-5.5596666 -1.7280648 -1.1895025
-5.6010561 -1.7033151 -1.1963185
-5.8524213 -1.7406163 -1.2494007
-5.9513054 -1.7303575 -1.268816
-6.2356915 -1.7716398 -1.3289208
-6.2615294 -1.7375319 -1.3322256
-7.4959922 -2.030715 -1.5999088
-6.7761579 -1.7911106 -1.4400425
-6.8002849 -1.7529192 -1.442934
-7.23983 -1.8189468 -1.5362928
-7.3059764 -1.7879828 -1.5482724
-7.5423832 -1.7968727 -1.5972238
-7.5704236 -1.754537 -1.6009415
-7.8864865 -1.7768865 -1.6670362
-8.1600857 -1.7860048 -1.7238363
-8.2723408 -1.7574598 -1.7457302
-8.5005016 -1.7515011 -1.792616
-8.7922192 -1.7554536 -1.8531339
-9.0468292 -1.7486467 -1.9055965
-9.1439486 -1.709288 -1.9241856
-9.1667814 -1.6554105 -1.9268707
-9.1883326 -1.6011492 -1.9293493
-9.2240372 -1.5491171 -1.934926
-9.2430277 -1.4940519 -1.9369915
-9.2665234 -1.4395633 -1.9400897
-9.252924 -1.3793589 -1.9353391
-9.2408724 -1.3196523 -1.9310017
-9.2633371 -1.2649128 -1.9340999
-9.2020378 -1.199071 -1.9194351
-9.3004951 -1.153914 -1.9388504
-9.2860231 -1.0943054 -1.9343064
-9.3256235 -1.0409988 -1.941329
-9.3036175 -0.98078227 -1.9353391
-9.2870665 -0.92145503 -1.9305886
-9.299365 -0.86508799 -1.9320344
-9.3103466 -0.80852002 -1.9332737
-9.2761221 -0.74822927 -1.9250119
-9.3059072 -0.69318879 -1.930382
-9.3626976 -0.63967943 -1.9415355
-9.3439856 -0.58082181 -1.936785
-9.3249054 -0.52221799 -1.9320344
-9.3152304 -0.46435782 -1.9293493
-9.2817364 -0.40560982 -1.9217072
-9.3104496 -0.34964305 -1.9272839
-9.3388243 -0.29333913 -1.9328606
-8.7287111 0.63830692 -1.9182054
-8.7615976 0.69478959 -1.9265013
-8.7775879 0.75028473 -1.9310859
-8.7407503 0.80118513 -1.9238815
-8.747324 0.85594422 -1.9265013
-8.7069654 0.90596026 -1.918642
-8.6837826 0.95744079 -1.9147124
-8.7271795 1.0164698 -1.9258463
-8.7081861 1.068453 -1.9230083
-8.7343731 1.1261123 -1.930431
-8.6895838 1.1745812 -1.9219167
-8.6764154 1.2270566 -1.9206069
-8.6687231 1.2802711 -1.9206069
-8.6925325 1.3383418 -1.9278113
-8.6359787 1.3839259 -1.9168955
-8.6475391 1.4402587 -1.9214801
-8.6808491 1.5006115 -1.9310859
-8.6253719 1.5455799 -1.9206069
-8.5840626 1.5925964 -1.9134026
-8.5434618 1.6393483 -1.9064165
-8.5322847 1.6915493 -1.9061981
-8.5217447 1.7438705 -1.9061981
-8.5232964 1.7987474 -1.9090363
-8.5054245 1.8495591 -1.907508
-8.5177221 1.9070461 -1.9129659
-8.4992046 1.9577396 -1.9114376
-8.4670906 2.0051277 -1.9068531
-8.470747 2.0609672 -1.9105644
-8.4740362 2.1169269 -1.9142758
-8.4467087 2.165246 -1.9110011
-8.4049501 2.2095859 -1.9044516
-8.3789854 2.2578137 -1.9016136
-8.423295 2.3252919 -1.915149
-8.3590994 2.3628569 -1.9035784
-8.3500681 2.415731 -1.9048883
-8.3528671 2.4721849 -1.9090363
-8.3001804 2.512078 -1.9003037
-8.290204 2.5646911 -1.9016136
-8.3003635 2.6237495 -1.9077264
-8.2971096 2.6788297 -1.9107827
-8.2777357 2.7287724 -1.9101278
-8.2441893 2.7739084 -1.9061981
-8.1993246 2.8149314 -1.8996488
-8.195713 2.8700285 -1.9029235
-8.1871386 2.9235454 -1.9051065
-8.178216 2.9770651 -1.9072897
-8.1515608 3.0241337 -1.9053249
-8.0999908 3.0616679 -1.8974656
-8.095623 3.1169229 -1.9009587
-8.0681686 3.163331 -1.8989938
-8.0712643 3.2218244 -1.9044516
-8.0531521 3.2720232 -1.9048883
-8.048254 3.3277156 -1.9085996
-8.0285835 3.3774147 -1.9088179
-7.9888687 3.4185488 -1.9042333
-7.9614792 3.4647765 -1.9027052
-7.927577 3.5080318 -1.8996488
-7.9121323 3.5594118 -1.9011769
-7.9078922 3.6160116 -1.9055432
-7.9085641 3.6751611 -1.9112194
-7.8452744 3.7044454 -1.9011769
-7.8373537 3.7596908 -1.9048883
-7.8167691 3.8089919 -1.9055432
-7.7923756 3.8564501 -1.9053249
-7.7650785 3.9024372 -1.9044516
-7.7322955 3.9455726 -1.9022685
-7.7105398 3.9942899 -1.9029235
-7.6668854 4.0315309 -1.8981205
-7.6695518 4.093205 -1.9051065
-7.6460085 4.1411176 -1.9055432
-7.5648685 4.1573963 -1.8913529
-7.5545578 4.2122917 -1.8952825
-7.5761323 4.2854791 -1.907508
-7.5302281 4.3207116 -1.9024868
-7.4799604 4.3530879 -1.8963741
-7.4850426 4.4177551 -1.90467
-7.4268155 4.4450517 -1.8965924
-7.3835516 4.4809165 -1.8924444
-7.3750329 4.5379019 -1.8974656
-7.32304 4.5680871 -1.8911345
-7.3245635 4.6317148 -1.8989938
-7.2927198 4.6744633 -1.8981205
-7.2524447 4.711678 -1.8950641
-7.2331781 4.7625308 -1.897684
-7.2078776 4.8095317 -1.8987755
-7.1475143 4.8328919 -1.8904796
-7.1161156 4.8755541 -1.8900429
-7.0828595 4.9168997 -1.8891697
-7.0836844 4.9821658 -1.897684
-7.0553651 5.027236 -1.8983389
-7.0109353 5.0607204 -1.8946276
-6.9750257 5.1001868 -1.8933177
-6.9436002 5.142889 -1.8933177
-6.9423542 5.208241 -1.9018319
-6.895505 5.2395205 -1.897684
-6.8547196 5.2751842 -1.8952825
-6.8360758 5.3279448 -1.8992121
-6.7657247 5.3401585 -1.8885148
-6.732831 5.3815718 -1.8885148
-6.6814804 5.4080443 -1.8832753
-6.6730757 5.469357 -1.8904796
-6.6386399 5.5095758 -1.8902613
-6.6353369 5.5759511 -1.8992121
-6.5720153 5.5918922 -1.890698
-6.5139241 5.6117268 -1.8837118
-6.49334 5.6637797 -1.8878598
-6.4657793 5.7099762 -1.8900429
-6.4015255 5.7235203 -1.8813105
-6.4082437 5.8006811 -1.8939726
-6.3869181 5.8530807 -1.8983389
-6.3351474 5.8775558 -1.893536
-6.3082099 5.9250035 -1.8963741
-6.2399158 5.9333334 -1.8865499
-6.2202635 5.9877543 -1.8917894
-6.1875992 6.0298953 -1.8930993
-6.13937 6.0567813 -1.8896064
-6.1310873 6.1233053 -1.8987755
-6.0700707 6.1372161 -1.8913529
-6.0513921 6.1938934 -1.8974656
-5.9739733 6.1901741 -1.8848034
-5.9554033 6.2472 -1.8911345
-5.933013 6.3006773 -1.8963741
-5.9022155 6.3455391 -1.8989938
-5.8638291 6.3823533 -1.8992121
-5.8330817 6.427609 -1.9020503
-5.7961378 6.466186 -1.9029235
-5.7660551 6.5125899 -1.9061981
-5.7150669 6.535357 -1.9024868
-5.7016463 6.6013236 -1.911656
-5.64077 6.6124229 -1.90467
-5.6007195 6.647656 -1.9048883
-5.5529599 6.6736436 -1.9024868
-5.512526 6.7083445 -1.9027052
-5.4817128 6.7549257 -1.9064165
-5.4377217 6.785387 -1.9055432
-5.3941684 6.8163285 -1.9048883
-5.3540449 6.8516054 -1.9055432
-5.3172679 6.8912826 -1.907508
-5.263649 6.9090285 -1.9033601
-5.2252626 6.9466553 -1.9048883
-5.1866126 6.9840708 -1.9064165
-5.1482768 7.0220609 -1.908163
-5.1113858 7.0622144 -1.9105644
-5.0628519 7.0862975 -1.9085996
-5.0305223 7.1331806 -1.9129659
-4.9799705 7.1543012 -1.9103462
-4.9453707 7.1983981 -1.9140575
-4.8912535 7.2140665 -1.9101278
-4.8599186 7.2634101 -1.9153674
-4.8222485 7.3036814 -1.9182054
-4.786397 7.347034 -1.9219167
-4.7459741 7.3836536 -1.9238815
-4.7011023 7.4134593 -1.9240999
-4.646729 7.4280996 -1.9203886
-4.6066995 7.4656076 -1.9227901
-4.5760221 7.518744 -1.9293394
-4.5232739 7.5358019 -1.9265013
-4.4724774 7.5558558 -1.9245365
-4.4270148 7.5848422 -1.9249731
-4.3716326 7.5966368 -1.9210435
-4.3437142 7.6564231 -1.9295577
-4.3152256 7.7161517 -1.938072
-4.2668571 7.7407746 -1.9376353
-4.2099657 7.7496586 -1.933269
-4.1577311 7.7667403 -1.9310859
-4.1090865 7.790379 -1.9306493
-4.0684061 7.8293014 -1.9341424
-4.0131774 7.8402171 -1.9306493
-3.967191 7.869051 -1.9317409
-3.9344513 7.9247141 -1.9396001
-3.8788965 7.9346781 -1.9361072
-3.8521378 8.0040579 -1.9474595
-3.7791452 7.9772706 -1.9350156
-3.7301264 8.000309 -1.9350156
-3.6923585 8.047883 -1.9411284
-3.6569564 8.1015205 -1.9487693
-3.6091571 8.1282663 -1.9498609
-3.5685854 8.1717234 -1.9551004
-3.5141432 8.1836014 -1.9526989
-3.4638634 8.2050104 -1.9526989
-3.4156966 8.2315178 -1.9540088
-3.3537054 8.2243071 -1.9472411
-3.3039045 8.246542 -1.9476777
-3.2518134 8.2630262 -1.9468045
-3.1978862 8.2746305 -1.9448397
-3.138402 8.271286 -1.9393818
-3.0998483 8.3233109 -1.9472411
-3.058095 8.3678398 -1.9533539
-3.0086687 8.3919592 -1.9546638
-2.9571199 8.4102621 -1.9546638
-2.9108646 8.4439325 -1.9583751
-2.8515046 8.4394445 -1.9531356
-2.7969081 8.4484444 -1.9511708
-2.7504327 8.4821568 -1.9551004
-2.6965644 8.4932928 -1.9537905
-2.6449788 8.5115423 -1.9542271
-2.5924194 8.5266781 -1.9540088
-2.5450561 8.5592623 -1.9579384
-2.4908559 8.5690937 -1.9566286
-2.4427609 8.6001759 -1.9603399
-2.3862946 8.6018362 -1.9572835
-2.3344898 8.6200848 -1.9581568
-2.2783146 8.6219807 -1.9553187
-2.2285323 8.6480837 -1.9581568
-2.1716251 8.64645 -1.9546638
-2.1157494 8.6482372 -1.952044
-2.0633228 8.6639042 -1.9526989
-2.0061607 8.6592884 -1.9487693
-1.9529907 8.6714354 -1.9487693
-1.9101694 8.7309227 -1.959685
-1.8654757 8.784482 -1.9692907
-1.8019 8.7489271 -1.9585934
-1.7504741 8.7713032 -1.9612132
-1.6932917 8.7646313 -1.9572835
-1.64969 8.8295364 -1.9697274
-1.5923641 8.8222055 -1.9657978
-1.5428871 8.8587303 -1.9719106
-1.4854349 8.8497438 -1.9677626
-1.430795 8.8567648 -1.9673259
-1.3771719 8.8701992 -1.9684175
-1.3132368 8.8147764 -1.9540088
-1.266151 8.8719397 -1.9651428
-1.2093172 8.8621368 -1.9612132
-1.1554209 8.8732615 -1.9620864
-1.1038325 8.9034271 -1.9673259
-1.0463313 8.8858023 -1.9618682
-0.99243766 8.8978748 -1.963178
-0.9357807 8.8843861 -1.9588118
-0.8799997 8.8773355 -1.9559736
-0.82632446 8.8913136 -1.9579384
-0.77352136 8.9166336 -1.9625231
-0.71879536 8.9212122 -1.9625231
-0.66331953 8.9157228 -1.9603399
-0.60886639 8.9235191 -1.9612132
-0.55512685 8.9436455 -1.9649245
-0.49996746 8.9420118 -1.963833
-0.44523603 8.947835 -1.9644879
-0.39096063 8.965023 -1.9677626
-0.33383322 8.9106913 -1.9551004
-0.27963877 8.9281788 -1.9585934
-0.22453351 8.9170437 -1.9557554
-0.17016593 8.9367924 -1.9599034
-0.11551458 8.9523048 -1.963178
-0.060698692 8.9704103 -1.9671077
-0.0056385179 8.935482 -1.9592483
0.049144693 8.9275417 -1.9575019
0.10432414 8.9612255 -1.9651428
0.15979648 8.9877367 -1.9712557
0.21393241 8.9446363 -1.9618682
0.26778105 8.9090157 -1.9542271
0.32322016 8.9286604 -1.95903
0.37857911 8.9401588 -1.9620864
0.43380693 8.9454651 -1.963833
0.48777971 8.9260702 -1.9601216
0.54283661 8.9277792 -1.9612132
0.59714895 8.9174643 -1.959685
0.6512838 8.9058466 -1.9579384
0.70591682 8.9016829 -1.9579384
0.76060647 8.8981562 -1.9581568
0.81099761 8.8476477 -1.947896
0.86660278 8.856102 -1.9509524
0.91900516 8.8321753 -1.9468045
0.9776783 8.8671103 -1.9559736
1.0317284 8.858036 -1.9553187
1.0874885 8.863162 -1.9579384
1.1433504 8.8679371 -1.9605583
1.2007509 8.8829966 -1.9655795
1.2549598 8.8735294 -1.9651428
1.3058155 8.8415279 -1.959685
1.3621223 8.8468513 -1.9627414
1.4159163 8.8354368 -1.9620864
1.4654497 8.798667 -1.9557554
1.5162491 8.7712393 -1.9516073
1.5703843 8.7636919 -1.952044
1.6253747 8.7606077 -1.9535722
1.6849871 8.7811375 -1.9605583
1.7350373 8.7514887 -1.956192
1.7894859 8.7445021 -1.9570652
1.8451238 8.7429056 -1.9592483
1.8956221 8.7171164 -1.9559736
1.9490737 8.7053204 -1.9559736
2.0009177 8.6865406 -1.9544455
2.0571046 8.6864443 -1.9572835
2.1089799 8.6679697 -1.9559736
2.1505303 8.6084747 -1.9452763
2.2117963 8.6282024 -1.9529172
2.2594831 8.5946493 -1.9483327
2.3111603 8.5768547 -1.9474595
2.3559492 8.5342922 -1.94091
2.4085357 8.5206156 -1.9411284
2.4626713 8.5122385 -1.9426565
2.5126383 8.489481 -1.94091
2.5680754 8.4851122 -1.9435297
2.6071064 8.4272442 -1.9337057
2.6617084 8.420393 -1.9358888
2.7043262 8.3760433 -1.9293394
2.7730918 8.4121189 -1.9417833
2.8072207 8.343152 -1.9295577
2.8802335 8.3894539 -1.9446213
2.9048755 8.2951803 -1.9265013
2.9596586 8.288228 -1.9291211
3.0054495 8.2561579 -1.9258463
3.0747273 8.2878809 -1.9378536
3.1141326 8.2387362 -1.9306493
3.1527002 8.1885109 -1.9232266
3.2135746 8.1962662 -1.9297761
3.2442627 8.1274548 -1.9179871
3.296643 8.1137238 -1.9195153
3.3448737 8.089736 -1.918642
3.3857424 8.0483713 -1.9136208
3.4331424 8.0229597 -1.9125292
3.4951603 8.031271 -1.9197336
3.5317328 7.9811182 -1.9127476
3.5866449 7.9726467 -1.9160223
3.6428037 7.9664631 -1.9199519
3.6805091 7.9200683 -1.9140575
3.7286196 7.8964534 -1.9138391
3.782912 7.8857441 -1.9168955
3.8192542 7.837822 -1.9107827
3.8633776 7.8063688 -1.9088179
3.9107654 7.7816448 -1.9085996
3.9686434 7.7774935 -1.9136208
4.0023718 7.7261362 -1.9068531
4.0324397 7.6686125 -1.8985572
4.0927458 7.6686912 -1.9048883
4.1453013 7.6537309 -1.907508
4.1973567 7.6375585 -1.9099095
4.2346339 7.5946145 -1.9055432
4.2777896 7.5625429 -1.9040151
4.3221688 7.5327673 -1.9031417
4.3560333 7.4850206 -1.897684
4.4073362 7.4673953 -1.9000853
4.4550776 7.4435611 -1.9009587
4.503705 7.4210901 -1.9022685
4.5373902 7.3742018 -1.8972473
4.5861683 7.3520174 -1.8987755
4.6202378 7.3064194 -1.8941909
4.6691961 7.2845049 -1.8959374
4.7302895 7.2810845 -1.9027052
4.7383761 7.1965032 -1.8878598
4.8051977 7.2013845 -1.897029
4.8350792 7.1507478 -1.8913529
4.8672791 7.1040411 -1.8867682
4.883503 7.0347652 -1.8760709
4.9069223 6.9767327 -1.8684299
4.9734273 6.9798698 -1.8775991
5.0104489 6.9413104 -1.8754159
5.0627394 6.9238267 -1.8791273
5.0998993 6.8855748 -1.8771625
5.1285806 6.8362002 -1.8721412
5.159801 6.7906184 -1.8682116
5.2180381 6.7804828 -1.8743244
5.2763443 6.7698874 -1.8804371
5.311132 6.72896 -1.8780357
5.3486638 6.6916714 -1.8767258
5.4135714 6.6883063 -1.8852401
5.4025359 6.5915709 -1.8669018
5.4428797 6.5582976 -1.8669018
5.4924369 6.5359826 -1.8701764
5.531805 6.5014153 -1.8699582
5.5658593 6.4606972 -1.8679932
5.5803757 6.3977456 -1.8594791
5.6382623 6.3845949 -1.8658102
5.6903424 6.3644276 -1.8701764
5.7096367 6.3076901 -1.8636271
5.7370224 6.2603083 -1.8599157
5.7846203 6.235003 -1.862972
5.8180914 6.1944132 -1.8614439
5.8459015 6.1479907 -1.8581692
5.8821611 6.1105995 -1.8577325
5.9386172 6.0939589 -1.8638453
5.961503 6.0428185 -1.8592608
6.0053658 6.0130296 -1.8614439
6.0365968 5.9705791 -1.8596973
6.091269 5.9511557 -1.8653735
6.1410136 5.9265423 -1.8695215
6.1447663 5.85778 -1.8594791
6.1706452 5.8106017 -1.8564227
6.227622 5.7925658 -1.862972
6.2946706 5.7832913 -1.8725779
6.3177509 5.7334118 -1.8688666
6.3731608 5.7127748 -1.8749794
6.3978634 5.6645069 -1.871923
6.4464588 5.6373477 -1.8760709
6.4750185 5.5925846 -1.8743244
6.5151525 5.5578151 -1.8760709
6.5483856 5.5171056 -1.8758526
6.5671096 5.4643397 -1.8714863
6.6095634 5.4313755 -1.874106
6.6139674 5.3673544 -1.8658102
6.6673393 5.3431454 -1.8717046
6.6954069 5.298502 -1.8703947
6.7685504 5.2891612 -1.8819654
6.8078308 5.2528949 -1.8839302
6.8337231 5.2062936 -1.8821837
6.8452611 5.1490149 -1.8765075
6.8328476 5.0743399 -1.864282
6.8638544 5.0323186 -1.864282
6.930181 5.015851 -1.874106
6.959239 4.9720993 -1.8736694
7.0127459 4.945612 -1.8800006
7.0261383 4.8907838 -1.8754159
7.1018672 4.8790722 -1.8878598
7.1082449 4.8195252 -1.8815287
7.1320052 4.7720213 -1.8800006
7.1709251 4.734621 -1.8826203
7.1900282 4.6841412 -1.8800006
7.2301283 4.6473217 -1.8830569
7.2568588 4.6018257 -1.8826203
7.2948875 4.5634212 -1.8852401
7.322751 4.5185747 -1.8852401
7.3378329 4.4659495 -1.8819654
7.3358097 4.4032669 -1.8743244
7.3887253 4.3735785 -1.8810921
7.401093 4.3197989 -1.8773807
7.4376101 4.2801452 -1.8800006
7.4730697 4.2397242 -1.8824019
7.5253491 4.2085533 -1.8891697
7.5450478 4.1590023 -1.8876415
7.5652795 4.1098342 -1.8863317
7.5937963 4.0651789 -1.8872049
7.6229129 4.0207834 -1.8882965
7.6673584 3.9842815 -1.8933177
7.6647301 3.9233797 -1.8865499
7.7139316 3.8890128 -1.892881
7.7227888 3.8342323 -1.8891697
7.7742267 3.8004854 -1.8961557
7.7718973 3.7404425 -1.8898246
7.8185153 3.7039621 -1.8957192
7.8012915 3.6373668 -1.885895
7.8447518 3.5991945 -1.8911345
7.8640199 3.549788 -1.8904796
7.8901129 3.503448 -1.8915712
7.9293485 3.4627781 -1.8959374
7.8876739 3.3871136 -1.8806555
7.9128041 3.340549 -1.881747
8.0341101 3.3338115 -1.9061981
7.9513946 3.2424586 -1.8813105
8.0418024 3.2219083 -1.8983389
8.0087481 3.1517835 -1.8856767
8.0743628 3.1205187 -1.8968107
8.0714588 3.0626106 -1.8915712
8.0855255 3.0113251 -1.8904796
8.1286001 2.9706976 -1.8963741
8.1604548 2.925704 -1.8996488
8.1782532 2.8755772 -1.8996488
8.2095823 2.8301113 -1.9029235
8.22402 2.778748 -1.9022685
8.2474003 2.7303803 -1.9037967
8.2472878 2.6743078 -1.8998671
8.2626123 2.6233578 -1.8996488
8.2981243 2.5786889 -1.9042333
8.2689724 2.5141041 -1.8937542
8.3020163 2.4686015 -1.8979023
8.3320007 2.4219713 -1.9013953
8.3260517 2.364938 -1.8965924
8.3573332 2.3184993 -1.900522
8.3789377 2.2692158 -1.9022685
8.398365 2.2192562 -1.9035784
8.408989 2.1669528 -1.9029235
8.4429502 2.1205425 -1.9077264
8.4633856 2.0705519 -1.9094728
8.4673872 2.0165489 -1.907508
8.4757986 1.9636754 -1.9066348
8.4848318 1.910989 -1.9059799
8.4897242 1.857432 -1.9044516
8.5057344 1.806318 -1.9055432
8.5080547 1.7523233 -1.9035784
8.5215178 1.7006584 -1.9042333
8.5547886 1.6527791 -1.9094728
8.5331116 1.5943463 -1.9022685
8.5888329 1.5502725 -1.9127476
8.5626106 1.4913523 -1.90467
8.5667877 1.437978 -1.9035784
8.5793028 1.3860081 -1.9044516
5.9627004 0.92614168 -1.3102021
5.8341017 0.86956692 -1.2798566
5.8315988 0.83265114 -1.27811
5.8240275 0.79513979 -1.275272
5.7900882 0.75435394 -1.2665395
5.7907338 0.71833265 -1.2656661
5.7746792 0.68039387 -1.2610816
5.7671065 0.64365166 -1.2584618
5.7709475 0.60825324 -1.2584618
5.7580619 0.57119757 -1.2547505
5.7478542 0.53459346 -1.2516941
5.7490821 0.49914682 -1.2512574
5.7413363 0.46300098 -1.2488561
5.7333641 0.42696902 -1.2464546
5.7456121 0.39244479 -1.2486377
0 0 -0
0 0 -0
0 0 -0
0 0 -0
0 0 -0
0 0 -0
0 0 -0
0 0 -0
0 0 -0
0 0 -0
0 0 -0
0 -0 -0
0 -0 -0
0 -0 -0
0 -0 -0
0 -0 -0
0 -0 -0
0 -0 -0
0 -0 -0
0 -0 -0
0 -0 -0
0 -0 -0
0 -0 -0
0 -0 -0
0 -0 -0
0 -0 -0
0 -0 -0
0 -0 -0
8.6052132 -0.94876754 -1.897029
8.5963221 -1.0012112 -1.8963741
8.4069519 -1.0314527 -1.8551128
8.0539742 -1.0382985 -1.7769566
7.9014244 -1.067939 -1.7439911
7.7488198 -1.0957472 -1.7110258
7.6743731 -1.133283 -1.6957439
7.538033 -1.1604347 -1.6664898
7.6993947 -1.2337103 -1.7046947
7.7080441 -1.2836574 -1.7084061
7.7000222 -1.3309289 -1.7084061
7.6907506 -1.3779781 -1.7081877
7.6879072 -1.4262105 -1.7094977
7.6905122 -1.4755641 -1.7121174
7.6554685 -1.517597 -1.7062229
7.6278477 -1.5608218 -1.702075
7.6018953 -1.6041682 -1.6983637
7.5909557 -1.6505749 -1.6981454
7.5711622 -1.6949877 -1.6959622
7.5416002 -1.737028 -1.6915959
7.5051613 -1.7771944 -1.6857015
7.4277425 -1.8070537 -1.6704195
7.2782888 -1.8180454 -1.6385458
7.3454552 -1.8827931 -1.6566658
7.3951097 -1.9439645 -1.6708561
7.4103675 -1.9966702 -1.6771872
7.3885698 -2.0395038 -1.6750041
7.3674655 -2.0824106 -1.6730393
7.3554864 -2.1278486 -1.6732576
7.3469706 -2.1743264 -1.6743492
7.3390946 -2.2210624 -1.6756591
7.2721906 -2.2496059 -1.6632152
7.2824421 -2.3018353 -1.6688913
7.2588949 -2.3434768 -1.6667082
7.2249165 -2.3815536 -1.6621236
7.2046185 -2.4239721 -1.6608137
7.1739192 -2.4627442 -1.6571023
7.175251 -2.5125239 -1.6610321
7.1385622 -2.5489523 -1.6560109
7.1172862 -2.5907021 -1.6547009
7.1085749 -2.6370406 -1.6564474
7.0977373 -2.6826794 -1.6577573
7.0683937 -2.7212691 -1.6547009
7.0488381 -2.7635198 -1.6540459
7.0290298 -2.8056328 -1.653391
6.9990258 -2.843565 -1.6503347
6.982348 -2.8868296 -1.650553
6.9393177 -2.9190195 -1.6444402
6.9114079 -2.9573188 -1.6420387
6.8940268 -3.0000603 -1.6422571
6.8674579 -3.0387497 -1.6402923
6.8477931 -3.0804298 -1.6400739
6.8305383 -3.1232011 -1.6405106
6.8130159 -3.1658764 -1.6409472
6.7749319 -3.1988678 -1.6363626
6.748138 -3.2370002 -1.6346161
6.7246399 -3.2766347 -1.6337428
6.7149034 -3.3230302 -1.6363626
6.6900277 -3.3619781 -1.6352711
6.6501508 -3.3932033 -1.6304681
6.6179414 -3.4281068 -1.62763
6.5993733 -3.4700122 -1.6282851
6.582262 -3.5127378 -1.6293765
6.5520039 -3.5484111 -1.6271935
6.5044527 -3.5744429 -1.620644
6.4900684 -3.6185644 -1.6226088
6.4753871 -3.6626439 -1.6245737
6.4671803 -3.7105656 -1.6282851
6.454411 -3.7560692 -1.6309048
6.4295621 -3.7946098 -1.6304681
6.4002967 -3.8304803 -1.62894
6.367497 -3.8641093 -1.6265385
6.288816 -3.8693464 -1.6121298
6.3576832 -3.9657211 -1.6365809
6.2738495 -3.9670956 -1.6208624
6.3200402 -4.0508156 -1.6396374
6.385076 -4.1480117 -1.6636518
6.3700991 -4.1940899 -1.6664898
6.3531733 -4.2390566 -1.6688913
6.3011761 -4.2604637 -1.6619053
6.272501 -4.2973914 -1.6612504
6.2243719 -4.3207698 -1.6553559
6.2168984 -4.3723569 -1.6605954
6.2066417 -4.4223151 -1.66518
6.1698956 -4.4534597 -1.6625602
6.090467 -4.4532104 -1.6481515
6.0520501 -4.4823637 -1.6450951
6.0501909 -4.5387435 -1.6522995
6.0066891 -4.5639706 -1.6479332
5.9692926 -4.5935979 -1.6453135
5.9325285 -4.6235385 -1.642912
5.8971539 -4.6544104 -1.6409472
5.8456178 -4.6722245 -1.6343977
5.9010282 -4.7761664 -1.6586306
5.8451972 -4.7906299 -1.6509897
5.8059311 -4.8183017 -1.6481515
5.7725224 -4.8506961 -1.6470599
5.7218418 -4.8683143 -1.6409472
5.6556387 -4.8721156 -1.6302499
5.6271086 -4.9080095 -1.6306864
5.5939617 -4.9398603 -1.6298132
5.5744572 -4.983849 -1.6330879
5.5459423 -5.0199246 -1.6337428
5.5171943 -5.0558376 -1.6343977
5.4796305 -5.083621 -1.6324329
5.4504685 -5.1191521 -1.6330879
5.4062276 -5.1403933 -1.6291583
5.3724761 -5.1714377 -1.6285033
5.3406434 -5.2043056 -1.6285033
5.2808251 -5.209559 -1.6197708
5.2473798 -5.2404838 -1.6193341
5.200717 -5.2580099 -1.6147496
5.1826758 -5.3044829 -1.6193341
2.2574227 -2.3380852 -0.68735349
2.2430339 -2.3518922 -0.68735349
2.2305675 -2.3677428 -0.68800843
2.2126746 -2.3778114 -0.68691689
4.9917774 -5.4329343 -1.6108199
4.9655604 -5.4714112 -1.6132214
4.9325461 -5.5025029 -1.6134397
4.8695846 -5.4997816 -1.6036155
4.85887 -5.5560064 -1.6114749
4.8202229 -5.5805449 -1.6099466
4.7839909 -5.6077886 -1.6092917
4.7652092 -5.6556969 -1.6147496
4.6948438 -5.6420655 -1.6023057
4.6632338 -5.6745367 -1.6033973
4.6277127 -5.7022853 -1.603179
4.6011796 -5.7412353 -1.6062353
4.5658655 -5.7693596 -1.6062353
2.0203314 -2.5842631 -0.69412124
1.9925157 -2.581157 -0.68975496
1.9636321 -2.5762546 -0.68495208
1.947201 -2.5874748 -0.68473375
1.9312879 -2.5993738 -0.68473375
1.915302 -2.6111751 -0.68473375
1.7550839 -2.4236414 -0.62971872
1.7418813 -2.4367473 -0.63037366
4.2404637 -6.0125785 -1.6062353
4.2051635 -6.0408874 -1.6068903
4.1680183 -6.0665765 -1.6068903
4.1367393 -6.1009221 -1.6092917
4.0856624 -6.1059113 -1.6038339
4.0379062 -6.1153913 -1.5996859
4.0072303 -6.1506824 -1.602524
3.9899895 -6.2071733 -1.6110382
3.9356301 -6.2059879 -1.6042705
3.8866105 -6.2126446 -1.5996859
3.8555903 -6.248003 -1.6027423
3.8126154 -6.2640395 -1.6007775
3.7700913 -6.2806211 -1.599031
3.7294953 -6.3002763 -1.5981578
3.6720784 -6.2910118 -1.5898618
3.6358414 -6.3176546 -1.5909534
1.6683806 -2.9393198 -0.71638924
1.6479328 -2.9452426 -0.71529764
1.6312431 -2.9578629 -0.71595258
3.4941409 -6.4315643 -1.5977211
3.4389563 -6.4236288 -1.5902984
3.389008 -6.4247546 -1.5852772
3.3418748 -6.4307065 -1.5815659
3.3019094 -6.450222 -1.5813476
3.2596343 -6.4651318 -1.5800377
3.2272789 -6.4998713 -1.5837491
3.1916206 -6.5283189 -1.5859321
3.1413493 -6.5266738 -1.5806926
3.0999901 -6.54318 -1.5800377
3.0754497 -6.5956898 -1.5883336
3.0393965 -6.6241937 -1.5907351
2.9946802 -6.6338234 -1.5885519
2.9570868 -6.6592093 -1.5902984
2.9142189 -6.6727562 -1.5892068
2.8709111 -6.6851315 -1.5878969
2.8305967 -6.7044196 -1.5883336
2.7909014 -6.7252669 -1.5892068
2.7466366 -6.7350354 -1.5874604
2.7019942 -6.7436085 -1.5854956
2.660208 -6.7591524 -1.5852772
2.6165745 -6.769886 -1.5839673
2.5718713 -6.7776017 -1.5820025
2.5251293 -6.7795362 -1.5787278
2.4895105 -6.8114018 -1.5826575
2.458205 -6.8559465 -1.5896435
2.4076784 -6.8469634 -1.5839673
2.3770661 -6.8948226 -1.5918267
2.3403363 -6.9259205 -1.5957563
2.2981021 -6.9410768 -1.5959746
2.2485487 -6.9336953 -1.5909534
2.2036006 -6.9399204 -1.5892068
2.1630027 -6.9598341 -1.5907351
2.1063535 -6.9272232 -1.5800377
2.0679796 -6.9540486 -1.5833124
2.0228209 -6.9581723 -1.5813476
1.9867512 -6.9939227 -1.5868055
1.9479719 -7.021028 -1.5902984
1.8908314 -6.9810395 -1.5782912
1.8472133 -6.9896793 -1.5776362
1.8062378 -7.0084424 -1.5793828
1.7582114 -6.9995165 -1.5747982
1.7228788 -7.0414553 -1.5820025
1.679189 -7.0499954 -1.5815659
1.6264337 -7.0192847 -1.5721784
1.5775477 -7.0034266 -1.5662839
1.5401738 -7.0387154 -1.5721784
1.4961457 -7.0442147 -1.5713052
1.456633 -7.0714231 -1.5754532
1.41188 -7.0735288 -1.5739249
1.3658613 -7.068644 -1.5708685
1.3224632 -7.0768914 -1.5708685
1.2774564 -7.0762296 -1.5689037
1.2331768 -7.0791273 -1.5678121
1.1995634 -7.1452694 -1.5811293
1.1457456 -7.090837 -1.5671571
1.10057 -7.0871258 -1.5647558
1.0556266 -7.0840931 -1.5625726
1.0128284 -7.0952673 -1.5636642
0.96505535 -7.0704064 -1.5566782
0.92442346 -7.0974851 -1.561481
0.88037688 -7.0991497 -1.5606078
0.83737075 -7.1092639 -1.5616994
0.79297704 -7.1074791 -1.5601711
0.74833047 -7.1025057 -1.557988
0.70588988 -7.1186171 -1.5606078
0.66237795 -7.1247578 -1.5610445
0.61965936 -7.1403546 -1.5636642
0.57599181 -7.145968 -1.5641009
0.53372425 -7.1707778 -1.5689037
0.49011299 -7.1797595 -1.5702136
0.44484299 -7.1631513 -1.5658473
0.40180632 -7.1823101 -1.5695586
0.35729358 -7.1758685 -1.5675938
0.31346852 -7.1828003 -1.5686854
0.26917133 -7.1787376 -1.5673755
0.2255443 -7.1939096 -1.5704319
0.18174119 -7.2088161 -1.5734882
0.13715471 -7.191257 -1.5693403
0.092927687 -7.1841569 -1.5675938
0.048818871 -7.1806884 -1.5667206
0.004770318 -7.2052498 -1.5721784
-0.039506331 -7.2168536 -1.5747982
-0.083649538 -7.2047658 -1.5721784
-0.12775074 -7.1982627 -1.5708685
-0.1724087 -7.2178307 -1.5754532
-0.2158982 -7.1903005 -1.5695586
-0.26015472 -7.1927409 -1.5704319
-0.30457354 -7.1978345 -1.5719601
-0.34920684 -7.2055774 -1.5741432
-0.39351961 -7.2052479 -1.5745798
-0.43653572 -7.1832161 -1.5702136
-0.48060286 -7.1804023 -1.5702136
-0.52550757 -7.1889977 -1.5728333
-0.57192671 -7.2148223 -1.5793828
-0.61660147 -7.2160387 -1.5804744
-0.65578198 -7.1567273 -1.5680305
-0.7030133 -7.1865616 -1.5756714
-0.74729818 -7.1840539 -1.5761081
-0.79168588 -7.1822433 -1.576763
-0.84014845 -7.2150536 -1.5852772
-0.88071525 -7.1797361 -1.5785094
-0.92575198 -7.1819401 -1.580256
-0.96967125 -7.1751575 -1.5800377
-1.0127215 -7.1623087 -1.5785094
-1.057363 -7.1607871 -1.579601
-1.1036589 -7.1695962 -1.5830941
-1.1426846 -7.1318555 -1.5761081
-1.1939646 -7.1699519 -1.5863688
-1.2251267 -7.088448 -1.5695586
-1.277038 -7.1278644 -1.580256
-1.3301913 -7.1707473 -1.5918267
-1.3631235 -7.104948 -1.5787278
-1.4097314 -7.1117659 -1.5822208
-1.4617602 -7.1440916 -1.5916083
-1.5045598 -7.1302137 -1.5905167
-1.5433018 -7.0979624 -1.5852772
-1.5906651 -7.1055002 -1.5892068
-1.6318228 -7.085146 -1.5868055
-0.71313053 -3.0145769 -0.65329659
-0.73092175 -3.0072999 -0.65264165
-0.74675733 -2.9923441 -0.65024018
-1.7940569 -6.9994822 -1.576763
-1.8406948 -7.0024986 -1.5800377
-0.79535931 -2.954536 -0.64478236
-0.81087494 -2.9401937 -0.64259923
-0.82916594 -2.9361019 -0.64281756
-1.9981524 -6.9074092 -1.5689037
-2.0582309 -6.954905 -1.5828757
-2.1005838 -6.9412107 -1.5826575
-2.1388066 -6.9142075 -1.5793828
-1.086565 -3.4396472 -0.76725626
-2.240891 -6.9413013 -1.5920449
-2.2730479 -6.8959103 -1.5846223
-1.0964561 -3.2609091 -0.72992468
-1.0993259 -3.2042801 -0.71813571
-1.1138037 -3.1827385 -0.7146427
-2.4622803 -6.895947 -1.598376
-2.4985359 -6.8642035 -1.5944464
-1.1463927 -3.0921655 -0.69805086
-1.1888154 -3.1471436 -0.71289623
-1.221783 -3.1753058 -0.72141045
-1.2444503 -3.1759257 -0.72337526
-2.7220325 -6.8196764 -1.6029606
-2.7329595 -6.7269058 -1.5846223
-2.7730646 -6.7073045 -1.5839673
-1.2675089 -3.0149043 -0.6919381
-1.2794554 -2.9918189 -0.68822676
-1.2970098 -2.9821224 -0.68779016
-1.3129132 -2.9687541 -0.68648028
-2.9955268 -6.6591311 -1.5937915
-3.0521617 -6.6752357 -1.6023057
-3.0819554 -6.6324892 -1.5964112
-3.1567712 -6.6858101 -1.6143129
-1.9927603 -4.1553111 -0.99124599
-2.0212126 -4.1491461 -0.99277419
-2.0449011 -4.1331677 -0.99190092
-2.0776749 -4.135365 -0.99561226
-2.1163201 -4.1486144 -1.0021616
-2.1417358 -4.135551 -1.0021616
-2.1652534 -4.1188769 -1.0012884
-2.1923239 -4.1089568 -1.0021616
-2.2207489 -4.1014342 -1.0036899
-2.2515144 -4.0979929 -1.0063096
-2.2889764 -4.1062598 -1.0119858
-2.3203764 -4.103179 -1.0148239
-2.3455093 -4.0888638 -1.0148239
-2.369081 -4.0718651 -1.014169
-2.3984861 -4.064815 -1.0161338
-2.4474437 -4.0902119 -1.0266128
-2.4755332 -4.0801229 -1.0279226
-2.5041025 -4.0706739 -1.0294509
-2.5176671 -4.0370183 -1.024648
-2.5330002 -4.006649 -1.0207183
-2.5501626 -3.9795299 -1.0176619
-2.6122875 -4.0219049 -1.0331622
-2.6369162 -4.0058002 -1.0331622
-2.6213553 -3.9294806 -1.017007
-2.6361225 -3.8995802 -1.0132957
-2.6577935 -3.8801119 -1.0124224
-2.6787682 -3.8597231 -1.0113308
-2.7108235 -3.8551862 -1.0146055
-2.7587829 -3.8726518 -1.023993
-2.7870631 -3.8619807 -1.0257396
-2.8815694 -3.9416909 -1.0525922
-2.9312623 -3.9584372 -1.0621979
-2.9449522 -3.926327 -1.0582683
-2.9660358 -3.9042985 -1.0571767
-2.943505 -3.8257084 -1.0401483
-2.8829231 -3.699827 -1.0095843
-2.8777535 -3.6468351 -0.99954194
-2.933593 -3.6710305 -1.0115491
-2.9579051 -3.6552365 -1.0122041
-2.9635723 -3.6166422 -1.0063096
-3.0361977 -3.65921 -1.023993
-3.0328481 -3.6098833 -1.0150422
-3.0897281 -3.6320798 -1.0270494
-3.1202376 -3.6226637 -1.0298876
-3.1950159 -3.663748 -1.0477892
-3.2213125 -3.648463 -1.0490991
-3.2696602 -3.6577253 -1.0578316
-3.2907321 -3.6361475 -1.057395
-3.2496765 -3.5468276 -1.0364369
-3.3457267 -3.6069362 -1.0608881
-3.3571043 -3.5749598 -1.057395
-3.3910825 -3.5670216 -1.0613247
-3.4365964 -3.5707514 -1.0689657
-3.4672966 -3.5586822 -1.0718037
-3.5432179 -3.5922148 -1.0890505
-3.5024297 -3.5075803 -1.0691839
-3.4843318 -3.4469132 -1.05674
-3.4879632 -3.4084218 -1.0512823
-3.4877422 -3.3666284 -1.0447328
-3.4708927 -3.3094816 -1.0331622
-3.4456582 -3.2453117 -1.0191902
-3.4719379 -3.2300894 -1.021155
-3.489536 -3.2067449 -1.0205001
-3.5156512 -3.1911745 -1.0224649
-3.3963547 -3.0451491 -0.98076695
-3.4113216 -3.0210183 -0.97967541
-3.614203 -3.1612492 -1.0344721
-3.6615999 -3.1632493 -1.042768
-3.8442953 -3.2800362 -1.0907969
-3.8277755 -3.2255814 -1.0800996
-3.8024809 -3.1645887 -1.0670009
-3.7841244 -3.110224 -1.0560851
-3.5909417 -2.914794 -0.99495733
-3.8265762 -3.0672138 -1.057395
-3.8307829 -3.0321724 -1.0532471
-3.7370377 -2.9208968 -1.0213733
-3.7881157 -2.9235418 -1.0307608
-3.8510108 -2.9345384 -1.0434229
-3.7441511 -2.8170104 -1.0084928
-3.7958415 -2.8195796 -1.0180986
-3.7926061 -2.7812362 -1.0124224
-3.7874627 -2.741895 -1.0063096
-3.7891271 -2.7078271 -1.0021616
-3.8311932 -2.7025206 -1.0091478
-3.8741372 -2.6973567 -1.0163521
-3.9155519 -2.6906619 -1.0231198
-3.9174473 -2.6567302 -1.0191902
-3.9523313 -2.6451223 -1.0242114
-4.02387 -2.6573775 -1.0390567
-3.9509661 -2.5745862 -1.0152605
-4.0118437 -2.5793104 -1.0272677
-4.0308914 -2.5567358 -1.028141
-4.042366 -2.5293672 -1.0270494
-4.0935245 -2.5265474 -1.0364369
-4.062263 -2.4729767 -1.0242114
-4.0848918 -2.4525235 -1.0261762
-4.1007028 -2.4279099 -1.0263945
-4.0860224 -2.3854892 -1.0187535
-4.1081953 -2.3647528 -1.0207183
-4.1345119 -2.3462408 -1.0237747
-4.153089 -2.3232088 -1.0248663
-4.1672659 -2.2976823 -1.0248663
-4.1547012 -2.2576315 -1.0180986
-4.1375003 -2.2155199 -1.0102392
-4.1501536 -2.1896358 -1.010021
-4.1479225 -2.1560321 -1.0060914
-4.1697612 -2.1349857 -1.0082744
-4.1862683 -2.1111171 -1.0091478
-4.1930242 -2.0823541 -1.0076195
-4.1873102 -2.0475891 -1.0030349
-4.2217798 -2.0324347 -1.0084928
-4.2438731 -2.0110867 -1.0108942
-4.2835531 -1.9977891 -1.0176619
-4.3205676 -1.9828594 -1.0237747
-4.3371005 -1.9583185 -1.0248663
-4.4114718 -1.9593836 -1.0401483
-4.3947916 -1.9197845 -1.0331622
-4.4307003 -1.9031758 -1.0390567
-4.4243131 -1.8683652 -1.0346904
-4.5700035 -1.8968947 -1.0672191
-4.5372758 -1.8507681 -1.0565218
-4.6418571 -1.860263 -1.0790081
-4.6849689 -1.8442497 -1.0866491
-4.7453537 -1.8344588 -1.0984379
-4.675312 -1.7745064 -1.0790081
-4.7098908 -1.7546381 -1.0846843
-4.7334013 -1.7303938 -1.0877405
-4.7852697 -1.7161326 -1.0975647
-4.7671685 -1.6767075 -1.0907969
-4.8262668 -1.6642752 -1.1023676
-4.9695263 -1.6795957 -1.1338048
-5.3392091 -1.7680248 -1.2185104
-5.3750219 -1.7433548 -1.2244049
-5.3744559 -1.7067993 -1.2217852
-5.5982456 -1.7400799 -1.2717789
-5.565866 -1.6926444 -1.2617365
-5.7024312 -1.6959932 -1.2912089
-5.835494 -1.6966394 -1.3198079
-6.2297559 -1.7698067 -1.4090981
-6.2395573 -1.7312876 -1.4088799
-6.3725204 -1.7261168 -1.4372606
-6.6415181 -1.7552617 -1.4970785
-6.7769079 -1.7466055 -1.525896
-6.8925605 -1.7313632 -1.5501287
-6.9836302 -1.7087401 -1.5686854
-7.2996769 -1.7386167 -1.6389824
-7.6115875 -1.7635758 -1.7081877
-7.7365127 -1.7425539 -1.7343854
-7.850975 -1.7177716 -1.7581816
-8.075201 -1.7149479 -1.8070838
-8.4621744 -1.74288 -1.8930993
-8.6421032 -1.7247074 -1.9317409
-8.6831856 -1.6775676 -1.9387269
-8.7172976 -1.6287346 -1.9441848
-8.7011976 -1.5705388 -1.9382902
-8.7270145 -1.5199641 -1.9420016
-8.7891102 -1.4752656 -1.9540088
-8.7960701 -1.4209979 -1.9535722
-8.7496557 -1.3584725 -1.9411284
-8.7414179 -1.3023175 -1.937417
-8.7511759 -1.2489321 -1.9378536
-8.803154 -1.2012762 -1.947896
-8.7890692 -1.1444689 -1.9430932
-8.7639656 -1.0865606 -1.9358888
-8.8014822 -1.0364134 -1.9428748
-8.7970076 -0.98120046 -1.9404734
-8.7873335 -0.92557102 -1.9369804
-8.7763386 -0.87000114 -1.933269
-8.7892847 -0.81685561 -1.9350156
-8.8232985 -0.76543665 -1.9415649
-8.8142109 -0.71018803 -1.9385086
-8.8145103 -0.65580255 -1.9376353
-8.8125257 -0.60130757 -1.9363254
-8.8131275 -0.54704261 -1.9356705
-8.8192415 -0.49311903 -1.9363254
-8.7948103 -0.43764144 -1.9302126
-8.80513 -0.38400838 -1.9319592
-8.8258486 -0.33066568 -1.9361072
-8.7662611 -0.27458832 -1.9223534
-8.8458271 -0.22274949 -1.9398185
-8.7914124 -0.16741653 -1.9273746
-8.8322811 -0.11398137 -1.9363254
-8.8006115 -0.059571601 -1.9291211
-8.7754383 -0.0055582104 -1.923445
-8.7928724 0.04838594 -1.9273746
-8.8304672 0.10278503 -1.9358888
-8.854063 0.15740265 -1.9413466
-8.8178091 0.21088265 -1.9334874
-8.8348827 0.26554319 -1.9376353
-8.848691 0.32031491 -1.9411284
-8.8241339 0.37365091 -1.9361072
-8.8051043 0.42698205 -1.9323958
-8.7993956 0.48084098 -1.9317409
-8.7953053 0.53476465 -1.9315225
-8.781148 0.58800292 -1.9291211
-8.3639784 -0.20985664 -1.9301746
-8.3213139 -0.15770024 -1.9198606
-8.3571644 -0.1070893 -1.9281118
-8.3401432 -0.055690859 -1.9239862
-8.3695297 -0.0045328541 -1.9308622
-8.3314381 0.04661113 -1.9219234
-8.357275 0.098038033 -1.9281118
-8.3672218 0.14950624 -1.9306331
-8.3408461 0.20023754 -1.9246738
-8.3511362 0.25176367 -1.9274242
-8.3455429 0.30285951 -1.9265074
-8.2686443 0.35088697 -1.908859
-8.3178644 0.40411684 -1.9210066
-8.3055086 0.45461515 -1.9187146
-8.3190804 0.5065732 -1.922611
-8.2721109 0.55468017 -1.912297
-8.304471 0.6080547 -1.9207774
-8.234601 0.65376323 -1.9051918
-8.2837753 0.7088393 -1.9177978
-8.3141661 0.76285434 -1.926049
-8.2618599 0.80920768 -1.9148182
-8.2528667 0.85948318 -1.9139014
-8.2406645 0.90935862 -1.912297
-8.2552338 0.96227098 -1.9171102
-8.233716 1.0110086 -1.913443
-8.2167377 1.0601412 -1.9109218
-8.2428751 1.1149728 -1.9187146
-8.2329874 1.1651201 -1.918027
-8.22472 1.2154726 -1.9177978
-8.239234 1.2693233 -1.9230694
-8.2063017 1.3158488 -1.9171102
-8.1913528 1.3650572 -1.9155058
-8.1981688 1.4179463 -1.919173
-8.1567383 1.4623839 -1.9113802
-8.1744089 1.5173781 -1.9177978
-8.14009 1.5627364 -1.9118385
-8.1379862 1.6141684 -1.9136722
-8.1079035 1.6599728 -1.908859
-8.088994 1.7078813 -1.9067962
-8.0926294 1.7605854 -1.9102342
-8.0731249 1.8082933 -1.9081714
-8.0903339 1.864351 -1.9150474
-8.0635872 1.9103677 -1.9113802
-8.0715752 1.9646423 -1.9161934
-8.0168724 2.0035136 -1.9058794
-7.9865136 2.0480733 -1.9015245
-8.0039206 2.10496 -1.908859
-7.9917941 2.1542847 -1.9090881
-7.9737339 2.2019856 -1.9079422
-7.9600725 2.25087 -1.9079422
-7.9376965 2.2972348 -1.9058794
-7.9206514 2.3450675 -1.9051918
-7.8958654 2.3905215 -1.9026706
-7.9108052 2.4481316 -1.910005
-7.8733602 2.4895833 -1.9045042
-7.8421893 2.5327616 -1.9006078
-7.8348207 2.5835757 -1.9026706
-7.836349 2.6374993 -1.9070253
-7.8052883 2.6804748 -1.9033582
-7.7859383 2.7273514 -1.9026706
-7.8066406 2.7884963 -1.9120678
-7.7546272 2.8236904 -1.9033582
-7.7216415 2.8654625 -1.8994617
-7.7248554 2.9207044 -1.9047334
-7.6858964 2.9600031 -1.8994617
-7.6594338 3.0039091 -1.8973989
-7.6318178 3.047241 -1.8951069
-7.6319137 3.1017067 -1.8999202
-7.6109395 3.147733 -1.8994617
-7.5690517 3.1849368 -1.8937317
-7.5824771 3.2454896 -1.9022121
-7.5642056 3.2927308 -1.9026706
-7.5144858 3.3260822 -1.8951069
-7.5125771 3.3805146 -1.8999202
-7.4793005 3.4208798 -1.8967113
-7.4590521 3.4671178 -1.8969406
-7.4411588 3.514483 -1.8978573
-7.4361286 3.5680747 -1.9022121
-7.4385953 3.6255748 -1.9086298
-7.3778248 3.6521504 -1.8985449
-7.3196192 3.6794288 -1.8891478
-7.3064418 3.7291389 -1.8916689
-7.2860155 3.7752435 -1.8923565
-7.28339 3.8307521 -1.8978573
-7.2649002 3.8781199 -1.8992325
-7.2238503 3.9133515 -1.8946486
-7.1860538 3.9501011 -1.8909813
-7.1616812 3.9941196 -1.8909813
-7.1505942 4.0456562 -1.8946486
-7.1247916 4.0889707 -1.8944193
-7.0827427 4.122818 -1.8898354
-7.0564742 4.1657043 -1.8896061
-7.0182533 4.2014246 -1.8861681
-6.9965019 4.2469339 -1.8873142
-7.0001554 4.3081489 -1.8955654
-6.9471622 4.3345327 -1.8882309
-6.9377112 4.3880038 -1.8930441
-6.9041009 4.4262881 -1.8912106
-6.8613033 4.4584913 -1.8868557
-6.8313785 4.4989014 -1.8861681
-6.8044548 4.5412736 -1.8863974
-6.7853317 4.5889373 -1.8889185
-6.7634702 4.6348867 -1.8907522
-6.7405009 4.6801848 -1.8923565
-6.7028995 4.7152958 -1.8898354
-6.6579866 4.7450376 -1.8852513
-6.6484766 4.8000441 -1.8909813
-6.6196847 4.8413229 -1.8912106
-6.5867257 4.8795319 -1.8902937
-6.5512114 4.9157658 -1.8886894
-6.5286756 4.9617605 -1.8909813
-6.4942508 4.9987578 -1.8898354
-6.4534764 5.0307322 -1.8868557
-6.4285994 5.0750604 -1.8886894
-6.3935366 5.111371 -1.8875433
-6.3665929 5.1541791 -1.8889185
-6.3378587 5.1956153 -1.8898354
-6.311852 5.2393789 -1.8916689
-6.2698975 5.2698679 -1.8886894
-6.2352204 5.3063478 -1.8880018
-6.2054935 5.3470478 -1.8889185
-6.1879716 5.3984604 -1.8937317
-6.1306548 5.4150639 -1.8861681
-6.1169047 5.4700971 -1.8923565
-6.0550828 5.4820495 -1.8834177
-6.0191789 5.5171266 -1.8827301
-5.9702287 5.5400524 -1.8779169
-5.957407 5.5965738 -1.8847929
-5.9166069 5.6269855 -1.8827301
-5.8777614 5.6591325 -1.8813549
-5.8540802 5.7059612 -1.8850222
-5.8224235 5.7451921 -1.8861681
-5.8022132 5.7959428 -1.8912106
-5.747376 5.812057 -1.8847929
-5.7143264 5.849998 -1.8857098
-5.6776481 5.8842497 -1.8854805
-5.6360631 5.9133401 -1.883647
-5.6003408 5.9485197 -1.8838761
-5.5803084 6.0005894 -1.8896061
-5.5407505 6.0318494 -1.8886894
-5.4885912 6.0491538 -1.8834177
-5.4409761 6.0711203 -1.8797505
-5.4139452 6.1160522 -1.8834177
-5.3801603 6.1535525 -1.8847929
-5.3550262 6.2011824 -1.889377
-5.3149805 6.2317019 -1.8886894
-5.2753892 6.2627077 -1.8882309
-5.2480683 6.3084278 -1.8923565
-5.20679 6.3375025 -1.8914398
-5.170259 6.3723545 -1.8923565
-5.1249752 6.3963628 -1.8900646
-5.0807991 6.4215822 -1.8882309
-5.0484934 6.4618406 -1.8909813
-5.0218301 6.5096507 -1.8960238
-4.9871016 6.5473104 -1.8980865
-4.95327 6.5863442 -1.9006078
-4.9098625 6.6127057 -1.8994617
-4.8714972 6.6458473 -1.9003786
-4.8414698 6.6905956 -1.9047334
-4.7827859 6.6956234 -1.8976282
-4.7533922 6.7415495 -1.9024414
-4.6924753 6.7426267 -1.8944193
-4.6603842 6.7849317 -1.8983158
-4.6213961 6.8174276 -1.8994617
-4.5859733 6.8553638 -1.9022121
-4.5325613 6.8663154 -1.8973989
-4.5046897 6.9160185 -1.9035873
-4.4537487 6.9304271 -1.8999202
-4.4267778 6.982286 -1.9067962
-4.4008861 7.0365496 -1.9143598
-4.3295164 7.017859 -1.9017538
-4.2954826 7.0592594 -1.9058794
-4.2706203 7.116363 -1.9143598
-4.2308412 7.1491346 -1.9161934
-4.1653075 7.13797 -1.9061086
-4.1403646 7.1962967 -1.9150474
-4.099493 7.2274928 -1.9166518
-4.0389161 7.2236252 -1.908859
-4.0119014 7.2798128 -1.9173394
-3.9666929 7.3034372 -1.9171102
-3.9158337 7.3164825 -1.9141306
-3.8763158 7.3507037 -1.916881
-3.8279982 7.3683038 -1.9152766
-3.7915847 7.4089828 -1.9198606
-3.7565684 7.4529686 -1.9253614
-3.6826344 7.4192071 -1.9104633
-3.6481555 7.4644008 -1.9164226
-3.6001756 7.4822593 -1.9152766
-3.5479472 7.4910135 -1.9118385
-3.5191903 7.5496955 -1.921465
-3.4618418 7.5472593 -1.9152766
