# .PCD v0.7 - Point Cloud Data file format
VERSION 0.7
FIELDS x y z
SIZE 4 4 4
TYPE F F F
COUNT 1 1 1
WIDTH 1607
HEIGHT 1
VIEWPOINT 0 0 0 1 0 0 0
POINTS 1607
DATA ascii
4.8081908 2.9268255 -1.9075578
4.8179564 2.8924057 -1.9042857
4.8307338 2.8599017 -1.9023223
4.8751245 2.8459225 -1.9131205
4.8736563 2.8051178 -1.9055945
4.8735151 2.7653711 -1.8987229
4.9044132 2.7432549 -1.9042857
4.9261189 2.7158465 -1.9062489
4.9559765 2.6927848 -1.9114844
4.9540768 2.6525159 -1.9042857
4.9710946 2.622509 -1.9046128
4.9887695 2.5928288 -1.9052672
5.0104737 2.5651827 -1.9075578
5.0311818 2.5369425 -1.9095211
5.0542717 2.5098047 -1.912466
5.0670295 2.4775004 -1.9114844
5.0821357 2.446363 -1.9114844
5.0936341 2.4135158 -1.9101756
5.107491 2.3818173 -1.9098483
5.1280217 2.3531909 -1.9121388
5.144948 2.3228476 -1.9131205
5.1565132 2.2900851 -1.9121388
5.1696014 2.2580242 -1.9118116
5.1859641 2.2273798 -1.9127933
5.1951804 2.1936803 -1.9111573
5.2111616 2.1628482 -1.9121388
5.2313347 2.1336858 -1.9147565
5.2478371 2.1029522 -1.9160655
5.2650385 2.0724421 -1.9177016
5.2750115 2.0390759 -1.9167199
5.2918415 2.0083461 -1.9183559
5.3040648 1.9758382 -1.9183559
5.3134255 1.9422832 -1.9173744
5.3225746 1.9086876 -1.9163927
5.3377519 1.8772463 -1.9177016
5.3455963 1.8432277 -1.9163927
5.3577008 1.8106954 -1.9167199
5.3776813 1.7807558 -1.9199921
5.3983946 1.7509303 -1.9235915
5.4036322 1.7160584 -1.9216281
5.4149623 1.6831503 -1.9219553
5.4324212 1.6520911 -1.9245732
5.4406443 1.6181889 -1.9239187
5.4423041 1.5824025 -1.9209738
5.4491839 1.5482051 -1.9199921
5.4576707 1.514488 -1.9196649
5.4686847 1.4814656 -1.9203193
5.4740171 1.4469173 -1.9190104
5.4855375 1.4140092 -1.9199921
5.4931941 1.3800939 -1.9196649
5.5015588 1.3463622 -1.9196649
5.5262632 1.3165184 -1.9255548
5.5305548 1.2817324 -1.924246
5.5355496 1.247151 -1.9232643
5.5523291 1.2151804 -1.9265364
5.5541348 1.1799121 -1.9245732
5.5649719 1.1465724 -1.925882
5.5746827 1.1129591 -1.9268637
5.5786233 1.0781952 -1.925882
5.5888495 1.0446389 -1.9271909
5.597014 1.0106621 -1.9278454
5.6077647 0.97711056 -1.9294814
5.6145864 0.94283986 -1.9298086
5.6249304 0.90912455 -1.9314448
5.6266675 0.87401408 -1.9301358
5.6450095 0.84142077 -1.9347169
5.6135821 0.80156583 -1.9219553
5.6455474 0.77080804 -1.9314448
5.6492333 0.73603123 -1.9311175
5.6583323 0.70193505 -1.9327536
5.6587787 0.6667614 -1.9314448
5.6637025 0.63213187 -1.9317719
5.6665349 0.59726924 -1.9314448
5.6653914 0.56202334 -1.9298086
5.6696739 0.52733791 -1.9301358
5.6718616 0.49245796 -1.9298086
5.6813698 0.45817718 -1.9320991
5.6982098 0.42435813 -1.9370074
5.6941066 0.38893718 -1.9347169
0 0 -0
0 0 -0
0 0 -0
0 0 -0
0 0 -0
0 0 -0
0 0 -0
0 0 -0
0 0 -0
0 0 -0
0 0 -0
0 -0 -0
0 -0 -0
0 -0 -0
0 -0 -0
0 -0 -0
0 -0 -0
0 -0 -0
0 -0 -0
0 -0 -0
0 -0 -0
0 -0 -0
0 -0 -0
0 -0 -0
0 -0 -0
0 -0 -0
0 -0 -0
0 -0 -0
0 -0 -0
0 -0 -0
0 -0 -0
0 -0 -0
0 -0 -0
0 -0 -0
0 -0 -0
0 -0 -0
0 -0 -0
0 -0 -0
5.6528988 -0.97677732 -1.9448607
5.6430783 -1.0107772 -1.9435518
0 -0 -0
0 -0 -0
5.587369 -1.1073052 -1.9307903
5.5360341 -1.1324685 -1.9150838
5.4069395 -1.1406431 -1.871891
5.3278179 -1.1581266 -1.8463681
5.1813755 -1.1596026 -1.7969582
5.1474595 -1.1852185 -1.7874688
5.0738873 -1.2010932 -1.7639091
5.0498953 -1.2281802 -1.7580192
4.9863429 -1.2451648 -1.7380589
4.9365039 -1.2649378 -1.723007
4.8984923 -1.2872714 -1.7122087
4.867692 -1.3111542 -1.7040282
4.8978109 -1.3515632 -1.7177714
4.8485079 -1.3700181 -1.7030466
4.8427334 -1.4005305 -1.7040282
4.8449216 -1.4334381 -1.7079549
4.8405566 -1.4645082 -1.7095909
4.8296742 -1.4936229 -1.7089366
4.8276262 -1.5255085 -1.7115543
4.8082838 -1.5519067 -1.7079549
4.8031583 -1.5828604 -1.7095909
4.8067889 -1.6168242 -1.7144992
4.7780099 -1.6398416 -1.7076277
4.7535892 -1.6641291 -1.7023922
4.7468486 -1.6945368 -1.703701
4.7310343 -1.721691 -1.7017378
4.7256966 -1.7526604 -1.703701
4.7157373 -1.781958 -1.7040282
4.7258778 -1.819011 -1.7118815
4.6961536 -1.8407283 -1.7050099
4.678628 -1.8670557 -1.7027194
4.6635823 -1.8943048 -1.7014105
4.6483784 -1.9214395 -1.7001016
4.6269207 -1.9458935 -1.6965022
4.6218433 -1.9772221 -1.69912
4.6078916 -2.0047896 -1.6984656
4.5885911 -2.0299654 -1.6958479
4.5769105 -2.05847 -1.696175
4.5556006 -2.0825839 -1.6929028
4.5238853 -2.1017339 -1.6857041
4.5117583 -2.1298559 -1.6860313
4.4934931 -2.1550465 -1.684068
4.4682937 -2.1767809 -1.6794869
4.4573936 -2.2054145 -1.6804686
4.445466 -2.233572 -1.681123
4.4426188 -2.2663918 -1.6853769
4.411849 -2.2849131 -1.6788325
4.4002552 -2.3132606 -1.6798141
4.3926473 -2.3437765 -1.6824319
4.3565812 -2.3589818 -1.6739242
4.3411965 -2.3852136 -1.673597
4.3264794 -2.4118059 -1.673597
4.3058429 -2.4350498 -1.6713065
4.285903 -2.4586017 -1.6693431
4.2829866 -2.4919844 -1.6742514
4.2733111 -2.5215802 -1.6765419
4.2512727 -2.5438702 -1.6739242
4.2371993 -2.5708883 -1.6745787
4.2245641 -2.59882 -1.6758876
4.2181582 -2.6306953 -1.6798141
4.2155137 -2.6651156 -1.6853769
4.1919222 -2.6863408 -1.6824319
4.1539669 -2.6981089 -1.673597
4.1617975 -2.7396591 -1.6837407
4.1323338 -2.7567503 -1.6785053
4.1270814 -2.789995 -1.6834135
4.1036491 -2.8109922 -1.6807958
4.0855479 -2.8355799 -1.6804686
4.0696177 -2.8616824 -1.681123
4.0573688 -2.8904383 -1.6834135
4.0418553 -2.916939 -1.6843952
4.0048132 -2.927738 -1.6762147
3.9776626 -2.9455056 -1.6722882
3.9617817 -2.9715583 -1.6732697
3.9509971 -3.0015292 -1.6765419
3.9377472 -3.0297506 -1.6788325
3.9257901 -3.0590839 -1.6817775
3.9002709 -3.0778446 -1.6788325
3.8754079 -3.0969975 -1.6762147
3.8607388 -3.1242859 -1.6781781
3.849534 -3.1545062 -1.6817775
3.8330142 -3.1804814 -1.6830863
3.8119802 -3.2027245 -1.6824319
3.7900982 -3.2242167 -1.6814502
3.7680957 -3.2455611 -1.6804686
3.7409902 -3.2624083 -1.6771964
3.7216101 -3.2859268 -1.6775236
3.7105348 -3.3168893 -1.6817775
2.4257476 -2.1947956 -1.0911491
2.4073589 -2.2051687 -1.0888586
2.3910124 -2.2173274 -1.0875497
3.6183751 -3.397893 -1.6771964
3.5776014 -3.4011452 -1.6677071
3.5593879 -3.4256546 -1.669016
3.5558946 -3.4645793 -1.6775236
3.5285161 -3.4803591 -1.6745787
3.510437 -3.5052834 -1.6762147
3.4622867 -3.4998798 -1.663126
3.4381056 -3.5183542 -1.6618172
3.4387603 -3.562505 -1.6729425
3.4070578 -3.573277 -1.6680343
3.3915455 -3.6009953 -1.6713065
3.3455775 -3.5961337 -1.6591994
3.3387904 -3.6332965 -1.6670526
3.3221486 -3.6600132 -1.6699976
3.2920611 -3.6718838 -1.6660709
3.2744792 -3.6976752 -1.6686888
3.2554607 -3.7219658 -1.670652
3.2375026 -3.7475927 -1.6732697
3.2168994 -3.770263 -1.6745787
3.1961401 -3.7928214 -1.6758876
3.1758292 -3.8159935 -1.6775236
3.1433573 -3.8244557 -1.6726153
3.1287618 -3.8546784 -1.6775236
3.0908711 -3.8561046 -1.6696703
3.0554264 -3.8601758 -1.663126
2.0008469 -2.5593216 -1.0832959
1.9827969 -2.5685577 -1.081987
1.9652815 -2.5784202 -1.0810053
1.946584 -2.5866542 -1.0793693
1.9295493 -2.5970323 -1.0787148
1.9146951 -2.610347 -1.0793693
1.8831322 -2.6006105 -1.0702072
1.6694186 -2.3352952 -0.95240873
1.6517911 -2.3408608 -0.95044547
0 -0 -0
2.7538855 -4.0076051 -1.6421841
2.7446189 -4.0471106 -1.6516734
2.7260392 -4.0733004 -1.6556001
2.6999536 -4.0883732 -1.6549456
2.6773953 -4.1088219 -1.6565816
2.648047 -4.118813 -1.6539639
2.6201949 -4.1309929 -1.6523279
2.5952992 -4.1477938 -1.652655
2.5747612 -4.1716824 -1.6559272
2.5564833 -4.1995115 -1.6608355
2.520457 -4.198103 -1.6539639
2.5110123 -4.2411394 -1.6650894
2.483037 -4.253202 -1.6637805
2.4597204 -4.273272 -1.6657438
2.4348524 -4.29075 -1.6667254
2.4070954 -4.3031349 -1.6657438
2.3820148 -4.3203063 -1.6667254
2.3541081 -4.3323493 -1.6657438
2.327481 -4.3467126 -1.6657438
2.3042922 -4.3675985 -1.6683615
2.2765787 -4.3799782 -1.6677071
2.2483695 -4.3913412 -1.6667254
2.2205317 -4.4033666 -1.6660709
2.1968322 -4.4236798 -1.6686888
2.1671581 -4.431982 -1.6667254
2.1423814 -4.4503055 -1.6686888
2.1142256 -4.461659 -1.6680343
1.4277328 -3.0604885 -1.1277976
1.4164119 -3.0855107 -1.1340147
1.3982302 -3.0958662 -1.1346691
0 -0 -0
1.9737238 -4.5183506 -1.6657438
1.9504354 -4.5407963 -1.6696703
1.9240065 -4.5561604 -1.6709793
1.8876868 -4.5478053 -1.6634532
1.8665237 -4.5759277 -1.6696703
1.8341954 -4.5767679 -1.6657438
1.8064243 -4.5888157 -1.6660709
1.7778933 -4.5989318 -1.6657438
1.751652 -4.6150551 -1.6677071
1.7200048 -4.6168609 -1.6644349
1.6903468 -4.6237774 -1.663126
1.6702327 -4.6571903 -1.6716337
1.6228256 -4.6138616 -1.6520007
1.5932536 -4.6201587 -1.6506917
1.5715268 -4.6495433 -1.6578906
1.5370309 -4.6411567 -1.6513462
1.5117292 -4.660388 -1.6549456
1.4848201 -4.6749802 -1.6569089
1.4583495 -4.6912222 -1.6595266
1.4270644 -4.6919451 -1.6565816
1.3987867 -4.702425 -1.6572361
1.3741251 -4.7254381 -1.6624717
1.3456206 -4.7355986 -1.663126
1.3215879 -4.7619777 -1.6696703
1.2896283 -4.759964 -1.6660709
1.2587084 -4.7613921 -1.6637805
1.2299407 -4.7708559 -1.6644349
1.2029448 -4.787478 -1.6677071
1.1755667 -4.80303 -1.670652
1.1484804 -4.8202648 -1.6742514
0.71943021 -3.1020277 -1.0610451
0.69727045 -3.0925553 -1.0561368
0.68009835 -3.1050837 -1.0590818
0.65691346 -3.0897865 -1.0522102
0.63832355 -3.0956104 -1.0528647
0.61543608 -3.080008 -1.0459931
0.59437639 -3.0725925 -1.0420665
0.5763793 -3.0808263 -1.0437026
0.55746484 -3.0843048 -1.0437026
0.53820539 -3.0858054 -1.0430481
0.52019894 -3.0946412 -1.0450114
0.50270659 -3.1071036 -1.0482836
0.48088005 -3.0923879 -1.0420665
0.46217471 -3.0971496 -1.0427209
0.44222859 -3.0933785 -1.0404304
0.423112 -3.0950975 -1.0401032
0.3991152 -3.0592163 -1.0266873
0.38242725 -3.0784876 -1.0325772
0.36242694 -3.0713916 -1.029305
0.34482992 -3.0848272 -1.0332316
0.32549983 -3.0831258 -1.0319227
0.30722767 -3.0916476 -1.0342132
0.29104617 -3.1235836 -1.0446842
0.27399495 -3.1497874 -1.0531919
0.2569361 -3.1796665 -1.0630084
0.30383947 -4.0754766 -1.3735381
0.21731953 -3.1740952 -1.0600635
0.19719696 -3.1649945 -1.0564641
0.17756268 -3.1623709 -1.0551552
0.1583896 -3.1681199 -1.0567913
0.1379212 -3.1454306 -1.0486108
0.11805452 -3.131109 -1.0433754
0.098309897 -3.1147735 -1.0374854
0.078935847 -3.1049271 -1.033886
0.059686348 -3.0949602 -1.0302867
0.040839743 -3.1066067 -1.0342132
0.03382618 -4.9220057 -1.6627988
0.0027100325 -3.0993145 -1.0315955
-0.016179278 -3.0765944 -1.0237422
-0.035223432 -3.0906103 -1.0286505
-0.054203317 -3.0912809 -1.0289778
-0.073306337 -3.0965581 -1.030941
-0.093303002 -3.1291082 -1.0423937
-0.11658364 -3.2408516 -1.0813326
-0.13009092 -3.0899637 -1.029305
-0.14840563 -3.0758936 -1.0247239
-0.1681031 -3.0900216 -1.0299594
-0.18665765 -3.0823298 -1.0276688
-0.2055037 -3.0801835 -1.0273416
-0.22329481 -3.0637858 -1.0221062
-0.24216446 -3.0632999 -1.0224334
-0.26127836 -3.0655224 -1.0237422
-0.28060141 -3.0695076 -1.0257056
-0.30025962 -3.0761919 -1.0286505
-0.31912911 -3.0742917 -1.0286505
-0.33891976 -3.080729 -1.0315955
-0.3571597 -3.0729599 -1.0296322
-0.3753171 -3.065083 -1.0276688
-0.39556849 -3.0739686 -1.0315955
-0.41277543 -3.0593102 -1.0273416
-0.43299612 -3.0670116 -1.030941
-0.45346501 -3.0755146 -1.0348676
-0.48225775 -3.137115 -1.0574456
-0.49536222 -3.0958428 -1.0440297
-0.51310569 -3.0852885 -1.041412
-0.5413698 -3.1360869 -1.0603907
-0.56560612 -3.1606095 -1.0702072
-0.58636856 -3.1645119 -1.072825
-0.60256708 -3.1441507 -1.0669351
-0.62074459 -3.1348329 -1.0649717
-0.64072615 -3.1346679 -1.0662806
-0.68435377 -3.2462473 -1.1071829
-0.84309179 -3.8800168 -1.3332903
-0.86853588 -3.8821473 -1.3359082
-0.74844748 -3.2524376 -1.1140544
-0.77514416 -3.276288 -1.1241982
-0.80841982 -3.3256402 -1.143504
-0.81964463 -3.2839472 -1.1304153
-0.88368011 -3.4500215 -1.1916051
-0.82983494 -3.1594088 -1.0895131
-0.80665064 -2.996417 -1.0329044
-0.82627898 -2.9959655 -1.0345404
-0.83641732 -2.9617419 -1.0240694
-0.86718559 -3.0001233 -1.039776
-0.91723657 -3.101661 -1.0783876
-0.97705448 -3.2307296 -1.1271431
-0.99993277 -3.2346034 -1.1307425
-1.1069491 -3.5041034 -1.2308712
-1.004697 -3.1141849 -1.0914763
-0.99862945 -3.031682 -1.0636629
-1.056403 -3.1419218 -1.1062012
-1.072592 -3.1264436 -1.102929
-1.0761338 -3.0752132 -1.0865681
-1.0946648 -3.0676625 -1.0862409
-1.1099101 -3.051121 -1.0826415
-1.126309 -3.0380521 -1.080351
-1.1863726 -3.1406837 -1.120926
-1.2820401 -3.3317504 -1.19455
-1.6071333 -4.1005964 -1.4834834
-1.6995474 -4.259151 -1.5463092
-1.3025868 -3.207792 -1.1572472
-1.2767365 -3.089716 -1.1160177
-1.2670814 -3.0138884 -1.0904948
-1.3260838 -3.1007454 -1.1261615
-1.9693336 -4.5264497 -1.6677071
-1.9913329 -4.5013194 -1.6627988
-1.3782802 -3.0654707 -1.1222348
-1.2928991 -2.8292377 -1.0355221
-1.3568404 -2.9215071 -1.0738066
-1.3178347 -2.7926526 -1.0276688
-1.3987219 -2.9174156 -1.0787148
-1.4203229 -2.9164231 -1.0816598
-1.4784387 -2.988951 -1.1130728
-1.4466673 -2.8802001 -1.074461
-1.4991109 -2.9394424 -1.1009657
-1.4671209 -2.8337047 -1.0633357
-1.4651247 -2.7878516 -1.048938
-1.4728576 -2.7613039 -1.0420665
-1.4965249 -2.7646773 -1.0469748
-1.5516992 -2.8250005 -1.074461
-1.5524333 -2.785717 -1.0626812
-1.5681008 -2.7736716 -1.0616995
-1.5912052 -2.774652 -1.0659534
-1.6101019 -2.7681029 -1.0672623
-1.6198502 -2.7459655 -1.062354
-1.6259899 -2.7181382 -1.0551552
-1.6436182 -2.7097256 -1.0558096
-1.6592232 -2.6979802 -1.0551552
-1.6757466 -2.6877484 -1.0551552
-1.6922066 -2.6774156 -1.0551552
-1.7096232 -2.6685731 -1.0558096
-1.7275097 -2.6604097 -1.0567913
-1.7432815 -2.6489708 -1.0564641
-1.765273 -2.6468699 -1.0600635
-1.7862452 -2.643033 -1.0630084
-1.7976213 -2.6250079 -1.0600635
-1.8169279 -2.6185856 -1.0620267
-1.8150182 -2.5818837 -1.0512285
-1.839053 -2.5822408 -1.0561368
-1.8233323 -2.5272393 -1.0374854
-1.8438256 -2.5228684 -1.0404304
-1.8592709 -2.5115075 -1.0404304
-1.8825866 -2.5106332 -1.0450114
-1.8939536 -2.4937685 -1.0427209
-1.9092194 -2.4821002 -1.0427209
-1.9244133 -2.4703388 -1.0427209
-1.9500747 -2.4718342 -1.0486108
-1.9681553 -2.4635127 -1.050247
-1.983234 -2.4513898 -1.050247
-1.9994364 -2.4406362 -1.0509013
-2.0113564 -2.4246867 -1.0492653
-2.026196 -2.4122996 -1.0492653
-2.0336101 -2.3911865 -1.0453386
-2.0445428 -2.3743684 -1.0433754
-2.040436 -2.3404176 -1.0335588
-2.0635164 -2.3377686 -1.0381398
-2.0658534 -2.3116803 -1.0319227
-2.0977573 -2.3185744 -1.0410848
-2.1074746 -2.3007832 -1.0387943
-2.1305513 -2.2975056 -1.0433754
-2.1478436 -2.287833 -1.0450114
-2.1644459 -2.2773497 -1.0463203
-2.1764123 -2.2619841 -1.0453386
-2.1876123 -2.2458806 -1.0440297
-2.2053339 -2.2364509 -1.0459931
-2.2357111 -2.2395902 -1.0541735
-2.2709129 -2.2470908 -1.0646445
-2.2353101 -2.1849148 -1.0407575
-2.2323537 -2.1554115 -1.0329044
-2.2667425 -2.1618831 -1.0430481
-2.2792768 -2.1472862 -1.0427209
-2.2792614 -2.1210341 -1.0365038
-2.3263338 -2.1383309 -1.0525374
-2.3499081 -2.1335406 -1.0574456
-2.3538065 -2.1108835 -1.0531919
-2.3730826 -2.1020377 -1.0561368
-2.3909156 -2.0917909 -1.0584273
-2.4044209 -2.0776987 -1.0587546
-2.4156861 -2.0616801 -1.0581001
-2.422509 -2.0419488 -1.0554824
-2.4408042 -2.0318806 -1.0581001
-2.4532256 -2.0168657 -1.0581001
-2.4662886 -2.0023706 -1.0584273
-2.4800034 -1.9883816 -1.0590818
-2.4943805 -1.9748861 -1.0600635
-2.5094297 -1.9618706 -1.0613723
-2.523665 -1.9481676 -1.062354
-2.5438404 -1.938944 -1.0659534
-2.560221 -1.9267064 -1.0679166
-2.5757885 -1.9137774 -1.0695528
-2.5790989 -1.8917918 -1.0659534
-2.6021416 -1.8842402 -1.0708616
-2.6113474 -1.8665905 -1.06988
-2.6011269 -1.8352865 -1.0607178
-2.6131146 -1.8198315 -1.0610451
-2.6195581 -1.8005536 -1.0590818
-2.6274281 -1.7823256 -1.0577729
-2.6500962 -1.7740512 -1.0626812
-2.6814363 -1.7712915 -1.0711888
-2.7009645 -1.7604778 -1.0747882
-2.7395396 -1.7617511 -1.0862409
-2.6960278 -1.7105041 -1.0639901
-2.7369173 -1.7129688 -1.0764244
-2.7538104 -1.7001121 -1.0790421
-2.8158553 -1.714618 -1.099984
-2.921124 -1.7541941 -1.1382685
-2.8521357 -1.6890773 -1.1062012
-2.9016223 -1.694404 -1.1219076
-2.909507 -1.6751544 -1.120926
-2.9279504 -1.6619322 -1.1241982
-2.9356182 -1.642552 -1.1232165
-2.9688146 -1.6372781 -1.1323786
-3.0053775 -1.6334618 -1.1428496
-3.0570011 -1.6372837 -1.1592104
-3.1447253 -1.6594846 -1.1896417
-3.1950991 -1.6610668 -1.2053481
-3.2380385 -1.6582184 -1.2181097
-3.2886565 -1.6587325 -1.2338161
-3.3216259 -1.6498652 -1.242651
-3.3622506 -1.6443893 -1.2544309
-3.4667962 -1.6692022 -1.2907521
-3.5384624 -1.6770191 -1.3143117
-4.2287359 -1.9722396 -1.5741228
-4.1857867 -1.9210435 -1.5531808
-3.8977559 -1.7600708 -1.439309
-3.7279711 -1.6559981 -1.3709204
-3.7839613 -1.6531297 -1.388263
-3.8400548 -1.6496357 -1.4056056
-3.9197524 -1.6554347 -1.431783
-4.0145016 -1.6664717 -1.4635231
-4.0412769 -1.648585 -1.4697403
-4.1223707 -1.6522137 -1.4962449
-4.2133317 -1.6587135 -1.5263489
-4.290421 -1.6587096 -1.5512176
-4.3959394 -1.6685448 -1.586557
-4.5407014 -1.6916521 -1.6362941
-4.5918245 -1.6786741 -1.6513462
-4.6625276 -1.6721454 -1.673597
-4.7449107 -1.6688845 -1.7001016
-4.7961574 -1.6539 -1.7151537
-4.8518744 -1.6398607 -1.7318418
-4.8959351 -1.62134 -1.744276
-4.9750071 -1.6137029 -1.7694719
-5.0595717 -1.6068705 -1.796631
-5.1180668 -1.5909315 -1.8143007
-5.247076 -1.5957657 -1.8574935
-5.3636522 -1.5953065 -1.8961052
-5.4368596 -1.5808207 -1.9190104
-5.4691825 -1.5538827 -1.9271909
-5.5050211 -1.5276172 -1.9366802
-5.5170274 -1.4945511 -1.9376619
-5.5434527 -1.4652556 -1.943879
-5.5486784 -1.4302713 -1.9425701
-5.5573502 -1.3961984 -1.9425701
-5.5676484 -1.3625216 -1.9432245
-5.5795808 -1.3292087 -1.9445335
-5.5738225 -1.2917508 -1.9396251
-5.5890188 -1.2591861 -1.9422429
-5.569869 -1.2190155 -1.9327536
-5.5716977 -1.1836394 -1.9307903
-5.5788555 -1.1494298 -1.9307903
-5.5941434 -1.1168402 -1.9337353
-5.6203752 -1.0862559 -1.9406068
-5.6260056 -1.051576 -1.9402796
-5.6304922 -1.0167003 -1.9396251
-5.6366243 -0.98213309 -1.9396251
-5.6369529 -0.94659108 -1.9376619
-5.6463866 -0.91258794 -1.9389707
-5.6434755 -0.87662148 -1.9360257
-5.6524868 -0.84253377 -1.9373347
-5.6575503 -0.80783486 -1.9373347
-5.6605277 -0.77285033 -1.9366802
-5.6623521 -0.73773772 -1.9356985
-0 -0 -0
-0 -0 -0
-0 -0 -0
-0 -0 -0
-0 -0 -0
-0 -0 -0
-0 -0 -0
-0 -0 -0
-0 -0 -0
-0 -0 -0
-0 -0 -0
-0 -0 -0
-0 -0 -0
-0 -0 -0
-0 -0 -0
-0 -0 -0
-0 -0 -0
-0 -0 -0
-0 -0 -0
-0 -0 -0
-0 -0 -0
-0 0 -0
-0 0 -0
-0 0 -0
-0 0 -0
-0 0 -0
-0 0 -0
-0 0 -0
-0 0 -0
-0 0 -0
-0 0 -0
-0 0 -0
-5.5536799 -0.14211276 -1.9505918
-0 -0 -0
-5.5521822 -0.073912069 -1.9495791
-5.5402946 -0.039754432 -1.9451904
-0 -0 -0
-0 0 -0
-0 0 -0
-0 0 -0
-0 0 -0
-0 0 -0
-0 0 -0
-0 0 -0
-0 0 -0
-0 0 -0
-0 0 -0
-0 0 -0
-0 0 -0
-0 0 -0
-0 0 -0
-0 0 -0
-0 0 -0
-0.24805555 0.02609776 -0.047607359
-0 0 -0
-0 0 -0
-0 0 -0
-0 0 -0
-0 0 -0
-0 0 -0
-0 0 -0
-0 0 -0
-0 0 -0
-0 0 -0
-0 0 -0
-0 0 -0
-5.4515882 1.0091438 -1.9465408
-5.4009166 1.0340819 -1.9303366
-5.389853 1.0662888 -1.9286486
-5.3822865 1.099152 -1.928311
-5.36623 1.1302171 -1.9249351
-5.3573542 1.1627233 -1.92426
-5.3528752 1.1961892 -1.9252727
-5.3481865 1.2296438 -1.9262855
-5.3268003 1.2591894 -1.9212216
-5.3189735 1.2918503 -1.9212216
-5.308207 1.3237795 -1.9202089
-5.3081918 1.3584248 -1.9232472
-5.2924728 1.3890586 -1.9205465
-5.2747602 1.4190617 -1.9171706
-5.2732134 1.4534006 -1.9198713
-5.254231 1.4829174 -1.9161578
-5.2468419 1.5156512 -1.916833
-5.2392488 1.5483501 -1.9175082
-5.2287483 1.5801961 -1.9171706
-5.2162561 1.6114161 -1.9161578
-5.2116561 1.6450918 -1.9181833
-5.2023602 1.6773278 -1.9185209
-5.1928644 1.7095115 -1.9188585
-5.1796002 1.7404429 -1.9178458
-5.171495 1.7731072 -1.9188585
-5.1534095 1.8023201 -1.9161578
-5.1422539 1.8339069 -1.9161578
-5.1309042 1.8654246 -1.9161578
-5.1184793 1.8965452 -1.9158202
-5.1041036 1.9269186 -1.9148074
-5.1009703 1.9615785 -1.9181833
-5.0914679 1.99387 -1.9191961
-5.0835099 2.0268159 -1.9208841
-5.0674887 2.0565541 -1.9195337
-5.0591249 2.0894051 -1.9212216
-5.0392666 2.1174912 -1.9185209
-5.0235825 2.1472621 -1.9175082
-4.9990897 2.1731682 -1.9131196
-4.9796348 2.2011375 -1.9107565
-4.959166 2.2285645 -1.9080558
-4.9890661 2.2788939 -1.9252727
-4.9630361 2.3039155 -1.9205465
-4.9377379 2.3291051 -1.9161578
-4.9063764 2.3512242 -1.9094061
-4.8960891 2.3833444 -1.9110941
-4.8847485 2.41501 -1.9124444
-4.8832984 2.4516933 -1.9178458
-4.8639698 2.4794734 -1.9161578
-4.8495002 2.5097039 -1.9164954
-4.8281765 2.5363488 -1.9141324
-4.8100309 2.5645978 -1.9131196
-4.7817855 2.5873449 -1.9080558
-4.7633448 2.6152778 -1.907043
-4.7496748 2.6458299 -1.9080558
-4.725975 2.6707561 -1.9050175
-4.7495155 2.7226393 -1.9215592
-4.7074933 2.7370653 -1.9110941
-4.6954756 2.7687669 -1.9131196
-4.6808219 2.7989748 -1.9141324
-4.6635594 2.8276429 -1.9141324
-4.6461215 2.8562047 -1.9141324
-4.628509 2.8846591 -1.9141324
-4.6154966 2.9160211 -1.9161578
-4.596725 2.9437788 -1.9158202
-4.5785756 2.9719284 -1.9158202
-4.5563216 2.9973795 -1.9141324
-4.5362778 3.024236 -1.9134572
-4.5160761 3.0509593 -1.912782
-4.4941635 3.0764856 -1.9114317
-4.4752021 3.1040032 -1.9114317
-4.4614635 3.1351922 -1.9137948
-4.4383082 3.1597788 -1.9121068
-4.4211268 3.1886041 -1.9131196
-4.4022388 3.2162268 -1.9134572
-4.3846917 3.2448575 -1.91447
-4.363946 3.2711358 -1.9141324
-4.3430424 3.2972817 -1.9137948
-4.3197441 3.3215733 -1.9124444
-4.2963114 3.3457031 -1.9110941
-4.2742233 3.370836 -1.9104189
-4.2556663 3.3987608 -1.9114317
-4.2325358 3.4230335 -1.9104189
-4.211453 3.4489396 -1.9104189
-4.1996312 3.4825258 -1.9148074
-4.178905 3.5088341 -1.915145
-4.1565795 3.5337996 -1.9148074
-4.1440926 3.5672197 -1.9191961
-4.1121917 3.5839229 -1.91447
-4.0873003 3.6065962 -1.9131196
-4.0622854 3.6290994 -1.9117692
-4.0364504 3.6508 -1.9100813
-4.0111966 3.672956 -1.9087309
-3.9872034 3.6962192 -1.9080558
-3.9651353 3.7212586 -1.9083933
-3.9394977 3.7429252 -1.907043
-3.9178143 3.768332 -1.9077182
-3.8932695 3.790987 -1.907043
-3.8699353 3.8148043 -1.907043
-3.8437898 3.8358185 -1.9056926
-3.81687 3.8559866 -1.9040047
-3.7911639 3.877315 -1.9029919
-3.7627239 3.8957651 -1.9006288
-3.7413485 3.9215035 -1.9019791
-3.7191529 3.9464412 -1.9029919
-3.6980751 3.9726317 -1.9046799
-3.6774528 3.9994049 -1.9067054
-3.659173 4.0288615 -1.9100813
-3.6274686 4.0435314 -1.9063678
-3.6025896 4.0657129 -1.9063678
-3.5825348 4.0934076 -1.9090685
-3.548732 4.1053438 -1.9043423
-3.5265315 4.13062 -1.9060302
-3.4992995 4.150022 -1.9050175
-3.4677455 4.1641822 -1.9016416
-3.4421294 4.1853819 -1.9016416
-3.4140096 4.2035007 -1.9002912
-3.3840301 4.2192302 -1.8979281
-3.3569088 4.2384391 -1.8972529
-3.3290992 4.2567325 -1.8962401
-3.3029177 4.2770791 -1.8962401
-3.2731872 4.2927742 -1.8942146
-3.2530136 4.3210492 -1.8979281
-3.2292469 4.3447051 -1.899616
-3.1925027 4.3507781 -1.8935394
-3.1762397 4.384768 -1.8999536
-3.1443474 4.3972836 -1.8969153
-3.1211071 4.4218769 -1.8992784
-3.0955305 4.4432616 -1.9002912
-3.0687423 4.4629474 -1.9006288
-3.0386574 4.4777985 -1.8989408
-3.0111248 4.4963589 -1.8989408
-3.0037208 4.5453758 -1.9121068
-2.95315 4.5290294 -1.8972529
-2.9309075 4.5557718 -1.9009664
-2.9028986 4.5736694 -1.9009664
-2.8757796 4.5929909 -1.9016416
-2.8455646 4.6073465 -1.9002912
-2.8206694 4.6303468 -1.9026543
-2.7897809 4.6435328 -1.9009664
-2.7602766 4.6589437 -1.9002912
-2.7302132 4.6733546 -1.8992784
-2.6939683 4.6769691 -1.893877
-2.6707988 4.7032328 -1.8979281
-2.6391308 4.7146039 -1.8959025
-2.6142461 4.7381258 -1.8989408
-2.5882723 4.7598653 -1.901304
-2.5594623 4.7764869 -1.9016416
-2.5287876 4.7896047 -1.9006288
-2.4980483 4.8025255 -1.899616
-2.466387 4.8135743 -1.8979281
-2.4355326 4.8260961 -1.8969153
-2.4021034 4.8333635 -1.893877
-2.377367 4.8581572 -1.8979281
-2.3475132 4.8726525 -1.8979281
-2.3183777 4.8886662 -1.8986033
-2.2875414 4.9010935 -1.8979281
-2.2586045 4.9176035 -1.8989408
-2.2295513 4.9339423 -1.8999536
-2.1992352 4.9475298 -1.8999536
-2.1673279 4.9574814 -1.8986033
-2.1353812 4.9672275 -1.8972529
-2.1048627 4.9802365 -1.8972529
-2.072459 4.9887118 -1.8955649
-2.0435891 5.0056915 -1.8972529
-2.0138876 5.0207572 -1.8982657
-1.9871844 5.0435286 -1.9023167
-1.9572197 5.0582604 -1.9033295
-1.9238056 5.0640149 -1.9009664
-1.8903946 5.06955 -1.8986033
-1.8582822 5.078402 -1.8975905
-1.8293134 5.0959101 -1.8999536
-1.7945718 5.0972724 -1.8962401
-1.7632618 5.1081877 -1.8962401
-1.7303766 5.1144524 -1.8945522
-1.6995549 5.1267605 -1.8952274
-1.6686472 5.1388826 -1.8959025
-1.634802 5.1418486 -1.8932018
-1.6004238 5.1427951 -1.8898259
-1.5674669 5.148016 -1.8881381
-1.5347749 5.1539283 -1.8867877
-1.4989113 5.1487885 -1.8813863
-1.4721855 5.1750903 -1.8878005
-1.4409082 5.1858401 -1.8884757
-1.4085684 5.1927667 -1.8878005
-1.3800524 5.2140512 -1.8925266
-1.346151 5.2151294 -1.8898259
-1.3155047 5.2287683 -1.8918515
-1.2831726 5.2358274 -1.8915139
-1.2497109 5.2381086 -1.8894883
-1.2179728 5.2475119 -1.8901635
-1.18513 5.2521319 -1.8891507
-1.1538893 5.2639022 -1.8908387
-1.1192172 5.2598352 -1.8867877
-1.086161 5.2629161 -1.8854374
-1.0556946 5.2787118 -1.8888133
-1.0238222 5.2878623 -1.8898259
-0.9922238 5.2986708 -1.8915139
-0.95835191 5.2972493 -1.8888133
-0.92696428 5.3095207 -1.8911763
-0 0 -0
-0.86309355 5.3288589 -1.8942146
-0.83023518 5.3331242 -1.893877
-0.79693955 5.334394 -1.8925266
-0.76352614 5.3345246 -1.8908387
-0.72950256 5.3297834 -1.8874629
-0.69654191 5.3322926 -1.8867877
-0.66346163 5.3336635 -1.885775
-0.63039082 5.3348298 -1.8847622
-0.59733069 5.3357911 -1.8837494
-0.56566918 5.3496523 -1.8874629
-0.53264707 5.3511496 -1.8867877
-0.50006568 5.3571286 -1.8878005
-0.46702194 5.3582206 -1.8871253
-0.43405968 5.3600469 -1.8867877
-0.40116289 5.3626094 -1.8867877
-0.36708945 5.3480668 -1.8807111
-0.33603039 5.3784022 -1.8908387
-0.30243981 5.3700247 -1.8871253
-0.26934257 5.3689594 -1.8861125
-0.23502587 5.339478 -1.8749721
-0.20322274 5.3662167 -1.884087
-0.17029242 5.3673625 -1.884087
-0.13762133 5.3786569 -1.8878005
-0.10470778 5.3841057 -1.8894883
-0.071669564 5.3846469 -1.8894883
-0.03869687 5.3943982 -1.8928642
-0.0055998787 5.3973579 -1.893877
0.027522519 5.398232 -1.8942146
0.060623921 5.3960791 -1.8935394
0.093651101 5.3908997 -1.8918515
0.12646264 5.378931 -1.8878005
0.15938127 5.3752313 -1.8867877
0.19205767 5.3656859 -1.8837494
0.22501665 5.3653469 -1.884087
0.25815928 5.368566 -1.885775
0.29114622 5.3678212 -1.8861125
0.32283023 5.3452625 -1.8786856
0.35562205 5.3431811 -1.8786856
0.38860512 5.3437152 -1.8796983
0.42182997 5.3468604 -1.8817239
0.45415145 5.3385439 -1.8796983
0.48732695 5.340344 -1.8813863
0.52127135 5.349432 -1.885775
0.55408508 5.3461332 -1.885775
0.58749413 5.3482466 -1.8878005
0.62127537 5.3529563 -1.8908387
0.65365207 5.3453064 -1.8894883
0.6869176 5.3449292 -1.8908387
0.71970052 5.3406138 -1.8908387
0.75219363 5.3342333 -1.8901635
0.78257936 5.3136859 -1.8844246
0.81217015 5.2892456 -1.8773352
0.84698504 5.2990351 -1.8827366
0.87902075 5.2909522 -1.8817239
0.911309 5.2845316 -1.8813863
0.9438827 5.279767 -1.8817239
0.97831613 5.2849832 -1.885775
1.0117874 5.2844276 -1.8878005
1.0447408 5.2808905 -1.8888133
1.0776889 5.2771473 -1.8898259
1.1112121 5.2759619 -1.8918515
1.143564 5.2690444 -1.8918515
1.1740258 5.2536607 -1.8888133
1.2081372 5.2546144 -1.8918515
1.2403561 5.2471027 -1.8918515
1.271862 5.236649 -1.8908387
1.3026034 5.2232661 -1.8888133
1.3348615 5.2160873 -1.8891507
1.3658862 5.2041569 -1.8878005
1.3968147 5.1920419 -1.8864501
1.4308965 5.1915407 -1.8894883
1.4645135 5.1890044 -1.8918515
1.4960639 5.1790166 -1.8915139
1.5312809 5.1814747 -1.8959025
1.5625005 5.1701794 -1.8952274
1.5953058 5.1640921 -1.8965777
1.6238459 5.1443319 -1.8928642
1.6574019 5.140543 -1.8952274
1.6895009 5.1320648 -1.8959025
1.7164626 5.1082172 -1.8908387
1.7489947 5.1011505 -1.8921891
1.7790191 5.0867686 -1.8908387
1.8149393 5.0890565 -1.8959025
1.846131 5.0778246 -1.8959025
1.8821579 5.0796413 -1.9009664
1.9159497 5.0750422 -1.9036671
1.9484047 5.0667052 -1.9050175
0 0 -0
2.0010235 5.018805 -1.8959025
2.0293033 5.0003271 -1.8935394
2.0538392 4.9729905 -1.8878005
2.0821269 4.9550881 -1.885775
2.1124916 4.9422188 -1.885775
2.1450279 4.9343438 -1.8878005
2.1786885 4.9288378 -1.8908387
2.2065756 4.9102254 -1.8888133
2.2397909 4.9034433 -1.8915139
2.2726097 4.8955846 -1.893877
2.2961814 4.8679261 -1.8884757
2.3317015 4.8656297 -1.8932018
2.3623364 4.8529239 -1.893877
2.3908174 4.8358059 -1.8928642
2.4195998 4.8193626 -1.8921891
2.4508352 4.8077803 -1.8935394
2.4768283 4.7859635 -1.8908387
2.508774 4.7756758 -1.8928642
2.535373 4.7552085 -1.8908387
2.563159 4.7370787 -1.8898259
2.5912712 4.7196121 -1.8891507
2.6192653 4.7019787 -1.8884757
2.6462145 4.6825404 -1.8871253
2.6720879 4.6613154 -1.8850998
2.7001657 4.6440182 -1.8847622
2.7243075 4.6200652 -1.8817239
2.7530875 4.6040702 -1.8820615
2.7847016 4.5927253 -1.8844246
2.8162799 4.5811658 -1.8867877
2.8448341 4.5645981 -1.8871253
2.8773127 4.5542188 -1.8901635
2.9067254 4.5388565 -1.8911763
2.9350331 4.5217252 -1.8915139
2.9627225 4.5036311 -1.8915139
2.9876902 4.4814515 -1.8898259
3.0151317 4.4630346 -1.8898259
3.040333 4.4413433 -1.8884757
3.0653815 4.4195104 -1.8871253
3.090277 4.3975377 -1.885775
3.1182933 4.3800268 -1.8864501
3.1478627 4.3646283 -1.8881381
3.17625 4.3475118 -1.8891507
3.2062254 4.3324809 -1.8911763
3.2355711 4.3164926 -1.8928642
3.2619958 4.2965579 -1.8928642
3.2842815 4.2712383 -1.8905011
3.305223 4.2443213 -1.8874629
3.3247921 4.2158303 -1.8837494
3.3523595 4.1975574 -1.8847622
3.3774602 4.1761765 -1.8844246
3.4018285 4.1539178 -1.8837494
3.4302564 4.1365895 -1.8854374
3.4543631 4.1140223 -1.8847622
3.4886858 4.103507 -1.8898259
3.5119567 4.0798831 -1.8888133
3.5350692 4.0561285 -1.8878005
3.5623815 4.0371847 -1.8891507
3.5895944 4.0180583 -1.8905011
3.6129184 3.9945612 -1.8898259
3.6354537 3.9702346 -1.8888133
3.6623056 3.9506147 -1.8901635
3.6884096 3.9301281 -1.8911763
3.712455 3.9074223 -1.8911763
3.7317932 3.8798203 -1.8888133
3.7693183 3.8710129 -1.8959025
3.7903564 3.8451302 -1.8945522
3.8059001 3.8138046 -1.8905011
3.8345809 3.7956784 -1.8932018
3.8537607 3.7681296 -1.8911763
3.877486 3.7450664 -1.8915139
3.8990302 3.7199044 -1.8908387
3.9258916 3.699784 -1.8928642
3.9512749 3.6781914 -1.8942146
3.9751551 3.6551518 -1.8948898
3.9940243 3.6275275 -1.8932018
4.0049973 3.5928943 -1.8878005
4.0459881 3.5851088 -1.8969153
4.0629516 3.5558758 -1.8945522
4.0797091 3.5265698 -1.8921891
4.1120086 3.5106394 -1.8972529
4.1421065 3.4926245 -1.901304
4.1540565 3.459312 -1.8969153
4.1664805 3.4265823 -1.8928642
4.185966 3.399766 -1.8921891
4.204545 3.3722503 -1.8911763
4.2236819 3.3452194 -1.8905011
4.2456112 3.3204002 -1.8911763
4.2688847 3.2965887 -1.8925266
4.2852893 3.2674792 -1.8908387
4.3210492 3.2530136 -1.8979281
4.3439493 3.2286854 -1.8992784
4.3477426 3.1902752 -1.8921891
4.3901038 3.1801054 -1.9023167
4.415659 3.1574891 -1.9050175
4.4457154 3.1379356 -1.9097437
4.4509845 3.1009119 -1.9036671
4.4730301 3.0756762 -1.9050175
4.4918175 3.0481725 -1.9050175
4.506526 3.0179346 -1.9033295
4.5351672 2.9969735 -1.9077182
4.5432215 2.9624054 -1.9033295
4.5605211 2.9339635 -1.9029919
4.5792327 2.90643 -1.9033295
4.5961819 2.8777781 -1.9029919
4.615355 2.8505116 -1.9036671
4.63517 2.8236079 -1.9046799
4.64676 2.7917202 -1.9023167
4.660563 2.7612362 -1.9009664
4.6774182 2.7325876 -1.9009664
4.7014375 2.708065 -1.9040047
4.7335167 2.687999 -1.9104189
4.7244596 2.644649 -1.8999536
4.721643 2.6051502 -1.8921891
4.739193 2.5770292 -1.8928642
4.7756572 2.5590177 -1.901304
4.7987604 2.5336225 -1.9043423
4.8242369 2.5093434 -1.9083933
4.8512707 2.4857054 -1.9131196
4.8723135 2.4588609 -1.9154826
4.8915238 2.4310136 -1.9171706
4.9071937 2.4013679 -1.9175082
4.9235315 2.3720298 -1.9181833
4.9405446 2.3429852 -1.9191961
4.9497104 2.3102374 -1.9171706
4.9483962 2.2727501 -1.9110941
4.9699683 2.2458339 -1.9141324
4.9862351 2.2164435 -1.915145
4.9928417 2.1827898 -1.9124444
5.0044112 2.1513696 -1.9117692
5.0183849 2.1209891 -1.9121068
5.0399966 2.0937688 -1.9154826
5.0527492 2.0628047 -1.9154826
5.0696793 2.0335152 -1.9171706
5.0855641 2.0037503 -1.9185209
5.1021523 1.9742069 -1.9202089
5.1141696 1.9428636 -1.9202089
5.1259947 1.911447 -1.9202089
5.134975 1.878988 -1.9191961
5.1455216 1.8471268 -1.9188585
5.1514311 1.8136438 -1.916833
5.1686907 1.7841516 -1.9191961
5.1822157 1.7533087 -1.9202089
5.1955566 1.7223669 -1.9212216
5.2113986 1.6921998 -1.9232472
5.2261686 1.6616179 -1.9249351
5.2299747 1.627561 -1.922572
5.2371612 1.5946171 -1.9215592
5.2567706 1.5654083 -1.9252727
5.2698917 1.5341767 -1.9266231
5.2783008 1.5015547 -1.9262855
5.2901354 1.4698956 -1.9272983
5.2972379 1.4369153 -1.9266231
5.2986755 1.4024576 -1.9239224
5.311738 1.3710958 -1.9256103
5.3191381 1.338248 -1.9252727
5.3190212 1.3035681 -1.9222344
5.3324132 1.2722178 -1.92426
5.3419528 1.2399005 -1.9249351
5.3503785 1.2073069 -1.9252727
5.3650413 1.1760678 -1.9279734
5.3739977 1.1435183 -1.9286486
5.3846006 1.1112839 -1.929999
5.39501 1.0789623 -1.9313493
5.4052253 1.0465548 -1.9326997
5.4133954 1.013716 -1.9333749
5.4278498 0.98198968 -1.9364132
5.433773 0.94866651 -1.9364132
5.4413481 0.91562021 -1.9370884
0 0 -0
0 0 -0
0 0 -0
0 0 -0
0 0 -0
0 0 -0
0 0 -0
0 0 -0
0 0 -0
0 0 -0
0 0 -0
0 0 -0
0 0 -0
0 0 -0
0 0 -0
0 0 -0
0 0 -0
0 0 -0
0 0 -0
0 0 -0
0 0 -0
0 0 -0
0 0 -0
0 0 -0
0 0 -0
0 0 -0
0 0 -0
0 -0 -0
0 -0 -0
0 -0 -0
0 -0 -0
0 -0 -0
0 -0 -0
0 -0 -0
0 -0 -0
0 -0 -0
0 -0 -0
0 -0 -0
5.5098863 -0.40067676 -1.9394515
5.5007553 -0.43395951 -1.9370884
0 -0 -0
5.5081391 -0.50262612 -1.9418145
5.5040145 -0.53632277 -1.9414769
5.5034289 -0.57037556 -1.9424897
5.4914045 -0.60320884 -1.9394515
0 -0 -0
0 -0 -0
0 -0 -0
5.4796119 -0.7384212 -1.9411393
5.4973478 -0.77518231 -1.9492415
5.4887629 -0.80835044 -1.9478911
5.5060291 -0.84544069 -1.9559933
5.4933019 -0.87802112 -1.9532925
5.4794536 -0.91032308 -1.9502542
5.4691267 -0.94312775 -1.9485663
5.4576774 -0.97567445 -1.9465408
5.4534392 -1.0094863 -1.9472159
5.436048 -1.0408057 -1.9431649
5.4249425 -1.073228 -1.9414769
5.4034986 -1.1034822 -1.9360756
5.358861 -1.1286657 -1.9222344
5.2616854 -1.1419673 -1.8891507
5.192111 -1.1602762 -1.8661948
5.0968261 -1.1718711 -1.8337864
4.9896884 -1.1795268 -1.7969892
4.9320478 -1.1979057 -1.7784219
4.8807645 -1.217216 -1.7622176
4.8184886 -1.233143 -1.7419623
4.7862487 -1.2562354 -1.7328475
4.7520895 -1.2784899 -1.7230574
4.7223759 -1.301623 -1.7149553
4.6970878 -1.3257179 -1.7085412
4.7105689 -1.3607817 -1.7166432
4.6985202 -1.3885927 -1.7152929
4.7025261 -1.4212075 -1.7200191
4.6865225 -1.4478128 -1.7173184
4.6685739 -1.4737087 -1.7139425
4.6666107 -1.504637 -1.7166432
4.6555023 -1.5326539 -1.715968
4.6540413 -1.5638885 -1.7190064
4.6550431 -1.5960784 -1.7230574
4.6389422 -1.6224364 -1.7206943
4.6218066 -1.6483408 -1.7179936
4.6204524 -1.6798843 -1.7213695
4.6021137 -1.7052604 -1.7183312
4.580996 -1.7294776 -1.7142801
4.5694194 -1.7572157 -1.7139425
4.568193 -1.788995 -1.717656
4.5518832 -1.8148999 -1.7156305
4.5424061 -1.8435035 -1.7163056
4.508388 -1.862 -1.7075284
4.4812574 -1.8830653 -1.7014518
4.4592319 -1.9060876 -1.6974007
4.4448624 -1.9322875 -1.696388
4.4423933 -1.9637097 -1.7001014
4.4242501 -1.9882303 -1.6977383
4.4111109 -2.0149486 -1.6974007
4.3909802 -2.0384102 -1.6943624
4.3622141 -2.0576856 -1.6879482
4.3554487 -2.08726 -1.6903113
4.3552551 -2.1201243 -1.6953752
4.3160052 -2.1338773 -1.6849099
4.2918944 -2.15483 -1.6805214
4.2978811 -2.1909549 -1.6882858
4.2567682 -2.2030101 -1.6771455
4.2331705 -2.2238352 -1.6730944
4.2368889 -2.2590666 -1.6801838
4.2246037 -2.2859168 -1.6808589
4.2154489 -2.3145132 -1.6828845
4.2118587 -2.3462894 -1.687273
4.1924658 -2.3693104 -1.6852475
4.1802988 -2.3963945 -1.6862603
4.1655164 -2.4219992 -1.6862603
4.15382 -2.449425 -1.6876106
4.1298256 -2.469553 -1.6838971
4.1153998 -2.4953344 -1.6842347
4.103219 -2.5225108 -1.6855851
4.0908594 -2.5496314 -1.6869355
4.0687714 -2.5706627 -1.6842347
4.0552998 -2.5971026 -1.6852475
4.041657 -2.6234739 -1.6862603
4.0278425 -2.6497755 -1.687273
4.0122914 -2.674962 -1.6876106
3.9950225 -2.6990037 -1.687273
3.9690652 -2.7170861 -1.6832221
3.9608274 -2.7472892 -1.6869355
3.9531379 -2.7780344 -1.6909865
3.9413857 -2.8060591 -1.6933497
3.9019527 -2.814224 -1.6835597
3.8792908 -2.8342264 -1.6811965
3.8550172 -2.852937 -1.6781582
3.8178554 -2.8618596 -1.6693809
3.8047221 -2.8886466 -1.6714064
3.7914035 -2.9153798 -1.673432
3.7786427 -2.9426365 -1.6757951
3.761255 -2.9663494 -1.6761327
3.7540164 -2.9981825 -1.6811965
3.7399409 -3.0247114 -1.6832221
3.7264092 -3.0517766 -1.6855851
3.7076137 -3.074584 -1.6855851
3.6821902 -3.0918286 -1.6825469
3.6602812 -3.1119254 -1.6811965
3.6339834 -3.1281853 -1.6778206
3.6125917 -3.1485691 -1.6768079
3.5910869 -3.168808 -1.6757951
2.4399254 -2.1799583 -1.131603
2.4258053 -2.194257 -1.1312654
2.4081304 -2.2052865 -1.1292398
3.5191426 -3.262382 -1.679171
3.5072956 -3.2916429 -1.6832221
3.4870324 -3.3131013 -1.6832221
3.4605319 -3.3285627 -1.6801838
3.4494853 -3.3589263 -1.6849099
3.4288104 -3.3800287 -1.6849099
3.3900154 -3.3830528 -1.6757951
3.3638954 -3.3984382 -1.6730944
3.3475866 -3.4237256 -1.6754575
3.33044 -3.4482636 -1.677483
3.3033707 -3.4625049 -1.6744447
3.2775435 -3.4779139 -1.6720816
3.2535763 -3.4952035 -1.6707313
3.2409892 -3.524801 -1.6754575
3.2174017 -3.5425308 -1.6744447
3.1987476 -3.5657089 -1.6761327
3.179306 -3.5880868 -1.677483
3.1671498 -3.6188595 -1.6828845
3.1344197 -3.6261194 -1.6771455
3.1151674 -3.6488628 -1.6788334
3.0902925 -3.6650302 -1.677483
3.0725653 -3.6897092 -1.6801838
3.0564454 -3.7164891 -1.6838971
3.0240881 -3.7234833 -1.6784958
2.9941163 -3.7331576 -1.6744447
2.9588797 -3.7359641 -1.6673554
2.0062582 -2.5655515 -1.1262015
1.9853002 -2.5711086 -1.1231632
1.9637789 -2.575757 -1.1197873
1.9400105 -2.5772305 -1.1150612
1.9151753 -2.5769987 -1.1096597
1.8881887 -2.5735242 -1.102908
1.804987 -2.4920652 -1.0617222
1.6604358 -2.3224027 -0.98205137
1.6510402 -2.3394682 -0.98508972
2.734982 -3.9258201 -1.6741072
2.6959074 -3.9208114 -1.6646546
2.6712704 -3.9365003 -1.6643171
2.6454947 -3.9504707 -1.6633043
2.6201673 -3.9650583 -1.6626291
2.5947604 -3.9794838 -1.6619539
2.5662191 -3.9889972 -1.6592532
2.5396769 -4.0014896 -1.657903
2.5075827 -4.0050306 -1.6528391
2.473562 -4.005126 -1.6464249
2.4425735 -4.009778 -1.6420363
2.4179242 -4.0246897 -1.6420363
2.40518 -4.0596952 -1.650476
2.3849738 -4.0825038 -1.6538519
2.3683369 -4.111742 -1.6599284
2.3356254 -4.1131005 -1.6545271
2.3108037 -4.1281757 -1.6548647
2.2808821 -4.1340356 -1.6514888
2.2532246 -4.1438184 -1.6498008
2.2126384 -4.1293578 -1.6383228
2.1969295 -4.1611686 -1.6457497
2.164839 -4.1620445 -1.6406859
2.1392605 -4.1752496 -1.6406859
2.1225085 -4.2059436 -1.6477753
2.1050413 -4.2357459 -1.6545271
2.0831497 -4.2570372 -1.657903
2.0659792 -4.2883945 -1.6653298
2.0396273 -4.3009906 -1.6653298
2.0139947 -4.3151302 -1.666005
1.9890515 -4.3308282 -1.6673554
1.4084476 -3.1172228 -1.1849419
1.3881469 -3.1232257 -1.1839291
1.3715969 -3.1377215 -1.1862923
1.891836 -4.4008207 -1.6761327
1.8666301 -4.4166808 -1.6778206
1.8384111 -4.4254436 -1.6768079
1.8094432 -4.4322834 -1.6751199
1.7797598 -4.4371872 -1.6727568
1.7455977 -4.4305091 -1.666005
1.716681 -4.4367476 -1.6643171
1.6964468 -4.4656754 -1.6714064
1.6657245 -4.4671812 -1.6680305
1.6402242 -4.4826212 -1.6700561
1.6139609 -4.4961448 -1.6714064
1.5857173 -4.5041876 -1.6707313
1.5586647 -4.5156121 -1.6714064
1.5309281 -4.5250907 -1.6714064
1.5028375 -4.5335059 -1.6710688
1.4755738 -4.5444322 -1.671744
1.4479471 -4.5542974 -1.6720816
1.4194157 -4.5612988 -1.6714064
1.388659 -4.5609179 -1.6680305
1.3633347 -4.5783739 -1.6714064
1.3346903 -4.5848455 -1.6707313
1.3052449 -4.5884218 -1.6690433
1.2770663 -4.5963445 -1.6690433
1.2453887 -4.5913754 -1.6643171
1.2183977 -4.6034803 -1.666005
1.1901284 -4.6108694 -1.666005
1.1618142 -4.6180854 -1.666005
0.73227036 -2.9886699 -1.0617222
0.715011 -2.9976847 -1.0634102
0.69702989 -3.0038493 -1.0640854
0.67444026 -2.9897058 -1.0573336
0.65749449 -3.0002239 -1.0596967
0.63280177 -2.9747403 -1.0488938
0.61682111 -2.9896293 -1.0529449
0.60123545 -3.0072029 -1.0580088
0.57704437 -2.9812636 -1.0472059
0.55995405 -2.9912245 -1.049569
0.54075152 -2.9899728 -1.0478811
0.52093756 -2.9848893 -1.0448428
0.50651944 -3.0112352 -1.0532825
0.48487145 -2.9947739 -1.0461931
0.46706617 -3.0014129 -1.0475435
0.44488394 -2.9790866 -1.0384287
0.42806405 -2.9920099 -1.042142
0.40816474 -2.9833891 -1.0380911
0.38802144 -2.971837 -1.0330272
0.37094191 -2.9835029 -1.0364031
0.35063896 -2.9688966 -1.0303265
0.33241555 -2.9709923 -1.0303265
0.31437773 -2.974848 -1.0310017
0.29695824 -2.9851511 -1.03404
0.28073746 -3.0094101 -1.042142
0.26202136 -3.0082629 -1.0411294
0.24523115 -3.0304546 -1.0485562
0.22740521 -3.0422277 -1.0522697
0.20957305 -3.0557737 -1.0566584
0.19128935 -3.0645177 -1.0593591
0.17232323 -3.0628145 -1.0583463
0.15324351 -3.0581734 -1.0563208
0.13460042 -3.0618773 -1.0573336
0.11538224 -3.0513582 -1.0532825
0.096058868 -3.0331924 -1.0465307
0.077373296 -3.0309017 -1.0455179
0.058664337 -3.0256727 -1.0434924
0.039934278 -3.0137401 -1.0391037
0.021400627 -3.0082808 -1.0370783
0.0029396657 -3.0064728 -1.0364031
-0.015469933 -2.998904 -1.0337024
-0.033786539 -2.9912226 -1.0310017
-0.052172258 -2.9928415 -1.0316769
-0.070557058 -2.9934061 -1.0320145
-0.089535125 -3.0136161 -1.0394413
-0.10789024 -3.0092473 -1.0380911
-0.12682505 -3.0198143 -1.042142
-0.14494564 -3.0105174 -1.0391037
-0.16275327 -2.9973524 -1.0347152
-0.1802348 -2.9812639 -1.0293137
-0.19715044 -2.959439 -1.0218868
-0.21482809 -2.9516017 -1.0195237
-0.23226909 -2.9417827 -1.0164853
-0.25175005 -2.9571846 -1.022562
-0.2709159 -2.9668331 -1.026613
-0.28938863 -2.9679255 -1.0276258
-0.3067213 -2.9576674 -1.0245875
-0.32527429 -2.9594724 -1.0259379
-0.34472853 -2.968641 -1.0299889
-0.36327985 -2.9692731 -1.0310017
-0.38257137 -2.9753907 -1.03404
-0.40119773 -2.975786 -1.0350528
-0.42023745 -2.9788606 -1.0370783
-0.4390558 -2.9799511 -1.0384287
-0.45761776 -2.9790618 -1.0391037
-0.47663081 -2.9808455 -1.0407917
-0.49552876 -2.9815791 -1.042142
-0.51525313 -2.9868309 -1.0451804
-0.53373581 -2.9845397 -1.0455179
-0.55803287 -3.0136042 -1.0573336
-0.58022922 -3.0295382 -1.064423
-0.59752893 -3.0194569 -1.0620598
-0.61340892 -3.0028219 -1.0573336
-0.6289134 -2.9851851 -1.0522697
-0.64661956 -2.9785104 -1.051257
-0.66242063 -2.9634628 -1.0472059
-0.67974818 -2.955673 -1.0458555
-0.69419104 -2.9358735 -1.0401165
-0.7135247 -2.937047 -1.042142
-0 -0 -0
-0.7597782 -2.9681945 -1.056996
-0.76340407 -2.9079375 -1.0364031
-0.78465509 -2.9159245 -1.0411294
-0.79828131 -2.8956282 -1.0353904
-0.82651353 -2.9278183 -1.0492314
-0.86169946 -2.9823782 -1.0715122
-0.88745058 -3.0023108 -1.0809647
-1.2102209 -4.0042005 -1.4583883
-1.2492112 -4.043467 -1.4759429
-1.2754143 -4.0402141 -1.4776309
-1.2776557 -3.9624319 -1.451299
-1.0017872 -3.0425224 -1.106959
-1.0408201 -3.0969939 -1.129915
-1.0329437 -3.0121911 -1.1002072
-1.0352514 -2.9595921 -1.0826527
-1.061927 -2.977123 -1.0917675
-1.0782449 -2.9652431 -1.0897421
-1.0902064 -2.9418004 -1.0833279
-1.1132222 -2.9482653 -1.0883917
-1.1319671 -2.9431365 -1.0890669
-1.1458864 -2.9256175 -1.0850158
-1.1610278 -2.9115362 -1.0823151
-1.167192 -2.8755739 -1.0711746
-1.1815809 -2.8605275 -1.0681363
-1.1929126 -2.8384707 -1.0623974
-1.1966205 -2.7990718 -1.0499066
-1.2088951 -2.7804539 -1.0455179
-1.2247913 -2.7704012 -1.0445052
-1.2433102 -2.7662683 -1.0458555
-1.2575231 -2.7525938 -1.0434924
-1.2973731 -2.7943473 -1.0630726
-1.2980326 -2.7514279 -1.0492314
-1.9335183 -4.0345693 -1.562703
-1.3300514 -2.7319064 -1.0478811
-1.3413666 -2.7127242 -1.0434924
-1.3638983 -2.7162201 -1.0482187
-1.3946444 -2.7354758 -1.0593591
-1.4152958 -2.734391 -1.0623974
-1.4451779 -2.7506557 -1.072525
-1.4646852 -2.7467203 -1.0745505
-1.4676267 -2.7120163 -1.0640854
-1.5014521 -2.7343156 -1.0769137
-1.5145372 -2.7184727 -1.0742129
-1.5274845 -2.7025721 -1.0715122
-1.5337409 -2.6751821 -1.0640854
-1.5406651 -2.6494453 -1.0573336
-1.5525904 -2.6326444 -1.0542953
-1.5667826 -2.6198368 -1.0529449
-1.5906357 -2.6230528 -1.0583463
-1.6264166 -2.6453204 -1.0718498
-1.630172 -2.615319 -1.0634102
-1.6311074 -2.5813928 -1.0532825
-1.6626508 -2.5959101 -1.0637478
-1.6764979 -2.5825009 -1.0623974
-1.6948986 -2.5760977 -1.0640854
-1.7111955 -2.5664327 -1.064423
-1.7279644 -2.5574448 -1.065098
-1.7377758 -2.5382495 -1.0613846
-1.7511718 -2.5244451 -1.0600343
-1.764464 -2.5105717 -1.0586839
-1.7820188 -2.5027654 -1.0600343
-1.7912858 -2.4833856 -1.0563208
-1.8014927 -2.4655068 -1.0532825
-1.8137875 -2.4506233 -1.0515946
-1.8304837 -2.4417076 -1.0526073
-1.8448621 -2.4296803 -1.0522697
-1.8562932 -2.4138372 -1.0502442
-1.8716476 -2.4031444 -1.0505818
-1.875284 -2.3775711 -1.0441676
-1.8986475 -2.3770533 -1.0492314
-1.9043192 -2.3543797 -1.0441676
-1.9240966 -2.3492053 -1.0472059
-1.9438821 -2.3438766 -1.0502442
-1.9642795 -2.3391142 -1.0536201
-1.951161 -2.2947438 -1.0384287
-1.9609064 -2.2777345 -1.0360655
-1.9698982 -2.2599823 -1.0333648
-1.9824826 -2.2464411 -1.0326896
-1.994348 -2.2321284 -1.0316769
-2.0143201 -2.226831 -1.0350528
-2.0374801 -2.2248435 -1.0401165
-2.0581319 -2.2198937 -1.04383
-2.0646291 -2.1996729 -1.0401165
-2.0709558 -2.1794562 -1.0364031
-2.0829847 -2.1653512 -1.0357279
-2.0916355 -2.1478083 -1.0333648
-2.1034534 -2.1335928 -1.0326896
-2.1184998 -2.1226451 -1.0337024
-2.13416 -2.1122553 -1.0350528
-2.1470804 -2.0991206 -1.0350528
-2.1585658 -2.084599 -1.0343776
-2.172678 -2.0726147 -1.0350528
-2.1860394 -2.05989 -1.0353904
-2.2062159 -2.0534935 -1.0391037
-2.2250099 -2.0456522 -1.042142
-2.2674801 -2.0591764 -1.0566584
-2.2765691 -2.0420816 -1.0549704
-2.2855341 -2.0249529 -1.0532825
-2.2936661 -2.0071712 -1.051257
-2.3102112 -1.9967533 -1.0532825
-2.3195562 -1.9800956 -1.0519321
-2.3323817 -1.9664326 -1.0522697
-2.3530831 -1.9593133 -1.0563208
-2.3650608 -1.9448382 -1.0563208
-2.3922927 -1.9427531 -1.0634102
-2.4019654 -1.9262706 -1.0623974
-2.4233317 -1.9190944 -1.0667861
-2.4409928 -1.9088285 -1.0694867
-2.4586189 -1.8984179 -1.0721874
-2.4769573 -1.8884336 -1.0752257
-2.487746 -1.8726336 -1.0748881
-2.4954123 -1.8545259 -1.0732002
-2.5249572 -1.8525456 -1.0813023
-2.5202692 -1.8254205 -1.0742129
-2.500031 -1.7874718 -1.0603719
-2.5186415 -1.7775267 -1.0637478
-2.5271838 -1.7604249 -1.062735
-2.5518987 -1.7544861 -1.0688115
-2.5781929 -1.7493672 -1.0755633
-2.5935707 -1.7366577 -1.0775888
-2.6026073 -1.7196732 -1.0769137
-2.6233597 -1.7103559 -1.0813023
-2.6338048 -1.6942271 -1.0813023
-2.6473298 -1.6800524 -1.0826527
-2.659184 -1.6647762 -1.0833279
-2.6789587 -1.6543646 -1.0873789
-2.6962938 -1.6423036 -1.0904171
-2.7151954 -1.6310616 -1.0941306
-2.7405384 -1.6234881 -1.1005448
-2.7683282 -1.6170893 -1.1079718
-2.7994046 -1.6122897 -1.116749
-2.8264329 -1.6048449 -1.1238384
-2.8838639 -1.6141429 -1.1434186
-2.9406896 -1.6223407 -1.1626611
-2.9654729 -1.6123616 -1.1687376
-3.0508089 -1.6345981 -1.1994581
-3.1082261 -1.6409022 -1.2187006
-3.1666687 -1.6469966 -1.2382808
-3.2278142 -1.6537225 -1.2588737
-3.29 -1.6601833 -1.2798041
-3.3119254 -1.6458309 -1.2845304
-3.4115801 -1.6693419 -1.3203148
-3.7855422 -1.8236721 -1.4651401
-4.1980834 -1.9908156 -1.6244817
-4.1940141 -1.9574538 -1.6180675
-3.7628706 -1.728143 -1.4431968
-3.7673991 -1.7023081 -1.4408337
-3.7502496 -1.6669227 -1.4300309
-3.8216407 -1.670656 -1.4539996
-3.8966756 -1.6750622 -1.4793187
-3.9632356 -1.6749444 -1.5012619
-4.0603623 -1.6867135 -1.5350208
-4.0810928 -1.6660379 -1.5390719
-4.2371311 -1.6994973 -1.5954491
-4.2588639 -1.6779535 -1.5998378
-4.3173609 -1.6704758 -1.6184051
-4.3539267 -1.6539842 -1.6285328
-4.485702 -1.6726323 -1.6751199
-4.5427299 -1.6622241 -1.6930121
-4.6059985 -1.6534051 -1.7132673
-4.6728792 -1.6451221 -1.7348731
-4.7300425 -1.6327006 -1.7527652
-4.7783113 -1.6166216 -1.7672814
-4.8337069 -1.6023812 -1.7844985
-4.9222307 -1.5982801 -1.8142062
-5.0180593 -1.5954341 -1.8466147
-5.1041484 -1.5883939 -1.8753097
-5.2200527 -1.5894065 -1.915145
-5.2405324 -1.5605716 -1.9191961
-5.2843518 -1.5383874 -1.9320245
-5.3000293 -1.5077376 -1.9343876
-5.3091807 -1.475189 -1.9343876
-5.3208575 -1.4433241 -1.9354004
-5.3277936 -1.410167 -1.9347252
-5.3427258 -1.379097 -1.9370884
-5.3684311 -1.3506535 -1.9435025
-5.3793602 -1.3183604 -1.9445152
-5.3855171 -1.2848915 -1.94384
-5.3859644 -1.2501192 -1.9411393
-5.3843517 -1.2149755 -1.9377635
-5.380672 -1.1794953 -1.9337125
