# .PCD v0.7 - Point Cloud Data file format
VERSION 0.7
FIELDS x y z
SIZE 4 4 4
TYPE F F F
COUNT 1 1 1
WIDTH 1510
HEIGHT 1
VIEWPOINT 0 0 0 1 0 0 0
POINTS 1510
DATA ascii
7.5889373 -7.2239785 -1.5292026
7.5466051 -7.2724667 -1.5296465
7.5131655 -7.3296857 -1.5320143
7.444128 -7.3520169 -1.5269828
7.1352382 -7.1339045 -1.4711937
7.060751 -7.1465921 -1.4646825
7.0001912 -7.1727929 -1.4611309
6.9498711 -7.2092013 -1.4597991
6.8850474 -7.2302208 -1.4553596
6.8276811 -7.2586417 -1.4525479
6.7708988 -7.2873564 -1.4498842
6.7434416 -7.3477111 -1.4537318
6.6882677 -7.3779578 -1.451512
6.5887809 -7.3584337 -1.4393774
2.1713259 -2.4539385 -0.45174545
2.1555774 -2.4664705 -0.45159745
2.1442785 -2.4841437 -0.45248535
6.4196801 -7.5337238 -1.4424851
6.4134469 -7.6206484 -1.451808
6.3659344 -7.6590962 -1.45166
6.303762 -7.6796646 -1.4481084
6.2235193 -7.6774764 -1.4402654
6.1898894 -7.7325063 -1.443521
6.1594968 -7.7920675 -1.4476645
2.0185876 -2.5848069 -0.45218939
1.985184 -2.5744255 -0.44789791
1.9627631 -2.5778999 -0.44627011
1.9427506 -2.5843594 -0.44523424
1.9274458 -2.5970256 -0.44538221
1.8472083 -2.5210259 -0.42910421
1.8346014 -2.5363204 -0.42984411
1.8362364 -2.5716822 -0.43428355
5.9307189 -8.4193439 -1.5024178
5.8823342 -8.4604483 -1.5033057
5.8325491 -8.4996443 -1.5038977
5.7908216 -8.5508318 -1.5067093
5.7102242 -8.5442648 -1.4991622
5.6723881 -8.6014347 -1.5031577
5.6205826 -8.6377354 -1.5034537
5.5738873 -8.6820478 -1.5052295
1.7904322 -2.8253636 -0.4619562
1.7746342 -2.8388128 -0.46240014
1.7577009 -2.8504903 -0.46254814
5.3971481 -8.8787651 -1.5161802
5.2693543 -8.7895594 -1.4948708
5.2193494 -8.828537 -1.4960546
5.164084 -8.8586874 -1.4957587
5.093864 -8.8627663 -1.4910232
5.0579104 -8.9265547 -1.4966465
5.0044894 -8.9600115 -1.4970905
4.9532323 -8.9974813 -1.4982743
4.8946309 -9.0216198 -1.4972384
4.8359199 -9.0453768 -1.4962026
4.7817097 -9.0775042 -1.4966465
4.7250104 -9.1049175 -1.4963505
4.6663542 -9.1284542 -1.4954627
4.6075873 -9.1516142 -1.4945748
4.5500298 -9.1770554 -1.4941308
4.4953699 -9.2083569 -1.4947227
4.437499 -9.2330923 -1.4942788
4.376534 -9.2512054 -1.492799
4.3142619 -9.2662296 -1.4908752
4.2573242 -9.2925262 -1.4908752
4.2030702 -9.3247862 -1.4919111
4.141768 -9.3413582 -1.4904313
4.0847673 -9.3675022 -1.4905792
4.0279918 -9.394208 -1.4908752
3.9691222 -9.4160118 -1.4904313
3.911272 -9.4401894 -1.4904313
3.8555114 -9.4695063 -1.4913192
3.7940302 -9.4847202 -1.4899874
3.7361231 -9.5087423 -1.4901353
3.6794879 -9.5361013 -1.4908752
3.6103988 -9.5307522 -1.4864358
3.5525405 -9.5545797 -1.4867318
3.4918146 -9.5706234 -1.4858438
3.4373558 -9.6039734 -1.4877676
3.3763974 -9.6192846 -1.4868797
3.3198848 -9.6473026 -1.4880636
3.2568359 -9.6562452 -1.4862878
3.1922514 -9.6600828 -1.483772
3.1377892 -9.6945438 -1.4861398
3.0806348 -9.7211571 -1.4873236
3.0215147 -9.741766 -1.4876196
2.9590998 -9.7516041 -1.4862878
2.9014595 -9.7771626 -1.4874716
2.8449941 -9.8071299 -1.4893954
2.7858434 -9.828208 -1.4899874
2.724695 -9.8422565 -1.4895434
2.6632211 -9.8549709 -1.4889514
2.6029539 -9.8720827 -1.4890994
2.5430696 -9.8907423 -1.4895434
2.4830542 -9.9090376 -1.4899874
2.4229097 -9.9269695 -1.4904313
2.361268 -9.9387627 -1.4899874
2.3002405 -9.953064 -1.4899874
2.2391262 -9.9669905 -1.4899874
2.1772957 -9.977643 -1.4895434
2.1145992 -9.9840422 -1.4885075
2.0542929 -10.001673 -1.4892474
0.52205366 -2.6188776 -0.36103246
0.50728345 -2.6288297 -0.36206833
0.49277276 -2.6406436 -0.36340016
0.47848615 -2.6543245 -0.36502796
0.46489546 -2.6728015 -0.3673957
0.45223746 -2.6980391 -0.37079927
0.4366166 -2.7066219 -0.37168717
0.42090744 -2.7151141 -0.37257507
0.40351442 -2.7127542 -0.37183514
0.38700077 -2.7161582 -0.37198314
0.36952898 -2.7126017 -0.37109524
0.35402137 -2.7236452 -0.37242708
0.34141815 -2.7591391 -0.37745845
0.32310176 -2.7493947 -0.37568268
0.30273813 -2.7198706 -0.37094727
0.29088244 -2.7679069 -0.37790242
1.0013487 -10.157269 -1.4886554
0.7252667 -7.8469582 -1.1406018
0.67608702 -7.8394365 -1.138826
0.62608165 -7.819777 -1.1352744
0.577434 -7.8145947 -1.1339426
0.53227419 -7.8594337 -1.1401578
0.63044673 -10.246471 -1.4975344
0.20104384 -3.6172192 -0.50353914
0.1803004 -3.6480188 -0.50797862
0.15443277 -3.5680339 -0.4958441
0.13180922 -3.5491478 -0.49288446
0.109302 -3.5261652 -0.48933288
0.08686357 -3.4941428 -0.48444948
0.065113172 -3.4777999 -0.48193377
0.12612934 -10.200784 -1.4879156
0.022248913 -3.448668 -0.47749433
0.00094008871 -10.222332 -1.4910232
-0.0619535 -10.249837 -1.4951667
-0.12485631 -10.250253 -1.4953147
-0.18774833 -10.249293 -1.4953147
-0.25036606 -10.237073 -1.4936869
-0.31259802 -10.216562 -1.4908752
-0.37480628 -10.201604 -1.4889514
-0.43722513 -10.19516 -1.4883596
-0.50001597 -10.197224 -1.4890994
-0.56344932 -10.209764 -1.4914671
-0.62596327 -10.20414 -1.4911712
-0.68902999 -10.207014 -1.4922071
-0.75972426 -10.312075 -1.508633
-0.84655279 -10.601986 -1.5528797
-0.91498441 -10.636005 -1.558799
-0.9827742 -10.657765 -1.5629425
-1.0490232 -10.660393 -1.5642743
-1.1159593 -10.668509 -1.566494
-1.1803087 -10.651632 -1.5650142
-1.2378197 -10.577394 -1.5549514
-1.3003974 -10.550951 -1.5521398
-1.3471906 -10.404482 -1.5312743
-1.3770603 -10.146122 -1.4935389
-1.4378984 -10.12769 -1.4920591
-1.5004492 -10.121612 -1.492503
-0.45605767 -2.9568624 -0.40912661
-0.47827744 -2.9793956 -0.41297415
-1.6817702 -10.063991 -1.4882115
-0.52105993 -3.0093558 -0.41844949
-0.54406714 -3.0314097 -0.42229703
-0.56030369 -3.0153747 -0.42037326
-1.9377838 -10.069216 -1.4957587
-2.0006888 -10.062956 -1.4966465
-2.0649819 -10.063085 -1.4985703
-2.1311958 -10.07151 -1.5018259
-0.61944282 -2.8450646 -0.39714009
-0.63862181 -2.8489299 -0.39832392
-0.65475476 -2.8391762 -0.39743605
-2.3742931 -10.001741 -1.4996061
-2.4353836 -9.9860239 -1.4994582
-2.4942076 -9.9612999 -1.4979783
-0.93228 -3.6316385 -0.52248085
-0.75817513 -2.880873 -0.40720284
-0.76809925 -2.8475239 -0.4027634
-0.78713965 -2.8484764 -0.4036513
-0.80298489 -2.8378837 -0.4027634
-0.81459773 -2.8129563 -0.39965576
-2.9666047 -10.003355 -1.5226914
-2.9791195 -9.8240767 -1.4975344
-0.98076522 -3.1668317 -0.45751673
-1.0175028 -3.2154369 -0.46609971
-3.1704054 -9.8014507 -1.5028617
-3.2121816 -9.726408 -1.4941308
-3.2736974 -9.7121382 -1.4950187
-3.3325846 -9.6899977 -1.4947227
-1.1271187 -3.215374 -0.47127908
-1.1461602 -3.2065351 -0.47098312
-3.5266488 -9.6716118 -1.5018259
-3.5848925 -9.6470089 -1.501382
-1.1562984 -3.0563366 -0.45041361
-1.1853526 -3.0759428 -0.45470509
-3.7614934 -9.5784683 -1.5012339
-1.2053819 -3.0170879 -0.44760194
-1.2328207 -3.0316191 -0.45115352
-3.9477623 -9.5331926 -1.5053774
-4.0031099 -9.5014992 -1.5041935
-4.0644517 -9.4840288 -1.5053774
-4.1233587 -9.4607248 -1.5056734
-4.1901488 -9.4551373 -1.508929
-4.2525554 -9.439167 -1.5105568
-4.3120403 -9.4164934 -1.5111488
-1.3291707 -2.8580899 -0.43309972
-1.3428768 -2.8418343 -0.43176788
-1.3624303 -2.8379982 -0.43250778
-1.3785169 -2.8269186 -0.43206385
-4.612916 -9.3081455 -1.5158842
-4.6677198 -9.2752495 -1.5151442
-4.7276945 -9.2525988 -1.5161802
-4.7925768 -9.2392168 -1.5188438
-4.8551688 -9.2210121 -1.5207676
-4.9074602 -9.183198 -1.5194358
-4.9547553 -9.1363964 -1.5166241
-4.7326927 -8.6007032 -1.4303505
-4.7395673 -8.4894724 -1.4162923
-4.7696314 -8.4215088 -1.409633
-4.7950988 -8.3466368 -1.40179
-4.823812 -8.2786074 -1.3951309
-4.8614335 -8.2267179 -1.3912833
-4.8802953 -8.1441402 -1.3821084
-4.91117 -8.0827723 -1.376633
-4.9658608 -8.0609055 -1.3781129
-4.922482 -7.8818212 -1.3519201
-5.0734015 -8.0135641 -1.3806286
-5.203681 -8.1087894 -1.4031218
-5.2581921 -8.0841684 -1.4044538
-5.3409057 -8.1021175 -1.4134806
-5.4635987 -8.1785603 -1.4331622
-5.4454741 -8.0441561 -1.4149604
-5.4566822 -7.9551377 -1.4048977
-5.5110364 -7.9296269 -1.4063774
-5.5533237 -7.8867683 -1.4047496
-5.6326308 -7.8960185 -1.4127407
-5.6774979 -7.8564997 -1.4118528
-5.6800241 -7.759275 -1.4003103
-6.307848 -8.5067129 -1.5460725
-6.3557673 -8.4623137 -1.5450367
-6.4057751 -8.4207945 -1.5445927
-1.7160236 -2.2287247 -0.38234186
-1.7406191 -2.2321873 -0.38500556
-1.7555093 -2.223017 -0.3853015
-1.7684983 -2.2114313 -0.38515353
-1.784525 -2.2036116 -0.38574547
-6.7584372 -8.2366467 -1.5556914
-6.8158021 -8.2033892 -1.5573192
-6.8742867 -8.1712513 -1.559243
-6.9275022 -8.1326818 -1.5599828
-6.9817948 -8.0952644 -1.5610187
-7.0313354 -8.0522728 -1.5610187
-7.0897827 -8.0193501 -1.5630904
-7.1395144 -7.9764333 -1.5632384
-7.1949644 -7.9398036 -1.5647182
-7.2509022 -7.9035225 -1.566346
-7.2952218 -7.8545356 -1.5654582
-7.3426018 -7.8089046 -1.5653101
-7.406745 -7.7808943 -1.5688617
-7.4639573 -7.7452698 -1.5709335
-7.5141034 -7.7021575 -1.5715255
-7.5633068 -7.6580176 -1.5719694
-7.6080551 -7.6093678 -1.5715255
-7.6531949 -7.5611525 -1.5712295
-3.4989698 -3.4156051 -0.69310415
-3.4087756 -3.2870064 -0.67001891
-3.3457906 -3.1869242 -0.65285301
-7.8775158 -7.4096756 -1.5796645
-7.9293537 -7.3672581 -1.5809963
-3.5350542 -3.2451532 -0.67948979
-3.2735014 -2.9683683 -0.62266469
-3.4043941 -3.0491514 -0.64530593
-3.5534382 -3.1435039 -0.67135078
-3.4601784 -3.0234084 -0.64900547
-3.4202514 -2.951735 -0.63746291
-3.4255004 -2.91979 -0.63494718
-3.7664864 -3.1705987 -0.6981355
-3.788152 -3.1493247 -0.69857949
-3.8807979 -3.1862514 -0.71278572
-5.2433486 -4.2508397 -0.97145832
-5.3480921 -4.2816195 -0.98655248
-5.3711591 -4.2462707 -0.98596054
-5.4017911 -4.2168846 -0.98684847
-5.4902353 -4.2319522 -0.99868703
-5.4633641 -4.1580639 -0.98877221
-5.5077524 -4.1387186 -0.99232376
-5.5314546 -4.1036673 -0.99202782
-5.524611 -4.0462804 -0.98610854
-5.6727729 -4.1015224 -1.0088978
-5.7445273 -4.0999532 -1.0174807
-5.6264548 -3.9638355 -0.99128789
-5.8366356 -4.0585032 -1.0251758
-5.7342067 -3.9353342 -1.0020906
-5.6337667 -3.8157961 -0.97959733
-5.7672658 -3.8547804 -0.9994269
-5.7214522 -3.7735927 -0.98699641
-5.7693691 -3.7545946 -0.99143589
-5.6865959 -3.6512797 -0.97264218
-5.7222619 -3.624784 -0.97500986
-5.6135435 -3.5078681 -0.95192468
-5.6172795 -3.4624634 -0.94881707
-5.7897029 -3.5198691 -0.97530586
-5.9570985 -3.5717268 -1.0007588
-5.9771991 -3.534101 -1.0004628
-5.9551935 -3.4719625 -0.99291569
-5.9952502 -3.4461966 -0.9961713
-5.8269687 -3.3021059 -0.96361524
-5.851438 -3.2687008 -0.96435517
-5.9095073 -3.2537174 -0.97086638
-5.8937173 -3.1980634 -0.96479911
-5.8879352 -3.1483204 -0.96050763
-5.9570208 -3.1384006 -0.96894264
-5.9041796 -3.0644431 -0.95680809
-5.9413652 -3.0376093 -0.9599157
-5.8971701 -2.969527 -0.94940901
-6.0287023 -2.989506 -0.96835071
-6.0078254 -2.9333725 -0.9618395
-6.2173696 -2.9885397 -0.99365562
-6.2650933 -2.9642878 -0.99853903
-6.4714546 -3.0134304 -1.0296153
-6.269527 -2.8727684 -0.99335963
-6.2834291 -2.8326199 -0.99276775
-5.7934618 -2.569186 -0.90974981
-5.8653259 -2.5580924 -0.91892469
-6.2745099 -2.6907668 -0.98300093
-6.3692803 -2.6852448 -0.99572736
-6.3490882 -2.630975 -0.98980808
-6.5840406 -2.6810763 -1.0251758
-6.6637297 -2.6659641 -1.0353866
-6.6201282 -2.6015244 -1.0257677
-6.5630708 -2.532738 -1.0140772
-6.4684253 -2.4507408 -0.99646729
-6.5000272 -2.4172075 -0.99913096
-6.5175242 -2.3782949 -0.9995749
-6.5143018 -2.3319294 -0.99676323
-6.5359535 -2.294534 -0.9979471
-6.5199828 -2.2440925 -0.99321169
-6.5767388 -2.2185786 -1.0000188
-6.5780201 -2.17415 -0.9980951
-6.6213474 -2.1434891 -1.0028305
-6.7663693 -2.1446335 -1.023548
-6.7331142 -2.0887249 -1.0162969
-6.7713566 -2.0551226 -1.0202924
-6.8113356 -2.0216923 -1.0245838
-6.8587575 -1.9900515 -1.0300592
-6.8403897 -1.9393023 -1.0253237
-6.7415924 -1.8666984 -1.0081578
-6.8054318 -1.8394822 -1.0162969
-6.9275255 -1.8269267 -1.0334628
-6.9280686 -1.7816781 -1.031835
-7.2007747 -1.8047322 -1.072234
-7.3375793 -1.7912205 -1.0916197
-7.362865 -1.7495917 -1.0938394
-7.795526 -1.8018732 -1.1586555
-7.9724092 -1.7912737 -1.1841085
-8.2209539 -1.794165 -1.220512
-8.2608347 -1.7498326 -1.2249515
-8.9892883 -1.8464744 -1.3346062
-9.3486757 -1.8605411 -1.3877318
-9.8260708 -1.8928874 -1.4587631
-10.347951 -1.9275868 -1.5364537
-11.24633 -2.0235128 -1.6712654
-11.282896 -1.9586951 -1.6749649
-11.535638 -1.9297074 -1.7115164
-11.824569 -1.9035027 -1.7535433
-12.284644 -1.9002646 -1.821467
-12.899676 -1.9143745 -1.9127719
-13.0512 -1.8550771 -1.9339334
-13.054497 -1.7738969 -1.9327495
-13.148503 -1.7045629 -1.945328
-13.117489 -1.6187694 -1.9391128
-13.06038 -1.5304303 -1.92905
-13.069525 -1.4502646 -1.92905
-13.087029 -1.3709707 -1.9303819
-13.106022 -1.2917105 -1.9320096
-13.110746 -1.2109965 -1.9315656
-13.120887 -1.1307822 -1.9320096
-13.134479 -1.0508041 -1.9330455
-13.141665 -0.97026545 -1.9331934
-13.144411 -0.88941145 -1.9327495
-13.157518 -0.80922711 -1.9339334
-13.130636 -0.72673273 -1.929198
-13.125958 -0.6457144 -1.9278661
-13.133625 -0.56533265 -1.9284581
-13.137836 -0.484772 -1.928606
-13.125734 -0.40369591 -1.9263864
-13.119066 -0.32293206 -1.9250544
-13.141566 -0.24281074 -1.9281621
-13.130941 -0.16202566 -1.9263864
-13.121799 -0.081392206 -1.9249065
-13.140842 -0.00087641669 -1.9277182
-13.125766 0.079662941 -1.9254985
-13.12503 0.16019963 -1.9254985
-13.111934 0.24051157 -1.9237226
-13.108233 0.32091177 -1.9234266
-13.11096 0.40148813 -1.9241666
-13.104297 0.48178223 -1.9235747
-13.08232 0.56137234 -1.920763
-13.09641 0.64250726 -1.9234266
-13.082347 0.72230715 -1.9219469
-13.069771 0.80207998 -1.920763
-13.072497 0.88279325 -1.9219469
-12.139123 -0.30687362 -1.921482
-12.126959 -0.23211864 -1.919251
-12.124207 -0.15765317 -1.9186134
-12.11606 -0.083196171 -1.9171792
-12.107458 -0.0088450694 -1.9157449
-12.102348 0.065418541 -1.9149481
-12.101719 0.13967593 -1.9149481
-12.104583 0.21399772 -1.9155855
-12.127715 0.28885287 -1.9195696
-12.110912 0.36281875 -1.9171792
-12.120297 0.43755007 -1.9190916
-12.10259 0.51128602 -1.9167011
-12.06767 0.58401048 -1.9116014
-12.074703 0.65863645 -1.9133544
-12.086201 0.73366958 -1.9159043
-12.067681 0.80689371 -1.9136732
-12.030996 0.8786245 -1.9085735
-12.04014 0.95359743 -1.910964
-12.030128 1.0271206 -1.9103265
-12.026548 1.1011868 -1.9108046
-11.989107 1.171983 -1.9058644
-11.980708 1.2454227 -1.905705
-11.966953 1.3182632 -1.9047488
-11.989038 1.3952028 -1.9096891
-11.988091 1.4697006 -1.910964
-11.932827 1.5373033 -1.9034739
-11.912409 1.6090397 -1.9017209
-11.877873 1.6786497 -1.8977367
-11.880046 1.7533728 -1.8998084
-11.871016 1.8265345 -1.9001272
-11.815719 1.8923156 -1.8929558
-11.822388 1.967859 -1.8959837
-11.772151 2.0338094 -1.8897685
-11.745846 2.1035676 -1.8875374
-11.766691 2.1818979 -1.8931152
-11.745325 2.2525685 -1.8918402
-11.795197 2.3372567 -1.9023583
-11.740978 2.4014771 -1.8958243
-11.758865 2.4803998 -1.9012427
-11.703872 2.5439086 -1.8947088
-11.725615 2.6240814 -1.900924
-11.715065 2.6973078 -1.9018801
-11.658906 2.7598171 -1.8953463
-11.660938 2.835968 -1.8985336
-11.594469 2.8952684 -1.890406
-11.593699 2.9707665 -1.8932745
-11.549473 3.0350745 -1.8889717
-11.52396 3.1040864 -1.8878561
-11.522779 3.1797266 -1.890884
-11.514451 3.2535903 -1.8927964
-11.480045 3.3200667 -1.890406
-11.456617 3.3896043 -1.8899279
-11.48285 3.4741297 -1.8978961
-11.433022 3.5357723 -1.8931152
-11.405464 3.604073 -1.892159
-11.33522 3.6585248 -1.8840314
-11.329436 3.7335687 -1.8868999
-11.280114 3.7942028 -1.8824377
-11.255687 3.8630242 -1.8822784
-11.272771 3.9463663 -1.8892905
-11.266939 4.0220981 -1.8924778
-11.227204 4.0857539 -1.8899279
-11.159345 4.1387758 -1.8825971
-11.11527 4.2001915 -1.8794098
-11.099423 4.2722149 -1.8811629
-11.115281 4.3568106 -1.8884935
-11.04066 4.4059052 -1.8802067
-11.07287 4.4977136 -1.8905653
-11.023168 4.5565205 -1.8867406
-10.9313 4.5972834 -1.8755851
-10.933746 4.6774707 -1.8810035
-10.908462 4.7460465 -1.8816409
-10.8683 4.8080974 -1.8797286
-10.810683 4.8621416 -1.8747883
-10.786033 4.9308457 -1.8757445
-10.755575 4.9969349 -1.8757445
-10.73364 5.06705 -1.8773381
-10.677423 5.120862 -1.8728759
-10.686625 5.2061687 -1.8802067
-10.626165 5.2576337 -1.875107
-10.592823 5.3222923 -1.8749477
-10.557328 5.3858428 -1.8744695
-10.535479 5.4564219 -1.8765413
-10.475585 5.5071831 -1.8717604
-10.433758 5.567174 -1.870326
-10.375093 5.617928 -1.8658639
-10.393207 5.7104797 -1.8755851
-10.36832 5.779912 -1.8774974
-10.33266 5.8434219 -1.8774974
-10.281197 5.8978701 -1.8746289
-10.232015 5.9533968 -1.8722384
-10.129824 5.977438 -1.8599674
-10.175978 6.0891557 -1.8755851
-10.164588 6.1673536 -1.8805254
-10.098806 6.2125373 -1.8752663
-10.061335 6.2749081 -1.8754257
-10.02014 6.3349423 -1.8749477
-10.019316 6.4208069 -1.8822784
-9.9846973 6.4853897 -1.8832346
-9.9298725 6.5367622 -1.880366
-9.9092875 6.6107159 -1.8841908
-9.8407307 6.652596 -1.8787724
-9.8347483 6.7368412 -1.885625
-9.7843046 6.7908678 -1.883872
-9.7666798 6.8678102 -1.8886529
-9.7838573 6.9699936 -1.9004459
-9.7841349 7.0610909 -1.9090515
-9.7462034 7.1250706 -1.9101671
-9.691988 7.1771007 -1.9080954
-9.6461878 7.23525 -1.9077767
-9.5945368 7.2889271 -1.9063424
-9.5238113 7.3277955 -1.9010834
-9.5144911 7.4140058 -1.9084141
-9.4571953 7.4630733 -1.9060236
-9.4197083 7.52774 -1.9077767
-9.3932953 7.6015425 -1.9119202
-9.3953476 7.6990809 -1.9221195
-9.3593264 7.7660403 -1.9245099
-9.2699251 7.7883954 -1.9157449
-9.2535448 7.8719931 -1.9224381
-9.2013283 7.9254026 -1.9216413
-9.1837759 8.0089626 -1.9283347
-9.1204004 8.0527477 -1.9253068
-9.061985 8.1006632 -1.9233943
-9.0165014 8.1600885 -1.9243506
-8.9808207 8.2285967 -1.9275378
-8.9388475 8.291604 -1.9294503
-8.9101133 8.3672447 -1.9343905
-8.8707685 8.433321 -1.9370997
-8.8273916 8.4958076 -1.9390121
-8.7581253 8.5332775 -1.9351873
-8.7294989 8.6104259 -1.9406058
-8.6806936 8.6680117 -1.9415619
-8.6308155 8.7246218 -1.9423587
-8.58885 8.7894182 -1.9450679
-8.5327005 8.8398218 -1.9445899
-8.4891996 8.9034424 -1.9471396
-8.4330559 8.953927 -1.946821
-8.3846817 9.0127306 -1.9484146
-8.333231 9.0683689 -1.9493707
-8.2946835 9.1383352 -1.9535142
-8.2437277 9.1949387 -1.9547892
-8.2159519 9.2778673 -1.9618012
-8.1621189 9.3318205 -1.962598
-8.1143875 9.3929319 -1.9649885
-8.0412216 9.4245205 -1.9611638
-7.9743361 9.4631147 -1.9589326
-7.9135952 9.508831 -1.9582951
-7.8551011 9.557209 -1.9582951
-7.8261757 9.6420183 -1.9659446
-7.7847724 9.7121954 -1.9705663
-7.7317729 9.7682934 -1.9723192
-7.6856737 9.8334408 -1.9759846
-7.6257954 9.8811951 -1.976144
-7.5668168 9.9301558 -1.9766221
-7.5104923 9.9827089 -1.9778969
-7.4526305 10.03336 -1.9788531
-7.3885913 10.075715 -1.9782157
-7.3272076 10.12166 -1.9783751
-7.2575026 10.155987 -1.9763033
-7.1904974 10.193873 -1.9750284
-7.1379676 10.252385 -1.9778969
-7.0805168 10.304126 -1.9794906
-7.0188212 10.349829 -1.9799687
-6.9595761 10.399263 -1.9812436
-6.9119582 10.466484 -1.9860245
-6.8449121 10.504562 -1.9852277
-6.7733874 10.535569 -1.983156
-6.7054424 10.57193 -1.9821998
-6.6420188 10.615385 -1.9826779
-6.577796 10.65762 -1.9829966
-6.5148454 10.701997 -1.9837935
-6.4505811 10.744308 -1.9842715
-6.3860426 10.786235 -1.9847497
-6.3267078 10.837152 -1.9869808
-6.2556605 10.868067 -1.9855465
-6.1947045 10.91655 -1.9874588
-6.1208577 10.942292 -1.9852277
-6.0478816 10.969269 -1.9833153
-5.97999 11.005304 -1.983156
-5.9165449 11.049623 -1.9845903
-5.8527803 11.093575 -1.9860245
-5.8023586 11.163441 -1.9922397
-5.7387013 11.208499 -1.9939928
-5.6707082 11.245263 -1.9943115
-5.5967717 11.270121 -1.9925585
-5.5257792 11.300702 -1.9919211
-5.4554791 11.332616 -1.9916023
-5.3773851 11.348034 -1.988415
-5.3089056 11.3835 -1.9888932
-5.2480173 11.435599 -1.9923991
-5.1830325 11.479282 -1.9944708
-5.1104956 11.506357 -1.993674
-5.049283 11.55921 -1.9974988
-4.9876132 11.611744 -2.0013235
-4.9178076 11.645766 -2.001961
-4.8526921 11.691223 -2.0046701
-4.7857122 11.732661 -2.006742
-4.7176719 11.771885 -2.0084949
-4.6467986 11.804285 -2.0091324
-4.5692978 11.819684 -2.0069013
-4.5117521 11.887185 -2.0137539
-4.4418306 11.922971 -2.0151882
-4.3638434 11.93702 -2.0129571
-4.2941833 11.973794 -2.0147102
-4.2235808 12.008299 -2.0161445
-4.1604414 12.064786 -2.0214033
-4.0917091 12.105986 -2.0241127
-4.0232487 12.14867 -2.0271406
-3.9541135 12.19003 -2.030009
-3.8837254 12.228176 -2.0323997
-3.8177073 12.281 -2.0373399
-3.7488885 12.325917 -2.0410051
-3.6807878 12.374236 -2.0453081
-3.6039646 12.393744 -2.0448301
-3.5335174 12.435567 -2.0481765
-3.4600518 12.467478 -2.0499296
-3.3811641 12.479897 -2.0484953
-3.3067963 12.508999 -2.0499296
-3.2287478 12.524274 -2.0491328
-3.1585765 12.570658 -2.0535951
-3.0957034 12.648295 -2.0633163
-3.0180366 12.667052 -2.0633163
-2.9378037 12.674753 -2.0615633
-2.8608458 12.696393 -2.0622008
-2.7839439 12.71853 -2.0629976
-2.7070832 12.741166 -2.0639536
-2.6453936 12.83779 -2.0771809
-2.552459 12.783108 -2.0655472
-2.4745376 12.801436 -2.0660255
-2.3999345 12.837729 -2.0695314
-2.3286643 12.893987 -2.0763841
-2.2384858 12.844816 -2.0660255
-2.1684608 12.910883 -2.0746312
-2.089673 12.926868 -2.0751092
-2.0041008 12.899451 -2.0685751
-1.9233119 12.900764 -2.0668223
-1.8403488 12.885936 -2.0625193
-1.7664583 12.935133 -2.0687346
-1.6842492 12.924191 -2.0652287
-1.6112391 12.985228 -2.0735157
-1.5286434 12.970359 -2.0695314
-1.4518785 13.005003 -2.0736749
-1.3700868 12.995013 -2.070647
-1.299394 13.094538 -2.0854678
-1.2159125 13.068843 -2.0800495
-1.1351025 13.069173 -2.078934
-1.0561608 13.091637 -2.0814838
-0.97962773 13.149064 -2.0897708
-0.8975141 13.134144 -2.0864241
-0.81543672 13.115756 -2.0825994
-0.73511028 13.123469 -2.0830774
-0.65501511 13.136607 -2.0845118
-0.57422549 13.136434 -2.0838742
-0.49194199 13.095316 -2.0767028
-0.41335046 13.154332 -2.0857866
-0.3326292 13.156621 -2.0857866
-0.25202793 13.165323 -2.0869021
-0.17093343 13.14293 -2.0830774
-0.090143666 13.123001 -2.0797307
-0.0096230144 13.126268 -2.0802088
0.07108815 13.157671 -2.0853086
0.15184349 13.158961 -2.0856273
0.23303536 13.183446 -2.0897708
0.31357098 13.166964 -2.0873802
0.39347017 13.135188 -2.0825994
0.47181699 13.070373 -2.0725594
0.55225623 13.07315 -2.0735157
0.63141203 13.047821 -2.0700095
0.71156752 13.045672 -2.0703282
0.79094326 13.030222 -2.0685751
0.87232858 13.046794 -2.0720813
0.95243764 13.04218 -2.0722406
1.0310426 13.018376 -2.0693722
1.1115741 13.019673 -2.070647
1.1900905 12.997862 -2.0682566
1.2695335 12.987367 -2.0677783
1.3391986 12.883103 -2.0521607
1.4206001 12.896232 -2.0556667
1.503696 12.921594 -2.0612445
1.5866761 12.942501 -2.0661848
1.6502964 12.81013 -2.0462642
1.7375863 12.864333 -2.0567822
1.827813 12.933585 -2.0698502
1.9035349 12.897711 -2.065866
1.9848894 12.900424 -2.0682566
2.0651002 12.894826 -2.0693722
2.1438582 12.879964 -2.0690534
2.2204955 12.852947 -2.0668223
2.305234 12.872121 -2.0722406
2.3818328 12.845115 -2.070169
2.4572577 12.812807 -2.0673003
2.5333352 12.784899 -2.0652287
2.6093607 12.757507 -2.0633163
2.682497 12.717108 -2.0593321
2.7458017 12.632879 -2.0481765
2.8148568 12.578221 -2.0419614
2.9174516 12.67135 -2.0602884
2.9790032 12.585001 -2.0489736
3.0557008 12.564567 -2.0486548
3.1298683 12.534087 -2.0467424
3.2312188 12.61028 -2.0626788
3.2969925 12.546295 -2.0553479
3.3590226 12.47054 -2.0461049
3.4270747 12.419242 -2.0410051
3.5067027 12.41033 -2.043077
3.5808654 12.381941 -2.0419614
3.6483705 12.331336 -2.0371804
3.7313976 12.333286 -2.0413239
3.7973788 12.279035 -2.0360649
3.8738399 12.259269 -2.0367024
3.9453499 12.223994 -2.03479
4.0193539 12.196743 -2.034312
4.0884514 12.155008 -2.0314434
4.1725693 12.157706 -2.0362244
4.238935 12.108581 -2.0322402
4.2942352 12.029346 -2.0231564
4.3794422 12.034313 -2.0285747
4.443933 11.982223 -2.024272
4.512486 11.941801 -2.0220408
4.5711365 11.876113 -2.015507
4.6504049 11.864387 -2.0183754
4.7315311 11.856718 -2.0220408
4.7941632 11.802767 -2.0177381
4.8615909 11.761268 -2.0156662
4.9267769 11.714835 -2.0127978
5.0012827 11.690739 -2.0139134
5.0717402 11.657115 -2.0134351
5.1379795 11.614039 -2.0113635
5.1860657 11.530973 -2.0022798
5.2641087 11.515098 -2.0051482
5.3346648 11.48258 -2.0051482
5.3797355 11.396066 -1.9955864
5.4521203 11.368183 -1.9965426
5.5299859 11.351378 -1.9995705
5.6004081 11.319003 -1.9998893
5.6644363 11.273841 -1.9979769
5.7330565 11.237992 -1.9978175
5.7982717 11.19559 -1.9965426
5.8539953 11.135335 -1.9920805
5.9226751 11.100077 -1.9922397
5.9836216 11.050505 -1.9898493
6.0303979 10.975512 -1.9828373
6.1043577 10.950376 -1.9850683
6.1656017 10.902402 -1.983156
6.225996 10.853232 -1.9810842
6.2845297 10.801173 -1.9785345
6.3391476 10.742853 -1.974869
6.4069729 10.707143 -1.9755065
6.4699898 10.663409 -1.9747096
6.522366 10.602488 -1.9707255
6.5982695 10.579859 -1.9740722
6.6609516 10.535835 -1.9734348
6.7276034 10.498091 -1.9740722
6.8004956 10.46986 -1.9766221
6.855382 10.413918 -1.9739128
6.903264 10.347841 -1.9692913
6.9494882 10.279935 -1.9643511
7.0029497 10.223253 -1.9616418
7.0627327 10.176037 -1.960845
7.1290135 10.138162 -1.9619606
7.185358 10.086187 -1.9603668
7.2413335 10.033904 -1.9587733
7.2981033 9.9829073 -1.9574983
7.3533449 9.9300051 -1.9559047
7.4058433 9.873642 -1.9536736
7.4597182 9.8193674 -1.9519206
7.5186243 9.7718458 -1.9516019
7.5717673 9.7169619 -1.9498489
7.6171813 9.6524944 -1.9461834
7.6707182 9.5986338 -1.9447492
7.7133236 9.5314331 -1.9406058
7.7378745 9.4426908 -1.932
7.8133183 9.4163074 -1.9364623
7.8569779 9.3515596 -1.9329562
7.9026966 9.2896385 -1.9300877
7.9556823 9.2364855 -1.9291315
7.9985814 9.1718712 -1.9257848
8.040987 9.1070795 -1.9224381
8.0914526 9.0516806 -1.9211633
8.1501522 9.0055218 -1.9219601
8.1739111 8.9211321 -1.91447
8.2305107 8.872982 -1.9149481
8.2800694 8.817275 -1.9138325
8.3244925 8.7562866 -1.9116014
8.3691635 8.695797 -1.9095297
8.4072065 8.6287241 -1.9060236
8.4433556 8.5601072 -1.9021989
8.4838629 8.4962626 -1.8994898
8.5098677 8.4183569 -1.8935933
8.5663042 8.3708134 -1.8947088
8.6018791 8.303009 -1.8912028
8.6383743 8.2364473 -1.8880155
8.6988106 8.1927643 -1.8902466
8.7351837 8.1264591 -1.8872187
8.788517 8.0760479 -1.8880155
8.8079348 7.9947658 -1.8814815
8.8252172 7.9122319 -1.8746289
8.8950329 7.8769135 -1.8792505
8.9223919 7.803987 -1.8747883
8.9790726 7.7568383 -1.8767006
8.9957075 7.6753249 -1.8701667
9.0350847 7.6136222 -1.8685731
9.0748014 7.5523567 -1.8671387
9.1385126 7.5109506 -1.8708042
9.1897917 7.4590917 -1.8719198
9.2199812 7.3902144 -1.8687325
9.2798605 7.3451443 -1.8717604
9.2889757 7.2600994 -1.8644296
9.3466339 7.2132206 -1.8671387
9.3632345 7.1347923 -1.8615611
9.3989477 7.0712705 -1.8599674
9.414422 6.9928622 -1.8543897
9.4468031 6.9273753 -1.8523179
9.4979277 6.8756485 -1.8540709
9.5262823 6.8074827 -1.8513618
9.5323782 6.7238636 -1.8443497
9.5766964 6.6675038 -1.8449872
9.6345129 6.6203585 -1.8483338
9.6610641 6.5516977 -1.8456246
9.7010822 6.4922953 -1.8456246
9.7242603 6.4217672 -1.8424373
9.7345324 6.3431149 -1.8368596
9.7782516 6.286469 -1.8378158
9.8208094 6.2289963 -1.8386126
9.8755817 6.1790929 -1.8417999
9.917511 6.1209741 -1.8425967
9.9430761 6.0528188 -1.8403655
9.9952631 6.0008426 -1.8432342
10.020852 5.9328613 -1.8411624
10.105662 5.8996348 -1.8502462
10.128838 5.8301287 -1.8478557
10.160128 5.7654333 -1.8470589
10.181527 5.695272 -1.844509
10.195533 5.6212516 -1.8406843
10.248048 5.5684857 -1.844031
10.280282 5.5045681 -1.8437122
10.31299 5.4409251 -1.8435528
10.368956 5.3893819 -1.8476963
10.408859 5.329257 -1.8489712
10.424615 5.2568431 -1.8459433
10.467284 5.1980491 -1.8478557
10.486566 5.1276536 -1.8456246
10.540958 5.074347 -1.849768
10.580816 5.0138011 -1.8513618
10.613171 4.9496188 -1.8516804
10.642445 4.8839927 -1.8515211
10.683008 4.8234754 -1.8534335
10.669097 4.7385983 -1.8457839
10.731444 4.6876678 -1.8516804
10.772704 4.6271877 -1.8539115
10.820901 4.5694504 -1.8574176
10.788557 4.4779882 -1.8468995
10.833199 4.4187913 -1.8499274
10.870188 4.356277 -1.8516804
10.904061 4.2923899 -1.8529553
10.906253 4.2161469 -1.8488119
10.942993 4.1533523 -1.8507242
10.982148 4.0912991 -1.8531147
11.007045 4.0238371 -1.8531147
11.04082 3.9595561 -1.8547083
11.075151 3.8953397 -1.8564614
11.107244 3.8302073 -1.8578956
11.12212 3.7591374 -1.8564614
11.099992 3.6759238 -1.8488119
11.136424 3.6123159 -1.8512024
11.180019 3.5507901 -1.8548677
11.218565 3.4873993 -1.8577362
11.237864 3.4179235 -1.8574176
11.312559 3.3649499 -1.8665013
11.331098 3.2949228 -1.8661826
11.355849 3.2266836 -1.8669794
11.361165 3.1529844 -1.864589
11.371722 3.0808904 -1.8631546
11.380868 3.0085335 -1.8615611
11.405806 2.9403706 -1.8626766
11.399696 2.8643153 -1.8586925
11.436234 2.7990086 -1.8618797
11.434948 2.7244368 -1.8588518
11.52454 2.6711655 -1.8709636
11.528193 2.5975804 -1.8688918
11.587312 2.5362964 -1.8760632
11.578514 2.4600203 -1.872079
11.574053 2.384944 -1.8688918
11.585565 2.313302 -1.8684137
11.599541 2.2421708 -1.8684137
11.634428 2.174947 -1.8719198
11.64464 2.1029921 -1.8714416
11.640791 2.0286205 -1.8687325
11.662755 1.9587911 -1.870326
11.674555 1.887193 -1.870326
11.720057 1.8208294 -1.8759038
6.0560341 0.90265 -0.94967848
0 0 -0
0 0 -0
5.9189086 0.77111912 -0.92481768
5.9127517 0.73344934 -0.92306465
5.8975325 0.69484395 -0.91987735
0 0 -0
0 0 -0
0 0 -0
0 0 -0
0 0 -0
0 0 -0
0 0 -0
0 0 -0
0 0 -0
0 0 -0
0 0 -0
0 0 -0
0 0 -0
0 0 -0
0 0 -0
0 0 -0
0 0 -0
0 0 -0
0 0 -0
0 -0 -0
0 -0 -0
0 -0 -0
0 -0 -0
0 -0 -0
0 -0 -0
0 -0 -0
0 -0 -0
0 -0 -0
0 -0 -0
5.9575863 -0.39855114 -0.92513639
5.9697976 -0.43617678 -0.92752683
5.9847236 -0.47420099 -0.93039542
5.9895701 -0.51158524 -0.93167031
0 -0 -0
6.0663571 -0.59320915 -0.9452163
10.334008 -1.0742997 -1.638451
10.285027 -1.1330409 -1.6315984
10.335736 -1.2028582 -1.6410009
10.356578 -1.2697374 -1.6456224
10.372091 -1.3362868 -1.6494472
10.349999 -1.398054 -1.6472161
10.341227 -1.4615341 -1.6472161
10.334017 -1.5252473 -1.6475347
10.307877 -1.5860753 -1.6448256
10.276505 -1.6458596 -1.6413195
10.263291 -1.7083979 -1.6408415
10.265262 -1.7735245 -1.6429132
10.241553 -1.8342155 -1.6408415
10.17769 -1.8873042 -1.6322358
10.197913 -1.9558529 -1.6374948
10.168289 -2.014936 -1.6346263
10.161537 -2.0784762 -1.6355824
10.130239 -2.1369162 -1.6325545
10.108254 -2.1971471 -1.6311202
8.3238583 -1.8629194 -1.3382087
10.091113 -2.3234618 -1.6328733
10.08147 -2.3864727 -1.6336701
10.065679 -2.4480534 -1.6335107
10.031311 -2.5049863 -1.6303234
10.064526 -2.5789859 -1.638451
7.4628854 -1.9613105 -1.2068925
9.9835033 -2.6892054 -1.6303234
9.9944134 -2.7580273 -1.634945
10.003902 -2.8268154 -1.6394072
10.00913 -2.8947265 -1.643232
9.9873934 -2.9549668 -1.6425945
7.9724388 -2.4121845 -1.3058577
7.9367385 -2.4546409 -1.3023517
7.927176 -2.5050781 -1.3033079
7.9163532 -2.5551872 -1.3041047
8.7172012 -2.8728144 -1.442911
9.7904539 -3.2931933 -1.6287298
9.7756662 -3.3551271 -1.629686
9.7632818 -3.4179819 -1.6311202
9.7291088 -3.4731777 -1.6288892
9.6853495 -3.5247071 -1.6250644
7.664196 -2.8426292 -1.2808375
9.6007328 -3.6279428 -1.6180524
9.57092 -3.6839468 -1.6167774
9.4948254 -3.7217097 -1.6075343
9.4516382 -3.7718496 -1.6040283
9.4649029 -3.8446324 -1.6104029
9.4840155 -3.9203591 -1.617893
9.5171146 -4.0025873 -1.6279329
9.5232363 -4.0741091 -1.6333513
9.5197849 -4.1419177 -1.637176
9.4851627 -4.1962581 -1.6355824
9.4592371 -4.2543793 -1.6355824
9.3979378 -4.2963333 -1.6293672
9.3705034 -4.3535013 -1.6292078
9.3168316 -4.3982735 -1.624427
9.2353697 -4.429318 -1.6147057
9.1893806 -4.4768224 -1.6113591
9.1564293 -4.5304966 -1.6104029
9.1116972 -4.5781736 -1.607375
9.0966253 -4.6407247 -1.6097654
9.0530767 -4.6887355 -1.6070563
9.031127 -4.7478704 -1.6083312
8.9608879 -4.781354 -1.600841
8.958293 -4.8508182 -1.6057813
8.9119215 -4.8966622 -1.6027534
8.865324 -4.9421201 -1.5997255
8.8356924 -4.9969096 -1.5998849
8.7620487 -5.0264697 -1.5919167
8.7182426 -5.0726914 -1.5895262
8.7005568 -5.1341166 -1.5920759
8.6307688 -5.1645961 -1.5849046
8.659687 -5.2543254 -1.5963788
8.5818768 -5.2794304 -1.5877732
8.497385 -5.2995996 -1.5778925
8.4780588 -5.3600793 -1.5804424
8.4824142 -5.4359674 -1.5876138
8.4447613 -5.4852238 -1.586817
8.4084711 -5.5353079 -1.5863389
8.3398561 -5.5637879 -1.5796456
8.3227358 -5.6264658 -1.5829922
8.2514048 -5.6523228 -1.5758208
8.1833143 -5.6797686 -1.5692869
8.1620388 -5.7395263 -1.5719961
8.1298847 -5.791791 -1.5726335
8.0621719 -5.8184581 -1.566259
8.0311003 -5.8713126 -1.5672152
7.9830227 -5.9116678 -1.5648247
7.9529176 -5.9652781 -1.5660996
7.8925819 -5.9960489 -1.5613186
7.8705087 -6.0558014 -1.5643466
7.8635736 -6.1276441 -1.5705618
7.8041267 -6.1586556 -1.5660996
7.725316 -6.1737618 -1.5576533
7.6757774 -6.2117324 -1.5552628
7.6443911 -6.2643442 -1.5566971
7.596693 -6.3035669 -1.5547848
7.510252 -6.3100543 -1.5447448
7.543581 -6.4174242 -1.5600438
7.4913464 -6.4526372 -1.5573345
7.4084573 -6.4608498 -1.5480914
7.3657146 -6.503572 -1.547454
7.3241987 -6.5473289 -1.5471352
7.2816911 -6.5901589 -1.5466572
7.2258315 -6.6207094 -1.5433105
7.2436996 -6.7193012 -1.556219
7.1692295 -6.7325354 -1.5488883
7.127069 -6.7757182 -1.5487289
7.052639 -6.7878318 -1.5413982
6.9641876 -6.7855101 -1.5308801
6.9097695 -6.8156352 -1.5280116
6.8706141 -6.8606949 -1.528649
6.8735185 -6.9483404 -1.5390077
6.8031554 -6.9621425 -1.5326331
6.7383676 -6.9810262 -1.5275334
6.7430949 -7.0722532 -1.5386889
6.6704679 -7.0825939 -1.5318363
6.6147804 -7.1103797 -1.5289677
6.534955 -7.1115813 -1.520362
6.4553652 -7.1120725 -1.5117564
2.1852005 -2.4377825 -0.48975313
2.1695468 -2.4504056 -0.48959374
2.1544704 -2.4636717 -0.48959374
6.1820726 -7.1562972 -1.4878517
6.1322789 -7.187336 -1.4864174
6.0937881 -7.2316217 -1.4878517
6.0474067 -7.2666001 -1.4873736
6.0421982 -7.3516164 -1.4974136
6.0206184 -7.4176788 -1.5034695
6.0348849 -7.5291991 -1.5189278
5.9775443 -7.5521536 -1.5160593
2.0255387 -2.5920551 -0.49230295
1.9908974 -2.5802076 -0.48736265
1.9654541 -2.5798116 -0.48481283
1.9478071 -2.5894563 -0.48433474
1.935414 -2.6061139 -0.48529091
1.844658 -2.5160408 -0.4648923
1.8349744 -2.5353086 -0.46648592
1.8521017 -2.5923023 -0.4755697
5.5760589 -7.905261 -1.5229119
5.5116529 -7.9166412 -1.5184497
5.4831023 -7.9796014 -1.5241868
5.4340372 -8.0130949 -1.5241868
5.3534689 -7.9995227 -1.515103
5.3124447 -8.0445766 -1.5174935
5.254899 -8.0646152 -1.515103
5.2266726 -8.1299229 -1.5214776
5.1513081 -8.1218252 -1.5138282
1.78601 -2.8549824 -0.50489271
1.7627548 -2.8566465 -0.50313973
1.7426267 -2.8631926 -0.50234288
1.7463692 -2.909379 -0.50903618
4.9027662 -8.2811155 -1.5147843
4.8648038 -8.3332081 -1.5189278
4.7988052 -8.3372335 -1.5141468
4.7383008 -8.3502083 -1.5111189
4.6836019 -8.3730936 -1.5100033
4.6392875 -8.4146423 -1.5123938
4.5960536 -8.4585629 -1.5152624
4.5352116 -8.4700689 -1.5122344
4.485919 -8.5029764 -1.5131906
4.4186354 -8.5014353 -1.5079316
4.3569398 -8.5099335 -1.504585
4.2926393 -8.5127077 -1.5002822
4.241643 -8.5415392 -1.5007602
4.1752748 -8.5390253 -1.4956605
4.1356492 -8.5911684 -1.5004416
4.0875072 -8.6261959 -1.5021945
4.0319972 -8.6457453 -1.5012383
3.9862843 -8.6864729 -1.5041069
3.9276285 -8.6990719 -1.5020351
3.88059 -8.737443 -1.504585
3.823348 -8.7529478 -1.5031507
3.7621658 -8.7590084 -1.5001228
3.7075825 -8.7801085 -1.499804
3.6604519 -8.8191051 -1.5026727
3.6051512 -8.8386564 -1.5021945
3.5497487 -8.8578625 -1.5017165
3.4927995 -8.8730459 -1.5006009
3.4372218 -8.8915482 -1.5001228
3.3903069 -8.9327765 -1.5036288
3.3326752 -8.9460096 -1.5023539
3.2658563 -8.9338388 -1.4967761
3.2149773 -8.96486 -1.4986885
3.1631854 -8.9937315 -1.5002822
3.1150222 -9.0335026 -1.5037881
3.0408833 -8.9972677 -1.4943857
2.9877925 -9.0223169 -1.4955013
2.9296348 -9.0320282 -1.494067
2.8729646 -9.0460701 -1.4934295
2.8168187 -9.0616426 -1.4931108
2.7577169 -9.0674219 -1.4911984
2.7124438 -9.1191835 -1.4970949
2.6578169 -9.1403942 -1.4978917
2.6054604 -9.1698256 -1.5001228
2.5412254 -9.1571016 -1.4953419
2.4793105 -9.1515589 -1.4918358
2.4236157 -9.1685085 -1.4921546
2.3697779 -9.1927662 -1.4937482
2.3109214 -9.1975594 -1.4921546
2.2544429 -9.211566 -1.4921546
2.2001677 -9.2348289 -1.4937482
2.1463606 -9.2606573 -1.4958199
2.0890639 -9.2717266 -1.4955013
2.0327675 -9.2872639 -1.4959793
1.9741021 -9.2918358 -1.4947044
1.916055 -9.2989397 -1.4939076
1.8371147 -9.2011261 -1.4758995
0.50560445 -2.6173022 -0.39158469
0.4882654 -2.6135623 -0.39046916
0.47379905 -2.6252525 -0.39190343
0.45869899 -2.6339457 -0.39285961
0.44220167 -2.6347635 -0.3925409
0.42586917 -2.6364527 -0.39238152
0.41862795 -2.6965711 -0.40178403
0.40192863 -2.6981127 -0.40162465
0.39192727 -2.7464612 -0.40911478
1.0362923 -7.5896144 -1.1978087
0.35564238 -2.7314851 -0.40592748
0.33851084 -2.7306767 -0.40544939
0.98044395 -8.3201761 -1.3136666
0.92389572 -8.2769794 -1.3056984
0.88220328 -8.3688889 -1.3197224
0.26759166 -2.6998484 -0.39923421
0.75007105 -8.0635509 -1.2685665
0.67964423 -7.8270402 -1.2295222
0.63128793 -7.827127 -1.2288847
0.58361661 -7.8357754 -1.2296816
0.53808492 -7.876636 -1.2357374
0.58701098 -9.4434853 -1.4886485
0.20041816 -3.5831404 -0.54059035
0.17818269 -3.5793726 -0.53979349
0.15608729 -3.5774398 -0.5393154
0.35444891 -9.4382763 -1.4859394
0.25761065 -8.2029114 -1.2860966
0.23919961 -9.465601 -1.4897641
0.18086925 -9.4540586 -1.4876924
0.1227024 -9.4431448 -1.48578
0.064744428 -9.4417458 -1.4854612
0.0068127629 -9.4459143 -1.4860988
-0.051188834 -9.4536753 -1.4873736
-0.10922862 -9.4561453 -1.4878517
-0.16750965 -9.4701023 -1.4902422
-0.22559047 -9.4679098 -1.4900829
-0.28391647 -9.4742413 -1.4913578
-0.34264889 -9.4890928 -1.494067
-0.40086642 -9.4868116 -1.494067
-0.45863968 -9.4752989 -1.4926326
-0.51693159 -9.4752636 -1.4931108
-0.57470226 -9.4660015 -1.4921546
-0.63514364 -9.497757 -1.4978917
-0.6918276 -9.4720201 -1.4943857
-0.75040126 -9.4735022 -1.4953419
-0.80859941 -9.4697027 -1.4955013
-0.86524945 -9.4488335 -1.4929514
-0.92282605 -9.4394159 -1.492314
-0.98031968 -9.4296484 -1.4916764
-1.0432395 -9.4695759 -1.4991666
-1.1007537 -9.4580936 -1.4983698
-1.1593672 -9.4560614 -1.4991666
-1.2176189 -9.4507275 -1.4994854
-1.2771699 -9.4548187 -1.5013977
-1.3341928 -9.4399614 -1.5002822
-1.3925225 -9.4345274 -1.5007602
-1.4505355 -9.4267807 -1.5009196
-1.5000775 -9.3660383 -1.4924734
-0.49163666 -2.9517982 -0.4443343
-0.51293194 -2.9672093 -0.44736221
-0.53286874 -2.9737239 -0.44895586
-0.55812359 -3.0082548 -0.45517105
-0.57675725 -3.005743 -0.45533043
-1.8894609 -9.5349569 -1.5304021
-1.907976 -9.3278093 -1.4982104
-1.9702677 -9.3400755 -1.5021945
-2.0271208 -9.325881 -1.5018758
-0.6469143 -2.8893337 -0.43923464
-0.66640252 -2.8930063 -0.44050956
-0.68505061 -2.8927057 -0.441147
-2.2598109 -9.2915506 -1.5049037
-2.3174977 -9.2803831 -1.5053818
-2.3702321 -9.2497311 -1.5026727
-0.76812798 -2.921808 -0.44895586
-0.78398752 -2.9094138 -0.44768095
-0.7968356 -2.8864672 -0.444653
-0.80755293 -2.8568227 -0.44050956
-0.81985635 -2.8337948 -0.43748161
-2.7082427 -9.1533813 -1.5021945
-2.7823646 -9.1961222 -1.5122344
-2.8375721 -9.1751041 -1.511597
-1.0164533 -3.215719 -0.50568956
-1.0358622 -3.208482 -0.50553018
-3.0081377 -9.127883 -1.5127126
-3.0599976 -9.0970888 -1.5106409
-3.1135154 -9.0716057 -1.5095253
-1.1305984 -3.2286837 -0.51349843
-1.1304755 -3.1658998 -0.50393653
-3.2792914 -9.0109034 -1.5092065
-3.3245652 -8.9637699 -1.504585
-1.1578518 -3.0632873 -0.48991248
-1.1915189 -3.0948212 -0.49660578
-1.1928343 -3.0424137 -0.48879692
-1.2140408 -3.041456 -0.48991248
-3.6202519 -8.9124508 -1.5141468
-3.6869366 -8.9192648 -1.5192465
-3.736237 -8.8837337 -1.5170155
-3.7898998 -8.8588257 -1.5166967
-3.8508804 -8.8507948 -1.5194058
-3.9055147 -8.8279018 -1.5195652
-3.9458413 -8.77316 -1.5141468
-1.3154379 -2.8767638 -0.47190431
-1.3293213 -2.8605802 -0.47047004
-1.3464271 -2.8514771 -0.47031066
-4.1932535 -8.7431135 -1.5265772
-4.2260695 -8.6746187 -1.5189278
-4.2818427 -8.6538343 -1.519884
-4.3401794 -8.6379843 -1.5217963
-4.3998284 -8.624382 -1.5241868
-4.4526639 -8.5972223 -1.5241868
-4.5007381 -8.5610008 -1.5225931
-4.5536475 -8.5340948 -1.5227525
-4.6115665 -8.5164118 -1.5246649
-4.6585064 -8.4784374 -1.5229119
-4.6691046 -8.375536 -1.5092065
-4.6718135 -8.2607946 -1.4932702
-4.6998177 -8.1925821 -1.4859394
-4.7172318 -8.1072721 -1.4754213
-4.7372894 -8.0280104 -1.4660188
-4.7611151 -7.9564338 -1.4580506
-4.7996035 -7.9101901 -1.4548633
-4.8423595 -7.8713417 -1.4531103
-4.8748941 -7.8163509 -1.4483294
-4.9169598 -7.777113 -1.4465764
-4.9400859 -7.7085614 -1.4392456
-4.9851408 -7.6747928 -1.4386082
-5.0533075 -7.6762195 -1.4448234
-5.1101737 -7.6598511 -1.4476919
-5.163712 -7.6381664 -1.4496043
-5.2378178 -7.6462479 -1.4574132
-5.3155932 -7.6585727 -1.4661782
-5.3959875 -7.6734591 -1.4755807
-5.4802003 -7.6924701 -1.4859394
-5.5440502 -7.6819148 -1.4905609
-5.6004028 -7.6605043 -1.4931108
-5.6755004 -7.6640797 -1.5007602
-5.7401896 -7.6528044 -1.5055412
-5.8174944 -7.6575313 -1.5136688
-5.9342008 -7.7124553 -1.532155
-6.0784955 -7.8004961 -1.5576533
-6.0767093 -7.7002773 -1.5447448
-1.7568476 -2.1979098 -0.41548935
-6.1931019 -7.6527548 -1.5504819
-6.2887468 -7.6741719 -1.5629123
-6.3451719 -7.6468368 -1.5653028
-6.3672066 -7.5782804 -1.5590876
-6.4327755 -7.5616283 -1.5638685
-6.477119 -7.5197711 -1.5633904
-6.5309234 -7.4888153 -1.5653028
-6.5695639 -7.4404607 -1.5635498
-6.6275945 -7.4139953 -1.5665777
-6.6756105 -7.3761177 -1.5672152
-6.7300806 -7.3452086 -1.5694462
-6.7871075 -7.3168039 -1.5723149
-6.861609 -7.3066864 -1.5793269
-6.9287591 -7.2880588 -1.5845859
-6.9302201 -7.2005944 -1.574546
-6.9735827 -7.1572285 -1.5743866
-7.0444036 -7.1417165 -1.5806018
-7.0894866 -7.0997558 -1.5809205
-7.1420403 -7.0651479 -1.5829922
-3.4826937 -3.4028833 -0.74728584
-3.453078 -3.3327692 -0.73597097
-3.3720076 -3.2147777 -0.71334124
-3.4153848 -3.2163639 -0.71860027
-7.3900948 -6.8750205 -1.5906417
-3.5025721 -3.2182982 -0.72911829
-3.5200603 -3.1947558 -0.7286402
-3.4749138 -3.1151016 -0.71461612
-3.3897543 -3.0014348 -0.69214576
-3.4103363 -2.9825289 -0.69262385
-3.4225962 -2.9563842 -0.69134897
-4.9569106 -4.2291031 -1.0131055
-3.7575593 -3.1660883 -0.75445724
-3.8406539 -3.1960218 -0.76784384
-4.862318 -3.9961007 -0.97724849
-4.8836799 -3.9637022 -0.97661108
-4.8909626 -3.9200776 -0.97310507
-4.8731241 -3.8569064 -0.96449935
-4.8959203 -3.8263249 -0.96434003
-5.0552907 -3.9011652 -0.99206942
-5.0626435 -3.8575072 -0.98872274
-4.9939198 -3.7569263 -0.9700771
-5.1214871 -3.8039207 -0.99111319
-5.2187676 -3.8267193 -1.0059341
-5.2373519 -3.791152 -1.0049779
-5.2372227 -3.7422986 -1.0003563
-5.2592797 -3.7095242 -1.0001969
-5.0575223 -3.520927 -0.95605308
-5.3019643 -3.643028 -0.9997189
-5.3332052 -3.6165226 -1.0014719
-5.2691507 -3.5260754 -0.98473865
-5.2915111 -3.4942222 -0.98489803
-5.2533002 -3.4228811 -0.97342378
-5.3165536 -3.4178121 -0.98155135
-5.3099146 -3.3676758 -0.97629231
-5.4108186 -3.3853037 -0.99159127
-5.3163977 -3.2810018 -0.96975839
-5.5253167 -3.3633125 -1.005456
-5.5636234 -3.340018 -1.0088027
-5.4141164 -3.2052224 -0.97692978
-5.4132199 -3.1599956 -0.97310507
-5.3084469 -3.0553067 -0.94999725
-5.3863373 -3.0562975 -0.96099335
-5.4204969 -3.0318658 -0.96386194
-5.7389832 -3.1639576 -1.0191613
-5.4572945 -2.9651196 -0.96386194
-5.63552 -3.0173292 -0.99318492
-5.6478157 -2.9794688 -0.99206942
-5.6581078 -2.9406605 -0.9906351
-5.5336909 -2.8329976 -0.96481812
-5.4910297 -2.7687614 -0.95398134
-5.6193223 -2.7903464 -0.97406125
-5.672699 -2.7735956 -0.98059517
-5.5855384 -2.6886322 -0.96194953
-5.8106852 -2.7532382 -0.99924082
-5.7952604 -2.7025104 -0.99350369
-5.7139349 -2.622015 -0.97613299
-5.7578082 -2.5995002 -0.98107326
-5.7925963 -2.5725377 -0.98441988
-5.8960242 -2.5752819 -0.99987823
-5.9044585 -2.5359387 -0.99860334
-5.994482 -2.5311563 -1.0116712
-5.9962234 -2.4886498 -1.0092807
-6.0854216 -2.4820147 -1.0221893
-5.9759116 -2.3946795 -1.0005157
-6.1135845 -2.4064271 -1.0218705
-5.9855113 -2.3136897 -0.99716908
-5.946063 -2.2565999 -0.98792595
-6.1050377 -2.2741866 -1.0129461
-6.0715899 -2.2193956 -1.0048186
-6.0953155 -2.1857655 -1.0065715
-6.2287478 -2.1905828 -1.0271295
-6.2010078 -2.1381605 -1.0201175
-6.0886893 -2.0577097 -0.99876267
-6.2220936 -2.0603516 -1.0193207
-6.4008293 -2.0760548 -1.0475281
-6.3918066 -2.0298669 -1.0438628
-6.3862295 -1.9850408 -1.0408349
-5.9912138 -1.8219937 -0.97214884
-6.3996997 -1.9034261 -1.0390818
-6.4103107 -1.8638467 -1.0389225
-6.4605608 -1.835543 -1.0454564
-6.5107031 -1.8066925 -1.0519904
-6.6179051 -1.7927866 -1.0680861
-6.7003627 -1.7710714 -1.0800385
-6.841114 -1.7634462 -1.101712
-6.9054227 -1.7349107 -1.1106365
-7.2640219 -1.7777129 -1.1684856
-7.3698659 -1.7557633 -1.1842628
-8.1267929 -1.8835124 -1.3079294
-8.1227875 -1.8301393 -1.3053796
-8.2978086 -1.8161553 -1.3324715
-9.0764942 -1.9283422 -1.4591662
-8.9963007 -1.8536826 -1.4440266
-9.6009521 -1.9169626 -1.5417169
-10.008965 -1.9346597 -1.6068969
-10.478679 -1.9588499 -1.6821169
-10.565306 -1.9080293 -1.6943879
-10.777161 -1.8780869 -1.727217
-10.958858 -1.8405453 -1.7551057
-11.604386 -1.8758478 -1.8588518
-12.121968 -1.8832842 -1.9415619
-12.097168 -1.8034825 -1.9356655
-12.094324 -1.7272673 -1.9334344
-12.120345 -1.655163 -1.9359841
-12.082305 -1.5745102 -1.9281753
-12.070185 -1.4976699 -1.9246693
-12.078167 -1.4234649 -1.9245099
-12.125918 -1.3537104 -1.9308845
-12.134978 -1.2793852 -1.9310439
-12.156353 -1.2062675 -1.933275
-12.143867 -1.1298251 -1.9300877
-12.126966 -1.0532396 -1.926263
-12.121392 -0.97785711 -1.9243506
-12.114366 -0.90250939 -1.9222789
-12.132479 -0.8290354 -1.9243506
-12.117631 -0.7533505 -1.9211633
-12.156525 -0.68091744 -1.926741
-12.1516 -0.60587084 -1.9253068
-12.155088 -0.53129858 -1.9253068
-12.152201 -0.45648384 -1.9243506
-12.129118 -0.38110381 -1.9202071
-11.230377 0.8255145 -1.922327
-11.192693 0.89182168 -1.9166647
-11.219401 0.96326631 -1.922327
-11.173058 1.0283829 -1.915292
-11.168498 1.097113 -1.9156352
-11.172335 1.1667477 -1.9175227
-11.189445 1.2379888 -1.9218123
-11.198273 1.3085681 -1.9247292
-11.179276 1.37593 -1.9228418
-11.147175 1.4414642 -1.9187237
-11.112739 1.5063915 -1.9142625
-10.996968 1.5594615 -1.8955597
-11.045665 1.6355726 -1.9058548
-11.001344 1.6980534 -1.8998493
-11.014062 1.7692769 -1.9039674
-11.025348 1.8405578 -1.9079138
-11.008023 1.9071639 -1.9068843
-10.994174 1.9743234 -1.9065411
-10.967324 2.0390425 -1.9039674
-10.941063 2.1036928 -1.9015652
-10.936646 2.1725147 -1.9031094
-10.895123 2.2338386 -1.8981335
-10.91398 2.30758 -1.9039674
-10.868814 2.36779 -1.8984767
-10.854081 2.4344351 -1.8984767
-10.865817 2.5071933 -1.9032811
-10.845436 2.5726802 -1.9024231
-10.837103 2.6410451 -1.9037958
-10.823562 2.7082083 -1.9043106
-10.783839 2.7686872 -1.9001925
-10.762837 2.8337996 -1.8995062
-10.743344 2.8992724 -1.899163
-10.738647 2.9688141 -1.9015652
-10.722123 3.0351863 -1.9019084
-10.70803 3.1022902 -1.9027663
-10.698237 3.1707354 -1.9044821
-10.689895 3.239749 -1.9065411
-10.634056 3.2941985 -1.900021
-10.606129 3.3570068 -1.8986483
-10.587206 3.4226279 -1.8989915
-10.560393 3.485672 -1.8979619
-10.568681 3.5604715 -1.9034526
-10.541045 3.6233306 -1.9024231
-10.512107 3.6856587 -1.901222
-10.494861 3.7520809 -1.9022515
-10.445724 3.8069572 -1.8974471
-10.411087 3.8668621 -1.8953881
-10.386243 3.9303217 -1.8952166
-10.36285 3.9943309 -1.8953881
-10.361073 4.0668421 -1.8996778
-10.335923 4.1303401 -1.8996778
-10.288485 4.1847715 -1.8955597
-10.282639 4.2561131 -1.8993345
-10.251791 4.3172135 -1.8984767
-10.209714 4.3734403 -1.8955597
-10.189009 4.4387584 -1.8967608
-10.127354 4.4860277 -1.8902406
-10.10862 4.5521297 -1.8919564
-10.077811 4.6128392 -1.8914417
-10.020735 4.6612892 -1.8859509
-9.9937267 4.7235298 -1.8862941
-9.9618912 4.7834816 -1.8857794
-9.9482899 4.8522921 -1.8888679
-9.9086199 4.9084306 -1.8869804
-9.9011965 4.9806495 -1.8914417
-9.8686953 5.0404119 -1.8910985
-9.8402052 5.102231 -1.8916132
-9.7912788 5.1533346 -1.8881816
-9.7455711 5.2058873 -1.8854362
-9.6865978 5.2510295 -1.8801171
-9.6533327 5.3098917 -1.8799455
-9.6412153 5.380548 -1.8840635
-9.6080189 5.4396043 -1.8840635
-9.5599394 5.4901133 -1.8811466
-9.5209646 5.5456929 -1.8801171
-9.4884548 5.6050105 -1.8804603
-9.4496584 5.6605935 -1.8796023
-9.4189577 5.7210264 -1.8804603
-9.392065 5.7838793 -1.882176
-9.3739471 5.8523569 -1.8857794
-9.3303699 5.9050221 -1.8842351
-9.2997656 5.9658852 -1.8854362
-9.2778502 6.0325031 -1.8885248
-9.2381935 6.0876908 -1.8880099
-9.2170506 6.1552048 -1.8914417
-9.1815567 6.2133002 -1.8919564
