# .PCD v0.7 - Point Cloud Data file format
VERSION 0.7
FIELDS x y z
SIZE 4 4 4
TYPE F F F
COUNT 1 1 1
WIDTH 1612
HEIGHT 1
VIEWPOINT 0 0 0 1 0 0 0
POINTS 1612
DATA ascii
1.0176115 5.4871898 -1.8908697
1.0496573 5.4724908 -1.8879247
1.0837678 5.4687276 -1.8889064
1.1159759 5.4554949 -1.8866159
1.1500149 5.4513183 -1.8875976
1.1824374 5.4395423 -1.8859614
1.2168244 5.4367952 -1.8875976
1.2518588 5.4365931 -1.8902153
1.2854115 5.429729 -1.8905425
1.3187035 5.4217396 -1.8905425
1.3519459 5.4135461 -1.8905425
1.3858416 5.4078946 -1.8915241
1.4168344 5.3910646 -1.8885791
1.4464428 5.3694968 -1.8839982
1.478356 5.3568769 -1.8826892
1.5099115 5.3431587 -1.8810532
1.5416172 5.3301625 -1.8797443
1.5748301 5.3224154 -1.8803988
1.6088274 5.317174 -1.8820348
1.6397463 5.3017864 -1.8800715
1.674526 5.2988329 -1.8826892
1.7072979 5.2893577 -1.8830165
1.7414964 5.2841668 -1.8849797
1.7750926 5.2769637 -1.8862886
1.8095866 5.2722287 -1.8885791
1.8390905 5.2529998 -1.8856342
1.8741487 5.2496252 -1.8885791
1.9063246 5.2380271 -1.8885791
1.9364558 5.2209158 -1.8866159
1.9714624 5.2168908 -1.8895608
2.0034356 5.2046957 -1.8895608
2.0346432 5.1905456 -1.8889064
2.0657525 5.1762085 -1.8882519
2.1010325 5.1721897 -1.8915241
2.129117 5.1504688 -1.8882519
2.1625123 5.1416626 -1.889888
2.1925328 5.1248221 -1.8885791
2.2235596 5.1104059 -1.8882519
2.2525797 5.0914817 -1.8862886
2.2841656 5.0784259 -1.8866159
2.3121388 5.0574408 -1.8839982
2.3439238 5.0448723 -1.8846525
2.3740273 5.0286865 -1.8839982
2.4060645 5.0165806 -1.8849797
2.4413548 5.0110664 -1.8885791
2.4737332 4.9993796 -1.889888
2.5064845 4.9883285 -1.8915241
2.5417707 4.9821129 -1.8951235
2.5740316 4.969779 -1.8964324
2.5991983 4.9438558 -1.8925058
2.6330445 4.9344831 -1.8951235
2.652019 4.8974628 -1.8869431
2.6797433 4.8769579 -1.885307
2.7073157 4.8562975 -1.8836709
2.7440426 4.8519306 -1.8885791
2.767647 4.824348 -1.8843254
2.7986226 4.8097248 -1.885307
2.8319252 4.7989721 -1.8879247
2.8608325 4.7806945 -1.8875976
2.884228 4.7533579 -1.8836709
2.9133399 4.7355709 -1.8836709
2.9428422 4.7184076 -1.8839982
2.9676971 4.6938734 -1.8813803
3.0005226 4.6819391 -1.8839982
3.0291941 4.6634402 -1.8839982
3.0603502 4.6487117 -1.8856342
3.0882919 4.6290603 -1.885307
3.1139901 4.6061101 -1.8836709
3.1470017 4.5939312 -1.8866159
3.1794422 4.5807443 -1.8892336
3.2036831 4.5557394 -1.8869431
3.2293825 4.5329185 -1.8856342
3.2571352 4.5130181 -1.8856342
3.2830918 4.4906597 -1.8846525
3.3111465 4.4711895 -1.8849797
3.3368175 4.4485211 -1.8839982
3.3686247 4.4339814 -1.8866159
3.399226 4.4177213 -1.8885791
3.4251068 4.3952904 -1.8879247
3.4531822 4.3756752 -1.8885791
3.4793758 4.3536663 -1.8882519
3.5095916 4.3366418 -1.8902153
3.5379319 4.3172178 -1.8911968
3.5625446 4.2932472 -1.8902153
3.5888205 4.271307 -1.8902153
3.6069992 4.239851 -1.8859614
3.6317129 4.2162075 -1.885307
3.6525447 4.188148 -1.8826892
3.6838043 4.1720314 -1.8856342
3.7124836 4.1528711 -1.8872703
3.7429693 4.1356177 -1.889888
3.7752984 4.1202354 -1.8934875
3.8043652 4.1011491 -1.8954507
3.8313987 4.0797949 -1.8964324
3.859616 4.0596328 -1.8980684
3.8798649 4.0311093 -1.8957779
3.8966112 3.9991069 -1.8918513
3.9111199 3.9650335 -1.8869431
3.9407179 3.9463089 -1.8895608
3.9547789 3.9120886 -1.8846525
3.9827645 3.8917105 -1.8866159
4.0249295 3.8849144 -1.8954507
4.0473232 3.8588409 -1.8947963
4.064044 3.8274572 -1.8915241
4.0729203 3.7889357 -1.8846525
4.1107068 3.777297 -1.8915241
4.1289077 3.7475586 -1.8892336
4.1609731 3.7303517 -1.8934875
4.1922746 3.712266 -1.8974141
4.220665 3.6914482 -1.9000318
4.2389445 3.6617758 -1.8980684
4.2606139 3.6350842 -1.8977413
4.2770562 3.604003 -1.8951235
4.287466 3.5680227 -1.889888
4.3085485 3.5410483 -1.8895608
4.332396 3.516331 -1.8905425
4.3612652 3.49559 -1.8938147
4.3907833 3.4752133 -1.8974141
4.40979 3.4464612 -1.8964324
4.4330988 3.4210699 -1.8974141
4.4404755 3.3834984 -1.8915241
4.4664392 3.3601642 -1.8938147
4.4839377 3.3304422 -1.8925058
4.5187693 3.3134804 -1.8987229
4.5443745 3.2895689 -1.9010135
4.5729318 3.2676647 -1.9046128
4.5782218 3.2291987 -1.8983957
4.6064816 3.2069836 -1.9019951
4.6206203 3.1749136 -1.8997046
4.6306276 3.1401401 -1.8957779
4.6450953 3.1085155 -1.8938147
4.6601381 3.0773525 -1.8921785
4.6892266 3.0554047 -1.8964324
4.7150407 3.031172 -1.8993773
4.7423296 3.0077496 -1.9029768
4.7574911 2.9765904 -1.9016678
4.7820992 2.9513118 -1.9042857
4.8025398 2.9233873 -1.9052672
4.8211975 2.8943508 -1.9055945
4.8364263 2.8632703 -1.9046128
4.8653307 2.8402078 -1.9091939
4.863008 2.7989922 -1.9013406
4.883379 2.7709653 -1.9026495
4.9019389 2.7418714 -1.903304
4.923636 2.7144785 -1.9052672
4.9518247 2.6905301 -1.9098483
4.9415793 2.645828 -1.8993773
4.9627361 2.6181016 -1.9013406
4.9887695 2.5928288 -1.9052672
5.0071087 2.5634608 -1.9062489
5.0303383 2.5365171 -1.9091939
5.0483465 2.5068641 -1.9101756
5.068727 2.4783301 -1.9121388
5.0846901 2.447592 -1.912466
5.1047368 2.4187737 -1.9144294
5.1246209 2.3898013 -1.9163927
5.1331754 2.3555546 -1.9141022
5.1526999 2.3263457 -1.9160655
5.1694684 2.2958355 -1.9170471
5.18086 2.262939 -1.9160655
5.205936 2.2359529 -1.9203193
5.2117219 2.2006609 -1.9173744
5.2242541 2.1682789 -1.9170471
5.2383351 2.1365395 -1.9173744
5.2504687 2.1040061 -1.9170471
5.2624006 2.0714042 -1.9167199
5.2741299 2.0387354 -1.9163927
5.2900743 2.0076759 -1.9177016
5.2987514 1.97386 -1.9163927
5.3107629 1.9413104 -1.9163927
5.3261328 1.9099628 -1.9177016
5.3127899 1.8684732 -1.9085394
5.347383 1.8438435 -1.9170471
5.3639674 1.812812 -1.9190104
5.3740926 1.7795683 -1.9186832
5.3965964 1.7503476 -1.922937
5.4081359 1.7174876 -1.9232643
5.4131575 1.6825898 -1.921301
5.4260921 1.6501678 -1.9222826
5.4352098 1.6165737 -1.9219553
5.4423041 1.5824025 -1.9209738
5.4464569 1.547431 -1.9190104
5.4540281 1.513478 -1.9183559
5.4622998 1.4797373 -1.9180288
5.4703627 1.4459522 -1.9177016
5.476387 1.4116523 -1.9167199
5.4849453 1.3780233 -1.9167199
5.4942155 1.3445668 -1.9170471
5.5060391 1.3117049 -1.9183559
5.5158253 1.278322 -1.9190104
5.5235653 1.2444534 -1.9190104
5.5357127 1.2115473 -1.9206465
5.5439668 1.1777542 -1.9209738
5.5538654 1.1442864 -1.9219553
5.5709758 1.1122199 -1.9255548
5.5879016 1.0799865 -1.9291542
5.5990672 1.0465466 -1.9307903
5.6202626 1.0148553 -1.9360257
5.6124196 0.97792065 -1.9311175
5.6117907 0.94237095 -1.9288269
5.6090717 0.90656465 -1.925882
5.6154623 0.87227583 -1.9262092
5.6244473 0.83836007 -1.9275181
5.6322923 0.80423349 -1.9284997
5.6399298 0.77004218 -1.9294814
5.6492333 0.73603123 -1.9311175
5.655519 0.7015866 -1.9317719
5.660656 0.66698217 -1.9320991
5.6627636 0.63202721 -1.9314448
5.6665349 0.59726924 -1.9314448
5.6653914 0.56202334 -1.9298086
5.6687331 0.52725059 -1.9298086
5.6680961 0.49213177 -1.9284997
5.6662993 0.45696488 -1.9268637
5.6680541 0.42211854 -1.9265364
5.6809082 0.38803831 -1.9301358
0 0 -0
0 0 -0
0 0 -0
0 0 -0
0 0 -0
0 0 -0
0 0 -0
0 0 -0
0 0 -0
0 0 -0
0 0 -0
0 -0 -0
0 -0 -0
0 -0 -0
0 -0 -0
0 -0 -0
0 -0 -0
0 -0 -0
0 -0 -0
0 -0 -0
0 -0 -0
0 -0 -0
0 -0 -0
0 -0 -0
0 -0 -0
0 -0 -0
0 -0 -0
0 -0 -0
0 -0 -0
0 -0 -0
0 -0 -0
0 -0 -0
0 -0 -0
0 -0 -0
0 -0 -0
0 -0 -0
0 -0 -0
0 -0 -0
5.6556921 -0.97726053 -1.9458423
5.6514497 -1.0122784 -1.9464967
0 -0 -0
0 -0 -0
5.5966377 -1.109144 -1.9340625
5.5443654 -1.1341746 -1.9180288
5.4198833 -1.1433766 -1.8764721
5.3130445 -1.154912 -1.8411325
5.2302465 -1.1705512 -1.8143007
5.145618 -1.1847939 -1.7868145
5.0720482 -1.2006575 -1.7632548
5.0186787 -1.2205806 -1.7468938
4.968008 -1.2405819 -1.7315146
4.9246049 -1.2618859 -1.7187531
4.8920951 -1.2855887 -1.7099181
4.8686047 -1.3114002 -1.7043555
4.9060082 -1.3538274 -1.7207164
4.8639655 -1.3743898 -1.7086093
4.8400102 -1.3997422 -1.7030466
4.8476396 -1.434243 -1.7089366
4.8378434 -1.4636867 -1.7086093
4.8269663 -1.4927847 -1.7079549
4.8060031 -1.5186703 -1.703701
4.7885013 -1.5455167 -1.7007561
4.7879024 -1.577829 -1.7040282
4.786191 -1.6098905 -1.7069732
4.7806911 -1.6407624 -1.7086093
4.7714252 -1.6703777 -1.7089366
4.7593064 -1.6989874 -1.7082821
4.7434649 -1.7262179 -1.7063187
4.7256966 -1.7526604 -1.703701
4.7192726 -1.7832948 -1.7053372
4.7126508 -1.8139163 -1.7069732
4.6908755 -1.838658 -1.7030466
4.6768727 -1.8663547 -1.702065
4.6688347 -1.8964396 -1.7033738
4.6483784 -1.9214395 -1.7001016
4.6182108 -1.9422282 -1.69323
4.6036005 -1.9694128 -1.6922485
4.5940289 -1.9987545 -1.69323
4.5894551 -2.0303478 -1.696175
4.5648465 -2.0530407 -1.691594
4.5564604 -2.0829768 -1.69323
4.5281696 -2.1037254 -1.6873401
4.5066319 -2.1274343 -1.684068
4.4841218 -2.1505494 -1.6804686
4.4428115 -2.1643596 -1.6696703
4.4573936 -2.2054145 -1.6804686
4.4378681 -2.2297521 -1.6781781
4.4198947 -2.2547922 -1.6765419
4.418561 -2.2883914 -1.6814502
4.4044366 -2.31546 -1.6814502
4.3834777 -2.3388813 -1.6788325
4.3673825 -2.3648336 -1.6781781
4.3585863 -2.3947732 -1.6804686
4.3446355 -2.4219322 -1.6807958
4.3296928 -2.448545 -1.6807958
4.3088508 -2.4717727 -1.6785053
4.2780867 -2.4891319 -1.6722882
4.2651744 -2.5167761 -1.6732697
4.270731 -2.5555196 -1.6817775
4.248508 -2.5777533 -1.6791598
4.2414632 -2.6092215 -1.682759
4.2325888 -2.6396997 -1.6857041
4.2211037 -2.6686516 -1.6876674
4.1943083 -2.687871 -1.6834135
4.1737752 -2.7109816 -1.6817775
4.1610084 -2.7391393 -1.6834135
4.1535544 -2.7709143 -1.6873401
4.1388226 -2.797936 -1.6883218
4.1161203 -2.8195393 -1.6860313
4.094862 -2.8420475 -1.6843952
4.0719361 -2.8633134 -1.6821047
4.0496736 -2.8849537 -1.6801413
4.0188718 -2.9003439 -1.6745787
3.9887965 -2.916023 -1.6693431
3.982218 -2.9488809 -1.6742514
3.9731188 -2.9800658 -1.6781781
3.9442263 -2.9963832 -1.673597
3.9384961 -3.0303268 -1.6791598
3.9019425 -3.0404923 -1.6713065
3.8802462 -3.0620348 -1.6699976
3.8739319 -3.0958173 -1.6755604
3.8592699 -3.1230967 -1.6775236
3.8473418 -3.152709 -1.6807958
3.8279247 -3.1762564 -1.6807958
3.8119802 -3.2027245 -1.6824319
3.7900982 -3.2242167 -1.6814502
3.7745383 -3.2511127 -1.6834135
3.7552309 -3.274833 -1.6837407
3.7329416 -3.2959361 -1.682759
3.7358916 -3.3395667 -1.6935573
2.4425592 -2.2100172 -1.0990024
2.4275596 -2.223686 -1.0983479
2.4145622 -2.239182 -1.0986751
3.6411016 -3.4192448 -1.6879946
3.592665 -3.4154723 -1.6749059
3.5811701 -3.4466281 -1.6794869
3.5599544 -3.4685369 -1.6794869
3.538605 -3.4903152 -1.6794869
3.5097685 -3.5046155 -1.6758876
3.4735816 -3.5113027 -1.6686888
3.4394262 -3.519706 -1.6624717
3.4256382 -3.5489042 -1.6663982
3.422704 -3.589694 -1.6758876
3.3850684 -3.594115 -1.6680343
3.3680995 -3.6203537 -1.670652
3.3394296 -3.6339924 -1.6673799
3.3189738 -3.6565139 -1.6683615
3.2907999 -3.6704764 -1.6654166
3.2719741 -3.6948447 -1.6673799
3.2504852 -3.7162745 -1.6680343
3.2375026 -3.7475927 -1.6732697
3.2168994 -3.770263 -1.6745787
3.2016187 -3.7993262 -1.6788325
3.1770377 -3.8174465 -1.6781781
3.1523547 -3.8354082 -1.6775236
3.1251898 -3.8502755 -1.6755604
3.0914619 -3.856842 -1.6699976
3.0659797 -3.8735151 -1.669016
1.9979382 -2.5555985 -1.0816598
1.9804883 -2.5655649 -1.0806782
1.9647089 -2.5776684 -1.0806782
1.9448802 -2.5843885 -1.0783876
1.9278595 -2.5947561 -1.0777332
1.9119021 -2.6065364 -1.0777332
1.8609749 -2.569988 -1.0571185
1.6441542 -2.2999237 -0.93735671
1.6365452 -2.3192363 -0.94128335
2.7849007 -3.9999397 -1.6461107
2.7603052 -4.016952 -1.6461107
2.736666 -4.035378 -1.6467651
2.7171078 -4.059948 -1.6500373
2.6843369 -4.064714 -1.6451291
2.6655343 -4.09061 -1.6490557
2.6485579 -4.1196079 -1.6542912
2.6136177 -4.1206179 -1.648074
2.5857794 -4.1325712 -1.6464379
2.5623584 -4.1515765 -1.6477468
2.5388012 -4.1704497 -1.6490557
2.5141363 -4.1875696 -1.6497101
2.4994628 -4.2216215 -1.6572361
2.4744649 -4.2385111 -1.6578906
2.4469976 -4.2511568 -1.6569089
2.4306567 -4.2833524 -1.6637805
2.4103234 -4.3089085 -1.6680343
2.3847511 -4.3252721 -1.6686888
2.3586178 -4.3406534 -1.669016
2.3359525 -4.3625422 -1.6719609
2.3073776 -4.3734498 -1.670652
2.2822416 -4.3908796 -1.6719609
2.2535348 -4.4014354 -1.670652
2.2260604 -4.4143362 -1.6703248
2.1926312 -4.4152155 -1.6654166
2.1646688 -4.4268885 -1.6647621
2.1370556 -4.4392357 -1.6644349
2.1081588 -4.4488487 -1.663126
2.0756321 -4.4505658 -1.6588722
1.4266542 -3.1078427 -1.1425223
1.4083353 -3.1182606 -1.1431768
1.3849585 -3.1173427 -1.1395774
1.9778824 -4.5278769 -1.6693431
1.9504354 -4.5407963 -1.6696703
1.9225368 -4.5526781 -1.6696703
1.8916695 -4.5574064 -1.6670526
1.8579631 -4.5549269 -1.6618172
1.8299797 -4.5662413 -1.6618172
1.7995057 -4.5712285 -1.6595266
1.773126 -4.5865912 -1.6611627
1.7506467 -4.6124048 -1.6667254
1.7213235 -4.6204028 -1.6657438
1.6939136 -4.6335406 -1.6667254
1.6597126 -4.6278353 -1.6608355
1.6319121 -4.6397147 -1.66149
1.5991027 -4.6371331 -1.6569089
1.5675961 -4.6379051 -1.6536367
1.5379214 -4.6438479 -1.6523279
1.5085243 -4.6505003 -1.6513462
1.4796752 -4.6587682 -1.651019
1.4507813 -4.6668572 -1.6506917
1.4240421 -4.6819997 -1.6529822
1.396633 -4.6951785 -1.6546184
1.3696432 -4.7100115 -1.6569089
1.3443303 -4.7310534 -1.66149
1.3268902 -4.7811003 -1.6765419
1.2901222 -4.7617879 -1.6667254
1.2642581 -4.7824054 -1.6713065
1.2355971 -4.7928176 -1.6722882
1.2077761 -4.8067245 -1.6745787
1.1769133 -4.8085375 -1.6726153
1.1416976 -4.7917676 -1.6641077
0.71474081 -3.0817745 -1.0538464
0.69540298 -3.0842583 -1.0531919
0.67828178 -3.0967753 -1.0561368
0.65593261 -3.0851648 -1.0505741
0.63756156 -3.0919082 -1.0515558
0.61691463 -3.0874217 -1.0486108
0.59598857 -3.0809429 -1.0450114
0.57846045 -3.0919728 -1.0476291
0.55813575 -3.0880246 -1.0450114
0.53917748 -3.0913911 -1.0450114
0.51785439 -3.0806623 -1.0401032
0.49924323 -3.0856476 -1.0407575
0.47841755 -3.0765135 -1.0365038
0.45925316 -3.0775218 -1.0358493
0.43902734 -3.0709269 -1.0325772
0.4188998 -3.0642002 -1.029305
0.39948088 -3.0620275 -1.0276688
0.38300797 -3.0831766 -1.0342132
0.35944653 -3.0460527 -1.02047
0.34420216 -3.0791924 -1.0312682
0.32263288 -3.0558727 -1.0224334
0.30406249 -3.0596755 -1.0230879
0.29043493 -3.116997 -1.0423937
0.27391341 -3.1488461 -1.0528647
0.2552692 -3.1589446 -1.0558096
0.28375301 -3.8050213 -1.2796266
0.21699852 -3.1693814 -1.0584273
0.1957365 -3.1414158 -1.0482836
0.17603642 -3.13501 -1.0456659
0.17782821 -3.5597916 -1.1925867
0.13714129 -3.1274936 -1.0423937
0.11780774 -3.1244988 -1.0410848
0.098575041 -3.1232741 -1.0404304
0.07898318 -3.1068163 -1.0345404
0.059704214 -3.0959051 -1.0306138
0.040393151 -3.0716465 -1.0221062
0 -0 -0
0.0026948596 -3.0690761 -1.0211245
-0.016179278 -3.0765944 -1.0237422
-0.035223432 -3.0906103 -1.0286505
-0.054355588 -3.0997839 -1.0319227
-0.073919669 -3.1220644 -1.039776
-0.094757125 -3.1772785 -1.0590818
-0.11510844 -3.2002456 -1.0672623
-0.13157465 -3.1248953 -1.041412
-0.14992009 -3.1070402 -1.0355221
-0.1702738 -3.1296501 -1.0437026
-0.18889904 -3.1191144 -1.0404304
-0.20613627 -3.0896118 -1.0306138
-0.22467564 -3.0826342 -1.0286505
-0.24366093 -3.0821395 -1.0289778
-0.26297101 -3.085294 -1.0306138
-0.28276083 -3.0930324 -1.033886
-0.3015497 -3.0893583 -1.0332316
-0.32118538 -3.0940287 -1.0355221
-0.33902344 -3.0816681 -1.0319227
-0.35617471 -3.0645125 -1.0266873
-0.37508669 -3.0632071 -1.0270144
-0.39302844 -3.0542879 -1.0247239
-0.41366234 -3.065865 -1.0296322
-0.43604237 -3.088531 -1.038467
-0.45830145 -3.1082323 -1.0463203
-0.47794023 -3.1090972 -1.0476291
-0.50419122 -3.1508913 -1.0633357
-0.50533736 -3.0386841 -1.0250511
-0.54797423 -3.1742628 -1.0738066
-0.57277822 -3.2006042 -1.0842775
-0.59240597 -3.1970296 -1.0842775
-0.60256708 -3.1441507 -1.0669351
-0.62626117 -3.1626394 -1.0747882
-0.64432794 -3.152257 -1.0724977
-0.71364063 -3.3849311 -1.1562655
-0.85454398 -3.9326475 -1.3519418
-0.85758734 -3.8332765 -1.3185656
-0.74186832 -3.2238925 -1.1039107
-0.75814974 -3.2045679 -1.0986751
-0.82563043 -3.3963363 -1.1686997
-0.81506175 -3.2656124 -1.123871
-0.87734145 -3.4253078 -1.1827701
-0.859882 -3.2736418 -1.1304153
-0.80714262 -2.9982419 -1.0335588
-0.82200223 -2.9804811 -1.0289778
-0.83821738 -2.968107 -1.02636
-0.8621937 -2.982877 -1.0335588
-0.89523631 -3.027364 -1.0515558
-0.98034066 -3.2415824 -1.1310698
-0.99490368 -3.2183549 -1.1248525
-1.0813056 -3.4230163 -1.2014216
-0.98843169 -3.0638294 -1.0731522
-1.0057325 -3.0532198 -1.071516
-1.056403 -3.1419218 -1.1062012
-1.0692155 -3.1166129 -1.0993296
-1.0780084 -3.080564 -1.0885314
-1.0943469 -3.0667727 -1.0859137
-1.1099101 -3.051121 -1.0826415
-1.1256515 -3.0362802 -1.0796965
-1.1766801 -3.1150515 -1.1114366
-1.2052815 -3.1324632 -1.1205988
-1.5657279 -3.9950325 -1.4442172
-1.6382213 -4.105577 -1.4890461
-1.3185984 -3.247185 -1.1719719
-1.3247732 -3.2058516 -1.1595377
-1.2428904 -2.9564044 -1.0688983
-1.3260838 -3.1007454 -1.1261615
-1.3650757 -3.1384699 -1.143504
-1.8773483 -4.2438254 -1.5652878
-1.3685853 -3.0439281 -1.1140544
-1.3098013 -2.8661883 -1.0495925
-1.3460852 -2.8983712 -1.0649717
-1.3194491 -2.7960703 -1.0289778
-1.3790983 -2.8765228 -1.0630084
-1.4389548 -2.9546463 -1.0963846
-1.4771811 -2.9864104 -1.1120911
-1.4254456 -2.8379867 -1.0581001
-1.4939556 -2.9293427 -1.0970391
-1.4479913 -2.7967889 -1.048938
-1.4822811 -2.8204677 -1.0616995
-1.4813131 -2.777142 -1.0482836
-1.4983255 -2.7680006 -1.0482836
-1.537132 -2.7985024 -1.0639901
-1.5533538 -2.7873673 -1.0633357
-1.5727543 -2.7818959 -1.0649717
-1.5944979 -2.7803888 -1.0682439
-1.6186593 -2.7828026 -1.0731522
-1.6275368 -2.758985 -1.0675894
-1.6327854 -2.7294886 -1.0597363
-1.6455797 -2.7129567 -1.0571185
-1.6666528 -2.7100511 -1.0600635
-1.6812491 -2.6965671 -1.0587546
-1.6947324 -2.6814086 -1.0567913
-1.7111533 -2.6709595 -1.0567913
-1.720816 -2.6501093 -1.0525374
-1.7417222 -2.6466033 -1.0554824
-1.7747155 -2.6610172 -1.0659534
-1.784657 -2.6406848 -1.0620267
-1.7960186 -2.6226695 -1.0590818
-1.8109993 -2.6100476 -1.0584273
-1.8166494 -2.5842023 -1.0522102
-1.8313746 -2.5714679 -1.0515558
-1.8449057 -2.5571179 -1.050247
-1.8555405 -2.5388854 -1.0473019
-1.872209 -2.5289707 -1.0479563
-1.890527 -2.5212145 -1.0495925
-1.915682 -2.5223563 -1.0551552
-1.9236295 -2.5008202 -1.0509013
-1.9401 -2.4904604 -1.0515558
-1.9559302 -2.4792509 -1.051883
-1.9770067 -2.4745834 -1.0551552
-1.9885856 -2.4579995 -1.0531919
-2.0054274 -2.4479439 -1.0541735
-2.0288601 -2.4457717 -1.0587546
-2.0146437 -2.398556 -1.0430481
-2.0299354 -2.3868687 -1.0433754
-2.0445428 -2.3743684 -1.0433754
-2.0460272 -2.3468258 -1.0365038
-2.0703981 -2.3455589 -1.0417392
-2.0822313 -2.3299935 -1.0404304
-2.1110761 -2.3332844 -1.0479563
-2.129823 -2.3251631 -1.050247
-2.1440496 -2.3120511 -1.050247
-2.1659601 -2.307116 -1.0541735
-2.1937516 -2.3081615 -1.0610451
-2.2052512 -2.2919345 -1.0597363
-2.2093787 -2.2682104 -1.0548279
-2.2132988 -2.2445221 -1.0499197
-2.2263613 -2.2302308 -1.0495925
-2.2433636 -2.2198501 -1.0512285
-2.2386901 -2.1882162 -1.0423937
-2.2452743 -2.1678774 -1.0391215
-2.2551136 -2.1508002 -1.0374854
-2.2889094 -2.1563542 -1.0473019
-2.2841055 -2.1255386 -1.0387943
-2.3214622 -2.1338563 -1.050247
-2.3464088 -2.1303658 -1.0558096
-2.3509917 -2.108361 -1.051883
-2.3652992 -2.0951483 -1.0525374
-2.389493 -2.0905471 -1.0577729
-2.4015601 -2.0752285 -1.0574456
-2.4156861 -2.0616801 -1.0581001
-2.4369638 -2.0541239 -1.0620267
-2.4393513 -2.0306718 -1.0574456
-2.4488449 -2.0132668 -1.0561368
-2.4743607 -2.0089192 -1.0620267
-2.4895904 -1.9960624 -1.0633357
-2.5017912 -1.980749 -1.0633357
-2.5094297 -1.9618706 -1.0613723
-2.527406 -1.9510533 -1.0639901
-2.5483508 -1.9423794 -1.0679166
-2.5579553 -1.9250026 -1.0669351
-2.5621316 -1.9036382 -1.0636629
-2.584434 -1.8957021 -1.0682439
-2.5929549 -1.8775929 -1.0669351
-2.6090405 -1.8649428 -1.0688983
-2.6103945 -1.8418205 -1.0646445
-2.6115634 -1.8187521 -1.0603907
-2.6180003 -1.7994837 -1.0584273
-2.6219528 -1.7786143 -1.0554824
-2.6304605 -1.7609167 -1.0545007
-2.6719728 -1.7650448 -1.0672623
-2.6724589 -1.7419126 -1.0630084
-4.0162616 -2.5821495 -1.6117529
-2.7151821 -1.7226467 -1.0718433
-2.7297068 -1.7084595 -1.0734794
-2.753006 -1.699616 -1.0787148
-2.7851791 -1.6959535 -1.0875497
-2.8255126 -1.6968217 -1.0996568
-2.8244858 -1.6727155 -1.0950757
-2.8551004 -1.667259 -1.1032562
-2.8734677 -1.6544212 -1.1065284
-2.9000039 -1.6460823 -1.1130728
-2.9199471 -1.6337907 -1.1169994
-2.9655042 -1.6354538 -1.1310698
-3.0020559 -1.631658 -1.1415406
-3.0520022 -1.6346085 -1.1572472
-3.1238286 -1.648466 -1.1814613
-3.1774895 -1.651919 -1.1984767
-3.2254202 -1.6517617 -1.2132014
-3.2759988 -1.6523533 -1.2289078
-3.3275509 -1.6528058 -1.2449416
-3.3588545 -1.6427296 -1.253122
-3.445508 -1.6589603 -1.2825716
-3.5247982 -1.670548 -1.3090763
-3.6026444 -1.6804254 -1.3349265
-4.1050487 -1.8840135 -1.5224223
-4.0260925 -1.8179809 -1.4880644
-3.7962024 -1.6862839 -1.3967707
-3.775301 -1.6493491 -1.3849908
-3.8331082 -1.6466538 -1.4029878
-3.938035 -1.6631502 -1.4386545
-3.9551485 -1.641852 -1.4412723
-4.0482774 -1.6514385 -1.472358
-4.1583366 -1.6666176 -1.5096608
-4.2186074 -1.660789 -1.5283122
-4.3115759 -1.6668823 -1.5590707
-4.3835697 -1.6638532 -1.5819759
-4.4946518 -1.6745086 -1.6192788
-4.5847239 -1.6760802 -1.6487285
-4.6625276 -1.6721454 -1.673597
-4.7502594 -1.6707646 -1.702065
-4.7979445 -1.6545157 -1.7158082
-4.8778367 -1.6486292 -1.7413311
-4.9067001 -1.6249025 -1.7482027
-4.9651194 -1.610498 -1.7658725
-5.0307498 -1.5977238 -1.78616
-5.1045303 -1.586727 -1.8093925
-5.2841454 -1.6070309 -1.8709095
-5.3844852 -1.6014981 -1.9036312
-5.4386744 -1.5813479 -1.9196649
-5.4673648 -1.5533665 -1.9265364
-5.4968262 -1.5253448 -1.9337353
-5.5170274 -1.4945511 -1.9376619
-5.5315757 -1.4621187 -1.9396251
-5.5404429 -1.4281502 -1.9396251
-5.5546007 -1.3955082 -1.9415885
-5.5621409 -1.3611751 -1.9412613
-5.5768228 -1.3285524 -1.9435518
-5.5738225 -1.2917508 -1.9396251
-5.5705814 -1.2550361 -1.9356985
-5.5643301 -1.2178044 -1.9307903
-5.5716977 -1.1836394 -1.9307903
-5.5788555 -1.1494298 -1.9307903
-5.6015568 -1.1183188 -1.936353
-5.6138802 -1.0850021 -1.9383162
-5.6241479 -1.0512292 -1.9396251
-5.6249123 -1.0156939 -1.9376619
-5.6366243 -0.98213309 -1.9396251
-5.6388168 -0.94690371 -1.9383162
-5.640789 -0.91168445 -1.9370074
-5.646277 -0.87705606 -1.9370074
-5.6608987 -0.84378582 -1.9402796
-5.668776 -0.80943549 -1.9412613
-5.6886168 -0.77667958 -1.9464967
-0 -0 -0
-0 -0 -0
-0 -0 -0
-0 -0 -0
-0 -0 -0
-0 -0 -0
-0 -0 -0
-0 -0 -0
-0 -0 -0
-0 -0 -0
-0 -0 -0
-0 -0 -0
-0 -0 -0
-0 -0 -0
-0 -0 -0
-0 -0 -0
-0 -0 -0
-0 -0 -0
-0 -0 -0
-0 -0 -0
-0 -0 -0
-0 -0 -0
-0 0 -0
-0 0 -0
-0 0 -0
-0 0 -0
-0 0 -0
-0 0 -0
-0 0 -0
-0 0 -0
-0 0 -0
-0 0 -0
-0 0 -0
-0 -0 -0
-5.4753938 -0.10648999 -1.9222344
-5.4928861 -0.073118374 -1.928311
-0 -0 -0
-0 -0 -0
-0 0 -0
-0 0 -0
-0 0 -0
-0 0 -0
-0 0 -0
-0 0 -0
-0 0 -0
-0 0 -0
-0 0 -0
-0 0 -0
-0 0 -0
-0 0 -0
-0 0 -0
-0 0 -0
-0 0 -0
-0 0 -0
-0.24805555 0.02609776 -0.047607359
-0 0 -0
-0 0 -0
-0 0 -0
-0 0 -0
-0 0 -0
-0 0 -0
-0 0 -0
-0 0 -0
-0 0 -0
-0 0 -0
-0 0 -0
-0 0 -0
-5.4293737 1.0050334 -1.9384387
-5.3981433 1.0335511 -1.9293238
-5.399087 1.0681149 -1.9320245
-5.3878202 1.1002816 -1.9303366
-5.3782043 1.1327382 -1.9293238
-5.3702326 1.1655173 -1.9289862
-5.3629804 1.1984465 -1.9289862
-5.3509388 1.2302763 -1.9272983
-5.3350449 1.2611376 -1.92426
-5.3244619 1.2931828 -1.9232472
-5.3100333 1.3242348 -1.9208841
-5.2981606 1.3558586 -1.9195337
-5.2942939 1.3895364 -1.9212216
-5.2865772 1.4222398 -1.9215592
-5.2850108 1.4566512 -1.92426
-5.2768793 1.4893076 -1.9245975
-5.2721634 1.5229638 -1.9262855
-5.2636223 1.5555512 -1.9266231
-5.2557802 1.5883634 -1.9272983
-5.2477341 1.6211379 -1.9279734
-5.234098 1.6521738 -1.9266231
-5.2247577 1.6845472 -1.9269607
-5.2044878 1.7133371 -1.9232472
-5.1867385 1.7428409 -1.9205465
-5.169714 1.7724967 -1.9181833
-5.1560755 1.8032521 -1.9171706
-5.1458001 1.8351713 -1.9175082
-5.1370969 1.8676755 -1.9185209
-5.127306 1.899815 -1.9191961
-5.1173134 1.9319046 -1.9198713
-5.1053634 1.9632674 -1.9198713
-5.0888381 1.9928405 -1.9181833
-5.0695195 2.0212393 -1.9154826
-5.0570221 2.0523071 -1.9154826
-5.0460744 2.0840163 -1.9161578
-5.0288529 2.1131163 -1.91447
-5.0131955 2.1428232 -1.9134572
-4.9921837 2.1701665 -1.9104189
-4.976191 2.1996157 -1.9094061
-4.9514384 2.2250926 -1.9050175
-4.9770789 2.2734194 -1.9205465
-4.9536438 2.2995565 -1.916833
-4.9488058 2.3343248 -1.9205465
-4.9394832 2.3670864 -1.922572
-4.9070921 2.3886995 -1.9154826
-4.8965621 2.4208496 -1.9171706
-4.8765683 2.4483149 -1.915145
-4.8681631 2.4816103 -1.9178458
-4.8528442 2.5114341 -1.9178458
-4.8331766 2.538975 -1.9161578
-4.8150148 2.5672545 -1.915145
-4.7966881 2.595407 -1.9141324
-4.770771 2.6193545 -1.9100813
-4.7504973 2.6462879 -1.9083933
-4.7308922 2.6735344 -1.907043
-4.7192988 2.7053208 -1.9090685
-4.6961002 2.7304423 -1.9063678
-4.6833124 2.761596 -1.9080558
-4.6711268 2.7931783 -1.9100813
-4.6490707 2.8188596 -1.9080558
-4.6348948 2.8493042 -1.9094061
-4.6229167 2.8811743 -1.9117692
-4.6131091 2.9145129 -1.915145
-4.5824561 2.9346423 -1.9097437
-4.56989 2.9662914 -1.9121068
-4.5610404 3.0004833 -1.9161578
-4.5315785 3.0211036 -1.9114317
-4.5137362 3.0493789 -1.9117692
-4.4941635 3.0764856 -1.9114317
-4.470561 3.1007848 -1.9094061
-4.4514508 3.1281574 -1.9094061
-4.4291058 3.1532285 -1.9080558
-4.4050937 3.1770422 -1.9060302
-4.3900771 3.2073431 -1.9080558
-4.3672881 3.2319801 -1.9067054
-4.354907 3.2643616 -1.9100813
-4.3347955 3.2910213 -1.9100813
-4.3130279 3.3164098 -1.9094061
-4.3067093 3.3537991 -1.9158202
-4.2867885 3.3807442 -1.9161578
-4.272584 3.4122701 -1.9191961
-4.2603498 3.4455242 -1.9232472
-4.2282038 3.4626553 -1.9181833
-4.2097759 3.490937 -1.9195337
-4.1853933 3.514281 -1.9181833
-4.1615996 3.5380671 -1.9171706
-4.1269703 3.5524831 -1.9110941
-4.1029658 3.5758836 -1.9100813
-4.0788298 3.5991232 -1.9090685
-4.0608816 3.6278453 -1.9110941
-4.0343561 3.6489058 -1.9090685
-4.0125852 3.6742272 -1.9094061
-3.9872034 3.6962192 -1.9080558
-3.9637625 3.7199705 -1.9077182
-3.9388151 3.7422769 -1.9067054
-3.9144218 3.7650695 -1.9060302
-3.8898973 3.7877038 -1.905355
-3.8618903 3.8068752 -1.9029919
-3.8437898 3.8358185 -1.9056926
-3.81687 3.8559866 -1.9040047
-3.7911639 3.877315 -1.9029919
-3.7666478 3.8998272 -1.9026543
-3.7426481 3.9228654 -1.9026543
-3.7210898 3.9484961 -1.9040047
-3.6967924 3.9712539 -1.9040047
-3.6761785 3.9980192 -1.9060302
-3.6496792 4.0184102 -1.9050175
-3.6293545 4.0456333 -1.9073806
-3.601341 4.0643039 -1.9056926
-3.577575 4.0877414 -1.9063678
-3.5493476 4.1060557 -1.9046799
-3.5295877 4.1341991 -1.9077182
-3.5011201 4.1521807 -1.9060302
-3.4809985 4.1800947 -1.9090685
-3.4499028 4.1948323 -1.9060302
-3.4246924 4.2166519 -1.9063678
-3.3940432 4.2317123 -1.9036671
-3.3650916 4.2487688 -1.9019791
-3.3412781 4.2723022 -1.9033295
-3.3144252 4.2919788 -1.9029919
-3.2863154 4.3099895 -1.9019791
-3.2598081 4.3300724 -1.9019791
-3.231493 4.3477268 -1.9009664
-3.2030845 4.3651962 -1.8999536
-3.1756876 4.3840055 -1.899616
-3.1459901 4.3995805 -1.8979281
-3.1178498 4.417263 -1.8972529
-3.0949924 4.4424891 -1.8999536
-3.0660753 4.4590693 -1.8989408
-3.0354855 4.4731255 -1.8969153
-3.0069342 4.4901023 -1.8962401
-2.983479 4.5147505 -1.8989408
-2.9598343 4.539279 -1.9016416
-2.9360008 4.5636873 -1.9043423
-2.904412 4.5760536 -1.9019791
-2.8772783 4.5953841 -1.9026543
-2.846554 4.6089482 -1.9009664
-2.8167512 4.6239161 -1.8999536
-2.7883265 4.6411123 -1.8999536
-2.7636354 4.6646123 -1.9026543
-2.7359116 4.6831074 -1.9033295
-2.708065 4.7014375 -1.9040047
-2.6773069 4.7146916 -1.9026543
-2.6483278 4.7310305 -1.9026543
-2.6156106 4.7405982 -1.8999536
-2.5860238 4.7557311 -1.899616
-2.5545714 4.7673607 -1.8979281
-2.5230734 4.7787838 -1.8962401
-2.4932694 4.7933397 -1.8959025
-2.4625232 4.806035 -1.8948898
-2.4351084 4.8252559 -1.8965777
-2.4033604 4.8358922 -1.8948898
-2.3761256 4.8556204 -1.8969153
-2.3462873 4.8701086 -1.8969153
-2.3159573 4.883563 -1.8965777
-2.2843559 4.8942699 -1.8952274
-2.2534964 4.9064837 -1.8945522
-2.222573 4.9185028 -1.893877
-2.1927342 4.9329081 -1.8942146
-2.1620481 4.9454069 -1.893877
-2.1327784 4.9611745 -1.8948898
-2.1096272 4.9915075 -1.9016416
-2.0742648 4.9930577 -1.8972529
-2.0482149 5.0170202 -1.9016416
-2.0177431 5.0303669 -1.9019791
-1.9844235 5.0365224 -1.899616
-1.9538224 5.0494819 -1.8999536
-1.9248086 5.0666547 -1.9019791
-1.8900656 5.0686684 -1.8982657
-1.856341 5.0730987 -1.8955649
-1.8264505 5.0879369 -1.8969153
-1.7920705 5.0901694 -1.8935394
-1.7598826 5.0984006 -1.8925266
-1.7180054 5.0778961 -1.8807111
-1.7010362 5.131228 -1.8969153
-1.657307 5.1039677 -1.8827366
-1.6353725 5.1436424 -1.893877
-1.6018226 5.1472888 -1.8915139
-1.5715805 5.1615229 -1.8932018
-1.541224 5.1755795 -1.8948898
-1.5115436 5.1921687 -1.8975905
-1.4781109 5.1959138 -1.8955649
-1.4456974 5.2030716 -1.8948898
-1.4122658 5.2063937 -1.8928642
-1.3810161 5.2176909 -1.893877
-1.3447391 5.209661 -1.8878005
-1.3150452 5.2269425 -1.8911763
-1.2786901 5.2175426 -1.8847622
-1.2475258 5.2289529 -1.8861125
-1.2152052 5.2355924 -1.885775
-1.1867881 5.2594776 -1.8918515
-1.1502601 5.2473521 -1.8847622
-1.1201971 5.2644386 -1.8884757
-1.0903481 5.2831969 -1.8928642
-1.0560639 5.2805576 -1.8894883
-1.0243591 5.2906346 -1.8908387
-0.99361038 5.3060722 -1.8942146
-0.96036363 5.3083639 -1.8928642
-0.92728817 5.3113751 -1.8918515
-0.89499325 5.3188214 -1.8925266
-0.86249131 5.3251419 -1.8928642
-0.8299455 5.331264 -1.8932018
-0.79763532 5.3390489 -1.8942146
-0.76352614 5.3345246 -1.8908387
-0.73026884 5.3353786 -1.8894883
-0.69617593 5.3294921 -1.885775
-0.66276407 5.3280592 -1.8837494
-0.63005924 5.3320255 -1.8837494
-0.59733069 5.3357911 -1.8837494
-0.56457967 5.3393559 -1.8837494
-0.53227389 5.3474026 -1.8854374
-0.49989057 5.3552542 -1.8871253
-0.46726736 5.3610339 -1.8881381
-0.43466806 5.3675528 -1.8894883
-0.40214694 5.375751 -1.8915139
-0.36941251 5.3818736 -1.8928642
-0.33667684 5.3887362 -1.8945522
-0.30355284 5.3897605 -1.8942146
-0.27033445 5.3887014 -1.8932018
-0.23726492 5.3902588 -1.8932018
-0.20479323 5.4076037 -1.8989408
-0.17151918 5.4059358 -1.8979281
-0.13827331 5.4040637 -1.8969153
-0.10505687 5.4019871 -1.8959025
-0.071820743 5.3959413 -1.8935394
-0.038724162 5.3981633 -1.8942146
-0.0055998787 5.3973579 -1.893877
0.027498879 5.3935256 -1.8925266
0.060581908 5.392314 -1.8921891
0.093651101 5.3908997 -1.8918515
0.12672728 5.3902235 -1.8918515
0.15996565 5.3949895 -1.893877
0.19296487 5.3910847 -1.8928642
0.22544974 5.3756919 -1.8878005
0.25865582 5.3789086 -1.8894883
0.29114622 5.3678212 -1.8861125
0.32396373 5.3640542 -1.8854374
0.3571206 5.3657227 -1.8867877
0.38962814 5.3577971 -1.8847622
0.42330918 5.3656278 -1.8884757
0.45670238 5.368557 -1.8905011
0.48937824 5.3628416 -1.8894883
0.52190989 5.3559904 -1.8881381
0.55379415 5.3433242 -1.8847622
0.58749413 5.3482466 -1.8878005
0.61964864 5.3389311 -1.885775
0.65273857 5.3378315 -1.8867877
0.68583834 5.3365269 -1.8878005
0.71806717 5.3284864 -1.8864501
0.75061727 5.3230481 -1.8861125
0.78326476 5.3183422 -1.8861125
0.81573993 5.3125057 -1.885775
0.84802455 5.3055415 -1.8850998
0.88164216 5.3067384 -1.8874629
0.91594589 5.3114324 -1.8911763
0.94984365 5.3131251 -1.893877
0.98345411 5.3127508 -1.8959025
1.0165648 5.3093896 -1.8969153
1.0496713 5.3058224 -1.8979281
1.0810778 5.2937484 -1.8959025
1.1116 5.2778044 -1.8925266
1.143564 5.2690444 -1.8918515
1.1768987 5.2665219 -1.8935394
1.2077154 5.25278 -1.8911763
1.2403561 5.2471027 -1.8918515
1.2709737 5.2329903 -1.8894883
1.3057913 5.236053 -1.8935394
1.3350948 5.2169991 -1.8894883
1.3666029 5.2068882 -1.8888133
1.3992594 5.2011318 -1.8898259
1.4308965 5.1915407 -1.8894883
1.4619575 5.1799455 -1.8884757
1.4942359 5.1726861 -1.8891507
1.5272802 5.1679339 -1.8908387
1.5600504 5.1620698 -1.8921891
1.5911393 5.1506014 -1.8915139
1.6232793 5.1425366 -1.8921891
1.6556692 5.1351676 -1.8932018
1.6859697 5.121335 -1.8918515
1.7185609 5.1144633 -1.8932018
1.750826 5.106493 -1.8942146
1.7836792 5.1000972 -1.8959025
1.8158877 5.0917163 -1.8969153
1.8432369 5.0698624 -1.8928642
1.8739834 5.0575743 -1.8925266
1.9036512 5.0424581 -1.8911763
1.9311774 5.0218968 -1.8878005
1.9605821 5.0064464 -1.8864501
1.9926584 4.9978199 -1.8878005
2.0236409 4.9863715 -1.8881381
2.0559947 4.9782109 -1.8898259
2.0875955 4.9681053 -1.8908387
2.1184099 4.956068 -1.8911763
2.1480296 4.9412498 -1.8905011
2.178308 4.9279766 -1.8905011
2.2088902 4.9153767 -1.8908387
2.2343166 4.8914561 -1.8867877
2.2646842 4.8785081 -1.8871253
2.2965829 4.8687773 -1.8888133
2.3264141 4.8545942 -1.8888133
2.358629 4.8453064 -1.8908387
2.3920689 4.8383374 -1.893877
2.4187553 4.8176804 -1.8915139
2.4478431 4.8019094 -1.8911763
2.4846146 4.8010116 -1.8969153
2.5035217 4.765676 -1.8888133
2.5269599 4.7394266 -1.8844246
2.5618155 4.7345948 -1.8888133
2.5894592 4.7163115 -1.8878005
2.6169751 4.6978669 -1.8867877
2.6448255 4.6800818 -1.8861125
2.6786408 4.672749 -1.8898259
2.7058425 4.6537838 -1.8888133
2.7376931 4.6427693 -1.8911763
2.7680612 4.6291156 -1.8925266
2.7983646 4.6152635 -1.893877
2.8290954 4.602016 -1.8955649
2.8537948 4.5789781 -1.8932018
2.8818371 4.5613813 -1.8932018
2.907233 4.539649 -1.8915139
2.9278591 4.5106711 -1.8867877
2.9611709 4.5012717 -1.8905011
2.9856019 4.4783182 -1.8884757
3.0119703 4.4583545 -1.8878005
3.0419278 4.4436736 -1.8894883
3.063236 4.4164166 -1.885775
3.0935237 4.4021587 -1.8878005
3.1204767 4.3830943 -1.8878005
3.1456604 4.3615746 -1.8867877
3.1768053 4.3482718 -1.8894883
3.2045457 4.3302107 -1.8901635
3.2299261 4.30896 -1.8894883
3.2585809 4.2920594 -1.8908387
3.2842815 4.2712383 -1.8905011
3.3086927 4.2487779 -1.8894883
3.3317862 4.2247005 -1.8878005
3.3594079 4.2063842 -1.8888133
3.3816032 4.1813002 -1.8867877
3.4161408 4.1713967 -1.8918515
3.4428732 4.1518064 -1.8925266
3.4707043 4.1334867 -1.893877
3.4880762 4.1027899 -1.8894883
3.517483 4.0863042 -1.8918515
3.5431085 4.0653539 -1.8921891
3.5617588 4.036479 -1.8888133
3.5921025 4.0208664 -1.8918515
3.6173379 3.9994483 -1.8921891
3.6399031 3.9750946 -1.8911763
3.6655052 3.9540665 -1.8918515
3.6922741 3.9342465 -1.8932018
3.7176414 3.9128821 -1.893877
3.7350557 3.8832128 -1.8905011
3.7489629 3.850105 -1.8854374
3.7883742 3.8431191 -1.8935394
3.811219 3.8191354 -1.8932018
3.8352499 3.7963405 -1.8935394
3.8618364 3.776027 -1.8952274
3.8856101 3.7529142 -1.8955649
3.9085643 3.7290018 -1.8955649
3.9258916 3.699784 -1.8928642
3.9533417 3.6801155 -1.8952274
3.9800053 3.6596119 -1.8972529
4.0023851 3.6351223 -1.8972529
4.0225129 3.6086099 -1.8962401
4.0424657 3.5819874 -1.8952274
4.0700345 3.5620756 -1.8979281
4.0811334 3.527801 -1.8928642
4.1041341 3.5039158 -1.8935394
4.1241174 3.4774535 -1.8928642
4.1475468 3.4538903 -1.893877
4.1650267 3.4253864 -1.8921891
4.1961946 3.4080749 -1.8969153
4.2126217 3.3787293 -1.8948898
4.2413902 3.3592467 -1.8986033
4.2678537 3.3377984 -1.901304
4.2919788 3.3144252 -1.9029919
4.312983 3.2885988 -1.9033295
4.3345842 3.2632053 -1.9040047
4.3545256 3.2365472 -1.9040047
4.3485012 3.1908321 -1.8925266
4.3794322 3.172374 -1.8975905
4.4087682 3.1525609 -1.9019791
4.41957 3.1194785 -1.8982657
4.4216371 3.0804627 -1.8908387
4.4660497 3.0708759 -1.9019791
4.475462 3.0370715 -1.8979281
4.504962 3.0168869 -1.9026543
4.5194621 2.9865932 -1.9009664
4.5424328 2.9618912 -1.9029919
4.5628958 2.9354916 -1.9040047
4.5832062 2.9089522 -1.9050175
4.5993733 2.8797765 -1.9043423
4.6281681 2.8584266 -1.9090685
4.6496391 2.8324237 -1.9107565
4.6483741 2.7926898 -1.9029919
4.6638026 2.7631557 -1.9023167
4.6660399 2.725939 -1.8962401
4.694097 2.703836 -1.9009664
4.7155099 2.6777718 -1.9029919
4.7187104 2.6414301 -1.8975905
4.746367 2.6187942 -1.9023167
4.7681346 2.5927696 -1.9046799
4.7872725 2.5652428 -1.9060302
4.8070841 2.538018 -1.9077182
4.8234015 2.508909 -1.9080558
4.8370299 2.4784074 -1.9073806
4.8513055 2.448257 -1.907043
4.8738227 2.4222147 -1.9100813
4.8953571 2.3955746 -1.912782
4.9201398 2.3703954 -1.916833
4.9456477 2.3454056 -1.9212216
4.9633574 2.3166082 -1.922572
4.9740567 2.2845383 -1.9212216
4.9982738 2.2586272 -1.9252727
5.0017171 2.2233269 -1.9212216
5.015265 2.192595 -1.9212216
5.035542 2.1647553 -1.9239224
5.0461292 2.1327176 -1.9229096
5.0652046 2.1042433 -1.9252727
5.0727921 2.0709891 -1.9232472
5.0871515 2.040525 -1.9239224
5.0978246 2.0085821 -1.9232472
5.1039081 1.9748864 -1.9208841
5.0948119 1.9355079 -1.912782
5.1118836 1.906184 -1.9148074
5.128787 1.8767233 -1.916833
5.1402059 1.8452183 -1.916833
5.158534 1.8161451 -1.9195337
5.1740294 1.7859948 -1.9212216
5.1911321 1.7563261 -1.9235848
5.208065 1.7265146 -1.9259479
5.2301989 1.6983061 -1.9303366
5.2360363 1.6647558 -1.9286486
5.2452536 1.6323171 -1.928311
5.2578721 1.6009247 -1.9293238
5.2558684 1.5651397 -1.9249351
5.2644691 1.5325977 -1.9245975
5.2647204 1.4976903 -1.9212216
5.2765317 1.4661146 -1.9222344
5.2854285 1.4337108 -1.9222344
5.2977657 1.4022167 -1.9235848
5.3053584 1.3694485 -1.9232472
5.3154869 1.3373291 -1.9239224
5.3272495 1.3055853 -1.9252727
5.3333287 1.2724363 -1.9245975
5.3437867 1.2403263 -1.9256103
5.3512969 1.207514 -1.9256103
5.3641219 1.1758661 -1.9276358
5.3730769 1.1433223 -1.928311
5.3855224 1.1114742 -1.9303366
5.397779 1.0795163 -1.9323621
5.4079976 1.0470918 -1.9337125
5.4050684 1.012156 -1.9303366
5.4176612 0.98014557 -1.9326997
5.4254274 0.94720894 -1.9333749
5.4348502 0.91452634 -1.9347252
0 0 -0
0 0 -0
0 0 -0
0 0 -0
0 0 -0
0 0 -0
0 0 -0
0 0 -0
0 0 -0
0 0 -0
0 0 -0
0 0 -0
0 0 -0
0 0 -0
0 0 -0
0 0 -0
0 0 -0
0 0 -0
0 0 -0
0 0 -0
0 0 -0
0 0 -0
0 0 -0
0 0 -0
0 0 -0
0 0 -0
0 0 -0
0 -0 -0
0 -0 -0
0 -0 -0
0 -0 -0
0 -0 -0
0 -0 -0
0 -0 -0
0 -0 -0
0 -0 -0
0 -0 -0
0 -0 -0
5.5136414 -0.40094957 -1.9408017
5.5073237 -0.43447724 -1.9394515
5.5017405 -0.4680222 -1.9384387
5.4959531 -0.50151503 -1.9374259
5.4927721 -0.53522813 -1.9374259
5.4912572 -0.56911498 -1.9381011
5.4942117 -0.603517 -1.9404641
0 -0 -0
0 -0 -0
0 -0 -0
5.4945378 -0.74043149 -1.9465408
5.4815021 -0.7729491 -1.9435025
5.4813128 -0.80725384 -1.9451904
5.4325275 -0.83416009 -1.9293238
5.4607692 -0.87282372 -1.9414769
5.4515963 -0.90569711 -1.9401267
5.4459367 -0.93913043 -1.9401267
5.4326587 -0.97120374 -1.9374259
5.4284482 -1.0048622 -1.9381011
5.4120107 -1.0362052 -1.9343876
5.4037042 -1.069028 -1.9337125
5.3832088 -1.0993403 -1.9286486
5.3514924 -1.1271143 -1.9195337
5.2994008 -1.1501499 -1.9029919
5.2068095 -1.1635597 -1.8715962
5.0537095 -1.1619611 -1.8179197
4.9667869 -1.1741149 -1.7885495
4.9238153 -1.1959069 -1.7753836
4.8835044 -1.2178991 -1.7632304
4.8266959 -1.2352426 -1.7450006
4.7671285 -1.2512187 -1.7257581
4.7348185 -1.273845 -1.7166432
4.6842618 -1.2911211 -1.7007766
4.6472621 -1.3116595 -1.6899738
4.7168994 -1.3626097 -1.7190064
4.7030334 -1.3899262 -1.7169808
4.7043285 -1.421752 -1.7206943
4.6946168 -1.4503127 -1.7203567
4.6784482 -1.4768248 -1.717656
4.6639228 -1.5037707 -1.7156305
4.651926 -1.5314769 -1.7146177
4.6585026 -1.5653872 -1.7206943
4.6416864 -1.5915 -1.7179936
4.6327224 -1.6202617 -1.7183312
4.5987544 -1.6401216 -1.7092164
4.6036439 -1.6737747 -1.7149553
4.5959349 -1.7029716 -1.715968
4.5739508 -1.7268186 -1.7115794
4.576448 -1.7599181 -1.7166432
4.568193 -1.788995 -1.717656
4.5588784 -1.8176883 -1.7183312
4.535428 -1.8406723 -1.7136049
4.5136085 -1.8641554 -1.7095538
4.483861 -1.8841591 -1.7024646
4.4436517 -1.8994294 -1.6913241
4.4500422 -1.9345387 -1.6984135
4.4423933 -1.9637097 -1.7001014
4.4182401 -1.9855299 -1.6953752
4.410255 -2.0145576 -1.6970631
4.3815885 -2.0340512 -1.6906489
4.3639169 -2.0584888 -1.6886234
4.3461108 -2.0827861 -1.6865979
4.337481 -2.1114738 -1.6882858
4.3067231 -2.1292889 -1.6811965
4.2918944 -2.15483 -1.6805214
4.2777534 -2.1806965 -1.6801838
4.2525883 -2.2008471 -1.6754575
4.2440038 -2.2295253 -1.677483
4.2468567 -2.26438 -1.6842347
4.2419896 -2.2953224 -1.6879482
4.2129736 -2.3131542 -1.6818717
4.1954117 -2.3371291 -1.6805214
4.1908264 -2.3683841 -1.6845723
4.1925488 -2.4034154 -1.6913241
4.1695852 -2.4243646 -1.6879482
4.1473331 -2.4456005 -1.6849099
4.1257858 -2.4671378 -1.6822093
4.1145949 -2.4948466 -1.6838971
4.1088324 -2.5259612 -1.6879482
4.0988483 -2.5546095 -1.6903113
4.0815048 -2.578706 -1.6896362
4.0608487 -2.6006558 -1.6876106
4.0329714 -2.6178372 -1.6825469
4.0113277 -2.6389129 -1.6801838
3.9942768 -2.6629541 -1.6798462
3.9903424 -2.6958425 -1.6852475
3.9908149 -2.7319725 -1.6926745
3.9577334 -2.7451437 -1.6855851
3.9361937 -2.7661293 -1.6835597
3.9145458 -2.7869539 -1.6815341
3.8943179 -2.8087184 -1.6801838
3.8762505 -2.8320055 -1.6798462
3.8542604 -2.8523769 -1.6778206
3.8314135 -2.872021 -1.6754575
3.8152184 -2.8966143 -1.6761327
3.7981195 -2.9205432 -1.6764703
3.7860696 -2.9484193 -1.679171
3.776777 -2.9785888 -1.6832221
3.7694631 -3.0105169 -1.6882858
3.7443323 -3.0282626 -1.6852475
3.7402468 -3.063107 -1.6919993
3.7090628 -3.0757856 -1.6862603
3.6821902 -3.0918286 -1.6825469
3.655978 -3.1082673 -1.679171
3.63327 -3.1275713 -1.677483
3.620398 -3.1553714 -1.6805214
3.6030865 -3.1793945 -1.6815341
2.4413295 -2.1812127 -1.1322781
2.4237108 -2.192363 -1.1302526
2.410213 -2.2071934 -1.1302526
3.5177617 -3.2611022 -1.6784958
3.5066092 -3.2909987 -1.6828845
3.4849851 -3.3111563 -1.6822093
3.4632456 -3.3311725 -1.6815341
3.4332986 -3.3431671 -1.6768079
3.4174135 -3.3687959 -1.679171
3.3986776 -3.3916957 -1.6801838
3.3784649 -3.4131548 -1.6805214
3.3383729 -3.414304 -1.6707313
3.3062425 -3.4232144 -1.6649922
3.2760785 -3.4339027 -1.660266
3.2601118 -3.4594195 -1.6629667
3.2368996 -3.4772913 -1.6619539
3.2199626 -3.5019369 -1.6643171
3.2104397 -3.5348666 -1.6707313
3.1874325 -3.5530977 -1.6700561
3.1724386 -3.5803375 -1.6737696
3.1584699 -3.6089437 -1.6781582
3.1331882 -3.6246953 -1.6764703
3.1115 -3.6445677 -1.6768079
3.0951471 -3.6707866 -1.6801838
3.0731676 -3.6904323 -1.6805214
3.0564454 -3.7164891 -1.6838971
3.0300229 -3.7307894 -1.6818717
2.9935274 -3.7324233 -1.6741072
2.9600487 -3.7374399 -1.6680305
1.9929197 -2.5484989 -1.1184371
1.9749434 -2.5576992 -1.1170866
1.9586416 -2.5690207 -1.116749
1.9434078 -2.5817423 -1.1170866
1.9264067 -2.5921073 -1.1164114
1.907681 -2.6000845 -1.1147236
1.7961509 -2.4798691 -1.0563208
1.6303195 -2.2802927 -0.96348405
1.6146686 -2.2879462 -0.96247131
2.6897788 -3.8609469 -1.6457497
2.6948407 -3.91926 -1.6639795
2.6717989 -3.9372792 -1.6646546
2.6465423 -3.952035 -1.6639795
2.6186101 -3.9627025 -1.6616163
2.6045301 -3.9944642 -1.6683681
2.5697846 -3.9945383 -1.6616163
2.5416949 -4.0046682 -1.6592532
2.5140772 -4.0154018 -1.6572278
2.4725726 -4.0035243 -1.6457497
2.4464917 -4.0162086 -1.644737
2.4203482 -4.0287242 -1.6437242
2.4037404 -4.0572658 -1.6494632
2.3816495 -4.0768147 -1.6514888
2.3697467 -4.1141891 -1.6609412
2.3439929 -4.1278334 -1.6606036
2.3190808 -4.1429596 -1.6609412
2.2872493 -4.1455731 -1.656215
2.2694149 -4.1735868 -1.6619539
2.2424295 -4.1849442 -1.6609412
2.2149508 -4.1952953 -1.6595908
2.1882985 -4.2071371 -1.6589156
2.1602962 -4.2162967 -1.6572278
2.1398988 -4.2403965 -1.6616163
2.1109071 -4.2475467 -1.6592532
2.0823221 -4.2553463 -1.6572278
2.0561726 -4.268043 -1.6572278
2.0287354 -4.2780275 -1.656215
2.0020494 -4.2895422 -1.6558774
1.4299057 -3.1136541 -1.1869674
1.4200779 -3.1429553 -1.1950696
1.3988544 -3.1473091 -1.1933815
1.3734825 -3.1420338 -1.1879802
1.8951825 -4.4086032 -1.679171
1.8662635 -4.4158139 -1.677483
1.8373276 -4.4228358 -1.6757951
1.8094432 -4.4322834 -1.6751199
1.7843162 -4.448544 -1.6771455
1.7566417 -4.4585328 -1.6768079
1.7282324 -4.4665942 -1.6757951
1.7041368 -4.4859133 -1.679171
1.6772376 -4.4980493 -1.6798462
1.6502535 -4.5100236 -1.6805214
1.6219133 -4.5182929 -1.6798462
1.5963477 -4.5343747 -1.6822093
1.5654231 -4.5351868 -1.6788334
1.534549 -4.5357904 -1.6754575
1.5055039 -4.5415468 -1.6741072
1.4758645 -4.5453277 -1.6720816
1.4468061 -4.5507097 -1.6707313
1.4185765 -4.5586023 -1.6703937
1.3894817 -4.5636191 -1.6690433
1.3609163 -4.5702548 -1.6683681
1.3317953 -4.574904 -1.6670178
1.3039569 -4.5838952 -1.6673554
1.2768143 -4.5954375 -1.6687057
1.2485932 -4.6031852 -1.6687057
1.2220114 -4.6171293 -1.6710688
1.192011 -4.6181607 -1.6687057
1.1641115 -4.6272135 -1.6693809
0.72935677 -2.9767849 -1.0573336
1.1037446 -4.6265011 -1.6639795
0.69447523 -2.9928465 -1.0600343
0.67257494 -2.981442 -1.0542953
0.66011554 -3.0121768 -1.0640854
0.63789719 -2.9986777 -1.0576712
0.61701143 -2.9905512 -1.0532825
0.60031211 -3.0025878 -1.0563208
0.58044529 -2.9988217 -1.0536201
0.56168729 -3.0004766 -1.0529449
0.54041624 -2.9881203 -1.0472059
0.52061367 -2.9830346 -1.0441676
0.50480056 -3.0010247 -1.049569
0.48336577 -2.9854822 -1.0428172
0.46445864 -2.9846716 -1.041467
0.44335327 -2.9688461 -1.0347152
0.42566216 -2.9752378 -1.0360655
0.40675986 -2.9731307 -1.0343776
0.38826543 -2.9737039 -1.0337024
0.36908171 -2.9685574 -1.0310017
0.35174426 -2.9782445 -1.0337024
0.33304432 -2.9766049 -1.0323521
0.3140806 -2.9720399 -1.0299889
0.29667833 -2.9823411 -1.0330272
0.28170058 -3.0197194 -1.0458555
0.26202136 -3.0082629 -1.0411294
0.24576348 -3.0370221 -1.0509194
0.22740521 -3.0422277 -1.0522697
0.20931493 -3.0520175 -1.055308
0.1905254 -3.0523047 -1.0549704
0.17216422 -3.0599949 -1.0573336
0.1531018 -3.0553532 -1.055308
0.13455895 -3.0609369 -1.056996
0.11531085 -3.0494769 -1.0526073
0.096208468 -3.0378964 -1.0482187
0.077349149 -3.0299606 -1.0451804
0.058407113 -3.0124972 -1.0387663
0.039783098 -3.0024455 -1.0350528
0.021223228 -2.9838076 -1.028301
0.0029071984 -2.9772928 -1.0259379
-0.015375366 -2.9800782 -1.0269506
-0.033618476 -2.9761629 -1.0256003
-0.052107144 -2.9890769 -1.0303265
-0.070755541 -3.0018752 -1.0350528
-0.089562953 -3.0145569 -1.0397789
-0.10819264 -3.0177135 -1.0411294
-0.12729751 -3.0310998 -1.0461931
-0.14503591 -3.0123978 -1.0397789
-0.16316055 -3.0048716 -1.0374159
-0.18029147 -2.9822035 -1.0296513
-0.19708799 -2.9584997 -1.0215492
-0.21475989 -2.9506631 -1.0191861
-0.2330087 -2.9511666 -1.0198612
-0.25198922 -2.9599984 -1.0235747
-0.26963386 -2.9527719 -1.0215492
-0.28765541 -2.950125 -1.0212116
-0.30759403 -2.966094 -1.0276258
-0.31993333 -2.9108174 -1.0083833
-0.34494543 -2.9705112 -1.0306641
-0.36305147 -2.9674044 -1.0303265
-0.38305104 -2.9791253 -1.0353904
-0.40283108 -2.9879131 -1.0394413
-0.42601746 -3.0198724 -1.0519321
-0.44371656 -3.0116138 -1.0499066
-0.45961684 -2.9920874 -1.04383
-0.47885829 -2.9947879 -1.0458555
-0.49737915 -2.992722 -1.0461931
-0.51669216 -2.9951794 -1.0482187
-0.53588837 -2.9965858 -1.0499066
-0.55769032 -3.0117528 -1.0566584
-0.57969838 -3.0267646 -1.0634102
-0.59898978 -3.0268443 -1.0647604
-0.6169861 -3.0203452 -1.0637478
-0.63240409 -3.001765 -1.0583463
-0.65021193 -2.9950683 -1.0573336
-0.66673017 -2.9827545 -1.0542953
-0.68523031 -2.9795246 -1.0546329
-0.70003581 -2.9606071 -1.0492314
-0.7179665 -2.9553413 -1.0488938
-0.73972982 -2.9654937 -1.0542953
-0.75651199 -2.9554274 -1.0522697
-0.76889855 -2.9288785 -1.0441676
-0.78318828 -2.9104707 -1.0391037
-0.79953158 -2.9001656 -1.0370783
-0.83111447 -2.9441249 -1.055308
-0.86196059 -2.9832826 -1.0718498
-0.88158298 -2.982451 -1.0735378
-1.2045038 -3.9852779 -1.451299
-1.2417115 -4.0191836 -1.466828
-1.2754143 -4.0402141 -1.4776309
-1.2932498 -4.0108104 -1.4695287
-0.98854494 -3.0022874 -1.0917675
-1.0303288 -3.0657637 -1.1180995
-1.029281 -3.0015059 -1.0961562
-1.0361835 -2.9622576 -1.0836655
-1.0622431 -2.9780095 -1.0921052
-1.0772803 -2.962589 -1.0887293
-1.0947841 -2.9541578 -1.0880541
-1.1115603 -2.9438622 -1.0867038
-1.1265625 -2.9290791 -1.0836655
-1.1441706 -2.9212348 -1.0833279
-1.1523142 -2.8896766 -1.0738754
-1.1611756 -2.8607459 -1.0654356
-1.1754737 -2.845737 -1.0623974
-1.1972876 -2.8488846 -1.0664485
-1.1925515 -2.7895505 -1.0461931
-1.2103958 -2.7839072 -1.0468683
-1.2278353 -2.7772889 -1.0472059
-1.2471679 -2.7748544 -1.0492314
-1.2614334 -2.7611561 -1.0468683
-1.2795407 -2.7559254 -1.0478811
-1.290404 -2.7352521 -1.0428172
-1.9335183 -4.0345693 -1.562703
-1.3259321 -2.7234428 -1.0445052
-1.3501259 -2.7304447 -1.0505818
-1.3626314 -2.7136965 -1.0472059
-1.3997736 -2.7455397 -1.0634102
-1.4083747 -2.721015 -1.056996
-1.4443024 -2.7489891 -1.0718498
-1.4637996 -2.745059 -1.0738754
-1.4904689 -2.7542396 -1.0813023
-1.5086994 -2.7475178 -1.0823151
-1.5214074 -2.7308078 -1.0792768
-1.5353563 -2.7165041 -1.0772513
-1.5365492 -2.6800823 -1.0661108
-1.5416113 -2.651073 -1.0580088
-1.5597612 -2.6448073 -1.0593591
-1.5716128 -2.6279159 -1.0563208
-1.5935634 -2.6278822 -1.0603719
