# .PCD v0.7 - Point Cloud Data file format
VERSION 0.7
FIELDS x y z
SIZE 4 4 4
TYPE F F F
COUNT 1 1 1
WIDTH 1510
HEIGHT 1
VIEWPOINT 0 0 0 1 0 0 0
POINTS 1510
DATA ascii
4.8729243 -6.9966874 -1.5503814
4.8042841 -6.9891911 -1.5419512
4.7640681 -7.0226054 -1.5428675
4.705575 -7.0288324 -1.5377362
4.6493526 -7.0378881 -1.5333377
4.6452723 -7.1264005 -1.5467161
4.6099668 -7.1679983 -1.5496484
4.5732718 -7.2077699 -1.552214
4.5331326 -7.2423615 -1.5536802
4.4808617 -7.2574935 -1.5509312
4.4070992 -7.2369933 -1.5404851
1.7339847 -2.8876159 -0.58878952
1.711725 -2.8905888 -0.58714014
1.6969312 -2.9061306 -0.58823973
4.2060909 -7.3046336 -1.5322381
4.2262282 -7.4448605 -1.5567957
4.1579037 -7.4303322 -1.5481822
4.1013126 -7.4359069 -1.5439671
4.0579572 -7.4652505 -1.5448835
4.0120749 -7.4900093 -1.5448835
3.9692538 -7.5205712 -1.5461663
3.9175911 -7.5343184 -1.5439671
3.8856299 -7.5862131 -1.5498316
3.8421085 -7.6160555 -1.5511144
3.783057 -7.6148362 -1.5459831
3.7328057 -7.6308408 -1.5445169
3.6816478 -7.6447444 -1.5426843
3.6258271 -7.6485367 -1.5388358
3.5796595 -7.6724224 -1.5392022
3.5230801 -7.6736941 -1.5349871
3.4807856 -7.7059178 -1.5371864
3.4290462 -7.7172484 -1.5351704
3.3631253 -7.6958065 -1.526557
3.3220522 -7.7307482 -1.5294892
3.2867985 -7.779964 -1.5353537
3.2374914 -7.7963533 -1.5346206
3.1851351 -7.8051496 -1.5324215
3.1386473 -7.828196 -1.5331545
3.081188 -7.8235259 -1.5283896
3.034899 -7.8468685 -1.5293059
2.9929769 -7.8818851 -1.5326047
2.9414678 -7.8918109 -1.5309553
2.8892744 -7.8995552 -1.5289394
2.8477223 -7.9365659 -1.5327879
2.8012552 -7.960381 -1.5340708
2.7562068 -7.9885707 -1.53627
2.7039883 -7.9960198 -1.5344373
2.6567302 -8.0180597 -1.5355369
2.5941277 -7.9930682 -1.5274733
2.5429499 -8.0022764 -1.5261904
2.4888368 -8.0017719 -1.5230749
2.4451306 -8.0347614 -1.526557
2.4053204 -8.0816479 -1.5327879
2.3518414 -8.0830402 -1.5302223
2.3051584 -8.1077194 -1.5322381
2.2411604 -8.0705624 -1.5223418
2.1985443 -8.1097794 -1.52729
2.1487422 -8.1231165 -1.52729
2.1015611 -8.1466188 -1.5293059
2.0551312 -8.1736612 -1.5320549
1.99956 -8.164156 -1.5278398
1.9514804 -8.1848774 -1.5294892
1.9005557 -8.1938248 -1.5289394
1.847648 -8.1938248 -1.5267402
1.7948121 -8.1934843 -1.524541
1.7406185 -8.1860723 -1.521059
1.6885694 -8.1879339 -1.5194097
1.6350217 -8.1817522 -1.5162941
1.585349 -8.1945267 -1.5168439
1.5306981 -8.1809092 -1.5124456
0.46527144 -2.5754886 -0.44877496
0.45047364 -2.5841055 -0.44987458
1.3801811 -8.2096367 -1.512812
1.3286822 -8.2111578 -1.5115292
1.2415521 -7.9831109 -1.4669958
1.1807876 -7.9118233 -1.4521513
1.0995098 -7.690227 -1.4090841
1.0586971 -7.7435803 -1.4178808
1.0163802 -7.7898974 -1.4253947
0.97001815 -7.807694 -1.4275938
0.91437006 -7.7480879 -1.415315
0.86735785 -7.7584372 -1.4162314
0.81994319 -7.7655687 -1.4165978
0.7681936 -7.7293673 -1.4089007
0.72166532 -7.7437234 -1.4107335
0.67413712 -7.7480059 -1.4107335
0.62420601 -7.7226005 -1.4052354
0.5730741 -7.6762881 -1.3958889
0.52535754 -7.6708331 -1.3942395
0.47962674 -7.695498 -1.3982714
0.42936406 -7.6443129 -1.3881918
0.38132071 -7.6242213 -1.3839767
0.33414403 -7.617578 -1.3823273
0.28825057 -7.6420794 -1.3865424
0.24278377 -7.6889024 -1.3949726
0.1989323 -7.8209524 -1.4193469
0.15185291 -7.869204 -1.4281436
0.10577311 -8.0370941 -1.4592986
0.058167167 -8.2794189 -1.5043819
0.007426301 -8.3454857 -1.5166607
-0.043790996 -8.3473406 -1.5170271
-0.0949305 -8.3400335 -1.5157443
-0.14630827 -8.3510885 -1.5179435
-0.1973612 -8.3421717 -1.5164773
-0.24877796 -8.3486643 -1.5179435
-0.29947078 -8.3322449 -1.5151945
-0.35121018 -8.3449831 -1.5179435
-0.4016977 -8.3279419 -1.5151945
-0.45406955 -8.3488789 -1.5195929
-0.50475454 -8.3371048 -1.5179435
-0.55308914 -8.2916727 -1.5100631
-0.60231328 -8.2655716 -1.5058481
-0.65379268 -8.2715206 -1.5076807
-0.70795393 -8.3075132 -1.5151945
-0.75918281 -8.3059502 -1.5157443
-0.8079378 -8.2786322 -1.5115292
-0.85831356 -8.2696075 -1.5107962
-0.91043544 -8.2768888 -1.5131786
-0.96835059 -8.3326654 -1.5247242
-1.0177888 -8.3129063 -1.5221586
-1.0747962 -8.3533058 -1.5309553
-1.1249797 -8.3387604 -1.5294892
-1.1765363 -8.3346205 -1.530039
-1.2212045 -8.2834797 -1.5217921
-1.2785771 -8.3185835 -1.5298557
-1.3292843 -8.3086405 -1.5294892
-1.383948 -8.3226318 -1.5337043
-1.4343201 -8.3101082 -1.5329713
-1.478359 -8.2624435 -1.5256406
-1.5283124 -8.2493496 -1.5249076
-1.5829698 -8.2610588 -1.5289394
-1.6095779 -8.1296816 -1.5058481
-0.61385763 -3.0023599 -0.53216058
-0.63226825 -2.9985368 -0.53216058
-0.65044641 -2.9936402 -0.5319773
-0.66923177 -2.9915116 -0.53234386
-0.68669325 -2.9835167 -0.53161079
-0.71335799 -3.0146441 -0.53839159
-0.71768314 -2.9519389 -0.52721244
-0.73649633 -2.9503412 -0.52776223
-2.1114345 -8.2455826 -1.5476325
-2.1520023 -8.1944389 -1.5403018
-0.78224659 -2.9049585 -0.52171451
-0.80136293 -2.9048424 -0.52263081
-0.81356215 -2.880003 -0.51878226
-0.98869115 -3.4198875 -0.6245262
-1.0578728 -3.5768487 -0.65623105
-2.4612622 -8.1397886 -1.5461663
-2.5021629 -8.095417 -1.5404851
-2.5541563 -8.0874109 -1.5419512
-1.0442455 -3.2363825 -0.59483725
-1.0631614 -3.227113 -0.59428746
-2.7461236 -8.1685514 -1.567425
-1.1074669 -3.2277718 -0.59703642
-1.1249789 -3.2144203 -0.59575355
-2.8553858 -8.0027342 -1.5448835
-2.9010761 -7.9758244 -1.5430508
-1.1497899 -3.1009901 -0.57742709
-1.1684483 -3.092957 -0.5772438
-1.1866984 -3.0838943 -0.5768773
-1.2450404 -3.177242 -0.59703642
-1.2761656 -3.1987629 -0.60290092
-3.2034013 -7.8900547 -1.5483655
-3.2615128 -7.8938737 -1.5531304
-3.3163629 -7.8891191 -1.5562459
-3.3635478 -7.8659101 -1.5556961
-3.4070446 -7.8343053 -1.553497
-3.4471002 -7.7952709 -1.5498316
-1.320847 -2.9374783 -0.56129974
-1.3400718 -2.9320009 -0.56184953
-3.5871034 -7.7242589 -1.5485488
-3.6415622 -7.7172179 -1.5516642
-3.7037182 -7.7257552 -1.5580785
-3.7497616 -7.7002325 -1.5575287
-3.7965031 -7.676198 -1.5573455
-3.8457377 -7.6571512 -1.5582619
-3.8886297 -7.6255283 -1.5566124
-3.9425766 -7.6154928 -1.5595447
-3.9983754 -7.6085629 -1.56321
-4.0468359 -7.5873561 -1.563943
-4.0933146 -7.5623822 -1.563943
-4.1505237 -7.5569425 -1.5681581
-4.1992064 -7.5356269 -1.5690745
-4.2410111 -7.502017 -1.567425
-4.2703376 -7.4468575 -1.5611941
-4.30656 -7.4043684 -1.5577121
-4.3519111 -7.3778048 -1.5577121
-4.3900342 -7.3391514 -1.5551463
-4.4380422 -7.3171201 -1.5562459
-4.4869752 -7.2964501 -1.5577121
-4.542582 -7.2863007 -1.5615606
-4.6055846 -7.2873769 -1.5679748
-4.6608176 -7.2755365 -1.5716401
-4.7075129 -7.2500992 -1.5723733
-4.7567735 -7.2284689 -1.5740227
-4.8217621 -7.230226 -1.5809867
-4.8764925 -7.2159805 -1.5844687
-4.8823552 -7.1299543 -1.5718235
-4.9176068 -7.0877466 -1.5690745
-4.9847465 -7.0912185 -1.5767716
-5.0298738 -7.0629015 -1.5773214
-5.075417 -7.0350947 -1.5780544
-5.1202283 -7.0062013 -1.5786042
-5.1730638 -6.9880853 -1.5817198
-5.2317667 -6.9774489 -1.5866679
-5.2857766 -6.9600916 -1.59015
-5.3277841 -6.9267483 -1.5899667
-5.3502507 -6.8683338 -1.5839189
-5.3929024 -6.8361478 -1.5841022
-5.4451771 -6.8159866 -1.5872177
-5.468349 -6.7595177 -1.5817198
-5.5284095 -6.7486525 -1.5872177
-3.3913484 -4.0882144 -0.95110458
-5.6784573 -6.7608519 -1.606827
-3.5960109 -4.2282739 -0.99563801
-3.6238117 -4.2083645 -0.99618781
-3.5914283 -4.1193566 -0.97969395
-3.6686769 -4.1562076 -0.99435514
-3.7301357 -4.1739364 -1.0044347
-3.8519635 -4.2574072 -1.0311915
-3.6861289 -4.0241785 -0.97822779
-3.8992398 -4.204771 -1.0299085
-3.8987267 -4.152813 -1.0227612
-3.9376783 -4.143065 -1.0264266
-4.0046005 -4.1620412 -1.0376056
-4.0424089 -4.1500678 -1.0409045
-4.0036087 -4.0600829 -1.0238608
-4.0721979 -4.0792751 -1.0354065
-4.1369791 -4.0936279 -1.0458527
-3.4738169 -3.3953903 -0.86643612
-3.4705415 -3.3507934 -0.86020511
-3.4227471 -3.2642965 -0.84261167
-3.4348416 -3.2358179 -0.84059572
-4.28579 -3.9882417 -1.052267
-3.5068586 -3.2233629 -0.84884268
-3.5156541 -3.1918716 -0.84609371
-3.5593231 -3.1919007 -0.85214144
-3.4000325 -3.0115924 -0.80760801
-3.4110491 -2.9841998 -0.80577534
-3.7097013 -3.2055526 -0.87486631
-3.7270572 -3.1808152 -0.87431651
-3.7660463 -3.174361 -0.87908143
-4.2976737 -3.5776613 -1.0033351
-4.377254 -3.5986755 -1.0172633
-4.3817 -3.5574965 -1.0130482
-4.3942428 -3.523164 -1.010849
-4.425797 -3.5040689 -1.0132314
-4.3984251 -3.4386976 -1.0016857
-4.4622388 -3.4446874 -1.0117654
-4.4832911 -3.4172428 -1.0117654
-4.4963202 -3.3837576 -1.0099326
-4.4672875 -3.319165 -0.99838698
-4.569211 -3.3515861 -1.0172633
-4.4718537 -3.2381465 -0.99014002
-4.6067972 -3.2929754 -1.0165303
-4.4606519 -3.1473172 -0.97859436
-4.4919796 -3.1283159 -0.98134333
-4.5151405 -3.1034791 -0.98225963
-4.6024327 -3.1220784 -0.9976539
-4.5455332 -3.0429156 -0.98061025
-4.5477142 -3.0041292 -0.97694498
-4.6500611 -3.0309284 -0.99563801
-4.5776229 -2.9438412 -0.97547883
-4.664494 -2.9594154 -0.99068981
-4.7725577 -2.9870729 -1.0104824
-4.7355905 -2.9236445 -0.99838698
-4.6997056 -2.8618064 -0.98665798
-4.7744823 -2.8673363 -0.99912006
-4.7902942 -2.8369846 -0.99875349
-4.8347754 -2.8234043 -1.0046179
-4.8741579 -2.8064408 -1.0093828
-4.8741884 -2.7667737 -1.0057176
-4.869627 -2.7248118 -1.0011359
-4.8440757 -2.6716144 -0.99215597
-4.8241024 -2.6221211 -0.9844588
-4.935421 -2.6435366 -1.0046179
-4.8889532 -2.5801628 -0.99142289
-4.8802714 -2.5374165 -0.98629147
-4.8607512 -2.489496 -0.97896087
-4.9145527 -2.4791083 -0.98702455
-4.9939399 -2.4808385 -1.0004029
-5.025846 -2.458358 -1.0038849
-4.9690952 -2.3929198 -0.98904043
-5.1195917 -2.4268205 -1.0170801
-5.1228051 -2.3899577 -1.0146976
-5.1266522 -2.3535571 -1.0124984
-5.1230793 -2.3139617 -1.0088331
-5.1308928 -2.2796891 -1.0075502
-5.107852 -2.2320218 -1.0000364
-5.1729326 -2.2227643 -1.0104824
-5.2480512 -2.2169998 -1.0229445
-5.2406745 -2.1760843 -1.0187294
-5.2812333 -2.1550314 -1.0242274
-5.2542095 -2.106487 -1.0161637
-5.1398973 -2.0241294 -0.99068981
-5.4602847 -2.1117191 -1.052267
-5.4786534 -2.0802698 -1.0533665
-5.3227458 -1.9837755 -1.019829
-5.3569751 -1.9591837 -1.0242274
-5.3753729 -1.9286015 -1.0255102
-5.4065785 -1.9024363 -1.0293587
-5.4320893 -1.8740363 -1.0321077
-5.5710659 -1.8838205 -1.0572151
-5.4593434 -1.8087814 -1.0330241
-5.6620216 -1.8374696 -1.0705935
-5.7874889 -1.8390214 -1.0929518
-5.8052349 -1.8055196 -1.0942346
-5.8265491 -1.7730141 -1.0962505
-5.8260121 -1.7338639 -1.0940514
-6.1508622 -1.7895547 -1.1550786
-6.2827606 -1.7861981 -1.1785365
-6.2130895 -1.725252 -1.162959
-6.3630328 -1.7249151 -1.189899
-6.3525887 -1.6803081 -1.1858672
-6.8844142 -1.7758892 -1.2862964
-7.1306658 -1.7928343 -1.3315629
-7.0699201 -1.7315047 -1.317818
-7.6799788 -1.8310742 -1.4327252
-7.7916207 -1.8072442 -1.4519681
-8.0346346 -1.8117439 -1.4963182
-8.3615332 -1.8316324 -1.5566124
-9.0582047 -1.9261051 -1.6872804
-9.0958481 -1.875851 -1.6922286
-9.189126 -1.8363833 -1.7078061
-9.4029045 -1.8191875 -1.7462918
-9.5462704 -1.7862341 -1.7713991
-10.012686 -1.8100101 -1.8577169
-10.421629 -1.817988 -1.9330389
-10.441313 -1.7554752 -1.9346883
-10.45771 -1.692318 -1.9357879
-10.450413 -1.6253986 -1.9324892
-10.485469 -1.5650196 -1.9372541
-10.504605 -1.5020444 -1.9390867
-10.481483 -1.433165 -1.9330389
-10.5086 -1.3712423 -1.9365209
-10.457307 -1.2993405 -1.9253418
-10.483632 -1.2373413 -1.9288238
-10.495912 -1.173538 -1.9297402
-10.46381 -1.1049832 -1.9224095
-10.496805 -1.0433841 -1.9273577
-10.523565 -0.98087388 -1.9312062
-10.529386 -0.91628402 -1.9312062
-10.52991 -0.85126346 -1.93029
-10.529054 -0.78619766 -1.9291904
-10.524852 -0.72097284 -1.927541
-10.561456 -0.65839964 -1.9335887
-10.535851 -0.59192795 -1.9280908
-10.561868 -0.52840066 -1.9323058
-10.561965 -0.46345493 -1.931756
-10.54791 -0.39800841 -1.9286406
-10.550153 -0.33328018 -1.9286406
-9.8482466 0.72377467 -1.9249058
-9.7859373 0.77958667 -1.9133954
-9.8415556 0.84482533 -1.9254911
-9.8615789 0.90753591 -1.9305633
-9.8040924 0.96294117 -1.9202236
-9.8058033 1.0238956 -1.9217843
-9.8451529 1.0891175 -1.9309536
-9.8090611 1.1460876 -1.9251008
-9.7862692 1.2043349 -1.9219794
-9.7679958 1.2629749 -1.9198334
-9.7581186 1.3226227 -1.9194432
-9.7605009 1.3839884 -1.9215893
-9.7527952 1.4439954 -1.9217843
-9.714673 1.4993188 -1.9159316
-9.6917334 1.5567195 -1.9132004
-9.665554 1.6134105 -1.9098839
-9.6776991 1.6765399 -1.9143709
-9.6295815 1.7291249 -1.9067624
-9.6419325 1.7924833 -1.9114445
-9.6548309 1.8562436 -1.9163218
-9.6519175 1.9171703 -1.9180776
-9.6159525 1.9714299 -1.9132004
-9.5979176 2.0291772 -1.9120299
-9.5747452 2.0857332 -1.9098839
-9.5311432 2.1375716 -1.9036409
-9.5016022 2.1922629 -1.9003243
-9.5146914 2.2568636 -1.9057869
-9.5120993 2.3179901 -1.908128
-9.4872313 2.3736918 -1.905982
-9.4610882 2.4289317 -1.9036409
-9.4384193 2.4849396 -1.9020802
-9.4192066 2.5417833 -1.9012998
-9.510252 2.6290736 -1.9233451
-9.3703194 2.6523697 -1.8977882
-9.3774195 2.7166407 -1.9026655
-9.3765593 2.7788677 -1.905982
-9.3396215 2.830373 -1.9018852
-9.3033419 2.8818204 -1.8979833
-9.3023148 2.9441795 -1.901495
-9.2878075 3.0024092 -1.9022753
-9.2598972 3.0562663 -1.9003243
-9.2660646 3.1214836 -1.9055918
-9.2875462 3.1923127 -1.9141757
-9.2270613 3.2349572 -1.9055918
-9.2098083 3.2925034 -1.906177
-9.1488886 3.3341706 -1.8975931
-9.1503239 3.3984423 -1.9022753
-9.1201258 3.4510515 -1.9003243
-9.0740709 3.4974198 -1.895057
-9.0560923 3.5544653 -1.8958373
-9.0313797 3.6088734 -1.895252
-9.0190592 3.6682868 -1.897398
-9.0145044 3.7310615 -1.9012998
-8.9923458 3.786684 -1.901495
-8.9581232 3.8371532 -1.8991538
-8.9532919 3.900275 -1.9032507
-8.8933239 3.9392452 -1.8954471
-8.8582544 3.9889059 -1.893106
-8.8425303 4.047267 -1.895057
-8.7908525 4.0890346 -1.8892043
-8.7744646 4.1470895 -1.8911551
-8.7462006 4.1995764 -1.8905699
-8.73349 4.259614 -1.8934963
-8.7150984 4.3170404 -1.895252
-8.6875696 4.3699932 -1.895057
-8.664959 4.4254479 -1.8960325
-8.6263237 4.4726615 -1.8934963
-8.5865679 4.5191112 -1.890765
-8.5768433 4.5814185 -1.8948618
-8.5916805 4.6573343 -1.9046164
-8.5440369 4.6995625 -1.9003243
-8.4893484 4.7375579 -1.8944716
-8.454999 4.7866588 -1.8933011
-8.4118614 4.8306313 -1.8901796
-8.3964701 4.8905478 -1.8934963
-8.3299942 4.9205217 -1.8851074
-8.3122663 4.9791026 -1.8880337
-8.2832346 5.0310302 -1.8884239
-8.2480335 5.0791888 -1.8874484
-8.2083941 5.124507 -1.8854976
-8.1817684 5.1779242 -1.8866681
-8.1168242 5.2068424 -1.8788644
-8.1011667 5.2672424 -1.8827662
-8.0613251 5.3119936 -1.8810104
-8.0090055 5.3482823 -1.8763282
-7.9995928 5.4132671 -1.8819859
-7.9904923 5.4788918 -1.8878386
-7.9462533 5.5205417 -1.8853024
-7.9234581 5.5770998 -1.8880337
-7.8651338 5.6085262 -1.8821809
-7.8265977 5.6538081 -1.8812056
-7.7949252 5.704042 -1.8819859
-7.7337794 5.7324867 -1.8755479
-7.7063026 5.7857218 -1.8774989
-7.6878309 5.8459606 -1.8817908
-7.6393847 5.8834457 -1.8786694
-7.6518579 5.9682169 -1.8909601
-7.5804629 5.9876943 -1.8821809
-7.5412827 6.0322561 -1.8815957
-7.4942207 6.0703883 -1.8790596
-7.4628987 6.1212344 -1.8806202
-7.4500947 6.187593 -1.8870583
-7.4052329 6.2275071 -1.8853024
-7.3571758 6.2645602 -1.8827662
-7.3468232 6.3339248 -1.8901796
-7.3092985 6.3801746 -1.8905699
-7.2626643 6.4184079 -1.8886189
-7.2560329 6.4922833 -1.897398
-7.2487669 6.5663176 -1.906177
-7.1808758 6.5854778 -1.8987637
-7.1331458 6.6227407 -1.8968128
-7.0995212 6.6731024 -1.8987637
-7.0754924 6.7327671 -1.9034458
-7.0312228 6.7733326 -1.9026655
-6.9684672 6.7958026 -1.8968128
-6.8980255 6.8101773 -1.8888141
-6.8852415 6.8814979 -1.8970078
-6.8401303 6.920825 -1.8962275
-6.8221984 6.9879322 -1.9032507
-6.7689815 7.0190701 -1.9003243
-6.7582531 7.0945625 -1.9096887
-6.7018261 7.122324 -1.905982
-6.6566629 7.1618743 -1.9055918
-6.6026449 7.1917458 -1.9026655
-6.560369 7.2343035 -1.9032507
-6.53614 7.2970705 -1.9092985
-6.4977407 7.3443847 -1.9112494
-6.4570713 7.389286 -1.9126151
-6.4000769 7.415401 -1.9091034
-6.3487306 7.447813 -1.9073477
-6.3142805 7.5001345 -1.9108592
-6.2838159 7.5575929 -1.9157366
-6.2647071 7.6293621 -1.9243205
-6.2085114 7.65623 -1.9213941
-6.1589646 7.6911178 -1.9206138
-6.1171312 7.7356882 -1.9223696
-6.0792074 7.7854466 -1.9254911
-6.0391064 7.8326993 -1.9280272
-5.9838042 7.8602419 -1.9256861
-5.9295702 7.8889689 -1.9237353
-5.8833899 7.9283543 -1.9245156
-5.8531771 7.989625 -1.9307585
-5.7902513 8.0063143 -1.9260763
-5.7393074 8.0392971 -1.9254911
-5.6972141 8.0847845 -1.9280272
-5.6581383 8.1348896 -1.931734
-5.6269865 8.1969481 -1.938367
-5.5765853 8.2313204 -1.938367
-5.5177984 8.2531519 -1.9354407
-5.4578743 8.272934 -1.9321241
-5.4112897 8.3128433 -1.9336848
-5.3723693 8.364872 -1.9381719
-5.327765 8.4084501 -1.940708
-5.2823086 8.450963 -1.9430492
-5.2339573 8.4890604 -1.9444149
-5.1776948 8.5143108 -1.942854
-5.1394763 8.5694733 -1.9483166
-5.0838032 8.5957813 -1.9471461
-5.0141692 8.5980053 -1.940513
-4.9676728 8.6396637 -1.9430492
-4.9232712 8.6853418 -1.9465607
-4.8861489 8.7444992 -1.9531939
-4.837132 8.7829065 -1.9551448
-4.7681813 8.7848358 -1.9489019
-4.7234383 8.8312254 -1.9528037
-4.6805911 8.8817348 -1.9576809
-4.6228428 8.9041939 -1.9563153
-4.5542803 8.9053202 -1.9502676
-4.4969058 8.9278412 -1.9490969
-4.4568553 8.9851408 -1.9557301
-4.4076643 9.0246572 -1.9584613
-4.3861995 9.1222496 -1.9740685
-4.311687 9.1099825 -1.9654845
-4.2532239 9.1309319 -1.964314
-4.1930318 9.1479416 -1.9623631
-4.1460934 9.1940622 -1.9668502
-4.1059027 9.2560883 -1.9748489
-4.0568728 9.2990875 -1.9787507
-4.0086293 9.3445377 -1.9832377
-3.9500735 9.3662472 -1.9826525
-3.8846443 9.3712797 -1.9785556
-3.8300292 9.4022064 -1.9801164
-3.7631581 9.4027643 -1.975239
-3.713285 9.4457598 -1.979531
-3.6524322 9.4610462 -1.9779704
-3.5984814 9.4942856 -1.9803114
-3.5446022 9.5281372 -1.9828476
-3.486408 9.5506287 -1.9830427
-3.425427 9.5653772 -1.9816771
-3.365046 9.5815878 -1.9807016
-3.3135328 9.6233854 -1.9851887
-3.255363 9.6463232 -1.9857739
-3.1936505 9.6586666 -1.9842132
-3.1482215 9.7210035 -1.9931874
-3.0965166 9.7653809 -1.9984548
-3.0359578 9.7823238 -1.9980646
-2.988126 9.8411236 -2.0064535
-2.9014516 9.7708902 -1.9881151
-2.841444 9.7885094 -1.9881151
-2.7823994 9.8095341 -1.9888954
-2.7310557 9.8585596 -1.9955285
-2.6827979 9.920578 -2.0048928
-2.6111209 9.8960733 -1.9965039
-2.5525494 9.9204578 -1.9982598
-2.4849536 9.9092951 -1.9927973
-2.4264307 9.9338837 -1.9947481
-2.3629375 9.9380884 -1.9926021
-2.3043442 9.9629116 -1.9947481
-2.2429543 9.9759064 -1.994553
-2.1860936 10.009604 -1.99865
-2.1246345 10.022829 -1.99865
-2.0601349 10.021266 -1.9957236
-2.0009046 10.045261 -1.9980646
-1.9397871 10.060239 -1.99865
-1.8828733 10.097984 -2.0039175
-1.8281753 10.149889 -2.0121112
-1.7620023 10.13869 -2.0076241
-1.7025115 10.165755 -2.0109406
-1.6348011 10.143088 -2.0043075
-1.5771838 10.182975 -2.0103552
-1.5074697 10.143953 -2.0006008
-1.4367747 10.09378 -1.9887003
-1.3835349 10.166547 -2.0015762
-1.3204973 10.169982 -2.0006008
-1.2611959 10.203201 -2.0056732
-1.1943399 10.174706 -1.9984548
-1.137624 10.233506 -2.0087945
-1.0696975 10.191522 -1.9990401
-1.0150386 10.277929 -2.0150375
-0.94139111 10.1697 -1.9922119
-0.88537991 10.249548 -2.0070388
-0.81934118 10.215682 -1.9992352
-0.75664347 10.220517 -1.9992352
-0.69557476 10.249431 -2.0041125
-0.62899452 10.193791 -1.9922119
-0.57012612 10.26405 -2.0054781
-0.50631571 10.250702 -2.0021615
-0.44357806 10.257535 -2.0029418
-0.37972444 10.23556 -1.9980646
-0.31745729 10.255343 -2.0015762
-0.25442883 10.253177 -2.0007958
-0.19147533 10.252584 -2.0004058
-0.12840465 10.240816 -1.9978695
-0.065793976 10.277699 -2.0050879
-0.0027263639 10.254371 -2.0004058
0.060263742 10.265964 -2.0027468
0.1228136 10.229115 -1.9955285
0.18580869 10.240916 -1.9980646
0.2486662 10.240564 -1.9982598
0.3116461 10.243747 -1.9992352
0.37276909 10.194596 -1.9898708
0.43732917 10.239151 -1.9992352
0.50249797 10.284276 -2.0087945
0.56132686 10.203634 -1.9933825
0.62320465 10.188251 -1.9910414
0.6894688 10.240013 -2.0021615
0.74926329 10.194509 -1.9939678
0.81320554 10.207317 -1.9974793
0.87153721 10.152299 -1.9875298
0.93174428 10.124297 -1.9830427
0.99490404 10.129127 -1.9851887
1.0573424 10.125757 -1.9857739
1.1188053 10.113231 -1.9846034
1.1815214 10.11202 -1.9857739
1.2448643 10.115288 -1.9879199
1.3115648 10.143448 -1.9951383
1.3696918 10.105081 -1.9890904
1.4308429 10.09066 -1.9879199
1.4996316 10.12826 -1.9972843
1.5499219 10.042294 -1.9818721
1.6105771 10.026784 -1.9807016
1.6699692 10.004137 -1.9781654
1.7407037 10.047819 -1.9890904
1.7908751 9.973238 -1.9762145
1.8561617 9.9842386 -1.9807016
1.9199829 9.986145 -1.9834329
1.9772055 9.9539757 -1.979336
2.05145 10.006028 -1.992407
2.1071236 9.9663849 -1.9869444
2.170743 9.9647675 -1.9892856
2.217242 9.8861856 -1.9760194
2.2846999 9.9020195 -1.9820672
2.3381674 9.8572779 -1.9758244
2.4046469 9.8675203 -1.9808967
2.4632423 9.8449688 -1.979336
2.5179915 9.8078203 -1.9748489
2.5786235 9.7940826 -1.975239
2.6358583 9.7676601 -1.973093
2.7056768 9.7872238 -1.9805065
2.7696877 9.7845936 -1.9834329
2.8184786 9.7287922 -1.9754342
2.8875995 9.7432861 -1.9820672
2.9128966 9.6118145 -1.9584613
2.9813993 9.6246758 -1.9648993
3.0489848 9.633317 -1.9705569
3.1053202 9.6060286 -1.9688011
3.1798863 9.6342916 -1.9787507
3.2270389 9.5792809 -1.9713373
3.2653449 9.4999409 -1.9588515
3.320977 9.4723215 -1.9572908
3.3833292 9.4637718 -1.9598269
3.4208419 9.3866253 -1.9479264
3.4995511 9.4224596 -1.960022
3.5576475 9.4017267 -1.9602171
3.613857 9.3760605 -1.9594368
3.6756208 9.364665 -1.9617778
3.7297359 9.3337393 -1.960022
3.7776957 9.2879658 -1.9551448
3.8353648 9.2664242 -1.9555349
3.9009075 9.263505 -1.960022
3.9379735 9.1934185 -1.9500724
3.9927418 9.1654854 -1.9492921
4.0552621 9.1551619 -1.9524136
4.1089439 9.1247406 -1.9512429
4.1611805 9.0913315 -1.9494871
4.2086101 9.047843 -1.9455854
4.2435064 8.9784012 -1.9360259
4.3065853 8.9689932 -1.9397327
4.3666973 8.9529772 -1.9420737
4.4185014 8.9198627 -1.940708
4.4652143 8.8768129 -1.9371965
4.5236135 8.8571091 -1.9389523
4.5747137 8.8230915 -1.9375867
4.6241961 8.7861767 -1.9356357
4.6761708 8.7541771 -1.9348553
4.722785 8.7123871 -1.931929
4.7766271 8.684104 -1.9321241
4.8279095 8.651206 -1.9313438
4.885251 8.6291008 -1.9330995
4.9395719 8.6015148 -1.9336848
4.9779387 8.5464678 -1.9280272
5.0307841 8.5166073 -1.9282223
5.0743766 8.4712763 -1.9249058
5.1155658 8.4223785 -1.9208089
5.180522 8.4125433 -1.9258813
5.2247701 8.3689508 -1.9231499
5.2733994 8.332592 -1.9221745
5.3313136 8.3108091 -1.9247106
5.3704438 8.2598515 -1.9204187
5.4172459 8.2210112 -1.9190531
5.4621391 8.1794615 -1.9171021
5.4863858 8.1076183 -1.9079329
5.5515628 8.0964489 -1.9133954
5.6011372 8.062233 -1.9133954
5.6584053 8.0389404 -1.9161267
5.6956644 7.9873018 -1.9120299
5.7233129 7.9227896 -1.9048115
5.7834044 7.9033513 -1.9087132
5.8241954 7.8574739 -1.906177
5.8393168 7.7776709 -1.895252
5.9047427 7.7651138 -1.9011047
5.949883 7.7256289 -1.9003243
5.9977779 7.6897492 -1.9005195
6.0430245 7.6504941 -1.8999342
6.0843387 7.6063781 -1.8981783
6.1210175 7.5567093 -1.895057
6.1604261 7.5106683 -1.892911
6.2114086 7.4787626 -1.8944716
6.2439222 7.4247479 -1.8903748
6.2836385 7.3795757 -1.8886189
6.3255982 7.3371677 -1.8876435
6.381465 7.3107762 -1.8909601
6.4216557 7.2663388 -1.8895944
6.4648123 7.2253375 -1.8892043
6.5030975 7.1789927 -1.8874484
6.5350904 7.125946 -1.8839368
6.5806937 7.0878692 -1.8845221
6.6139832 7.0366387 -1.8815957
6.6523013 6.9909506 -1.8802301
6.697794 6.9528265 -1.8810104
6.7608752 6.9326611 -1.8868631
6.7936378 6.8812766 -1.8841319
6.818397 6.8221211 -1.8792546
6.8538499 6.773952 -1.8774989
6.8868623 6.7235489 -1.8751577
6.9046874 6.6587009 -1.8687197
6.9539375 6.6243262 -1.8710608
6.9923096 6.5795169 -1.8704755
7.0361414 6.5398269 -1.871451
7.0811944 6.5011735 -1.8728167
7.154376 6.487905 -1.8817908
7.1275616 6.3843436 -1.8640376
7.1511736 6.3268437 -1.8599406
7.1905985 6.2834911 -1.8601358
7.2171369 6.2290001 -1.8570143
7.2559681 6.1852355 -1.8572094
7.3110418 6.1551237 -1.8616965
7.3501797 6.111402 -1.8620867
7.3852658 6.0643201 -1.8615015
7.4093852 6.0083909 -1.8581849
7.4484096 5.9646535 -1.8587701
7.4910226 5.9237046 -1.8603308
7.5194979 5.871594 -1.85838
7.572473 5.8385172 -1.862672
7.6089354 5.7925377 -1.862867
7.6278691 5.7333679 -1.8587701
7.6550279 5.6806126 -1.8568193
7.7103119 5.648603 -1.8618916
7.7623115 5.6138296 -1.8661835
7.806191 5.5729327 -1.8685247
7.8506618 5.5322733 -1.8710608
7.8747969 5.4772792 -1.8687197
7.9131083 5.4321871 -1.8698903
7.9592834 5.3923311 -1.8730117
7.9873281 5.3401222 -1.8718412
7.9863758 5.2688723 -1.8638425
8.0095119 5.2138848 -1.8616965
8.1024256 5.203855 -1.8761332
8.1168041 5.1430197 -1.8720363
8.1265831 5.0796056 -1.866964
8.1776361 5.0419974 -1.8716462
8.2276945 5.0034442 -1.8761332
8.2767458 4.9639616 -1.8804252
8.2707453 4.8916183 -1.8720363
8.3336487 4.8600435 -1.8796448
8.3446054 4.7980642 -1.8753529
8.3764486 4.7482233 -1.8759381
8.4216948 4.7058249 -1.8796448
8.4229174 4.6389241 -1.8734019
8.4357052 4.5787349 -1.8698903
8.4973726 4.5449247 -1.8774989
8.5485287 4.5050435 -1.8827662
8.5420599 4.4348845 -1.8751577
8.5760975 4.3859601 -1.8767184
8.6238708 4.343842 -1.8814006
8.652998 4.2921524 -1.8819859
8.6421547 4.2209039 -1.8737921
8.6731949 4.1703467 -1.8749627
8.7154655 4.1250205 -1.8786694
8.7352772 4.0689816 -1.8774989
8.7574043 4.0140805 -1.8769135
8.7872343 3.9626894 -1.8780841
8.840971 3.9218178 -1.8845221
8.8540802 3.8627918 -1.8821809
8.8803196 3.809551 -1.8827662
8.9243135 3.7637544 -1.8872533
8.9608307 3.7145569 -1.8901796
8.967103 3.6528461 -1.8866681
8.9847946 3.5959346 -1.8856926
9.003952 3.5396612 -1.8851074
9.0062857 3.4769318 -1.8810104
9.0329533 3.4236898 -1.8821809
9.0758533 3.3764048 -1.8868631
9.1397038 3.3364551 -1.8960325
9.1470757 3.2756844 -1.8933011
9.1216574 3.203578 -1.8837417
9.1596909 3.1539321 -1.8876435
9.1844463 3.099551 -1.8888141
9.2275038 3.0511408 -1.8938864
9.2535162 2.996881 -1.8954471
9.2333984 2.9278958 -1.8874484
9.2699242 2.8769977 -1.8913503
9.2667561 2.8137977 -1.8870583
9.2753839 2.7543733 -1.8853024
9.3307295 2.7086143 -1.8933011
9.3386812 2.6489034 -1.8915453
9.3613749 2.5933847 -1.892911
9.3761654 2.5356395 -1.8927158
9.381115 2.4753096 -1.8905699
9.4198732 2.4238088 -1.8954471
9.4012709 2.3576179 -1.8886189
9.4527187 2.3089604 -1.8962275
9.4705257 2.2518232 -1.8970078
9.475564 2.1916826 -1.895252
9.4964886 2.1352205 -1.8968128
9.4883308 2.0723095 -1.8925208
9.4999084 2.0138478 -1.8923256
9.4765396 1.9482163 -1.8851074
9.5575724 1.9038199 -1.8991538
9.5555916 1.8425417 -1.8964226
9.607213 1.7914212 -1.9046164
9.5678301 1.7234037 -1.8944716
9.5791903 1.664832 -1.8946668
9.6163111 1.6105568 -1.9001293
9.649251 1.5552648 -1.9048115
6.0772505 0.94174463 -1.1839527
5.9257503 0.8811 -1.152348
5.8922048 0.83919954 -1.1445445
5.8816934 0.80091554 -1.141423
5.8699622 0.76266611 -1.1381065
5.8647976 0.72543222 -1.1361556
5.8593969 0.68829054 -1.1342047
5.8576612 0.65167546 -1.1330341
5.8371639 0.61316454 -1.1281569
5.8564329 0.57887733 -1.1312783
5.855968 0.54257089 -1.1304979
5.8230324 0.50351012 -1.1232797
5.8318782 0.46824098 -1.1244502
5.8258381 0.43179771 -1.1226944
5.8215284 0.39557883 -1.1213287
0 0 -0
0 0 -0
5.8209662 0.28801861 -1.119963
0 0 -0
0 0 -0
0 0 -0
0 0 -0
0 0 -0
0 0 -0
0 0 -0
0 0 -0
0 -0 -0
0 -0 -0
0 -0 -0
0 -0 -0
0 -0 -0
0 -0 -0
0 -0 -0
0 -0 -0
0 -0 -0
0 -0 -0
0 -0 -0
0 -0 -0
0 -0 -0
0 -0 -0
0 -0 -0
0 -0 -0
6.1390123 -0.64058286 -1.1884398
9.0574942 -1.0018895 -1.7733206
8.8280964 -1.0313553 -1.7286448
8.6824017 -1.068357 -1.700747
8.5375633 -1.103736 -1.6730442
8.5607586 -1.160188 -1.6790919
8.7020502 -1.2337785 -1.7089407
8.7040186 -1.2885877 -1.7108917
8.7095175 -1.3440663 -1.7136229
8.7156324 -1.3998164 -1.7165493
8.6991396 -1.4519753 -1.7149886
8.684269 -1.5043198 -1.7138181
8.6603956 -1.5549753 -1.7108917
8.6121216 -1.6009102 -1.703088
8.5876894 -1.6509438 -1.7001617
8.551424 -1.6984434 -1.6948943
8.4111366 -1.7242744 -1.668557
8.3946419 -1.7746338 -1.6673865
8.4113846 -1.8321662 -1.6730442
8.3282108 -1.867637 -1.6584123
8.3060818 -1.9162761 -1.6562663
8.2932129 -1.9669787 -1.6560713
8.2686005 -2.0148077 -1.6535351
7.3531766 -1.8394853 -1.4683944
7.3246522 -1.8801769 -1.4648827
8.0195618 -2.1112034 -1.6102251
7.9610057 -2.1481001 -1.6008607
7.89852 -2.1833124 -1.590716
7.8991299 -2.2357442 -1.5936424
8.1254778 -2.3537915 -1.6433904
8.0995979 -2.4002585 -1.6410494
7.9486213 -2.4086499 -1.6127613
7.8934088 -2.4448926 -1.6043724
7.8604927 -2.4876547 -1.6006657
7.8086863 -2.5240691 -1.5930572
7.7166829 -2.5467186 -1.5770597
7.8496194 -2.6441348 -1.6082742
7.7544112 -2.6651413 -1.5916915
7.7249551 -2.7081268 -1.5889602
7.7442093 -2.7683561 -1.5965687
7.7620926 -2.8285871 -1.6039822
7.7979145 -2.895973 -1.6152974
7.8625526 -2.9750152 -1.6328555
7.6208611 -2.9371099 -1.5852535
7.8062811 -3.0637493 -1.6287587
7.8456211 -3.1348889 -1.6412444
7.8117027 -3.1770558 -1.638123
7.7902493 -3.2241774 -1.6377329
7.7739348 -3.2734396 -1.6385132
7.7735362 -3.3295763 -1.6428051
7.7466664 -3.3744683 -1.6414396
7.7087779 -3.4143884 -1.6377329
7.6867881 -3.4612217 -1.6375377
7.652029 -3.5021973 -1.6346114
7.6170573 -3.542877 -1.631685
7.6093626 -3.5962551 -1.6348065
7.5473685 -3.6237688 -1.6260273
7.5408583 -3.6777513 -1.629539
7.5330896 -3.7313547 -1.6328555
7.496911 -3.7708941 -1.6299292
7.4474297 -3.803437 -1.6240765
7.3786783 -3.8255811 -1.6139318
7.3984594 -3.8936284 -1.6236863
7.3657784 -3.934329 -1.6217355
7.3992662 -4.0107732 -1.6348065
7.4501367 -4.0977044 -1.6519744
7.4180021 -4.1395159 -1.6504136
7.3933163 -4.1854372 -1.6506088
7.3964114 -4.247333 -1.6572418
7.3685164 -4.2916489 -1.6568516
7.3268452 -4.3277998 -1.65334
7.2925806 -4.3681383 -1.6515843
7.2572589 -4.4077101 -1.6496333
7.2275715 -4.4506135 -1.6490481
7.226748 -4.5115013 -1.655291
7.16081 -4.5316277 -1.6463168
7.1171856 -4.5654163 -1.6426101
7.057795 -4.5886812 -1.6351967
7.0024829 -4.614089 -1.6287587
7.0009537 -4.6749458 -1.6351967
6.9753857 -4.7200141 -1.635977
6.9163661 -4.7421999 -1.6287587
6.8992195 -4.792944 -1.631685
6.8319883 -4.8086495 -1.6225158
6.7736092 -4.8299761 -1.6154925
6.7422557 -4.8702984 -1.6151023
6.7011652 -4.9034662 -1.6123711
6.6670127 -4.9415708 -1.6113956
6.6342134 -4.980619 -1.6108104
6.5996246 -5.0182633 -1.6098349
6.5741477 -5.0628533 -1.6112006
6.5437322 -5.1036992 -1.6113956
6.5438461 -5.168684 -1.6193943
6.4729509 -5.1774893 -1.6094447
6.4364882 -5.2134047 -1.6082742
6.4013453 -5.2503119 -1.6074938
6.3637285 -5.2851038 -1.6061282
6.3551979 -5.3442545 -1.6123711
6.300633 -5.364706 -1.6067134
6.2312021 -5.3718801 -1.597154
6.2151165 -5.4248495 -1.6016411
6.2022886 -5.4810705 -1.6071036
6.1992359 -5.546495 -1.6152974
6.1316533 -5.5541353 -1.6063232
6.0960126 -5.5903277 -1.6059331
6.0759697 -5.6409755 -1.6098349
6.0226645 -5.6606836 -1.6047626
5.9899487 -5.6995597 -1.6053479
5.9357948 -5.7178321 -1.6000804
5.9048119 -5.7582545 -1.6012509
5.8672752 -5.7923102 -1.6006657
5.8094277 -5.8060126 -1.5944228
5.7543912 -5.8220153 -1.5889602
5.7219849 -5.860723 -1.5899357
5.6838741 -5.8936043 -1.5893505
5.6212254 -5.9006701 -1.5817419
5.664885 -6.0200591 -1.6049576
2.2429399 -2.412039 -0.61584973
2.228761 -2.4264786 -0.61604482
2.2138305 -2.4401083 -0.61604482
5.4761815 -6.113431 -1.5932522
5.3930812 -6.0954919 -1.5795959
5.3762274 -6.1521044 -1.5858388
5.3736181 -6.2258172 -1.5965687
5.3187757 -6.2392635 -1.5914963
5.2766027 -6.2672791 -1.5903258
5.2298975 -6.2897329 -1.5877897
5.1650686 -6.289866 -1.5795959
5.1171126 -6.3100119 -1.5766696
5.0709434 -6.3321033 -1.5743284
5.016788 -6.3438644 -1.5694512
2.0144453 -2.5785747 -0.61155772
1.9818199 -2.5691364 -0.60609519
1.9683946 -2.5843701 -0.60687554
1.9542677 -2.5987515 -0.6074608
1.9382854 -2.6106937 -0.6074608
1.845732 -2.5180919 -0.58170891
1.7785269 -2.4578381 -0.56415075
1.7537262 -2.4551334 -0.56083423
4.6951408 -6.6624107 -1.581937
4.6362548 -6.6653266 -1.5756941
4.5830603 -6.675858 -1.5714021
4.5271611 -6.6819282 -1.5661347
4.500247 -6.7307811 -1.571207
4.465343 -6.7680922 -1.5735481
4.4387097 -6.8183808 -1.5790106
4.3967896 -6.8454881 -1.5790106
4.3526044 -6.8690228 -1.5782303
4.3155723 -6.9039183 -1.5801811
4.2654099 -6.9177446 -1.5772548
4.2305255 -6.956357 -1.5801811
4.1776757 -6.9653606 -1.5762794
1.7118286 -2.8928769 -0.62931097
1.69207 -2.8999367 -0.62853056
1.6761997 -2.9136658 -0.62931097
1.6771489 -2.9571743 -0.63691944
3.9156523 -7.0071764 -1.5573556
3.8858287 -7.0551271 -1.5628182
3.8410628 -7.0762515 -1.5622329
3.7957215 -7.0962267 -1.5614525
3.7493656 -7.1141768 -1.560282
3.7015767 -7.1292143 -1.5585262
3.6515124 -7.1395664 -1.5557948
3.6005783 -7.1478214 -1.5526735
3.5601382 -7.1768093 -1.5542341
3.5242112 -7.2152643 -1.5579408
3.4684005 -7.2128854 -1.5526735
3.4362423 -7.2597413 -1.558331
3.3870785 -7.2709088 -1.556185
3.3338215 -7.2728305 -1.5520881
3.2984045 -7.3137145 -1.5565752
3.2479 -7.3212633 -1.553844
3.2025242 -7.3401551 -1.5536488
3.1558795 -7.3560615 -1.5528685
3.1240199 -7.4069185 -1.5596967
3.0758848 -7.4196053 -1.558331
3.0258622 -7.4274383 -1.55599
2.9689374 -7.4176359 -1.5499421
2.9194217 -7.4256725 -1.5477961
2.86886 -7.4306359 -1.5450649
2.82634 -7.4563532 -1.5468208
2.7791679 -7.4698777 -1.5460404
2.7403419 -7.5061383 -1.5501373
2.6876223 -7.5043435 -1.5462354
2.6454246 -7.5317979 -1.5485765
2.5867116 -7.5117202 -1.5409681
2.5355558 -7.5125813 -1.5378466
2.5091107 -7.5875969 -1.5503323
2.45858 -7.5907192 -1.5477961
2.4158103 -7.617816 -1.5503323
2.349843 -7.5706706 -1.5374564
2.3121765 -7.6140404 -1.5435042
2.2642977 -7.6243234 -1.5427238
2.2232125 -7.6578541 -1.5468208
2.1729727 -7.660028 -1.5444796
2.119911 -7.6514769 -1.5399926
2.070363 -7.6548724 -1.5380417
2.0276067 -7.6835537 -1.5413582
1.9733387 -7.668304 -1.5357006
1.9293497 -7.6926355 -1.5382367
1.8865319 -7.7224321 -1.5419434
1.8366181 -7.7233658 -1.5397974
1.7810203 -7.6991334 -1.5325792
1.7466481 -7.7673316 -1.5442846
1.6907984 -7.7405319 -1.536676
1.6459142 -7.7632341 -1.5392122
1.5883795 -7.7251515 -1.5294577
1.5514809 -7.7876573 -1.5401876
1.5044098 -7.8008823 -1.5409681
1.4471734 -7.759829 -1.5308233
1.4012702 -7.7782149 -1.5327742
1.3515036 -7.7750711 -1.5304332
1.3070091 -7.8025637 -1.5343349
1.2474123 -7.7378135 -1.5197031
1.1840096 -7.6425819 -1.4990236
1.1182215 -7.5226135 -1.4734668
1.0727332 -7.5341883 -1.4744422
1.0230483 -7.5153608 -1.4693699
0.97325647 -7.4932904 -1.4637122
0.92413479 -7.4738126 -1.4586399
0.87391812 -7.4423261 -1.4512265
0.82704562 -7.4368258 -1.4490805
0.7805804 -7.4339566 -1.4475198
0.73283356 -7.4171333 -1.4432278
0.68830234 -7.4322333 -1.4453738
0.64209598 -7.4294767 -1.4440081
0.59594935 -7.4264331 -1.4426425
0.54914129 -7.413322 -1.4393259
0.50370997 -7.4175301 -1.4395211
0.45812708 -7.4195023 -1.4393259
0.41302752 -7.4300079 -1.4408866
0.36791283 -7.4421983 -1.4428376
0.32334027 -7.4697924 -1.44791
0.27652165 -7.4451728 -1.4426425
0.23310135 -7.5202532 -1.4572743
0.18772858 -7.5529175 -1.4635172
0.14201832 -7.5882487 -1.4703453
0.096259266 -7.6537042 -1.4832213
0.050177198 -7.7944002 -1.5111192
0.0023561029 -7.8298697 -1.5181425
-0.046097893 -7.8983903 -1.5317987
-0.09419217 -7.867557 -1.525751
-0.14282289 -7.8864431 -1.5296527
-0.19166498 -7.904048 -1.5333595
-0.24051893 -7.9144869 -1.5357006
-0.28889704 -7.9079614 -1.5347251
-0.33636484 -7.8815427 -1.5298479
-0.38356733 -7.8558197 -1.5251657
-0.4343538 -7.9003248 -1.53453
-0.48324105 -7.9043636 -1.5358957
-0.53450418 -7.9423494 -1.5440894
-0.58286744 -7.9340296 -1.5431139
-0.63107073 -7.9244375 -1.5419434
-0.67775029 -7.8979411 -1.5374564
-0.72853827 -7.9190264 -1.5425287
-0.77884251 -7.9319768 -1.5460404
-0.82505018 -7.9036374 -1.5413582
-0.87730891 -7.9325447 -1.5481863
-0.92516804 -7.9201937 -1.5468208
-0.97398782 -7.9163146 -1.5472109
-1.0214101 -7.9014354 -1.5454551
-1.0710598 -7.9037662 -1.5472109
-1.118296 -7.8883061 -1.5454551
-1.1659579 -7.8764448 -1.5444796
-1.2147141 -7.8720503 -1.5450649
-1.2625262 -7.8615437 -1.5444796
-1.3112247 -7.8565512 -1.5450649
-1.3589044 -7.8454585 -1.5444796
-1.4047626 -7.8244233 -1.5419434
-1.4602798 -7.8561549 -1.5501373
-1.509198 -7.8508992 -1.5509176
-1.5521795 -7.8155184 -1.5456501
-1.599514 -7.8029647 -1.5450649
-1.6406635 -7.7613382 -1.5386269
-1.6955657 -7.7846651 -1.5454551
-0.67258042 -3.0025773 -0.57273471
-0.69032937 -2.995527 -0.57214946
-0.70779073 -2.9874177 -0.57136911
-0.72262299 -2.9687254 -0.56844276
-0.73939615 -2.9585271 -0.56727219
-0.7548514 -2.943485 -0.56512624
-0.77039987 -2.9293137 -0.56317532
-0.78861493 -2.9254782 -0.56337041
-0.80445892 -2.913022 -0.56180966
-0.81964535 -2.8985944 -0.5598588
-2.2317498 -7.7043953 -1.556185
-2.2697806 -7.6595259 -1.5497471
-1.0805916 -3.5681918 -0.70227474
-2.3859582 -7.7032318 -1.564769
-2.4237056 -7.6585255 -1.5585262
-2.4688411 -7.6379108 -1.5573556
-1.0718901 -3.2500229 -0.64140654
-1.0786564 -3.2043488 -0.63321275
-1.0982976 -3.19767 -0.63321275
-1.1140022 -3.1797647 -0.63087165
-2.7293835 -7.6352358 -1.5735481
-2.7624078 -7.580565 -1.5655494
-1.1521891 -3.1044774 -0.61936134
-1.17573 -3.1092737 -0.62189752
-1.1990201 -3.1129825 -0.62423861
-1.2471328 -3.1795146 -0.64004087
-2.9972806 -7.501369 -1.5675004
-3.036968 -7.4673924 -1.5641837
-3.0816042 -7.445899 -1.5635985
-3.1215224 -7.4132924 -1.5606722
-3.1437736 -7.3399091 -1.5489668
-1.2943585 -2.9732108 -0.60570502
-1.3125775 -2.9652126 -0.60570502
-1.3291357 -2.953526 -0.60492462
-1.3443751 -2.9390726 -0.60355902
-3.4013724 -7.3129377 -1.5649642
-3.4457607 -7.2910433 -1.564769
-3.5010486 -7.2918653 -1.5696462
-3.555186 -7.2896385 -1.5739383
-3.5950575 -7.2580199 -1.5717922
-3.6496634 -7.2559757 -1.5762794
-3.6990249 -7.2430525 -1.5784254
-3.7244322 -7.1836519 -1.5702316
-3.7698109 -7.1632676 -1.5708169
-3.8210883 -7.1538424 -1.5739383
-3.858834 -7.1190534 -1.5714021
-3.8981879 -7.0875082 -1.5696462
-3.9373002 -7.0557485 -1.5678905
-3.9698868 -7.012681 -1.5635985
-4.0226116 -7.0051994 -1.5675004
-4.0946493 -7.030385 -1.5790106
-4.1367121 -7.0034394 -1.5786204
-4.1775899 -6.9745598 -1.5778401
-4.2284546 -6.9622068 -1.5809616
-4.2813816 -6.9528317 -1.5848633
-4.3270798 -6.9314222 -1.5860338
-4.3884139 -6.9345746 -1.5930572
-4.4096947 -6.8744988 -1.5852535
-4.4582095 -6.8571782 -1.5875946
-4.4975014 -6.8255997 -1.5866191
-4.5371189 -6.7946129 -1.5858388
-4.58917 -6.7820778 -1.5895455
-2.923769 -4.2650223 -0.98925257
-4.7123485 -6.7832403 -1.603592
-4.7679968 -6.7742472 -1.6084692
-4.8032079 -6.7360806 -1.6063232
-3.0361736 -4.2039094 -0.99217892
-3.0526426 -4.1725378 -0.98905748
-4.92872 -6.6496797 -1.6071036
-4.9764962 -6.6287236 -1.6094447
-5.0307322 -6.6160183 -1.6139318
-5.1059475 -6.6300902 -1.625247
-3.29322 -4.2230868 -1.0259296
-3.2935333 -4.1704783 -1.0177357
-3.3074188 -4.1356406 -1.014029
-3.3389068 -4.122889 -1.01598
-3.4344373 -4.1880069 -1.0380251
-3.3704476 -4.0589724 -1.0101272
-3.3776119 -4.0172 -1.0046647
-3.4746945 -4.0815201 -1.0269051
-3.4337003 -3.9836192 -1.0068107
-3.449693 -3.9528708 -1.0042745
-3.500515 -3.9617579 -1.0122732
-3.550267 -3.9687073 -1.0198817
-3.5475514 -3.9170494 -1.011883
-3.5536182 -3.8756936 -1.0066156
-3.598022 -3.8760951 -1.0126634
-3.6459227 -3.8796697 -1.0196867
-3.6872401 -3.8756969 -1.0247591
-3.6891747 -3.8303988 -1.0185162
-3.6879535 -3.7824154 -1.0114928
-3.7696698 -3.8190341 -1.0280756
-3.7195301 -3.7223074 -1.007396
-3.737416 -3.6945894 -1.0060303
-3.5466456 -3.4633279 -0.94672287
-3.5233476 -3.3986139 -0.93443221
-3.4404414 -3.2781768 -0.905949
-3.4469182 -3.2442365 -0.9022423
-3.512742 -3.265754 -0.91472811
-3.497309 -3.2116413 -0.90516865
-3.5198557 -3.1927569 -0.905949
-3.3990967 -3.0454745 -0.86849165
-3.4066997 -3.0148137 -0.8655653
-3.4303045 -2.9983709 -0.86693096
-3.6973956 -3.1919129 -0.9322862
-3.7437844 -3.1920681 -0.93930948
-3.7775571 -3.1810365 -0.94301617
-4.094171 -3.4048197 -1.0198817
-4.1657758 -3.4213297 -1.0329528
-4.1638341 -3.3771749 -1.0271001
-4.1255231 -3.304364 -1.0120782
-4.2241983 -3.3410306 -1.0319774
-4.1526194 -3.2432287 -1.0087616
-4.2485671 -3.2763672 -1.0278804
-4.2631273 -3.246079 -1.0265149
-4.2704196 -3.2104325 -1.0233934
-4.344388 -3.2244911 -1.0368546
-4.334024 -3.1757517 -1.0294412
-4.2326193 -3.0617499 -0.99978745
-4.2728801 -3.0511055 -1.005055
-4.2674675 -3.007884 -0.99920219
-4.2947006 -2.987802 -1.0013481
-4.3922014 -3.0157826 -1.020467
-4.4593463 -3.0217764 -1.0321724
-4.464757 -2.9856374 -1.0290509
-4.4633427 -2.9452257 -1.0243689
-4.4500928 -2.8974547 -1.0169554
-4.4479804 -2.8573771 -1.0122732
-4.4753714 -2.836329 -1.0146143
-4.5359416 -2.8358424 -1.0247591
-4.3503714 -2.6829 -0.97735208
-4.3826747 -2.6658368 -0.98105878
-4.5276484 -2.7160609 -1.0109076
-4.5332532 -2.6817393 -1.0083715
-4.4818392 -2.6143539 -0.99276423
-4.6721101 -2.6870055 -1.0327578
-4.5460091 -2.5775332 -1.0001776
-4.6336637 -2.5897691 -1.0165652
-4.6082268 -2.5385823 -1.0072008
-4.6340613 -2.5158722 -1.009542
-4.6580601 -2.4920156 -1.0114928
-4.6654539 -2.4592729 -1.009737
-4.6769738 -2.4287927 -1.0089567
-4.6865487 -2.3973708 -1.0077862
-4.7029223 -2.3694518 -1.0081763
-4.7235236 -2.3436005 -1.009542
-4.6955104 -2.2939179 -1.0001776
-4.666183 -2.2442431 -0.99061823
-4.7029157 -2.2264762 -0.99569058
-4.7493858 -2.2128966 -1.0029089
-4.8145895 -2.2074101 -1.0142242
-4.7386308 -2.1375182 -0.99471509
-4.8063483 -2.1326554 -1.0066156
-5.0395999 -2.1991844 -1.0544127
-4.8348618 -2.0746732 -1.0072008
-4.9369717 -2.082689 -1.0265149
-5.07832 -2.1056738 -1.0542177
-5.0520854 -2.0585682 -1.0458288
-5.0464091 -2.0202441 -1.041927
-5.101613 -2.0061021 -1.0510962
-4.9957895 -1.929209 -1.0259296
-5.1973853 -1.9704512 -1.0663133
-5.3748474 -2.0000591 -1.1014295
-5.0746789 -1.8530644 -1.0352939
-5.0878 -1.822553 -1.0356841
-5.13868 -1.8052707 -1.044073
-5.2294159 -1.8011576 -1.0608507
-5.3351607 -1.8010141 -1.08075
-5.424335 -1.7940992 -1.0971376
-5.5098901 -1.7849485 -1.1127448
-5.5665507 -1.7656277 -1.1223042
-5.6110024 -1.7419006 -1.1293274
-5.657248 -1.7182636 -1.1367409
-5.6977725 -1.6924498 -1.1429838
-5.8220239 -1.6905278 -1.1665897
-6.2201042 -1.7647263 -1.2467718
-6.3158846 -1.7500832 -1.2643299
-6.1721749 -1.6695805 -1.2325302
-6.8328767 -1.8032551 -1.3663622
-6.850462 -1.7630054 -1.3677278
-7.1085029 -1.7829373 -1.4184513
-7.1555157 -1.7481261 -1.4258647
-7.2787037 -1.7309459 -1.4488853
-7.8654051 -1.8194578 -1.5665249
-7.8630238 -1.7681518 -1.5637935
-8.2761784 -1.8077198 -1.6457316
-8.5759211 -1.8180909 -1.7044537
-8.7204552 -1.7928727 -1.7315712
-8.8678827 -1.7665225 -1.7592741
-9.0807991 -1.7510494 -1.800243
-9.4972954 -1.7709388 -1.8823761
-9.7637806 -1.7586751 -1.934075
-9.7714882 -1.6982291 -1.9334897
-9.7768879 -1.6374309 -1.9325143
-9.8245153 -1.5834924 -1.9401228
-9.8999548 -1.5333811 -1.9533889
-9.8839531 -1.4688617 -1.9483166
-9.8248091 -1.39852 -1.9346603
-9.8409796 -1.3392669 -1.936221
-9.8451214 -1.2783539 -1.9354407
-9.8586206 -1.2186426 -1.9366112
-9.8707829 -1.1586994 -1.9375867
-9.8591862 -1.0960548 -1.93388
-9.8374376 -1.0325735 -1.9282223
-9.8211393 -0.96997821 -1.9237353
-9.864994 -0.91321993 -1.9313438
-9.8713894 -0.85275656 -1.9315388
-9.8852348 -0.79287553 -1.9332947
-9.9104538 -0.73372424 -1.9373915
-9.9010696 -0.67197287 -1.9346603
-9.9069643 -0.61132902 -1.9350505
-9.8831091 -0.54900956 -1.929588
-9.9009857 -0.48908171 -1.9325143
-9.9077196 -0.42849025 -1.9332947
-9.8915405 -0.36700082 -1.929588
-9.8975267 -0.30642149 -1.9303683
-9.8913774 -0.24549188 -1.9288076
-9.8701429 -0.18437624 -1.9243205
-9.9034519 -0.12421283 -1.9307585
-9.9246235 -0.063573584 -1.9348553
-9.9267883 -0.0026763368 -1.9352455
-9.9089642 0.058127716 -1.931734
-9.9221516 0.11909328 -1.9344652
-9.9094658 0.17975739 -1.9321241
-9.8983717 0.24031813 -1.9301732
-9.8947506 0.300989 -1.929783
-9.8946772 0.36176828 -1.9301732
-9.887372 0.42226425 -1.9291978
-9.8601046 0.48172471 -1.9243205
-9.8559837 0.54216212 -1.9241254
-9.8093977 0.59998739 -1.9155414
-9.8564167 0.66359735 -1.9256861
-9.3199081 -0.23551174 -1.9285231
-9.2888947 -0.17770244 -1.9217072
-9.3436203 -0.12140498 -1.9330671
-9.3216858 -0.063916057 -1.9283166
-9.313096 -0.0067113456 -1.9264576
-9.3080702 0.050406583 -1.9254249
-9.3222609 0.10768778 -1.9285231
-9.3038158 0.16457534 -1.9248053
-9.2908926 0.22138019 -1.9223268
-9.2913151 0.27844241 -1.9227399
-9.2483644 0.3339664 -1.9140649
-9.2842665 0.39231637 -1.9221202
-9.3002529 0.45017418 -1.9260446
-9.2650747 0.50547343 -1.9192286
-9.296958 0.56444645 -1.9266642
-9.2669611 0.61971933 -1.9210875
-9.2444429 0.67521518 -1.9171631
-9.2567072 0.73323804 -1.9206743
-9.2803059 0.79243523 -1.9266642
-9.2596788 0.84793627 -1.9233595
-9.241643 0.90349954 -1.9206743
-9.2398176 0.96059275 -1.9215006
-9.2230511 1.016091 -1.9192286
-9.227334 1.0739071 -1.9215006
-9.2263975 1.131219 -1.9227399
-9.2416029 1.1906844 -1.9274904
-9.2021246 1.2430465 -1.9206743
-9.1836672 1.2979805 -1.9184024
-9.2055368 1.3587337 -1.9248053
-9.1786528 1.4123657 -1.9208809
-9.1852722 1.4711334 -1.9241856
-9.1461525 1.5224862 -1.9177828
-9.1376019 1.5787438 -1.9179893
-9.1306324 1.6352987 -1.9186089
-9.0713625 1.6821963 -1.9080751
-9.1108389 1.7474068 -1.9188155
-9.069232 1.7971921 -1.9122061
-9.0628271 1.8537862 -1.9132388
-9.0646849 1.9121866 -1.9161304
-9.0240974 1.9615369 -1.909934
-9.0185757 2.0183663 -1.9113798
-8.9821844 2.0681777 -1.9062161
-8.9559956 2.1200976 -1.9033245
-8.9276066 2.1713116 -1.9000198
-8.9435434 2.233397 -1.9064227
-8.9419928 2.2913885 -1.9091078
-8.9050531 2.3402448 -1.9041507
-8.9207592 2.4029834 -1.9107602
-8.918108 2.4610581 -1.9134452
-8.8651762 2.5050914 -1.9051834
-8.8872356 2.5703118 -1.9134452
-8.8262615 2.6114717 -1.9035311
-8.7875948 2.6587799 -1.898574
-8.8365498 2.7328832 -1.9130322
-8.7627029 2.7690701 -1.9004329
-8.7846556 2.8354058 -1.9091078
-8.7596579 2.8868043 -1.9074554
-8.6777897 2.918977 -1.8932039
-8.6985855 2.9855068 -1.9018787
-8.6874914 3.04141 -1.9035311
-8.6465502 3.0867641 -1.898574
-8.6495142 3.14779 -1.9035311
-8.5924234 3.1868546 -1.8950627
-8.6111498 3.2540417 -1.9037377
-8.5855427 3.3047087 -1.9024984
-8.5514393 3.3519709 -1.8994001
-8.5579739 3.415257 -1.9055965
-8.5377636 3.4680715 -1.9058031
-8.4584513 3.4964736 -1.8925842
-8.49366 3.5722027 -1.9055965
-8.4418955 3.6115527 -1.8987806
-8.3962488 3.6531348 -1.8934103
-8.3933611 3.7132926 -1.8979543
-8.3793421 3.7687364 -1.9000198
-8.3507204 3.8176396 -1.8987806
-8.3031797 3.8576767 -1.8932039
-8.3050127 3.9206636 -1.8991936
-8.3019733 3.9817023 -1.9041507
-8.2378035 4.0132856 -1.8948562
-8.2033758 4.0589833 -1.8925842
-8.2150364 4.1276903 -1.9012591
-8.1485901 4.1571226 -1.8915514
-8.1290112 4.2101932 -1.8929973
-8.0883017 4.2522531 -1.889486
-8.0853662 4.3142371 -1.8950627
-8.0656261 4.3674936 -1.896715
-8.0215244 4.4074788 -1.8925842
-7.9541621 4.4342246 -1.8828765
-7.9438386 4.4925795 -1.8870075
-7.9441309 4.557303 -1.8938234
-7.9177098 4.6069455 -1.8942366
-7.8623271 4.6395302 -1.887627
-7.8538623 4.6997423 -1.8925842
-7.8240409 4.7473364 -1.8923776
-7.770596 4.7803879 -1.8863878
-7.7660246 4.8435097 -1.8925842
-7.7617974 4.9072776 -1.8989871
-7.6895266 4.9278884 -1.8884532
-7.6632476 4.9776421 -1.889486
-7.641551 5.0304871 -1.891758
-7.5958896 5.0675063 -1.8880402
-7.5533042 5.1063471 -1.8851485
-7.5387821 5.1642084 -1.889486
-7.4868574 5.1964221 -1.8843223
-7.4404249 5.2321324 -1.8806045
-7.4177442 5.2844996 -1.8830831
-7.3788319 5.3253345 -1.8814307
-7.3460174 5.3705096 -1.8814307
-7.3388753 5.4346972 -1.8882467
-7.2779946 5.4590783 -1.8810176
-7.2692933 5.522572 -1.887627
-7.2368217 5.5682645 -1.8880402
-7.1940293 5.6059489 -1.8857682
-7.1633368 5.6530156 -1.8868009
-7.1017628 5.6754847 -1.8795718
-7.0280142 5.6875639 -1.869038
-7.0119038 5.7460833 -1.8742015
-6.9870567 5.7977462 -1.8770932
-6.9850626 5.8688307 -1.8863878
-6.9660616 5.9261608 -1.8911383
-6.8939829 5.9381433 -1.8812242
-6.8662663 5.988049 -1.8837026
-6.8037233 6.0074015 -1.8764735
-6.7857013 6.065989 -1.8818438
-6.7251382 6.0865026 -1.8752344
-6.7396088 6.1752419 -1.8901056
-6.6922655 6.207829 -1.8874205
-6.6676011 6.2615008 -1.8913449
-6.6333108 6.3063393 -1.8925842
-6.5867357 6.3394585 -1.8903122
-6.5526195 6.3845344 -1.891758
-6.4979959 6.4095049 -1.8872139
-6.4530063 6.4437242 -1.8855616
-6.4456892 6.5158896 -1.8952693
-6.3925939 6.5420213 -1.8913449
