# .PCD v0.7 - Point Cloud Data file format
VERSION 0.7
FIELDS x y z
SIZE 4 4 4
TYPE F F F
COUNT 1 1 1
WIDTH 1483
HEIGHT 1
VIEWPOINT 0 0 0 1 0 0 0
POINTS 1483
DATA ascii
4.49863 -13.339449 -1.3723346
4.4123263 -13.353573 -1.3709393
4.3309202 -13.382289 -1.3711386
4.2559381 -13.431376 -1.3735305
4.1755071 -13.46389 -1.3742282
4.0760641 -13.434031 -1.3684475
3.9927087 -13.455926 -1.3681486
3.9050815 -13.46297 -1.3663546
3.8226721 -13.487635 -1.3664542
3.7398415 -13.510837 -1.3664542
3.6521997 -13.516239 -1.3646601
3.5859327 -13.601897 -1.3712382
3.5088451 -13.6487 -1.3738296
3.4235816 -13.664182 -1.3732315
3.3316574 -13.652064 -1.3698429
3.2528846 -13.693548 -1.3720355
3.1714888 -13.724884 -1.3732315
3.0904846 -13.758648 -1.3747265
3.0066409 -13.780269 -1.3750256
2.9226484 -13.801378 -1.3753246
2.8395104 -13.826849 -1.3761219
2.7606339 -13.874265 -1.3792115
2.6777084 -13.902667 -1.3804076
2.5936277 -13.925683 -1.3811053
2.5125349 -13.965817 -1.3835969
2.4284959 -13.990775 -1.3845936
2.3414559 -13.998543 -1.383896
2.2509351 -13.984158 -1.3810056
2.1632633 -13.985906 -1.3798096
0.40507802 -2.7232969 -0.23802349
1.9843351 -13.961157 -1.3747265
0.26291054 -1.9274536 -0.15709381
0.25197381 -1.935938 -0.15779148
0.2405775 -1.9413978 -0.15819015
0.22704072 -1.9290017 -0.15679482
0.21498102 -1.9283805 -0.15659547
0.20252316 -1.9237256 -0.15599747
0.19003303 -1.9180005 -0.1552998
0.17917512 -1.9290385 -0.15629648
0.16707934 -1.9271275 -0.15599747
0.63012248 -7.8703418 -0.75310296
0.14414972 -1.938956 -0.15699415
0.13251814 -1.9437749 -0.15739281
0.12101582 -1.9515035 -0.15809049
0.10892954 -1.9502224 -0.15789115
0.097253963 -1.9568169 -0.15848915
0.086270198 -1.9812354 -0.16088116
0.11613134 -3.1232383 -0.27529898
0.10910447 -3.5197241 -0.31496647
0.087920547 -3.5372376 -0.31666082
0.065922119 -3.5217929 -0.31506613
0.04423843 -3.5161614 -0.31446815
0.01718149 -2.6198697 -0.2246681
0.0010857374 -3.5462902 -0.31745815
-0.020980263 -3.5959802 -0.32244149
-0.042897601 -3.5838444 -0.32124549
-0.059679203 -3.3009758 -0.29294005
-0.078197196 -3.2299223 -0.28586367
-0.10177103 -3.3517115 -0.29812273
-0.53232634 -14.475765 -1.4131981
-0.14567253 -3.4148269 -0.3046011
-0.70616508 -14.391618 -1.4055237
-0.80066556 -14.49928 -1.4167861
-0.88998264 -14.500053 -1.417384
-0.98491108 -14.582675 -1.4262545
-0.27956787 -3.8046885 -0.34436825
-0.30322498 -3.8068688 -0.34476691
-0.3263216 -3.8019626 -0.34446794
-0.27125153 -2.9507668 -0.25905323
-0.28915688 -2.9470665 -0.25885391
-1.5308357 -14.630554 -1.4357228
-0.32519045 -2.9423072 -0.25875422
-0.34404832 -2.9471743 -0.2594519
-1.8179069 -14.746053 -1.4504735
-1.8924956 -14.612262 -1.4381149
-1.9861372 -14.629953 -1.4411049
-2.0817466 -14.658867 -1.4452909
-2.1717985 -14.646802 -1.4453906
-0.47236413 -3.0623138 -0.27260795
-0.49225187 -3.0662346 -0.27330562
-0.6203562 -3.7167645 -0.33968392
-0.6562503 -3.7883763 -0.34735829
-0.56181866 -3.1301022 -0.28078067
-0.56462055 -3.0385575 -0.27181062
-0.54280221 -2.8249657 -0.25038221
-2.8993213 -14.580172 -1.4512709
-2.9935319 -14.5855 -1.4536629
-3.0804973 -14.555176 -1.4524668
-0.58333731 -2.6795523 -0.23692715
-0.85530066 -3.8137462 -0.35373697
-0.87935722 -3.8113348 -0.35403597
-0.62106389 -2.6199565 -0.23194379
-0.64632666 -2.6537962 -0.23583081
-0.65897101 -2.6353025 -0.2343358
-0.67611933 -2.6350644 -0.23473448
-0.71104276 -2.7020657 -0.24210984
-0.73721105 -2.7331936 -0.24579751
-3.9595375 -14.311076 -1.4495765
-4.0942063 -14.452128 -1.4668189
-0.94869882 -3.2753446 -0.30380377
-0.80434793 -2.7152321 -0.24589719
-0.81579369 -2.6931067 -0.24410318
-4.4877248 -14.476551 -1.4803736
-4.5743632 -14.442102 -1.479676
-4.6702442 -14.436483 -1.4820681
-4.749373 -14.379211 -1.4790781
-4.8247952 -14.312085 -1.4750913
-4.9092846 -14.272802 -1.4740946
-4.9987454 -14.248044 -1.4746927
-5.0823879 -14.206799 -1.4735963
-1.1936958 -3.2758806 -0.31147811
-5.2743735 -14.191858 -1.478779
-1.14993 -3.0395219 -0.28775737
-1.1678423 -3.0305521 -0.28755802
-1.2056974 -3.0724139 -0.29284039
-1.2910347 -3.2312555 -0.31078047
-1.2898285 -3.171664 -0.30519909
-1.2315824 -2.9761586 -0.28486702
-1.2799623 -3.0400653 -0.29264104
-5.9690862 -13.926937 -1.479975
-1.3446103 -3.0870647 -0.29951808
-1.3635268 -3.0787563 -0.29951808
-1.3917949 -3.0911965 -0.30181041
-6.3811741 -13.93366 -1.4973171
-6.4753675 -13.913187 -1.49941
-6.5708261 -13.89478 -1.5018021
-6.665009 -13.873034 -1.5038952
-1.3868872 -2.8440676 -0.27918598
-1.3579093 -2.7418971 -0.26872095
-1.3586016 -2.7015181 -0.26513293
-1.3756051 -2.6940169 -0.26523259
-7.1057558 -13.697387 -1.5078818
-7.2170248 -13.705472 -1.5137621
-7.3127108 -13.682869 -1.5162538
-1.4821074 -2.7346642 -0.27380398
-1.5026976 -2.7324924 -0.27460131
-7.5002604 -13.433012 -1.5032971
-7.6310983 -13.472446 -1.5131642
-7.7314677 -13.456428 -1.5167521
-7.8319268 -13.439682 -1.5203402
-4.9993868 -8.460103 -0.94655681
-8.01826 -13.379259 -1.5246259
-8.1606665 -13.429292 -1.536287
-8.2491779 -13.389132 -1.537483
-8.3106165 -13.305352 -1.5335959
-5.1154728 -8.079998 -0.92014498
-5.2439671 -8.1715488 -0.93479604
-5.2896667 -8.1325464 -0.9339987
-5.3580909 -8.1281805 -0.93738741
-5.6273336 -8.4235954 -0.97695524
-8.8532963 -13.076956 -1.5440609
-8.9389973 -13.030592 -1.5450577
-9.0301428 -12.991838 -1.547051
-9.1280241 -12.962217 -1.5502403
-5.6183815 -7.8760481 -0.93130773
-9.3685913 -12.96293 -1.5642934
-9.4726429 -12.93892 -1.5684794
-9.5293322 -12.850183 -1.564692
-9.6223431 -12.810564 -1.5670841
-1.7409623 -2.2900035 -0.25038221
-1.7440482 -2.2650912 -0.24858819
-1.7266922 -2.2143426 -0.24350516
-1.7402467 -2.203706 -0.24350516
-10.045596 -12.552875 -1.5726655
-10.12243 -12.491 -1.5726655
-10.20267 -12.43327 -1.5732634
-1.6672484 -2.0080478 -0.22367142
-1.6564751 -1.9703717 -0.2200834
-1.6743416 -1.9669873 -0.22098041
-1.6759802 -1.9446218 -0.21938574
-10.633584 -12.176656 -1.5815358
-1.6911488 -1.9142184 -0.21809007
-1.6922433 -1.8919444 -0.21649539
-1.6951332 -1.8719412 -0.21519972
-1.7025508 -1.857106 -0.21460171
-1.7166227 -1.8495404 -0.21500039
-1.7579333 -1.8708647 -0.21938574
-11.032039 -11.588493 -1.5648913
-2.4920068 -2.5870457 -0.32204282
-3.3236635 -3.4077728 -0.43905199
-3.3780756 -3.421293 -0.443836
-3.4876583 -3.489151 -0.45639408
-3.2853036 -3.2467256 -0.42489925
-3.3258166 -3.2466578 -0.4277896
-3.4158857 -3.293859 -0.43755698
-3.4028819 -3.2412772 -0.43297231
-11.159053 -10.495659 -1.4967191
-11.224701 -10.428345 -1.4969184
-3.1635695 -2.904299 -0.3924078
-3.5249012 -3.196214 -0.43885267
-3.5377741 -3.1685524 -0.43795565
-3.471426 -3.0709887 -0.42649394
-3.4399908 -3.0057781 -0.41981626
-3.4297378 -2.9599178 -0.41602889
-3.4039042 -2.901392 -0.41024819
-11.827944 -9.9534178 -1.5106725
-11.897978 -9.8882866 -1.5118685
-3.3928912 -2.7858546 -0.40197584
-3.9417684 -3.1960063 -0.47054678
-10.925884 -8.7455807 -1.3640622
-10.994173 -8.6900978 -1.3659558
-11.047288 -8.6224756 -1.3659558
-11.260775 -8.6784229 -1.3862879
-3.9270861 -2.9892423 -0.45659339
-3.9493315 -2.9680779 -0.45709172
-11.244378 -8.3404665 -1.3645605
-11.406938 -8.3530197 -1.3784143
-11.470879 -8.2921963 -1.3800089
-11.556373 -8.2465067 -1.3842946
-11.599433 -8.1702862 -1.3833976
-11.637091 -8.0904408 -1.3819026
-11.69636 -8.0256395 -1.3830986
-3.0965464 -2.0979488 -0.33689323
-3.1283898 -2.0916233 -0.33918557
-3.1087668 -2.0510283 -0.33529857
-3.1212933 -2.0319147 -0.33529857
-3.1596608 -2.0293858 -0.33838823
-3.1619654 -2.0035725 -0.33719224
-3.2434001 -2.0273595 -0.34536493
-3.4489238 -2.1264269 -0.36808902
-3.5256798 -2.143981 -0.37556407
-3.6087532 -2.1642525 -0.38373676
-3.5868447 -2.1213114 -0.37965041
-3.616987 -2.1092832 -0.38164374
-13.933564 -8.0075312 -1.5719677
-3.6503906 -2.0691524 -0.38254076
-3.7281747 -2.0830977 -0.39001578
-3.8934369 -2.1441414 -0.40745753
-3.9686198 -2.1538944 -0.41453388
-3.9826386 -2.1299717 -0.41463354
-3.9824269 -2.0985401 -0.41313854
-14.297222 -7.418817 -1.5756555
-8.7055836 -4.4502482 -0.94157344
-8.9602547 -4.5112705 -0.96708822
-7.6701083 -3.803091 -0.81978023
-7.6772037 -3.7481012 -0.81798625
-9.1063499 -4.3766031 -0.9742642
-9.1348314 -4.321496 -0.97446358
-9.0628481 -4.2195978 -0.96359986
-9.1555119 -4.1945705 -0.97097522
-5.7855196 -2.6082594 -0.59792131
-5.7959566 -2.570292 -0.5973233
-5.8134427 -2.5354755 -0.59752268
-9.3462343 -4.0074286 -0.98084223
-9.2532806 -3.9005477 -0.96808487
-9.3386316 -3.8692081 -0.97476256
-9.3437653 -3.8043323 -0.9727692
-9.367856 -3.747298 -0.97286892
-9.5314455 -3.7450407 -0.98801827
-9.3379383 -3.6030531 -0.96479583
-9.4743271 -3.5890315 -0.97705489
-9.4346132 -3.5079508 -0.97047687
-9.4961557 -3.4646552 -0.97476256
-9.382328 -3.3580549 -0.96041048
-9.1736631 -3.2200401 -0.93609172
-9.1603165 -3.1523626 -0.93260336
-9.4689493 -3.1936889 -0.96320117
-7.8132243 -2.5821764 -0.78649145
-9.4023438 -3.043251 -0.95213813
-9.3686686 -2.9689755 -0.94665647
-9.4389811 -2.9276407 -0.95213813
-9.4615278 -2.8711131 -0.95263648
-9.6678457 -2.8690324 -0.97237056
-9.6231508 -2.7916453 -0.9658922
-9.6898804 -2.7466509 -0.97107488
-9.6758633 -2.6786516 -0.96788555
-9.7055655 -2.6228638 -0.9692809
-9.8167305 -2.5883663 -0.97914791
-9.7832794 -2.5154521 -0.97406489
-9.8371382 -2.4650457 -0.9780516
-9.9187784 -2.4209116 -0.98492861
-9.9257011 -2.3581662 -0.98413128
-9.8178272 -2.2690022 -0.97157323
-9.9393291 -2.2329154 -0.98263627
-10.017979 -2.1860926 -0.98931396
-10.293061 -2.180012 -1.0161244
-10.136647 -2.0819998 -0.99878234
-10.16387 -2.0226748 -1.0002773
-10.556172 -2.0334456 -1.0390478
-10.817896 -2.0150731 -1.0644629
-11.041588 -1.9866958 -1.085991
-11.050629 -1.9183981 -1.085692
-11.070044 -1.8518692 -1.0864893
-12.01545 -1.9342114 -1.1812727
-13.145149 -2.0332906 -1.2945943
-13.52352 -2.0068991 -1.3316704
-14.461604 -2.0554228 -1.4253575
-15.164124 -2.0603716 -1.4951245
-16.81946 -2.1801357 -1.6610701
-17.396406 -2.1464286 -1.71798
-18.184052 -2.1303687 -1.796119
-19.552647 -2.169086 -1.9327626
-19.571526 -2.0496938 -1.9333606
-19.593636 -1.9305418 -1.9343573
-19.581333 -1.8080869 -1.9319652
-19.60792 -1.6892695 -1.9335599
-19.606014 -1.5679747 -1.9323639
-19.605343 -1.4469131 -1.9313673
-19.604918 -1.325986 -1.9304702
-19.607718 -1.2053626 -1.9299719
-19.602823 -1.0843704 -1.9287759
-19.605133 -0.96387416 -1.9283773
-19.60173 -0.84317684 -1.9274802
-19.599575 -0.7226308 -1.9267825
-19.599661 -0.60223448 -1.9263839
-19.598015 -0.48183987 -1.9258856
-19.599607 -0.36156136 -1.9257859
-19.593496 -0.24119611 -1.9249885
-19.593613 -0.12096205 -1.9248888
-19.582047 -0.0007358914 -1.9236928
-19.586657 0.11944793 -1.9241912
-19.582571 0.23959045 -1.9238923
-19.578741 0.35970566 -1.9236928
-19.56423 0.4795385 -1.9224969
-19.554953 0.59939009 -1.9218988
-19.53599 0.71881604 -1.9204038
-19.5163 0.83803189 -1.9189088
-19.499859 0.9572286 -1.9178125
-19.468781 1.0754859 -1.9153209
-19.435001 1.1932758 -1.9126298
-19.400509 1.3106918 -1.9099388
-17.4238 -0.44368318 -1.920151
-17.43911 -0.33701429 -1.9216024
-17.435883 -0.22993796 -1.9210441
-17.440939 -0.12297718 -1.9214907
-17.404596 -0.015924787 -1.9173599
-17.399399 0.090842284 -1.9168017
-17.380627 0.19739854 -1.9147922
-17.387037 0.30417922 -1.9156853
-17.372921 0.41057688 -1.9143456
-17.327364 0.51589668 -1.9095449
-17.340754 0.62281168 -1.9114429
-17.332636 0.72903383 -1.9109963
-17.28714 0.83341014 -1.906419
-17.275745 0.93914282 -1.9057491
-17.253788 1.044167 -1.9039629
-17.271845 1.151667 -1.9067539
-17.233728 1.2553859 -1.903293
-17.258392 1.3636888 -1.9069772
-17.241779 1.468884 -1.9060841
-17.21067 1.572661 -1.903628
-17.176958 1.6759187 -1.9009485
-17.138676 1.7784117 -1.8978225
-17.113611 1.8820187 -1.8962595
-17.080025 1.9844677 -1.8938034
-17.053719 2.0875413 -1.8922404
-17.046501 2.1929023 -1.8929102
-17.045528 2.2991831 -1.8943616
-16.977964 2.3962309 -1.888333
-17.009148 2.5071704 -1.8935801
-16.980675 2.6095276 -1.8921288
-16.968269 2.7142978 -1.8925754
-16.948355 2.817873 -1.8922404
-16.918993 2.9197855 -1.8909007
-16.892935 3.0221436 -1.8900076
-16.864302 3.12393 -1.8888911
-16.833103 3.225105 -1.8875514
-16.812998 3.3283303 -1.8875514
-16.789339 3.4308333 -1.8872164
-16.767971 3.5337863 -1.8872164
-16.73432 3.6340756 -1.8858768
-16.702978 3.7347357 -1.884872
-16.663284 3.8333659 -1.8829741
-16.623976 3.9318783 -1.8811878
-16.58795 4.0309916 -1.8798481
-16.535906 4.1259618 -1.8767221
-16.532421 4.2330155 -1.8792899
-16.487873 4.3295817 -1.8771687
-16.466755 4.4322176 -1.8778385
-16.433502 4.5315871 -1.8771687
-16.376696 4.6242352 -1.8738195
-16.353743 4.7262893 -1.8744893
-16.311092 4.8226004 -1.8729262
-16.266926 4.9182792 -1.8712517
-16.224098 5.014184 -1.8698003
-16.173126 5.1073551 -1.8674558
-16.148106 5.2086306 -1.8682373
-16.095076 5.3007774 -1.8657812
-16.079203 5.4051342 -1.8677907
-16.050436 5.5053043 -1.868349
-16.017292 5.6040125 -1.8684605
-15.993835 5.7061944 -1.8698003
-15.974399 5.8099971 -1.8716983
-15.963607 5.9172297 -1.8747126
-15.966975 6.0301657 -1.8795131
-15.962136 6.1405106 -1.8834207
-15.958394 6.2517476 -1.8875514
-15.94281 6.3587523 -1.8903425
-15.930195 6.4672956 -1.8935801
-15.902153 6.5698524 -1.8950315
-15.850548 6.6626816 -1.8936918
-15.836781 6.7715335 -1.8970411
-15.801312 6.8713527 -1.8978225
-15.777939 6.9766173 -1.900167
-15.73846 7.0749273 -1.9006135
-15.747177 7.1953163 -1.9070889
-15.73608 7.3072886 -1.9112196
-15.722404 7.4185472 -1.9151272
-15.693614 7.5230398 -1.9172482
-15.685577 7.6378989 -1.9220489
-15.699881 7.7643952 -1.9297522
-15.655496 7.8623657 -1.9301988
-15.629976 7.9700146 -1.9331015
-15.617845 8.0849552 -1.9377905
-15.589055 8.1917257 -1.94047
-15.56305 8.3003178 -1.9435959
-15.532803 8.4070072 -1.9462754
-15.499217 8.5122013 -1.9486198
-15.466661 8.618268 -1.9511876
-15.410894 8.7115402 -1.9508526
-15.328702 8.7896233 -1.9471685
-15.403337 8.9584513 -1.9639149
-15.386598 9.0755129 -1.9689387
-15.29395 9.1478195 -1.9641382
-15.259624 9.2548866 -1.9670408
-15.263499 9.3858213 -1.9750791
-15.217428 9.486659 -1.976642
-15.231178 9.6255074 -1.9862432
-15.169321 9.7171755 -1.9859084
-15.13525 9.8268442 -1.9893693
-15.099573 9.935915 -1.9927186
-15.050725 10.036647 -1.9943932
-15.006972 10.141047 -1.9968493
-14.963326 10.245851 -1.9994171
-14.922221 10.352765 -2.0024314
-14.890124 10.466418 -2.0067854
-14.848289 10.573725 -2.0099115
-14.82101 10.691957 -2.0151587
-14.769568 10.79325 -2.0171683
-14.704661 10.884854 -2.0173914
-14.695639 11.018392 -2.0255413
-14.642 11.119173 -2.0275509
-14.593192 11.22395 -2.0303421
-14.547568 11.331601 -2.0336914
-14.516776 11.451423 -2.0392735
-14.460215 11.551444 -2.0412829
-14.413014 11.659328 -2.044744
-14.36811 11.769584 -2.0486515
-14.316275 11.874653 -2.0516658
-14.260647 11.976972 -2.0542336
-14.203544 12.07841 -2.0566897
-14.157782 12.189973 -2.0609322
-14.100698 12.292285 -2.0636115
-14.048105 12.398959 -2.0670724
-13.989547 12.500814 -2.0697517
-13.919949 12.593084 -2.0708683
-13.849012 12.684299 -2.0718729
-13.786954 12.7839 -2.0743291
-13.714775 12.874376 -2.0753338
-13.588697 12.91379 -2.0680771
-13.466235 12.955588 -2.0613787
-13.354452 13.006771 -2.0563548
-13.265194 13.079397 -2.0549033
-13.1657 13.14159 -2.0518889
-13.072933 13.210118 -2.0499911
-12.963844 13.26166 -2.0455253
-12.865661 13.323798 -2.042846
-12.772005 13.390265 -2.0409482
-12.714137 13.494418 -2.0449672
-12.610109 13.549626 -2.0415063
-12.52606 13.626014 -2.0413947
-12.422175 13.680545 -2.0380454
-12.313449 13.729136 -2.0339146
-12.205254 13.777654 -2.0298955
-12.105434 13.835084 -2.0273278
-12.00927 13.896319 -2.0254297
-11.911519 13.955384 -2.0233085
-11.815418 14.016052 -2.0215223
-11.716478 14.073012 -2.0192895
-11.633063 14.148477 -2.0198476
-11.552921 14.228075 -2.0210757
-11.477836 14.3142 -2.0233085
-11.384237 14.377346 -2.0223038
-11.280502 14.427357 -2.0195127
-11.189336 14.493155 -2.0190661
-11.078508 14.533088 -2.0150471
-10.964624 14.568237 -2.0104697
-10.843021 14.592169 -2.004441
-10.786787 14.704097 -2.0108047
-10.691115 14.762763 -2.0097997
-10.603222 14.832127 -2.0103581
-10.506857 14.8896 -2.0093532
-10.41189 14.948896 -2.0086834
-10.310399 14.998579 -2.0067854
-10.199764 15.034423 -2.0031013
-10.101794 15.088467 -2.0019848
-10.002996 15.141046 -2.0007567
-9.8936243 15.177164 -1.9974076
-9.7890234 15.220033 -1.9950631
-9.6826715 15.259673 -1.9923836
-9.5957127 15.329747 -1.993835
-9.4946833 15.377345 -1.9923836
-9.3603487 15.369962 -1.9837872
-9.2627945 15.421995 -1.9831173
-9.1527987 15.452889 -1.979768
-9.0442772 15.485591 -1.9767537
-8.9337158 15.514098 -1.9732928
-8.8540545 15.596276 -1.9768653
-8.7513971 15.638169 -1.9753023
-8.6533585 15.688092 -1.9748558
-8.5417461 15.712955 -1.9712832
-8.4437647 15.762442 -1.9709483
-8.339467 15.799893 -1.969162
-8.2295265 15.826079 -1.9660361
-8.1041746 15.821441 -1.9591142
-7.9966474 15.850463 -1.9565464
-7.8930497 15.886772 -1.9549835
-7.7932382 15.930441 -1.9544252
-7.687582 15.961843 -1.9524157
-7.5860915 16.00153 -1.9515225
-7.4865046 16.045074 -1.9511876
-7.3854251 16.085291 -1.9505178
-7.2829065 16.122152 -1.949513
-7.1822314 16.162905 -1.9490664
-7.0809326 16.202116 -1.9485081
-6.9782457 16.237955 -1.947615
-6.874999 16.272228 -1.9466102
-6.7746439 16.313189 -1.9464986
-6.6732941 16.35169 -1.9461637
-6.5817132 16.414465 -1.9488431
-6.4826932 16.459164 -1.9494013
-6.3837304 16.504192 -1.9500712
-6.2812839 16.540264 -1.9497362
-6.1768999 16.571045 -1.9488431
-6.069643 16.5937 -1.9470568
-5.968719 16.633438 -1.9473917
-5.8672056 16.671623 -1.947615
-5.7622066 16.699793 -1.9467219
-5.6577196 16.729187 -1.9460521
-5.5521517 16.755098 -1.9450473
-5.4498534 16.790741 -1.9452705
-5.3482294 16.8286 -1.9458288
-5.2466416 16.866793 -1.9464986
-5.1395779 16.887259 -1.945159
-5.0386982 16.928001 -1.9462754
-4.9311252 16.946196 -1.944824
-4.8237906 16.964663 -1.9434843
-4.7156177 16.97958 -1.9418097
-4.6082234 16.996685 -1.94047
-4.5007968 17.013111 -1.9391302
-4.3948321 17.034636 -1.9384604
-4.2887726 17.055498 -1.9377905
-4.183332 17.078596 -1.9374555
-4.0743113 17.086544 -1.935446
-3.9640036 17.08799 -1.9327666
-3.3199103 14.721455 -1.6574565
-3.1823018 14.526049 -1.6326718
-3.0774002 14.471429 -1.6241871
-2.9449823 14.278842 -1.5999607
-2.8481586 14.250843 -1.5947134
-2.7653835 14.292441 -1.5975045
-2.6688597 14.262255 -1.5921457
-2.5685673 14.207954 -1.5841074
-2.4622097 14.113804 -1.5716035
-2.3753979 14.127666 -1.5714918
-2.286762 14.130203 -1.5701522
-2.1833665 14.036938 -1.5579832
-2.0426109 13.684448 -1.5164522
-1.9566363 13.682951 -1.5148892
-1.8739891 13.704545 -1.5160056
-1.7848482 13.677356 -1.5116515
-1.6986856 13.670299 -1.509642
-1.6226975 13.747573 -1.5172337
-1.5710094 14.049598 -1.5502799
-1.4919766 14.127162 -1.5579832
-1.4070358 14.153851 -1.5599927
-1.3534698 14.519411 -1.6002955
-1.2773695 14.676933 -1.6171536
-1.1899333 14.717181 -1.6208378
-1.1515061 15.418887 -1.6990991
-1.0399557 15.178799 -1.6713002
-0.99796546 16.005129 -1.7636284
-0.90838712 16.16474 -1.780933
-0.72282028 14.445035 -1.5868986
-0.63351959 14.434306 -1.5852239
-0.60866773 16.125097 -1.7749043
-0.47588077 15.058797 -1.6546655
-0.3818523 14.997853 -1.6475203
-0.28880116 14.947255 -1.6416032
-0.21400177 16.229576 -1.7855103
-0.1050724 14.909925 -1.6371375
-0.013797393 15.136864 -1.6625921
0.078900129 15.101883 -1.6586846
0.17309378 15.236256 -1.6738679
0.2820805 16.122189 -1.7735646
0.38313356 16.21056 -1.7837241
0.48135135 16.166185 -1.7790351
0.53113145 14.786478 -1.6242987
0.6215992 14.776983 -1.6236289
0.71254432 14.778847 -1.6242987
0.79275185 14.581694 -1.60264
0.8522051 14.080587 -1.5468189
0.93567783 14.031466 -1.5419066
1.0438412 14.328744 -1.5760692
1.110847 14.057562 -1.5462607
1.1884798 13.949485 -1.5348731
1.2735978 13.936982 -1.534315
1.3594755 13.932861 -1.5347615
1.451503 13.987517 -1.5419066
1.5426233 14.02675 -1.5473771
1.6196022 13.939038 -1.5385574
1.702565 13.908125 -1.5362129
1.7900265 13.914171 -1.5381109
1.8755015 13.903912 -1.5382224
1.960779 13.892141 -1.5382224
2.0485907 13.897545 -1.5402321
2.137146 13.906322 -1.5426881
2.2252584 13.91061 -1.5446976
2.3112223 13.900616 -1.5451443
2.3990059 13.900862 -1.5468189
2.8413892 15.882431 -1.774681
2.57303 13.889918 -1.5490518
2.6550298 13.857277 -1.5471538
2.7436726 13.859247 -1.549275
2.8370152 13.883044 -1.553964
2.9196875 13.853706 -1.5526243
3.0267785 13.937498 -1.5643468
3.1287186 13.992369 -1.5728316
3.5546827 15.451743 -1.7433095
3.3059087 13.977098 -1.5756227
3.7592831 15.469726 -1.7505662
3.8214171 15.315237 -1.7353829
3.8941214 15.208709 -1.7257817
3.7420626 14.250273 -1.6172652
3.8640375 14.355631 -1.6322253
3.948087 14.317281 -1.6305507
4.0412621 14.311913 -1.6327835
4.146935 14.348903 -1.6400403
4.2611012 14.411814 -1.650423
4.3425484 14.362567 -1.6477436
4.3722053 14.146712 -1.6255268
4.4550357 14.107299 -1.6240754
4.5531039 14.115638 -1.6283178
4.7652078 14.468763 -1.6734214
4.8665614 14.476931 -1.6778871
4.9594898 14.459018 -1.6793385
4.9463868 14.137533 -1.6447293
5.0350432 14.112533 -1.6453991
5.2081504 14.319518 -1.6738679
5.4689441 14.754126 -1.7298007
5.4919639 14.541796 -1.7083654
5.6221161 14.614486 -1.7212043
5.5819225 14.248461 -1.6812363
5.6957498 14.280401 -1.6892745
5.9137173 14.566533 -1.7282377
6.0215764 14.574978 -1.7337083
6.0450487 14.3811 -1.7146174
6.1570067 14.399475 -1.7214276
6.2527733 14.378741 -1.7235488
6.3545451 14.371005 -1.7273446
6.4523826 14.353498 -1.7300241
6.5159664 14.260308 -1.7234372
6.6975098 14.422855 -1.7485567
6.8138676 14.440805 -1.7559251
6.9053531 14.404997 -1.7567066
6.9970908 14.369503 -1.7575997
7.0846882 14.325409 -1.757488
7.1804814 14.297653 -1.7594976
7.2748461 14.266605 -1.7611723
7.3791499 14.254353 -1.765303
7.4623141 14.200889 -1.7642982
7.6049562 14.259178 -1.7775837
7.6823726 14.193893 -1.7752392
7.8166771 14.232721 -1.7862918
7.9227242 14.218347 -1.7906458
8.0044384 14.15995 -1.7894177
8.1282444 14.175226 -1.797791
8.2120714 14.119931 -1.7971212
8.317234 14.100947 -1.8012519
8.4214525 14.079498 -1.8051593
8.5375719 14.076842 -1.8116347
8.6446056 14.058053 -1.8161004
8.7648726 14.059561 -1.8233571
8.8807039 14.05256 -1.829609
8.9978504 14.046339 -1.8360842
9.129323 14.060878 -1.8454622
9.2492933 14.056067 -1.8523841
9.357419 14.032121 -1.8568498
9.4911909 14.045252 -1.866451
9.6417561 14.081047 -1.8792899
9.760828 14.068978 -1.8857652
9.8869715 14.065732 -1.8935801
10.011135 14.058228 -1.9009485
10.144298 14.061817 -1.9099915
10.270258 14.053868 -1.9175832
10.42488 14.083241 -1.9305338
10.562363 14.087389 -1.940135
10.686464 14.072174 -1.9471685
10.823498 14.072507 -1.9565464
10.966433 14.078741 -1.9669292
11.097539 14.068144 -1.9750791
11.225205 14.051807 -1.9825591
11.390587 14.080789 -1.9967377
11.549816 14.09981 -2.0096881
11.705899 14.112814 -2.0219688
11.826145 14.081055 -2.0278859
11.940003 14.040778 -2.0326865
12.001942 13.939387 -2.0285559
12.117936 13.90069 -2.033803
12.17341 13.792546 -2.028779
12.245231 13.703512 -2.0266578
12.314416 13.611906 -2.0242016
12.352736 13.48699 -2.0167217
12.409583 13.38325 -2.0124793
12.468344 13.28222 -2.0086834
12.540024 13.19538 -2.0071204
12.608352 13.105297 -2.0051107
12.676046 13.014873 -2.0031013
12.72706 12.907836 -1.998524
12.763198 12.786597 -1.9917138
12.820225 12.687072 -1.9883645
12.867273 12.578299 -1.9835639
12.917046 12.472878 -1.9793215
12.976796 12.37761 -1.9767537
13.034418 12.280716 -1.9739627
13.089157 12.18155 -1.9708366
13.143903 12.082849 -1.9678223
13.184688 11.97191 -1.9627984
13.242363 11.87685 -1.9604539
13.293417 11.776262 -1.9572163
13.348224 11.679423 -1.9546485
13.403095 11.583004 -1.9521924
13.45124 11.481192 -1.9488431
13.510036 11.388832 -1.9471685
13.563625 11.292369 -1.944824
13.607328 11.188104 -1.9411398
13.653349 11.086234 -1.9379021
13.695532 10.981734 -1.9342179
13.730715 10.8722 -1.9296407
13.772899 10.768769 -1.9261796
13.823771 10.672519 -1.9240584
13.861335 10.566411 -1.920151
13.908441 10.468013 -1.9176949
13.954862 10.369435 -1.9152387
14.00861 10.276561 -1.9138991
14.053696 10.177588 -1.9114429
14.090011 10.072671 -1.9078703
14.13044 9.9711294 -1.9049677
14.159554 9.8620882 -1.9006135
14.200146 9.7615099 -1.8979342
14.249084 9.6669426 -1.8964828
14.29079 9.5677195 -1.8941383
14.316891 9.4584885 -1.8897843
14.36217 9.3623238 -1.8881097
14.400958 9.2621956 -1.8856535
14.431508 9.1571531 -1.8821926
14.46805 9.056303 -1.8796248
14.499671 8.9527397 -1.8764988
14.52802 8.847579 -1.8730379
14.554774 8.7418957 -1.8694654
14.584199 8.6382446 -1.8663393
14.620624 8.539072 -1.8642182
14.659826 8.441762 -1.8625436
14.695792 8.3428211 -1.860534
14.730229 8.2432709 -1.8584127
14.76748 8.1455326 -1.8567381
14.804086 8.0476484 -1.8550636
14.800629 7.9285045 -1.8483649
14.885909 7.8570237 -1.8530539
14.878294 7.7366529 -1.8460205
14.898067 7.6311707 -1.8425596
14.908235 7.5212612 -1.8379822
14.951434 7.428318 -1.8376473
14.986913 7.331634 -1.8364192
15.01192 7.230051 -1.833963
15.033551 7.1271601 -1.831172
15.050884 7.0225959 -1.8279344
15.081048 6.9243078 -1.8263714
15.103327 6.8226414 -1.8239152
15.109488 6.7141018 -1.8195612
15.172256 6.6308169 -1.8222406
15.202613 6.5332804 -1.8210126
15.219529 6.4302068 -1.8182216
15.263287 6.3386059 -1.8187797
15.300972 6.2444572 -1.8186681
15.346377 6.1534138 -1.8195612
15.381996 6.0584059 -1.819338
15.419807 5.9642682 -1.8194495
15.49606 5.8847132 -1.8242502
15.535602 5.7909088 -1.8246968
15.582041 5.6995716 -1.8260365
15.615784 5.6035194 -1.8259249
15.660183 5.5112262 -1.827153
15.694644 5.4153576 -1.8272645
15.737932 5.3224573 -1.8284926
15.757088 5.2214146 -1.8269296
15.785048 5.1234055 -1.826483
15.814293 5.0258517 -1.8262597
15.849578 4.9301982 -1.826818
15.875728 4.831697 -1.8263714
15.916505 4.7375965 -1.8277111
15.932871 4.6362357 -1.8262597
15.965797 4.5397453 -1.826818
15.991437 4.4411635 -1.8265947
16.023182 4.3442588 -1.827153
16.048576 4.2456064 -1.8270413
16.112814 4.1569853 -1.831507
16.14669 4.0602217 -1.8325118
16.176126 3.9622536 -1.8330699
16.210766 3.8654597 -1.834298
16.246763 3.7688391 -1.8357494
16.2754 3.6703918 -1.8364192
16.306351 3.5723729 -1.837424
16.335739 3.4739056 -1.8383172
16.360641 3.3744092 -1.8387637
16.387859 3.275322 -1.8395452
16.412525 3.1756504 -1.8401034
16.439516 3.0763478 -1.8409966
16.461018 2.9759493 -1.8413315
16.47603 2.874378 -1.8409966
16.513937 2.7766898 -1.8433411
16.533606 2.6757863 -1.843676
16.564442 2.5765789 -1.8453506
16.605494 2.478708 -1.8482534
16.65974 2.3824 -1.8527191
16.683891 2.2814796 -1.8538355
6.5894465 0.85968983 -0.70860797
6.6330576 0.82402182 -0.71296197
6.5491686 0.77282006 -0.70291418
6.5429239 0.7314055 -0.70168614
6.5324645 0.68967915 -0.70001149
6.532618 0.64919037 -0.69956493
6.5325208 0.60872573 -0.69911832
6.5301929 0.56811434 -0.69844848
6.5286031 0.52763456 -0.69789028
6.5346904 0.48778796 -0.6982252
6.5256634 0.44686726 -0.69688553
6.5233235 0.40650877 -0.69632727
6.5286717 0.36664212 -0.69666219
6.5298057 0.32652634 -0.69655055
6.5336719 0.28654125 -0.69677383
6.5363002 0.24648352 -0.69688553
6.5287504 0.20609015 -0.69588071
6.517971 0.16572279 -0.69454104
6.5238328 0.12582226 -0.69509923
6.5205073 0.085737899 -0.69465268
6.5288606 0.045783442 -0.69554579
6.5310059 0.0057241111 -0.69576907
6.5408554 -0.034401149 -0.69688553
6.5574141 -0.074725904 -0.6987834
6.5677614 -0.11515099 -0.70001149
6.5788531 -0.15572931 -0.70135117
6.5926733 -0.19653673 -0.70302582
6.6082263 -0.23759089 -0.70492375
6.6155796 -0.27850938 -0.7059285
6.6276426 -0.31976619 -0.70749152
6.6483784 -0.36166677 -0.71005929
6.6509938 -0.40275368 -0.71061748
6.6801267 -0.44567075 -0.71419007
6.6941156 -0.48787785 -0.716088
14.479585 -1.1441836 -1.5938203
14.727754 -1.2547648 -1.622624
14.698006 -1.3431201 -1.620168
14.625199 -1.4270091 -1.6129112
14.566746 -1.5115936 -1.6073291
14.532501 -1.5982298 -1.604538
10.592733 -1.2308862 -1.1600897
10.583995 -1.2957381 -1.159978
10.570917 -1.3600219 -1.1594199
10.563357 -1.4249911 -1.1595315
10.577047 -1.4929736 -1.1620992
10.566704 -1.5577 -1.1619877
13.840514 -2.1270344 -1.5352081
13.830146 -2.212389 -1.535543
13.855522 -2.303726 -1.5400087
13.993894 -2.4150586 -1.5574249
13.943595 -2.4945788 -1.5534058
13.860604 -2.5676005 -1.5457025
14.279885 -2.7359884 -1.595495
14.256005 -2.822206 -1.5947134
13.307627 -2.719445 -1.4879833
14.218354 -2.9965267 -1.5944902
14.193873 -3.0824473 -1.5938203
14.18924 -3.1727335 -1.595495
14.176284 -3.2612967 -1.5962765
14.157941 -3.3486769 -1.5964998
8.2389307 -2.0023282 -0.91458815
8.2313099 -2.0540464 -0.91514635
13.852266 -3.5468473 -1.5684775
13.81967 -3.6290004 -1.5672494
7.6374574 -2.0559337 -0.85061705
7.6218247 -2.101965 -0.85028213
14.007792 -3.9553959 -1.5972812
13.990895 -4.0434785 -1.5981745
8.0163994 -2.3703732 -0.90119106
7.9627042 -2.4077256 -0.89661372
7.9420843 -2.4547782 -0.89594388
7.9316106 -2.5049598 -0.89650208
8.4513988 -2.7262316 -0.95969164
13.653248 -4.4966459 -1.5769624
13.61127 -4.5755868 -1.5752877
13.565079 -4.6528921 -1.5731665
7.7469206 -2.7106562 -0.88410974
13.463904 -4.8036466 -1.568031
13.411762 -4.8780179 -1.5653515
13.372261 -4.9567652 -1.5642351
13.336018 -5.0366163 -1.5635653
13.277965 -5.1080031 -1.5603276
13.244522 -5.1886539 -1.5601044
13.184745 -5.2587795 -1.5567551
13.115398 -5.3246288 -1.5522894
13.073296 -5.4012089 -1.551173
13.016089 -5.471312 -1.5482702
12.977704 -5.5491209 -1.5477121
12.912426 -5.6151729 -1.5439162
12.864096 -5.6882687 -1.5422416
12.823513 -5.7646494 -1.5415717
12.761688 -5.8312483 -1.5383341
12.708543 -5.9014912 -1.5362129
12.652321 -5.9700294 -1.5337567
12.608282 -6.0441136 -1.5328636
12.566491 -6.1191878 -1.5323054
12.534053 -6.198822 -1.5329752
12.414968 -6.2350297 -1.5228158
12.360541 -6.3029637 -1.5208062
12.305749 -6.3704653 -1.5187967
12.23564 -6.4296737 -1.5148892
12.189819 -6.5013556 -1.5141077
12.133967 -6.5675144 -1.5120981
12.074279 -6.6313195 -1.509642
12.022077 -6.6989932 -1.5081906
11.96604 -6.7643204 -1.5062927
11.929482 -6.8405809 -1.5069625
11.877834 -6.9081545 -1.5057346
11.847207 -6.9879737 -1.5072975
11.770845 -7.0406418 -1.5029434
11.70873 -7.1013966 -1.5004873
11.632769 -7.153327 -1.4962449
11.571792 -7.2140555 -1.4940121
11.524789 -7.2833304 -1.4936771
11.46984 -7.347476 -1.4923375
11.399536 -7.4014812 -1.4889882
11.344775 -7.4652796 -1.4877601
11.30289 -7.5375056 -1.4883183
11.252311 -7.6039352 -1.4877601
11.196423 -7.6666594 -1.486532
11.150803 -7.7363477 -1.4867553
11.090116 -7.7954788 -1.484969
11.030742 -7.85531 -1.4834061
10.967022 -7.9117994 -1.4812849
10.891792 -7.9595942 -1.4776006
10.835559 -8.0209541 -1.4765959
10.773418 -8.0777512 -1.4748095
10.722068 -8.1425018 -1.4745862
10.682145 -8.216013 -1.4760376
10.643291 -8.2905626 -1.4777123
10.561012 -8.3310947 -1.4732466
10.507365 -8.3938789 -1.4729116
10.453346 -8.4563179 -1.4725767
10.403568 -8.5221882 -1.4729116
10.330429 -8.5687332 -1.4698973
10.282985 -8.6364326 -1.4706788
10.231314 -8.7006521 -1.4709021
10.15966 -8.7477055 -1.4682226
10.089314 -8.7955132 -1.4657665
10.02696 -8.8500214 -1.4645385
9.9583893 -8.8987989 -1.4624172
9.8969679 -8.9537344 -1.4614124
9.8308496 -9.0042248 -1.4597379
9.7717724 -9.060998 -1.4591796
9.712368 -9.1173859 -1.4586214
9.6576824 -9.1781769 -1.4588447
9.5997524 -9.2358847 -1.4586214
9.5272398 -9.2793598 -1.4561653
9.4559698 -9.3236895 -1.4539324
9.4253101 -9.4082117 -1.4581748
9.3674049 -9.465867 -1.4581748
9.3091469 -9.5231667 -1.4581748
9.2560616 -9.5858259 -1.4590679
6.9795399 -7.3176661 -1.0981282
6.9099746 -7.3343163 -1.0941091
9.0543537 -9.7291155 -1.4551605
8.9837255 -9.7727833 -1.4533743
8.915575 -9.8188944 -1.4520345
8.8445435 -9.861578 -1.4502482
6.7305083 -7.5978703 -1.1023706
6.6706738 -7.6240678 -1.1001377
6.5107036 -7.53403 -1.080712
2.1268785 -2.4923332 -0.33014029
2.1096241 -2.5030572 -0.32980537
2.0910468 -2.512136 -0.32924715
2.0730686 -2.5218487 -0.32880059
2.0556765 -2.532207 -0.32846567
2.0369921 -2.5408964 -0.32790744
2.0170448 -2.5478938 -0.32712594
2.0038216 -2.5633535 -0.32757252
1.9819825 -2.5677347 -0.3264561
1.9378738 -2.5427036 -0.32120889
1.9120764 -2.5410488 -0.31931099
1.8928924 -2.5479474 -0.31864113
1.8807498 -2.5643215 -0.31931099
1.8766378 -2.5919101 -0.32154384
1.8768812 -2.6260116 -0.32466981
1.8796409 -2.6642723 -0.328354
1.8962007 -2.7230508 -0.33482927
1.8862122 -2.7444613 -0.33616897
1.869337 -2.7559831 -0.33616897
1.8579201 -2.7756588 -0.3372854
1.8452364 -2.7936397 -0.33817855
1.8313164 -2.8099041 -0.33884841
7.2376738 -11.253373 -1.4652083
7.1386714 -11.250583 -1.4589564
7.0579047 -11.275642 -1.4565002
6.9844089 -11.311972 -1.4556071
6.9221053 -11.366497 -1.4571701
6.8466029 -11.399385 -1.455942
6.7648802 -11.421515 -1.4533743
6.6911635 -11.456802 -1.4525927
6.6321459 -11.517449 -1.4551605
6.5628233 -11.560519 -1.4554955
6.4762354 -11.572821 -1.4519229
6.4075041 -11.616691 -1.4524812
6.3422751 -11.667138 -1.4539324
6.2644668 -11.694447 -1.4524812
6.1721821 -11.693995 -1.4475688
6.0943527 -11.720185 -1.4461175
6.0209651 -11.754705 -1.4457825
5.9491739 -11.792315 -1.4458942
5.8762631 -11.827707 -1.4457825
5.8245416 -11.906387 -1.4511414
5.7681932 -11.976819 -1.4554955
5.7073684 -12.038925 -1.4588447
5.6296096 -12.065614 -1.45784
5.5592022 -12.108057 -1.4588447
5.4848042 -12.141939 -1.4588447
5.4005136 -12.15357 -1.4561653
5.3087263 -12.147324 -1.4513646
5.2050552 -12.112106 -1.4431032
5.0877066 -12.042208 -1.4307108
5.0057168 -12.053926 -1.4283663
4.9342895 -12.090854 -1.4291478
4.8540912 -12.106145 -1.4273616
4.761508 -12.089471 -1.4217794
4.6743321 -12.085093 -1.4177604
4.5933876 -12.095897 -1.4156392
4.515264 -12.11361 -1.4144111
4.4360719 -12.128022 -1.412848
4.3572087 -12.142853 -1.4113967
4.2822895 -12.168423 -1.411285
4.2036548 -12.183196 -1.4099454
4.1355071 -12.228529 -1.4122899
4.0594587 -12.250844 -1.4119549
3.9802241 -12.263234 -1.4105035
3.8979802 -12.265643 -1.4079357
3.8208752 -12.283636 -1.4072659
3.7460108 -12.308751 -1.4074892
3.6706989 -12.332457 -1.4076009
3.5969028 -12.361426 -1.4083824
3.5220742 -12.387088 -1.408829
3.446002 -12.408465 -1.408829
3.3718808 -12.437049 -1.4097221
3.3016052 -12.480561 -1.4124014
3.2371292 -12.547733 -1.417872
3.1629853 -12.578925 -1.4192116
3.0888166 -12.610643 -1.420663
3.0099981 -12.623559 -1.4199932
2.940345 -12.675672 -1.4239006
2.8653555 -12.706077 -1.425352
2.7801073 -12.690414 -1.4215561
2.7001207 -12.697515 -1.4204397
2.6167388 -12.687565 -1.4174254
2.52988 -12.658556 -1.4122899
2.4493289 -12.659206 -1.4106152
2.368134 -12.655437 -1.408494
2.2893763 -12.663863 -1.4078242
2.2128248 -12.684525 -1.4086057
2.1329746 -12.686104 -1.4072659
2.0574758 -12.713667 -1.4089406
1.9789692 -12.723106 -1.4086057
1.8936745 -12.68685 -1.4031352
1.8156531 -12.697247 -1.4030235
0.3913486 -2.8642967 -0.28682306
0.37543827 -2.8794541 -0.28827441
0.3573955 -2.8787451 -0.28793949
0.91403902 -7.7452841 -0.83822477
1.4338186 -12.82301 -1.41162
0.19974002 -1.8946098 -0.17607382
0.18860282 -1.9007441 -0.17663203
0.27002954 -2.9002268 -0.28927919
0.25722799 -2.9592493 -0.29575443
0.2388252 -2.9578004 -0.29541951
0.14545307 -1.9523674 -0.18199086
0.13299516 -1.9462832 -0.18120937
0.12154543 -1.9549972 -0.1821025
0.1671135 -2.9796376 -0.29731745
0.10107359 -2.0268095 -0.19002911
0.10947679 -2.5019457 -0.24339417
0.096823707 -2.5740693 -0.25143242
0.11476723 -3.6413674 -0.37133634
0.092143543 -3.6310754 -0.37010828
0.069496699 -3.6126947 -0.36798707
0.047131404 -3.5981481 -0.36631241
0.025108933 -3.6063194 -0.36720556
0.0029292265 -3.5517495 -0.36106524
-0.019013748 -3.580519 -0.36430287
-0.042762537 -3.7373369 -0.38194236
-0.062811911 -3.5720673 -0.36340973
-0.084259406 -3.5517452 -0.36117688
-0.10723297 -3.5908935 -0.36564258
-0.13011976 -3.6140027 -0.36832199
-0.55531853 -13.200304 -1.4463408
-0.63405567 -13.149996 -1.4410936
-0.72136265 -13.267909 -1.4548256
-0.23065399 -3.806124 -0.39042717
-0.25056678 -3.7530766 -0.38462177
-0.2730853 -3.7445307 -0.38384026
-0.29902986 -3.7804296 -0.38808268
-0.31682324 -3.7151532 -0.38093758
-0.34404293 -3.761631 -0.38640806
-1.3000458 -13.323604 -1.4659898
-1.3766463 -13.265954 -1.4604077
-1.4564983 -13.243428 -1.4588447
-1.5423176 -13.273726 -1.4633104
-0.36051926 -2.9424415 -0.2950846
-0.38097557 -2.9589009 -0.29720581
-1.7910308 -13.277557 -1.4672179
-1.877882 -13.304694 -1.4715719
-1.9599174 -13.29587 -1.4719069
-2.0550454 -13.371994 -1.4819547
-0.48772529 -3.0468938 -0.30870494
-0.50690037 -3.0467846 -0.30903989
-2.2974522 -13.312317 -1.4797218
-2.3794417 -13.299926 -1.4799451
-2.4610038 -13.285075 -1.4799451
-2.5445299 -13.28046 -1.4811732
-0.55284709 -2.7909672 -0.2816875
-0.57115531 -2.7933643 -0.28235736
-0.57701463 -2.7363255 -0.27621701
-0.5944261 -2.7356467 -0.27655196
-0.60469586 -2.7028537 -0.27320269
-3.0478847 -13.248502 -1.4893231
-3.129576 -13.231485 -1.4895464
-3.2165699 -13.236175 -1.4923375
-3.2991683 -13.221974 -1.4930073
-3.3787558 -13.195705 -1.4923375
-0.73683125 -2.8046782 -0.28782782
-0.75273526 -2.7953062 -0.28726962
-3.6192243 -13.124572 -1.4915559
-3.7104876 -13.140372 -1.4960216
-0.80212897 -2.7742944 -0.28648812
-0.80645853 -2.7264366 -0.28146422
-0.94654328 -3.1295137 -0.32935879
-4.0371323 -13.062445 -1.4980311
-4.1243877 -13.06017 -1.5007106
-4.2358646 -13.132032 -1.5122098
-4.3315926 -13.152045 -1.5176803
-4.4169598 -13.139349 -1.5193548
-4.5229673 -13.186259 -1.5281746
-4.6083856 -13.171391 -1.5297376
-4.6604009 -13.062372 -1.5201364
-1.1579125 -3.1826992 -0.3425326
-1.1494447 -3.1000583 -0.33348957
-1.1645827 -3.082721 -0.3322615
-1.1981038 -3.1135445 -0.33683884
-5.100214 -13.018752 -1.5328636
-1.2918092 -3.2379875 -0.35369682
-1.2428761 -3.0605783 -0.33315465
-1.2434194 -3.0088084 -0.3277958
-5.4200993 -12.894246 -1.5334219
-1.3208784 -3.0883517 -0.33940661
-1.343766 -3.0893021 -0.34052303
-5.6074958 -12.681413 -1.5198015
-5.6909056 -12.659456 -1.5213645
-5.7647586 -12.616164 -1.5203596
-5.840806 -12.577851 -1.5200248
-5.9233847 -12.553459 -1.521476
-1.3294184 -2.7724977 -0.30747688
-1.3777277 -2.8286176 -0.31551513
-1.3589361 -2.747067 -0.30636045
-1.3806719 -2.7484457 -0.30758855
-6.3259859 -12.405692 -1.5265
-6.3869109 -12.33752 -1.5228158
-1.4606111 -2.7788672 -0.31473365
-1.4692171 -2.7540696 -0.31272408
-6.6238012 -12.237968 -1.5253836
-6.7317739 -12.257197 -1.5330869
-6.8295889 -12.256461 -1.5383341
-6.909555 -12.222977 -1.5394505
-6.9799747 -12.172591 -1.5384457
-4.9462852 -8.5043821 -1.0673149
-7.1384177 -12.102283 -1.5405669
-7.2212129 -12.072753 -1.5424649
-7.3003073 -12.036714 -1.5435812
-7.3740258 -11.991693 -1.5435812
-7.4506207 -11.951282 -1.5442511
-5.1800423 -8.1964302 -1.05135
-5.2216611 -8.151103 -1.0495638
-5.2694125 -8.1155758 -1.0491172
-5.3491526 -8.1287489 -1.0552576
-5.6332407 -8.4471598 -1.1027055
-8.0273438 -11.878911 -1.5727199
-8.1006413 -11.830253 -1.5728316
-8.1679802 -11.772977 -1.5718268
-8.2423496 -11.725889 -1.5722734
-8.3147202 -11.675904 -1.572385
-8.3896933 -11.629501 -1.5730549
-8.5593939 -11.7126 -1.5918108
-1.7350371 -2.3433425 -0.28961411
-1.7517674 -2.3358328 -0.29006067
-8.7080269 -11.4668 -1.5796418
-8.7776165 -11.412365 -1.5795301
-1.7730929 -2.275753 -0.2861532
-1.6503936 -2.0916197 -0.2613686
-1.7010301 -2.1288164 -0.26817876
-8.5506887 -10.570011 -1.4894347
-8.6273489 -10.531953 -1.4915559
-8.6924438 -10.479583 -1.4916676
-8.7591381 -10.429093 -1.4921142
-8.8454962 -10.401649 -1.4960216
-1.6887565 -1.9608382 -0.25277212
-1.6968381 -1.9459448 -0.25210229
-1.7054584 -1.9317712 -0.25154406
-9.1040602 -10.188107 -1.4970264
-2.4143722 -2.6682763 -0.36631241
-2.4374108 -2.6607401 -0.36742884
-9.2711296 -9.9984007 -1.4939004
-2.4685185 -2.62918 -0.36720556
-2.520201 -2.6514428 -0.37301096
-9.5314493 -9.9069796 -1.506516
-9.587204 -9.8433266 -1.5057346
-9.6432352 -9.7800694 -1.5050646
-3.2514372 -3.2569733 -0.47907123
-9.7738266 -9.6721802 -1.506851
-3.2790802 -3.2050183 -0.4771733
-3.0563483 -2.950825 -0.43932652
-3.3656228 -3.2098074 -0.48454168
-10.031395 -9.4512119 -1.5104235
-10.082651 -9.3833895 -1.5094187
-3.1775923 -2.9206631 -0.44691822
-3.538286 -3.2124226 -0.49894357
-3.5586703 -3.1913152 -0.49905521
-3.572978 -3.1648068 -0.4982737
-3.4233122 -2.9949303 -0.47304255
-3.4107978 -2.9472272 -0.46846521
-3.3902698 -2.8933399 -0.46277145
-10.606905 -8.9414062 -1.5205829
-3.4354482 -2.8597841 -0.46422279
-3.8620543 -3.1750526 -0.52372819
-3.9138639 -3.1776056 -0.52841717
-10.692122 -8.5733433 -1.5017154
-10.716479 -8.4853678 -1.4976963
-10.70963 -8.3735437 -1.4893231
-3.9293139 -3.0332277 -0.51970905
-10.749936 -8.1944971 -1.480615
-10.791281 -8.121809 -1.4793869
-10.846496 -8.0595903 -1.4801685
-10.939813 -8.0252161 -1.4863087
-11.005751 -7.9701805 -1.4886532
-11.076275 -7.9181046 -1.4916676
-11.209904 -7.9101548 -1.5033901
-11.314494 -7.8804135 -1.5110934
-11.446162 -7.8682632 -1.5224808
-11.573171 -7.8514438 -1.5331985
-11.725174 -7.8499465 -1.5472655
-11.863495 -7.837564 -1.5594345
-12.004599 -7.8254056 -1.5719384
-5.7012205 -3.6665375 -0.72356802
-5.7177367 -3.6277592 -0.72278655
-3.1910164 -1.9970524 -0.38495669
-3.3554077 -2.0714138 -0.40505233
-12.191463 -7.4245377 -1.5656865
-3.5006907 -2.1022298 -0.42079389
-12.435558 -7.3655314 -1.5857821
-7.5661683 -4.4187422 -0.94640619
-7.6344743 -4.3960381 -0.95176506
-7.7071061 -4.375114 -0.95768207
-7.8378682 -4.3859797 -0.97107917
-7.9690499 -4.3954034 -0.98447627
-7.8352242 -4.2590899 -0.96393406
-7.8428144 -4.2010794 -0.96158957
-7.9616003 -4.2020497 -0.97342366
-7.9590206 -4.1384473 -0.96985108
-7.914392 -4.0537415 -0.96103138
-7.9045143 -3.9876456 -0.95667732
-7.6627383 -3.8068573 -0.92329621
-7.6761332 -3.7549641 -0.92206818
-8.2460632 -3.9712729 -0.99028164
-8.2262764 -3.8997409 -0.98481119
-8.1545935 -3.8046501 -0.9729771
-8.2527409 -3.7889607 -0.98224342
-5.7699757 -2.6062038 -0.67332894
-5.8058372 -2.5796292 -0.67578506
-8.0797834 -3.5309479 -0.95265818
-8.4080648 -3.6131465 -0.99017
-8.2277746 -3.4760101 -0.96549708
-8.6463327 -3.5904987 -1.0138382
-8.4611855 -3.4528878 -0.98871869
-8.4139585 -3.3735361 -0.98045713
-8.3679276 -3.2956235 -0.9724189
-8.2156029 -3.1775329 -0.95165342
-8.4894924 -3.2237363 -0.98224342
-8.5119066 -3.1726263 -0.98257834
-8.5405464 -3.1237524 -0.98369473
-8.3603239 -2.999794 -0.95991492
-8.5997963 -3.0262997 -0.98626256
-8.5749912 -2.958564 -0.98112696
-8.5854521 -2.9033461 -0.98023385
-7.8126206 -2.5886486 -0.88667756
-7.8491516 -2.5474122 -0.88913369
-8.790863 -2.7935872 -0.99831992
-8.7888613 -2.733691 -0.99608707
-8.7408228 -2.6600356 -0.98849541
-8.7379313 -2.6006823 -0.98626256
-8.8224239 -2.5670109 -0.99430078
-8.9355059 -2.5405543 -1.0056883
-8.9758205 -2.4925938 -1.0085911
-8.8125505 -2.3891003 -0.98782551
-8.8356905 -2.3372703 -0.98883033
-9.0990839 -2.3473144 -1.0177457
-9.0612736 -2.2783515 -1.011717
-9.0895605 -2.2262566 -1.0133916
-9.0875835 -2.1667538 -1.0116054
-9.1142597 -2.1140969 -1.0131683
-9.1086416 -2.0539787 -1.0110471
-9.4219971 -2.0639842 -1.0456563
-9.2507744 -1.9670613 -1.0245559
-9.419364 -1.942585 -1.0425303
-9.4837275 -1.8952707 -1.048559
-9.7527494 -1.8868877 -1.0780326
-10.142161 -1.8977586 -1.1212381
-10.352126 -1.8713852 -1.1439016
-10.819609 -1.8874288 -1.1959269
-11.37292 -1.9121406 -1.2576652
-11.977931 -1.9383868 -1.3252088
-13.211129 -2.0548925 -1.4640919
-13.575351 -2.0263231 -1.5040599
-14.647014 -2.0945241 -1.6242987
-15.356674 -2.0999537 -1.7033415
-15.899409 -2.0748847 -1.7634051
-17.060719 -2.1200833 -1.8934685
-17.409937 -2.0550933 -1.9315386
-17.372839 -1.9427062 -1.9259564
-17.379492 -1.83555 -1.9253982
-17.408226 -1.7306468 -1.9274077
-17.409613 -1.622969 -1.9264029
-17.443003 -1.5181836 -1.9290824
-17.449018 -1.4108864 -1.9287474
-17.451401 -1.3033504 -1.9280776
-17.448164 -1.1954987 -1.9268496
-17.451204 -1.0881689 -1.9264029
-17.448624 -0.98056769 -1.9253982
-17.459274 -0.87373495 -1.9259564
-17.466291 -0.76667762 -1.9261796
-17.464708 -0.65926701 -1.9255098
-17.458492 -0.55177903 -1.9243934
-15.556653 1.1467026 -1.9103212
-15.540421 1.241423 -1.9092057
-15.523614 1.3359874 -1.9080901
-15.503267 1.4301188 -1.9066027
-15.48235 1.5240507 -1.9051154
-15.457904 1.6174699 -1.9032562
-15.425005 1.7097713 -1.9004054
-15.416195 1.804616 -1.9006532
-15.402863 1.898931 -1.9004054
-15.393872 1.9937881 -1.9007772
-15.377417 2.0876713 -1.9002814
-15.36137 2.1815672 -1.8999096
-15.342787 2.2750537 -1.8992898
-15.309907 2.3662713 -1.8969349
-15.289221 2.4592206 -1.8961911
-15.267972 2.5520053 -1.8954475
-15.240294 2.6436038 -1.8939601
-15.219879 2.7363641 -1.8934643
-15.189145 2.8271568 -1.891729
-15.174436 2.9208653 -1.8921009
-15.144549 3.0115957 -1.8906136
-15.105373 3.1002731 -1.8880106
-15.034615 3.1820061 -1.8814414
-15.025472 3.2765234 -1.8828048
-15.02348 3.3727875 -1.8851599
-14.987033 3.4613323 -1.8831767
-14.974201 3.5552895 -1.8842921
-14.949213 3.6463971 -1.8839203
-14.904419 3.7325091 -1.8810695
-14.877392 3.8229024 -1.8805737
-14.855574 3.9146223 -1.8808216
-14.83798 4.0075126 -1.8816893
-14.816936 4.0995398 -1.8821851
-14.781957 4.1876721 -1.8809456
-14.7455 4.2752533 -1.8795822
-14.706623 4.3619804 -1.8779708
-14.663439 4.4472394 -1.8758637
-14.631136 4.5356593 -1.875244
-14.598301 4.6238503 -1.8746243
-14.558326 4.709671 -1.8731369
-14.534806 4.8007784 -1.8738805
-14.500375 4.8882866 -1.8732609
-14.46917 4.9768443 -1.8731369
-14.422442 5.0599461 -1.8710297
-14.392992 5.149014 -1.8712777
-14.351806 5.2338305 -1.8700382
-14.31198 5.3190269 -1.8690466
-14.283713 5.4085007 -1.8696663
-14.255814 5.4981847 -1.87041
-14.223657 5.5862789 -1.8706579
-14.209381 5.6815548 -1.8733847
-14.205501 5.7813554 -1.877599
-14.18076 5.8729668 -1.8790864
-14.152687 5.963336 -1.8802019
-14.13407 6.0578823 -1.8826809
-14.108459 6.1496487 -1.8842921
-14.08951 6.2445459 -1.8868951
-14.065404 6.3374028 -1.8888782
-14.044296 6.4318519 -1.8913572
-14.026157 6.5279555 -1.8943319
-14.005572 6.6232295 -1.8970588
-13.973613 6.7133393 -1.8982983
-13.96426 6.8146224 -1.9027604
-13.943521 6.9107547 -1.9057351
-13.9239 7.0077806 -1.9089578
-13.893892 7.0998578 -1.910817
-13.877371 7.1991429 -1.9146594
-13.827668 7.281383 -1.9139158
-13.811609 7.3815274 -1.9180059
-13.793096 7.4808025 -1.9218484
-13.783445 7.5853906 -1.9270542
-13.754836 7.6799817 -1.9296571
-13.732491 7.7784195 -1.9332516
-13.699132 7.8709388 -1.9353586
-13.657437 7.9588442 -1.9363502
-13.619451 8.0490589 -1.9379616
-13.585126 8.1416578 -1.9401927
-13.568831 8.2454758 -1.9451506
-13.550085 8.3483591 -1.9498606
-13.538158 8.4560528 -1.9556861
-13.508654 8.553297 -1.9590328
-13.460093 8.6387033 -1.9596524
-13.426795 8.7341175 -1.9626272
-13.386206 8.825078 -1.9646103
-13.356555 8.9235868 -1.9683288
-13.33195 9.025959 -1.9729149
-13.280408 9.1103992 -1.9735346
-13.23485 9.1990776 -1.9751459
-13.181401 9.2823973 -1.9756417
-13.135506 9.371172 -1.9773771
-13.084191 9.4562435 -1.9783686
-13.057147 9.5592108 -1.9832026
-13.014984 9.6515617 -1.9858055
-12.973765 9.7449465 -1.9886563
-12.941366 9.8453989 -1.9929944
-12.893288 9.9343109 -1.9949776
-12.839912 10.019341 -1.9962171
-12.788313 10.105935 -1.9978284
-12.750079 10.203435 -2.0016708
-12.690316 10.283975 -2.0021665
-12.672997 10.399419 -2.0096035
-12.625739 10.490935 -2.0123303
-12.578593 10.582903 -2.0151811
-12.531549 10.675329 -2.0181558
-12.470318 10.755909 -2.0188994
-12.410812 10.838098 -2.020015
-12.346308 10.916017 -2.0203869
-12.288707 11.000172 -2.0219982
-12.238626 11.09136 -2.0249729
-12.191542 11.185701 -2.0285676
-12.155393 11.290689 -2.0341451
-12.087331 11.36642 -2.0343931
-12.033171 11.455425 -2.0371199
-11.969085 11.535242 -2.0382354
-11.891689 11.602228 -2.0371199
-11.845689 11.700081 -2.0415821
-11.790515 11.789385 -2.0445569
-11.726322 11.869979 -2.0460441
-11.6699 11.958753 -2.0490189
-11.601123 12.035134 -2.0498865
-11.532533 12.11184 -2.050878
-11.466836 12.191772 -2.0524895
-11.405319 12.276442 -2.0549684
-11.343865 12.361547 -2.0575712
-11.281796 12.446359 -2.0601742
-11.219113 12.530874 -2.062777
-11.143987 12.601707 -2.063149
-11.071023 12.67508 -2.0640166
-10.992393 12.742021 -2.0638926
-10.906281 12.800164 -2.0624053
-10.832646 12.872917 -2.0633969
-10.752822 12.93838 -2.063273
-10.680155 13.012552 -2.0646362
-10.592613 13.068588 -2.063149
-10.493626 13.110096 -2.0594306
-10.393298 13.149323 -2.0554643
-10.297769 13.194074 -2.0524895
-10.202082 13.238147 -2.0495148
