# .PCD v0.7 - Point Cloud Data file format
VERSION 0.7
FIELDS x y z
SIZE 4 4 4
TYPE F F F
COUNT 1 1 1
WIDTH 1519
HEIGHT 1
VIEWPOINT 0 0 0 1 0 0 0
POINTS 1519
DATA ascii
3.8235853 -4.2156539 -1.6514744
3.8219454 -4.26617 -1.6623051
3.7772803 -4.2687197 -1.6540395
3.7642601 -4.3069749 -1.6600249
3.7289953 -4.3198314 -1.6560347
3.7248013 -4.3688936 -1.6662953
3.702862 -4.3975334 -1.6685755
3.670295 -4.4135365 -1.6660104
3.6595662 -4.4559774 -1.6737058
3.6303451 -4.4761143 -1.6728508
3.5986185 -4.4930677 -1.6708556
3.5733595 -4.5180717 -1.6719958
2.0096571 -2.5724413 -0.92980558
1.990324 -2.580169 -0.92809546
1.9698108 -2.5862308 -0.92581528
1.9492984 -2.5921383 -0.92353517
1.9310721 -2.600971 -0.92239505
1.9094129 -2.6050379 -0.91954488
1.6996342 -2.3487244 -0.82121325
1.6885318 -2.36379 -0.82292336
1.6651634 -2.3615687 -0.81836307
3.2748084 -4.7074418 -1.6643002
3.2507439 -4.73456 -1.6668653
3.2194819 -4.7512426 -1.6657254
3.1801479 -4.7557664 -1.6603099
3.1392968 -4.7575865 -1.6540395
3.1157968 -4.7855964 -1.6571747
3.0936246 -4.8159165 -1.661165
3.0711975 -4.8461442 -1.6651553
3.0398805 -4.8624592 -1.6643002
3.0034494 -4.8704123 -1.6605949
2.9759982 -4.8928447 -1.6620201
2.947892 -4.9143009 -1.6631601
2.9152436 -4.9281712 -1.6617351
2.8883295 -4.9517622 -1.6637301
2.8516817 -4.9585886 -1.6600249
2.8178947 -4.9701552 -1.6580298
2.7836056 -4.9806576 -1.6557497
2.7460577 -4.9850488 -1.6514744
2.7053611 -4.9832697 -1.6452039
2.6765413 -5.0031567 -1.6463439
2.6422179 -5.0127015 -1.6440638
2.6175928 -5.04073 -1.6480541
2.5743966 -5.0327997 -1.6400735
1.5338477 -3.0434935 -0.97255844
1.515996 -3.0545652 -0.9731285
1.4976455 -3.064671 -0.97341353
2.4621527 -5.1195159 -1.6483392
2.4401226 -5.1544547 -1.6548946
2.4048078 -5.16151 -1.6523294
2.3663042 -5.1613545 -1.6474841
2.3349841 -5.1766505 -1.6477691
2.2996798 -5.1829944 -1.6452039
2.2640023 -5.188221 -1.6423538
2.2306142 -5.1984916 -1.6412137
2.2031434 -5.2226791 -1.6446339
2.1710563 -5.2360992 -1.6446339
2.129488 -5.2262406 -1.6372234
2.0984485 -5.2418785 -1.6380785
2.0637915 -5.2484107 -1.6360834
2.0360353 -5.2726002 -1.6397885
2.0026259 -5.2823048 -1.6389335
1.9751883 -5.3079696 -1.6432087
1.9323958 -5.2920756 -1.6343732
1.906672 -5.3227839 -1.6403586
1.8800088 -5.3515668 -1.645774
1.8505684 -5.3729711 -1.6489092
1.813889 -5.3733263 -1.645489
1.7796814 -5.3807144 -1.6443489
1.7466326 -5.3915329 -1.6443489
1.7117801 -5.3966665 -1.6426388
1.6738064 -5.3915048 -1.6377934
1.6420852 -5.4062595 -1.6392186
1.6050636 -5.4033689 -1.6352283
1.5758855 -5.4269242 -1.6395035
1.5417725 -5.4337249 -1.6386485
1.513007 -5.4597106 -1.6437788
1.4697238 -5.4328041 -1.6326631
1.440761 -5.4584026 -1.6377934
1.4058092 -5.4615703 -1.6360834
1.3736694 -5.4756722 -1.6377934
1.3430009 -5.4961028 -1.6414987
1.3085872 -5.5014424 -1.6406436
1.2752382 -5.5112357 -1.6412137
1.240137 -5.5133457 -1.6395035
0.75902671 -3.4718513 -1.0158814
0.73651755 -3.4708171 -1.0141712
0.71771497 -3.4874768 -1.0178765
0.69517982 -3.4861746 -1.0161664
0.67250639 -3.4837861 -1.0141712
0.65129322 -3.4887891 -1.0144563
0.63140237 -3.50121 -1.0170214
0.61154765 -3.5144622 -1.0198717
0.59376901 -3.5408373 -1.0267122
0.57416546 -3.5576625 -1.0307024
0.55540395 -3.5810108 -1.0366879
0.53891158 -3.6213281 -1.0478035
0.52073044 -3.6530359 -1.0563542
0.4949483 -3.6314678 -1.0489436
0.4678475 -3.5973647 -1.0378278
0.44106653 -3.5621159 -1.0264271
0.41574067 -3.5352433 -1.0175915
0.39890763 -3.5815501 -1.0307024
0.38052228 -3.6182492 -1.0409631
0.35643202 -3.601438 -1.0352627
0.33362135 -3.5959215 -1.0329826
0.31361052 -3.6217754 -1.0401081
0.2916114 -3.6264977 -1.0409631
0.26730502 -3.6004972 -1.0326976
0.24443023 -3.5905938 -1.0292773
0.22192277 -3.5843723 -1.0269971
0.20072109 -3.6000223 -1.0312724
0.17839208 -3.5963993 -1.0298474
0.15681729 -3.6089177 -1.0332676
0.13442244 -3.603107 -1.0312724
0.11237076 -3.6057801 -1.0318425
0.090457015 -3.6150258 -1.0344076
0.0683273 -3.6183879 -1.0352627
0.046040643 -3.6120298 -1.0332676
0.023822529 -3.6036179 -1.0307024
0.0017143569 -3.6276591 -1.0378278
-0.020470019 -3.6151409 -1.0341226
-0.042918891 -3.6369915 -1.040678
-0.065584183 -3.655827 -1.0463785
-0.090586148 -3.7607617 -1.0777305
-0.11371855 -3.7620513 -1.0783006
-0.13377838 -3.6789052 -1.0537889
-0.15577506 -3.6646082 -1.0497987
-0.17741378 -3.6463506 -1.0446683
-0.19725156 -3.5992541 -1.0309874
-0.21780804 -3.573101 -1.0235769
-0.23882507 -3.5583086 -1.0195867
-0.26121688 -3.5644236 -1.0218668
-0.28178692 -3.5465105 -1.0170214
-0.30616957 -3.5752747 -1.0261421
-0.32862899 -3.5790555 -1.0278522
-0.3512401 -3.5836492 -1.0298474
-0.3752155 -3.6004932 -1.0355477
-0.39877772 -3.6114609 -1.039538
-0.4224886 -3.6222744 -1.0435283
-0.44693309 -3.6376894 -1.0489436
-0.46986023 -3.6396315 -1.0503687
-0.49501851 -3.6575761 -1.0566392
-0.54640764 -3.8585076 -1.1179183
-0.53087336 -3.590543 -1.0383979
-0.54279882 -3.5218554 -1.0187316
-0.57306939 -3.5724018 -1.0349777
-0.59071434 -3.5432918 -1.0272821
-0.61211699 -3.5377116 -1.0267122
-0.64686537 -3.6065319 -1.0486586
-0.66968369 -3.6062644 -1.0497987
-0.69107437 -3.5983224 -1.0486586
-0.70959002 -3.5761516 -1.0432433
-0.73094165 -3.5689135 -1.0423882
-0.75163609 -3.5587347 -1.040678
-0.77060014 -3.5409443 -1.0366879
-0.79231244 -3.5361493 -1.0366879
-0.81140769 -3.5200138 -1.0332676
-0.83276945 -3.5140362 -1.0329826
-0.86067289 -3.534935 -1.0409631
-0.91935545 -3.6774306 -1.0862812
-0.94333321 -3.6772907 -1.0879912
-0.79277462 -3.0142574 -0.8859126
-0.81200433 -3.0121126 -0.88676769
-0.82995999 -3.0052259 -0.88619763
-0.85099584 -3.0092993 -0.8890478
-0.86597574 -2.9920528 -0.8853426
-1.0712332 -3.6171031 -1.0808657
-1.101194 -3.6361461 -1.0888463
-1.1314286 -3.6549568 -1.0968269
-1.1587524 -3.6634803 -1.1016722
-1.1806195 -3.6544774 -1.1011021
-1.1958079 -3.62532 -1.0942616
-1.074464 -3.1919084 -0.96058768
-1.088107 -3.1680334 -0.9551723
-1.1030838 -3.1486342 -0.95118201
-1.1304523 -3.1643698 -0.9583075
-1.1248956 -3.0889328 -0.93664604
-1.1414909 -3.0756829 -0.9346509
-1.1610202 -3.0704138 -0.93522096
-1.1846657 -3.075753 -0.93921119
-1.2112226 -3.0880549 -0.94548166
-1.3813542 -3.4588349 -1.0666149
-1.4014674 -3.4476304 -1.0657598
-1.4181952 -3.428339 -1.0623395
-1.4380882 -3.4169226 -1.0614845
-1.4586494 -3.4071531 -1.0611994
-1.4776133 -3.3937454 -1.0597744
-1.5003506 -3.3889968 -1.0611994
-1.5254472 -3.3893404 -1.0643346
-1.5482103 -3.3842742 -1.0657598
-1.5729902 -3.3834014 -1.06861
-1.5822495 -3.3494225 -1.0606294
-1.6251812 -3.3863084 -1.0760205
-1.6270156 -3.3375068 -1.0631946
-1.6321429 -3.2965417 -1.0529339
-1.6385528 -3.2590652 -1.0438132
-1.6476173 -3.2276103 -1.0366879
-1.6806297 -3.2429667 -1.0452384
-1.7125525 -3.2554939 -1.0529339
-1.7216545 -3.2246349 -1.0460935
-1.728615 -3.1904168 -1.0381129
-1.7777301 -3.2334976 -1.0563542
-1.7989386 -3.2250395 -1.0572091
-1.8177485 -3.2122726 -1.0566392
-1.8135527 -3.1595008 -1.0423882
-1.8401428 -3.1607368 -1.0466635
-1.8521881 -3.137008 -1.0423882
-1.8704163 -3.1239395 -1.0418181
-1.8581947 -3.0607953 -1.0238619
-1.8874973 -3.0664744 -1.0298474
-1.9123697 -3.0645914 -1.0332676
-1.9275489 -3.0471306 -1.0312724
-1.9575976 -3.052994 -1.0375428
-2.0113068 -3.0947618 -1.0566392
-2.0265653 -3.0767603 -1.054644
-2.0555215 -3.0794117 -1.0600594
-2.1157486 -3.1278625 -1.0820059
-2.1278532 -3.1045456 -1.0783006
-2.0784891 -2.9930398 -1.0426732
-2.1084027 -2.9966891 -1.0486586
-2.1601467 -3.0305171 -1.0657598
-2.1691575 -3.0039978 -1.0609144
-2.1971731 -3.0037806 -1.0657598
-2.1961529 -2.9640632 -1.0560691
-2.1993334 -2.930604 -1.0486586
-2.2021866 -2.897218 -1.0412481
-2.2169974 -2.8798544 -1.0398231
-2.2263718 -2.8556168 -1.0358328
-2.2301846 -2.8246038 -1.0292773
-2.2486715 -2.8123634 -1.0298474
-2.2604549 -2.79181 -1.0272821
-2.2738948 -2.7734413 -1.0255721
-2.3110821 -2.7837675 -1.0349777
-2.3077581 -2.7453282 -1.0255721
-2.3444476 -2.7544677 -1.0346926
-2.3631825 -2.7422082 -1.0355477
-2.3976154 -2.7478735 -1.0435283
-2.4087176 -2.7266469 -1.0409631
-2.4247634 -2.7111018 -1.040678
-2.4748197 -2.733109 -1.0554991
-2.459146 -2.6825547 -1.0412481
-2.4886048 -2.6814625 -1.0469484
-2.5463746 -2.7101381 -1.0649047
-2.5563474 -2.6875198 -1.0620545
-2.5634785 -2.6621203 -1.0580642
-2.5623627 -2.6285014 -1.0506537
-2.5851777 -2.6195498 -1.053504
-2.5530875 -2.5555086 -1.0332676
-2.5953107 -2.5660696 -1.0443833
-2.5945444 -2.5340285 -1.0375428
-2.612114 -2.520057 -1.0383979
-2.6545978 -2.5297625 -1.0495137
-2.6805425 -2.5232782 -1.0537889
-2.685442 -2.4969962 -1.0495137
-2.7084804 -2.4876013 -1.0526489
-2.7286639 -2.4754422 -1.054644
-2.7459438 -2.4605711 -1.0554991
-2.7688875 -2.4506617 -1.0586343
-2.7889252 -2.4380403 -1.0606294
-2.8009295 -2.4183772 -1.0594894
-2.8098793 -2.3961716 -1.0572091
-2.8083956 -2.3653061 -1.0509387
-2.8132737 -2.3400643 -1.0472335
-2.8246157 -2.3203254 -1.0460935
-2.8432672 -2.306572 -1.0478035
-2.8685904 -2.2980685 -1.0520788
-2.9006834 -2.2946908 -1.0589193
-2.8897753 -2.257385 -1.0495137
-2.8990169 -2.2361002 -1.0478035
-2.8966653 -2.2060792 -1.0418181
-2.9032505 -2.1830816 -1.039253
-2.9535415 -2.1926398 -1.0529339
-3.0798407 -2.2571666 -1.0945467
-3.0066359 -2.1753252 -1.0626246
-3.1572397 -2.2548401 -1.112788
-3.0370221 -2.1410255 -1.0640496
-3.0351498 -2.1119533 -1.0586343
-3.0670185 -2.1063073 -1.0654747
-3.0949636 -2.097662 -1.0708901
-3.0966198 -2.0711749 -1.0668999
-3.099668 -2.0458026 -1.0634797
-3.0912747 -2.0131512 -1.0560691
-3.1616421 -2.0314336 -1.0765905
-3.159472 -2.0027633 -1.0714601
-3.1530054 -1.9716564 -1.0649047
-3.1854429 -1.9648467 -1.0720302
-3.172049 -1.9298282 -1.0631946
-3.1928732 -1.9157504 -1.0663298
-3.0709043 -1.8170915 -1.0201566
-3.1846757 -1.8580791 -1.0554991
-3.217623 -1.8509232 -1.0629096
-3.2330892 -1.8335084 -1.0643346
-3.2166638 -1.7982099 -1.054929
-3.2578647 -1.7950822 -1.0651897
-3.2797699 -1.7810016 -1.068895
-3.3176849 -1.7753068 -1.0780156
-3.3658288 -1.7745748 -1.0905564
-3.4379084 -1.7856817 -1.1110778
-3.506835 -1.7942245 -1.1304592
-3.5614395 -1.7946589 -1.1449951
-3.5311649 -1.7523327 -1.1313142
-3.5892239 -1.7537633 -1.1469903
-3.6189232 -1.7408431 -1.1532607
-3.6719916 -1.7386926 -1.1672267
-3.7494986 -1.7472855 -1.1891731
-3.8011048 -1.7430127 -1.202569
-3.8327 -1.7291112 -1.2094095
-3.9361179 -1.7467498 -1.2396215
-5.0564313 -2.2065251 -1.5996008
-4.0048275 -1.7187163 -1.2550125
-4.1769295 -1.7622548 -1.3071711
-4.2080307 -1.7450323 -1.3137265
-4.2763615 -1.7426773 -1.3322527
-4.3163419 -1.7281549 -1.3416584
-4.3455987 -1.7090001 -1.3476439
-4.4373789 -1.7137083 -1.3735806
-4.5087619 -1.7095423 -1.3929619
-4.5524077 -1.6942067 -1.4035076
-4.590631 -1.676428 -1.4123431
-4.6297092 -1.6585665 -1.4214638
-4.9147387 -1.7266512 -1.5081097
-4.8889871 -1.6839842 -1.4967089
-5.0490866 -1.7045083 -1.5437371
-5.2123466 -1.7240317 -1.5916203
-5.2282982 -1.6937882 -1.5933304
-5.4396114 -1.7253922 -1.6560347
-5.5626998 -1.7269157 -1.691092
-5.6080451 -1.7033298 -1.7019228
-5.6579032 -1.6806157 -1.7141786
-5.7417531 -1.6672364 -1.7369801
-5.7998281 -1.6455699 -1.7518011
-5.8763266 -1.6283689 -1.7723225
-5.9916935 -1.6207951 -1.8048147
-6.1136723 -1.613577 -1.8393021
-6.349966 -1.6342875 -1.9088467
-6.4416933 -1.6158019 -1.9339285
-6.4626603 -1.578974 -1.9373487
-6.4535761 -1.5348579 -1.9316483
-6.4703436 -1.4969577 -1.9339285
-6.5027871 -1.4624821 -1.9410539
-6.5041466 -1.4209189 -1.9387738
-6.5155559 -1.3815795 -1.9396288
-6.5473828 -1.3463974 -1.9467543
-6.5630417 -1.3076953 -1.9490345
-6.5445881 -1.2623222 -1.9410539
-6.5437298 -1.2205613 -1.9384887
-6.5482655 -1.1798773 -1.9376336
-6.5667148 -1.1416439 -1.9410539
-6.585886 -1.1033866 -1.9447591
-6.5840154 -1.0615839 -1.942194
-6.6017718 -1.0229244 -1.9456142
-6.6098204 -0.98267901 -1.9461843
-6.6223683 -0.94304818 -1.9481794
-6.6232815 -0.90175062 -1.9467543
-6.6210852 -0.86010742 -1.9444741
-6.6290917 -0.81981748 -1.9453292
-6.6378055 -0.77957326 -1.9464693
-6.6291265 -0.73734862 -1.942479
-6.6430593 -0.69765866 -1.9453292
-6.6357679 -0.65575534 -1.941909
-6.646348 -0.6156444 -1.9439042
-6.6557302 -0.57534587 -1.9456142
-6.6734672 -0.53564411 -1.9498895
-6.6794958 -0.49489835 -1.9507446
-6.6757126 -0.45345089 -1.9487494
-6.6984601 -0.41371834 -1.9547348
-6.7142711 -0.37335229 -1.9587251
-6.6752691 -0.3301186 -1.9464693
-6.6771688 -0.2891537 -1.9464693
-6.6816912 -0.24828419 -1.9473244
-6.6888371 -0.20745873 -1.9490345
-6.6717777 -0.16596317 -1.9436191
-0 -0 -0
-6.6886473 -0.084268235 -1.9481794
-6.6842461 -0.043195743 -1.9467543
-0 -0 -0
-6.689065 0.038862165 -1.9481794
-6.6599474 0.079556279 -1.9396288
-6.6555004 0.12034946 -1.9384887
-6.6268477 0.16050665 -1.9302232
-6.6343608 0.2014285 -1.9327884
-6.6339579 0.24216752 -1.9330734
-6.6304317 0.28278613 -1.9325033
-6.6151686 0.32280797 -1.9285131
-6.6063638 0.36302248 -1.926518
-6.62219 0.40466553 -1.9319333
-6.6214948 0.44541991 -1.9325033
-0 -0 -0
-0 -0 -0
-0 -0 -0
-0 -0 -0
-0 -0 -0
-0 0 -0
-6.4235635 0.074327327 -1.947487
-0 0 -0
-0 0 -0
-6.3886423 0.19158001 -1.9374329
-6.3997569 0.231224 -1.9412771
-6.3934455 0.27028638 -1.9397986
-6.4021626 0.31001833 -1.9430513
-6.3762932 0.34799546 -1.9356587
-6.3912015 0.38815442 -1.9409814
-6.3829803 0.42698058 -1.9392072
-6.3649964 0.46502501 -1.9344758
-6.3591666 0.50384498 -1.9335887
-6.3473887 0.5421235 -1.9309273
-6.3553586 0.58210498 -1.9344758
-0 0 -0
-0 0 -0
-0 0 -0
-0 0 -0
-0 0 -0
-0 0 -0
-0 0 -0
-0 0 -0
-6.3400021 0.93590772 -1.9427556
-6.2878757 0.96767473 -1.9282659
-6.2705007 1.0044258 -1.9247174
-6.2661042 1.0431956 -1.9253088
-6.2558203 1.0809736 -1.924126
-6.2481294 1.11917 -1.9238303
-6.2411447 1.1574867 -1.9238303
-6.2329869 1.1955799 -1.9235346
-6.2208481 1.232874 -1.9220561
-6.2112942 1.2706385 -1.9214647
-6.2080545 1.3097119 -1.9229432
-6.2092361 1.3498079 -1.9259002
-6.1989727 1.3874645 -1.9253088
-6.1670694 1.4201169 -1.9179162
-6.1666059 1.4599108 -1.9205775
-6.1547475 1.4970436 -1.9196904
-6.1102266 1.5259869 -1.9084535
-6.1035242 1.5641611 -1.9093406
-6.0891924 1.6003683 -1.9078621
-6.1041632 1.6444082 -1.9158462
-6.0902748 1.6808155 -1.9146633
-6.0853629 1.7197114 -1.9164376
-6.0792847 1.7583449 -1.9179162
-6.0564728 1.7920908 -1.9140719
-6.0590777 1.8333679 -1.9185076
-6.0422387 1.8688179 -1.9167334
-6.0078859 1.8986621 -1.9093406
-6.023396 1.9442917 -1.9182118
-6.0131674 1.9818119 -1.9188033
-5.9900284 2.0150163 -1.9152548
-5.9883947 2.0554535 -1.9188033
-5.9621453 2.0874248 -1.9143677
-5.9492249 2.1239684 -1.9143677
-5.9199219 2.1545525 -1.9090449
-5.9280868 2.1988077 -1.9161419
-5.9261003 2.2395296 -1.9199861
-5.8917422 2.2679577 -1.9131849
-5.8563695 2.2956998 -1.9060879
-5.8421731 2.3315907 -1.9060879
-5.8507686 2.37674 -1.9137763
-5.8237152 2.4074864 -1.9096364
-5.8149977 2.4457669 -1.9117063
-5.7954898 2.4795225 -1.9102278
-5.7845464 2.5169415 -1.9117063
-5.7724881 2.5539334 -1.9128891
-5.7575803 2.5896964 -1.9131849
-5.7398443 2.6241813 -1.9125934
-5.7227678 2.6589484 -1.9122977
-5.7201672 2.700537 -1.917029
-5.6604218 2.714931 -1.9022436
-5.6737146 2.7642536 -1.9125934
-5.6617842 2.8015566 -1.9143677
-5.6316833 2.8298111 -1.909932
-5.6133633 2.8638792 -1.9096364
-5.6050162 2.9031005 -1.9128891
-5.583715 2.9356594 -1.9117063
-5.5655971 2.9698653 -1.9117063
-5.5397091 2.9998658 -1.9090449
-5.5211983 3.0338004 -1.9090449
-5.4941349 3.0629694 -1.9060879
-5.4769006 3.0975637 -1.9066793
-5.4577913 3.1311109 -1.9066793
-5.4384766 3.1645403 -1.9066793
-5.4255385 3.2017343 -1.9090449
-5.3984132 3.2305501 -1.9063835
-5.3923736 3.272037 -1.9114106
-5.3738227 3.3060634 -1.912002
-5.3574886 3.3415017 -1.9134805
-5.3191209 3.3630817 -1.9069749
-5.3088412 3.4023561 -1.9108192
-5.2782512 3.4286227 -1.9072707
-5.2730727 3.4714494 -1.9131849
-5.2389579 3.4952571 -1.9084535
-5.2150388 3.525732 -1.9075664
-5.1917305 3.5565848 -1.9069749
-5.1729493 3.5905526 -1.9081578
-5.1390991 3.6139836 -1.9037222
-5.1090469 3.6399059 -1.9007651
-5.0858421 3.6706271 -1.9004694
-5.0593677 3.6989453 -1.8989909
-5.0457888 3.7367411 -1.9025394
-5.0242944 3.7687774 -1.9031308
-5.0033569 3.8012686 -1.9040179
-4.9806957 3.8324795 -1.9043136
-4.9759245 3.8776469 -1.9117063
-4.9497886 3.9063303 -1.9108192
-4.9234877 3.934839 -1.909932
-4.8910828 3.958365 -1.9066793
-4.8674412 3.9889069 -1.9069749
-4.8450799 4.0205278 -1.9078621
-4.8173933 4.0477233 -1.9066793
-4.7822795 4.0685406 -1.9025394
-4.7608447 4.1009245 -1.9040179
-4.7276721 4.1231532 -1.9007651
-4.6994195 4.1495547 -1.8995823
-4.6760068 4.1802216 -1.9004694
-4.6509776 4.2094755 -1.9007651
-4.6264701 4.2392249 -1.9013565
-4.6143789 4.2805252 -1.9072707
-4.5740995 4.2956796 -1.9013565
-4.5615029 4.3368282 -1.9072707
-4.5320535 4.3620858 -1.9060879
-4.5010977 4.3858123 -1.9043136
-4.4584589 4.3979192 -1.8975123
-4.42801 4.4218183 -1.8960338
-4.4061699 4.4543376 -1.8983995
-4.3774199 4.4799228 -1.897808
-4.3525033 4.5094471 -1.8989909
-4.3366179 4.5485129 -1.9043136
-4.2974925 4.5632148 -1.8992865
-4.2746181 4.5950933 -1.9016522
-4.2372932 4.6113877 -1.8975123
-4.2172651 4.6464958 -1.9013565
-4.1848493 4.6680174 -1.8995823
-4.1516948 4.6886015 -1.8975123
-4.1247344 4.7161446 -1.8983995
-4.1025887 4.7493162 -1.9016522
-4.0690298 4.7693129 -1.8995823
-4.035996 4.7898073 -1.897808
-4.0022526 4.8093419 -1.895738
-3.9678147 4.8279052 -1.8933724
-3.9417288 4.8566103 -1.8951466
-3.9076726 4.8754873 -1.8930767
-3.8806481 4.9031177 -1.8945552
-3.8510785 4.9275889 -1.894851
-3.8190198 4.9488573 -1.8939638
-3.7984257 4.9851141 -1.8989909
-3.7522588 4.9877167 -1.8910067
-3.7381039 5.0328851 -1.8995823
-3.7031977 5.0503345 -1.8975123
-3.6777418 5.0806994 -1.9004694
-3.6442761 5.1000614 -1.8992865
-3.6030023 5.1082754 -1.8939638
-3.559582 5.1130395 -1.8874582
-3.5335524 5.1426573 -1.8904153
-3.4997861 5.1610799 -1.8892325
-3.4744287 5.1919832 -1.892781
-3.4372413 5.2052331 -1.8898239
-3.4078455 5.2302275 -1.8913025
-3.3803389 5.2582707 -1.8939638
-3.3469877 5.2772999 -1.8933724
-3.3191044 5.3050256 -1.8960338
-3.2799683 5.3147235 -1.8921895
-3.2482893 5.336381 -1.892781
-3.2179437 5.3603067 -1.8942596
-3.1840193 5.3783064 -1.8936681
-3.1490321 5.3944421 -1.8924853
-3.1163497 5.4144907 -1.892781
-3.0854259 5.4376645 -1.8942596
-3.0515366 5.4556603 -1.8939638
-3.0180037 5.4742813 -1.8939638
-2.9829891 5.4901781 -1.8930767
-2.9510496 5.5117469 -1.8942596
-2.916729 5.5289054 -1.8939638
-2.8796651 5.5407648 -1.8918939
-2.8447425 5.5566292 -1.8913025
-2.8011308 5.5552149 -1.8847969
-2.7635927 5.5654531 -1.8824311
-2.726454 5.5762982 -1.8803612
-2.6917729 5.5920615 -1.8800656
-2.6570008 5.6076097 -1.8797698
-2.6249659 5.6290016 -1.8815441
-2.5911746 5.6467385 -1.8821355
-2.5549054 5.659049 -1.8809526
-2.5143173 5.6615233 -1.8765171
-2.4757073 5.6680903 -1.87356
-2.4382427 5.6770306 -1.87149
-2.4026198 5.690124 -1.8708986
-2.3720555 5.7153468 -1.8744471
-2.3318908 5.7174106 -1.8703072
-2.2967656 5.7316113 -1.8703072
-2.2619038 5.7464848 -1.8706028
-2.2417583 5.7994599 -1.8836141
-2.2146065 5.8354335 -1.8910067
-2.1810939 5.8551784 -1.8930767
-2.1428301 5.8621707 -1.8910067
-2.1006925 5.8581238 -1.8853883
-2.0672441 5.8781123 -1.887754
-2.0320721 5.8933949 -1.8886411
-2.0004611 5.9193273 -1.8930767
-1.9601988 5.9197016 -1.8892325
-1.9211862 5.92344 -1.886571
-1.8833586 5.9305644 -1.8850926
-1.846083 5.9392719 -1.8842055
-1.8079376 5.945004 -1.8824311
-1.7703362 5.952323 -1.8812484
-1.732713 5.9594045 -1.8800656
-1.6948085 5.9653296 -1.878587
-1.6645612 5.9986281 -1.8859797
-1.6169801 5.9690819 -1.8732642
-1.5874051 6.0056739 -1.8818398
-1.542416 5.98385 -1.8717858
-1.5070677 5.9987602 -1.87356
-1.4706858 6.0097504 -1.8741513
-1.4313473 6.0084391 -1.8708986
-1.3927274 6.0096641 -1.8685329
-1.3568766 6.0227561 -1.8700114
-1.3168318 6.0169706 -1.8655758
-1.2834617 6.0417566 -1.8708986
-1.2471373 6.0532603 -1.8720814
-1.2086622 6.0542412 -1.8700114
-1.1778378 6.0943704 -1.8803612
-1.1412991 6.1061778 -1.8818398
-1.1022826 6.1046052 -1.8791784
-1.0669372 6.1234879 -1.8830227
-1.0263371 6.1120195 -1.8774042
-0.99506664 6.1568666 -1.8895282
-0.95492309 6.1477532 -1.8847969
-0.918733 6.1638899 -1.8880496
-0.88292116 6.1835961 -1.8924853
-0.8431527 6.1756463 -1.8883454
-0.80573767 6.1844926 -1.8895282
-0.76636326 6.1779442 -1.8859797
-0.72810614 6.1796842 -1.8850926
-0.68985659 6.1811872 -1.8842055
-0.65141559 6.1805534 -1.8827269
-0.6143294 6.1929898 -1.8853883
-0.57543314 6.1871309 -1.8824311
-0.53745878 6.1905451 -1.8824311
-0.5013085 6.216579 -1.8895282
-0.46287081 6.2157273 -1.8883454
-0.42557013 6.2308402 -1.8921895
-0.388991 6.2600303 -1.9004694
-0.34971756 6.2470388 -1.895738
-0.31123707 6.2462044 -1.894851
-0.27215379 6.2308183 -1.8895282
-0.23337872 6.2180519 -1.8850926
-0.19522108 6.2193666 -1.8850926
-0.15635508 6.1927533 -1.8765171
-0.1191965 6.2375307 -1.8901196
-0.080772065 6.2266822 -1.886571
-0.042432524 6.2079558 -1.880657
-0.0043579331 6.2310257 -1.887754
0.033967383 6.2481298 -1.8930767
0.07229355 6.2468486 -1.892781
0.11068955 6.2501082 -1.8939638
0.14810611 6.210156 -1.8818398
0.18466514 6.1575685 -1.8658715
0.22271925 6.1639566 -1.8682373
0.26057667 6.1634283 -1.8685329
0.2993589 6.1817508 -1.8747427
0.33639979 6.1635818 -1.8697157
0.37438604 6.1642623 -1.8706028
0.41232958 6.1637554 -1.8711942
0.44882053 6.1430073 -1.8655758
0.48680642 6.1439471 -1.8667587
0.52376473 6.132278 -1.8640972
0.56103355 6.1251435 -1.8629144
0.59869903 6.1225367 -1.8632102
0.63743985 6.1301498 -1.8667587
0.67347318 6.1118798 -1.862323
0.71515721 6.1436901 -1.87356
0.75353801 6.1448755 -1.8753341
0.78817737 6.1164498 -1.8679415
0.82773775 6.1266456 -1.8726728
0.86785382 6.1394229 -1.8782912
0.90271938 6.1150813 -1.8723772
0.94385487 6.1330314 -1.8797698
0.97920316 6.1129756 -1.8753341
1.019516 6.1238141 -1.880657
1.0567466 6.1155605 -1.8800656
1.0945878 6.1108422 -1.880657
1.1294506 6.0899215 -1.8762213
1.1680557 6.0894442 -1.8782912
1.2039126 6.074666 -1.8759257
1.2419291 6.0709081 -1.8771085
1.2809303 6.0715861 -1.8797698
1.3179578 6.0626783 -1.8794742
1.3553414 6.0554099 -1.8797698
1.3950429 6.0581508 -1.8833183
1.4288886 6.035533 -1.8788826
1.4631864 6.0155129 -1.8753341
1.4986809 6.0008612 -1.87356
1.5349991 5.9897013 -1.8729686
1.5714796 5.9792461 -1.8726728
1.608138 5.9694915 -1.8726728
1.6449898 5.9604325 -1.8729686
1.6802329 5.9456301 -1.87149
1.7169483 5.9361262 -1.8717858
1.7571331 5.9383039 -1.8759257
1.7921538 5.9228387 -1.8744471
1.8264865 5.9053426 -1.8723772
1.8670037 5.9076877 -1.8768127
1.8996967 5.8852115 -1.8732642
1.9288958 5.8525767 -1.8664629
1.9754286 5.8723211 -1.8768127
2.0086327 5.8519578 -1.8741513
2.0454485 5.8422279 -1.8750385
2.0815785 5.8304667 -1.8753341
2.1199276 5.8247662 -1.8776999
2.1549635 5.8098578 -1.8771085
2.1922598 5.8009939 -1.878587
2.2250676 5.7803011 -1.8762213
2.2594473 5.7638712 -1.8753341
2.2926471 5.7445755 -1.87356
2.3300087 5.7357101 -1.8753341
2.3655233 5.7221885 -1.8756299
2.4028115 5.7128496 -1.8774042
2.4453335 5.7155647 -1.8833183
2.4754035 5.689065 -1.8794742
2.5145154 5.6833792 -1.8827269
2.540329 5.6478047 -1.8759257
2.5753326 5.6329803 -1.8762213
2.6082377 5.6136069 -1.8750385
2.6450796 5.6026807 -1.8768127
2.678581 5.5846224 -1.8762213
2.7153072 5.5732346 -1.8779956
2.7486057 5.5547566 -1.8774042
2.7856393 5.5437622 -1.8794742
2.8178663 5.5231614 -1.8782912
2.8508244 5.5040708 -1.8776999
2.8800981 5.4780192 -1.8747427
2.9213006 5.4745722 -1.8797698
2.9521081 5.4515042 -1.8779956
2.9896421 5.4408231 -1.880657
3.0248306 5.425714 -1.8818398
3.0538332 5.3995681 -1.8791784
3.09166 5.3890147 -1.8821355
3.1193838 5.3608603 -1.8788826
3.1517334 5.3407965 -1.878587
3.1829729 5.3188982 -1.8776999
3.2160447 5.3000846 -1.8779956
3.2465029 5.2769966 -1.8768127
3.2833703 5.2642722 -1.8794742
3.3130572 5.2399898 -1.8779956
3.3430851 5.2163453 -1.8768127
3.3734682 5.1933308 -1.8759257
3.4026442 5.1685443 -1.8744471
3.4305828 5.1420059 -1.8723772
3.4572542 5.1137366 -1.8697157
3.4988232 5.1074014 -1.8753341
3.5284617 5.0834823 -1.8744471
3.5535429 5.0531406 -1.8711942
3.5806017 5.025795 -1.8691243
3.6281424 5.0269694 -1.8779956
3.6606102 5.0069265 -1.8788826
3.6906948 4.9836035 -1.878587
3.7269359 4.9685063 -1.8815441
3.7579298 4.9463053 -1.8818398
3.7852964 4.9193683 -1.8803612
3.8171711 4.8983102 -1.8812484
3.8465631 4.8740463 -1.8809526
3.869241 4.8413973 -1.8774042
3.9018791 4.8212781 -1.8788826
3.9289665 4.7942901 -1.8776999
3.9576998 4.7693567 -1.8774042
3.9862752 4.7442517 -1.8771085
4.0208807 4.7262516 -1.8797698
4.0510516 4.7029386 -1.8803612
4.0798321 4.6779933 -1.8803612
4.1109881 4.6557364 -1.8815441
4.1375675 4.6282878 -1.880657
4.1658883 4.6028128 -1.880657
4.2017961 4.5856171 -1.8842055
4.2149124 4.5436401 -1.8774042
4.2499056 4.5253525 -1.880657
4.2835159 4.5054216 -1.8833183
4.3097553 4.4776773 -1.8827269
4.3431482 4.4573069 -1.8853883
4.3663912 4.4264932 -1.8836141
4.3968444 4.402998 -1.8850926
4.4224195 4.3745928 -1.8845011
4.4471288 4.3453722 -1.8836141
4.469584 4.3140225 -1.8818398
4.498044 4.2884941 -1.8827269
4.5207963 4.2575393 -1.8812484
4.5468349 4.2297196 -1.8812484
4.5755157 4.2043271 -1.8824311
4.596983 4.1723204 -1.880657
4.6353002 4.1555142 -1.8859797
4.6657166 4.1314278 -1.8880496
4.6924167 4.1039796 -1.8886411
4.7276301 4.0838532 -1.892781
4.7438788 4.0473275 -1.8892325
4.7678933 4.0175281 -1.8889368
4.7550082 3.9570308 -1.8738557
4.8205252 3.9617488 -1.8904153
4.8373265 3.9260757 -1.8874582
4.8680334 3.9016979 -1.8901196
4.8806472 3.8628612 -1.885684
4.9208155 3.8457839 -1.8921895
4.9511261 3.820771 -1.894851
4.9516826 3.772949 -1.8859797
4.9922967 3.7557049 -1.892781
5.0121799 3.7227235 -1.8915981
5.0441718 3.6986783 -1.8951466
5.0706406 3.6704593 -1.8966252
5.090735 3.6376109 -1.895738
5.0973468 3.5952933 -1.8898239
5.1349907 3.5748658 -1.895738
5.1591907 3.544914 -1.8966252
5.1689858 3.5051482 -1.8921895
5.1919832 3.4744287 -1.892781
5.2116103 3.4414527 -1.8921895
5.2390308 3.4135826 -1.8945552
5.2663059 3.3855052 -1.8969209
5.2950468 3.3582449 -1.899878
5.3090744 3.3216381 -1.8975123
5.3147235 3.2799683 -1.8921895
5.3396449 3.2502766 -1.8939638
5.3660393 3.2213857 -1.8963295
5.3840604 3.1874263 -1.895738
5.3853674 3.143734 -1.8892325
5.4219418 3.1206391 -1.8954424
5.4318485 3.0821254 -1.8921895
5.4606624 3.0543349 -1.895738
5.4809737 3.0216939 -1.8963295
5.5052867 2.9911993 -1.8983995
5.5210104 2.9560101 -1.8975123
5.5500278 2.9278734 -1.9013565
5.5738215 2.8968482 -1.9034264
5.6050959 2.8695593 -1.9081578
5.6174803 2.8325322 -1.9063835
5.6125097 2.786963 -1.8986951
5.6398025 2.7575085 -1.9022436
5.6764126 2.7323823 -1.9090449
5.7241483 2.7122285 -1.9196904
5.6818118 2.6495969 -1.8995823
5.6953578 2.6134887 -1.8986951
5.7234755 2.5839975 -1.902835
5.7261276 2.5430133 -1.8983995
5.7512527 2.5120373 -1.9016522
5.7674356 2.477078 -1.901948
5.7930865 2.4461029 -1.9054965
5.8079863 2.410511 -1.9054965
5.8244367 2.3755503 -1.9060879
5.8371296 2.3390567 -1.9054965
5.8540387 2.3042464 -1.9063835
5.8734131 2.2703502 -1.9081578
5.8818746 2.232235 -1.9063835
5.8954606 2.1961024 -1.9063835
5.9097219 2.1602151 -1.9066793
5.9273615 2.1255257 -1.9081578
5.9438963 2.090384 -1.9093406
5.9584169 2.0544965 -1.909932
5.9736261 2.0188155 -1.9108192
5.9868073 1.9824243 -1.9111149
5.9997673 1.9459474 -1.9114106
6.0052214 1.9070725 -1.9093406
6.0314054 1.8747269 -1.9140719
6.0354834 1.8354596 -1.9117063
6.0502944 1.7994816 -1.9128891
6.0639739 1.7631241 -1.9137763
6.0737591 1.7256219 -1.9134805
6.0851536 1.6885771 -1.9137763
6.0889454 1.6494586 -1.9117063
6.0989518 1.6120665 -1.9117063
6.1170535 1.5767602 -1.9143677
6.1340251 1.5410596 -1.9167334
6.1582117 1.507027 -1.9214647
6.1664133 1.4689912 -1.9211689
6.1790333 1.43199 -1.9223518
6.193295 1.3953093 -1.924126
6.2101383 1.3591202 -1.9267874
6.2136889 1.3199972 -1.9253088
6.2179289 1.2810746 -1.924126
6.2209883 1.2419626 -1.9226475
6.2238021 1.2028613 -1.9211689
6.2254314 1.1635966 -1.9193947
6.2362142 1.1260555 -1.9205775
6.2486529 1.0887538 -1.9223518
6.244853 1.0486515 -1.919099
6.257771 1.0113813 -1.9211689
6.2591391 0.97223192 -1.9196904
6.2782145 0.9357807 -1.9238303
6.2914033 0.89832139 -1.926196
6.2958503 0.85957187 -1.9259002
6.2924809 0.81981385 -1.9232389
6.2945485 0.78083545 -1.9223518
6.2982726 0.74208629 -1.9220561
6.304606 0.70363891 -1.9226475
6.315455 0.66564268 -1.9247174
6.3241735 0.62735105 -1.926196
6.3307571 0.58880037 -1.9270831
6.3371058 0.55019259 -1.9279703
6.3432193 0.51152897 -1.9288573
6.3462381 0.47259811 -1.9288573
6.3518777 0.43384489 -1.9297445
6.3496532 0.39456579 -1.9282659
6.3595848 0.35602528 -1.9306316
6.346384 0.31623527 -1.9259002
6.3644295 0.27799833 -1.9309273
6.359333 0.23869045 -1.9288573
6.3597231 0.19963579 -1.9285617
6.3197646 0.15957007 -1.9158462
6.3569188 0.12148561 -1.9270831
6.3651857 0.082577623 -1.9294487
6.3741703 0.04357934 -1.9321102
6.3714519 0.0044651595 -1.931223
6.3942857 -0.034752585 -1.93832
6.3748474 -0.073766664 -1.9324058
6.3866916 -0.11309971 -1.9362501
6.3858776 -0.15228558 -1.9362501
6.3876872 -0.19155145 -1.9371371
6.3902106 -0.23087968 -1.93832
6.3905821 -0.2701655 -1.9389114
6.3945293 -0.30964917 -1.9406856
6.3934627 -0.34893143 -1.9409814
6.3950157 -0.3883858 -1.9421642
6.3915591 -0.42755389 -1.9418685
6.3973899 -0.46738961 -1.9445299
6.4029722 -0.50731301 -1.9471912
6.4121127 -0.54764736 -1.9510355
6.4086313 -0.58698106 -1.9510355
6.4077616 -0.62657136 -1.9519225
6.4342017 -0.66903651 -1.9613853
6.4014893 -0.70536637 -1.9525141
6.3941941 -0.74430072 -1.9516269
6.3923512 -0.78386939 -1.9525141
6.3968954 -0.82429767 -1.955471
6.393611 -0.86378843 -1.9560626
6.3683267 -0.90019608 -1.9498526
6.379694 -0.94176447 -1.9551754
6.3605771 -0.97885841 -1.9510355
6.3676567 -1.0199822 -1.9551754
6.3132205 -1.0510365 -1.9400942
6.2868843 -1.0863394 -1.9338844
6.1409326 -1.0999757 -1.8901196
6.0307474 -1.11848 -1.8575917
5.8858576 -1.1290181 -1.8141227
5.7841759 -1.1463611 -1.7842561
5.756443 -1.1776198 -1.7777505
5.643486 -1.1906422 -1.7443355
5.5819316 -1.2134813 -1.7271844
5.5352273 -1.2389477 -1.7147647
5.4893532 -1.2641014 -1.7026407
5.4814935 -1.2977597 -1.7026407
5.5226235 -1.3433318 -1.7183132
5.514277 -1.3771927 -1.7183132
5.4955435 -1.4083939 -1.7150605
5.4867983 -1.4420873 -1.7150605
5.4455624 -1.4670316 -1.7047106
5.456717 -1.5060072 -1.7112162
5.4308267 -1.5347855 -1.7058935
5.4249778 -1.5691409 -1.7070763
5.3850183 -1.5934558 -1.697318
5.3769684 -1.6270208 -1.6979094
5.3741851 -1.6622404 -1.7002751
5.3365579 -1.6865504 -1.6914037
5.317018 -1.7163292 -1.6884468
5.2973137 -1.745932 -1.6854897
5.2729197 -1.7738349 -1.681054
5.2610326 -1.8058455 -1.6807584
5.2480497 -1.8374614 -1.6801668
5.2258806 -1.8657745 -1.6766183
5.2152314 -1.8981315 -1.6769141
5.2025909 -1.9297637 -1.6766183
5.1960139 -1.9636757 -1.6783926
5.1678195 -1.9893447 -1.67307
5.1448431 -2.0168335 -1.6695215
5.1332583 -2.0487177 -1.6698171
5.1338673 -2.0855682 -1.6742527
5.1033168 -2.1097319 -1.6683385
5.0858727 -2.139154 -1.66686
5.0779214 -2.1725743 -1.6686343
5.0539832 -2.1991179 -1.6650858
5.0430155 -2.2312465 -1.6659729
5.0240026 -2.2597971 -1.6641986
4.9813714 -2.2774756 -1.6544403
5.0002246 -2.3232915 -1.6656772
4.994514 -2.3580062 -1.6686343
4.964447 -2.3811724 -1.6633115
4.936861 -2.4053137 -1.6588759
4.9194407 -2.4342897 -1.6579888
4.9009972 -2.4627135 -1.656806
4.8866448 -2.4931731 -1.6571016
4.8873725 -2.5314567 -1.6627201
4.8539906 -2.5520632 -1.6565102
4.8534112 -2.5898926 -1.661833
4.8475089 -2.625082 -1.6653814
4.8329849 -2.6556962 -1.6659729
4.8065863 -2.6797197 -1.6624244
4.7875586 -2.707751 -1.6615373
4.7509665 -2.7256684 -1.6544403
4.7415843 -2.7590921 -1.6571016
4.7336159 -2.793474 -1.6603545
4.7049098 -2.8155994 -1.6562146
4.6997957 -2.8518479 -1.6606501
4.700923 -2.8921432 -1.6674515
4.6741724 -2.9153726 -1.6641986
4.6537733 -2.9424667 -1.6633115
4.6332183 -2.96942 -1.6624244
4.6068997 -2.9925897 -1.6594673
4.5956321 -3.025528 -1.6621287
4.5539351 -3.0382957 -1.6535531
4.5431213 -3.0715308 -1.6565102
4.5257654 -3.1004288 -1.6571016
4.4972386 -3.1216042 -1.6535531
4.4990993 -3.1639755 -1.6615373
4.4399199 -3.1632552 -1.6464561
4.4754262 -3.230128 -1.6674515
4.3868861 -3.2073543 -1.6411334
4.3855486 -3.2478545 -1.6482304
4.3724155 -3.2798612 -1.6508918
4.3248239 -3.2858255 -1.6402463
4.329566 -3.3315229 -1.6500046
4.2977395 -3.3492188 -1.6455691
4.2868576 -3.383219 -1.6494132
4.2675104 -3.4106517 -1.6500046
4.2494731 -3.4391761 -1.6511875
4.2253351 -3.4627638 -1.6500046
4.21136 -3.4947245 -1.6529617
4.1920319 -3.5223427 -1.6538489
4.1616087 -3.5405707 -1.6503004
4.1521106 -3.5766373 -1.6553274
4.1336865 -3.605186 -1.656806
4.1143522 -3.6330109 -1.6579888
4.0934076 -3.659461 -1.6585802
4.0715847 -3.6851497 -1.6588759
4.0355134 -3.6978021 -1.6532575
4.0267558 -3.7354865 -1.6591716
3.9912248 -3.7483535 -1.6538489
2.3667207 -2.2504144 -0.96987617
2.3521795 -2.2642317 -0.96958047
2.3382423 -2.2786217 -0.96958047
3.8810303 -3.8284037 -1.6464561
3.8784225 -3.8730693 -1.6556231
3.8357732 -3.877779 -1.6473433
3.8139105 -3.9032915 -1.6482304
3.7852442 -3.9218087 -1.6461605
3.7571537 -3.9408126 -1.6443862
3.7315927 -3.9624012 -1.6437948
3.7026548 -3.9803274 -1.6417248
3.6542456 -3.9769468 -1.6307837
3.6175756 -3.9858549 -1.6251652
3.6083558 -4.0250468 -1.6322622
3.615891 -4.0835843 -1.6473433
3.5888796 -4.1035371 -1.6464561
3.5430243 -4.1016259 -1.6366978
3.5115898 -4.1160216 -1.6337408
3.5090454 -4.1645184 -1.6446819
3.5054259 -4.2124038 -1.6553274
3.4704144 -4.2227635 -1.6508918
3.4552755 -4.2573285 -1.6562146
3.4422326 -4.2948475 -1.6627201
3.4353807 -4.3406057 -1.6724784
2.0061939 -2.567306 -0.96751046
1.9828157 -2.5697365 -0.96366626
1.9646947 -2.5788152 -0.96248347
1.9465371 -2.5877683 -0.96130061
1.9272044 -2.5950623 -0.95952636
1.9101152 -2.6052978 -0.95893496
1.6851422 -2.3283474 -0.84863585
1.6880424 -2.3627369 -0.85780281
1.6647027 -2.3605604 -0.85307145
3.1523755 -4.5282016 -1.66686
3.1261547 -4.5498209 -1.6677471
3.0997872 -4.5712891 -1.6686343
3.0690234 -4.5862532 -1.6671557
3.0355604 -4.5970268 -1.6641986
3.0057318 -4.6131654 -1.6633115
2.9732363 -4.625093 -1.6609459
2.9376376 -4.6319561 -1.656806
2.9025738 -4.6393661 -1.6529617
2.8956277 -4.6920433 -1.6656772
2.8702607 -4.7154341 -1.6677471
2.837831 -4.7272239 -1.6656772
2.8048782 -4.7379718 -1.6633115
2.7694924 -4.7443681 -1.6594673
2.7355638 -4.7529931 -1.6565102
2.7039909 -4.7655349 -1.6550317
2.6653717 -4.7653623 -1.6491176
2.6291628 -4.7690792 -1.6446819
2.6007631 -4.7868004 -1.6452733
2.5826168 -4.8237214 -1.6526661
2.5587654 -4.850461 -1.6565102
2.5333614 -4.8745461 -1.6594673
2.5012271 -4.885747 -1.6579888
2.4750731 -4.908679 -1.6606501
1.5215698 -3.0646133 -1.0180765
1.5027372 -3.0738916 -1.0180765
1.483019 -3.0813332 -1.0174851
2.3579535 -4.9765744 -1.6636072
2.3124332 -4.9589162 -1.6526661
2.2795715 -4.9678025 -1.6508918
2.246295 -4.9756017 -1.6488218
2.2168863 -4.9919105 -1.649709
2.1854498 -5.0036678 -1.6491176
2.1550839 -5.0178614 -1.6494132
2.1205378 -5.0221901 -1.6464561
2.0896823 -5.0351067 -1.6464561
2.0565832 -5.0425267 -1.6446819
2.0334227 -5.0745587 -1.6511875
1.9920992 -5.0611625 -1.642612
1.9592845 -5.0688357 -1.6411334
1.9298409 -5.0852275 -1.642612
1.9012704 -5.1041346 -1.6449777
1.8689321 -5.1130128 -1.6440905
1.8355891 -5.118989 -1.6423162
1.8047789 -5.131958 -1.6429076
1.77201 -5.1393228 -1.6417248
1.7413601 -5.1528139 -1.642612
1.7127137 -5.1724701 -1.6455691
1.6815333 -5.1846991 -1.6461605
1.6508458 -5.1985607 -1.6473433
1.6194841 -5.2104168 -1.6479347
1.587761 -5.2211695 -1.6482304
1.5556947 -5.2308135 -1.6482304
1.5235697 -5.2402606 -1.6482304
1.4903429 -5.2458348 -1.6470476
1.4553167 -5.2447557 -1.6437948
1.4173619 -5.2323799 -1.6369935
1.3876716 -5.2502136 -1.6399506
1.3516147 -5.2438288 -1.6352192
1.3252343 -5.2751851 -1.642612
1.2942042 -5.288785 -1.6443862
1.2619499 -5.2975554 -1.6446819
1.2276951 -5.2977543 -1.6423162
1.1903353 -5.2837534 -1.635515
0.75053358 -3.4302008 -1.0458732
0.7294721 -3.4347413 -1.0458732
0.71031147 -3.4485087 -1.0488302
0.6874547 -3.4443712 -1.0461688
0.65869164 -3.4091322 -1.0337491
0.63863909 -3.4178047 -1.0352277
0.61392009 -3.4009776 -1.028722
0.59074402 -3.3915052 -1.0245821
0.56992298 -3.3950663 -1.0245821
0.55045283 -3.4069865 -1.0272435
0.5312978 -3.4216273 -1.030792
0.51029307 -3.4248228 -1.030792
0.4885937 -3.423161 -1.0293134
0.46758038 -3.4260945 -1.0293134
0.44617903 -3.4260573 -1.0284263
0.42550173 -3.4315746 -1.0293134
0.40600374 -3.4474027 -1.0334533
0.38505527 -3.4517279 -1.0340447
0.36477032 -3.4625754 -1.0367062
0.34512162 -3.4809089 -1.0417333
0.32304847 -3.4753516 -1.0393676
0.30304101 -3.4924955 -1.0440989
0.28160575 -3.4942892 -1.0440989
0.26015991 -3.4959512 -1.0440989
0.23909518 -3.5032001 -1.0458732
0.21646863 -3.486486 -1.0402547
0.19389588 -3.4667654 -1.0337491
0.17190652 -3.4535785 -1.0293134
0.15096301 -3.4602945 -1.0310878
0.12954874 -3.4563825 -1.0296092
0.10890895 -3.4752536 -1.0352277
0.087921567 -3.4892261 -1.0393676
0.066711865 -3.500206 -1.0426203
0.045146581 -3.4938631 -1.0405504
0.023628701 -3.4826114 -1.0370018
0.0022593548 -3.4826908 -1.0370018
-0.019161398 -3.4921918 -1.039959
-0.040247928 -3.4623966 -1.030792
-0.061576307 -3.4668603 -1.0322706
-0.082915545 -3.4692822 -1.0331577
-0.10454398 -3.4801662 -1.0367062
-0.12565489 -3.4727767 -1.0346363
-0.14675964 -3.4671681 -1.0331577
-0.16618523 -3.428036 -1.0213294
-0.18747613 -3.431721 -1.0228078
-0.20980194 -3.4514835 -1.0293134
-0.22931971 -3.4253492 -1.021625
-0.24977656 -3.416256 -1.0192595
-0.27141213 -3.4232297 -1.0219208
-0.29086813 -3.4034152 -1.0163023
-0.3149673 -3.4367647 -1.0272435
-0.33186811 -3.3919835 -1.0139366
-0.35859907 -3.4468932 -1.0316792
-0.37942836 -3.4417794 -1.030792
-0.40318897 -3.4621594 -1.037889
-0.41675478 -3.3970404 -1.0183723
-0.43722472 -3.3915768 -1.0174851
-0.45406377 -3.359483 -1.0083182
-0.47319853 -3.3462288 -1.0050654
-0.4958134 -3.3574381 -1.009501
-0.51466203 -3.3430026 -1.0059525
-0.53078461 -3.312427 -0.99737698
-0.55501974 -3.3326659 -1.0047697
-0.58716518 -3.3969741 -1.0260607
-0.61338544 -3.4233978 -1.0355233
-0.64099663 -3.4552619 -1.0467602
-0.66740268 -3.4784713 -1.0553358
-0.6883623 -3.4724364 -1.0547444
-0.70850748 -3.462532 -1.0529702
-0.73447108 -3.4805527 -1.0600671
-0.75337911 -3.4647787 -1.0565186
-0.77379006 -3.4563618 -1.0553358
-0.79326886 -3.4441016 -1.0529702
-0.81218636 -3.4298732 -1.0500131
-0.83141071 -3.4173994 -1.0476474
-0.85421503 -3.4196482 -1.0500131
-0.86474961 -3.3736253 -1.0370018
-0.79318386 -3.0171673 -0.92463285
-0.80795556 -2.9984074 -0.92019719
-0.83192801 -3.0136526 -0.9267028
-0.84754676 -2.998379 -0.92344999
-0.86194807 -2.9793568 -0.91901439
-0.91083461 -3.0775239 -0.95242935
-1.0328742 -3.4129322 -1.0627285
-1.0879436 -3.5169599 -1.0985092
-1.1290735 -3.5721588 -1.1186173
-1.1371813 -3.5224357 -1.104719
-1.0714767 -3.2504623 -1.0183723
-1.0731297 -3.1895001 -1.0006298
-1.0880288 -3.1693022 -0.99619418
-1.1042986 -3.1535501 -0.99323708
-1.1050017 -3.0945334 -0.97608602
-1.1193955 -3.0751274 -0.97194612
-1.1365823 -3.0637226 -0.97046757
-1.1597489 -3.0683079 -0.97431177
-1.1926217 -3.0976868 -0.98643583
-1.3409307 -3.4202812 -1.0961435
-1.3718048 -3.436832 -1.1044233
-1.3928671 -3.42835 -1.1044233
-1.4109576 -3.4126763 -1.1020577
-1.4289083 -3.39691 -1.099692
-1.4598684 -3.4117923 -1.1076761
-1.474678 -3.3887548 -1.1029447
-1.4819175 -3.349066 -1.092595
-1.4922521 -3.3172581 -1.0849066
-1.5038413 -3.2889254 -1.078401
-1.5022602 -3.2328527 -1.0624328
-1.5200294 -3.2192547 -1.0609542
-1.5310794 -3.1917791 -1.0547444
-1.560257 -3.2020769 -1.0615456
-1.5917361 -3.2164173 -1.0698255
-1.6174456 -3.2185404 -1.0739654
-1.643675 -3.2213199 -1.078401
-1.6559417 -3.196753 -1.0733739
-1.674192 -3.1839955 -1.0724869
-1.6847036 -3.1568065 -1.0665727
-1.6858484 -3.112808 -1.0547444
-1.7003167 -3.0940328 -1.0517873
-1.7062461 -3.0601783 -1.0435075
-1.7306336 -3.0596297 -1.047056
-1.7446214 -3.0406668 -1.0440989
-1.7666085 -3.0356846 -1.0461688
-1.8012216 -3.0519383 -1.0559272
-1.8002946 -3.008039 -1.0440989
-1.8083121 -2.9797847 -1.037889
-1.8340693 -2.9808381 -1.0423247
-1.8310941 -2.9354839 -1.0299048
-1.8756151 -2.9661813 -1.0452816
-1.8973879 -2.960247 -1.0473517
-1.9274833 -2.9669755 -1.054153
-1.9162391 -2.9104087 -1.0375932
-1.9038442 -2.8532989 -1.0207379
-1.9491351 -2.8827174 -1.0361148
-1.9932381 -2.9093215 -1.0506045
-2.0034266 -2.8860493 -1.0464646
-2.0282404 -2.8838608 -1.0503087
-2.0392463 -2.8620248 -1.0467602
-2.0399988 -2.8262193 -1.037889
-2.0477178 -2.8005385 -1.0328619
-2.0461035 -2.7625864 -1.0231036
-2.0991259 -2.7981255 -1.0417333
-2.1052761 -2.7707398 -1.0361148
-2.137965 -2.7782123 -1.0440989
-2.1502745 -2.7590134 -1.0417333
-2.1488185 -2.7225201 -1.0325663
-2.1589234 -2.7010748 -1.0293134
-2.1784608 -2.6914902 -1.030792
-2.2052274 -2.690634 -1.0358191
-2.232065 -2.6895504 -1.0408461
-2.268189 -2.6992095 -1.0503087
-2.2785187 -2.6779649 -1.0473517
-2.2974012 -2.6668291 -1.0485345
-2.3275337 -2.6685219 -1.0550401
-2.3754759 -2.689996 -1.0698255
-2.3766577 -2.6582763 -1.0627285
-2.4409976 -2.6967661 -1.0849066
-2.4090998 -2.628911 -1.0627285
-2.4167399 -2.6049745 -1.0588843
-2.4078295 -2.5636339 -1.0476474
-2.4379942 -2.5640435 -1.054153
-2.4530187 -2.5483475 -1.0538572
-2.4246118 -2.4880888 -1.0343405
-2.4498949 -2.483367 -1.0387762
-2.4542871 -2.4574718 -1.0340447
-2.4754314 -2.4484129 -1.0367062
-2.5061219 -2.4485343 -1.0435075
-2.5183494 -2.4304571 -1.0423247
-2.5235362 -2.4057298 -1.0381848
-2.5410314 -2.3928201 -1.0393676
-2.5703528 -2.3908484 -1.0455774
-2.5884914 -2.378264 -1.047056
-2.6150599 -2.3732517 -1.052083
-2.6452203 -2.371191 -1.0585886
-2.6876106 -2.3796158 -1.0701212
-2.6906567 -2.3530171 -1.0653899
-2.6942008 -2.3270955 -1.0609542
-2.698982 -2.3024595 -1.0571101
-2.7189026 -2.2907803 -1.0594757
-2.7314389 -2.2728322 -1.0588843
-2.7453334 -2.2560294 -1.0588843
-2.7620912 -2.2415502 -1.0600671
-2.7795198 -2.2275474 -1.0615456
-2.7931354 -2.2104506 -1.0615456
-2.7825615 -2.1744454 -1.052083
-2.782239 -2.1468251 -1.0467602
-2.8128347 -2.1430304 -1.0535616
-2.7992141 -2.105629 -1.0432117
-2.8136151 -2.0895529 -1.0438032
-2.8587375 -2.0959766 -1.0562229
-2.8583899 -2.0688729 -1.0511959
-2.8679216 -2.0490737 -1.0500131
-2.8726344 -2.0259314 -1.047056
-2.8818755 -2.0060835 -1.0458732
-2.9224732 -2.0078402 -1.0565186
-2.9545031 -2.0032752 -1.0639113
-2.9341903 -1.9633244 -1.0517873
-2.9374135 -1.9394927 -1.0485345
-2.9740691 -1.9376005 -1.0577015
-2.9642069 -1.9053665 -1.0497173
-2.988749 -1.8953296 -1.0544486
-3.0181379 -1.8881034 -1.0609542
-3.0442986 -1.8785803 -1.066277
-3.0810628 -1.8752649 -1.075444
-3.0761313 -1.8464898 -1.0695298
-3.0874033 -1.8275802 -1.0695298
-3.097734 -1.8081203 -1.069234
-3.1079421 -1.7886024 -1.0689384
-3.1263356 -1.7737421 -1.0715997
-3.1346593 -1.7531267 -1.0707126
-3.1637611 -1.7440075 -1.0772182
-3.1911895 -1.7336845 -1.0831324
-3.2261891 -1.7271489 -1.0917078
-3.2612278 -1.7202486 -1.1002834
-3.2971499 -1.7134234 -1.1091547
-3.3433135 -1.7114462 -1.1215744
-3.3887227 -1.7085361 -1.1336985
-3.3991423 -1.6877111 -1.1336985
-3.5141299 -1.7180207 -1.1697748
-3.5573127 -1.7121726 -1.1810117
-3.6083243 -1.7095405 -1.1949099
-3.615283 -1.6857529 -1.1937271
-3.6967511 -1.6962126 -1.2179753
-3.788929 -1.7104526 -1.2457718
-3.9215767 -1.7414618 -1.2871709
-3.9006741 -1.7035996 -1.2765254
-4.0620222 -1.7444847 -1.3273872
-4.2037725 -1.7749035 -1.3714477
-4.2251711 -1.7534711 -1.3749962
-4.2650399 -1.7394202 -1.3847545
-4.2915931 -1.7196146 -1.3900772
-4.3340631 -1.7058474 -1.4007227
-4.3916717 -1.6974794 -1.4163953
-4.4645219 -1.6942312 -1.4370949
-4.5043736 -1.6778116 -1.4468533
-4.5630322 -1.6678549 -1.4628215
-4.646914 -1.6662711 -1.4870695
-4.8697224 -1.7125357 -1.5568566
-4.8575616 -1.6748371 -1.549464
-5.0559816 -1.7086283 -1.6109712
-5.183352 -1.7163179 -1.6491176
-5.2573919 -1.7051154 -1.6698171
-5.3506064 -1.6991413 -1.6967266
-5.4165759 -1.6835784 -1.7147647
-5.4560504 -1.6592072 -1.7242274
-5.5302219 -1.6447655 -1.7449269
-5.5952463 -1.6268076 -1.7626694
-5.6914988 -1.6169914 -1.790466
-5.8568745 -1.6252161 -1.8404406
-5.9534073 -1.6127329 -1.8682373
-6.1044931 -1.6135316 -1.9134805
-6.1364794 -1.5817688 -1.9205775
-6.1645989 -1.5487427 -1.9264917
-6.1776972 -1.5117968 -1.9276745
-6.1961498 -1.4760771 -1.9306316
-6.2088122 -1.4388933 -1.9318144
-6.2240477 -1.4022398 -1.9338844
-6.2344007 -1.3644319 -1.9344758
-6.2548032 -1.3287339 -1.93832
-6.2403836 -1.2857023 -1.931223
-6.2500286 -1.2477621 -1.9318144
-6.2528772 -1.2084825 -1.9303359
-6.2733207 -1.1725508 -1.9344758
-6.2587757 -1.1301308 -1.9276745
-6.2731214 -1.0930187 -1.9300402
-6.2523894 -1.0499175 -1.9214647
-6.2870049 -1.016108 -1.9303359
-6.3044486 -0.97927278 -1.9338844
-6.3131733 -0.94099361 -1.9347715
-6.2932949 -0.89859158 -1.9267874
-6.3327637 -0.86461401 -1.9374329
-6.3436332 -0.82648146 -1.9392072
-6.3628049 -0.789307 -1.9436427
-6.3817592 -0.75192833 -1.9480784
-6.4071388 -0.71508884 -1.954584
-6.4218559 -0.67686403 -1.9578367
-0 -0 -0
-0 -0 -0
-0 -0 -0
-0 -0 -0
-0 -0 -0
-0 -0 -0
-0 -0 -0
-0 -0 -0
-0 -0 -0
-0 -0 -0
-0 -0 -0
-0 -0 -0
-6.1454711 0.44798332 -1.9441911
-6.1454535 0.48590842 -1.9451112
-0 0 -0
-0 0 -0
-0 0 -0
-0 0 -0
-0 0 -0
-0 0 -0
-0 0 -0
-0 0 -0
-0 0 -0
-0 0 -0
-0 0 -0
-0 0 -0
-0 0 -0
-6.0745306 1.0102857 -1.9429643
-6.025074 1.0400833 -1.9288565
-6.023263 1.077872 -1.9303899
-6.0156002 1.1146362 -1.9300833
-5.9955606 1.1490157 -1.9257895
-5.9893312 1.1859672 -1.9260962
-5.9875364 1.2238394 -1.9279364
-5.963151 1.2570182 -1.922416
-5.9776478 1.2984368 -1.9297765
-5.9612088 1.3332193 -1.9270163
-5.9584813 1.3710531 -1.9288565
-5.9434733 1.4060528 -1.9267097
-5.9310346 1.441595 -1.9254829
-5.9036088 1.4733469 -1.919349
-5.9036775 1.5119061 -1.922416
-5.9044151 1.5507636 -1.9257895
-5.8764081 1.5820111 -1.9196557
-5.8638377 1.6172786 -1.9187356
-5.8473926 1.6514159 -1.9165888
-5.8536072 1.6920244 -1.9221092
-5.8449407 1.7284497 -1.9227226
-5.8269367 1.7620757 -1.9202691
-5.8096499 1.795827 -1.9181222
-5.8003368 1.8320143 -1.9187356
-5.7944212 1.8693244 -1.9205757
-5.7991138 1.9102063 -1.9260962
-5.7791648 1.9430215 -1.923336
-5.779737 1.9827716 -1.9276297
-5.7575808 2.0147381 -1.9242561
-5.7334571 2.0458674 -1.9202691
-5.7154293 2.0790555 -1.9184289
-5.6927485 2.1104443 -1.9150553
-5.6707888 2.1419697 -1.9119884
-5.6610923 2.1780925 -1.9132152
-5.6733193 2.2228618 -1.9221092
-5.6480813 2.2530439 -1.9181222
-5.6041689 2.2754772 -1.9076947
-5.5901012 2.3098209 -1.9076947
-5.5819645 2.3466609 -1.9098415
-5.6164651 2.4018342 -1.9270163
-5.5832939 2.4282756 -1.9205757
-5.54914 2.4540157 -1.9138285
-5.5461307 2.4934847 -1.9181222
-5.5238013 2.524302 -1.9156687
-5.5038924 2.5561426 -1.9141352
-5.4846621 2.5882401 -1.9129084
-5.4566631 2.6160817 -1.9086148
-5.4533429 2.6557674 -1.9132152
-5.4232955 2.6824243 -1.908308
-5.4126878 2.718642 -1.9104549
-5.4060788 2.7569935 -1.9141352
-5.3899055 2.7905505 -1.9144419
-5.3743663 2.8244557 -1.9150553
-5.3695307 2.8641007 -1.9196557
-5.3418121 2.8915544 -1.9159753
-5.3147936 2.9192345 -1.9126017
-5.2959499 2.9513271 -1.9122951
-5.2901683 2.9907956 -1.9168955
-5.2601595 3.0165679 -1.9126017
-5.2563591 3.0574038 -1.9181222
-5.2211061 3.0799236 -1.9119884
-5.2078271 3.1153231 -1.9141352
-5.1910548 3.1487005 -1.9150553
-5.1602874 3.1735103 -1.9107616
-5.1415257 3.2056172 -1.9110683
-5.1298046 3.2421913 -1.9141352
-5.1082115 3.272579 -1.9135219
-5.0896316 3.3048978 -1.9141352
-5.0732322 3.3386819 -1.9156687
-5.0542345 3.3708043 -1.9162821
-5.0287256 3.3985543 -1.9144419
-5.0054221 3.4277322 -1.9135219
-4.9655299 3.4453547 -1.9061612
-4.9497461 3.4795904 -1.908308
-4.9314032 3.5121052 -1.9095348
-4.911304 3.5434117 -1.9101483
-4.8948483 3.5774126 -1.9122951
-4.8789244 3.6119113 -1.9147487
-4.8513408 3.6377816 -1.9126017
-4.825139 3.6646013 -1.9110683
-4.8070884 3.6976216 -1.9129084
-4.7918172 3.7328985 -1.9159753
-4.7695694 3.76282 -1.9162821
-4.7463918 3.7920146 -1.9162821
-4.7304335 3.8270545 -1.919349
-4.7017088 3.8517847 -1.9172021
-4.6713943 3.8750908 -1.9144419
-4.6533589 3.9085793 -1.9168955
-4.6184144 3.9278069 -1.9122951
-4.5927849 3.9548285 -1.9116817
-4.5684319 3.9829347 -1.9116817
-4.5453339 4.0121512 -1.9122951
