# .PCD v0.7 - Point Cloud Data file format
VERSION 0.7
FIELDS x y z
SIZE 4 4 4
TYPE F F F
COUNT 1 1 1
WIDTH 1524
HEIGHT 1
VIEWPOINT 0 0 0 1 0 0 0
POINTS 1524
DATA ascii
-0.44021234 7.1286297 -1.9053758
-0.39657038 7.1331229 -1.9059016
-0.35317484 7.1431313 -1.9080044
-0.30913088 7.1403441 -1.9066901
-0.26509875 7.1363215 -1.905113
-0.2216333 7.1484222 -1.9080044
-0.1782914 7.1708674 -1.9137874
-0.13409145 7.1612148 -1.9108959
-0.089848854 7.137784 -1.9043244
-0.045959529 7.1237288 -1.9003814
-0.0022544749 7.1643996 -1.9114217
0.041653544 7.1555953 -1.9090558
0.085465126 7.1474867 -1.906953
0.12872086 7.1140289 -1.8980156
0.17293404 7.1362543 -1.9043244
0.218161 7.1823139 -1.9172046
0.26120114 7.1528788 -1.9095817
0.30574596 7.1665645 -1.9137874
0.34815598 7.1327519 -1.905113
0.39313665 7.1526389 -1.9111588
0.43778422 7.1626115 -1.9145761
0.48094586 7.1482387 -1.9114217
0.52224767 7.1105127 -1.9019586
0.5667879 7.1187158 -1.905113
0.6100437 7.1102977 -1.9037986
0.65507668 7.1217928 -1.9080044
0.70216209 7.1522064 -1.9174675
0.74362648 7.124733 -1.9111588
0.78488642 7.09798 -1.905113
0.82730317 7.0834475 -1.9024843
0.87098676 7.080153 -1.90301
0.91788071 7.1014671 -1.9103702
0.95988077 7.0842285 -1.9072158
1.0021106 7.0696082 -1.9048501
1.0458944 7.0661893 -1.9056387
1.0907048 7.0691743 -1.9082673
1.134213 7.0633016 -1.9085301
1.1776901 7.0571609 -1.908793
1.2206403 7.0479002 -1.9082673
1.2633506 7.0374289 -1.9074787
1.3052725 7.0229049 -1.9056387
1.3428713 6.98634 -1.8977528
1.3892871 6.9959488 -1.9027472
1.4296666 6.9750056 -1.89933
1.469043 6.9500551 -1.8948613
1.5126874 6.9456239 -1.8961756
1.5537977 6.9296212 -1.8943356
1.5995432 6.9340587 -1.8982785
1.6454015 6.9381948 -1.9022214
1.6870283 6.9242187 -1.90117
1.7257341 6.8987617 -1.8969642
1.7728323 6.906733 -1.9022214
1.8134575 6.889194 -1.9003814
1.844378 6.8360205 -1.8885525
1.8932325 6.8496828 -1.8956499
1.932071 6.8267975 -1.8924955
1.9792948 6.8333478 -1.8977528
2.0162494 6.8044238 -1.8930212
2.0607619 6.8011575 -1.8956499
2.0973134 6.7717962 -1.8909184
2.1431937 6.7725973 -1.8948613
2.1671932 6.7051558 -1.8793523
2.2173696 6.7192178 -1.8872383
2.2604051 6.7109714 -1.8888154
2.2955794 6.6796398 -1.883821
2.3464205 6.6936531 -1.8919698
2.390372 6.6873059 -1.8943356
2.4191322 6.6389737 -1.8846097
2.4688954 6.6484246 -1.8917069
2.5116923 6.6385646 -1.8932841
2.5440481 6.6014228 -1.8869754
2.5732219 6.5569496 -1.8785638
2.6578133 6.6521297 -1.9111588
2.6676729 6.5597324 -1.8888154
2.701967 6.5289774 -1.8846097
2.7318642 6.4882679 -1.8775123
2.7621241 6.4492121 -1.8709408
2.7985601 6.4250669 -1.8688378
2.8453572 6.4245343 -1.8738322
2.8894792 6.417511 -1.8769866
2.9284 6.3987837 -1.8767238
2.9676073 6.3806949 -1.8767238
2.9947433 6.3370705 -1.8691007
3.0293932 6.3098783 -1.8664721
3.0731297 6.3015771 -1.8696265
3.1074538 6.2739573 -1.8669978
3.1454577 6.2539101 -1.866735
3.1864057 6.2396474 -1.8683121
3.2379577 6.2456732 -1.8761981
3.2672303 6.2086129 -1.8709408
3.28935 6.1586647 -1.8617406
3.3307562 6.1451507 -1.8638434
3.3670042 6.1220622 -1.8630549
3.4087374 6.1088696 -1.8654207
3.4437795 6.0836411 -1.8641063
3.4858489 6.0707622 -1.866735
3.5269184 6.0559282 -1.8688378
3.5546851 6.0183911 -1.8638434
3.5811327 5.9790859 -1.8583233
3.6072319 5.9396839 -1.8528032
3.6395609 5.9108667 -1.8507004
3.6854708 5.9039726 -1.8556948
3.7334969 5.8999977 -1.8617406
3.7732756 5.8826628 -1.8635806
3.7993054 5.8440318 -1.8585862
3.8345613 5.8198042 -1.8583233
3.8814528 5.8130145 -1.8638434
3.9192111 5.792285 -1.864895
3.9634097 5.780859 -1.8691007
3.9877939 5.7405849 -1.8638434
4.0251641 5.7191639 -1.864895
4.0613012 5.6959295 -1.8654207
4.0916533 5.6646461 -1.8633177
4.1417203 5.6604548 -1.8704151
4.1660309 5.6209841 -1.8656836
4.213768 5.613061 -1.8717294
4.248714 5.5878677 -1.8719922
4.2652564 5.5387626 -1.8641063
4.3163724 5.5345483 -1.8717294
4.3346987 5.4882755 -1.864895
4.3779368 5.473629 -1.8691007
4.4029369 5.4361682 -1.8654207
4.4576283 5.4351573 -1.8746209
4.5050745 5.4247727 -1.8806667
4.526475 5.3829994 -1.8756723
4.5650496 5.3617349 -1.878038
4.5871511 5.3212018 -1.8735694
4.6305027 5.3053112 -1.878038
4.6533828 5.2659554 -1.8740951
4.6682339 5.2178922 -1.8669978
4.7124715 5.2027349 -1.8719922
4.7593069 5.1900749 -1.878038
4.7680831 5.1360302 -1.8688378
4.7935596 5.1003504 -1.8664721
4.8447199 5.0918078 -1.8743579
4.8564572 5.0418367 -1.866735
4.9027972 5.0278287 -1.8727808
4.927454 4.9914722 -1.8704151
4.9641275 4.9672852 -1.8727808
5.026083 4.967927 -1.8848726
5.046114 4.9268851 -1.8809296
5.0498557 4.8703823 -1.8709408
5.0936184 4.8526134 -1.8761981
5.1120534 4.8106904 -1.8719922
5.1379414 4.775949 -1.8706779
5.157198 4.7351995 -1.8669978
5.1897297 4.7067065 -1.8683121
5.2199492 4.6760616 -1.8688378
5.2702236 4.6631217 -1.8767238
5.2863846 4.619905 -1.8722551
5.317554 4.5899029 -1.8733065
5.3485541 4.5596919 -1.8743579
5.3875041 4.5361075 -1.8783009
5.4397202 4.5233178 -1.8869754
5.4584236 4.4825091 -1.883821
5.4820776 4.4458942 -1.8825067
5.4994626 4.4043341 -1.8790895
5.5142736 4.3609333 -1.8748838
5.5705886 4.3501711 -1.8851354
5.6109309 4.3265114 -1.8898669
5.6197138 4.2785621 -1.883821
5.6327481 4.2341461 -1.8793523
5.651648 4.1943307 -1.8769866
5.7068567 4.1812382 -1.8869754
5.7378778 4.1500998 -1.8888154
5.7420306 4.0996809 -1.8817182
5.7725987 4.0682611 -1.8835582
5.8029976 4.0366206 -1.8853983
5.8666363 4.0276899 -1.8982785
5.8816533 3.9851241 -1.8951242
5.9188294 3.9575386 -1.89933
5.9293084 3.9121161 -1.8948613
5.9313674 3.8614514 -1.887764
5.9549489 3.8249846 -1.887764
5.9880872 3.7945695 -1.8909184
5.9998026 3.7505975 -1.8872383
6.0268097 3.7162442 -1.8885525
6.0363078 3.671175 -1.8843467
6.0554099 3.6320832 -1.8832953
6.0825653 3.597806 -1.8848726
6.1086941 3.5628459 -1.8861868
6.1346226 3.5277009 -1.8875011
6.1469193 3.4847605 -1.8846097
6.1606045 3.4427433 -1.8822439
6.2120399 3.4216306 -1.8917069
6.2329178 3.3834498 -1.8917069
6.2569642 3.3469615 -1.8927584
6.2995768 3.3201993 -1.8995929
6.3223996 3.2828166 -1.9003814
6.3192286 3.2321026 -1.8932841
6.3311858 3.1893623 -1.8909184
6.3713818 3.160742 -1.897227
6.3689804 3.1110055 -1.8906555
6.4218636 3.0881693 -1.9009072
6.4520288 3.0540719 -1.9043244
6.4522791 3.0058725 -1.8988042
6.4565673 2.9597945 -1.8945985
6.501874 2.9324145 -1.9027472
6.5065145 2.8865979 -1.8988042
6.4887285 2.831192 -1.8882897
6.5334668 2.803113 -1.8964385
6.5683246 2.7704682 -1.9016957
6.5869827 2.7308521 -1.9022214
6.6071892 2.6918395 -1.9032729
6.6280608 2.6530397 -1.9045873
6.6496024 2.6144381 -1.9061644
6.6511173 2.5680296 -1.9019586
6.6865983 2.5346916 -1.9077415
6.6984076 2.4922705 -1.9066901
6.7026978 2.4471538 -1.9035357
6.7203121 2.4069562 -1.9043244
6.7413268 2.3679132 -1.9061644
6.7466063 2.3233645 -1.9035357
6.7506785 2.2785318 -1.9006443
6.7856026 2.2440317 -1.9066901
6.798326 2.2020566 -1.9064273
6.8117094 2.1603014 -1.9064273
6.8202291 2.1170356 -1.905113
6.8441696 2.0785103 -1.9082673
6.8521695 2.0351033 -1.906953
6.8691607 1.9943652 -1.9082673
6.88591 1.9534951 -1.9095817
6.8977666 1.9112072 -1.9095817
6.9242663 1.8728756 -1.9137874
6.915103 1.8249408 -1.9080044
6.9355149 1.7848794 -1.9106331
6.9491439 1.742994 -1.9114217
6.9709554 1.703068 -1.9145761
6.9831514 1.6607091 -1.9151018
6.9753489 1.6137011 -1.9101074
6.9917088 1.5723516 -1.9119474
6.9795442 1.5246892 -1.9059016
7.0029263 1.4848344 -1.9098445
7.0081248 1.4410607 -1.908793
7.0281901 1.4002929 -1.9119474
7.0262284 1.3551342 -1.9090558
7.0533814 1.3155315 -1.9143132
7.0717659 1.2741082 -1.9172046
7.0756483 1.2300323 -1.9161532
7.0611753 1.1829308 -1.9101074
7.0683007 1.1395819 -1.9101074
6.4935365 1.0061729 -1.749761
6.4709573 0.9620589 -1.7418752
5.9064717 0.84122872 -1.584946
5.8445997 0.79587191 -1.5665456
5.8273664 0.75714022 -1.5604998
5.8070059 0.7182954 -1.5536654
5.8045959 0.68186408 -1.5518253
5.7952456 0.64474404 -1.5481452
5.7894969 0.60816687 -1.5455166
5.7767963 0.57102156 -1.5410479
5.7801914 0.53556508 -1.5410479
5.7679887 0.49876156 -1.5368421
5.7651701 0.46289828 -1.535265
5.7563553 0.42666167 -1.5321106
5.7694535 0.39205071 -1.5350021
0 0 -0
0 0 -0
0 0 -0
0 0 -0
0 0 -0
0 0 -0
0 0 -0
0 0 -0
0 0 -0
0 0 -0
0 0 -0
0 -0 -0
0 -0 -0
0 -0 -0
0 -0 -0
0 -0 -0
0 -0 -0
0 -0 -0
0 -0 -0
0 -0 -0
0 -0 -0
0 -0 -0
0 -0 -0
0 -0 -0
0 -0 -0
0 -0 -0
6.5357571 -0.64154214 -1.7487096
7.1659961 -0.74793994 -1.9224619
7.2188101 -0.79826754 -1.9382336
7.225276 -0.84389132 -1.941388
7.2161312 -0.88773704 -1.9403366
7.2210741 -0.93335986 -1.943228
7.2199912 -0.97829843 -1.9445424
7.1947474 -1.0198698 -1.9392852
7.164494 -1.060461 -1.9327135
7.0253119 -1.0839299 -1.8961756
6.787046 -1.0898064 -1.8322999
6.5689654 -1.0961394 -1.7739444
6.4984226 -1.1253834 -1.7563326
6.4087777 -1.1503905 -1.7334635
6.345633 -1.1792814 -1.7179546
6.2624812 -1.2036132 -1.6969256
6.1925206 -1.2296028 -1.6795766
6.3096194 -1.2931695 -1.7142745
6.2921262 -1.3298634 -1.711646
6.2678223 -1.364953 -1.7071773
6.2828646 -1.4086673 -1.7137488
6.2816238 -1.448928 -1.7158517
6.2641659 -1.4854389 -1.713486
6.238061 -1.5197333 -1.7087544
6.2304907 -1.5584493 -1.7092801
6.1965137 -1.5904088 -1.7024457
6.1586485 -1.6210271 -1.6945598
6.112258 -1.6489776 -1.6843082
6.0852866 -1.6818212 -1.6795766
6.0581427 -1.7143961 -1.6748451
6.0475092 -1.7515359 -1.6748451
6.0495987 -1.7924495 -1.6785252
6.0394096 -1.8298153 -1.6787881
6.0114799 -1.8616972 -1.6740565
5.9925847 -1.8962179 -1.6719537
6.0047059 -1.9406711 -1.6787881
5.953289 -1.9644707 -1.667485
5.9164367 -1.992643 -1.6603876
5.9004493 -2.0276532 -1.6593362
5.8742399 -2.0590296 -1.6553932
5.8778481 -2.1008828 -1.6601248
5.8657532 -2.1372395 -1.6603876
5.85886 -2.1755431 -1.6622277
5.8201346 -2.2018874 -1.6548675
5.8029137 -2.2361693 -1.6538161
5.8061476 -2.2784328 -1.6588105
5.7875786 -2.3122253 -1.6574962
5.7634511 -2.343694 -1.6546047
5.7391562 -2.3749537 -1.6517131
5.714695 -2.4060037 -1.6488217
5.7406197 -2.4585032 -1.6609133
5.7103896 -2.4871283 -1.6564447
5.7082534 -2.5279825 -1.6603876
5.7040706 -2.5681117 -1.6638049
5.6961007 -2.6066775 -1.6661706
5.6747508 -2.639137 -1.6645935
5.6479836 -2.6689582 -1.6614391
5.6445465 -2.7098293 -1.665382
5.6174073 -2.739336 -1.6622277
5.613461 -2.7801776 -1.6661706
5.5885396 -2.8106658 -1.6638049
5.5376797 -2.8277845 -1.6535532
5.5193682 -2.8612657 -1.6532904
5.4940238 -2.8910329 -1.6509246
5.4940519 -2.9342377 -1.6564447
5.4759445 -2.9678934 -1.6564447
5.4584761 -3.0019023 -1.6567075
5.436584 -3.0334573 -1.6556561
5.4237456 -3.0700865 -1.6574962
5.4031329 -3.1023471 -1.6569704
5.3873301 -3.1373844 -1.6580219
5.3870835 -3.18167 -1.6640677
5.3583555 -3.2092097 -1.6611762
5.3237209 -3.2330103 -1.6564447
5.291461 -3.2580249 -1.6525018
5.2918296 -3.3032076 -1.6590734
5.226625 -3.3072321 -1.6446159
5.2200384 -3.3480978 -1.6490846
5.1646171 -3.3574452 -1.6377815
5.1729198 -3.4081867 -1.6472446
5.1575265 -3.4436142 -1.6490846
5.1155252 -3.4611342 -1.6422502
5.0926008 -3.4913659 -1.6417243
5.0528588 -3.5098841 -1.6356785
5.0280719 -3.5386002 -1.6346271
5.0251169 -3.5828316 -1.6409358
5.0147691 -3.6220739 -1.6448787
4.9940071 -3.6539154 -1.6454045
4.9900942 -3.6982806 -1.6517131
4.9719372 -3.7323058 -1.6532904
4.9512463 -3.7644951 -1.654079
4.9196467 -3.7883277 -1.6511874
4.8917451 -3.8148818 -1.6496103
4.8705168 -3.8466196 -1.6503989
4.8445625 -3.8746238 -1.6496103
4.8289433 -3.9109578 -1.6525018
4.7683053 -3.9105275 -1.6396215
4.7278934 -3.9261479 -1.6338385
4.6704884 -3.9271352 -1.6220096
4.6955171 -3.9976339 -1.6396215
4.688436 -4.041492 -1.6459302
4.6519208 -4.0600305 -1.6417243
4.6341505 -4.0948877 -1.644353
4.5852118 -4.1020122 -1.6356785
4.5957055 -4.1624608 -1.6488217
4.5601249 -4.1814504 -1.6451416
4.5230703 -4.1988473 -1.6409358
4.5035481 -4.2324691 -1.6433016
4.5117383 -4.2926168 -1.6561818
4.4908729 -4.3255749 -1.6582848
4.4683909 -4.3570914 -1.6598619
2.3243539 -2.2936714 -0.84919298
2.3102365 -2.3078902 -0.84919298
2.29671 -2.3227084 -0.84945583
4.3722472 -4.4778671 -1.6645935
4.3426805 -4.5025268 -1.6638049
4.3096485 -4.5234985 -1.6617019
4.2791672 -4.5470462 -1.6606505
4.2275424 -4.5477724 -1.6511874
4.1936865 -4.5672293 -1.6488217
4.1850252 -4.6143193 -1.6567075
4.1643572 -4.6485362 -1.6598619
4.1133828 -4.6487064 -1.6506617
4.0904946 -4.6803975 -1.6530275
4.0478325 -4.6893377 -1.6472446
4.0221119 -4.7177582 -1.6485589
3.9682367 -4.712822 -1.6380444
3.927526 -4.7229848 -1.63305
3.9394896 -4.7969589 -1.6506617
3.9500842 -4.8705058 -1.6680107
3.912286 -4.88486 -1.6645935
3.8768542 -4.9019618 -1.6622277
2.0216324 -2.5877814 -0.85418737
1.9874561 -2.5764482 -0.84603864
1.9663508 -2.5816846 -0.84367287
1.9458359 -2.5875309 -0.84156996
1.927623 -2.5963221 -0.84051853
1.9088055 -2.6042089 -0.83920419
1.7056707 -2.3570731 -0.75219661
1.6883733 -2.3635681 -0.75088227
1.6849525 -2.3896582 -0.75613952
3.5309591 -5.0758104 -1.6440902
3.4970183 -5.0934029 -1.6427759
3.4667821 -5.1163621 -1.6433016
3.4149497 -5.1070557 -1.6333128
3.3899236 -5.1375785 -1.6364671
3.349916 -5.1453433 -1.6322613
3.303164 -5.1422567 -1.6246383
3.2911692 -5.1933999 -1.6346271
3.2648654 -5.222497 -1.6375186
3.234278 -5.2448955 -1.6383072
3.1980255 -5.2580466 -1.6362042
3.1701677 -5.2850175 -1.6385701
3.1366978 -5.3027086 -1.6380444
3.1225681 -5.353529 -1.6480331
3.0665808 -5.332437 -1.6354157
3.0319011 -5.347795 -1.6343642
2.9947958 -5.358717 -1.6319984
2.9711659 -5.3938956 -1.6372558
2.9274299 -5.39252 -1.6312099
2.8892827 -5.4010215 -1.6283184
1.5784338 -2.9935338 -0.8815251
1.560925 -3.0048752 -0.88205081
1.5428972 -3.0152555 -0.88231373
2.7771273 -5.512527 -1.6411986
2.7265341 -5.4957523 -1.630947
2.6881049 -5.5028415 -1.6280556
2.6597233 -5.5305362 -1.6314727
2.6150095 -5.5240765 -1.6246383
2.5745485 -5.5260234 -1.6204325
2.5381815 -5.5364537 -1.6188554
2.5029731 -5.5492845 -1.6180668
2.4759166 -5.5804143 -1.6227983
2.4466434 -5.606998 -1.6262155
2.4064894 -5.608604 -1.6222725
2.3712807 -5.6214862 -1.6217468
2.3286171 -5.6163206 -1.6159638
2.3013899 -5.648375 -1.6212211
2.2527115 -5.6274533 -1.6109694
2.2244916 -5.6573334 -1.615701
2.197032 -5.6897788 -1.6212211
2.1549001 -5.6842055 -1.615701
2.1267078 -5.7154074 -1.6209582
2.0859761 -5.7129407 -1.6164895
2.049257 -5.7210903 -1.6151752
2.019228 -5.7481222 -1.6193811
1.9842342 -5.7613163 -1.6196439
1.9497713 -5.7761254 -1.6204325
1.9242851 -5.8182116 -1.629107
1.8787426 -5.7996173 -1.6204325
1.8448706 -5.8165541 -1.6220096
1.8077167 -5.8231573 -1.6206954
1.7722327 -5.8350625 -1.6209582
1.7372197 -5.8486018 -1.6217468
1.7010318 -5.8582244 -1.6214839
1.6650544 -5.8685517 -1.6214839
1.6261821 -5.8684297 -1.6185925
1.5911505 -5.8820229 -1.6196439
1.5550292 -5.891675 -1.6196439
1.5193299 -5.9029746 -1.6201696
1.4819084 -5.9075065 -1.6188554
1.4454039 -5.9155507 -1.6185925
1.4090796 -5.9243083 -1.6185925
1.3696598 -5.919682 -1.6149124
1.3333116 -5.9279747 -1.6149124
1.2962958 -5.9332161 -1.6141238
1.2598658 -5.9410586 -1.6141238
1.219505 -5.9297752 -1.6088666
1.1874301 -5.9589105 -1.6149124
0.74829006 -3.8770595 -1.0352999
0.71458894 -3.8284616 -1.0205796
0.68852061 -3.8185306 -1.0166366
0.66227096 -3.8065231 -1.0121679
0.64065397 -3.8209827 -1.0150595
0.62072539 -3.8467505 -1.0211053
0.59976673 -3.8676496 -1.0258368
0.5811258 -3.9056139 -1.0352999
0.55932415 -3.9243898 -1.0395057
0.53380412 -3.9172313 -1.0366142
0.50764823 -3.9041672 -1.0321455
0.48084512 -3.884227 -1.0258368
0.45509252 -3.8708138 -1.0213681
0.42994869 -3.8610673 -1.0179509
0.40755743 -3.8761072 -1.0213681
0.38395584 -3.8804553 -1.0218939
0.36244798 -3.9077172 -1.0287282
0.3363907 -3.8858359 -1.0221567
0.31284943 -3.8916738 -1.0232081
0.28924918 -3.8973691 -1.0242596
0.26259071 -3.8586402 -1.0132194
0.24068895 -3.8890691 -1.0211053
0.21660793 -3.8866193 -1.0200539
0.19261353 -3.8849843 -1.0192652
0.16856422 -3.8812733 -1.0179509
0.1449243 -3.8870554 -1.0192652
0.12086284 -3.8811207 -1.0174252
0.096808203 -3.872144 -1.0147966
0.073101074 -3.8755591 -1.0155852
0.04921183 -3.8672519 -1.0132194
0.025542565 -3.8771291 -1.015848
0.0017557094 -3.8984392 -1.021631
-0.022309016 -3.922497 -1.0282025
-0.046131037 -3.9020262 -1.0226824
-0.069931656 -3.8939524 -1.0205796
-0.093729056 -3.8895917 -1.0195282
-0.11759338 -3.8889434 -1.0195282
-0.14155938 -3.8910413 -1.0203167
-0.1653904 -3.8891354 -1.0200539
-0.18844827 -3.8716648 -1.0155852
-0.21156353 -3.8588753 -1.0124308
-0.23671259 -3.8815801 -1.0190023
-0.25890192 -3.8559885 -1.0124308
-0.28439856 -3.8793452 -1.0192652
-0.308887 -3.8861833 -1.021631
-0.33289164 -3.8861372 -1.0221567
-0.35974029 -3.9166875 -1.0310941
-0.3831993 -3.9086452 -1.0295169
-0.4078773 -3.9129376 -1.0313569
-0.43187895 -3.9103613 -1.0313569
-0.45104483 -3.8664308 -1.0200539
-0.48089421 -3.9133854 -1.0337226
-0.50539255 -3.9141884 -1.0347742
-0.5319941 -3.9301353 -1.0400314
-0.55406547 -3.912468 -1.0360885
-0.57905143 -3.9156756 -1.0379285
-0.6038031 -3.9168165 -1.0392429
-0.62813109 -3.9149432 -1.0397686
-0.65643305 -3.9367099 -1.0468658
-0.68222392 -3.9421144 -1.0494945
-0.70520502 -3.9312067 -1.0476544
-0.72525465 -3.9049888 -1.0416086
-0.74810791 -3.8947804 -1.0400314
-0.76917046 -3.875922 -1.0360885
-0.7979793 -3.8957036 -1.0429229
-0.81487894 -3.8576958 -1.0337226
-0.83504093 -3.8365972 -1.029254
-0.85603112 -3.8201044 -1.0260997
-0.8827101 -3.8288815 -1.0300426
-0.91420746 -3.8571885 -1.0395057
-0.92711586 -3.8074498 -1.0271511
-0.74967188 -2.9995768 -0.80187768
-0.77046317 -3.0042653 -0.8045063
-0.78937399 -3.0013473 -0.80503201
-0.80802655 -2.9973788 -0.80529487
-0.82537413 -2.9886448 -0.80424345
-0.84133053 -2.9751692 -0.80187768
-0.86279303 -2.9810712 -0.80503201
-1.1205013 -3.783273 -1.0345113
-1.1476129 -3.7892532 -1.0381913
-1.1668434 -3.769238 -1.0345113
-1.1835417 -3.7417712 -1.0287282
-1.2094474 -3.7436187 -1.0313569
-1.1183485 -3.3907266 -0.93225765
-1.0861348 -3.2265394 -0.8870452
-1.0917941 -3.1787562 -0.87521642
-1.1237316 -3.2075052 -0.88546807
-1.3217635 -3.6993067 -1.0297798
-1.1266562 -3.0937619 -0.85655314
-1.1372172 -3.0641799 -0.84998155
-1.1706848 -3.0959454 -0.86128467
-1.4423488 -3.7440753 -1.0526488
-1.2040046 -3.0696709 -0.85786748
-1.2199521 -3.0550582 -0.85576457
-1.2423108 -3.0564523 -0.85839319
-1.2588269 -3.0434234 -0.85681599
-1.5355439 -3.6482766 -1.0379285
-1.5708205 -3.6689386 -1.0468658
-1.5917612 -3.6556933 -1.0458144
-1.6137714 -3.6449754 -1.0455515
-1.6408613 -3.6455615 -1.0487058
-1.6595843 -3.6275294 -1.0463401
-1.6875095 -3.6295249 -1.0500202
-1.6944898 -3.5868285 -1.0402943
-1.716884 -3.5772336 -1.0405571
-1.7286477 -3.5458202 -1.0342485
-1.751657 -3.5377405 -1.035037
-1.7854739 -3.5510583 -1.0423971
-1.8045956 -3.5348809 -1.04082
-1.8275838 -3.5263109 -1.0416086
-1.8442425 -3.5056396 -1.038717
-1.8620803 -3.4874496 -1.0366142
-1.8811444 -3.4717176 -1.0352999
-1.9038063 -3.4626458 -1.0360885
-1.9348927 -3.4685907 -1.0416086
-1.9509094 -3.447418 -1.038717
-1.9600111 -3.4144669 -1.0321455
-2.0042388 -3.4423921 -1.044763
-1.994893 -3.3785281 -1.0284654
-2.0210404 -3.3753281 -1.0313569
-2.0507305 -3.3777063 -1.0360885
-2.0764773 -3.3732746 -1.038717
-2.0981584 -3.3621068 -1.0392429
-2.1156518 -3.3442781 -1.0376656
-2.142906 -3.3417902 -1.0410829
-2.1728389 -3.3431375 -1.0458144
-2.1821606 -3.312825 -1.0402943
-2.1976233 -3.2921524 -1.0379285
-2.2285988 -3.2945862 -1.0431857
-2.2766035 -3.3214293 -1.0565917
-2.28703 -3.2931361 -1.0518602
-2.3238564 -3.3027086 -1.0597461
-2.3608856 -3.3119524 -1.067632
-2.3331313 -3.2309303 -1.0452887
-2.3739972 -3.2453604 -1.0550146
-2.4248958 -3.2725854 -1.0692092
-2.4466684 -3.2599595 -1.0699978
-2.4911573 -3.2771392 -1.081038
-2.5141625 -3.2656136 -1.0823523
-2.5299983 -3.2448006 -1.0805123
-2.5432808 -3.2208881 -1.0776207
-2.5437074 -3.1811142 -1.0692092
-2.5091214 -3.0987267 -1.0458144
-2.5176842 -3.0705919 -1.0413457
-2.5296957 -3.0469224 -1.0384542
-2.543375 -3.0254362 -1.0363513
-2.5512557 -2.9972863 -1.0318826
-2.5670784 -2.9786532 -1.0308312
-2.5789611 -2.9555779 -1.0282025
-2.6008816 -2.9440353 -1.0297798
-2.6555727 -2.9690015 -1.044763
-2.7262146 -3.0105658 -1.0660548
-2.720504 -2.9674742 -1.0563289
-2.7229035 -2.933758 -1.0500202
-3.5444887 -3.7717795 -1.3696613
-2.7487226 -2.8896396 -1.0460773
-2.7630539 -2.8692455 -1.044763
-2.774544 -2.8460217 -1.0423971
-2.7526343 -2.7891259 -1.0271511
-2.7867496 -2.789242 -1.0337226
-2.7942033 -2.7625964 -1.0300426
-2.8152444 -2.7494431 -1.0316198
-2.8508153 -2.7501984 -1.038717
-2.8550603 -2.7206771 -1.0339855
-2.8625646 -2.6945133 -1.0305684
-3.3716757 -3.13467 -1.2137837
-3.4086165 -3.1302335 -1.2203553
-3.3498464 -3.0386219 -1.1917032
-3.3590841 -3.0096431 -1.1882861
-2.9359217 -2.5984051 -1.0276768
-2.973608 -2.5993853 -1.0355628
-2.9851186 -2.5773089 -1.0339855
-3.0096886 -2.5664537 -1.0371399
-3.0224266 -2.5454531 -1.0360885
-3.0394723 -2.5280936 -1.0366142
-4.6411004 -3.8115404 -1.5957234
-4.6621518 -3.7811685 -1.5949348
-3.1261635 -2.5042806 -1.0508088
-3.1407137 -2.4844532 -1.0505459
-3.1566596 -2.465729 -1.0508088
-3.1449838 -2.4256976 -1.0416086
-3.1889834 -2.4285593 -1.0515974
-3.1883981 -2.3973541 -1.0463401
-3.1921997 -2.3696971 -1.04266
-3.2385936 -2.3734398 -1.0534374
-3.2757699 -2.3699176 -1.0610604
-3.3263748 -2.3755567 -1.0731521
-3.3361559 -2.3517678 -1.0715749
-3.3513153 -2.331804 -1.0718378
-3.3353307 -2.2904503 -1.061849
-3.3237588 -2.2526278 -1.0534374
-3.3623848 -2.2488122 -1.0615861
-3.3342378 -2.200515 -1.0479172
-3.2991571 -2.1484389 -1.0321455
-3.3130896 -2.1286764 -1.0324084
-3.4450879 -2.1836886 -1.0707864
-3.4690588 -2.1691556 -1.0742036
-3.4691617 -2.1397288 -1.0699978
-3.4690347 -2.1103828 -1.065792
-3.4504738 -2.0702038 -1.0558032
-3.4755692 -2.0563591 -1.0597461
-3.523129 -2.0554047 -1.0707864
-3.5406933 -2.0366335 -1.0723635
-3.5514443 -2.0139186 -1.0718378
-3.578054 -2.0000885 -1.0763065
-3.5775812 -1.9711159 -1.0723635
-3.5743439 -1.9408443 -1.067632
-3.562362 -1.9061375 -1.0602719
-3.5500896 -1.8716512 -1.0529116
-3.5597942 -1.8489441 -1.0523859
-3.5856762 -1.8345333 -1.0568546
-3.5848007 -1.8064225 -1.0531745
-3.7315269 -1.8516884 -1.094444
-3.7696955 -1.8418803 -1.1025927
-3.7774479 -1.8170432 -1.1015413
-3.7597454 -1.7802135 -1.0928668
-3.7915895 -1.7668856 -1.0991756
-3.7909567 -1.7383627 -1.0957583
-3.8305781 -1.7281545 -1.1044328
-3.9107878 -1.7355169 -1.125199
-3.9876919 -1.740416 -1.1449137
-5.4534254 -2.3399417 -1.5762715
-4.0247521 -1.6980968 -1.1496452
-4.0422263 -1.6763242 -1.1517481
-4.1382198 -1.6864231 -1.1769829
-4.365273 -1.7477316 -1.2405957
-4.3696289 -1.7184435 -1.2387557
-4.3674889 -1.6867365 -1.2350756
-4.4445224 -1.6852028 -1.2545274
-4.5235076 -1.6834592 -1.274505
-4.6660819 -1.7039611 -1.312883
-4.6546483 -1.6674942 -1.3065743
-4.8222847 -1.6941934 -1.3520496
-4.8572216 -1.6730508 -1.3591468
-5.0465817 -1.7036635 -1.410668
-5.1494656 -1.703248 -1.4372171
-5.1653271 -1.6734024 -1.4387943
-5.4606161 -1.7320501 -1.5202818
-5.3651676 -1.6656359 -1.4900526
-5.8738389 -1.7840018 -1.6319984
-5.9947433 -1.7805982 -1.6632792
-6.0463271 -1.7556117 -1.6748451
-6.0959721 -1.7295325 -1.6858853
-6.1938748 -1.7162985 -1.7105944
-6.2620363 -1.6938707 -1.726892
-6.3935933 -1.6874015 -1.7610642
-6.4412036 -1.657752 -1.7715787
-6.5813417 -1.6508048 -1.8081166
-6.7750587 -1.6552423 -1.8596376
-6.9559293 -1.6542399 -1.9074787
-7.0627728 -1.6339111 -1.9345536
-7.0641932 -1.5886402 -1.9321878
-7.0860624 -1.5479401 -1.935605
-7.1067533 -1.5068313 -1.9387594
-7.1083045 -1.4616433 -1.9366565
-7.122817 -1.4191303 -1.9382336
-7.1247587 -1.3741208 -1.9363936
-7.1368499 -1.3310853 -1.937445
-7.0869589 -1.276843 -1.9214104
-7.0975122 -1.2338295 -1.922199
-7.1192231 -1.1926455 -1.926142
-7.1245017 -1.1486336 -1.9256163
-7.1800432 -1.1124228 -1.9390223
-7.2048669 -1.0710386 -1.9440167
-7.1921983 -1.024093 -1.9387594
-7.2260718 -0.98371315 -1.9463824
-7.2023106 -0.93550837 -1.9382336
-7.1954665 -0.88976097 -1.9348165
-7.198874 -0.84536892 -1.9342908
-7.2039256 -0.8011815 -1.9342908
-7.2077465 -0.75686336 -1.9340279
-7.212255 -0.71262324 -1.9340279
-7.2059236 -0.6673792 -1.9311364
-7.2098827 -0.6231519 -1.9311364
-7.2347293 -0.58059579 -1.9369193
-7.2323823 -0.5357666 -1.9353422
-7.2287951 -0.49092293 -1.9335021
-7.2287827 -0.4463807 -1.9327135
-7.2458358 -0.40281835 -1.9366565
-7.256844 -0.35877857 -1.9390223
-7.235774 -0.31324685 -1.9327135
-7.2491302 -0.26927099 -1.9358679
-7.2535391 -0.22487532 -1.9366565
-7.2461014 -0.18014978 -1.9342908
-7.2412825 -0.13557771 -1.9327135
-7.2564492 -0.091323294 -1.9366565
-7.2607322 -0.046821106 -1.9377079
-7.2579885 -0.0022687675 -1.9369193
-7.2491822 0.0422135 -1.9345536
-7.2680821 0.086926706 -1.9398109
-7.2355776 0.13093998 -1.9311364
-7.2327089 0.17528713 -1.9306107
-7.2160673 0.21919172 -1.9264048
-7.2271209 0.2639243 -1.9298221
-7.2195816 0.30801642 -1.9282448
-7.1934638 0.35112926 -1.9216733
-7.2065878 0.39611062 -1.9258791
-7.1760941 0.43861046 -1.918256
-7.2011843 0.48451674 -1.9258791
-6.9350533 -0.1763531 -1.9367657
-6.9321589 -0.13372268 -1.9356692
-6.9386187 -0.091261454 -1.9373139
-6.9121213 -0.048494689 -1.9296384
-6.9122887 -0.0060817981 -1.9296384
-6.9208512 0.036376312 -1.9321055
-6.9243441 0.078884766 -1.933202
-6.9294991 0.12147105 -1.9348468
-6.9516973 0.16453215 -1.9414259
-6.9428668 0.20695509 -1.9392328
-6.9337778 0.24927586 -1.9370399
-6.9369221 0.292018 -1.9384105
-6.913867 0.33355832 -1.9323797
-6.9232135 0.37660089 -1.9356692
-6.8833346 0.41680908 -1.9249783
-6.8748903 0.45865279 -1.9233335
-6.8920889 0.50229448 -1.9290901
-6.8802485 0.5438925 -1.926623
-6.8786983 0.58626193 -1.9271712
-6.9113641 0.63178241 -1.9375881
-6.8575859 0.66932285 -1.9233335
-6.8600459 0.71208227 -1.9252523
-6.8631949 0.75500214 -1.9274454
-6.8383722 0.79476941 -1.9216887
-6.8285942 0.83612978 -1.9203181
-6.8185658 0.8774001 -1.9189475
-6.8368807 0.92243481 -1.9258006
-6.8339486 0.96477085 -1.926623
-6.8288517 1.0068252 -1.9268972
-6.8206444 1.0484153 -1.9263489
-6.7988892 1.0878161 -1.9219629
-6.8091626 1.1323515 -1.9268972
-6.7869234 1.171494 -1.9225111
-6.7767673 1.2126077 -1.9216887
-6.7691994 1.2541664 -1.9216887
-6.7755442 1.2983919 -1.9258006
-6.7617898 1.3388211 -1.9241558
-6.7393141 1.3773977 -1.9200439
-6.7448511 1.4216979 -1.9241558
-6.7313018 1.4620364 -1.9227853
-6.7100034 1.5005835 -1.9192215
-6.7081676 1.5434518 -1.9214146
-6.6789174 1.5799353 -1.9156579
-6.670032 1.6211138 -1.9159321
-6.6711564 1.6648034 -1.9192215
-6.6701322 1.7080907 -1.9219629
-6.658596 1.7487414 -1.9216887
-6.6365967 1.7865657 -1.9183992
-6.6347804 1.8298097 -1.9211404
-6.6169496 1.8686563 -1.9192215
-6.5887289 1.9044162 -1.9142873
-6.5907531 1.9488978 -1.9183992
-6.578671 1.9893012 -1.9183992
-6.5534778 2.0256546 -1.9145614
-6.5381737 2.064959 -1.9137391
-6.5171428 2.1023808 -1.9112719
-6.4949861 2.1393216 -1.9085306
-6.4908528 2.1821978 -1.9112719
-6.470973 2.2198 -1.909353
-6.4626775 2.2613688 -1.9109977
-6.4160724 2.2893476 -1.9011291
-6.4136534 2.3329456 -1.9046929
-6.4199581 2.3799424 -1.9109977
-6.3917389 2.4141934 -1.9068859
-6.3821912 2.4554386 -1.9085306
-6.3741679 2.4973588 -1.9107237
-6.3462186 2.5314355 -1.9068859
-6.3234382 2.5674336 -1.9046929
-6.3084545 2.6065524 -1.904967
-6.3091869 2.6522913 -1.9101753
-6.2671504 2.6799898 -1.9022257
-6.2796917 2.7310491 -1.9112719
-6.245225 2.7617512 -1.9057894
-6.2334247 2.8023849 -1.9074341
-6.2169871 2.8409793 -1.9077083
-6.2142663 2.885958 -1.9123684
-6.1929622 2.9223921 -1.9112719
-6.1584373 2.9524384 -1.9060634
-6.1531754 2.9964852 -1.9101753
-6.1346731 3.034184 -1.9101753
-6.1107841 3.0691791 -1.9085306
-6.0952635 3.1083639 -1.9096271
-6.0829086 3.1492419 -1.9118202
-6.0609169 3.1851647 -1.9109977
-6.0438046 3.2236514 -1.9118202
-6.013762 3.2551818 -1.9085306
-5.998733 3.2947979 -1.9101753
-5.9582415 3.3203094 -1.9035963
-5.9176631 3.3454483 -1.8970172
-5.9170475 3.3931761 -1.9035963
-5.8902965 3.4260342 -1.9016775
-5.8840742 3.470906 -1.9066117
-5.859365 3.5049701 -1.9055152
-5.8352818 3.5393605 -1.9046929
-5.8019857 3.5680463 -1.9008551
-5.7881446 3.6086669 -1.9035963
-5.7626414 3.6420593 -1.9024998
-5.7458539 3.6809807 -1.9044187
-5.7255797 3.7177384 -1.9052411
-5.7002501 3.751214 -1.9044187
-5.6851273 3.791455 -1.9071599
-5.6545844 3.8214209 -1.9046929
-5.6278563 3.8538716 -1.9035963
-5.6017332 3.8866863 -1.902774
-5.5746322 3.9187727 -1.9016775
-5.5520487 3.95402 -1.9022257
-5.5386019 3.9958889 -1.9060634
-5.5186381 4.0332026 -1.9077083
-5.4937873 4.066988 -1.9077083
-5.4656515 4.0983133 -1.9066117
-5.4273815 4.1218858 -1.9019516
-5.4012256 4.1545234 -1.9016775
-5.3672867 4.1810861 -1.8986621
-5.3460612 4.217514 -1.9003068
-5.3178282 4.2484369 -1.8994844
-5.2961464 4.2846155 -1.9011291
-5.2734766 4.3200784 -1.9024998
-5.2505708 4.3554239 -1.9038705
-5.2185926 4.3832297 -1.9019516
-5.1828079 4.407692 -1.8986621
-5.1534786 4.4375277 -1.8978397
-5.1283283 4.4709611 -1.8986621
-5.1000776 4.5017076 -1.8983879
-5.0637541 4.5252271 -1.8950984
-5.0451636 4.5645995 -1.8986621
-5.0191884 4.5974188 -1.8994844
-4.9993472 4.6359758 -1.902774
-4.9532781 4.6501093 -1.8959208
-4.9295321 4.6850519 -1.8978397
-4.9013853 4.7158775 -1.8981137
-4.8682232 4.741837 -1.896469
-4.8568416 4.7891736 -1.9035963
-4.815793 4.8073349 -1.8989362
-4.7787638 4.8292747 -1.8959208
-4.7456808 4.8550673 -1.8945501
-4.7178054 4.8861704 -1.8953725
-4.6937094 4.921289 -1.8978397
-4.6673818 4.954196 -1.8994844
-4.6231365 4.967958 -1.8937278
-4.6003771 5.0047274 -1.8970172
-4.5779867 5.0421157 -1.9005809
-4.5386147 5.0608039 -1.8970172
-4.5106654 5.0921564 -1.8983879
-4.4717364 5.1110525 -1.8950984
-4.4415488 5.1398497 -1.8956467
-4.4074302 5.1640801 -1.8945501
-4.371942 5.1866145 -1.8929054
-4.3412662 5.2148209 -1.8934536
-4.3091865 5.2413602 -1.8934536
-4.3060436 5.3035369 -1.9066117
-4.2385263 5.2863431 -1.8907124
-4.1875029 5.2888784 -1.8822144
-4.1656346 5.3281097 -1.8871487
-4.1416793 5.3649874 -1.8912606
-4.1011033 5.3803568 -1.887697
-4.0790009 5.4200182 -1.8929054
-4.0387845 5.4356818 -1.8896159
-4.0053554 5.460361 -1.8896159
-3.9757247 5.4902868 -1.8915347
-3.9341319 5.5036254 -1.887697
-3.9041696 5.5331612 -1.8896159
-3.8651984 5.5499105 -1.8871487
-3.8359752 5.5806551 -1.8896159
-3.8016608 5.6040869 -1.8896159
-3.7623878 5.6201158 -1.8871487
-3.7283628 5.643898 -1.8874228
-3.6936622 5.6666689 -1.8874228
-3.6588225 5.6892257 -1.8874228
-3.6140552 5.6961408 -1.8822144
-3.5790365 5.7182088 -1.8822144
-3.5443881 5.74088 -1.8824885
-3.5075953 5.760056 -1.8816662
-3.477138 5.7897139 -1.8844074
-3.4542904 5.8324533 -1.8915347
-3.4164982 5.8502169 -1.8904382
-3.3786178 5.8677368 -1.8893417
-3.3416009 5.8866844 -1.8887935
-3.2885101 5.8768659 -1.8789248
-3.259356 5.909564 -1.8830369
-3.2147663 5.9142432 -1.8781025
-3.1934032 5.961832 -1.8871487
-3.1572108 5.9821649 -1.8874228
-3.1102405 5.9818001 -1.8811179
-3.0660245 5.9862208 -1.8764577
-3.0327017 6.0117898 -1.8786508
-3.0026035 6.044065 -1.8830369
-2.9718008 6.0753326 -1.8871487
-2.9282076 6.0804563 -1.8830369
-2.8797197 6.0748467 -1.8756354
-2.8460507 6.1002455 -1.8781025
-2.8117771 6.1245852 -1.8802955
-2.7868142 6.1697679 -1.8890676
-2.7508574 6.1911454 -1.8904382
-2.7081957 6.1973333 -1.8871487
-2.6667011 6.2058821 -1.8846816
-2.6237063 6.2106113 -1.8811179
-2.5866561 6.2292576 -1.8819402
-2.5749135 6.3100104 -1.9019516
-2.5297048 6.3096242 -1.8970172
-2.4937618 6.3321857 -1.8992103
-2.4572899 6.3536463 -1.9011291
-2.414161 6.3578157 -1.8978397
-2.3818231 6.3905315 -1.9033222
-2.3379414 6.3923817 -1.8994844
-2.2976999 6.4038911 -1.8986621
-2.258044 6.4169617 -1.8983879
-2.2283523 6.458878 -1.9068859
-2.1886795 6.4724293 -1.9068859
-2.1425712 6.4665666 -1.9011291
-2.0983992 6.4658709 -1.8970172
-2.0531511 6.4612107 -1.8918089
-2.0200377 6.4948077 -1.8981137
-1.9748276 6.4895997 -1.8929054
-1.934148 6.4988298 -1.892083
-1.9055215 6.5493574 -1.9035963
-1.8547777 6.5239253 -1.8926313
-1.8185732 6.5490823 -1.8967432
-1.7836398 6.5796094 -1.9024998
-1.7432345 6.5904298 -1.9024998
-1.7027636 6.6010017 -1.9024998
-1.6526121 6.5730867 -1.8912606
-1.6198003 6.6139278 -1.9003068
-1.5798568 6.6265488 -1.9011291
-1.5409061 6.6436124 -1.9033222
-1.4990547 6.6482515 -1.9019516
-1.4532937 6.6347785 -1.8953725
-1.409355 6.6285205 -1.8909864
-1.3700167 6.6436362 -1.8929054
-1.3280953 6.6462593 -1.8912606
-1.2861934 6.6486182 -1.8896159
-1.2522737 6.6932507 -1.9003068
-1.2091278 6.6894522 -1.8970172
-1.1710347 6.7137985 -1.9019516
-1.1290201 6.7161155 -1.9005809
-1.0891726 6.7314606 -1.903048
-1.0466659 6.7304149 -1.9008551
-1.0049231 6.7338567 -1.9000326
-0.96331376 6.7379923 -1.8994844
-0.92325526 6.7533045 -1.9022257
-0.88068014 6.7502599 -1.8997586
-0.83888888 6.7526731 -1.8989362
-0.79755223 6.7586489 -1.8992103
-0.75606692 6.7634153 -1.8992103
-0.71404803 6.763145 -1.8978397
-0.67234635 6.7654853 -1.8972914
-0.63100004 6.7713981 -1.8978397
-0.58943969 6.7751427 -1.8978397
-0.54770201 6.7767148 -1.8972914
-0.50618219 6.7809067 -1.8975655
-0.464237 6.7790875 -1.8961949
-0.42287207 6.7856479 -1.8972914
-0.38149807 6.7929158 -1.8986621
-0.33928135 6.7845635 -1.8956467
-0.29722372 6.7769098 -1.8929054
-0.25607136 6.7901378 -1.8961949
-0.21473746 6.8021545 -1.8992103
-0.1730697 6.8062286 -1.9000326
-0.13162047 6.8235078 -1.9046929
-0.089546472 6.8088012 -1.9003068
-0.047719147 6.8024912 -1.8983879
-0.0059554931 6.7776518 -1.8912606
0.035721485 6.7948709 -1.8961949
0.077391557 6.7926006 -1.8956467
0.11932071 6.8064208 -1.8997586
0.16067329 6.7882552 -1.8948243
0.20212203 6.7804127 -1.8929054
0.24523987 6.821332 -1.904967
0.28749406 6.8293071 -1.9077083
0.32522666 6.7409625 -1.8830369
0.3692435 6.7878141 -1.8970172
0.41030508 6.7758212 -1.894276
0.45059383 6.7539849 -1.8887935
0.49572888 6.801928 -1.9033222
0.53586507 6.7786255 -1.8975655
0.57703978 6.7704186 -1.8961949
0.61848396 6.7657928 -1.8959208
0.66017318 6.7637849 -1.896469
0.70325029 6.7749119 -1.9008551
0.74512243 6.7733374 -1.9016775
0.78578109 6.7609954 -1.8994844
0.82853609 6.7665472 -1.9024998
0.86427325 6.7165055 -1.8896159
0.91035289 6.7472925 -1.9000326
0.95079571 6.7349138 -1.8981137
0.99013942 6.7156334 -1.894276
1.0289903 6.6942229 -1.88989
1.0730835 6.7067757 -1.8953725
1.1175271 6.7199874 -1.9011291
1.1575946 6.7063699 -1.8992103
1.1980449 6.695354 -1.8981137
1.2415563 6.7011156 -1.9019516
1.2815645 6.6877041 -1.9003068
1.3236958 6.6853752 -1.9019516
1.3619963 6.6639361 -1.8981137
1.4044461 6.662982 -1.9003068
1.4448949 6.652359 -1.8997586
1.4819089 6.6264749 -1.8948243
1.5305169 6.6519341 -1.904967
1.5690902 6.6330595 -1.9022257
1.6006776 6.5859265 -1.8912606
1.639894 6.5713158 -1.88989
1.6837617 6.5751042 -1.8940018
1.7274934 6.5776715 -1.8978397
1.7663211 6.5613761 -1.8961949
1.8050139 6.5448523 -1.8945501
1.8482741 6.5447598 -1.8978397
1.8854604 6.5231328 -1.8948243
1.9120903 6.4662514 -1.881392
1.953957 6.461762 -1.8835851
1.9910133 6.4413815 -1.8811179
2.023839 6.4079514 -1.874813
2.0578058 6.3789377 -1.8698786
2.0969076 6.3661914 -1.8698786
2.1386881 6.3614092 -1.8723458
2.1776805 6.3481669 -1.8723458
2.2280238 6.3673639 -1.8822144
2.2586498 6.3300228 -1.8750871
2.3030353 6.3314095 -1.8797473
2.342509 6.3189626 -1.8802955
2.3744423 6.2864766 -1.874813
2.4026127 6.2448616 -1.8665892
2.4398329 6.2273154 -1.8657668
2.475147 6.2050815 -1.8635738
2.5193236 6.204926 -1.8682339
2.557349 6.1893506 -1.8682339
2.5937872 6.1699963 -1.8671374
2.6387801 6.1707659 -1.8723458
2.6750596 6.1509309 -1.8712493
2.7104173 6.1291237 -1.8696046
2.7515225 6.1202722 -1.8720717
2.7798319 6.0831552 -1.8657668
2.8195353 6.0712175 -1.8674116
2.8604276 6.0616307 -1.8698786
2.8900847 6.0283556 -1.8649445
2.9329138 6.022614 -1.8687822
2.9621391 5.9889874 -1.8638479
2.9940839 5.961246 -1.8608325
3.036284 5.9539003 -1.8643962
3.0802748 5.9496765 -1.8690563
3.1055403 5.9093814 -1.8622031
3.1480765 5.9020948 -1.8660409
3.1764503 5.8682895 -1.8613808
3.2151752 5.8537464 -1.8630255
3.2547772 5.8406286 -1.8652185
3.2943394 5.8272457 -1.8674116
3.3352945 5.8160992 -1.8704269
3.3656006 5.7863803 -1.8674116
3.4059274 5.7739038 -1.8701528
3.4378357 5.7471194 -1.8682339
3.4790189 5.7357845 -1.8715235
3.5126364 5.7118721 -1.8707011
3.5415127 5.680418 -1.8674116
3.5768142 5.6593938 -1.8676857
3.6161408 5.6446285 -1.8701528
3.6528022 5.6255603 -1.8712493
3.6877799 5.6038446 -1.8715235
3.722095 5.5811114 -1.8715235
3.7535777 5.554184 -1.8701528
3.7903035 5.5350156 -1.8715235
3.8236463 5.5108643 -1.8712493
3.8618124 5.4935932 -1.8734423
3.8993526 5.4752779 -1.8753612
3.9351254 5.4543686 -1.8764577
3.9679513 5.4293442 -1.8761836
4.0017624 5.4056678 -1.8764577
4.0377402 5.3848591 -1.8778284
4.0643077 5.3515577 -1.874813
4.100585 5.3310928 -1.8764577
4.1308551 5.3027968 -1.8753612
4.1639104 5.2781057 -1.8756354
4.1998191 5.2569652 -1.8772801
4.2344155 5.2340875 -1.8783766
4.2585292 5.1983356 -1.874813
4.2995548 5.1832108 -1.8789248
4.3337512 5.1596775 -1.8800215
4.364706 5.1322565 -1.8797473
4.3998795 5.1097512 -1.881392
4.4229345 5.0732341 -1.8778284
4.4482527 5.0395103 -1.8753612
4.4861393 5.02001 -1.8783766
4.5168571 4.9923887 -1.8783766
4.5480542 4.9652891 -1.8786508
4.5888972 4.9485726 -1.8830369
4.6086435 4.9091039 -1.8786508
4.633379 4.8751564 -1.8764577
4.6492033 4.8320804 -1.8707011
4.6814489 4.8062186 -1.8717976
4.7196288 4.7863059 -1.8753612
4.7475495 4.7558951 -1.874813
4.7848444 4.7347932 -1.8781025
4.8199954 4.7113948 -1.8805697
4.8550396 4.6877437 -1.8830369
4.8844075 4.6585293 -1.8833109
4.9121995 4.6278119 -1.8830369
4.9503584 4.6067567 -1.8868746
4.9749918 4.573041 -1.8855039
5.0043821 4.5437217 -1.8860523
5.0257244 4.5071511 -1.8835851
5.0540047 4.4768667 -1.8838592
5.0958538 4.4584374 -1.8893417
5.1114726 4.4170241 -1.8849556
5.1355529 4.3830805 -1.8838592
5.1513214 4.3421888 -1.8797473
5.1889534 4.3197293 -1.8838592
5.2190752 4.290863 -1.8852298
5.2408261 4.2551212 -1.8835851
5.257833 4.2156644 -1.8802955
5.2805853 4.1809359 -1.879199
5.3008361 4.1443095 -1.8772801
5.3368225 4.1199341 -1.8811179
5.3635311 4.0882764 -1.8816662
5.4015775 4.0651212 -1.8863263
5.4356818 4.0387845 -1.8896159
5.4588103 4.0042176 -1.8890676
5.4871712 3.9734683 -1.8904382
5.5114489 3.9397247 -1.8904382
5.5402331 3.9091599 -1.892083
5.5649042 3.8756418 -1.8923571
5.5862021 3.8397889 -1.8915347
5.6144328 3.8086798 -1.8931795
5.6329017 3.7709484 -1.8915347
5.660748 3.7394953 -1.8931795
5.6851978 3.7057416 -1.8937278
5.7013583 3.6666262 -1.8915347
5.7481093 3.6470323 -1.8997586
5.7663031 3.6091425 -1.8983879
5.7670646 3.5605564 -1.8912606
5.8011236 3.5326068 -1.8953725
5.8251634 3.4984307 -1.8961949
5.8423824 3.4601719 -1.8948243
5.8585215 3.4213483 -1.8931795
5.8802371 3.3858166 -1.8934536
5.8850117 3.3406513 -1.8882452
5.9188261 3.3119931 -1.8926313
5.9390368 3.2756135 -1.8926313
5.9598684 3.2395701 -1.8929054
5.9770908 3.2015777 -1.892083
5.9915199 3.162149 -1.8904382
6.0073967 3.1235514 -1.8893417
6.0375767 3.0923319 -1.8929054
6.0667405 3.060426 -1.8961949
6.0699024 3.0154412 -1.8912606
6.0917459 2.9798307 -1.8923571
6.1211786 2.9478214 -1.8959208
6.1452336 2.9130909 -1.8978397
6.1708355 2.8789897 -1.9003068
6.187511 2.8406706 -1.9000326
6.2048244 2.8026512 -1.9000326
6.213995 2.7610116 -1.8975655
6.2352252 2.724757 -1.8989362
6.2535934 2.6872065 -1.8994844
6.2752795 2.6510303 -1.9011291
6.298533 2.615427 -1.9033222
6.3019967 2.5716429 -1.8994844
6.3390799 2.5415165 -1.9060634
6.3590288 2.5043352 -1.9074341
6.3608217 2.4600654 -1.9033222
6.3811908 2.4230385 -1.904967
6.3995428 2.3851824 -1.9060634
6.4113479 2.3448794 -1.9052411
6.4373822 2.3097188 -1.9088048
6.4423618 2.2669835 -1.9060634
6.4570599 2.227725 -1.9063376
6.4851832 2.1929932 -1.9107237
6.4930396 2.1513445 -1.9090788
6.5042887 2.1108696 -1.9085306
6.5290327 2.074707 -1.9120942
6.5361304 2.0328927 -1.9104495
6.5475612 1.9924694 -1.9101753
6.5467591 1.9484155 -1.9063376
6.5659781 1.9103584 -1.9085306
6.5757265 1.8695083 -1.9079823
6.5870738 1.8291252 -1.9079823
6.6009574 1.7894282 -1.9088048
6.62111 1.7513516 -1.911546
6.6270757 1.709491 -1.9101753
6.6374397 1.6687958 -1.9101753
6.6438184 1.6271225 -1.9090788
6.6461935 1.5845416 -1.9068859
6.6632853 1.5454701 -1.9090788
6.682024 1.5066718 -1.9118202
6.6977186 1.4670842 -1.9137391
6.7009506 1.4247597 -1.9120942
6.6944966 1.3805081 -1.9077083
6.7179298 1.3424214 -1.9120942
6.7222638 1.3004448 -1.9109977
6.7216091 1.2575811 -1.9085306
6.7490721 1.2199078 -1.9142873
6.7564306 1.1784734 -1.9142873
6.7692246 1.1379514 -1.9159321
6.7333593 1.0894799 -1.9035963
6.5403624 1.0170988 -1.8460296
6.5769167 0.98149282 -1.8548017
6.2467575 0.89305347 -1.7580348
6.5417776 0.89432436 -1.8413695
6.5929151 0.86014253 -1.8545276
6.6858687 0.83058572 -1.8797473
6.7280869 0.79394394 -1.8904382
6.7481232 0.75435656 -1.8948243
6.7707958 0.71485627 -1.9000326
6.7817535 0.67396408 -1.9019516
6.7924643 0.63296437 -1.9038705
6.7943039 0.59110785 -1.9033222
6.804513 0.54995036 -1.9052411
6.8077593 0.50818831 -1.9052411
6.8165059 0.46680167 -1.9068859
6.83076 0.42568606 -1.9101753
6.8246017 0.38327944 -1.9077083
6.8393111 0.34202242 -1.9112719
6.8432026 0.30013517 -1.9118202
6.8439546 0.25810412 -1.911546
6.8492541 0.21622714 -1.9126425
6.8504519 0.17419684 -1.9126425
6.8417768 0.13197394 -1.9099013
6.8588052 0.090207063 -1.9145614
6.8611526 0.048134129 -1.9151096
6.8632421 0.0060357871 -1.9156579
6.8583417 -0.036051396 -1.9142873
6.8695312 -0.078263506 -1.9175768
6.8669987 -0.12037908 -1.9170285
6.8709378 -0.16262542 -1.9183992
6.860198 -0.20449567 -1.9156579
6.8616972 -0.24668868 -1.9164803
6.8533282 -0.28850389 -1.9145614
6.8533502 -0.33064225 -1.9151096
6.8252649 -0.37127852 -1.9077083
6.818059 -0.41286021 -1.9063376
6.63308 -0.44253483 -1.8542534
6.6570959 -0.48518202 -1.8619291
6.6060581 -0.52223355 -1.8482226
6.5902729 -0.56169677 -1.844659
6.3242908 -0.57815111 -1.7695482
6.6422267 -0.64831585 -1.8616549
6.9155264 -0.71783793 -1.9411517
6.9463611 -0.76414615 -1.9512944
6.9348545 -0.80597705 -1.9493755
6.9202328 -0.84734511 -1.9466343
6.905365 -0.88856405 -1.943893
6.8931117 -0.93001813 -1.9419742
6.8806095 -0.97135532 -1.9400553
6.8840342 -1.0149579 -1.9427965
6.8349028 -1.050606 -1.9304608
6.7760983 -1.0841709 -1.9153838
6.6146841 -1.1000218 -1.8707011
6.3898416 -1.1029775 -1.8076519
6.2901802 -1.1255692 -1.7807873
6.2103434 -1.1506579 -1.7596797
6.1021028 -1.1693816 -1.730348
6.0372658 -1.1954107 -1.7136263
5.9958973 -1.2255015 -1.7037576
5.9590931 -1.2561215 -1.6952598
5.9728885 -1.2973557 -1.7015647
5.9882789 -1.3392259 -1.7084179
5.9827604 -1.3765908 -1.7092402
5.9564195 -1.4090692 -1.7040318
5.9327092 -1.4419575 -1.6996458
5.9302816 -1.4799623 -1.7015647
5.9043198 -1.5120287 -1.6966304
5.9079533 -1.5516477 -1.7004682
5.8899632 -1.5856196 -1.698001
5.8662167 -1.6178955 -1.6938891
5.8469238 -1.6512463 -1.6911478
5.8098893 -1.6793488 -1.6831982
5.816998 -1.7201463 -1.6884066
5.7879229 -1.7502403 -1.682924
5.7743182 -1.7848696 -1.6821016
5.7559214 -1.8179499 -1.6799086
5.7290988 -1.848215 -1.6752485
5.7441401 -1.8920567 -1.6831982
5.7078099 -1.9189935 -1.6757967
5.7068443 -1.9577237 -1.6790862
5.6910934 -1.9914331 -1.6779897
5.6588397 -2.0192065 -1.6719589
5.6273642 -2.046988 -1.6662023
5.6137967 -2.0811443 -1.6659281
5.5946236 -2.1131723 -1.6640092
5.5932202 -2.1519489 -1.667573
5.5799112 -2.1862278 -1.667573
5.5404868 -2.210093 -1.6596233
5.5232573 -2.2426002 -1.6585268
5.5093927 -2.276448 -1.6585268
5.5041866 -2.3139367 -1.661268
5.4996119 -2.351825 -1.6642834
5.4744949 -2.3809237 -1.6609938
5.4430714 -2.4070809 -1.6557854
5.4527593 -2.4514735 -1.663461
5.445487 -2.4884818 -1.6659281
5.4065652 -2.5109124 -1.6585268
5.4014935 -2.5489635 -1.6618162
5.3935566 -2.5857997 -1.6642834
5.4069867 -2.6331594 -1.6736038
5.3786597 -2.6603181 -1.6697659
5.351922 -2.688092 -1.6664764
5.3413248 -2.723938 -1.6683953
5.3151159 -2.7517974 -1.6653799
5.2879152 -2.7789907 -1.6620904
5.2843409 -2.8186252 -1.6664764
5.2796335 -2.8578622 -1.6705884
5.2451396 -2.8809452 -1.6651058
5.2483659 -2.9247768 -1.6719589
5.2412047 -2.9630771 -1.6755226
5.1987305 -2.9813082 -1.667573
5.1753516 -3.0102501 -1.6659281
5.1526423 -3.039506 -1.6645576
5.1504016 -3.0809376 -1.67004
5.1330452 -3.1134791 -1.6705884
5.1048331 -3.1393754 -1.667573
5.0879226 -3.1721652 -1.6683953
5.0577941 -3.1966457 -1.6648316
5.0146003 -3.2125766 -1.6568819
4.9972138 -3.2448564 -1.6577044
4.9603386 -3.2643566 -1.6519477
4.9386153 -3.293664 -1.6513994
4.9246874 -3.3282123 -1.6535925
4.875607 -3.3388076 -1.6437238
4.8803139 -3.3862026 -1.652496
4.8484297 -3.4083416 -1.6486582
4.8133245 -3.4279859 -1.6437238
4.7945399 -3.4591432 -1.6445463
4.7778835 -3.4919014 -1.646191
4.7563677 -3.521152 -1.646191
4.7108197 -3.5323868 -1.637693
4.7043748 -3.5728574 -1.6431756
4.6793141 -3.5993104 -1.6420791
4.6624522 -3.632091 -1.643998
4.652914 -3.6707561 -1.6486582
4.6408229 -3.7076399 -1.652496
4.6164904 -3.7348359 -1.6519477
4.5756316 -3.7484665 -1.6453686
4.5621681 -3.7844527 -1.6489323
4.5469623 -3.8191776 -1.6519477
4.5139184 -3.8389065 -1.648384
4.5063119 -3.8803356 -1.6544148
4.4483461 -3.878212 -1.6415309
4.4013929 -3.8850698 -1.6327587
4.3609776 -3.8972654 -1.6264539
4.3327036 -3.9200795 -1.6248091
4.302186 -3.9407449 -1.622342
4.2969656 -3.9847229 -1.6297433
4.2913666 -4.0287843 -1.6371448
4.2777195 -4.0656395 -1.6415309
4.253386 -4.0924773 -1.6418049
2.3398011 -2.2793481 -0.8904227
2.3264558 -2.2943373 -0.89069682
2.3096118 -2.3058515 -0.88960028
4.1422 -4.1860585 -1.6379672
4.1507225 -4.2464676 -1.6519477
4.0925226 -4.2386498 -1.6387895
4.1002903 -4.299171 -1.65277
4.0461354 -4.2948518 -1.6412567
4.0616384 -4.3646517 -1.6588008
4.0009365 -4.3526764 -1.6445463
3.9916091 -4.3963666 -1.6519477
3.9921696 -4.4515605 -1.6637352
3.9717951 -4.4838901 -1.6667506
3.9429412 -4.5067286 -1.6662023
3.9145854 -4.5301099 -1.6659281
3.8773499 -4.5430722 -1.6618162
3.8370039 -4.552072 -1.6563337
3.7936175 -4.5570531 -1.6494806
3.7533686 -4.5653882 -1.643998
3.7222543 -4.5845995 -1.6426274
3.7259398 -4.6471167 -1.6571561
3.6985495 -4.6713991 -1.6577044
2.0070198 -2.5674436 -0.88822967
1.9853512 -2.5720978 -0.88548839
1.9642844 -2.577348 -0.88302124
1.9432281 -2.5824368 -0.88055408
1.9198892 -2.5842769 -0.87699044
1.8653139 -2.5432808 -0.8583498
1.6945491 -2.3404856 -0.78296489
1.6756818 -2.3445807 -0.78077185
1.6518379 -2.3414605 -0.77611166
3.4073343 -4.8925624 -1.6588008
3.3598163 -4.8880177 -1.6500288
3.3335402 -4.9141116 -1.6519477
3.3001149 -4.9296784 -1.6503029
3.2639732 -4.9410086 -1.6472875
3.2314937 -4.9577208 -1.646191
3.1926889 -4.9645138 -1.6418049
3.1554687 -4.9734545 -1.6382413
3.1289752 -4.9992437 -1.6404344
3.093694 -5.0109839 -1.6379672
3.0748944 -5.0495849 -1.6445463
3.0512807 -5.0807233 -1.6486582
3.0180881 -5.0960402 -1.6475617
2.9935529 -5.1260886 -1.6513994
2.9658828 -5.1510272 -1.6535925
2.9057329 -5.1189499 -1.6371448
2.8813138 -5.149271 -1.6412567
2.8445547 -5.1575904 -1.6382413
2.8123953 -5.1741023 -1.6379672
2.7787783 -5.187871 -1.6368707
2.7419555 -5.1954679 -1.6338553
2.7180116 -5.2275524 -1.6387895
1.5533581 -3.0332701 -0.93071938
1.534717 -3.0427442 -0.93071938
1.5147344 -3.04952 -0.92989695
2.5965097 -5.3082309 -1.6437238
2.5517881 -5.2989364 -1.6357741
2.5130465 -5.3014593 -1.6316622
2.4800634 -5.315908 -1.6313882
2.4473989 -5.3310251 -1.6313882
2.4142463 -5.3450656 -1.631114
2.3864813 -5.3712029 -1.6346776
2.3430803 -5.3619528 -1.6272762
2.3249454 -5.410687 -1.6379672
2.2924509 -5.4266224 -1.6385155
2.2616925 -5.4468036 -1.6404344
2.23368 -5.4739342 -1.6445463
2.1771431 -5.4304104 -1.6270021
2.1317985 -5.4132442 -1.6176817
2.1044414 -5.4414706 -1.622342
2.0785253 -5.4740596 -1.6283728
2.0385156 -5.4695888 -1.6231643
2.0105329 -5.4973478 -1.6278245
1.9761143 -5.5077705 -1.6272762
1.9451555 -5.527956 -1.6297433
1.9111999 -5.5397873 -1.6297433
1.8771725 -5.5514102 -1.6297433
1.844587 -5.5673881 -1.631114
1.8062345 -5.5657954 -1.6272762
1.7723408 -5.5776901 -1.6275504
1.738369 -5.5893779 -1.6278245
1.7009602 -5.589819 -1.6248091
1.6688247 -5.6075244 -1.6270021
1.6338487 -5.6158118 -1.6264539
1.5985708 -5.6229563 -1.6256315
1.56198 -5.625246 -1.6234385
1.5332233 -5.6560726 -1.6297433
1.4992273 -5.6681628 -1.6305658
1.4622575 -5.6688743 -1.6280986
1.427681 -5.6786728 -1.6283728
1.3918952 -5.6835895 -1.6272762
