# .PCD v0.7 - Point Cloud Data file format
VERSION 0.7
FIELDS x y z
SIZE 4 4 4
TYPE F F F
COUNT 1 1 1
WIDTH 1485
HEIGHT 1
VIEWPOINT 0 0 0 1 0 0 0
POINTS 1485
DATA ascii
-0.52365905 -3.0212193 -0.19425932
-0.55844289 -3.1082363 -0.20118938
-3.1199462 -16.745298 -1.2493619
-3.2194264 -16.709194 -1.2480813
-3.3660948 -16.911123 -1.2651805
-3.4639752 -16.861826 -1.2629961
-0.55409497 -2.6204293 -0.16495718
-0.56931239 -2.6130831 -0.16465588
-0.88819295 -3.9569895 -0.26898351
-3.9445815 -17.065138 -1.2857447
-4.0637445 -17.101732 -1.2904903
-4.1068649 -16.823645 -1.27083
-4.2211699 -16.842621 -1.2742951
-0.70857871 -2.7593591 -0.17783807
-0.72854847 -2.7665296 -0.17874199
-0.624237 -2.3134353 -0.1436397
-0.92745227 -3.3531919 -0.22544461
-0.93984854 -3.3186579 -0.22318481
-0.96575212 -3.3319817 -0.22469135
-4.9563618 -16.699369 -1.2785133
-0.80931813 -2.6700933 -0.17339379
-0.83868808 -2.7069814 -0.17670816
-1.0390961 -3.2816129 -0.22265752
-5.514894 -17.036606 -1.3153481
-5.6152558 -16.990139 -1.314369
-5.954978 -17.653593 -1.3700354
-1.4227921 -4.1366949 -0.29308808
-1.4488082 -4.1297688 -0.29323873
-1.1978326 -3.3491054 -0.2313201
-1.2176759 -3.339819 -0.23116945
-1.5211022 -4.0930552 -0.29248548
-1.5461881 -4.0836449 -0.29248548
-1.1665605 -3.0256648 -0.20759216
-1.1883866 -3.0268023 -0.2082701
-1.3732656 -3.4351356 -0.24209183
-1.3732548 -3.3749285 -0.23787354
-1.3939371 -3.3664389 -0.23787354
-7.1015363 -16.845179 -1.3435957
-1.2779225 -2.9825096 -0.20774281
-1.2894214 -2.9590743 -0.20646225
-1.4490478 -3.2701433 -0.23282664
-1.8412336 -4.0865946 -0.30122337
-1.4429562 -3.1514931 -0.22446536
-1.466897 -3.1525233 -0.22529395
-1.8773293 -3.9699895 -0.29436862
-1.9038136 -3.9628892 -0.29474527
-1.7491373 -3.5846546 -0.26393661
-1.431734 -2.8895609 -0.20623627
-1.4252176 -2.8326292 -0.20216863
-0.90689278 -1.7761919 -0.11328299
-0.92236823 -1.7794442 -0.11403626
-1.8680341 -3.5478394 -0.26551846
-1.8972918 -3.5503798 -0.26672369
-1.9223701 -3.5448062 -0.26725098
-1.9498563 -3.5434258 -0.26815492
-1.4570181 -2.6103861 -0.18845914
-1.4779245 -2.6100719 -0.18921241
-1.4640929 -2.5490854 -0.1846928
-1.4867381 -2.5521138 -0.18574739
-1.4957713 -2.531785 -0.18476814
-1.5235853 -2.5430841 -0.18657598
-1.4971989 -2.4646735 -0.1804745
-1.5028749 -2.4401615 -0.17911862
-1.496152 -2.396224 -0.17603022
-5.079298 -8.019783 -0.67974055
-5.2135415 -8.1210375 -0.69164222
-1.4029324 -2.1576734 -0.15704787
-1.4419509 -2.1881464 -0.16058823
-1.4470377 -2.1668227 -0.15945832
-1.4418513 -2.1306586 -0.15697254
-1.4582833 -2.1267045 -0.15742451
-1.5168506 -2.1832092 -0.16345064
-1.5187314 -2.1575577 -0.16194411
-1.5302033 -2.1457636 -0.16171813
-1.5462621 -2.1403742 -0.16209477
-1.4904251 -2.036727 -0.15328152
-1.6086555 -2.1700873 -0.16668969
-1.6686677 -2.2223537 -0.17256519
-1.6001357 -2.1041629 -0.16232075
-1.6044933 -2.0832486 -0.16126618
-1.6184728 -2.0749364 -0.16141683
-1.6274632 -2.0602734 -0.16096486
-1.6425672 -2.0533624 -0.16126618
-1.6275034 -2.0091646 -0.15795179
-1.6524556 -2.0145543 -0.15945832
-1.6513989 -1.9882745 -0.15787646
-1.6629255 -1.9773413 -0.15780114
-1.6659714 -1.9564759 -0.15674657
-1.6779448 -1.9462168 -0.15674657
-1.697728 -1.9448955 -0.15765049
-1.7228433 -1.9493793 -0.15915702
-2.636852 -2.9460223 -0.26130018
-2.2550106 -2.488775 -0.21633007
-2.404428 -2.6210752 -0.2313201
-2.7150691 -2.9232833 -0.26401192
-2.7930837 -2.9704797 -0.2706407
-2.3085318 -2.4254642 -0.2155768
-2.3309844 -2.4191496 -0.21640539
-3.1851053 -3.264642 -0.30717421
-3.1798446 -3.2195032 -0.30446243
-3.4005315 -3.4008448 -0.32593057
-3.2858109 -3.2460973 -0.31154314
-3.4762731 -3.3922791 -0.32954624
-2.4945648 -2.4050503 -0.22439003
-14.413903 -13.719392 -1.4658511
-2.549319 -2.3981619 -0.22702648
-2.5705624 -2.388581 -0.22770441
-2.6468978 -2.4293818 -0.23403187
-2.6543646 -2.4064 -0.2332786
-2.5769393 -2.3076129 -0.22393808
-2.6665108 -2.3584566 -0.23154607
-2.9190545 -2.5499365 -0.25542468
-2.7201731 -2.3470454 -0.23403187
-2.675308 -2.279882 -0.22815637
-2.6854312 -2.2602143 -0.22777975
-15.439839 -12.826889 -1.478958
-15.522879 -12.735705 -1.4794099
-3.402209 -2.7577534 -0.29346472
-15.723158 -12.580387 -1.483779
-4.0836625 -3.227617 -0.35583532
-3.8109133 -2.9743407 -0.32781374
-16.081614 -12.388637 -1.4961325
-16.189867 -12.314477 -1.4992208
-16.285057 -12.229876 -1.5011041
-3.1722353 -2.3531759 -0.26099887
-3.1013191 -2.2712412 -0.25301421
-16.392637 -11.845124 -1.4904077
-16.485304 -11.758793 -1.4922909
-3.0431242 -2.1437418 -0.24382435
-3.0218275 -2.1011312 -0.24066062
-3.0585113 -2.0989051 -0.2428451
-3.1159258 -2.1102798 -0.24691275
-3.2084203 -2.1442888 -0.25414413
-3.3480721 -2.207969 -0.2655938
-3.5203872 -2.2906702 -0.27990589
-3.6174641 -2.322335 -0.28736323
-5.7346702 -3.6312423 -0.47537896
-5.767839 -3.6028523 -0.47635821
-17.340164 -10.681369 -1.5011041
-3.6384261 -2.2116325 -0.28427485
-3.5988934 -2.1574924 -0.27960458
-3.7022085 -2.188627 -0.28751388
-3.7707114 -2.1979935 -0.29233482
-17.753038 -10.198073 -1.5092393
-17.867342 -10.11843 -1.513759
-3.9698703 -2.2171516 -0.30611962
-3.9519475 -2.1754482 -0.30340785
-3.9599619 -2.1483068 -0.3029559
-3.8798411 -2.0741608 -0.29497126
-3.8986716 -2.0535669 -0.29549855
-3.8740199 -2.0103259 -0.29233482
-3.9315705 -2.0096521 -0.29617649
-3.9518445 -1.989524 -0.29685441
-16.989532 -8.4186993 -1.3949686
-7.6674385 -3.7416816 -0.60712552
-7.6794662 -3.6893845 -0.60622162
-17.325521 -8.1914883 -1.4103353
-5.7749171 -2.6880028 -0.44381702
-5.7505016 -2.6338398 -0.4404273
-19.175381 -8.6377735 -1.551347
-5.8343563 -2.586097 -0.44472095
-5.8327456 -2.5426815 -0.44328973
-5.7959924 -2.4844611 -0.43899611
-19.56538 -8.2419968 -1.5664124
-11.326382 -4.6901975 -0.88869715
-11.358642 -4.6221151 -0.88899845
-9.6237974 -3.8476994 -0.7455762
-9.6398001 -3.7856612 -0.7449736
-11.458543 -4.4187126 -0.89035434
-11.702735 -4.4305644 -0.90790546
-11.936278 -4.4354153 -0.92455268
-11.986691 -4.3706298 -0.92643589
-12.038633 -4.3060641 -0.92846966
-12.118464 -4.2509241 -0.93276334
-12.189583 -4.1920481 -0.93637902
-11.577229 -3.9022496 -0.88553339
-7.7916093 -2.5735312 -0.58249366
-7.8119979 -2.5272081 -0.5828703
-12.428535 -3.9358797 -0.94745207
-12.558178 -3.8923042 -0.95581329
-11.622774 -3.5244563 -0.88010985
-11.669994 -3.460726 -0.88214368
-12.923641 -3.7462497 -0.97908932
-12.945425 -3.6666095 -0.97901398
-9.7028561 -2.6843007 -0.7231288
-9.7152939 -2.6236751 -0.72282749
-12.772546 -3.364979 -0.96040827
-12.997705 -3.3391275 -0.97637755
-13.221087 -3.3101532 -0.99219614
-13.077424 -3.1890566 -0.97946596
-12.978378 -3.0806694 -0.97027606
-13.099056 -3.0245242 -0.97818536
-13.081367 -2.9360163 -0.9753983
-11.522729 -2.512172 -0.8535195
-13.389574 -2.8330395 -0.99648976
-13.43308 -2.7562385 -0.99852359
-13.437024 -2.6712363 -0.99754435
-13.489392 -2.5957065 -1.0003314
-13.590356 -2.5287509 -1.0068849
-13.511397 -2.4283888 -0.99965352
-13.664577 -2.3694487 -1.0102746
-13.661155 -2.2826033 -1.0089188
-13.666042 -2.1973131 -1.0082408
-13.773874 -2.1280267 -1.0154722
-14.004665 -2.0757642 -1.0321194
-14.498927 -2.0581458 -1.0688789
-14.53401 -1.9722253 -1.0706114
-15.925377 -2.0614839 -1.1756923
-16.415743 -2.0225914 -1.2120751
-22.62882 -2.6468124 -1.6836963
-22.749691 -2.5195446 -1.6916809
-22.832163 -2.3869545 -1.6968031
-23.818909 -2.342407 -1.7706233
-25.680723 -2.3664067 -1.9108065
-0 -0 -0
-25.808224 -2.0590918 -1.9184146
-25.839268 -1.9020869 -1.9198458
-25.868361 -1.7447113 -1.9212017
-25.893509 -1.5868675 -1.9223316
-25.884836 -1.4269708 -1.9209757
-25.88912 -1.2679226 -1.9206743
-25.878481 -1.108279 -1.9193184
-25.873833 -0.94906914 -1.9184899
-25.861229 -0.78974539 -1.917134
-25.871569 -0.63119465 -1.917586
-25.865982 -0.47227439 -1.916908
-25.867395 -0.31354278 -1.9168327
-25.853874 -0.15472868 -1.9157028
-25.863312 0.003912393 -1.9163808
-25.818928 0.16232879 -1.9130664
-25.820436 0.32078499 -1.9132923
-25.778103 0.47846815 -1.9102793
-25.78764 0.63695127 -1.9112585
-25.77029 0.79476911 -1.9102793
-25.735033 0.95177072 -1.9080194
-25.708784 1.1087998 -1.906513
-25.688549 1.2658864 -1.9055337
-25.630518 1.4207228 -1.9017674
-25.606388 1.5770419 -1.9006374
-25.571358 1.7324438 -1.8987542
-22.319191 -0.56845361 -1.9196709
-22.313295 -0.4313215 -1.9188849
-22.304565 -0.29425681 -1.9179243
-22.282043 -0.15722391 -1.9158283
-22.261669 -0.020481277 -1.9139944
-22.240456 0.1160054 -1.9121605
-22.219402 0.2522423 -1.910414
-22.197515 0.3882252 -1.9086673
-22.180773 0.52409011 -1.9074447
-22.164196 0.65979379 -1.9063095
-22.15077 0.79545671 -1.9055235
-22.139502 0.93110526 -1.9049995
-22.130386 1.0667894 -1.9047375
-22.121433 1.2024506 -1.9045628
-22.102701 1.3375009 -1.9036022
-22.080162 1.4721677 -1.9023796
-22.026005 1.6043656 -1.8984498
-22.003828 1.738543 -1.8974018
-21.96694 1.8713253 -1.8951312
-21.930243 2.0038109 -1.892948
-21.910595 2.1376576 -1.8923367
-21.896074 2.2719555 -1.8922493
-21.87578 2.4056113 -1.8917254
-21.856651 2.5393336 -1.8913761
-21.843624 2.6737587 -1.891638
-21.815939 2.8063405 -1.8906775
-21.781525 2.9378843 -1.8891928
-21.753225 3.070086 -1.8883196
-21.706383 3.1994367 -1.8858744
-21.690281 3.3331695 -1.8862237
-21.665487 3.4655664 -1.8858744
-21.644796 3.5986013 -1.8859617
-21.615437 3.7301579 -1.8853503
-21.576452 3.859911 -1.8839531
-21.535711 3.9891448 -1.8824685
-21.48539 4.1163373 -1.8801979
-21.439207 4.2440295 -1.878364
-21.397146 4.3723073 -1.8769667
-21.364067 4.5022831 -1.8764428
-21.337986 4.6337085 -1.8766174
-21.316929 4.7662878 -1.877316
-21.291166 4.8978891 -1.8776654
-21.207394 5.0158277 -1.8728622
-21.153954 5.1404495 -1.8708537
-21.202238 5.2901659 -1.8781019
-21.103756 5.4033599 -1.8721635
-21.148249 5.5532408 -1.8792373
-21.226324 5.7131901 -1.8894548
-21.196632 5.8449135 -1.8899788
-21.166121 5.9764876 -1.8905028
-21.168289 6.1175871 -1.8940833
-21.180031 6.262044 -1.8986244
-21.174583 6.4019742 -1.9016809
-21.180588 6.5458965 -1.9058728
-21.185621 6.6901331 -1.9100646
-21.175459 6.8300905 -1.9129465
-21.171946 6.9726677 -1.916527
-21.183531 7.1208539 -1.9215921
-21.167709 7.2603951 -1.924212
-21.145329 7.398036 -1.9263079
-21.153955 7.5470562 -1.931373
-21.14657 7.6910119 -1.935041
-21.134476 7.8337765 -1.9383594
-21.189457 8.0023727 -1.948053
-21.184584 8.1494045 -1.9522449
-21.251053 8.3250189 -1.9632484
-21.206974 8.458209 -1.9639471
-21.215595 8.6129036 -1.9697107
-21.212067 8.7634573 -1.9744265
-21.19463 8.9088869 -1.9779197
-21.182617 9.0571737 -1.9820242
-21.183285 9.211606 -1.9874387
-21.155521 9.3543015 -1.9902332
-21.136795 9.5014954 -1.9939884
-21.124308 9.6521235 -1.9984422
-21.104441 9.8000174 -2.0022848
-21.090761 9.9514313 -2.0068259
-21.128117 10.12802 -2.016432
-21.057514 10.253544 -2.0156462
-21.055817 10.413027 -2.0216718
-21.036039 10.564381 -2.0260384
-20.984133 10.700044 -2.0273483
-20.95347 10.846916 -2.0308416
-20.92444 10.995205 -2.0345967
-20.899652 11.146358 -2.0388758
-20.878176 11.299991 -2.0435915
-20.859091 11.455696 -2.0486567
-20.83975 11.612077 -2.0538092
-20.795858 11.755415 -2.0566037
-20.782103 11.91649 -2.0625422
-20.763706 12.075833 -2.0681312
-20.735554 12.230338 -2.0728471
-20.696028 12.378816 -2.076515
-20.650347 12.524167 -2.0796587
-20.53153 12.625072 -2.0753796
-20.396193 12.714978 -2.0694411
-20.289158 12.821795 -2.0664721
-20.189972 12.933149 -2.0643761
-20.077648 13.035633 -2.0609703
-19.974817 13.143797 -2.0586123
-19.870584 13.250638 -2.0561671
-19.725351 13.329366 -2.0494428
-19.61771 13.432701 -2.0467355
-19.521824 13.543735 -2.0453382
-19.398418 13.635194 -2.041059
-19.302217 13.745296 -2.0397491
-19.222363 13.86697 -2.0402732
-19.10635 13.962321 -2.0369546
-18.950659 14.02773 -2.029357
-18.85865 14.139562 -2.0287457
-18.735836 14.2279 -2.0248158
-18.607121 14.311013 -2.0202746
-18.492239 14.404101 -2.0173054
-18.386301 14.503724 -2.0153842
-18.268942 14.593884 -2.0122402
-18.138777 14.673127 -2.0076993
-18.005247 14.748798 -2.0028086
-17.897541 14.845008 -2.0008874
-17.784758 14.936607 -1.9984422
-17.680632 15.035127 -1.9970449
-17.574455 15.13163 -1.995473
-17.474522 15.233289 -1.9946871
-17.367279 15.328359 -1.9931151
-17.268442 15.430651 -1.9925911
-17.156445 15.520947 -1.9905826
-17.044725 15.611122 -1.9886613
-16.92597 15.694416 -1.985954
-16.821363 15.790477 -1.9849935
-16.701773 15.872121 -1.9822862
-16.588274 15.959107 -1.9803649
-16.474339 16.0453 -1.9784437
-16.359261 16.129997 -1.9764352
-16.235304 16.205441 -1.9733787
-16.111738 16.28068 -1.9704094
-15.953043 16.319395 -1.9630737
-15.827005 16.390461 -1.9598426
-15.694509 16.454105 -1.9558253
-15.576858 16.532696 -1.9537294
-15.473763 16.626503 -1.9535547
-15.366735 16.716002 -1.9529434
-15.262539 16.8085 -1.9527688
-15.167098 16.910732 -1.9538168
-15.037949 16.975143 -1.9504982
-14.913172 17.043854 -1.947791
-14.777045 17.09886 -1.9435992
-14.647274 17.160418 -1.9402807
-14.519873 17.224072 -1.9373115
-14.399892 17.295998 -1.9353902
-14.282739 17.370947 -1.9339056
-14.160813 17.439697 -1.9318097
-14.039205 17.508383 -1.9298011
-13.917288 17.576235 -1.9277925
-13.798135 17.647173 -1.9262207
-13.677418 17.715734 -1.924474
-13.564836 17.794569 -1.9239501
-13.4518 17.872692 -1.923426
-12.510633 16.836279 -1.8012519
-13.215551 18.014734 -1.9210682
-13.097754 18.085802 -1.9200202
-12.978425 18.154482 -1.9187976
-12.863914 18.229706 -1.9183609
-12.74897 18.304207 -1.9179243
-12.633032 18.377163 -1.9174004
-12.52283 18.458452 -1.917837
-12.419866 18.550673 -1.9194962
-12.299767 18.617386 -1.9185356
-12.191285 18.701685 -1.9194962
-12.068221 18.763571 -1.9181863
-11.460218 18.060907 -1.837581
-11.363983 18.15453 -1.8400263
-11.15712 18.069651 -1.8241323
-11.542443 18.952843 -1.9077941
-11.43055 19.030994 -1.9085801
-11.311532 19.097343 -1.9082307
-11.19213 19.162951 -1.9078814
-11.052464 19.193279 -1.9040389
-9.6267176 16.957237 -1.6718295
-10.795668 19.290955 -1.9003711
-10.670362 19.34462 -1.8991485
-10.542423 19.393099 -1.8974892
-10.413353 19.43898 -1.8956553
-10.287836 19.491056 -1.8945199
-10.160234 19.53879 -1.8930354
-10.031526 19.58392 -1.8913761
-9.9008512 19.624647 -1.8893675
-9.7718287 19.668077 -1.8877083
-9.639143 19.703505 -1.8853503
-9.5055275 19.736252 -1.8828177
-9.3765669 19.778002 -1.8812459
-9.2504015 19.825233 -1.8802853
-9.1152802 19.85265 -1.8774906
-8.984272 19.888233 -1.8755695
-8.8547897 19.9266 -1.8739974
-8.7231798 19.959562 -1.8719889
-8.5950384 19.999897 -1.8707663
-8.4675074 20.041248 -1.8697183
-8.3401737 20.082706 -1.8687577
-8.2107687 20.118746 -1.8673605
-8.0786409 20.147482 -1.8653519
-7.9435482 20.167938 -1.8626447
-7.809947 20.191214 -1.8602867
-7.6763597 20.21361 -1.8579289
-7.5438356 20.237928 -1.8558329
-7.4116445 20.262318 -1.8538244
-7.2797751 20.286785 -1.8519031
-7.1505308 20.317917 -1.8506805
-7.0205283 20.346342 -1.8492832
-6.8923616 20.379599 -1.8484099
-6.7637382 20.411104 -1.8474493
-6.6368327 20.447485 -1.8470126
-6.5027957 20.461239 -1.8445674
-6.3679523 20.471268 -1.8418602
-6.2378721 20.495659 -1.8405503
-6.1122799 20.534504 -1.8406376
-5.985054 20.567795 -1.8402883
-5.8606467 20.610838 -1.8408996
-5.7386031 20.662729 -1.8423842
-5.6156216 20.711973 -1.8436941
-5.491487 20.757597 -1.8447421
-5.3640175 20.790901 -1.8447421
-5.2334304 20.811829 -1.8436941
-5.1032624 20.833874 -1.8428209
-4.9711728 20.847351 -1.8412489
-4.8438377 20.880373 -1.8415109
-4.7180376 20.920391 -1.8424715
-4.5906501 20.953812 -1.8429081
-4.4615788 20.979637 -1.8427335
-3.0552206 14.813261 -1.2883651
-2.9523597 14.772141 -1.283038
-2.828732 14.6198 -1.2678427
-2.7263286 14.569318 -1.261817
-2.6258922 14.524995 -1.2564025
-2.5382602 14.549665 -1.2571884
-2.4218438 14.403855 -1.2428664
-2.3313484 14.40566 -1.2417312
-2.2488854 14.458083 -1.245137
-2.1190908 14.196722 -1.220772
-1.9968209 13.963907 -1.1990269
-1.9070526 13.946287 -1.1964071
-1.8215729 13.958714 -1.1964943
-1.7387155 13.992366 -1.198503
-1.6548129 14.019588 -1.1999875
-1.5652158 13.997799 -1.197193
-1.4871465 14.081439 -1.2037427
-1.4181638 14.265758 -1.2192001
-1.306742 14.018286 -1.1966691
-1.2798008 14.70486 -1.2564025
-1.1902722 14.721372 -1.2571884
-1.1371031 15.226097 -1.3009406
-1.0446779 15.247695 -1.3022505
-0.9477511 15.200129 -1.2975347
-0.86251909 15.348882 -1.3101102
-0.72448796 14.478344 -1.2332602
-0.63550574 14.479531 -1.2329981
-0.57293177 15.178991 -1.2940415
-0.47726512 15.102566 -1.2870553
-0.38702518 15.200812 -1.2954389
-0.29380527 15.205889 -1.2957008
-0.19029985 14.435434 -1.2280204
-0.10207446 14.486137 -1.2323868
-0.013274181 14.579136 -1.2405086
0.078253135 14.977409 -1.2754403
0.16701265 14.699727 -1.2511628
0.25624821 14.643644 -1.2463596
0.34597754 14.636817 -1.2459229
0.45035562 15.124322 -1.2888892
0.53203535 14.811661 -1.2617296
0.62110883 14.76532 -1.2579744
0.70968169 14.71944 -1.2543066
0.7680949 14.127928 -1.2027822
0.85416621 14.113006 -1.2019088
0.94008338 14.097559 -1.2010355
1.0244685 14.062713 -1.198503
1.106814 14.006508 -1.1941365
1.1916366 13.986549 -1.1930012
1.2783402 13.988894 -1.1938745
1.3666649 14.006566 -1.1961451
1.4451807 13.926575 -1.1898574
1.529952 13.911504 -1.1893333
1.6156275 13.904822 -1.1895953
1.7059982 13.936177 -1.1932632
1.7875373 13.894817 -1.1905559
1.8744915 13.896422 -1.1916913
1.9573567 13.86789 -1.1902066
2.0467689 13.885185 -1.1928265
2.1349542 13.892057 -1.1945732
2.2236152 13.900336 -1.1964943
2.313765 13.915912 -1.1991143
2.3994467 13.903417 -1.199289
2.4847114 13.888432 -1.199289
2.6442654 14.274528 -1.2350941
2.6620789 13.894073 -1.2026075
2.7455404 13.868683 -1.2018214
2.8381634 13.888664 -1.20514
2.9296968 13.901206 -1.2078472
3.0341737 13.971556 -1.2157942
3.1289732 13.993507 -1.219462
3.2279522 14.031323 -1.2246145
3.3268251 14.065541 -1.2295049
3.4241219 14.090361 -1.2336094
3.5122023 14.075851 -1.2342207
3.6246934 14.156331 -1.2434777
3.7076919 14.119371 -1.2421678
3.7939982 14.095393 -1.2420805
3.8896823 14.105461 -1.245137
3.9715569 14.065031 -1.2436523
4.0547414 14.02987 -1.2426918
4.1401858 14.002815 -1.2425171
4.2404418 14.024826 -1.2468836
4.3367109 14.031855 -1.2499402
4.4512234 14.095226 -1.2582364
4.5348744 14.059115 -1.2574505
4.6098366 13.996963 -1.2543066
4.7070599 14.002407 -1.2574505
4.8177733 14.045818 -1.2641748
4.9495916 14.146694 -1.2763137
5.0309453 14.101046 -1.2749164
5.1459727 14.148551 -1.2822521
5.2413454 14.140061 -1.2844353
5.3434935 14.148641 -1.2882779
5.4480896 14.162075 -1.2926443
5.5781221 14.238758 -1.3030366
5.6631703 14.198712 -1.3025125
5.7389445 14.136005 -1.2998927
5.8278556 14.10605 -1.3004166
5.9664087 14.194003 -1.3122061
6.0236254 14.087513 -1.3055691
6.1055818 14.040238 -1.3046085
6.2157865 14.057178 -1.3098482
6.3656363 14.160516 -1.3234717
6.4350166 14.083135 -1.3198038
6.5464802 14.097597 -1.3250436
6.6490111 14.091398 -1.3283621
6.7865901 14.157234 -1.3387543
6.8885932 14.146674 -1.3418108
6.997345 14.148787 -1.3461773
7.0849228 14.107368 -1.346352
7.2500877 14.218049 -1.3615474
7.3376498 14.174181 -1.3616347
7.4332867 14.145646 -1.3632939
7.5204115 14.100649 -1.3633813
7.6176953 14.074389 -1.3653898
7.7700849 14.147882 -1.3774413
7.8528695 14.092977 -1.3767427
8.0058622 14.16247 -1.3886195
8.1059895 14.136414 -1.3909774
8.1975842 14.095021 -1.3918507
8.2894821 14.053895 -1.3928113
8.4389648 14.108779 -1.4036403
8.6292076 14.22794 -1.4211935
8.6970396 14.143327 -1.4179623
8.8642864 14.219038 -1.4313238
9.031723 14.291541 -1.4445105
9.1670656 14.310512 -1.4522828
9.2818241 14.295771 -1.4566493
9.3671761 14.235221 -1.4563
9.4703732 14.201512 -1.4588325
9.593029 14.195962 -1.4644216
9.7052794 14.173821 -1.4683515
11.737459 16.91818 -1.7675427
11.842765 16.848288 -1.7678047
11.938987 16.765566 -1.7667568
10.617266 14.717467 -1.5533231
12.219059 16.720747 -1.7779349
12.261566 16.564587 -1.7691146
11.994867 15.998061 -1.7153196
12.072321 15.897186 -1.7123504
12.165385 15.817286 -1.7117391
12.297102 15.787139 -1.7167169
11.852669 15.025453 -1.6401289
11.925366 14.928315 -1.6374216
11.963488 14.789028 -1.6299986
12.063475 14.726903 -1.6313086
12.125628 14.618868 -1.627466
12.920462 15.384084 -1.7236159
13.023003 15.314382 -1.7247512
13.123224 15.241735 -1.7256244
13.240065 15.187959 -1.7287683
13.385082 15.165438 -1.7356673
13.517709 15.127593 -1.7409072
13.653715 15.092383 -1.7465836
13.805944 15.073704 -1.7543559
13.915108 15.006971 -1.7565392
14.013744 14.92857 -1.7574124
14.102336 14.839414 -1.7570632
14.201411 14.761219 -1.7581111
14.306313 14.688789 -1.759945
14.425548 14.630525 -1.7636129
14.525603 14.552312 -1.7649229
14.606833 14.455202 -1.7639621
14.707362 14.377143 -1.7654468
14.85908 14.348217 -1.7732191
15.103981 14.406667 -1.792257
15.21022 14.330797 -1.7944403
15.40579 14.337645 -1.8073651
15.585879 14.327796 -1.8183686
15.777486 14.326319 -1.830682
15.965208 14.319035 -1.8424715
16.1758 14.329802 -1.8568809
16.36763 14.321463 -1.8690197
16.5984 14.344526 -1.8856124
16.767935 14.312259 -1.895044
17.027569 14.354215 -1.9147804
17.277624 14.384594 -1.9332943
17.521763 14.406747 -1.9510223
17.725058 14.392529 -1.9640343
17.938158 14.383835 -1.9780945
18.176025 14.392235 -1.9948617
18.344038 14.343027 -2.0037694
18.455357 14.248464 -2.0063891
18.574917 14.159718 -2.0099697
18.615286 14.010731 -2.0049045
18.68891 13.887334 -2.0035946
18.723167 13.735276 -1.9980929
18.744162 13.574557 -1.9912812
18.784149 13.428584 -1.9866527
18.833635 13.290099 -1.9831595
18.87232 13.144681 -1.9786184
18.910753 12.999853 -1.9741646
18.95554 12.860085 -1.9704968
18.980286 12.707508 -1.9648203
19.011356 12.560057 -1.9599298
19.037159 12.409984 -1.9546027
19.085299 12.275157 -1.9517208
19.112314 12.127397 -1.946743
19.139082 11.980298 -1.9418526
19.175783 11.840132 -1.9380975
19.204681 11.695822 -1.9336436
19.256443 11.565966 -1.931635
19.296192 11.429317 -1.9284912
19.334129 11.292112 -1.9252599
19.374565 11.156862 -1.9223781
19.415802 11.022526 -1.9196709
19.423088 10.869617 -1.9136451
19.451036 10.729063 -1.9098027
19.454363 10.575729 -1.9036022
19.490789 10.441108 -1.9008077
19.526297 10.306437 -1.8980131
19.53879 10.160234 -1.8930354
19.568846 10.023805 -1.8898915
19.584623 9.8806591 -1.8854377
19.551208 9.7137613 -1.876268
19.568386 9.5730391 -1.8721635
19.580984 9.4307423 -1.8677098
19.591675 9.2882271 -1.8631686
19.607674 9.1488838 -1.8592387
19.621798 9.0092793 -1.8552216
19.637671 8.8710775 -1.8514664
19.655319 8.7342339 -1.8479732
19.66564 8.5947161 -1.8438687
19.660345 8.4491072 -1.838367
19.646667 8.300787 -1.8321667
19.667789 8.1678543 -1.829372
19.673265 8.0289526 -1.8251803
19.689798 7.8951111 -1.8221238
19.695236 7.7573543 -1.8181065
19.709944 7.6237822 -1.81505
19.716307 7.4874921 -1.8112948
19.739475 7.3580232 -1.809199
19.755251 7.2261562 -1.8064917
19.64357 7.0489483 -1.791995
19.78042 6.9613571 -1.800728
19.77191 6.8223085 -1.7960122
19.814342 6.7011809 -1.7960995
19.855087 6.5794764 -1.7960995
19.913088 6.4633675 -1.7977587
19.955219 6.3419666 -1.7980207
20.015635 6.2262106 -1.8000293
20.058228 6.1047297 -1.8004659
20.115356 5.9875088 -1.8022999
20.158413 5.8659186 -1.8029112
20.203608 5.7448435 -1.8037845
20.241356 5.6215682 -1.8040465
20.280275 5.4985671 -1.8044832
20.319412 5.375555 -1.8050071
20.35973 5.2527671 -1.8057058
20.383848 5.1257997 -1.8050071
20.443943 5.007741 -1.807627
20.473316 4.8819742 -1.8075397
20.512589 4.7585115 -1.8084129
20.541401 4.6325593 -1.8084129
20.582088 4.5092039 -1.8095483
20.618139 4.3846951 -1.8103342
20.638802 4.2568941 -1.8098103
20.664532 4.130177 -1.8098103
20.699266 4.0051966 -1.8106835
20.736181 3.8804953 -1.8118188
20.789009 3.7585049 -1.8144387
20.844065 3.6365256 -1.8173206
20.86795 3.5088909 -1.8174952
20.898922 3.3823731 -1.8183686
20.916328 3.2536168 -1.8181065
20.947721 3.1269805 -1.8191545
20.966515 2.9983888 -1.8191545
21.011166 2.8733289 -1.8215125
21.054085 2.747705 -1.8237829
21.13085 2.625963 -1.8291101
6.9391098 0.81885833 -0.57496953
6.9271736 0.77438295 -0.57348496
6.8208399 0.72014284 -0.56370401
6.8221564 0.67798167 -0.56344205
6.8321395 0.63666391 -0.56396604
6.8160686 0.59300268 -0.56221944
6.8215647 0.55132955 -0.56239408
6.8158784 0.5087949 -0.56160814
6.8129091 0.46655515 -0.56108415
6.8096781 0.42437103 -0.56056017
6.8012133 0.38196453 -0.55959952
6.7964644 0.33987719 -0.55898821
6.7964315 0.29808107 -0.55881357
6.8001232 0.25644854 -0.55898821
6.7916121 0.21440402 -0.55811495
6.7987747 0.17287973 -0.55863893
6.8126554 0.13141049 -0.55977422
6.8143296 0.08961951 -0.55986154
6.8277016 0.047897492 -0.56099683
6.8378286 0.0060119457 -0.5618701
6.8347483 -0.03592876 -0.56160814
6.8343992 -0.07786531 -0.56160814
6.844749 -0.11999035 -0.56256872
6.851851 -0.16217479 -0.56326741
6.8507271 -0.2042139 -0.56326741
6.8483496 -0.24620959 -0.56318003
6.8765688 -0.28948087 -0.56579995
6.8875985 -0.33229256 -0.56693524
6.9928589 -0.38038534 -0.57636684
18.626413 -1.1272037 -1.598298
18.448183 -1.2300763 -1.5832772
18.348881 -1.3365928 -1.5752429
18.322458 -1.4477422 -1.573671
18.272535 -1.5566734 -1.5700904
18.19022 -1.6621464 -1.5637155
14.226673 -1.3881352 -1.2155323
18.08522 -1.8766085 -1.5563797
18.064453 -1.9865621 -1.5555937
10.584964 -1.2299837 -0.89660454
10.584139 -1.2957557 -0.89721584
10.581918 -1.361437 -0.89773977
10.573365 -1.4263407 -0.89773977
10.57921 -1.4932787 -0.89904976
10.604342 -1.5632471 -0.90210629
13.835934 -2.1263306 -1.1895953
13.815741 -2.2100849 -1.188984
13.844175 -2.3018398 -1.1927392
18.161913 -3.1342514 -1.5781248
14.546425 -2.6024101 -1.2578871
17.955564 -3.3260484 -1.5632788
13.451842 -2.5773613 -1.1631345
18.100046 -3.5830851 -1.5799587
18.079672 -3.6944761 -1.5801333
18.042042 -3.8022604 -1.5788234
17.993061 -3.9073968 -1.5765529
17.954163 -4.0144663 -1.5752429
17.766094 -4.0870385 -1.5605716
17.745529 -4.1971188 -1.5610082
17.694273 -4.299809 -1.5587376
17.596033 -4.3904533 -1.5522752
8.2251091 -2.1061928 -0.70674992
8.1898699 -2.1508029 -0.70474136
17.459332 -4.6993556 -1.5474721
7.7172608 -2.1282792 -0.66422039
7.7030978 -2.1753209 -0.66413307
17.304796 -5.0011225 -1.5415337
8.0273762 -2.3736181 -0.69627041
7.9745183 -2.4112973 -0.69277722
7.9576693 -2.4595945 -0.69260252
8.0250731 -2.534472 -0.7002002
16.958366 -5.4699626 -1.5245044
16.906507 -5.5679936 -1.5228451
7.8316455 -2.632879 -0.68675148
16.758696 -5.748219 -1.5155967
16.69302 -5.8404136 -1.5128022
16.620277 -5.9296761 -1.5093964
16.569538 -6.0264373 -1.5080864
16.418289 -6.0857549 -1.4974322
16.361069 -6.1789904 -1.4955983
16.290306 -6.266746 -1.4925418
16.193111 -6.3436928 -1.48704
16.150181 -6.4414563 -1.4866906
16.0762 -6.5265665 -1.4834595
16.028486 -6.6220427 -1.4827609
15.976532 -6.7156348 -1.4817129
15.89747 -6.797482 -1.4781324
15.848154 -6.8917212 -1.4774338
15.79828 -6.985611 -1.4767351
15.743308 -7.0771065 -1.4755998
15.670592 -7.1603246 -1.4728053
15.601064 -7.2445955 -1.47036
15.540101 -7.3325343 -1.4687881
15.482241 -7.42172 -1.4675655
15.432828 -7.5148335 -1.4672161
15.384642 -7.6085029 -1.4670415
15.31096 -7.6893463 -1.4644216
15.236867 -7.7695723 -1.4618018
15.170328 -7.8533006 -1.4599679
15.105101 -7.9374323 -1.4583086
13.060802 -6.9658551 -1.2600703
14.968011 -8.1013346 -1.4544661
14.911035 -8.189188 -1.4537674
14.851804 -8.2756777 -1.4528941
14.79641 -8.3641996 -1.4524574
12.441719 -7.1342874 -1.2197241
12.605245 -7.3311882 -1.2407705
12.589198 -7.4256015 -1.2437397
12.952911 -7.7476377 -1.2855706
14.399147 -8.7330389 -1.4387467
14.333411 -8.813921 -1.4375241
14.265534 -8.8932714 -1.4361268
12.26623 -7.7518687 -1.2344828
14.104156 -9.0348845 -1.4307997
14.046782 -9.1201715 -1.4306251
14.00304 -9.2144032 -1.4319351
13.96613 -9.3134146 -1.4340309
13.923578 -9.4089727 -1.4356029
13.882023 -9.5054855 -1.4373494
13.8439 -9.604681 -1.4395326
13.786336 -9.6905899 -1.4397074
13.75664 -9.7963791 -1.4429386
13.87078 -10.006489 -1.4618018
13.733515 -10.036161 -1.4535928
13.607619 -10.072826 -1.4466064
13.525632 -10.141192 -1.4444232
13.418724 -10.190255 -1.4395326
13.323569 -10.247499 -1.4359522
13.230577 -10.305798 -1.4326336
13.120946 -10.350384 -1.4274812
12.956784 -10.350493 -1.4162157
12.851208 -10.395968 -1.4114999
12.773306 -10.463264 -1.409928
12.693529 -10.528723 -1.4081813
12.605039 -10.586551 -1.4054742
12.54895 -10.671438 -1.4065222
12.498334 -10.761235 -1.4082687
12.428314 -10.834449 -1.407832
12.349651 -10.899956 -1.4064348
12.272138 -10.966234 -1.4052122
12.171375 -11.011255 -1.4012823
12.070524 -11.055453 -1.3973525
11.972512 -11.101538 -1.393772
11.871485 -11.144111 -1.3898422
11.789162 -11.203705 -1.3881829
11.715888 -11.271687 -1.387659
11.615818 -11.313476 -1.3839037
11.507166 -11.346068 -1.3791006
11.385861 -11.365088 -1.3727255
11.318014 -11.436861 -1.3729875
11.265036 -11.5239 -1.3751708
11.221102 -11.620751 -1.3785766
11.179153 -11.72038 -1.3823318
11.106345 -11.788029 -1.3822445
6.9610162 -7.4799118 -0.85817951
10.933209 -11.893365 -1.3786639
10.823195 -11.919663 -1.3738608
10.71327 -11.945062 -1.3690577
6.7515726 -7.6216474 -0.8550356
6.6856561 -7.6411896 -0.85250306
6.5715518 -7.6044364 -0.84350812
10.272025 -12.034658 -1.3494959
10.183863 -12.080704 -1.3475746
10.099346 -12.130714 -1.3461773
10.044337 -12.216308 -1.3488846
9.9390488 -12.240589 -1.3446927
9.8936682 -12.338648 -1.3488846
9.8177729 -12.399122 -1.3488846
2.0455177 -2.616679 -0.25359657
1.9861994 -2.5731964 -0.24739619
1.9673535 -2.5813739 -0.24695954
1.9514774 -2.5933969 -0.24695954
1.9384987 -2.6093199 -0.24739619
1.9371831 -2.6412456 -0.24957943
1.923862 -2.6571162 -0.25001606
9.1332426 -12.77597 -1.339191
9.0977573 -12.892814 -1.3457407
1.9008181 -2.7296801 -0.25403324
1.8829046 -2.73965 -0.25385857
1.8671776 -2.7528005 -0.25403324
1.8552395 -2.7716553 -0.25481921
8.6699858 -13.123429 -1.3412869
8.6083393 -13.205588 -1.3443434
8.4689484 -13.167673 -1.3349118
8.3607731 -13.176493 -1.330458
8.2913942 -13.246121 -1.3323792
8.2062979 -13.290814 -1.3317679
8.1173382 -13.329005 -1.3305453
8.0256548 -13.362336 -1.328886
7.9470677 -13.417329 -1.3294973
7.8751416 -13.483903 -1.3313313
7.7937493 -13.534559 -1.3315933
7.7120314 -13.584725 -1.3318553
7.637289 -13.647437 -1.3334272
7.5596614 -13.705381 -1.3345625
7.4863677 -13.771638 -1.3365711
7.4106636 -13.833999 -1.3382304
7.303319 -13.836922 -1.3340385
7.1957588 -13.838167 -1.3297594
7.1016307 -13.864326 -1.3280128
7.0141835 -13.903193 -1.3275762
6.9358354 -13.960243 -1.3289734
6.8382263 -13.978378 -1.3266155
6.7341719 -13.982378 -1.3229476
6.6226449 -13.969427 -1.3177079
6.5279593 -13.990843 -1.315874
6.432014 -14.008906 -1.313778
6.344295 -14.044477 -1.3134288
6.252337 -14.070396 -1.3122061
6.1818428 -14.145007 -1.3156993
6.1122417 -14.222942 -1.3195418
6.0256319 -14.262013 -1.3197165
5.9345694 -14.290438 -1.3189305
5.856184 -14.349641 -1.3211137
5.7850814 -14.427835 -1.3251309
5.6990004 -14.469548 -1.3257422
5.6165786 -14.520968 -1.3273141
5.5333867 -14.57099 -1.3287988
5.4477043 -14.614935 -1.3297594
5.3510814 -14.629375 -1.3280128
5.2578516 -14.652557 -1.3271395
5.1708231 -14.693 -1.3279254
5.0883698 -14.747052 -1.3300214
4.998107 -14.778939 -1.3301086
4.8966765 -14.777179 -1.3271395
4.8016071 -14.79368 -1.3259169
4.7092361 -14.818117 -1.3254802
4.6161537 -14.840075 -1.3248689
4.5186281 -14.847154 -1.3229476
4.3924842 -14.757163 -1.3122061
4.2834816 -14.720708 -1.3064424
4.1947117 -14.752462 -1.3069663
4.1433024 -14.919021 -1.3198038
4.0626326 -14.984544 -1.3234717
3.9232206 -14.830064 -1.3072283
3.8321512 -14.853857 -1.3072283
3.7365644 -14.859701 -1.3056564
3.6446054 -14.879446 -1.3053944
3.5615573 -14.936413 -1.3085383
3.4770465 -14.989038 -1.3113328
3.3929005 -15.045074 -1.3144767
3.3090501 -15.104533 -1.3179699
3.2225251 -15.153784 -1.3205898
3.1353188 -15.201566 -1.3231224
3.0437422 -15.229309 -1.3239083
2.950618 -15.249655 -1.324083
2.8606577 -15.287056 -1.3258295
2.7678676 -15.310203 -1.3263535
2.6772985 -15.346524 -1.3281001
2.5815966 -15.353822 -1.3273141
0.43129066 -2.6670468 -0.19927756
0.4138459 -2.6627526 -0.19866626
0.41662201 -2.7933257 -0.21001911
0.38254914 -2.6774921 -0.19953956
0.2640588 -1.933624 -0.13351837
0.25141573 -1.929281 -0.1329944
0.23895881 -1.9258446 -0.13255775
0.22702074 -1.9262851 -0.13247041
0.21519701 -1.9276419 -0.13247041
0.20315586 -1.9269447 -0.13229576
0.19103281 -1.9251812 -0.13203377
0.17995644 -1.934252 -0.13273241
0.16773909 -1.9313501 -0.13238309
0.15556416 -1.9283712 -0.13203377
0.14424847 -1.9362433 -0.13264509
0.13345508 -1.9529935 -0.13404235
0.12295769 -1.9776375 -0.13613826
0.10964656 -1.957468 -0.13430434
0.098082021 -1.9670583 -0.13509031
0.093178615 -2.1308393 -0.14941236
0.096345685 -2.5614138 -0.18713875
0.079808548 -2.5360689 -0.18486819
0.087977916 -3.4676363 -0.26652136
0.050665963 -2.6394446 -0.19386314
0.033588022 -2.5729675 -0.18801205
0.019406661 -2.8002486 -0.2079232
0.002341111 -2.9248374 -0.21883941
-0.013995062 -2.614989 -0.19167989
-0.030062649 -2.6168461 -0.19185455
-0.057412665 -3.2630341 -0.24853148
-0.077597775 -3.2695918 -0.24914278
-0.099939167 -3.345726 -0.25586715
-0.11943003 -3.3161793 -0.25333461
-0.13651191 -3.2377505 -0.24652289
-0.1534031 -3.1751604 -0.24110845
-0.16401823 -3.0110266 -0.2267864
-0.18309198 -3.0199072 -0.22765969
-0.20559357 -3.0783653 -0.23289947
-1.1671456 -16.02199 -1.3707169
-1.2654327 -16.014528 -1.3707169
-1.3624041 -15.991572 -1.3694071
-1.4582353 -15.958111 -1.3672237
-1.5542873 -15.930025 -1.3655645
-0.30621943 -2.9478269 -0.22224526
-0.3222326 -2.9270785 -0.220586
-1.765632 -15.196154 -1.3035605
-1.8552102 -15.15537 -1.3009406
-0.47899103 -3.7209642 -0.29132298
-0.50221288 -3.7209167 -0.29158497
-0.42982477 -3.0430632 -0.23185152
-0.44747183 -3.0334697 -0.23124021
-0.46637902 -3.0326362 -0.23141487
-0.48639411 -3.0385706 -0.23220083
-0.50813311 -3.0542002 -0.23386009
-0.48807395 -2.8262217 -0.21386161
-0.49032104 -2.7388408 -0.20635127
-0.50512135 -2.7250061 -0.20539065
-0.52558076 -2.7414231 -0.20713724
-3.1606376 -15.965797 -1.3892308
-3.2477736 -15.893398 -1.384515
-3.3546813 -15.918011 -1.3885322
-0.56543195 -2.6021183 -0.19587171
-0.57595378 -2.5742955 -0.19368848
-0.59620482 -2.5901296 -0.19543506
-0.60841805 -2.5709114 -0.1940378
-0.62112367 -2.5545456 -0.19290251
-3.9146736 -15.689026 -1.3799739
-4.0091367 -15.657955 -1.3793626
-0.65134209 -2.4790878 -0.18713875
-0.66861236 -2.4827402 -0.18783739
-4.2670121 -15.473949 -1.3695817
-0.92558867 -3.2767801 -0.26093227
-0.93212587 -3.2241452 -0.25665313
-4.5655179 -15.441506 -1.3740355
-0.80297637 -2.654634 -0.2055653
-0.85072136 -2.7514963 -0.21490957
-4.7901797 -15.168665 -1.3569189
-4.99722 -15.492623 -1.3894929
-5.1585569 -15.663209 -1.408094
-5.2650414 -15.662422 -1.4109759
-5.3678322 -15.649611 -1.4128098
-5.4637551 -15.616379 -1.4128098
-1.181969 -3.3119791 -0.27071318
-1.2026092 -3.3056004 -0.27080053
-5.8018613 -15.652342 -1.4258219
-5.8833637 -15.578238 -1.4222414
-1.1741964 -3.051393 -0.24905545
-1.2161515 -3.1034942 -0.25464454
-1.293478 -3.242172 -0.26844263
-1.3583114 -3.3449371 -0.27892217
-1.2730706 -3.0805831 -0.25464454
-1.2579807 -2.9918983 -0.24695954
-1.2669159 -2.9621398 -0.24486363
-0 -0 -0
-6.8115849 -15.404687 -1.4390087
-1.3714604 -3.050077 -0.25560516
-1.4174727 -3.1014059 -0.26136893
-7.0205612 -15.118581 -1.4237261
-7.0936413 -15.033776 -1.4197088
-1.9174033 -3.99915 -0.3512311
-7.3111744 -15.01456 -1.4264332
-1.4019854 -2.8341191 -0.23962384
-1.3478194 -2.6830263 -0.22565112
-1.3524915 -2.6516316 -0.22338055
-1.3746895 -2.6547837 -0.22451583
-1.3928065 -2.6498263 -0.22486515
-1.4052892 -2.6341982 -0.22416651
-8.153966 -15.065258 -1.4641596
-1.965943 -3.5789919 -0.32040375
-1.484085 -2.6627088 -0.22966827
-1.5072578 -2.6656935 -0.23089088
-1.5211083 -2.6520741 -0.23045424
-8.6272764 -14.833881 -1.4667796
-8.724206 -14.790962 -1.4678274
-5.0482907 -8.4397268 -0.8245576
-8.8952427 -14.666606 -1.4661683
-8.9934158 -14.625327 -1.4675655
-1.3510379 -2.1665294 -0.18626545
-1.3706919 -2.1683044 -0.18731341
-5.2279654 -8.1609449 -0.81206942
-5.2784839 -8.1295481 -0.8121568
-1.4010624 -2.1285598 -0.1858288
-1.383147 -2.0735097 -0.18093835
-9.6716709 -14.312345 -1.4767351
-1.4355024 -2.0958345 -0.18513018
-9.9010897 -14.271156 -1.4851187
-1.6644731 -2.3673856 -0.21613218
-1.684746 -2.3652427 -0.21700548
-1.696896 -2.3516293 -0.21665616
-1.5608298 -2.1352677 -0.19429979
-1.6912513 -2.2841883 -0.21159105
-1.7321259 -2.3096349 -0.21552087
-1.6492698 -2.171232 -0.20146081
-1.6012229 -2.0813167 -0.19264053
-1.6415099 -2.1068184 -0.19657035
-1.6519384 -2.0935781 -0.19622104
-10.93804 -13.692314 -1.4987422
-10.999294 -13.597059 -1.4955983
-11.097667 -13.547809 -1.4976943
-1.6570305 -1.9972001 -0.1899333
-1.6263299 -1.9358846 -0.18408222
-1.638823 -1.9266281 -0.18416955
-1.6571134 -1.9240855 -0.18504284
-1.6728157 -1.9183869 -0.18556683
-1.6931247 -1.9177963 -0.1867021
-1.6988863 -1.9006858 -0.18591614
-1.7258877 -1.907217 -0.18792473
-1.7422674 -1.9017338 -0.18853603
-2.2815323 -2.4600599 -0.25656581
-2.2863572 -2.4351196 -0.25525585
-2.3328223 -2.4542627 -0.25927302
-2.3457656 -2.4377489 -0.25901103
-2.3613741 -2.4240232 -0.25909835
-2.3755038 -2.4087791 -0.25901103
-12.608604 -12.631713 -1.5270369
-3.2524288 -3.2182257 -0.36354455
-3.4494877 -3.3716063 -0.38528964
-3.3920009 -3.27495 -0.37577072
-3.406265 -3.2485747 -0.37507206
-12.955344 -12.206211 -1.5228451
-3.5246291 -3.2798281 -0.38450366
-2.5839736 -2.3749404 -0.27010188
-3.5048754 -3.1820841 -0.37742996
-3.4783559 -3.1192794 -0.37201554
-3.4221189 -3.0311589 -0.36319524
-2.715699 -2.3757548 -0.27874753
-3.3829339 -2.923146 -0.35437495
-3.3704989 -2.8764639 -0.35088179
-13.55829 -11.42951 -1.5169941
-13.62893 -11.346741 -1.5170814
-3.3613169 -2.7633214 -0.34389541
-3.9729011 -3.2255447 -0.41105187
-3.823972 -3.065872 -0.39210135
-3.7864814 -2.9978244 -0.38581362
-13.688847 -10.703048 -1.4857301
-13.750319 -10.615809 -1.4852934
-3.3276548 -2.5362661 -0.32922402
-11.253813 -8.469944 -1.197193
-11.271989 -8.3757772 -1.1935252
-11.34566 -8.3229551 -1.1959704
-4.0569367 -2.9376519 -0.40153295
-14.217641 -10.163917 -1.4945503
-3.0720217 -2.1673832 -0.2920216
-3.1024289 -2.1604495 -0.29385555
-3.0606258 -2.1035619 -0.28800446
-3.11222 -2.1110294 -0.29210895
-3.1665032 -2.1196046 -0.29647544
-3.1470342 -2.0787191 -0.29306957
-3.1497154 -2.0528419 -0.2920216
-3.2485492 -2.0889831 -0.30101657
-5.7333732 -3.6376815 -0.55767828
-3.4554822 -2.1626041 -0.31979242
-3.4424107 -2.1251361 -0.31708521
-15.193125 -9.2526493 -1.5218846
-3.5818083 -2.1509533 -0.32870007
-3.5769398 -2.1182737 -0.32686612
-3.6079342 -2.106837 -0.32870007
-15.523528 -8.939146 -1.5328007
-15.622267 -8.8688107 -1.5372546
-15.672914 -8.7708416 -1.5369052
-3.864408 -2.1312132 -0.34930983
-3.8704104 -2.1036551 -0.34861121
-3.9218824 -2.1005657 -0.35245371
-3.9593649 -2.0894825 -0.35489893
-16.089251 -8.3663816 -1.5521879
-3.9013655 -1.9980451 -0.34668994
-3.8966534 -1.9655433 -0.3450307
-7.6546845 -3.802856 -0.71172774
-7.6778746 -3.7558162 -0.71172774
-7.6900053 -3.7034476 -0.71067977
-16.56992 -7.8555722 -1.5700032
-10.026923 -4.6783161 -0.93240964
-5.779685 -2.6534095 -0.51995188
-5.7668061 -2.6047721 -0.51715738
-5.7772183 -2.5669112 -0.51663339
-5.8111157 -2.5393937 -0.51837999
-10.150152 -4.3618541 -0.93092507
-10.165713 -4.2948389 -0.9298771
-10.317913 -4.2847281 -0.94184124
-10.354156 -4.2254786 -0.94280189
-10.227326 -4.1006908 -0.92839247
-9.6350012 -3.7947128 -0.87023097
-10.460838 -4.0460367 -0.94568378
-10.466842 -3.9747002 -0.94393718
-10.339817 -3.854032 -0.92978978
-10.380111 -3.7966757 -0.93136168
-10.488535 -3.7635329 -0.9393087
-10.444714 -3.6756244 -0.93310827
-10.424694 -3.5968449 -0.92917848
-7.8165693 -2.6432946 -0.68579084
-7.8014364 -2.5849421 -0.68290895
-10.318582 -3.3489897 -0.91345912
-10.467103 -3.3263483 -0.92524862
-10.530121 -3.2753768 -0.92917848
-10.543348 -3.208673 -0.92856717
-10.53515 -3.1356776 -0.92603457
-10.919575 -3.1773069 -0.95939451
-10.900537 -3.0993466 -0.95590132
-10.844481 -3.0116096 -0.94908959
-9.7061176 -2.6313906 -0.84403211
-11.073231 -2.9292634 -0.96655554
-11.098713 -2.8632553 -0.96725416
-11.098682 -2.7907276 -0.96568221
-11.168814 -2.7356114 -0.97048533
-11.225118 -2.6765037 -0.9740659
-11.170489 -2.5911424 -0.96769083
-11.401911 -2.5712099 -0.98707801
-11.467101 -2.5120745 -0.99153179
-11.290345 -2.4008412 -0.97432786
-11.294131 -2.3293059 -0.97336721
-11.510421 -2.3003817 -0.99144447
-11.512582 -2.2274406 -0.9903965
-11.586741 -2.1681209 -0.99581093
-11.57532 -2.0925541 -0.99362773
-11.910807 -2.0778244 -1.0223591
-11.824111 -1.9880161 -1.0135388
-12.022929 -1.9456704 -1.0301315
-13.214863 -2.0554736 -1.1348397
-13.422308 -2.0034747 -1.152131
-14.212416 -2.0323646 -1.221034
-15.187922 -2.0768733 -1.3062677
-15.894803 -2.0742834 -1.3676604
-15.745105 -1.9565648 -1.3533384
-19.617094 -2.3156807 -1.6940985
-20.145737 -2.2528484 -1.7395099
-21.04682 -2.2229633 -1.8177572
-22.277367 -2.2148278 -1.924998
-0 -0 -0
-22.252256 -1.9368771 -1.9205441
-22.293509 -1.8027127 -1.9231641
-22.352829 -1.6695249 -1.9274433
-22.324884 -1.5297506 -1.9241247
-22.350754 -1.3937932 -1.9256094
-22.337997 -1.2554511 -1.9237754
-22.332346 -1.1177164 -1.9226401
-22.281061 -0.97813165 -1.917575
-22.268726 -0.84072238 -1.916003
-22.262512 -0.70372182 -1.9150424
-19.398054 1.4301457 -1.9105368
-19.356184 1.546526 -1.9072478
-19.332451 1.6640686 -1.9058524
-19.315931 1.7821101 -1.9052545
-19.299683 1.9001092 -1.9047561
-19.276773 2.0173542 -1.9036598
-19.265022 2.1357059 -1.9037595
-19.244637 2.2530634 -1.9030617
-19.221563 2.3700075 -1.9021648
-19.200737 2.4871368 -1.9015667
-19.176243 2.603698 -1.9006698
-19.15892 2.7211723 -1.9005702
-19.133987 2.8375099 -1.8997728
-19.106384 2.9533398 -1.8987761
-19.080044 3.0692542 -1.8979788
-19.046131 3.1838076 -1.8964838
-19.011532 3.2980604 -1.8949888
-18.975269 3.4118326 -1.8933941
-18.949085 3.5272877 -1.8928957
-18.923178 3.6427381 -1.8924971
-18.896566 3.7580035 -1.8920984
-18.869253 3.8730793 -1.8916998
-18.831505 3.9859006 -1.8903044
-18.770723 4.0935268 -1.8866167
-18.73069 4.2053542 -1.8851217
-18.687084 4.3161731 -1.8833277
-18.641855 4.4263849 -1.8814341
-18.598877 4.536912 -1.8798393
-18.565863 4.6497378 -1.879341
-18.529274 4.7615867 -1.8785437
-18.495859 4.874176 -1.878145
-18.45792 4.985497 -1.8773477
-18.425064 5.0981278 -1.8771484
-18.39535 5.2116284 -1.8773477
-18.364937 5.3249564 -1.877547
-18.350042 5.4429188 -1.8794407
-18.335344 5.5611868 -1.8814341
-18.333189 5.6836057 -1.8848227
-18.356779 5.8146214 -1.8910021
-18.338743 5.9329672 -1.8928957
-18.330338 6.0547442 -1.8958857
-18.306984 6.1718721 -1.8973807
-18.287588 6.2905598 -1.8993741
-18.286201 6.4158311 -1.9033607
-18.282091 6.5406508 -1.9071481
-18.264982 6.6612291 -1.9096398
-18.251747 6.7835765 -1.9126298
-18.233973 6.9046025 -1.9152212
-18.228397 7.0306792 -1.9192078
-18.211773 7.1529446 -1.9220982
-18.19618 7.2760096 -1.9251878
-18.192665 7.4044037 -1.9296728
-18.179064 7.5292206 -1.9331613
-18.170116 7.656467 -1.9372476
-18.144745 7.7772222 -1.9396396
-18.161442 7.9166431 -1.946716
-18.158007 8.0480928 -1.9516994
-18.165434 8.185112 -1.9579784
-18.132961 8.3047066 -1.9599717
-18.121355 8.434288 -1.964357
-18.082754 8.5517015 -1.965852
-18.043394 8.6689587 -1.967347
-18.001488 8.785182 -1.9686427
-18.023912 8.9334774 -1.9772141
-17.939428 9.0291376 -1.9739251
-17.889006 9.1417589 -1.9745231
-17.932379 9.3031359 -1.9857855
-17.872316 9.4116011 -1.9854865
-17.894087 9.5637712 -1.9945562
-17.86393 9.689044 -1.9978452
-17.845984 9.8215036 -2.0026293
-17.80884 9.9439182 -2.0053203
-17.77606 10.069189 -2.0086093
-17.737236 10.191457 -2.0113003
-17.691561 10.31012 -2.0132935
-17.657946 10.4362 -2.0167818
-17.610647 10.554583 -2.0187752
-17.583817 10.685696 -2.0232604
-17.540792 10.807481 -2.0259514
-17.500309 10.931249 -2.0290411
-17.464851 11.058652 -2.0328283
-17.444397 11.196243 -2.0385094
-17.422909 11.334 -2.0441904
-17.400387 11.471911 -2.0498714
-17.371862 11.606657 -2.0549545
-17.328331 11.731998 -2.0583432
-17.269146 11.847109 -2.0599377
-17.23126 11.977269 -2.0642235
-17.192425 12.10741 -2.0685091
-17.128342 12.220186 -2.0698049
-17.114325 12.369354 -2.0773795
-17.088682 12.511167 -2.0836585
-17.046759 12.641866 -2.0880439
-16.952957 12.734272 -2.0860505
-16.855497 12.823593 -2.0836585
-16.743395 12.901266 -2.0794725
-16.636463 12.982332 -2.0759842
-16.532293 13.065041 -2.0728946
-16.430065 13.148826 -2.0701039
-16.328978 13.233102 -2.0675125
-16.219015 13.309689 -2.0638249
-16.117146 13.392422 -2.0612335
-16.011066 13.471203 -2.0581439
-15.887965 13.53499 -2.0528615
-15.795576 13.624423 -2.0516653
-15.708683 13.718468 -2.0512667
-15.606323 13.798777 -2.0488746
-15.566583 13.934761 -2.0549545
-15.401165 13.957845 -2.0441904
-15.29617 14.034591 -2.041599
-15.18644 14.10651 -2.0384097
-15.069156 14.170796 -2.0342236
-14.958861 14.241036 -2.0310342
-14.851139 14.313219 -2.0282435
-14.748793 14.390176 -2.0262504
-14.637567 14.458025 -2.023061
-14.54295 14.541939 -2.0222635
-14.441561 14.618865 -2.0205693
-14.346725 14.702216 -2.0198717
-14.240362 14.773491 -2.0175793
-14.125433 14.835367 -2.014091
-14.024595 14.911612 -2.0126956
-13.896944 14.958747 -2.0074131
-13.778662 15.015141 -2.0035262
-13.676249 15.088344 -2.0020311
-13.570801 15.15789 -2.0001376
-13.470947 15.233419 -1.9991409
-13.368714 15.306046 -1.9978452
-13.268698 15.381005 -1.9969481
-13.164392 15.450769 -1.9954531
-13.059731 15.519834 -1.9939581
-12.957263 15.591256 -1.9928619
-12.839891 15.644315 -1.9894731
-12.734261 15.711209 -1.9879781
-12.621453 15.768851 -1.9853868
-12.515205 15.834288 -1.9838918
-12.40863 15.899015 -1.9823967
-12.302947 15.964607 -1.9811012
-12.198132 16.031086 -1.9800048
-12.086987 16.088923 -1.9779117
-11.974407 16.144403 -1.9756194
-11.865129 16.203924 -1.9739251
-11.75324 16.259487 -1.971832
-11.635916 16.306997 -1.968842
-11.511576 16.34392 -1.964656
-11.395173 16.391369 -1.9618653
-11.270178 16.425697 -1.9575797
-11.163601 16.486301 -1.956583
-11.058916 16.549526 -1.955985
-10.957162 16.617071 -1.955985
-10.850655 16.677317 -1.9551877
-10.742745 16.735209 -1.954191
-10.632938 16.789881 -1.9528953
-10.519175 16.837929 -1.950902
-10.407831 16.88945 -1.949407
-10.302453 16.950441 -1.949108
-10.191092 17.001389 -1.9477127
-10.074938 17.043898 -1.9454203
-9.9446163 17.061552 -1.9403373
-9.7723227 17.004917 -1.9267825
-9.5329313 16.826473 -1.8993741
-9.4430895 16.908976 -1.9021648
-9.4701357 17.204578 -1.9293739
-9.3800478 17.291225 -1.932663
-9.2775269 17.355474 -1.9334602
-9.1713247 17.412954 -1.9335599
-9.0560598 17.453003 -1.9317659
-8.940196 17.491407 -1.9298723
-8.8255453 17.531713 -1.9282776
-8.7102947 17.570379 -1.9265832
-8.5962105 17.610975 -1.9251878
-8.4815264 17.649937 -1.9236928
-8.3675385 17.689951 -1.9223971
-8.247921 17.717506 -1.9198059
-8.1307659 17.749689 -1.9178125
-8.0143452 17.782915 -1.9160185
-7.8974195 17.814472 -1.9141248
-7.7863727 17.858946 -1.9137262
-7.6715493 17.894497 -1.9124305
-7.5670161 17.954067 -1.9138259
-7.4601364 18.008434 -1.9147228
-7.349123 18.052948 -1.9146231
-7.2352581 18.090311 -1.9138259
-7.1241221 18.134365 -1.9138259
-7.0098529 18.170309 -1.9130285
-6.8950586 18.204603 -1.9121314
-6.7762942 18.227915 -1.9101381
-6.655458 18.244846 -1.9075468
-6.5376863 18.269413 -1.9058524
-6.4211812 18.296978 -1.9045568
-6.3087921 18.336033 -1.9045568
-6.1980729 18.380054 -1.9051548
-6.0867391 18.422464 -1.9056531
-5.9729738 18.457571 -1.9054538
-5.8581052 18.48913 -1.9049555
-5.7416015 18.515223 -1.9039588
-5.6267309 18.546295 -1.9035602
-5.5122609 18.578564 -1.9033607
-5.3981614 18.612036 -1.9033607
-5.2830448 18.641935 -1.9030617
-5.1667027 18.667288 -1.9023641
-5.0497298 18.689995 -1.9014671
-4.9316587 18.708118 -1.9001714
-4.8147936 18.730316 -1.8993741
-4.6971169 18.74889 -1.8982778
-4.5805726 18.771559 -1.8976798
-4.4561105 18.760586 -1.8936931
-4.3453927 18.806965 -1.8956864
-3.2984462 14.684837 -1.4698089
-3.1762633 14.558002 -1.4547592
-3.0209384 14.265714 -1.4228657
-2.9287469 14.261563 -1.4205735
-2.8444841 14.295856 -1.4222678
-2.7584059 14.321834 -1.4231647
-2.6961539 14.476418 -1.4372178
-2.5586736 14.222398 -1.4097097
-2.4659154 14.206458 -1.4065204
-2.3780437 14.217396 -1.4061217
-2.2899723 14.226808 -1.4056233
-2.1267798 13.749904 -1.3558894
-2.0362408 13.721355 -1.3517035
