# .PCD v0.7 - Point Cloud Data file format
VERSION 0.7
FIELDS x y z
SIZE 4 4 4
TYPE F F F
COUNT 1 1 1
WIDTH 1536
HEIGHT 1
VIEWPOINT 0 0 0 1 0 0 0
POINTS 1536
DATA ascii
10.606628 6.9014273 -1.854911
10.630465 6.8244638 -1.8516554
10.650414 6.7453513 -1.8478079
10.689086 6.6783028 -1.8473639
10.71218 6.6016955 -1.8442563
10.733047 6.5240293 -1.8408527
10.779662 6.4621172 -1.8420366
10.816556 6.3943429 -1.8415927
10.859005 6.3298454 -1.8421845
10.901927 6.2655602 -1.8429245
10.94533 6.2014742 -1.8438123
10.957271 6.1197333 -1.8393729
11.018008 6.0652604 -1.8433684
11.061972 6.0013137 -1.8445523
11.102947 5.9356565 -1.8452922
11.135658 5.8655748 -1.8447002
11.180219 5.801692 -1.8461801
11.2068 5.7284818 -1.8447002
11.259406 5.6685028 -1.8476598
11.294862 5.5997491 -1.8478079
11.33523 5.5333762 -1.8488437
11.390363 5.4739995 -1.8523953
11.428206 5.4061208 -1.8531352
11.463853 5.3371487 -1.8535792
11.489192 5.263413 -1.8523953
11.52578 5.194849 -1.8531352
11.567384 5.1284385 -1.854763
11.60498 5.0601325 -1.8557988
11.621265 4.9825964 -1.8534312
11.624278 4.8996744 -1.8489918
11.685189 4.8411241 -1.8540231
11.71559 4.7697067 -1.854171
11.735453 4.6940594 -1.8526913
11.802696 4.6371493 -1.8589065
11.780177 4.5450668 -1.8507675
11.83929 4.4846082 -1.8557988
11.84897 4.4053321 -1.8529873
11.846975 4.3220406 -1.8483998
11.898414 4.2582631 -1.8523953
11.969111 4.2008924 -1.8594985
12.004015 4.1305895 -1.8609782
11.999145 4.0467458 -1.8562429
12.009663 3.9683909 -1.8540231
12.041314 3.8970618 -1.855207
12.123454 3.8416214 -1.8643819
12.140185 3.7651107 -1.863346
12.134666 3.6819372 -1.8589065
12.157978 3.6076922 -1.8590544
12.193184 3.5368803 -1.8611263
12.180401 3.4522922 -1.8557988
12.212792 3.3806548 -1.8575747
12.239989 3.3074601 -1.8586105
12.239014 3.2267499 -1.8553549
12.215478 3.1405146 -1.8486958
12.293039 3.0801599 -1.8577226
12.324198 3.0077205 -1.8596464
12.349156 2.9336433 -1.8606822
12.378488 2.8604863 -1.8624581
12.384227 2.7818794 -1.8606822
12.434882 2.7132149 -1.8658617
12.447426 2.6360455 -1.8652698
12.46821 2.5606141 -1.8660097
12.479807 2.4832909 -1.8654177
12.517146 2.4109697 -1.8688213
12.516148 2.3312244 -1.8664536
12.529243 2.2542078 -1.8663056
12.560378 2.1803305 -1.8689693
12.596931 2.1071343 -1.8725208
12.598882 2.0280733 -1.870893
12.616953 1.9516364 -1.871781
6.389164 0.9487763 -0.92795157
6.1451793 0.87408775 -0.89021617
5.9857874 0.81400818 -0.86535519
5.9553609 0.77269053 -0.86002785
5.9236722 0.73165601 -0.85455251
5.9093871 0.69310999 -0.85174084
5.8997669 0.65531176 -0.8496691
5.8997426 0.61868733 -0.84907717
5.8994908 0.58208787 -0.84848523
5.8999968 0.54560572 -0.8480413
5.8923945 0.50846058 -0.84641349
5.8796301 0.47103542 -0.84404582
5.870574 0.43407702 -0.84227002
5.8701668 0.39784765 -0.84182608
0 0 -0
0 0 -0
5.8656292 0.28919613 -0.84019828
0 0 -0
0 0 -0
0 0 -0
0 0 -0
5.8806396 0.10929665 -0.84153008
0 0 -0
0 0 -0
0 -0 -0
0 -0 -0
0 -0 -0
0 -0 -0
0 -0 -0
0 -0 -0
0 -0 -0
0 -0 -0
0 -0 -0
0 -0 -0
0 -0 -0
0 -0 -0
0 -0 -0
0 -0 -0
0 -0 -0
6.1926732 -0.57054961 -0.89199197
11.490095 -1.13076 -1.6890231
11.491793 -1.2021675 -1.6903549
11.475354 -1.2716759 -1.6890231
10.589182 -1.2392004 -1.5567272
10.584324 -1.3045143 -1.5571712
10.576119 -1.3694339 -1.5571712
10.567518 -1.434302 -1.5571712
10.575164 -1.5014813 -1.5596869
10.584339 -1.5690986 -1.5624986
11.084702 -1.7129065 -1.6397451
11.057384 -1.7782174 -1.6372294
11.035534 -1.8442365 -1.6356016
11.030831 -1.9130982 -1.6366376
11.012072 -1.9795206 -1.6356016
11.008469 -2.0486815 -1.6369334
11.013172 -2.119556 -1.6395972
10.98638 -2.1843901 -1.6375254
10.96405 -2.2499697 -1.6361935
10.942298 -2.3155627 -1.6350098
10.936581 -2.384557 -1.6363416
10.89376 -2.445333 -1.63205
8.2912655 -1.914377 -1.2347183
10.838876 -2.5731187 -1.6283505
10.841139 -2.6440306 -1.6311622
10.836223 -2.7133849 -1.6329379
10.813623 -2.7783463 -1.63205
7.5056586 -1.9772363 -1.122844
7.4981594 -2.0245426 -1.1235838
10.737775 -2.970588 -1.6284986
10.698412 -3.0304856 -1.6252429
10.710011 -3.104888 -1.6299783
10.68981 -3.1702635 -1.6298304
7.9710288 -2.4169595 -1.2077856
7.9428239 -2.4617226 -1.2057139
7.9228554 -2.508919 -1.2049739
7.9289541 -2.5644886 -1.2083775
10.570629 -3.4910951 -1.6271666
10.529329 -3.5492535 -1.6240591
10.487715 -3.6070366 -1.6209514
10.470051 -3.6729577 -1.6216913
10.392378 -3.7174726 -1.6129603
7.6935396 -2.8051131 -1.1867721
10.426626 -3.8747036 -1.6258348
10.455373 -3.9585733 -1.6342698
10.454877 -4.0319066 -1.6381173
10.443748 -4.1014047 -1.6403371
10.42206 -4.1668782 -1.640929
10.37706 -4.222918 -1.6378213
10.317146 -4.2725067 -1.632346
10.250637 -4.318831 -1.6258348
10.204855 -4.3734636 -1.6227272
10.167855 -4.4316492 -1.6210994
10.123294 -4.4863396 -1.6182878
10.079346 -4.5410562 -1.6156241
10.024318 -4.5904603 -1.6111846
9.9762373 -4.6426997 -1.607929
9.9296818 -4.6953683 -1.6049694
9.9006844 -4.756207 -1.6049694
9.8677597 -4.8151317 -1.6043774
9.8433456 -4.8782244 -1.6052654
9.807044 -4.9354172 -1.6042295
9.7651281 -4.9896479 -1.6023057
9.7088709 -5.0362625 -1.5980142
9.660285 -5.0865231 -1.5950546
9.6323814 -5.1475668 -1.5956465
9.5884447 -5.1999707 -1.5935748
9.5294991 -5.2439227 -1.5889874
9.5144129 -5.3119402 -1.591947
9.4962692 -5.3785067 -1.5944626
9.4493685 -5.4287896 -1.5920949
9.3834114 -5.4677429 -1.5864716
9.3207378 -5.5081053 -1.5814402
9.270648 -5.5555315 -1.5786285
9.2287798 -5.607688 -1.5772967
9.1790419 -5.65487 -1.574633
9.1248798 -5.6990333 -1.5712295
9.0805483 -5.749095 -1.5696017
9.0542574 -5.8105807 -1.5712295
9.0026827 -5.8557796 -1.5684178
8.9698858 -5.9130864 -1.5690098
8.9285011 -5.9647164 -1.5681218
8.8696232 -6.0044169 -1.5641264
8.817935 -6.0486555 -1.5614626
8.7903996 -6.1094217 -1.5632384
8.7430449 -6.1564097 -1.5614626
8.6632423 -6.1800694 -1.5537676
8.6524105 -6.2528081 -1.558799
8.6122847 -6.3046122 -1.558503
8.5480194 -6.3384843 -1.5537676
8.5556192 -6.4258618 -1.5624986
8.4577866 -6.4339213 -1.5515479
8.4056158 -6.4760375 -1.5491802
8.3399925 -6.5074115 -1.5442967
8.2968035 -6.5560093 -1.5437047
8.2726355 -6.619772 -1.5468124
8.224946 -6.664803 -1.5454806
8.1609621 -6.696322 -1.5410411
8.1067905 -6.7355251 -1.5385255
8.0713634 -6.7902346 -1.5397093
8.0069628 -6.8203897 -1.5352699
7.9672098 -6.8713293 -1.5357138
7.9219184 -6.9174838 -1.5351218
7.8667297 -6.954824 -1.5326061
7.8519073 -7.0280299 -1.5382295
7.7969122 -7.0654492 -1.5358617
7.7388387 -7.0997839 -1.5329021
7.6871591 -7.1397305 -1.5312743
7.6403241 -7.1840534 -1.5306824
7.5946674 -7.2294345 -1.5303864
7.5423326 -7.2683482 -1.5287586
7.522367 -7.338665 -1.5339381
7.4694571 -7.377038 -1.5323102
7.1443291 -7.1429958 -1.4731174
7.0586662 -7.1444817 -1.4642384
7.0043354 -7.1770401 -1.4620187
6.9478121 -7.2070651 -1.459355
6.8830018 -7.2280717 -1.4549156
6.8303914 -7.2615237 -1.4531398
6.7776299 -7.2946024 -1.451364
6.7307372 -7.3338656 -1.4509201
6.6836185 -7.372828 -1.4504762
6.6059318 -7.3775926 -1.443225
2.1752565 -2.458384 -0.45263332
2.1614323 -2.4731746 -0.45292929
2.1494462 -2.4901347 -0.45366922
6.4350724 -7.5517921 -1.4460367
6.3981652 -7.6024861 -1.4482564
6.3621421 -7.6545324 -1.450772
6.2880774 -7.6605515 -1.4444089
6.2060838 -7.6559629 -1.4361218
6.1849456 -7.7263288 -1.4423372
6.1453929 -7.7742209 -1.4442608
2.0118949 -2.5762305 -0.45056158
1.9894094 -2.5799093 -0.44893378
1.9651583 -2.5810483 -0.44686204
1.9433445 -2.5851502 -0.44538221
1.9221436 -2.5898762 -0.44405037
1.8361077 -2.5058644 -0.42629254
1.8201181 -2.5162818 -0.42614454
1.8270459 -2.5588007 -0.43191585
5.9569139 -8.4565401 -1.509225
5.9060421 -8.4945555 -1.509521
5.8448577 -8.5175858 -1.5071533
5.7813954 -8.5369101 -1.5041935
5.7525306 -8.607584 -1.5105568
5.6827316 -8.6171227 -1.5059694
5.6254363 -8.6451969 -1.5047855
5.5332875 -8.6187925 -1.4939828
1.7867285 -2.8195148 -0.46092033
1.7725384 -2.8354576 -0.46180823
1.7566633 -2.8488064 -0.46225217
1.7376095 -2.8569958 -0.46180823
5.2896914 -8.8234911 -1.50079
5.2258911 -8.8396053 -1.4979783
5.1601005 -8.8518515 -1.4945748
5.105689 -8.8833466 -1.4945748
5.0515733 -8.9153681 -1.4947227
4.9948459 -8.9427423 -1.4941308
4.9394035 -8.9723549 -1.4939828
4.8818994 -8.998147 -1.493243
4.8373184 -9.0479937 -1.4966465
4.7803273 -9.0748796 -1.4962026
4.7222776 -9.0996504 -1.4954627
4.6699548 -9.1355 -1.4966465
4.6084766 -9.1533813 -1.4948708
4.5583749 -9.1938915 -1.4969425
4.4992738 -9.2163553 -1.4960546
4.4323592 -9.2223949 -1.492503
4.3744197 -9.2467356 -1.4920591
4.3205218 -9.2796783 -1.4930949
4.2610307 -9.3006191 -1.4922071
4.2002263 -9.3184738 -1.4908752
4.1425695 -9.3431664 -1.4907272
4.0851626 -9.3684092 -1.4907272
4.026823 -9.3914804 -1.4904313
3.9683542 -9.4141893 -1.4901353
3.9067307 -9.429224 -1.4886554
3.851783 -9.4603462 -1.4898393
3.7914598 -9.4782925 -1.4889514
3.7325075 -9.4995375 -1.4886554
3.6780641 -9.5324106 -1.4902833
3.6226573 -9.5631237 -1.4916152
3.5618436 -9.5796089 -1.4907272
3.4972365 -9.5854893 -1.4882115
3.4413536 -9.6151476 -1.4895434
3.3881853 -9.6528807 -1.4922071
3.3311446 -9.6800346 -1.493243
3.2704225 -9.6965437 -1.492651
3.2040393 -9.6957674 -1.4893954
3.141747 -9.7067766 -1.4880636
3.0860107 -9.7381277 -1.4899874
3.0244434 -9.7512121 -1.4890994
2.9657025 -9.7733717 -1.4896914
2.9037097 -9.7847481 -1.4886554
2.8422396 -9.7976313 -1.4879156
2.783417 -9.819644 -1.4886554
2.724695 -9.8422565 -1.4895434
2.6681211 -9.8731117 -1.4917631
2.6110194 -9.9026861 -1.4938349
2.551193 -9.9223518 -1.4944268
2.4893014 -9.9339809 -1.4938349
2.4266601 -9.9423428 -1.492799
2.3651524 -9.955121 -1.492503
2.3026888 -9.9636641 -1.4916152
2.2397764 -9.9698858 -1.4904313
2.1753988 -9.9689465 -1.4882115
2.110503 -9.9646912 -1.4855479
0.53393668 -2.5952806 -0.35792485
0.51915985 -2.6043279 -0.35881272
0.50616169 -2.6230028 -0.36118045
0.48842865 -2.6173086 -0.35984862
0.47498548 -2.6348569 -0.36206833
0.46929097 -2.6981368 -0.37124321
0.46756661 -2.7897315 -0.3847096
0.44698441 -2.7710664 -0.38145399
0.42770666 -2.7590961 -0.37923425
0.40249875 -2.7059062 -0.37079927
0.38505352 -2.70245 -0.36991137
0.36966205 -2.7135818 -0.37124321
0.35707086 -2.7471843 -0.37597865
0.34117606 -2.7571759 -0.37716252
0.31988129 -2.7218907 -0.37153918
0.30077636 -2.702177 -0.36828357
0.28851449 -2.7452836 -0.37449881
1.0028024 -10.172032 -1.4908752
0.72608459 -7.8558216 -1.1419336
0.67549318 -7.8325391 -1.1377901
0.6251362 -7.8079472 -1.1334987
0.57787037 -7.8205128 -1.1348305
0.53167409 -7.850553 -1.138826
0.63099235 -10.255355 -1.4988662
0.56860048 -10.268909 -1.5003461
0.38053271 -7.7256565 -1.1188484
0.15995049 -3.6964841 -0.51508176
0.13297339 -3.5807741 -0.49761987
0.1067555 -3.4431291 -0.4769024
0.085335851 -3.431855 -0.47512659
0.065058626 -3.4748335 -0.48148984
0.12622626 -10.208695 -1.4890994
0.022007043 -3.4091091 -0.47157502
0.00094056339 -10.200575 -1.4877676
-0.062002219 -10.257749 -1.4963505
-0.12464962 -10.233441 -1.492799
-0.18738382 -10.229517 -1.492355
-0.25017172 -10.229163 -1.492503
-0.31250694 -10.213596 -1.4904313
-0.37425992 -10.186779 -1.4867318
-0.43641788 -10.176386 -1.4855479
-0.49948195 -10.186358 -1.4874716
-0.56273937 -10.196926 -1.4895434
-0.62650931 -10.213024 -1.492503
-0.69036448 -10.226748 -1.4951667
-0.76212585 -10.344623 -1.5135164
-0.84221733 -10.547765 -1.5447407
-0.91574824 -10.644874 -1.5601308
-0.98186499 -10.647918 -1.5614626
-1.0482475 -10.652519 -1.5630904
-1.1153413 -10.662608 -1.5656061
-1.18129 -10.660479 -1.566346
-1.2470244 -10.655976 -1.56679
-1.309842 -10.627512 -1.5636824
-1.339183 -10.342692 -1.5219514
-1.3846481 -10.201982 -1.5019739
-1.4426289 -10.160981 -1.4970905
-1.502481 -10.135307 -1.4945748
-0.45046562 -2.9206996 -0.4036513
-0.47607762 -2.9657257 -0.41090241
-1.6940042 -10.137149 -1.4993103
-0.52072173 -3.0074069 -0.41815352
-0.54616809 -3.0430901 -0.4240728
-0.56084687 -3.0182915 -0.4208172
-1.9383448 -10.072129 -1.4962026
-1.999145 -10.055196 -1.4954627
-2.0631919 -10.054365 -1.4972384
-2.128123 -10.056997 -1.4996061
-2.1760905 -9.9809427 -1.4899874
-0.64057219 -2.8576145 -0.39965576
-0.6560905 -2.8449578 -0.39832392
-2.3786354 -10.020024 -1.5024178
-2.437259 -9.9937105 -1.5006421
-2.4985335 -9.9785681 -1.5006421
-0.94656008 -3.6871941 -0.5310638
-0.76321673 -2.8999996 -0.41016251
-0.77506369 -2.8733025 -0.4067589
-0.78793103 -2.8513358 -0.40409523
-0.80756879 -2.8540597 -0.4052791
-0.81542414 -2.8158059 -0.40009972
-2.927223 -9.870615 -1.5019739
-2.9756744 -9.8127193 -1.4957587
-0.99833989 -3.2235088 -0.46639568
-1.0255677 -3.2408926 -0.47009522
-3.1576171 -9.7619305 -1.4966465
-3.2224197 -9.7573967 -1.4990143
-3.2771733 -9.7224464 -1.4966465
-3.3358021 -9.6993494 -1.4962026
-1.1238439 -3.2060421 -0.46979925
-1.1421618 -3.1953611 -0.46920732
-3.4954693 -9.586134 -1.4882115
-3.5852373 -9.6479359 -1.5015299
-1.1612023 -3.0692849 -0.45248535
-1.1864204 -3.078711 -0.45514902
-3.7535381 -9.558217 -1.4979783
-1.2127268 -3.0354536 -0.45056158
-1.2331936 -3.0325351 -0.45130149
-3.9242959 -9.4765425 -1.4962026
-3.9961963 -9.4850941 -1.5015299
-4.0636725 -9.4822111 -1.5050815
-4.1281018 -9.4716034 -1.5074492
-4.1873431 -9.4488087 -1.5078932
-4.2501173 -9.4337578 -1.5096689
-4.3116283 -9.4155941 -1.5110008
-1.3216579 -2.8419511 -0.43043604
-1.3386481 -2.8328941 -0.43028805
-1.3572903 -2.8273013 -0.43073198
-1.3850241 -2.8402503 -0.43428355
-4.6230187 -9.3285255 -1.5192878
-4.6788368 -9.2973337 -1.5188438
-4.7317452 -9.2605247 -1.517512
-4.7884774 -9.2313166 -1.517512
-4.8533254 -9.2175121 -1.5201757
-4.9125891 -9.1927919 -1.5210636
-4.958056 -9.1424818 -1.51766
-4.7212472 -8.5799093 -1.4267991
-4.7419786 -8.4937897 -1.4170322
-4.7715816 -8.4249506 -1.410225
-4.7842584 -8.3277721 -1.3985344
-4.8188319 -8.2700634 -1.393651
-4.8543878 -8.214798 -1.3892115
-4.889956 -8.1602573 -1.3849201
-4.9204159 -8.0979843 -1.3792968
-4.9482203 -8.0322781 -1.3730816
-4.9287696 -7.8918867 -1.3536959
-5.0882173 -8.0369587 -1.3847721
-5.214366 -8.1254349 -1.4060816
-5.2641249 -8.0932875 -1.4060816
-5.3262067 -8.0798254 -1.4094851
-5.4306302 -8.1292219 -1.4242833
-5.4316115 -8.0236826 -1.4112608
-5.4466109 -7.9404588 -1.402234
-5.4957948 -7.9077015 -1.402382
-5.5618658 -7.8988967 -1.4069694
-5.6303334 -7.8927984 -1.4121488
-5.6815534 -7.8621101 -1.4128886
-5.6981368 -7.7840114 -1.4048977
-6.2878165 -8.4797049 -1.5410411
-6.3563614 -8.4631042 -1.5451846
-6.369843 -8.3735714 -1.5357138
-1.7190419 -2.2326417 -0.38308179
-1.7339258 -2.2236111 -0.38337776
-1.7561225 -2.2237928 -0.3854495
-1.7919822 -2.2407722 -0.39077684
-1.8056976 -2.2297347 -0.39077684
-6.7640839 -8.2435265 -1.5570232
-6.8221231 -8.2109957 -1.558799
-6.8717399 -8.1682243 -1.558651
-6.9275022 -8.1326818 -1.5599828
-6.9876089 -8.1020041 -1.5623505
-7.0469489 -8.0701494 -1.5645703
-7.0982995 -8.0289812 -1.5650142
-7.1454515 -7.9830651 -1.5645703
-7.1962929 -7.9412694 -1.5650142
-7.2515707 -7.9042511 -1.566494
-7.3019533 -7.8617811 -1.5669379
-7.3520875 -7.8189907 -1.567382
-7.3971977 -7.7708669 -1.56679
-7.4488573 -7.7296047 -1.5676779
-7.5037432 -7.6915398 -1.5693057
-7.5549664 -7.6495748 -1.5701935
-7.6066566 -7.6079693 -1.5712295
-7.6299753 -7.5382175 -1.566346
-3.481981 -3.399029 -0.68955255
-3.4144723 -3.2924969 -0.67120278
-3.3608327 -3.2012448 -0.65596062
-3.4178758 -3.2157943 -0.6636557
-7.9619613 -7.3975472 -1.5876554
-3.5284956 -3.2391355 -0.67815793
-3.2888904 -2.9823153 -0.6257723
-3.3800776 -3.0273833 -0.64042252
-3.5801108 -3.1670878 -0.67667812
-3.447515 -3.0123491 -0.6464898
-3.4524534 -2.9795115 -0.64382613
-3.4465797 -2.9377482 -0.63909072
-3.7362161 -3.1451297 -0.69221622
-3.7988009 -3.1581736 -0.70065123
-3.8624494 -3.1711938 -0.70923418
-5.2556419 -4.2608027 -0.97382605
-5.3403707 -4.2754397 -0.98507267
-5.3370185 -4.2192893 -0.97944933
-5.3784003 -4.1986313 -0.982409
-5.5043368 -4.2428179 -1.0013506
-5.4594283 -4.1550694 -0.98803228
-5.4974728 -4.1309967 -0.99040002
-5.5314546 -4.1036673 -0.99202782
-5.5030656 -4.0305057 -0.982113
-5.6559405 -4.0893569 -1.0057901
-5.7292309 -4.0890398 -1.0146691
-5.6054311 -3.9490297 -0.98744035
-5.7879109 -4.0246344 -1.0162969
-5.7268672 -3.9302988 -1.0007588
-5.5510535 -3.7597945 -0.96465117
-5.7393064 -3.8360996 -0.99439555
-5.7140212 -3.7686934 -0.98566461
-5.7536178 -3.7443478 -0.98862422
-5.6649561 -3.6373904 -0.96879464
-5.7147417 -3.6200223 -0.97367805
-5.6798081 -3.5492604 -0.96361524
-5.6400137 -3.4764707 -0.95281255
-5.7347674 -3.4864838 -0.96568704
-5.9494638 -3.5671511 -0.9994269
-5.9686852 -3.5290689 -0.99898297
-5.9663014 -3.478436 -0.99483949
-5.9729548 -3.4333856 -0.99232376
-5.8114796 -3.2933319 -0.96095157
-5.8799334 -3.2846124 -0.96923858
-5.9285688 -3.2642081 -0.97412199
-5.9189281 -3.2117376 -0.96909058
-5.8687463 -3.1380644 -0.95725203
-5.9762721 -3.1485388 -0.97219825
-5.901546 -3.0630767 -0.95636415
-6.0620146 -3.0992665 -0.98018926
-5.8803859 -2.9610786 -0.94659734
-6.1111107 -3.0303528 -0.982113
-6.0131578 -2.9359751 -0.96272737
-6.1906261 -2.9756906 -0.98921615
-6.2650933 -2.9642878 -0.99853903
-6.2993031 -2.9333022 -1.0012027
-6.254241 -2.8657672 -0.99084395
-6.2662973 -2.8249002 -0.98995608
-5.7934618 -2.569186 -0.90974981
-5.876205 -2.5628347 -0.92070049
-6.2826905 -2.6942735 -0.98433274
-6.3729258 -2.6867809 -0.99631929
-6.3500018 -2.6313534 -0.98995608
-6.553812 -2.6687725 -1.0202924
-6.6793408 -2.6722066 -1.0379022
-6.6136847 -2.5989933 -1.0247319
-6.595366 -2.5451949 -1.0192565
-6.4647255 -2.4493399 -0.99587536
-6.4953923 -2.4154847 -0.99839103
-6.5165949 -2.3779562 -0.9994269
-6.5059214 -2.3289311 -0.99543142
-6.5499516 -2.2994456 -1.0001668
-6.5789008 -2.26436 -1.0025345
-6.6067281 -2.2286894 -1.0047543
-6.6315475 -2.1918318 -1.00653
-6.7022705 -2.1696711 -1.0155569
-6.7776833 -2.1482174 -1.0253237
-6.7727885 -2.1010253 -1.0225121
-6.7760887 -2.0565581 -1.0210323
-6.8350396 -2.0287235 -1.0282834
-6.8473587 -1.9867463 -1.0282834
-6.8746452 -1.949008 -1.0306511
-6.7282481 -1.8630058 -1.0060861
-6.8168893 -1.8425771 -1.0180726
-6.948565 -1.8324716 -1.0367184
-6.9012485 -1.7747854 -1.0276915
-7.1825466 -1.8001668 -1.0694224
-7.3068333 -1.78372 -1.0868843
-7.3619032 -1.7493633 -1.0936915
-7.7868533 -1.79987 -1.1573237
-7.9608297 -1.7886738 -1.1823328
-8.1977634 -1.7891072 -1.2169605
-8.3092117 -1.7600732 -1.2323506
-8.9892883 -1.8464744 -1.3346062
-9.4524651 -1.8811837 -1.4035659
-9.8280134 -1.8932612 -1.4590591
-10.357674 -1.9293969 -1.5379335
-11.274558 -2.0285888 -1.6755568
-11.315052 -1.9642739 -1.6798483
-11.598067 -1.9401443 -1.7209873
-11.738643 -1.889679 -1.740521
-12.308101 -1.9038908 -1.8250186
-12.885981 -1.9123431 -1.9107002
-13.029658 -1.8520172 -1.9306778
-13.062337 -1.7749615 -1.9339334
-12.949402 -1.6787694 -1.9152876
-13.117489 -1.6187694 -1.9391128
-13.099671 -1.5350311 -1.9349693
-13.083286 -1.4517905 -1.9311217
-13.127358 -1.3751918 -1.9364491
-13.102085 -1.2913228 -1.9314177
-13.102868 -1.2102696 -1.9303819
-13.124827 -1.1311215 -1.9326016
-13.156167 -1.0525374 -1.9363011
-13.151528 -0.9709928 -1.9346733
-13.160199 -0.89047831 -1.9351172
-13.163441 -0.80959082 -1.9348212
-13.161248 -0.72842425 -1.9337854
-13.145714 -0.64668453 -1.9308258
-13.125721 -0.56499314 -1.9272742
-13.119057 -0.48408079 -1.9257944
-13.125734 -0.40369591 -1.9263864
-13.113134 -0.32278657 -1.9241666
-13.162332 -0.24319258 -1.9312698
-13.125997 -0.16196509 -1.9256464
-13.113887 -0.08134383 -1.9237226
-13.091393 -0.00087749551 -1.9203191
-13.097085 0.079486333 -1.921207
-13.110196 0.16001725 -1.9232787
-13.126766 0.24078496 -1.9259424
-13.119109 0.32117897 -1.9250544
-13.102064 0.4012149 -1.9228348
-13.067729 0.48043454 -1.9180993
-13.042797 0.55967289 -1.9148437
-13.092459 0.64231306 -1.9228348
-13.104071 0.72350854 -1.9252025
-13.074707 0.8023833 -1.9215029
-13.065591 0.88232625 -1.920911
-12.137149 -0.30682364 -1.9211633
-12.14966 -0.23255391 -1.9229163
-12.11927 -0.15758882 -1.9178166
-12.131856 -0.08330515 -1.919729
-12.15287 -0.0088797444 -1.9230757
-12.130978 0.065572351 -1.9195696
-12.127385 0.13997132 -1.9190916
-12.117414 0.21422414 -1.9176573
-12.117846 0.28861812 -1.917976
-12.092164 0.36225769 -1.9141512
-12.071955 0.43580648 -1.9112827
-12.093712 0.51091135 -1.9152668
-12.091336 0.58515501 -1.9154261
-12.065831 0.65815282 -1.9119202
-12.055654 0.73181629 -1.910964
-12.033205 0.80458963 -1.9080954
-12.054626 0.88034946 -1.9123982
-12.045061 0.953987 -1.9117608
-12.063572 1.0299749 -1.9157449
-12.015735 1.1001968 -1.9090515
-12.008758 1.1739033 -1.9090515
-12.027841 1.2503207 -1.9133544
-11.965972 1.3181551 -1.9045894
-11.970407 1.3930352 -1.9066612
-11.99397 1.4704212 -1.9119202
-11.937723 1.5379339 -1.9042706
-11.983828 1.6186839 -1.9133544
-11.919907 1.6845886 -1.9045894
-11.925948 1.7601459 -1.9072986
-11.864185 1.8254838 -1.8990116
-11.822542 1.8934082 -1.8940713
-11.82044 1.9675349 -1.895665
-11.832465 2.0442276 -1.8996491
-11.824558 2.1176617 -1.9004459
-11.773485 2.1831577 -1.8942307
-11.774412 2.2581458 -1.8966212
-11.756461 2.3295825 -1.8959837
-11.706159 2.3943565 -1.8900872
-11.715396 2.4712322 -1.8940713
-11.705801 2.5443277 -1.8950275
-11.676481 2.6130874 -1.8927964
-11.681393 2.6895561 -1.8963025
-11.6493 2.7575433 -1.8937526
-11.649427 2.833169 -1.8966212
-11.653853 2.9100955 -1.9002866
-11.597525 2.9717467 -1.893912
-11.608671 3.0506291 -1.8988522
-11.530633 3.1058836 -1.8889717
-11.519923 3.1789389 -1.890406
-11.503051 3.2503693 -1.890884
-11.453491 3.3123882 -1.8859438
-11.448098 3.387084 -1.8884935
-11.41576 3.4538341 -1.8865812
-11.365115 3.5147738 -1.8816409
-11.364045 3.5909863 -1.885147
-11.380317 3.6730781 -1.8916808
-11.360378 3.7437642 -1.892159
-11.334386 3.8124557 -1.8916808
-11.314514 3.8832121 -1.8923184
-11.233636 3.9326675 -1.8825971
-11.193488 3.9958799 -1.8798879
-11.182674 4.06955 -1.8822784
-11.135279 4.1298509 -1.8784536
-11.140204 4.2096128 -1.8837126
-11.075469 4.2629957 -1.8770194
-11.111605 4.3553696 -1.8878561
-11.060832 4.4139543 -1.8837126
-11.008844 4.4717093 -1.8794098
-10.983936 4.5403051 -1.8798879
-10.955871 4.6076159 -1.8798879
-10.921947 4.6724234 -1.8789318
-10.877682 4.7326565 -1.8762225
-10.871912 4.8096952 -1.880366
-10.858402 4.8836017 -1.8832346
-10.798603 4.9365916 -1.8779756
-10.772586 5.0048375 -1.8787724
-10.742567 5.0712638 -1.8789318
-10.690774 5.1272655 -1.8752663
-10.675976 5.2009807 -1.8782942
-10.619971 5.2545695 -1.8739915
-10.57518 5.3134289 -1.8717604
-10.504563 5.3589272 -1.8649076
-10.540739 5.4591455 -1.8774974
-10.48345 5.5113173 -1.8731946
-10.446823 5.5741444 -1.8727165
-10.391588 5.6268592 -1.8688918
-10.400994 5.7147579 -1.8770194
-10.361422 5.7760663 -1.8762225
-10.309458 5.8303013 -1.8731946
-10.259789 5.8855901 -1.8706448
-10.208976 5.9399924 -1.8679357
-10.192742 6.0145621 -1.8717604
-10.168353 6.0845933 -1.8741508
-10.135892 6.1499434 -1.875107
-10.129918 6.2316751 -1.8811629
-10.086465 6.2905798 -1.8802067
-10.048512 6.3528781 -1.880366
-10.025966 6.4250679 -1.8835533
-10.016987 6.506361 -1.8894498
-9.980999 6.5704155 -1.8902466
-9.9946985 6.6676917 -1.9007647
-9.9364233 6.7172818 -1.897418
-9.8982773 6.7803559 -1.8980554
-9.8540545 6.8392744 -1.8975774
-9.8312855 6.9132371 -1.9014021
-9.7605391 6.953383 -1.8958243
-9.7889385 7.0645571 -1.9100078
-9.7493916 7.1274009 -1.9108046
-9.7157888 7.194725 -1.9128764
-9.6698809 7.2530198 -1.9125576
-9.6228371 7.3104253 -1.9120796
-9.5699749 7.3633122 -1.9104859
-9.5222788 7.4200735 -1.9100078
-9.4920702 7.4905925 -1.913195
-9.4644403 7.5634847 -1.9170198
-9.4063416 7.6120996 -1.9146293
-9.351058 7.6627898 -1.9128764
-9.340332 7.7502809 -1.9205258
-9.2903337 7.805541 -1.9200478
-9.2407608 7.8611193 -1.919729
-9.2095566 7.9324894 -1.9233943
-9.1711273 7.9979324 -1.9256254
-9.1544428 8.0828037 -1.9326375
-9.1135082 8.1467171 -1.9345499
-9.0516376 8.191885 -1.932
-9.0215836 8.2659435 -1.9364623
-8.950429 8.3023453 -1.932
-8.8798866 8.3388615 -1.9276972
-8.8357086 8.3999929 -1.9292909
-8.7982273 8.4677401 -1.9324782
-8.7588329 8.5339661 -1.9353467
-8.7555046 8.636076 -1.9465022
-8.6744061 8.6617346 -1.9401276
-8.6210957 8.7147961 -1.9401276
-8.5936794 8.7943602 -1.9461834
-8.5381861 8.8455038 -1.9458648
-8.4687614 8.8820086 -1.9423587
-8.4391479 8.9603949 -1.9482552
-8.3819914 9.0098391 -1.9477772
-8.3412466 9.0770922 -1.9512831
-8.2807493 9.1229849 -1.9501675
-8.2219791 9.1706829 -1.9495301
-8.1897717 9.2483053 -1.9554266
-8.1491203 9.3169584 -1.9594107
-8.1001892 9.3764973 -1.9614824
-8.0322504 9.4140062 -1.9589326
-7.9584317 9.4442415 -1.9549485
-7.8832812 9.4724083 -1.9506457
-7.8494592 9.5503445 -1.9568609
-7.8211985 9.6358862 -1.9646697
-7.7983565 9.7291412 -1.9740722
-7.7409639 9.7799044 -1.9747096
-7.6826339 9.8295517 -1.9751878
-7.6342397 9.8921366 -1.9783751
-7.5644236 9.9270153 -1.9759846
-7.5093055 9.9811316 -1.9775783
-7.4514532 10.031775 -1.9785345
-7.3891754 10.076511 -1.9783751
-7.3202605 10.112064 -1.9764627
-7.2597985 10.1592 -1.9769408
-7.2047238 10.214041 -1.9790125
-7.1407881 10.256436 -1.9786938
-7.079958 10.303312 -1.9793313
-7.0260243 10.36045 -1.9820404
-6.9557328 10.39352 -1.980128
-6.8945484 10.440124 -1.9809248
-6.8492241 10.51118 -1.9865026
-6.782464 10.549686 -1.9858652
-6.7102013 10.579432 -1.9836341
-6.6320691 10.599484 -1.97965
-6.5674257 10.640819 -1.9798093
-6.511765 10.696938 -1.9828373
-6.4531217 10.748541 -1.9850683
-6.3880544 10.789633 -1.9853871
-6.3247166 10.833741 -1.9863433
-6.2581229 10.872345 -1.9863433
-6.1942172 10.915691 -1.9872994
-6.1276054 10.954354 -1.9874588
-6.0674257 11.004714 -1.9898493
-5.9931884 11.029592 -1.9876182
-5.9128165 11.04266 -1.9833153
-5.8527803 11.093575 -1.9860245
-5.7900653 11.139791 -1.987937
-5.7216039 11.175108 -1.987937
-5.6702638 11.244382 -1.9941522
-5.6051149 11.28692 -1.9955864
-5.5309834 11.311344 -1.9938334
-5.4597616 11.341511 -1.9931959
-5.3875318 11.369445 -1.9922397
-5.3218417 11.411235 -1.9938334
-5.2533708 11.447264 -1.9944708
-5.1895332 11.493678 -1.9970207
-5.1165071 11.519891 -1.9960645
-5.0477018 11.555592 -1.9968613
-4.9770927 11.587254 -1.9970207
-4.9024444 11.609389 -1.9955864
-4.8364172 11.652016 -1.9978175
-4.7778816 11.713466 -2.0033953
-4.6985741 11.724235 -2.0002079
-4.641736 11.791425 -2.0069013
-4.5771298 11.839941 -2.0104072
-4.5117521 11.887185 -2.0137539
-4.4380393 11.912795 -2.0134351
-4.3638434 11.93702 -2.0129571
-4.2945166 11.974723 -2.0148695
-4.2343912 12.039031 -2.0214033
-4.1681662 12.087185 -2.0252283
-4.0970836 12.121885 -2.0268219
-4.0288358 12.165539 -2.030009
-3.9559412 12.195664 -2.0309653
-3.8828287 12.225353 -2.0319214
-3.8156557 12.274402 -2.0362244
-3.7405567 12.298527 -2.0363836
-3.6737504 12.35058 -2.0413239
-3.6039646 12.393744 -2.0448301
-3.5343268 12.438416 -2.0486548
-3.4648044 12.4846 -2.0527983
-3.3860695 12.498002 -2.0515232
-3.3062916 12.507091 -2.0496109
-3.2228324 12.501331 -2.0453081
-3.1602607 12.57736 -2.0547106
-3.0884268 12.618569 -2.0583758
-3.0139174 12.649767 -2.0604477
-2.9386954 12.6786 -2.0622008
-2.8612797 12.698319 -2.0625193
-2.7839439 12.71853 -2.0629976
-2.7120082 12.764342 -2.0677783
-2.6328394 12.776875 -2.0671411
-2.5642526 12.842162 -2.0752685
-2.4859686 12.860562 -2.0757465
-2.398483 12.829965 -2.0682566
-2.3330514 12.918274 -2.0803683
-2.245436 12.884691 -2.0725594
-2.1663349 12.898226 -2.0725594
-2.0947154 12.958055 -2.0802088
-2.0036461 12.896524 -2.0680971
-1.9206911 12.883189 -2.0639536
-1.8375566 12.86639 -2.0593321
-1.7700657 12.961543 -2.0730374
-1.6868013 12.94377 -2.0684159
-1.6096584 12.972491 -2.0714438
-1.5343068 13.018399 -2.0773404
-1.4541794 13.025606 -2.0770216
-1.3741249 13.033302 -2.0768621
-1.2938356 13.038541 -2.0763841
-1.2195718 13.108162 -2.0864241
-1.1365552 13.085893 -2.0816431
-1.0576698 13.110332 -2.0845118
-0.97683942 13.111653 -2.083715
-0.8948881 13.095732 -2.0802088
-0.81476253 13.104918 -2.0808463
-0.73422641 13.107698 -2.0805275
-0.65442479 13.124775 -2.0825994
-0.57349211 13.119667 -2.0811651
-0.49257255 13.112087 -2.079412
-0.41105378 13.081314 -2.0739937
-0.33290401 13.167477 -2.0875397
-0.25191438 13.159401 -2.0859461
-0.17128088 13.169583 -2.0873802
-0.090504669 13.175323 -2.088177
-0.0096561825 13.169706 -2.0872209
0.071157098 13.170505 -2.0873802
0.15195709 13.168833 -2.0872209
0.23303536 13.183446 -2.0897708
0.31359443 13.167951 -2.0875397
0.39465132 13.17466 -2.088974
0.47341824 13.114768 -2.0797307
0.5535053 13.102739 -2.0782964
0.63193661 13.058668 -2.0717626
0.71194369 13.052573 -2.0714438
0.79172045 13.043032 -2.070647
0.87351352 13.064524 -2.0749497
0.95222205 13.039227 -2.0717626
1.0317438 13.027233 -2.0708063
1.1108185 13.010821 -2.0692127
1.1884708 12.980165 -2.065388
1.2712618 13.005053 -2.070647
1.3500149 12.987188 -2.0690534
1.4338919 13.016931 -2.0752685
1.5099705 12.975527 -2.0700095
1.588958 12.961119 -2.0692127
1.6688343 12.954062 -2.0696907
1.7414176 12.892705 -2.0614038
1.8285036 12.938473 -2.070647
1.9123256 12.957286 -2.0755873
1.9826379 12.885788 -2.065866
2.0691583 12.920171 -2.0735157
2.1503408 12.918917 -2.075428
2.2294014 12.904507 -2.0752685
2.3083658 12.889613 -2.0751092
2.3794932 12.832497 -2.0680971
2.458931 12.821532 -2.0687346
2.5254691 12.745194 -2.0586946
2.6018443 12.720754 -2.0572603
2.6818857 12.71421 -2.0588541
2.7451727 12.629985 -2.0476985
2.8137789 12.573404 -2.0411646
2.8990695 12.591498 -2.047061
2.955584 12.486052 -2.0325589
3.0426381 12.510848 -2.0397303
3.1341729 12.551328 -2.0496109
3.2040219 12.504128 -2.0449893
3.2806854 12.484232 -2.0449893
3.3554285 12.457194 -2.0438738
3.4493937 12.500133 -2.0545511
3.4973083 12.377079 -2.0374992
3.5822365 12.386683 -2.0427582
3.6489308 12.33323 -2.0374992
3.7293968 12.326672 -2.0402083
3.7903793 12.256399 -2.0322402
3.8723526 12.254562 -2.0359056
3.9368603 12.197688 -2.0303278
4.0137925 12.179866 -2.0314434
4.1035571 12.199923 -2.0390928
4.1552653 12.107283 -2.0276186
4.2288237 12.079695 -2.0272999
4.2992134 12.043293 -2.0255468
4.3784299 12.03153 -2.0280967
4.444963 11.985 -2.02475
4.5198135 11.961194 -2.0253875
4.592412 11.931394 -2.0250688
4.6676965 11.908505 -2.0260251
4.7300677 11.85305 -2.0214033
4.7956491 11.806425 -2.0183754
4.8683786 11.77769 -2.0185349
4.9459114 11.760337 -2.020766
5.0137072 11.719784 -2.0190129
5.0831614 11.683368 -2.0180569
5.129992 11.595983 -2.0081761
5.1953788 11.551682 -2.0059452
5.2616458 11.50971 -2.0041921
5.3234348 11.458406 -2.0008454
5.3965917 11.431776 -2.001961
5.4730377 11.4118 -2.0043514
5.5438209 11.379779 -2.0046701
5.6074123 11.33316 -2.002439
5.6728573 11.290602 -2.0010047
5.7281218 11.228319 -1.9960645
5.7841983 11.168414 -1.9916023
5.8406739 11.109993 -1.9874588
5.9031572 11.063495 -1.9855465
5.9657598 11.017515 -1.9837935
6.037528 10.98849 -1.9852277
6.1130099 10.965897 -1.987937
6.1748347 10.918729 -1.9861839
6.2250137 10.85152 -1.9807656
6.2914801 10.81312 -1.9807656
6.3441644 10.751355 -1.9764627
6.4206586 10.730016 -1.9798093
6.4740863 10.670161 -1.9759846
6.5415044 10.633599 -1.9766221
6.6034932 10.588235 -1.9756659
6.6846905 10.573386 -1.9806062
6.719614 10.485622 -1.9716817
6.7676945 10.419357 -1.9669008
6.8282423 10.372687 -1.9659446
6.8802547 10.313349 -1.962598
6.9511466 10.282388 -1.9648291
7.0029497 10.223253 -1.9616418
7.0694871 10.185769 -1.9627573
7.126174 10.134124 -1.9611638
7.1733298 10.069303 -1.9570203
7.2216916 10.006685 -1.9533548
7.2870336 9.9677649 -1.9544704
7.336308 9.9069967 -1.9512831
7.3821497 9.8420515 -1.947299
7.4441919 9.7989283 -1.9477772
7.5077887 9.757762 -1.9487333
7.5602384 9.7021666 -1.946821
7.6086197 9.6416445 -1.9439523
7.6608577 9.5862942 -1.9421993
7.7071137 9.5237589 -1.9390121
7.755394 9.4640722 -1.9364623
7.8133183 9.4163074 -1.9364623
7.8703136 9.3674326 -1.9363029
7.9161291 9.3054295 -1.9334344
7.9608364 9.2424698 -1.9304065
8.0044203 9.1785679 -1.9272192
8.0527477 9.1204004 -1.9253068
8.0888205 9.0487366 -1.9205258
8.1388912 8.9930782 -1.919251
8.192585 8.941514 -1.9189322
8.2432661 8.886734 -1.917976
8.2929087 8.8309488 -1.9168605
8.3394566 8.772028 -1.9151075
8.3753252 8.702199 -1.910964
8.4072065 8.6287241 -1.9060236
8.4364233 8.5530787 -1.9006053
8.4922333 8.5046453 -1.9014021
8.5414495 8.4496012 -1.9007647
8.5790129 8.3832331 -1.8975774
8.6253185 8.3256359 -1.8964618
8.6662388 8.2630167 -1.8942307
8.6995287 8.1934414 -1.890406
8.7460251 8.1365461 -1.8896091
8.7645292 8.0540037 -1.8827565
8.8035488 7.9907842 -1.8805254
8.8340378 7.9201403 -1.8765413
8.8854246 7.8684049 -1.8771788
8.8993568 7.7838383 -1.869848
8.975337 7.7536111 -1.8759038
9.0182371 7.6945491 -1.8749477
9.0464077 7.6231647 -1.8709636
9.0846663 7.5605664 -1.8692105
9.1095314 7.4871297 -1.8647484
9.1836596 7.454114 -1.8706448
9.2207518 7.3908319 -1.8688918
9.2651529 7.3335023 -1.8687325
9.2905312 7.2613153 -1.8647484
9.3208437 7.193316 -1.8618797
9.3498859 7.12462 -1.8588518
9.3721266 7.0510902 -1.8545491
9.417592 6.9952173 -1.8550271
9.4698896 6.9443059 -1.8569394
9.4963284 6.8744907 -1.8537521
9.5254793 6.8069091 -1.8512024
9.5218916 6.716466 -1.842278
9.5766964 6.6675038 -1.8449872
9.6271906 6.6153264 -1.8468995
9.6504421 6.5444942 -1.8435528
9.6699066 6.4714293 -1.8395687
9.7250843 6.4223113 -1.8425967
9.7676163 6.3646741 -1.8432342
9.7857256 6.2912741 -1.83925
9.7999678 6.2157764 -1.8346285
9.8462915 6.1607647 -1.8362221
9.8746672 6.0945292 -1.8344691
9.9245253 6.0415249 -1.8368596
9.9867992 5.9957609 -1.8416405
10.020003 5.9323583 -1.8410031
10.036606 5.8593168 -1.8373376
10.068091 5.7951603 -1.8365408
10.13437 5.7508159 -1.842278
10.171188 5.6894879 -1.8425967
10.201584 5.6245885 -1.8417999
10.238506 5.5633006 -1.842278
10.290726 5.5101604 -1.8456246
10.310371 5.4395432 -1.8430748
10.365452 5.3875604 -1.8470589
10.439614 5.345005 -1.8545491
10.477503 5.2835155 -1.8555052
10.489388 5.2090273 -1.8518398
10.506964 5.1376286 -1.84929
10.51961 5.0640693 -1.8459433
10.555838 5.0019636 -1.8468995
10.642695 4.9633894 -1.8569394
10.652314 4.8885221 -1.8532741
10.695605 4.8291631 -1.8556645
10.712403 4.7578344 -1.8534335
10.702495 4.6750212 -1.8465807
10.762727 4.6229014 -1.8521585
10.799074 4.5602322 -1.8535929
10.804969 4.4848008 -1.849768
10.853308 4.4269948 -1.8534335
10.826202 4.3386478 -1.844031
10.83976 4.2670746 -1.8417999
10.917302 4.2204189 -1.8507242
10.954068 4.1575561 -1.8526366
11.007126 4.1006055 -1.8574176
11.012608 4.0258708 -1.8540709
11.019447 3.9518905 -1.851043
11.059319 3.889771 -1.8537521
11.077379 3.8199077 -1.852796
11.054783 3.7363758 -1.8449872
11.114986 3.6808901 -1.8513618
11.173985 3.6245012 -1.857577
11.20072 3.5573649 -1.8583738
11.176144 3.4742105 -1.8505648
11.186861 3.4024093 -1.8488119
11.244431 3.3446825 -1.8550271
11.269481 3.2770033 -1.8558239
11.333058 3.220207 -1.8631546
11.331676 3.1447995 -1.8596487
11.352665 3.0757267 -1.8599674
11.365597 3.0044961 -1.8590112
11.405806 2.9403706 -1.8626766
11.440866 2.8746614 -1.8655452
11.467878 2.8067546 -1.8671387
11.504091 2.7409132 -1.870326
11.497612 2.6649232 -1.8665013
11.507006 2.5928056 -1.8653858
11.517876 2.5210955 -1.864589
11.548579 2.4536591 -1.8671387
11.562449 2.3825529 -1.8669794
11.594277 2.315042 -1.869848
11.610202 2.2442322 -1.8701667
11.630547 2.174221 -1.8712822
11.649498 2.1038694 -1.8722384
11.662188 2.0323498 -1.8722384
11.667624 1.9596089 -1.8711228
11.689173 1.8895565 -1.8727165
11.750299 1.8255286 -1.8808441
6.0892324 0.9076004 -0.9550969
0 0 -0
0 0 -0
0 0 -0
5.9107924 0.73320615 -0.92274594
5.9043951 0.69565302 -0.92099291
0 0 -0
0 0 -0
0 0 -0
0 0 -0
0 0 -0
0 0 -0
0 0 -0
0 0 -0
0 0 -0
0 0 -0
0 0 -0
0 0 -0
0 0 -0
0 0 -0
0 0 -0
0 0 -0
0 0 -0
0 0 -0
0 0 -0
0 -0 -0
0 -0 -0
0 -0 -0
0 -0 -0
0 -0 -0
0 -0 -0
0 -0 -0
0 -0 -0
0 -0 -0
0 -0 -0
5.9487209 -0.39795867 -0.92370212
5.9629054 -0.43567368 -0.92641133
5.9729137 -0.47326604 -0.92848307
5.9817014 -0.51091361 -0.93039542
0 -0 -0
6.0634098 -0.59292114 -0.94473821
10.334008 -1.0742997 -1.638451
10.274232 -1.1318523 -1.6298454
10.356329 -1.205254 -1.6443474
10.355597 -1.2696172 -1.645463
10.360341 -1.3347735 -1.6475347
10.384241 -1.402678 -1.6527938
10.37153 -1.4658157 -1.6521564
10.329134 -1.5245268 -1.6467379
10.305924 -1.5857751 -1.6445068
10.290152 -1.6480447 -1.6435506
10.269134 -1.7093701 -1.6417977
10.260398 -1.7726843 -1.6421164
10.218231 -1.8300395 -1.6370168
10.186425 -1.8889239 -1.6336701
10.194035 -1.9551092 -1.6368574
10.193467 -2.0199242 -1.6387697
10.174111 -2.0810475 -1.6376542
10.134103 -2.1377311 -1.6331919
10.135266 -2.2030172 -1.6355824
8.3469801 -1.868093 -1.3420334
10.076683 -2.3201396 -1.6304828
10.075706 -2.3851085 -1.6327139
10.068556 -2.4487531 -1.6339889
10.045679 -2.5085733 -1.6327139
10.044442 -2.5738404 -1.6351043
7.4504728 -1.9580491 -1.2048208
9.9949427 -2.6922863 -1.6322358
10.000123 -2.7596025 -1.6359012
9.9925022 -2.8235943 -1.6374948
9.987318 -2.8884192 -1.6395665
9.961833 -2.9474053 -1.6382916
7.9828334 -2.415329 -1.3076108
7.9320226 -2.4531827 -1.3015549
7.9187036 -2.5024014 -1.3018736
7.9201112 -2.5564001 -1.3047422
8.7087622 -2.870034 -1.4414767
9.8119755 -3.3004315 -1.6323951
9.8046131 -3.3650608 -1.6346263
9.7679405 -3.4196126 -1.6319171
9.7105131 -3.4665401 -1.6257019
9.677 -3.5216689 -1.6236302
7.6466093 -2.8361073 -1.2778096
9.6136618 -3.632828 -1.6202835
9.5847406 -3.6892657 -1.6191679
9.5076933 -3.726753 -1.6097654
9.4433861 -3.7685568 -1.602594
9.4722204 -3.8476043 -1.6116778
9.4958763 -3.9252613 -1.6199647
9.498004 -3.9945509 -1.6245863
9.4905605 -4.0601315 -1.6276143
9.4781427 -4.1238017 -1.6298454
9.4526615 -4.181881 -1.6298454
9.4322262 -4.2422318 -1.6308016
9.3925505 -4.2938709 -1.6284111
9.3606548 -4.3489261 -1.6274549
9.3195105 -4.3995376 -1.624905
9.2318096 -4.4276104 -1.6140683
9.218668 -4.4910898 -1.6166182
9.1466951 -4.525681 -1.6086498
9.10464 -4.5746279 -1.6061001
9.101902 -4.6434164 -1.6107216
9.0758696 -4.7005391 -1.6111997
9.0529737 -4.7593546 -1.6123153
9.0270844 -4.8166718 -1.6129527
8.917491 -4.8287263 -1.5982912
8.8894253 -4.8843026 -1.5986099
8.7877169 -4.8988605 -1.5853827
8.8013191 -4.9774718 -1.5935103
8.7868824 -5.0407147 -1.5965382
8.7344551 -5.0821238 -1.5925541
8.7005568 -5.1341166 -1.5920759
8.668891 -5.1874056 -1.5920759
8.63521 -5.2394753 -1.5917573
8.5936489 -5.2866716 -1.5900042
8.55686 -5.3366899 -1.5892074
8.5030928 -5.375905 -1.5852233
8.4574785 -5.4199886 -1.5828328
8.3975697 -5.4545732 -1.5777332
8.351573 -5.4978552 -1.5753428
8.3217888 -5.5517354 -1.5761396
8.2679377 -5.5894232 -1.5723149
8.2595491 -5.6579013 -1.5774145
8.1971025 -5.6893373 -1.5719961
8.1604233 -5.7383909 -1.5716773
8.1194315 -5.7843447 -1.5705618
8.0973959 -5.8438768 -1.573271
8.0358829 -5.8748083 -1.5681714
8.0092049 -5.9310546 -1.5700837
7.9774003 -5.9836407 -1.5710399
7.9130211 -6.0115752 -1.5654621
7.8759856 -6.0600152 -1.5654621
7.8160706 -6.090631 -1.5608406
7.7173271 -6.0901632 -1.5482508
7.6882968 -6.1441803 -1.5500038
7.6435452 -6.1856499 -1.5485696
7.59552 -6.2242994 -1.5464978
7.567822 -6.2796125 -1.5487289
7.5178103 -6.3164043 -1.5463384
7.5157585 -6.3937569 -1.5541472
7.4905982 -6.451993 -1.5571752
7.4330111 -6.4822612 -1.5533504
7.3842158 -6.5199065 -1.5514381
7.3367114 -6.5585136 -1.5498445
7.2670512 -6.5769105 -1.5434699
7.2156405 -6.6113729 -1.5410794
7.223433 -6.7005033 -1.5517569
7.1879411 -6.7501059 -1.5530317
7.1542583 -6.8015652 -1.5547848
7.0405464 -6.7761941 -1.5386889
6.979744 -6.8006659 -1.5343862
6.9182043 -6.8239541 -1.5299239
6.8524504 -6.8425589 -1.5245055
6.8089476 -6.8830724 -1.5241868
6.7672758 -6.9254274 -1.5243461
6.7671647 -7.0108576 -1.5342268
6.6790552 -7.0050931 -1.5237087
6.6677604 -7.0797191 -1.5311989
6.5939341 -7.0879736 -1.5240275
6.5402989 -7.1173964 -1.521637
6.4069271 -7.0587111 -1.5001228
2.1931088 -2.4466028 -0.49166548
2.1832917 -2.4659259 -0.4929404
2.1687698 -2.4800191 -0.49309978
6.185945 -7.1607795 -1.4888079
6.1284337 -7.1828303 -1.4854612
6.099514 -7.2384157 -1.4892861
6.0720363 -7.2961931 -1.4935888
6.0472131 -7.357718 -1.4986885
6.0691485 -7.4774647 -1.5158999
6.0515566 -7.5499969 -1.5232307
5.9959259 -7.5753756 -1.5208402
2.0139873 -2.5772769 -0.48927501
1.9933101 -2.5833337 -0.48800009
1.9720362 -2.588449 -0.48656583
1.9495877 -2.5918229 -0.48481283
1.9283496 -2.5966041 -0.48337853
1.8329817 -2.500119 -0.461705
1.8199224 -2.5145175 -0.46234244
1.8234016 -2.5521426 -0.46760148
5.5880094 -7.9222016 -1.5262586
5.5454993 -7.9652519 -1.5280116
5.4551458 -7.9389205 -1.5162185
5.4129806 -7.9820476 -1.518131
5.3578615 -8.0060863 -1.5163779
5.3249578 -8.0635242 -1.5211589
5.2451973 -8.0497274 -1.5122344
5.2181306 -8.1166363 -1.5189278
5.1576533 -8.1318283 -1.5157405
1.7765839 -2.8399184 -0.50202417
1.7611992 -2.8541262 -0.50266165
1.7446802 -2.8665655 -0.50298035
1.7275666 -2.878063 -0.50313973
4.9052811 -8.2853622 -1.5155811
4.865799 -8.3349133 -1.5192465
4.7973275 -8.3346672 -1.5136688
4.7309918 -8.3373299 -1.5087285
4.6807098 -8.3679247 -1.5090472
4.6497746 -8.4336615 -1.5158999
4.5913396 -8.4498892 -1.5136688
4.545464 -8.4892159 -1.5157405
4.4831548 -8.4977369 -1.5122344
4.4204569 -8.5049391 -1.5085691
4.3717875 -8.5389318 -1.5098441
4.3206453 -8.5682402 -1.5103221
4.2662334 -8.591053 -1.5096847
4.2060666 -8.6019917 -1.5069754
4.1489244 -8.6187429 -1.5053818
4.0849705 -8.6208429 -1.5012383
4.0345011 -8.6511135 -1.5021945
3.9834018 -8.680192 -1.5029913
3.9247844 -8.6927738 -1.5009196
3.8757811 -8.7266169 -1.5026727
3.820977 -8.7475195 -1.5021945
3.7648933 -8.765358 -1.5012383
3.70451 -8.7728329 -1.4985292
3.6415274 -8.7735157 -1.4947044
3.6047783 -8.8377428 -1.5020351
3.5453413 -8.8468657 -1.499804
3.4841201 -8.8509998 -1.4967761
3.4386456 -8.8952312 -1.5007602
3.3882051 -8.9272385 -1.5026727
3.3288839 -8.9358339 -1.5006009
3.2750089 -8.9588728 -1.501079
3.2069783 -8.9425583 -1.4948637
3.1517198 -8.9611359 -1.4947044
3.1018257 -8.9952383 -1.4972543
3.0487866 -9.020648 -1.4983698
2.9995873 -9.057929 -1.5015571
2.9421246 -9.070529 -1.5006009
2.8849192 -9.0837059 -1.499804
2.8159394 -9.058815 -1.4926326
2.7715073 -9.1127577 -1.4988478
2.7146957 -9.1267529 -1.4983698
2.6553357 -9.1318626 -1.4964575
2.5992537 -9.1479836 -1.4964575
2.5388491 -9.1485405 -1.4939076
2.485507 -9.174428 -1.4956605
2.4228587 -9.1656446 -1.4916764
2.3695314 -9.1918106 -1.4935888
2.313087 -9.2061768 -1.4935888
2.250922 -9.1971827 -1.4897641
2.2052021 -9.2559557 -1.4972543
2.1476984 -9.266428 -1.4967761
2.0890639 -9.2717266 -1.4955013
2.0325565 -9.2862988 -1.4958199
1.9812843 -9.325634 -1.5002822
1.9216347 -9.3260126 -1.4983698
0.51798099 -2.5957565 -0.38855678
0.50335574 -2.6056709 -0.38967234
0.48899117 -2.617444 -0.39110661
0.47923905 -2.655369 -0.39684373
0.46039417 -2.6436713 -0.39445326
0.44465491 -2.6493671 -0.39493135
0.42949334 -2.6588676 -0.39604691
0.41574776 -2.6780365 -0.39875609
0.40207422 -2.6990891 -0.40178403
0.39360255 -2.7581887 -0.41102716
1.0305471 -7.5475545 -1.190956
0.35538718 -2.7295272 -0.40560877
0.33802447 -2.726758 -0.40481195
1.1130151 -9.4447298 -1.4964575
0.92630607 -8.298564 -1.3092043
0.99506259 -9.439024 -1.4934295
0.81991452 -8.2641163 -1.3018736
0.75272411 -8.0920572 -1.273188
0.68049872 -7.8368754 -1.2311158
0.63144678 -7.8290949 -1.2292035
0.58324975 -7.830853 -1.2288847
0.53795022 -7.8746662 -1.2354187
0.58578521 -9.4237785 -1.4854612
0.5266251 -9.4035397 -1.4816365
0.17906816 -3.5971205 -0.54266208
0.15686385 -3.5951929 -0.542184
0.13424486 -3.5812898 -0.53979349
0.11217485 -3.5790858 -0.5393154
0.090161912 -3.577733 -0.5389967
0.18134238 -9.478735 -1.4916764
0.12257373 -9.4332733 -1.4841864
0.064710371 -9.4368095 -1.4846644
0.0067999479 -9.4291315 -1.4833895
-0.051045634 -9.427021 -1.4830709
-0.10910364 -9.4452868 -1.4860988
-0.16738771 -9.4631929 -1.4891267
-0.22547311 -9.4629755 -1.4892861
-0.28379834 -9.470294 -1.4907203
-0.34254214 -9.4861336 -1.4935888
-0.40103295 -9.490757 -1.4947044
-0.45863968 -9.4752989 -1.4926326
-0.51677036 -9.4723063 -1.4926326
-0.5756588 -9.4817677 -1.4947044
-0.63455117 -9.4888926 -1.4964575
-0.69348067 -9.4946661 -1.498051
-0.75234908 -9.498105 -1.499326
-0.80633277 -9.4431448 -1.4911984
-0.86326981 -9.4272051 -1.4894453
-0.92205799 -9.4315557 -1.491039
-0.98185033 -9.4443769 -1.494067
-1.0409702 -9.4489689 -1.4958199
-1.0996128 -9.448288 -1.4967761
-1.1602079 -9.4629202 -1.5002822
-1.2182494 -9.4556236 -1.5002822
-1.2745277 -9.4352522 -1.4982104
-1.330878 -9.416501 -1.4964575
-1.390505 -9.4208546 -1.4985292
-1.4485842 -9.4140959 -1.4988478
-1.5002335 -9.367013 -1.4926326
-0.49244696 -2.9566672 -0.44513112
-0.51511639 -2.979856 -0.44943395
-0.53704476 -2.9970462 -0.4527806
-0.55812359 -3.0082548 -0.45517105
-0.57787275 -3.0115604 -0.45628661
-1.8606824 -9.3896971 -1.5064974
-1.9148989 -9.361661 -1.5037881
-1.9702677 -9.3400755 -1.5021945
-2.0369744 -9.3712225 -1.5093659
-0.65230346 -2.9134185 -0.44321874
-0.66839582 -2.9016647 -0.44194382
-0.65253651 -2.7553284 -0.41835791
-2.2630765 -9.3049803 -1.5071348
-2.3196499 -9.2890034 -1.5068161
-2.3802779 -9.2889404 -1.5092065
-0.76662266 -2.9160793 -0.44799966
-0.78219038 -2.9027412 -0.44656539
-0.79289693 -2.8721921 -0.44226256
-0.80567402 -2.8501725 -0.439394
-0.82205027 -2.8413818 -0.43875653
-2.7121634 -9.1666346 -1.5044256
-2.7846515 -9.2036819 -1.5135094
-2.8466129 -9.2043419 -1.5165373
-1.0143713 -3.2091296 -0.504574
-1.0346494 -3.2047241 -0.50489271
-3.0065928 -9.1231947 -1.5119158
-3.0593681 -9.0952177 -1.5103221
-3.118963 -9.0874796 -1.5122344
-1.1214659 -3.2025936 -0.50903618
-1.1427549 -3.2003009 -0.50983304
-3.2857053 -9.0285301 -1.5122344
-3.3201027 -8.9517365 -1.5025133
-1.1630858 -3.0771396 -0.49230295
-1.195774 -3.1058774 -0.49851814
-1.1892319 -3.0332224 -0.4872033
-1.2114797 -3.0350375 -0.48879692
-3.5979624 -8.8575706 -1.504585
-3.6865594 -8.9183521 -1.5190872
-3.7316449 -8.8728132 -1.515103
-3.7965004 -8.8742561 -1.5194058
-3.8473358 -8.8426466 -1.5179716
-3.9087095 -8.835125 -1.5208402
-3.9494855 -8.7812634 -1.5155811
-1.3117441 -2.8686829 -0.47047004
-1.3214188 -2.843569 -0.46744213
-1.3447415 -2.8479061 -0.46967322
-4.1881309 -8.7324324 -1.5246649
-4.2394719 -8.7021322 -1.5238681
-4.2835941 -8.6573734 -1.5205214
-4.3335319 -8.624752 -1.5194058
-4.391305 -8.6076727 -1.5211589
-4.4458542 -8.5840731 -1.5217963
-4.5177341 -8.5933332 -1.5284896
-4.5694475 -8.5637093 -1.5281709
-4.6106262 -8.5146751 -1.5243461
-4.6537528 -8.4697847 -1.5213182
-4.6566072 -8.353116 -1.5050631
-4.678617 -8.2728262 -1.4955013
-4.7057118 -8.202858 -1.4878517
-4.7336149 -8.1354313 -1.4806803
-4.7533431 -8.0552187 -1.4711185
-4.7803764 -7.988626 -1.4641064
-4.7975554 -7.9068141 -1.4542259
-4.8392563 -7.8662963 -1.4521542
-4.8795958 -7.8238902 -1.4497637
-4.9064093 -7.7604237 -1.4433891
-4.942749 -7.7127171 -1.4400425
-5.0023479 -7.7012863 -1.4437078
-5.0614495 -7.6885886 -1.4472139
-5.1183915 -7.6721702 -1.4500824
-5.173111 -7.6520705 -1.4523135
-5.2389336 -7.6478767 -1.4577318
-5.3229108 -7.669116 -1.4682499
-5.4107513 -7.6944556 -1.4797242
-5.4819183 -7.6948824 -1.4864174
-5.5284524 -7.6603003 -1.4862581
-5.6021509 -7.6628952 -1.4935888
-5.673738 -7.6616993 -1.5002822
-5.7437439 -7.6575427 -1.5064974
-5.8067451 -7.6433811 -1.5108002
-5.9191508 -7.692894 -1.5281709
-6.0797091 -7.8020535 -1.5579721
-1.7561707 -2.2249234 -0.418836
-1.7722547 -2.2171907 -0.41947347
-6.282527 -7.7632651 -1.5734304
-6.292501 -7.6787534 -1.5638685
-6.3451719 -7.6468368 -1.5653028
-6.3830819 -7.5971775 -1.5630717
-6.4212618 -7.5480928 -1.561
-6.4610128 -7.5010705 -1.5594063
-6.5224886 -7.4791427 -1.5632311
-6.5806713 -7.4530416 -1.566259
-6.6124625 -7.3970666 -1.5629123
-6.6822348 -7.3834372 -1.5688088
-6.7620916 -7.3801484 -1.5770957
-6.8045626 -7.3356228 -1.5764583
-6.8562031 -7.3009291 -1.5780519
-6.8913488 -7.2487059 -1.5758208
-6.902153 -7.1714301 -1.568012
-6.987361 -7.171371 -1.5775739
-7.0277658 -7.1248479 -1.576777
-7.0825114 -7.0927696 -1.5793269
-7.1336184 -7.0568161 -1.5810798
-3.4939904 -3.4139233 -0.74983567
-3.4410033 -3.3211131 -0.73326176
-3.3827248 -3.2249968 -0.71573168
-3.4412556 -3.2407315 -0.72433734
-7.424788 -6.9072981 -1.5982912
-3.5025721 -3.2182982 -0.72911829
-3.5105577 -3.1861298 -0.72656846
-3.4249315 -3.070287 -0.7037794
-3.3816247 -2.994235 -0.69039279
-3.396961 -2.9708295 -0.68975532
-3.4203551 -2.954448 -0.69087088
-3.4113834 -2.9103367 -0.68513376
-3.7734122 -3.1794481 -0.75780386
-3.8027143 -3.1644452 -0.7598756
-4.952311 -4.0700712 -0.99605352
-4.86835 -3.9512587 -0.97342378
