# .PCD v0.7 - Point Cloud Data file format
VERSION 0.7
FIELDS x y z
SIZE 4 4 4
TYPE F F F
COUNT 1 1 1
WIDTH 1603
HEIGHT 1
VIEWPOINT 0 0 0 1 0 0 0
POINTS 1603
DATA ascii
5.0054278 25.262735 -0.9570744
5.1831665 25.343153 -0.96147048
5.3466139 25.349005 -0.96297443
5.5058713 25.333298 -0.96366853
5.6738653 25.355595 -0.96590513
5.8412185 25.371914 -0.96794891
6.0002398 25.350182 -0.96852738
6.1681867 25.364349 -0.97057116
6.3333855 25.364803 -0.97211367
6.494854 25.348698 -0.97303915
4.2185559 16.053629 -0.6037674
6.830379 25.359715 -0.97674114
4.4279985 16.046888 -0.60561842
4.5157814 15.981915 -0.60411447
4.221262 14.596566 -0.54958749
4.3155642 14.58668 -0.55024308
4.4064317 14.564708 -0.55043584
7.9926758 25.846256 -1.0072439
8.1610498 25.828171 -1.0085164
8.3206024 25.781414 -1.0086707
8.4967756 25.78492 -1.0109073
8.6968765 25.857319 -1.0159974
8.9114819 25.96698 -1.0226687
9.0808792 25.94105 -1.0238642
9.25634 25.930956 -1.0257537
9.4624281 26.003256 -1.0310752
9.6468191 26.012165 -1.0338517
9.837678 26.035677 -1.0372838
10.033496 26.069014 -1.0411786
10.246135 26.141859 -1.0467701
10.450415 26.188942 -1.0513591
10.642872 26.20302 -1.0546368
10.819482 26.17601 -1.0562564
11.014365 26.191111 -1.0596884
6.3044443 14.737206 -0.58178693
6.3672462 14.63502 -0.57912612
11.646991 26.328451 -1.0742264
11.846436 26.341246 -1.0778127
12.01781 26.289873 -1.0787382
12.205838 26.273638 -1.0812062
12.420993 26.313013 -1.0861036
12.660419 26.399385 -1.0930833
12.900058 26.48111 -1.0999475
13.077366 26.43191 -1.1012585
13.23392 26.340456 -1.1007957
13.388028 26.244516 -1.1001787
8.2739935 15.976209 -0.65752316
8.3751202 15.931331 -0.65779305
13.979373 26.200823 -1.1092409
14.319242 26.445831 -1.1237788
14.478835 26.353094 -1.1235861
8.2551575 14.808903 -0.61749554
8.3586569 14.780586 -0.61849815
8.4546604 14.738555 -0.61892235
12.053925 20.717716 -0.88820231
15.921742 26.983513 -1.1722901
16.205015 27.082533 -1.1811594
16.315426 26.891178 -1.1770333
16.547134 26.899506 -1.1819692
16.722979 26.815275 -1.1827791
17.252424 27.289888 -1.2091556
10.147797 15.835509 -0.68902844
17.725349 27.290651 -1.2190275
10.183678 15.47024 -0.67796111
10.31778 15.466483 -0.68069899
18.870472 27.91511 -1.2635283
10.510754 15.344475 -0.68096894
20.428555 29.434938 -1.3458972
20.196678 28.72295 -1.318248
20.42066 28.666037 -1.3214488
20.63476 28.593678 -1.3239938
20.841663 28.510088 -1.3260763
21.29866 28.763124 -1.3443933
21.613245 28.816559 -1.3533012
21.842241 28.752626 -1.3566561
22.018862 28.618856 -1.3566946
0 0 -0
11.860305 15.029741 -0.70206249
0 0 -0
11.973449 14.796065 -0.69774354
12.053877 14.709952 -0.69712651
12.125405 14.613413 -0.69600821
24.257114 28.872683 -1.4184712
17.900389 21.04273 -1.02934
18.053947 20.961269 -1.0308053
24.842249 28.487572 -1.4218647
18.296587 20.72316 -1.0300341
25.296515 28.299776 -1.4280347
25.499855 28.177368 -1.42977
25.724245 28.077106 -1.4327393
25.925259 27.950239 -1.4343975
26.108582 27.803751 -1.4350916
26.293839 27.658962 -1.4359399
26.464441 27.498545 -1.436017
26.653589 27.357117 -1.437174
26.853226 27.225784 -1.4389478
16.049309 16.073271 -0.83976817
27.310331 27.017893 -1.4457347
27.5392 26.911968 -1.4491668
16.330942 15.764029 -0.83915114
28.183409 26.873341 -1.4660184
28.251026 26.608782 -1.4608897
0 0 -0
28.906517 26.564363 -1.4782428
29.103745 26.418062 -1.4800551
23.758247 21.301321 -1.1946176
29.453421 26.083437 -1.4814819
29.627954 25.915382 -1.4822532
29.83934 25.77883 -1.4849526
30.053967 25.643898 -1.4878447
30.356691 25.582001 -1.4952101
30.582212 25.452785 -1.4986807
30.873676 25.376331 -1.5054677
31.110264 25.252541 -1.5095166
31.343372 25.1243 -1.5134114
31.576859 24.994768 -1.5173448
0 0 -0
0 0 -0
32.724632 24.937449 -1.550971
32.980831 24.814285 -1.5559841
33.179794 24.646608 -1.5582592
33.546352 24.600927 -1.568594
29.799374 21.573133 -1.3829169
23.137861 16.535021 -1.0606911
22.762024 16.056353 -1.0381707
35.242142 24.537651 -1.6204215
35.43404 24.34981 -1.6223882
35.753143 24.247473 -1.6303321
36.420265 24.37501 -1.6544335
36.852642 24.338312 -1.6675446
37.309368 24.312496 -1.6817355
0 0 -0
0 0 -0
35.322815 22.102491 -1.5712162
35.40675 21.853848 -1.5689025
35.489819 21.605528 -1.5666273
26.436203 15.872234 -1.1531632
26.463448 15.668488 -1.1500397
26.465891 15.451404 -1.145875
26.500446 15.254323 -1.1432142
28.778372 16.331326 -1.2401596
28.857979 16.143217 -1.2392727
28.497963 15.713017 -1.219066
38.171879 20.74271 -1.6397413
0 0 -0
0 0 -0
0 0 -0
0 0 -0
0 0 -0
34.136669 16.953266 -1.4340889
36.374714 17.787373 -1.5257899
36.439953 17.543041 -1.5239389
34.894436 16.536013 -1.4533701
36.587284 17.064135 -1.5211624
36.615013 16.804306 -1.5179232
36.659149 16.553005 -1.5154552
36.72715 16.313154 -1.5140671
0 0 -0
36.046841 15.48418 -1.4772016
36.60788 15.45981 -1.4967526
37.181034 15.433728 -1.5167663
37.490616 15.293242 -1.5257514
38.438931 15.405668 -1.5613058
39.244026 15.449551 -1.5908058
39.95322 15.446287 -1.6162568
40.764725 15.473191 -1.6458726
40.999355 15.275104 -1.651657
0 0 -0
0 0 -0
44.056244 15.496675 -1.7654927
0 0 -0
0 0 -0
0 0 -0
0 0 -0
0 0 -0
0 0 -0
0 0 -0
0 0 -0
0 0 -0
0 0 -0
0 0 -0
0 0 -0
0 0 -0
0 0 -0
0 0 -0
0 0 -0
0 0 -0
0 0 -0
0 0 -0
0 0 -0
0 0 -0
0 0 -0
0 0 -0
0 0 -0
0 0 -0
0 0 -0
0 0 -0
0 0 -0
0 0 -0
0 0 -0
0 0 -0
0 0 -0
0 0 -0
0 0 -0
0 0 -0
0 0 -0
0 0 -0
0 0 -0
0 0 -0
0 0 -0
0 0 -0
0 0 -0
0 0 -0
0 0 -0
0 0 -0
0 0 -0
0 0 -0
0 0 -0
0 0 -0
0 0 -0
0 0 -0
0 0 -0
0 0 -0
0 0 -0
36.855564 0.027742269 -1.3855006
32.000721 -0.17232044 -1.1981653
28.558851 -0.32907733 -1.0653956
28.503342 -0.50337052 -1.0633519
28.442776 -0.67689997 -1.0611538
28.350191 -0.84877855 -1.0577604
28.044868 -1.0119109 -1.0461917
27.336279 -1.1543447 -1.0190824
27.338663 -1.3225379 -1.0194681
27.334024 -1.4904774 -1.0196223
27.382214 -1.6616776 -1.0218589
25.643646 -1.7141863 -0.95503062
20.211117 -1.4757466 -0.74525213
27.281244 -2.1602082 -1.0193138
19.861929 -1.6955309 -0.7324881
19.990465 -1.8301208 -0.73788679
19.93709 -1.9486637 -0.73626715
19.965508 -2.0751934 -0.73784822
0 -0 -0
10.596549 -1.2332011 -0.37490067
10.589774 -1.2983186 -0.37493923
10.580618 -1.3631442 -0.37490067
10.562152 -1.4267027 -0.37451506
10.577934 -1.494979 -0.3754791
10.575482 -1.5608768 -0.37574905
13.912813 -2.1406262 -0.50643635
14.103662 -2.2586567 -0.51441878
14.000824 -2.3303893 -0.51094818
13.886809 -2.3990743 -0.50705338
36.175247 -6.4777932 -1.3814516
36.127941 -6.6983633 -1.3811816
36.062611 -6.9153976 -1.3802562
35.923439 -7.1175122 -1.376477
30.919504 -6.3235488 -1.1811209
30.593641 -6.4527287 -1.1698221
30.564213 -6.6426606 -1.1702464
35.236721 -7.8848224 -1.3566561
0 -0 -0
30.36092 -7.1861711 -1.1672385
0 -0 -0
34.438305 -8.5988178 -1.3330173
34.311329 -8.7911167 -1.3300867
24.803881 -6.5177126 -0.95290965
34.069641 -9.1761665 -1.3248422
24.181641 -6.6725016 -0.93127626
24.446999 -6.9074187 -0.94357765
7.9423428 -2.2970798 -0.28227425
8.0028391 -2.3678801 -0.28528208
7.9996367 -2.4204121 -0.28574485
8.0428686 -2.4874587 -0.28809714
8.0569925 -2.5460947 -0.28929254
31.617466 -10.204015 -1.2453269
31.521994 -10.387191 -1.2440158
31.399891 -10.56098 -1.2416636
31.31843 -10.747933 -1.2410079
30.835024 -10.793976 -1.2239635
30.74939 -10.976254 -1.2231922
30.677706 -11.163356 -1.223038
18.724899 -6.9443974 -0.73391485
18.358509 -6.9369583 -0.72057235
30.044573 -11.563552 -1.2055693
18.476679 -7.2419419 -0.72905606
18.743736 -7.4796081 -0.74201292
29.781271 -12.096189 -1.2036798
29.681555 -12.268391 -1.2026386
29.632431 -12.461515 -1.2037569
29.620642 -12.671005 -1.2064948
29.440626 -12.808268 -1.2022144
29.122971 -12.883163 -1.1921496
28.876596 -12.986615 -1.1850928
28.687311 -13.113704 -1.1804653
28.543777 -13.26043 -1.1778045
28.423018 -13.41698 -1.1761463
28.230236 -13.538414 -1.1714418
28.130463 -13.7035 -1.1707476
28.040478 -13.873188 -1.1705163
27.983398 -14.059335 -1.1717502
27.940222 -14.253022 -1.1736398
27.860226 -14.428328 -1.1739868
27.826895 -14.628296 -1.1764163
27.720743 -14.790296 -1.1757221
27.504692 -14.89255 -1.1702464
12.906274 -7.0911574 -0.53150183
12.859029 -7.1682692 -0.53134757
26.344786 -14.898036 -1.1311828
12.536064 -7.191287 -0.52093577
12.60485 -7.3338995 -0.52598745
12.675796 -7.4796557 -0.53119332
25.126614 -15.034712 -1.093199
12.458323 -7.5589695 -0.52556324
24.901922 -15.318362 -1.0914637
24.672647 -15.386796 -1.0853323
24.581995 -15.540565 -1.0855252
21.898212 -14.032749 -0.96690774
23.619299 -15.34086 -1.0500865
23.434582 -15.426161 -1.0459217
23.361931 -15.584635 -1.0469629
0 -0 -0
23.172222 -15.872407 -1.0471171
23.24679 -16.133932 -1.0552152
23.359884 -16.425705 -1.0652415
21.484413 -15.304852 -0.98117578
21.275038 -15.353355 -0.97569996
21.16107 -15.469455 -0.97477448
21.072981 -15.604358 -0.9751215
19.000719 -14.251254 -0.87979573
0 -0 -0
20.20483 -15.545401 -0.94700968
20.108276 -15.668468 -0.94697112
19.995285 -15.778557 -0.94616127
19.179911 -15.327054 -0.91068405
20.087564 -16.255316 -0.96042931
20.556314 -16.844397 -0.98881108
20.488716 -17.000198 -0.99062353
20.35877 -17.104383 -0.98935097
20.248871 -17.225096 -0.98911959
20.014084 -17.238159 -0.98256403
19.791954 -17.259501 -0.97662544
19.634741 -17.335644 -0.9740032
18.349392 -16.402285 -0.91299778
18.237291 -16.504509 -0.91241938
18.272718 -16.741655 -0.9195919
19.114008 -17.72938 -0.9692986
19.08135 -17.91815 -0.97334766
19.330267 -18.376377 -0.9924745
18.57995 -17.881418 -0.95834696
18.918646 -18.432299 -0.98252547
18.83934 -18.581717 -0.98437643
18.442831 -18.415251 -0.96899015
18.009727 -18.204851 -0.95144433
18.063904 -18.485104 -0.96062213
17.864086 -18.506447 -0.95584041
17.788122 -18.655485 -0.95796132
17.715113 -18.808651 -0.96031362
17.59733 -18.914801 -0.96019793
17.5019 -19.045227 -0.96139336
17.400158 -19.169275 -0.96228027
6.8612103 -7.6529989 -0.3598614
6.6266375 -7.4832497 -0.3489483
6.6805959 -7.638092 -0.35480976
6.6192317 -7.6623044 -0.35396138
15.932221 -18.672373 -0.91045266
16.237841 -19.26874 -0.93563378
6.5211797 -7.8358397 -0.35662219
16.208281 -19.719753 -0.94828218
16.088236 -19.820385 -0.94835931
15.903194 -19.839981 -0.94446456
16.685402 -21.079529 -1.0006883
1.9959666 -2.5542216 -0.0883063
1.9906356 -2.5798686 -0.088961862
1.9777967 -2.5960081 -0.089154676
1.9606291 -2.6064978 -0.089077547
1.9428115 -2.6160724 -0.088961862
1.9273139 -2.6287498 -0.089000426
1.9140778 -2.6445732 -0.089193232
1.917569 -2.6839097 -0.090504348
14.264981 -20.222593 -0.91824228
11.216057 -16.109415 -0.72072661
10.072841 -14.658493 -0.64957929
13.854437 -20.428812 -0.91577429
0 -0 -0
13.322402 -20.172873 -0.89614612
13.501703 -20.719713 -0.91758668
13.540221 -21.060207 -0.9294253
13.877477 -21.8787 -0.96305156
13.182171 -21.067223 -0.92225271
12.967106 -21.009108 -0.91596705
12.564112 -20.638468 -0.89564478
12.726318 -21.196636 -0.91731673
12.519143 -21.144489 -0.91149384
12.234998 -20.956846 -0.89969385
12.34796 -21.451544 -0.91839647
12.199335 -21.497358 -0.91708541
11.969141 -21.396521 -0.90933436
11.937988 -21.651569 -0.9173553
11.924667 -21.944788 -0.92703444
11.725167 -21.896858 -0.92175138
11.754263 -22.278599 -0.93528676
11.612734 -22.341436 -0.93490112
11.426701 -22.317101 -0.93077499
10.683006 -21.184084 -0.87879312
10.163906 -20.466145 -0.84505117
11.213275 -22.93119 -0.94828218
11.07106 -22.996861 -0.94816655
10.928462 -23.061649 -0.94805086
6.9021416 -14.799476 -0.59339416
0 -0 -0
9.7594337 -21.614149 -0.87840748
9.643259 -21.711067 -0.87998855
9.4098549 -21.540907 -0.87034798
9.3772879 -21.830524 -0.88010424
9.1968994 -21.778109 -0.87551534
9.0508394 -21.804598 -0.87428135
8.9180107 -21.862497 -0.87439704
8.7625074 -21.863935 -0.87219894
8.6157417 -21.885677 -0.87088788
8.461833 -21.887802 -0.86880547
8.3380117 -21.967337 -0.86996233
8.2082987 -22.032129 -0.8705408
8.0856533 -22.116804 -0.87196761
0 -0 -0
8.4065018 -23.899801 -0.94091684
8.2394981 -23.892363 -0.93852597
0 -0 -0
7.9092379 -23.881639 -0.93405277
7.2405233 -22.320538 -0.8687669
7.4845915 -23.564526 -0.9173553
6.768199 -21.771255 -0.84304595
6.6097679 -21.731113 -0.83976817
6.7677846 -22.751062 -0.87921727
6.3185978 -21.728071 -0.83645177
6.811224 -23.969498 -0.9248364
4.0957522 -14.757798 -0.55425352
4.0079975 -14.793261 -0.55467772
3.9110224 -14.79439 -0.55375218
3.8261597 -14.841331 -0.55467772
5.611495 -22.331631 -0.85179955
5.7373757 -23.440096 -0.89448792
5.6772914 -23.826736 -0.90844744
5.4885626 -23.678116 -0.90119773
0.54288656 -2.4107969 -0.058574837
0.5278703 -2.4131064 -0.058536276
0.51492316 -2.425097 -0.058883335
0.49559587 -2.4066796 -0.058034968
0.47944957 -2.4028161 -0.057765033
0.46109328 -2.3870718 -0.05703235
0.443683 -2.3751225 -0.056453917
0.43496275 -2.4102507 -0.057726469
0.48056397 -2.759388 -0.071300365
0.47637045 -2.8381641 -0.07426966
0.4575114 -2.8321557 -0.073922597
0 -0 -0
3.2536685 -21.822359 -0.81466413
0.406151 -2.8460324 -0.074153975
0.38895091 -2.850451 -0.074231096
0.3709369 -2.8488204 -0.074076846
0.35468066 -2.8609593 -0.074462466
0.33676851 -2.8601046 -0.074346781
0.31932378 -2.8631103 -0.074385345
0.20648411 -1.9617014 -0.039332293
0.19414735 -1.9599483 -0.039216608
0.18295108 -1.9700572 -0.039563667
0.16956218 -1.9562101 -0.038985234
0.15731476 -1.9542258 -0.038869549
0.14487527 -1.9491752 -0.038638175
0.13270816 -1.9470367 -0.038522486
0.12044869 -1.9428277 -0.038329676
0.10813404 -1.9365463 -0.038059741
0.096000612 -1.9321833 -0.037866931
0.085278533 -1.9586918 -0.038869549
0.073258623 -1.9591782 -0.038869549
0.062932342 -2.0135241 -0.040951908
0.047744405 -1.9019914 -0.03663294
0.035881545 -1.8922578 -0.036247317
0.024296246 -1.8944407 -0.036324441
0.012637247 -1.889558 -0.036131632
0.0010413737 -1.8876014 -0.036054507
-0.010540751 -1.8875723 -0.036054507
-0.02207648 -1.8834753 -0.035900258
-0.033668112 -1.8853025 -0.035977382
-0.045069154 -1.8780677 -0.035707444
-0.05686092 -1.8867451 -0.036054507
-0.068580769 -1.8903551 -0.036208756
-0.080304906 -1.8928938 -0.036324441
-0.14028358 -2.8924513 -0.074963778
-0.15443879 -2.8256829 -0.072418675
-0.2488682 -4.0953979 -0.12154693
-0.27452546 -4.1017704 -0.12185543
-0.20693345 -2.8293378 -0.072688609
-0.29660702 -3.7414746 -0.10805016
-0.3148002 -3.6838286 -0.10589068
-0.34605047 -3.7763617 -0.10955408
-0.28340104 -2.8960071 -0.075503647
-0.40135202 -3.8583004 -0.112909
-0.4253467 -3.8587451 -0.11302468
-0.46287242 -3.9751699 -0.11765215
-0.30406046 -2.4775605 -0.059538893
-0.32589436 -2.5271838 -0.061544128
-0.51443422 -3.8065434 -0.11144363
-0.54015762 -3.8201354 -0.11209919
-0.45243707 -3.0634723 -0.082714781
-0.47988564 -3.1169338 -0.084912829
-0.62460113 -3.8983476 -0.11556979
-0.5212158 -3.1295385 -0.085645512
-0 -0 -0
-0 -0 -0
-0 -0 -0
-0.83026224 -4.327806 -0.13326985
-0.51501518 -2.5974703 -0.065400347
-0.87209696 -4.2624679 -0.13111036
-0.89246064 -4.2296596 -0.13003062
-0.46809486 -2.1520476 -0.048201602
-0.47889063 -2.1384084 -0.047777418
-0.49984869 -2.1695123 -0.049127094
-0 -0 -0
-0.51392072 -2.1117539 -0.0470833
-0.52323765 -2.0940185 -0.046504866
-0.54153252 -2.1120644 -0.047353234
-0.73477781 -2.7948823 -0.074732408
-0.73242331 -2.7179556 -0.071840242
-0.67413694 -2.4417703 -0.060965694
-0.62634754 -2.2154553 -0.052057825
-0.61689043 -2.1318963 -0.04885716
-0.62202287 -2.1012411 -0.047777418
-0.63721883 -2.1050365 -0.048085917
-0.57159948 -1.8471484 -0.037828367
-0.58653522 -1.8550403 -0.038291115
-0.7292574 -2.2584181 -0.054795742
-0.66366923 -2.0128396 -0.045000941
-0.59605342 -1.7710012 -0.035321824
-0.60496277 -1.7616397 -0.03509045
-0.66594189 -1.9012524 -0.040951908
-1.2066704 -3.3793638 -0.10168739
-0.73671776 -2.0234611 -0.046312053
-0.65391994 -1.76219 -0.035746008
-0.6594224 -1.7441231 -0.035167575
-0.67764896 -1.7596282 -0.035977382
-1.2054795 -3.0746782 -0.090658598
-1.2039543 -3.0161781 -0.088537678
-1.302907 -3.2068572 -0.096789993
-1.4069136 -3.4028921 -0.10531224
-1.1996161 -2.8516531 -0.082599096
-1.5802206 -3.6931458 -0.11823058
-1.6100268 -3.6998737 -0.1189247
-1.2567533 -2.840055 -0.083061844
-1.2639098 -2.8095067 -0.082097791
-1.7950069 -3.9258957 -0.12979925
-1.8998928 -4.0888066 -0.13720319
-1.5009576 -3.1788509 -0.098872349
-1.9131986 -3.9885983 -0.13392541
-0.91014159 -1.8674806 -0.043381326
-0.91892445 -1.8564872 -0.043149952
-0.92850393 -1.8472421 -0.042995702
-0.94299936 -1.8477411 -0.043265641
-0.95340014 -1.8401456 -0.043188516
-0.96513808 -1.8351455 -0.043227077
-0.97826159 -1.8327154 -0.043381326
-0.98901278 -1.8257997 -0.043342765
-0.99586666 -1.8118148 -0.042995702
-1.007938 -1.8074158 -0.043072827
-1.0140904 -1.7924991 -0.042687207
-1.0235784 -1.7836426 -0.042571519
-1.0360109 -1.7799196 -0.042687207
-1.0555452 -1.7881597 -0.043342765
-1.0813762 -1.8065163 -0.044461068
-1.0841473 -1.786178 -0.043844074
-1.5264916 -2.4808166 -0.075619332
-2.5495059 -4.0874887 -0.14911892
-2.5686648 -4.0624771 -0.14869472
-2.5930042 -4.0457983 -0.14865616
-5.2907372 -8.1453142 -0.3380352
-1.3799098 -2.0956211 -0.060040202
-1.3894151 -2.0821271 -0.059808828
-1.3775417 -2.0371368 -0.058112092
-1.3894507 -2.0278218 -0.058073528
-1.3739502 -1.9790326 -0.056183979
-1.3774462 -1.9583037 -0.055605546
-1.3749422 -1.9294682 -0.054641493
-1.3797383 -1.9112717 -0.054178745
-1.4114897 -1.9301976 -0.05548986
-1.4233066 -1.9215004 -0.05548986
-1.4638487 -1.9511023 -0.057340845
-1.8572029 -2.4441745 -0.0816736
-1.8861796 -2.4509485 -0.082560532
-1.8526633 -2.377059 -0.079514116
-1.8907356 -2.3954554 -0.080979481
-2.8329871 -3.5446103 -0.13832149
-1.9551895 -2.4155731 -0.083138965
-2.5855725 -3.1548083 -0.12062144
-2.6067955 -3.1411912 -0.12073713
-2.6292343 -3.1289625 -0.12092993
-2.0268307 -2.3820853 -0.083910212
-2.019237 -2.3438613 -0.082599096
-2.009938 -2.3043146 -0.081210859
-2.0187483 -2.2859459 -0.08090236
-3.2660484 -3.6532788 -0.15231958
-2.0781617 -2.2958236 -0.082714781
-2.056433 -2.2439795 -0.080670983
-2.0789971 -2.2408433 -0.081172295
-2.2787604 -2.4261816 -0.091661215
-2.4767385 -2.6048 -0.10191876
-2.4968321 -2.593874 -0.10215013
-2.5336201 -2.5999768 -0.103307
-2.1951725 -2.2251053 -0.083833091
-2.2116084 -2.2144225 -0.083987333
-2.6172767 -2.5887423 -0.10527368
-2.6295383 -2.5691421 -0.10508087
-2.6380634 -2.5460193 -0.10469525
-2.6594212 -2.5353012 -0.10500374
-2.899694 -2.7306406 -0.11691947
-2.7481287 -2.5562465 -0.10805016
-2.8079069 -2.5799055 -0.11036389
-2.7622733 -2.5068829 -0.10716323
-2.6965079 -2.417176 -0.10295995
-3.294786 -2.9173307 -0.13303848
-3.3088639 -2.89377 -0.13284566
-2.893285 -2.4990921 -0.11074951
-3.5729282 -3.0481796 -0.14445288
-4.1684647 -3.5123711 -0.17356735
-4.1845613 -3.4822531 -0.17329742
-3.4763556 -2.8568985 -0.13685612
-3.4798546 -2.8241785 -0.13616201
-3.4721682 -2.7827737 -0.13492802
-3.4656727 -2.7428107 -0.13377115
-2.9801457 -2.3288846 -0.10916846
-2.9690657 -2.2910178 -0.10793447
-2.9743247 -2.2660944 -0.10751028
-3.0288959 -2.2784414 -0.10947696
-3.0468299 -2.2627931 -0.10966977
-3.0558219 -2.2405097 -0.1094384
-4.4106998 -3.192687 -0.17333598
-4.4993105 -3.2149487 -0.17661378
-22.703234 -16.014881 -1.0353942
-3.0664234 -2.1345794 -0.1073946
-4.2118363 -2.8938916 -0.16041765
-4.2559776 -2.8859417 -0.16165163
-4.3275833 -2.8958995 -0.16415818
-4.5603967 -3.0113683 -0.17410722
-4.8425016 -3.1551807 -0.18625432
-4.8777399 -3.1356759 -0.18698701
-5.7339544 -3.6366498 -0.22524072
-5.7129593 -3.5743659 -0.22327405
-5.714376 -3.526648 -0.22234856
-3.8846099 -2.3644598 -0.13870712
-3.9375961 -2.3637266 -0.14044242
-4.1145349 -2.4357429 -0.14773068
-4.3244286 -2.5243146 -0.15644573
-3.9319403 -2.2629306 -0.13828292
-4.6062398 -2.6135907 -0.16759022
-4.6500959 -2.6008894 -0.16882421
-3.8880475 -2.1433713 -0.13454239
-4.6017652 -2.5002122 -0.16531505
-4.6179004 -2.4724009 -0.16535361
-4.4058518 -2.3241792 -0.15544312
-4.3969774 -2.2851191 -0.15444049
-4.4100266 -2.2576411 -0.15440194
-4.3997064 -2.2183905 -0.15336075
-4.3980207 -2.1837964 -0.15270519
-7.7066879 -3.7682488 -0.29426709
-7.6927505 -3.7031188 -0.29268605
-7.7984023 -3.6952164 -0.29623374
-5.7489185 -2.680896 -0.20800342
-5.7452798 -2.6364009 -0.20715505
-33.684757 -15.209917 -1.3895111
-33.779274 -15.003757 -1.3895881
-5.8459444 -2.5534039 -0.20939165
-5.8201857 -2.4997377 -0.20765635
-5.8142419 -2.4550374 -0.20676942
-5.8024325 -2.4082055 -0.20565112
-34.796333 -14.194155 -1.4134582
-9.4841681 -3.8007684 -0.35750911
-9.6319036 -3.791554 -0.36267644
-23.422844 -9.0553122 -0.93231744
-23.295794 -8.8422718 -0.92479783
-35.699471 -13.300472 -1.4333948
-23.627787 -8.6380806 -0.93405277
-35.844948 -12.855986 -1.4327779
-35.932583 -12.639119 -1.4331635
-11.494705 -3.9638336 -0.43243548
-7.8505926 -2.6532781 -0.28300691
-7.8458562 -2.598146 -0.28215855
-7.8103242 -2.5333052 -0.28007618
-29.243486 -9.2884502 -1.1473018
-29.310425 -9.1121044 -1.1477259
-37.146725 -11.298899 -1.4615839
-29.815598 -8.8694086 -1.1636522
-9.757308 -2.8372293 -0.35534963
-9.7235899 -2.7628288 -0.35330582
-9.5978565 -2.6635611 -0.34759861
-12.924105 -3.5015271 -0.47994414
-12.869993 -3.4022381 -0.47693628
-9.7129908 -2.5039084 -0.35029799
-15.451818 -3.8826079 -0.57804638
-13.202205 -3.231292 -0.48773369
-15.633413 -3.7248943 -0.58340657
-13.094848 -3.0351884 -0.48194936
-11.490168 -2.5890112 -0.4177433
-15.599762 -3.4147062 -0.5794732
-11.459496 -2.4347289 -0.41531387
-16.037838 -3.3049071 -0.59512949
-16.026459 -3.2001765 -0.59389549
-16.140957 -3.1201785 -0.59763598
-19.793083 -3.7004161 -0.74027765
-19.79575 -3.5753458 -0.73950636
-0 -0 -0
-19.586845 -3.2899389 -0.72967303
-20.047604 -3.2409878 -0.74691033
-42.193886 -6.5562987 -1.611051
-25.905144 -3.862479 -0.97396463
-26.101469 -3.7281845 -0.98071301
-26.199099 -3.5782366 -0.98364377
-32.20742 -4.1977944 -1.2166367
-24.032637 -2.9823718 -0.8977657
-23.996895 -2.8285367 -0.89568335
-24.044584 -2.684679 -0.89687878
-0 -0 -0
-41.166939 -4.0859294 -1.5596861
-41.176311 -3.8318679 -1.5591077
-41.214977 -3.5805266 -1.5597247
-41.239159 -3.32781 -1.5598403
-0 -0 -0
-0 -0 -0
-0 -0 -0
-0 -0 -0
-0 -0 -0
-0 -0 -0
-0 -0 -0
-0 -0 -0
-0 0 -0
-37.342331 2.9912288 -1.8804191
-0 0 -0
-0 0 -0
-0 0 -0
-0 0 -0
-37.152603 4.1263576 -1.8762788
-0 0 -0
-0 0 -0
-0 0 -0
-0 0 -0
-0 0 -0
-37.13459 5.5146694 -1.8845084
-0 0 -0
-0 0 -0
-37.583309 6.2904253 -1.9133888
-37.688648 6.5460405 -1.9209028
-0 0 -0
-37.69482 7.0246978 -1.9255544
-0 0 -0
-0 0 -0
-0 0 -0
-38.061123 8.0642185 -1.9543327
-0 0 -0
-0 0 -0
-38.362587 8.8689489 -1.9783061
-38.347282 9.1136389 -1.9804018
-0 0 -0
-38.287773 9.5973759 -1.9833153
-0 0 -0
-38.42688 10.135023 -1.9970655
-0 0 -0
-38.932915 10.781209 -2.0306997
-0 0 -0
-38.926201 11.295462 -2.0375493
-38.803505 11.518464 -2.0347378
-0 0 -0
-38.587696 11.971579 -2.0309043
-38.282177 12.134787 -2.0184832
-38.12434 12.342689 -2.0140359
-0 0 -0
-37.919849 12.792683 -2.0113268
-0 0 -0
-37.595108 13.199154 -2.0023816
-37.465458 13.412416 -1.9997747
-0 0 -0
-37.070587 13.786565 -1.9873536
-36.747154 13.923526 -1.974319
-36.54084 14.102351 -1.967725
-36.420162 14.313145 -1.9658848
-36.299198 14.523359 -1.9640958
-36.167782 14.728863 -1.9617956
-36.023216 14.928329 -1.9588308
-35.8564 15.117653 -1.9546905
-35.796925 15.351945 -1.9565817
-35.610512 15.531373 -1.9514701
-0 0 -0
-35.102226 15.825171 -1.9337841
-0 0 -0
-0 0 -0
-0 0 -0
-34.412556 16.542093 -1.9172736
-34.251179 16.72401 -1.9139
-34.072762 16.896585 -1.9096063
-33.968445 17.105333 -1.9096063
-33.804165 17.28343 -1.9062326
-33.597317 17.438532 -1.9004565
-33.390724 17.592211 -1.8947315
-33.226669 17.767092 -1.8915113
-33.011696 17.913471 -1.8853774
-32.844296 18.084377 -1.8820548
-0 0 -0
-32.534752 18.437809 -1.8770455
-32.361267 18.602747 -1.8735185
-32.184395 18.764742 -1.8698381
-32.04372 18.947126 -1.8683558
-32.235203 19.328281 -1.8867575
-31.660316 19.248646 -1.8594617
-31.509308 19.422634 -1.8575193
-0 0 -0
-31.199411 19.764013 -1.8533278
-31.077553 19.955076 -1.8533278
-30.954527 20.14539 -1.8533278
-30.811159 20.322296 -1.8521521
-0 0 -0
-0 0 -0
-0 0 -0
-0 0 -0
-0 0 -0
-0 0 -0
-0 0 -0
-29.494892 21.603098 -1.8342615
-0 0 -0
-0 0 -0
-28.849876 21.957855 -1.8186712
-28.889402 22.269213 -1.8299677
-0 0 -0
-28.464317 22.503748 -1.8202046
-28.398205 22.736029 -1.8249584
-0 0 -0
-28.065344 23.040348 -1.8215337
-27.938803 23.224888 -1.822556
-0 0 -0
-27.484476 23.423471 -1.8113105
-0 0 -0
-27.082153 23.660421 -1.8036431
-26.923 23.814238 -1.8027231
-26.61791 23.83707 -1.7918353
-26.119719 23.681303 -1.7675554
-25.892992 23.766836 -1.7619326
-25.674982 23.858639 -1.7569232
-25.536833 24.023941 -1.7575366
-25.352785 24.145741 -1.7549808
-24.927366 24.033964 -1.7353013
-24.620773 24.031595 -1.7239535
-24.294554 24.006018 -1.7111233
-23.954048 23.961807 -1.6971688
-23.728682 24.029455 -1.6914949
-23.493628 24.085232 -1.6851054
-23.242157 24.121773 -1.6774892
-22.971157 24.135159 -1.6683905
-22.657095 24.099562 -1.6560205
-22.413658 24.135674 -1.6488643
-22.189535 24.190317 -1.6431394
-21.917309 24.189833 -1.633734
-21.615961 24.153435 -1.6220285
-21.411793 24.222755 -1.6177347
-21.212189 24.295752 -1.6137989
-21.002062 24.355108 -1.609045
-20.808844 24.432575 -1.6056203
-20.601322 24.491774 -1.601071
-20.375994 24.527838 -1.5950904
-20.198507 24.61997 -1.5929435
-20.019402 24.709299 -1.5906944
-19.708319 24.632812 -1.5776598
-19.561136 24.758762 -1.5780177
-19.475193 24.963364 -1.5835382
-19.276556 25.023844 -1.5797557
-19.190966 25.231476 -1.5855317
-18.980618 25.275282 -1.580829
-18.790083 25.343935 -1.5778133
-18.617117 25.435381 -1.5763309
-18.432039 25.509468 -1.5738262
-18.264151 25.606636 -1.572855
-18.111862 25.725571 -1.573315
-17.963928 25.850981 -1.5742351
-17.934883 26.150152 -1.5859917
-17.994638 26.585573 -1.6061314
-17.769606 26.603302 -1.6004575
-17.567017 26.652628 -1.5968283
-17.377014 26.719727 -1.5943748
-17.992027 28.040459 -1.6682372
-17.877321 28.241463 -1.6737577
-17.871374 28.61916 -1.6899614
-12.253807 19.893192 -1.1588676
-17.589344 28.952396 -1.6969132
-17.630014 29.424736 -1.7186886
-17.538034 29.682829 -1.7276338
-17.391268 29.851151 -1.731263
-17.235134 30.00493 -1.7340745
-9.5892448 16.932772 -0.95900464
-16.958597 30.380733 -1.7438376
-16.854181 30.633846 -1.7525784
-16.736347 30.866623 -1.7601435
-16.551815 30.978424 -1.7607058
-11.070773 21.028719 -1.1793652
-10.83533 20.891455 -1.1675574
-11.069481 21.667265 -1.2083478
-10.991084 21.84362 -1.2145839
-0 0 -0
-12.296332 25.203674 -1.3983455
-12.051093 25.090494 -1.3876623
-10.429084 22.058924 -1.2118748
-9.2993374 19.985535 -1.0912414
-10.865966 23.732578 -1.2989762
-10.574546 23.475544 -1.28083
-9.7725344 22.055294 -1.1977156
-0 0 -0
-0 0 -0
-9.8754559 23.443586 -1.2650353
-10.178366 24.583353 -1.3248408
-9.9772816 24.522308 -1.3180424
-9.8707342 24.693424 -1.3241252
-9.8734074 25.146755 -1.3457472
-9.823823 25.478962 -1.3606731
-10.000315 26.418617 -1.4088242
-9.9472275 26.773441 -1.4248745
-10.013631 27.467323 -1.4593778
-10.02548 28.033232 -1.486827
-9.9914274 28.488153 -1.5081935
-10.158348 29.543413 -1.5620184
-10.038429 29.787846 -1.5718838
-10.454084 31.662121 -1.6696173
-10.430142 32.253059 -1.6979866
-10.234757 32.32502 -1.6984466
-10.155931 32.77356 -1.7191486
-10.181494 33.583607 -1.7591723
-0 0 -0
-0 0 -0
-7.1093807 25.10458 -1.298465
-6.9259291 25.041847 -1.2928423
-6.6542454 24.647099 -1.2696868
-6.4708409 24.565779 -1.2632462
-6.3152666 24.586641 -1.262275
-6.1378574 24.519327 -1.2567034
-6.0104733 24.651615 -1.2617128
-5.8355832 24.588915 -1.2564989
-5.6758394 24.586308 -1.2545054
-5.5054159 24.533943 -1.2499561
-5.3622174 24.601416 -1.2517451
-5.2283168 24.714951 -1.2559878
-5.0817871 24.772003 -1.2573168
-5.5671492 28.010715 -1.4247212
-5.3957396 28.047291 -1.4248745
-2.7426333 14.740372 -0.73041451
-2.6418948 14.699911 -0.72744977
-2.5258958 14.567257 -0.71973127
-2.423305 14.503677 -0.71564204
-2.325393 14.463056 -0.71277952
-2.2314236 14.443494 -0.71104157
-2.1317823 14.38282 -0.70720786
-2.0378797 14.356078 -0.70516324
-1.8902987 13.929904 -0.6825189
-1.8031251 13.928365 -0.68185443
-1.7703565 14.367368 -0.70393646
-1.685414 14.405734 -0.70536774
-1.5978694 14.423745 -0.70577663
-1.515668 14.493869 -0.70889473
-1.4287584 14.523767 -0.70996815
-1.3452941 14.593919 -0.71313733
-1.2593982 14.644685 -0.71533531
-1.1831703 14.823368 -0.72412723
-1.0961503 14.884133 -0.72688752
-1.0315992 15.288156 -0.74728274
-1.6336236 26.657009 -1.3299525
-1.1099801 20.130009 -0.99488795
-0.70750803 14.435732 -0.70276082
-0.62229091 14.518625 -0.70679897
-0.54646701 14.884453 -0.72535402
-0.45387945 14.846599 -0.72325826
-0.35980767 14.7273 -0.71702212
-0.26952684 14.734222 -0.71727771
-0.17843895 14.679676 -0.71441525
-0.088024668 14.62357 -0.7115016
0.0016990557 14.590878 -0.70981479
0.091226973 14.590593 -0.70981479
0.18086351 14.598746 -0.71027482
0.27088222 14.621326 -0.7115016
0.3610366 14.63736 -0.71242172
0.45130539 14.649842 -0.71318847
0.54702556 14.804482 -0.72126478
0.64229089 14.903617 -0.72652966
0.74415594 15.110862 -0.73736626
1.4162151 25.549261 -1.2727027
1.5696996 25.487261 -1.2699935
1.7250437 25.462204 -1.2692268
1.8803604 25.439188 -1.2686133
2.0337844 25.39432 -1.2669265
2.185698 25.336588 -1.2646264
2.3389118 25.298834 -1.2633996
2.4932156 25.275061 -1.2629396
2.6476285 25.253326 -1.2626328
2.8076026 25.282265 -1.2649841
2.9625626 25.263571 -1.2649331
3.1149497 25.224102 -1.2638596
3.2726195 25.227293 -1.2650353
3.4323297 25.243353 -1.2669265
3.587718 25.225773 -1.2671311
2.3495002 15.82558 -0.78188819
3.9015908 25.209454 -1.2686645
2.343384 14.553222 -0.71748215
4.2241769 25.240446 -1.272856
4.3791409 25.215036 -1.2729071
4.5502324 25.2791 -1.2776608
4.7080016 25.26543 -1.2784276
4.8629384 25.236067 -1.2784276
5.0213981 25.224363 -1.2793988
5.1831136 25.227318 -1.2811879
5.3655505 25.325956 -1.2880374
5.5461965 25.408667 -1.2941202
5.6903892 25.322515 -1.291411
5.8701811 25.393183 -1.2969826
6.0371966 25.404295 -1.2994874
6.2081227 25.428865 -1.3027588
6.371563 25.420324 -1.3043433
6.539361 25.427177 -1.3067969
6.7046809 25.422304 -1.3086883
4.3171935 15.973181 -0.80989963
4.4105906 15.930029 -0.80903071
7.1671271 25.279213 -1.3078704
5.9437437 20.485195 -1.0547446
4.3330035 14.599618 -0.74247783
7.6465955 25.193655 -1.3105795
7.8042922 25.156754 -1.3111418
7.9645405 25.127434 -1.3121641
8.1262598 25.101845 -1.313442
8.2942352 25.094181 -1.3157423
8.459547 25.076881 -1.3175824
8.6337366 25.083994 -1.3208027
8.8003902 25.067297 -1.3227962
8.9661531 25.046675 -1.3246363
9.1309671 25.022148 -1.3263232
9.3034763 25.017132 -1.3291346
9.4822826 25.026817 -1.3328149
9.6576023 25.024998 -1.335933
9.8230267 24.995941 -1.3376198
9.984005 24.95467 -1.3386933
10.149367 24.923462 -1.3403801
10.31778 24.898542 -1.3424758
10.496358 24.896421 -1.3459005
10.676085 24.894878 -1.3494276
6.3962111 14.667022 -0.78199041
11.03301 24.879761 -1.3560215
11.223637 24.896265 -1.3607752
11.394909 24.867786 -1.3630755
11.573842 24.854435 -1.3662958
11.794049 24.926485 -1.3744233
11.967976 24.897753 -1.3769279
12.15996 24.904617 -1.3815284
12.373775 24.953007 -1.3885823
12.566181 24.955105 -1.3930805
12.78863 25.013578 -1.4009012
12.94417 24.93907 -1.4011568
8.4080219 15.96007 -0.88631785
13.322234 24.914852 -1.4090798
13.514395 24.905493 -1.4133224
13.718502 24.915709 -1.4187918
13.948083 24.968819 -1.4268681
8.3741293 14.778006 -0.83239061
11.89412 20.691811 -1.1845789
14.568302 24.987379 -1.4434296
14.807256 25.042799 -1.4520682
14.977072 24.97888 -1.4537039
15.26807 25.113501 -1.4673008
15.463278 25.086504 -1.4713389
15.707421 25.135973 -1.4800798
10.054941 15.873771 -0.924757
16.157158 25.163177 -1.4935743
16.359737 25.138062 -1.4981236
10.1876 15.446741 -0.91008675
10.306608 15.420472 -0.91233581
10.655873 15.73316 -0.93559355
17.353773 25.28562 -1.5326779
10.555061 15.179774 -0.90932
17.816343 25.288738 -1.5463259
17.997286 25.215523 -1.5486261
18.258757 25.252716 -1.5579803
18.575651 25.361769 -1.5720371
18.78269 25.317091 -1.5764842
19.006077 25.292381 -1.5823114
19.258295 25.303228 -1.5905411
19.500383 25.297691 -1.5978507
19.888781 25.476698 -1.6172746
0 0 -0
0 0 -0
11.953865 14.745385 -0.93457127
0 0 -0
12.117952 14.578383 -0.93329334
21.219496 25.210257 -1.6495799
17.939064 21.049637 -1.3785636
18.071798 20.943707 -1.3788702
21.811357 24.965818 -1.659803
22.00979 24.883131 -1.6633301
22.194038 24.783323 -1.6657836
22.391975 24.697725 -1.6693107
22.605904 24.628288 -1.6740644
22.78311 24.517649 -1.6760579
22.976231 24.423218 -1.6792783
23.162849 24.320829 -1.6820384
23.341452 24.20916 -1.6842364
15.847309 16.236404 -1.1242622
23.810867 24.097073 -1.6969132
24.05151 24.043716 -1.7036605
24.250463 23.946909 -1.707392
24.469151 23.86809 -1.7125547
16.339338 15.744036 -1.1243644
16.641813 15.839705 -1.1389325
25.303818 23.78919 -1.7406173
25.472727 23.655228 -1.7422529
16.962198 15.559728 -1.1411304
23.800533 21.564608 -1.606847
23.636206 21.153103 -1.5865029
23.81045 21.047361 -1.5895699
24.04071 20.989534 -1.5964705
24.134256 20.811628 -1.5941192
26.267262 22.371302 -1.7289629
26.323784 22.14221 -1.7235956
26.435335 21.960491 -1.7220111
26.561863 21.79154 -1.7214999
26.667913 21.606146 -1.7197108
26.77503 21.422144 -1.7180752
26.861301 21.222162 -1.7151616
19.875736 15.506377 -1.2532786
19.984749 15.3951 -1.2541987
0 0 -0
27.277397 20.484001 -1.7089765
27.434662 20.340034 -1.7110212
0 0 -0
28.064291 20.277899 -1.7351478
23.208845 16.554041 -1.4221144
22.74161 16.011194 -1.3865377
22.868128 15.891299 -1.3883268
28.299807 19.40909 -1.7194042
0 0 -0
28.521736 19.050919 -1.7185352
0 0 -0
28.80612 18.733778 -1.7217555
28.97348 18.590651 -1.7249758
28.955364 18.329197 -1.7170017
29.250261 18.265438 -1.7280427
29.438316 18.132753 -1.7326431
28.985685 17.609566 -1.6989067
26.4254 15.833083 -1.539732
26.457565 15.632542 -1.5358982
26.490854 15.433712 -1.5322179
26.520103 15.233571 -1.5283842
28.571037 16.179224 -1.6435483
28.675007 16.006531 -1.643855
28.774431 15.831245 -1.6439571
29.312639 15.893821 -1.6696684
29.559357 15.793666 -1.6783582
29.793571 15.684566 -1.6863322
30.189796 15.65732 -1.7036605
30.529877 15.596721 -1.7177174
30.79451 15.494381 -1.7274294
31.133305 15.426176 -1.741384
31.391628 15.314985 -1.7507381
31.38238 15.072793 -1.744911
31.554632 14.917938 -1.7494603
0 0 -0
32.479931 14.87047 -1.7913753
33.289024 14.994488 -1.8317057
33.950172 15.042376 -1.863602
34.640606 15.094673 -1.8970318
35.252155 15.104445 -1.9259634
35.764786 15.065016 -1.9493233
0 0 -0
36.016346 14.653217 -1.9531571
0 0 -0
0 0 -0
35.300594 13.610229 -1.8994342
0 0 -0
35.359165 13.136713 -1.8936582
35.280533 12.861703 -1.8850195
0 0 -0
35.125652 12.319057 -1.8682024
35.379078 12.164666 -1.8778633
0 0 -0
35.236446 11.634104 -1.862273
35.125671 11.358992 -1.8525099
35.22422 11.152595 -1.8540945
0 0 -0
34.976131 10.603612 -1.8336481
34.577103 10.251421 -1.8089081
34.665253 10.046572 -1.8102882
34.667629 9.8170843 -1.8071702
34.76379 9.6142979 -1.8091125
34.265793 9.250638 -1.7796186
34.546932 9.0994749 -1.7915287
0 0 -0
34.191933 8.5587015 -1.7670442
34.068184 8.3059311 -1.7577922
0 0 -0
34.060505 7.8625312 -1.7521695
0 0 -0
34.041233 7.4192982 -1.74624
34.060711 7.2049127 -1.744911
34.104279 6.9957843 -1.744911
34.134808 6.7840571 -1.7442976
34.187561 6.5767455 -1.744911
34.241016 6.3694072 -1.7456266
34.333519 6.1689005 -1.748438
0 0 -0
34.486423 5.7604356 -1.7525784
0 0 -0
34.671967 5.3549366 -1.7586612
34.720966 5.1445804 -1.7595301
0 0 -0
34.815132 4.7226763 -1.761268
34.894958 4.5156288 -1.7639261
34.980488 4.3086338 -1.7669419
34.983452 4.091249 -1.7657663
35.127014 3.8897035 -1.7719002
35.182003 3.6774163 -1.7735358
35.236706 3.4646983 -1.7752227
0 0 -0
35.298458 3.0339096 -1.7763473
35.328358 2.8182178 -1.7769606
35.392792 2.6049111 -1.7794142
35.437008 2.3896437 -1.7808965
35.502838 2.1753356 -1.7835546
0 0 -0
35.552792 1.7407664 -1.7848836
35.605709 1.5244213 -1.7870816
35.578465 1.3046038 -1.7852414
35.627724 1.0875523 -1.7873883
35.753536 0.87184185 -1.7935221
35.566494 0.64895403 -1.783708
35.556824 0.43055314 -1.7830434
0 0 -0
0 -0 -0
31.037735 -0.19537614 -1.5516419
27.396997 -0.3404429 -1.3653758
27.336479 -0.50746375 -1.362411
27.321869 -0.67491591 -1.3618487
27.284271 -0.84152961 -1.3601619
26.182781 -0.96835023 -1.3040367
27.373661 -1.1806802 -1.3653758
27.306053 -1.3456676 -1.3623087
27.373066 -1.5173934 -1.3661935
25.678646 -1.5814954 -1.2798078
25.663477 -1.7386891 -1.2795522
27.332531 -2.0203955 -1.3657846
19.610456 -1.570299 -0.9699434
25.446037 -2.1951449 -1.2702491
19.963621 -1.8454171 -0.98916298
19.917137 -1.964444 -0.98737395
19.928547 -2.0891166 -0.98860073
30.980701 -3.44068 -1.5584403
10.60541 -1.2429749 -0.50954282
10.591636 -1.3072903 -0.50923616
10.578464 -1.3716122 -0.50898057
10.553025 -1.4342064 -0.5081116
10.557869 -1.5009009 -0.50882721
10.555375 -1.5666816 -0.50918502
13.868576 -2.1458666 -0.68129212
13.88177 -2.2352111 -0.68267226
14.316947 -2.3955362 -0.70598114
13.676183 -2.3746257 -0.67347139
0 -0 -0
29.106173 -5.4238715 -1.4783928
29.072344 -5.6023617 -1.4783928
28.89344 -5.7519717 -1.4708788
28.698147 -5.8963819 -1.4625469
28.636026 -6.0669765 -1.461218
28.545572 -6.2310662 -1.4584577
28.441519 -6.391428 -1.4550329
28.30349 -6.5430984 -1.4498702
28.197712 -6.7011685 -1.4464455
28.08815 -6.8574772 -1.4428674
28.015514 -7.0221653 -1.4412827
27.938047 -7.1852255 -1.4394938
24.836145 -6.5500646 -1.2776608
8.2026863 -2.2164149 -0.3979058
8.1311836 -2.250711 -0.39483887
7.9375496 -2.2496116 -0.38528019
7.9485335 -2.30551 -0.3866092
7.9888091 -2.3704388 -0.38952282
7.9817591 -2.4217334 -0.38993174
7.9867802 -2.4768779 -0.39100516
8.1913443 -2.5955524 -0.40281293
7.8902245 -2.5534747 -0.38747817
26.489969 -8.7556448 -1.3909848
26.434799 -8.9176998 -1.3909336
26.367308 -9.0755072 -1.3902692
26.616428 -9.3443213 -1.4068307
26.650736 -9.540451 -1.4118401
18.88468 -6.891006 -0.99192321
25.770649 -9.5837345 -1.3702829
18.205673 -6.8975148 -0.95946467
25.59613 -9.8780413 -1.367267
18.481226 -7.2625155 -0.97934872
18.826675 -7.5319743 -1.0008686
25.298056 -10.301929 -1.361082
18.218019 -7.5490804 -0.97234589
25.111755 -10.587154 -1.3578616
24.99584 -10.719386 -1.3550503
24.817919 -10.823844 -1.3488141
24.663395 -10.937051 -1.343907
24.542107 -11.063958 -1.3408912
24.457417 -11.206848 -1.3399712
24.377327 -11.351645 -1.3393577
24.294579 -11.495028 -1.3386421
24.152481 -11.609696 -1.334604
24.048485 -11.741899 -1.3327638
23.950039 -11.876369 -1.3312814
23.845497 -12.007378 -1.3294923
23.750031 -12.142553 -1.3282655
23.643169 -12.271488 -1.3264254
23.543571 -12.403759 -1.3250453
23.422987 -12.524439 -1.3224895
23.376419 -12.684596 -1.3242786
12.889417 -7.0962253 -0.71610206
23.312288 -13.022623 -1.3297479
23.300583 -13.204321 -1.3337861
12.518516 -7.195395 -0.7020452
12.589738 -7.3394804 -0.70889473
12.60636 -7.4531913 -0.71257508
22.796501 -13.668422 -1.3234607
12.403869 -7.5403986 -0.70598114
22.079561 -13.609639 -1.2905421
21.965151 -13.725807 -1.2887019
21.808807 -13.814895 -1.2843571
21.686655 -13.924707 -1.2821079
21.585739 -14.047706 -1.2811879
21.521646 -14.194736 -1.282568
21.483961 -14.359824 -1.285635
21.454153 -14.531143 -1.2892642
21.395878 -14.683986 -1.2912066
21.338991 -14.83837 -1.2933023
21.2255 -14.953493 -1.2919222
21.089453 -15.052117 -1.2891619
20.951378 -15.148466 -1.2862995
20.614721 -15.098513 -1.2708625
20.459932 -15.178897 -1.2669265
19.020353 -14.292571 -1.1807452
18.941038 -14.415662 -1.1813076
19.915268 -15.351101 -1.2500073
19.732534 -15.404177 -1.2442822
19.194235 -15.174383 -1.2153506
19.068022 -15.265655 -1.2132038
18.93676 -15.352176 -1.2107502
18.79126 -15.426255 -1.2073766
18.577217 -15.442308 -1.1994536
18.397306 -15.484616 -1.1937798
18.257864 -15.559635 -1.1908151
18.11517 -15.630918 -1.1876459
17.904604 -15.641897 -1.1798762
17.695337 -15.651547 -1.1721578
17.470264 -15.644564 -1.1633147
17.321413 -15.703836 -1.1596855
17.118786 -15.712572 -1.1523248
16.831848 -15.640553 -1.1390346
16.7472 -15.754486 -1.1398525
16.814375 -16.013302 -1.1514559
16.702145 -16.103001 -1.1504847
16.62089 -16.22262 -1.1517625
16.045803 -15.854676 -1.117566
15.939746 -15.944358 -1.1169527
15.549707 -15.746236 -1.0956885
15.322398 -15.707658 -1.0861298
15.184847 -15.758946 -1.0831139
15.052064 -15.814203 -1.0804559
14.735168 -15.672688 -1.0640477
14.545624 -15.662546 -1.0570449
14.430345 -15.730894 -1.0556136
6.8986502 -7.6127553 -0.48884094
14.385396 -16.073496 -1.0670636
6.7491527 -7.6339827 -0.4845472
6.6883917 -7.6594524 -0.48347378
6.6203985 -7.6761441 -0.48183805
14.849093 -17.434456 -1.1351498
15.027902 -17.865351 -1.1578964
6.5475411 -7.8804398 -0.48740968
6.5022316 -7.9243269 -0.48766527
14.135746 -17.446751 -1.1123011
14.069605 -17.584625 -1.1156747
13.982492 -17.697269 -1.1174127
2.0255482 -2.5946558 -0.13148995
1.9870408 -2.5777614 -0.12959866
1.9669546 -2.5843408 -0.12924084
1.9510604 -2.5963612 -0.12924084
1.9356874 -2.609086 -0.12929197
1.9243605 -2.6273613 -0.12970088
1.9070334 -2.6375005 -0.12959866
1.8908141 -2.6491523 -0.12959866
13.010817 -18.479622 -1.119764
12.939354 -18.619799 -1.1235466
10.038552 -14.635914 -0.87139201
12.864382 -19.005453 -1.1376545
12.727001 -19.053303 -1.1357633
12.56039 -19.055986 -1.1311629
12.425807 -19.105906 -1.1295271
12.316431 -19.194397 -1.1302938
12.271066 -19.384373 -1.1372457
11.932383 -19.107748 -1.1160326
11.843197 -19.226522 -1.1187928
11.730187 -19.307364 -1.1193039
11.619711 -19.392683 -1.1201218
11.514217 -19.486832 -1.1215019
11.375831 -19.525185 -1.1196107
11.343356 -19.747036 -1.128607
11.291361 -19.938803 -1.1358144
11.124513 -19.928352 -1.1311629
10.89901 -19.808983 -1.120224
10.774403 -19.870216 -1.1199174
10.652749 -19.936834 -1.1199684
10.522776 -19.987682 -1.1191506
10.388441 -20.029709 -1.1178727
10.260348 -20.08329 -1.1173104
10.09653 -20.065577 -1.11271
9.9692297 -20.119095 -1.11225
9.8814983 -20.253489 -1.1164415
9.7042923 -20.203909 -1.1102053
9.5895309 -20.282936 -1.1113299
6.8938808 -14.815168 -0.79936981
9.2397203 -20.180244 -1.0990109
8.8991756 -19.755764 -1.0720218
9.1309462 -20.607128 -1.1166459
8.328557 -19.111809 -1.0300556
8.2579346 -19.271793 -1.0361384
8.1286755 -19.296329 -1.0347072
8.0689507 -19.487946 -1.0425791
7.9936304 -19.646248 -1.0486107
7.8833108 -19.720892 -1.0500419
7.8052216 -19.878588 -1.0560737
7.7571058 -20.118065 -1.0666035
7.72119 -20.396923 -1.0792803
7.5565925 -20.338125 -1.0735042
7.413188 -20.333441 -1.0707439
7.3135047 -20.449074 -1.0745776
7.1614547 -20.418169 -1.0704883
7.035387 -20.459839 -1.0703861
6.9062076 -20.49221 -1.0698239
6.7875409 -20.556013 -1.0709995
6.667429 -20.616278 -1.0720218
6.5664253 -20.737732 -1.0763667
6.4514718 -20.817698 -1.0785135
6.3018866 -20.78521 -1.0746799
5.652236 -19.062634 -0.98067772
6.1619797 -21.260017 -1.095944
5.9617629 -21.051432 -1.0828583
5.8276906 -21.070292 -1.0819383
4.012567 -14.860636 -0.75086081
3.9213083 -14.884976 -0.75086081
5.2600112 -20.47753 -1.0451349
4.9868412 -19.920383 -1.0140564
4.8143754 -19.744907 -1.0032198
4.8898044 -20.602947 -1.0468217
4.7689099 -20.656891 -1.0480995
0.53369945 -2.3735309 -0.0875303
0.52380383 -2.3982282 -0.088654853
0.50742549 -2.3935804 -0.088245921
0.49714351 -2.4181721 -0.089370474
0.48288044 -2.4241157 -0.089523822
0.46762002 -2.4250715 -0.089421585
0.4541921 -2.43575 -0.089830518
0.43411726 -2.4099853 -0.088348158
0.4196628 -2.4145715 -0.088450387
0.47310856 -2.8258972 -0.10966347
0.45623565 -2.8317051 -0.10981682
0.44022369 -2.8433342 -0.11027686
0.42174461 -2.8390665 -0.10991905
0.39968723 -2.8089707 -0.10823222
0.38392052 -2.8222563 -0.1087945
0.36839014 -2.8384249 -0.10951012
0.35072285 -2.8386495 -0.10940789
0.34709927 -2.9587884 -0.11549067
0.33014667 -2.9717815 -0.11605295
0.20593585 -1.9596075 -0.063863657
0.19283342 -1.9499012 -0.063301384
0.18086542 -1.9510478 -0.063301384
0.16880512 -1.9511257 -0.063250266
0.156195 -1.9441606 -0.062841341
0.14360346 -1.9361184 -0.062381297
0.1316538 -1.9359666 -0.062330183
0.11946722 -1.9317539 -0.062074602
0.10700776 -1.9214815 -0.061512329
0.094483636 -1.9071394 -0.060745589
0.08324942 -1.9186589 -0.061307862
0.072462387 -1.9460802 -0.062687993
0.059454747 -1.9115502 -0.060898937
0.047554385 -1.9048902 -0.060541127
0.036756445 -1.9540739 -0.0630458
0.02480196 -1.9572586 -0.063199148
0.012394551 -1.8904626 -0.059774388
0.00080053991 -1.8605423 -0.058240913
-0.010406858 -1.827556 -0.05655409
-0.021719947 -1.8354467 -0.056963015
-0.033464674 -1.8612404 -0.058292028
-0.045674969 -1.8929484 -0.059927735
-0.057196528 -1.8896378 -0.059774388
-0.068568319 -1.8832633 -0.059467692
-0.082577966 -1.9396796 -0.062381297
-0.091526099 -1.8792876 -0.059314344
-0.1034427 -1.8856708 -0.059672158
-0.18437259 -3.0103891 -0.11738197
-0.20121929 -2.9852874 -0.11615518
-0.27853769 -3.7817705 -0.15709899
-1.7037604 -21.27593 -1.0554602
-0.30001953 -3.4895196 -0.14227539
-0.26660267 -2.8949223 -0.11181033
-0.28445864 -2.8942256 -0.11186145
-0.3033579 -2.9033515 -0.11242373
-0.40188667 -3.6280084 -0.14984053
-0.45206687 -3.863528 -0.16210835
-0.4749074 -3.8537433 -0.16175053
-0.49661672 -3.835901 -0.1609838
-0.34408841 -2.5384097 -0.09412425
-0.5444957 -3.8354502 -0.16129048
-0.45518199 -3.072377 -0.12198239
-0.47448352 -3.0724869 -0.12213574
-0.49300933 -3.0675459 -0.12203351
-0.63054365 -3.7736533 -0.15883693
-0.54565769 -3.1478529 -0.12653171
-3.5841761 -19.913511 -0.99861944
-4.1601191 -22.325968 -1.1253867
-3.7968993 -19.70524 -0.99013418
-0.52055109 -2.6202743 -0.099746995
-0.53762412 -2.621922 -0.10000257
-0 -0 -0
-0.90207505 -4.1372333 -0.17974332
-4.7230392 -21.018663 -1.0656323
-4.8523684 -20.991234 -1.0657345
-5.2284207 -22.001673 -1.1204796
-0.67901421 -2.7856627 -0.1097657
-0.69196546 -2.7649758 -0.10889673
-0.72409433 -2.8196776 -0.1120148
-0.73730636 -2.799731 -0.11119694
-0.60251671 -2.2330949 -0.081396401
-0.61700702 -2.2322433 -0.081549749
-0.62606049 -2.2120814 -0.080680773
-0.73704219 -2.5438905 -0.09857133
-0.76883805 -2.5938919 -0.10148493
-0.6994521 -2.3081696 -0.086456865
-0.78107846 -2.5213087 -0.098111287
-0.80377734 -2.5393164 -0.099338062
-0.84026229 -2.5989456 -0.10281394
-0.86497009 -2.6202912 -0.10424519
-0.7229929 -2.146524 -0.078942835
-0.62497604 -1.8190943 -0.06146121
-0.66358727 -1.8934357 -0.065703832
-1.2077478 -3.3767993 -0.14656912
-1.4996231 -4.1123509 -0.18705288
-0.75194144 -2.0250514 -0.073575668
-0.72294837 -1.9111342 -0.067595117
-7.8656778 -20.382324 -1.0812227
-1.1997056 -3.0556014 -0.1310299
-1.2165767 -3.0435464 -0.13077432
-1.3482375 -3.3135021 -0.14610907
-1.3868968 -3.3494518 -0.14856264
-1.2246661 -2.907449 -0.12448707
-1.7711644 -4.1325321 -0.19313566
-1.2969867 -2.9764185 -0.12918973
-1.2998394 -2.933713 -0.12724732
-1.7783798 -3.9471884 -0.18459933
-1.7476455 -3.8163598 -0.17785203
-1.8836036 -4.047287 -0.19149996
-0.86438996 -1.8293966 -0.0665728
-0.87516594 -1.8231583 -0.066521682
-0.88151574 -1.8078825 -0.065959409
-0.89969158 -1.8167549 -0.066777259
-0.919806 -1.8290397 -0.067799576
-0.92237288 -1.8064667 -0.066828378
-0.938501 -1.8105234 -0.067390651
-0.94866145 -1.8029637 -0.067288421
-0.96111917 -1.7997509 -0.067441769
-0.9673807 -1.785042 -0.066930607
-0.97590667 -1.7746985 -0.06667503
-0.98141968 -1.7590866 -0.066112757
-1.4614753 -2.5810485 -0.11482617
-1.4638456 -2.5486553 -0.11344604
-1.4538008 -2.4956255 -0.11083914
-1.4751863 -2.4969738 -0.11145253
-1.5315676 -2.5563958 -0.11554179
-1.0797455 -1.7780917 -0.069486402
-1.1891607 -1.9312592 -0.079096183
-1.4968543 -2.3973477 -0.10766995
-2.5719123 -4.0619082 -0.20908383
-5.1616502 -8.0402288 -0.45203751
-1.6709297 -2.5694375 -0.11988664
-1.6173763 -2.4540951 -0.11344604
-1.398191 -2.0937493 -0.091875151
-1.4535785 -2.1479716 -0.095759958
-1.3503091 -1.9693916 -0.08523009
-1.3355685 -1.9225332 -0.082827643
-1.3450389 -1.9110364 -0.082623176
-1.3544186 -1.899496 -0.082418717
-1.3613667 -1.8846754 -0.082009785
-1.3658235 -1.8666186 -0.081396401
-1.3855822 -1.8694315 -0.082112022
-2.0006149 -2.6640592 -0.13353458
-1.7634807 -2.3187635 -0.11211703
-1.470366 -1.9092597 -0.086354636
-1.4974179 -1.9198817 -0.087632529
-1.595886 -2.020335 -0.094788752
-1.6257299 -2.0323334 -0.096219994
-1.6928897 -2.0898099 -0.10066707
-1.6777972 -2.0454206 -0.098417982
-1.7056386 -2.0535188 -0.099644758
-2.529206 -3.00647 -0.16410185
