# .PCD v0.7 - Point Cloud Data file format
VERSION 0.7
FIELDS x y z
SIZE 4 4 4
TYPE F F F
COUNT 1 1 1
WIDTH 1504
HEIGHT 1
VIEWPOINT 0 0 0 1 0 0 0
POINTS 1504
DATA ascii
-5.2475271 16.869638 -1.9468335
-5.1436291 16.900568 -1.9467219
-5.0384145 16.92705 -1.9461637
-4.9355679 16.961462 -1.9466102
-4.8319454 16.993338 -1.9468335
-4.7265215 17.018837 -1.9463869
-4.6175857 17.031214 -1.944489
-4.5091844 17.044815 -1.9428145
-4.3978114 17.046181 -1.9398
-4.2880454 17.052607 -1.9374555
-4.1819129 17.072805 -1.9367857
-4.076386 17.095243 -1.9364508
-3.9752328 17.136391 -1.9383488
-3.3242831 14.740843 -1.6596893
-3.1850667 14.538668 -1.6341232
-3.0881503 14.521973 -1.6299925
-2.9413686 14.261323 -1.5979511
-2.8471847 14.245971 -1.5941553
-2.7651947 14.291466 -1.5973929
-2.6774518 14.308164 -1.5973929
-2.5632629 14.178617 -1.5807582
-2.4639177 14.123593 -1.5727199
-2.3933611 14.234485 -1.5836608
-2.2908905 14.155708 -1.5730549
-2.1781726 14.003551 -1.5541873
-2.0421705 13.681499 -1.5161172
-1.9560735 13.679016 -1.5144426
-1.8712958 13.684854 -1.5137727
-1.7811182 13.648779 -1.5084139
-1.6966019 13.653534 -1.5077441
-1.6204836 13.728822 -1.5151125
-1.5704571 14.04466 -1.5497216
-1.4826852 14.039207 -1.5480469
-1.4075276 14.158794 -1.5605509
-1.3519936 14.50358 -1.5985093
-1.2838337 14.751184 -1.6255268
-1.1932179 14.757792 -1.6254151
-1.1566885 15.488256 -1.7069141
-1.0369657 15.135176 -1.6663879
-1.0062557 16.138033 -1.7785885
-0.90665787 16.133982 -1.777472
-0.72316813 14.451982 -1.58768
-0.6342172 14.450191 -1.5870101
-0.61136836 16.196596 -1.7829425
-0.47559804 15.049857 -1.6536607
-0.38213083 15.008781 -1.6487484
-0.28914717 14.965139 -1.6436129
-0.21402803 16.231564 -1.7857336
-0.10476309 14.866201 -1.6322253
-0.013793664 15.132889 -1.6621455
0.078910463 15.10387 -1.6589079
0.17265454 15.197502 -1.6695138
0.27902523 15.947315 -1.7539155
0.38517421 16.296991 -1.7934369
0.47807115 16.055927 -1.7666427
0.53134537 14.792437 -1.6249685
0.62164092 14.777977 -1.6237406
0.71311826 14.790758 -1.6256384
0.77533591 14.261186 -1.5665796
0.85670561 14.154983 -1.5551921
0.93329853 13.99577 -1.5378876
1.0397272 14.272249 -1.5697056
1.1101427 14.048646 -1.5452559
1.1868775 13.930672 -1.5327519
1.2733266 13.934012 -1.53398
1.3588002 13.925938 -1.53398
1.4470937 13.945014 -1.537106
1.5451212 14.049469 -1.5499449
1.6199461 13.942 -1.5388923
1.7054622 13.931798 -1.5388923
1.7895195 13.910229 -1.5376642
1.8764312 13.910805 -1.539004
1.9613343 13.896077 -1.538669
2.045548 13.8769 -1.5378876
2.1320148 13.872927 -1.5388923
2.2298098 13.939068 -1.5479354
2.3069854 13.875128 -1.5422416
2.399344 13.902821 -1.5470421
2.5769944 14.404338 -1.6059893
2.5735729 13.89285 -1.5493866
2.6578345 13.871917 -1.5488285
2.7456024 13.868996 -1.5503914
2.8376119 13.885964 -1.554299
2.9297278 13.901354 -1.5580947
3.0191872 13.902537 -1.5603276
3.1202626 13.954547 -1.5684775
3.5733953 15.533093 -1.7526875
3.3397572 14.120225 -1.5921457
3.7545903 15.450413 -1.7483333
3.8312798 15.35477 -1.7399602
3.91236 15.279949 -1.7340431
3.7339866 14.219516 -1.6136926
3.846992 14.292297 -1.6248569
3.9425399 14.297163 -1.6282063
4.035862 14.292787 -1.6305507
4.1560388 14.380407 -1.6437244
4.2594109 14.406096 -1.6497532
4.3287449 14.316909 -1.6423848
4.3704448 14.141015 -1.6248569
4.4439645 14.072237 -1.6199447
4.5549345 14.121312 -1.6289877
4.7636538 14.464044 -1.6728631
4.869411 14.485409 -1.6788918
4.9536867 14.442098 -1.6773288
4.9683733 14.200379 -1.6522093
5.0534081 14.164011 -1.6515394
5.1972818 14.289634 -1.6702954
5.5031352 14.846375 -1.7408533
5.487751 14.53064 -1.7070258
5.5789466 14.502258 -1.7076956
5.5830102 14.251236 -1.6815712
5.727777 14.360706 -1.6989875
5.9111009 14.560088 -1.7274562
6.0037432 14.53181 -1.728461
6.0700774 14.440647 -1.7218741
6.1652107 14.418664 -1.723772
6.2630763 14.402435 -1.7264515
6.3449006 14.349193 -1.7246652
6.4515676 14.351685 -1.7298007
6.5399194 14.312733 -1.7299124
6.7021136 14.43277 -1.7497847
6.8087788 14.43002 -1.7545854
6.8993392 14.392451 -1.7551435
6.9888248 14.352528 -1.7554785
7.073235 14.302248 -1.7545854
7.1702237 14.277228 -1.7569299
7.2725887 14.262178 -1.760614
7.3809772 14.257882 -1.7657496
7.4724832 14.220243 -1.7667544
7.5867186 14.224981 -1.7732296
7.6766968 14.183406 -1.7738996
7.7951512 14.193524 -1.7812679
7.9111156 14.197513 -1.7879665
8.027421 14.20061 -1.794665
8.1406021 14.196778 -1.8005821
8.209074 14.114777 -1.7964512
8.3232918 14.111218 -1.8025916
8.4250231 14.085468 -1.8059409
8.5344801 14.071744 -1.8109648
8.631073 14.036043 -1.8131976
8.73701 14.014866 -1.81744
8.8525677 14.008037 -1.823692
8.9812336 14.020398 -1.8326234
9.1212053 14.048375 -1.8437877
9.2285366 14.024521 -1.8481417
9.3656883 14.044522 -1.8585244
9.4961987 14.052663 -1.8674558
9.6192989 14.048248 -1.8748242
9.7523317 14.05673 -1.8840905
9.883543 14.060854 -1.8929102
10.013441 14.061466 -1.9013951
10.14081 14.056982 -1.9093217
10.262636 14.043438 -1.9161319
10.408916 14.061675 -1.9275194
10.546268 14.065921 -1.9371207
10.675647 14.057928 -1.945159
10.804111 14.047299 -1.9529738
10.942616 14.048165 -1.9625751
11.103078 14.075167 -1.9760839
11.272343 14.110817 -1.9910439
11.410586 14.105513 -2.0003102
11.546668 14.095966 -2.00913
11.693846 14.098281 -2.0198476
11.828702 14.084098 -2.0283325
11.92391 14.021852 -2.0298955
12.021393 13.96198 -2.0319049
12.108142 13.889454 -2.0321283
12.167492 13.78584 -2.0277743
12.245893 13.704253 -2.0267694
12.317749 13.615591 -2.02476
12.368845 13.504578 -2.0194011
12.428502 13.403654 -2.0156052
12.483306 13.29816 -2.0111396
12.525648 13.180253 -2.004776
12.580792 13.076651 -2.0006452
12.637219 12.975006 -1.9968493
12.683803 12.863962 -1.9916022
12.742839 12.7662 -1.9884762
12.80751 12.674489 -1.9863549
12.870827 12.581772 -1.984122
12.928484 12.483923 -1.9811077
12.995492 12.395443 -1.9796563
13.040927 12.286849 -1.9749674
13.087702 12.180196 -1.9706134
13.143903 12.082849 -1.9678223
13.181746 11.969237 -1.9623518
13.225348 11.861588 -1.9578861
13.278541 11.763083 -1.9549835
13.322797 11.657173 -1.9508526
13.383547 11.56611 -1.9492897
13.4331 11.465708 -1.9461637
13.495601 11.376662 -1.9450473
13.547587 11.279016 -1.9424795
13.60042 11.182424 -1.940135
13.651035 11.084354 -1.9375672
13.696307 10.982356 -1.9343296
13.740843 10.880219 -1.9310919
13.786207 10.779176 -1.9280776
13.82849 10.676163 -1.9247284
13.87319 10.575448 -1.9218256
13.917174 10.474586 -1.9189229
13.962838 10.375362 -1.9163551
14.016623 10.282439 -1.9150155
14.062549 10.184 -1.912671
14.10537 10.083652 -1.9099915
14.154798 9.9883184 -1.908317
14.18157 9.8774233 -1.903628
14.210792 9.7688284 -1.8993856
14.24086 9.6613636 -1.8953664
14.283358 9.5627432 -1.8931335
14.326011 9.4645147 -1.8910123
14.3655 9.3644943 -1.8885562
14.40263 9.2632713 -1.8858768
14.434025 9.1587505 -1.8825275
14.469735 9.0573578 -1.8798481
14.487833 8.9454298 -1.8749359
14.517836 8.8413754 -1.8716983
14.544552 8.7357559 -1.8681257
14.564534 8.6265955 -1.8637716
14.582868 8.5170193 -1.8593059
14.612462 8.4144859 -1.8564032
14.663817 8.3246679 -1.8564032
14.703347 8.2282257 -1.8549519
14.735285 8.1277733 -1.8526074
14.770037 8.0291376 -1.8507094
14.794497 7.9252195 -1.8475834
14.832301 7.8287263 -1.8462437
14.870359 7.7325263 -1.8450156
14.914872 7.6397791 -1.8446808
14.930415 7.5324521 -1.8407732
14.954994 7.4300866 -1.8380939
14.980664 7.328577 -1.8356377
15.009233 7.2287574 -1.8336282
15.032654 7.1267347 -1.8310604
15.041879 7.018394 -1.826818
15.066598 6.9176731 -1.8245851
15.095176 6.8189592 -1.8229105
15.125834 6.7213659 -1.8215708
15.168612 6.6292248 -1.821794
15.200787 6.5324955 -1.8207893
15.239668 6.4387155 -1.8206776
15.279805 6.3454666 -1.8207893
15.320293 6.2523432 -1.8210126
15.358369 6.1582222 -1.8210126
15.371826 6.0544 -1.8181099
15.417953 5.963551 -1.8192263
15.445894 5.8656607 -1.8182216
15.494631 5.7756357 -1.8197845
15.548443 5.6872816 -1.8220173
15.5924 5.5951276 -1.8231338
15.652684 5.5085869 -1.8262597
15.676796 5.4091988 -1.8251433
15.709691 5.3129058 -1.8251433
15.747654 5.2182884 -1.8258132
15.77276 5.1194167 -1.8250318
15.775464 5.0135102 -1.8216825
15.806878 4.9169149 -1.821794
15.818686 4.8143353 -1.8196728
15.851739 4.718317 -1.8201194
15.895658 4.6254063 -1.8219057
15.94668 4.5343089 -1.8245851
16.001013 4.4438229 -1.8277111
16.043324 4.34972 -1.8294975
16.102375 4.25984 -1.8332932
16.142643 4.1646819 -1.8349679
16.176567 4.0677352 -1.8359727
16.212805 3.9712384 -1.8373123
16.239765 3.8723755 -1.8376473
16.265156 3.7731063 -1.8378706
16.290911 3.6738901 -1.8382055
16.308292 3.5727983 -1.8376473
16.328936 3.4724586 -1.8375356
16.347988 3.3717992 -1.8373123
16.36837 3.2714264 -1.8373123
16.407648 3.1747065 -1.8395452
16.437563 3.0759821 -1.8407732
16.461018 2.9759493 -1.8413315
16.478968 2.8748903 -1.8413315
16.481596 2.7712512 -1.8396568
16.50712 2.671499 -1.8406616
16.508472 2.5678713 -1.838987
16.529814 2.4674094 -1.8396568
16.596781 2.3733952 -1.8455739
16.620876 2.2728612 -1.8466903
6.6367455 0.8658635 -0.71396679
6.6133347 0.8215704 -0.71072918
6.580749 0.77654862 -0.70648676
6.5695887 0.73438787 -0.70470047
6.5650768 0.69312423 -0.70369565
6.561295 0.65204197 -0.70280254
6.5572572 0.61103225 -0.70190942
6.5519729 0.57001048 -0.70090461
6.5414796 0.52867603 -0.69934165
6.5436096 0.48845428 -0.69923002
6.5415263 0.44795448 -0.69867176
6.54316 0.40774614 -0.69856012
6.5217261 0.36625165 -0.69588071
6.5298057 0.32652634 -0.69655055
6.5316863 0.28645405 -0.69655055
6.5283561 0.24618344 -0.69599235
6.5277572 0.20605874 -0.69576907
6.527905 0.16597597 -0.69565743
6.5218458 0.12578382 -0.69487596
6.5234885 0.085777283 -0.6949876
6.5248857 0.045755323 -0.69509923
6.533987 0.0057269079 -0.69610399
6.5140247 -0.034261685 -0.69387114
6.5574141 -0.074725904 -0.6987834
6.5697489 -0.11518571 -0.70023477
6.5748792 -0.15563549 -0.70090461
6.5946598 -0.19659583 -0.7032491
6.6102123 -0.23766218 -0.70514703
6.6245155 -0.27888504 -0.70693332
6.6345906 -0.32010099 -0.70827299
6.6563168 -0.36209813 -0.71095246
6.6678567 -0.40377378 -0.71251541
6.693017 -0.44652995 -0.71564144
6.7020445 -0.48845524 -0.71698111
14.440948 -1.1411316 -1.5894663
14.728744 -1.2548492 -1.6227357
14.71384 -1.3445666 -1.6219542
14.640035 -1.4284562 -1.6145859
14.559826 -1.5108757 -1.6065476
14.530526 -1.5980126 -1.6043147
10.569042 -1.2281342 -1.1574103
10.575117 -1.2946516 -1.1589733
10.554161 -1.3578669 -1.157522
10.543661 -1.4223348 -1.1572987
10.566223 -1.4914461 -1.1608713
10.557856 -1.5563961 -1.1609828
13.859176 -2.1299019 -1.5373293
13.807576 -2.2087793 -1.5329752
13.830034 -2.299489 -1.537106
14.035023 -2.4221554 -1.5621139
13.968051 -2.4989533 -1.5561968
13.874284 -2.5701342 -1.5472655
14.261341 -2.7324359 -1.5933738
14.234559 -2.817961 -1.5922574
13.326126 -2.7232246 -1.4901046
14.222243 -2.9973464 -1.5949367
14.193873 -3.0824473 -1.5938203
14.171783 -3.1688309 -1.5934855
14.163694 -3.2584007 -1.5948251
14.159875 -3.3491342 -1.5967231
8.2862473 -2.0138254 -0.92005861
8.27952 -2.0660744 -0.92072845
13.862856 -3.5495584 -1.5697056
13.915787 -3.6542375 -1.5784137
7.6480131 -2.0587745 -0.85184509
7.6314049 -2.1046064 -0.85139853
13.997272 -3.9524257 -1.5960532
13.982303 -4.0409956 -1.5971696
8.0049639 -2.3669925 -0.89985132
7.9674602 -2.4091635 -0.89717191
7.9591742 -2.4600594 -0.89795339
7.9429822 -2.5085504 -0.89784175
8.4636936 -2.730197 -0.96114302
13.676845 -4.5044169 -1.5797534
13.639529 -4.5850854 -1.578637
13.570719 -4.6548266 -1.5738363
7.7553625 -2.7136095 -0.88511455
13.480752 -4.8096571 -1.5700405
13.448185 -4.891264 -1.5697056
13.385306 -4.9616003 -1.5657982
13.334158 -5.0359139 -1.563342
13.29095 -5.112998 -1.5618906
13.248223 -5.190104 -1.5605509
13.183822 -5.2584114 -1.5566435
13.112636 -5.3235078 -1.5519545
13.065029 -5.3977942 -1.5501682
13.027082 -5.4759331 -1.54961
12.968567 -5.5452142 -1.5465956
12.92883 -5.6223059 -1.5459257
12.882274 -5.6963058 -1.5444744
12.815355 -5.760983 -1.5405669
12.749938 -5.8258796 -1.5368828
12.695023 -5.8952131 -1.5345383
12.652321 -5.9700294 -1.5337567
12.59484 -6.0376706 -1.531189
12.525392 -6.0991759 -1.5271698
12.484169 -6.1741533 -1.5267233
12.426513 -6.2408276 -1.5242672
12.340179 -6.2925816 -1.5182384
12.294276 -6.3645263 -1.5173453
12.209249 -6.4158063 -1.5115399
12.174913 -6.4934058 -1.5122098
12.138337 -6.5698795 -1.5126563
12.086473 -6.6380167 -1.511205
12.036835 -6.7072163 -1.5100886
11.979881 -6.7721443 -1.5080791
11.952758 -6.8539271 -1.5099769
11.892438 -6.9166474 -1.5076324
11.844639 -6.9864588 -1.5069625
11.792167 -7.0533938 -1.5057346
11.711279 -7.1029425 -1.5008222
11.643773 -7.1600933 -1.4976963
11.579381 -7.2187867 -1.4950168
11.518909 -7.279614 -1.4928956
11.452268 -7.3362198 -1.489993
11.399536 -7.4014812 -1.4889882
11.346436 -7.466372 -1.4879833
11.291315 -7.5297871 -1.4867553
11.239137 -7.5950332 -1.4859738
11.192323 -7.6638522 -1.4859738
11.143455 -7.7312498 -1.4857506
11.08605 -7.7926216 -1.4844108
11.037218 -7.8599215 -1.4842992
10.982335 -7.9228454 -1.4834061
10.930305 -7.9877372 -1.4829595
10.881087 -8.0546541 -1.4829595
10.827485 -8.1182871 -1.4824013
10.767179 -8.1767578 -1.4809499
10.697112 -8.2275238 -1.4781588
10.62134 -8.2734642 -1.4745862
10.568034 -8.3366337 -1.4742514
10.519011 -8.403182 -1.4745862
10.462617 -8.4638176 -1.4739164
10.4151 -8.5316334 -1.4745862
10.357965 -8.5915728 -1.4739164
10.291356 -8.6434622 -1.4719069
10.222229 -8.6929274 -1.4695624
10.174722 -8.7606735 -1.4704555
10.096806 -8.802043 -1.4668829
10.02249 -8.846076 -1.4638686
9.9806204 -8.918663 -1.4657665
9.9286566 -8.9824009 -1.4662131
9.8557663 -9.0270452 -1.4635336
9.7892609 -9.0772142 -1.4618591
9.7275839 -9.1316681 -1.4609659
9.6684885 -9.1884451 -1.4605193
9.6097784 -9.2455301 -1.4601845
9.5443249 -9.2960005 -1.4588447
9.4764919 -9.3439226 -1.4571701
9.4217939 -9.4047012 -1.4576167
9.3743954 -9.4729309 -1.4592913
9.3195677 -9.5338259 -1.4598495
9.2539902 -9.5836811 -1.4587331
7.0289249 -7.3694396 -1.1061665
6.9753966 -7.4037499 -1.1048267
9.0428438 -9.7167492 -1.4532626
8.9830532 -9.7720518 -1.4532626
8.9262638 -9.8306656 -1.4538208
8.8637857 -9.8830309 -1.4534858
6.7370982 -7.605309 -1.103487
6.677218 -7.6315465 -1.1012542
6.5185013 -7.5430527 -1.0820516
2.1307495 -2.4968681 -0.33081016
2.1147482 -2.5091355 -0.33069852
2.0948617 -2.5167181 -0.32991701
2.0806425 -2.5310597 -0.33014029
2.065073 -2.5437787 -0.33014029
2.0500474 -2.5571771 -0.33025193
2.0374029 -2.5736032 -0.33081016
2.0068822 -2.5672679 -0.32813072
1.9728729 -2.5559359 -0.32478145
1.9408863 -2.5466552 -0.32176712
1.9120764 -2.5410488 -0.31931099
1.8922997 -2.5471497 -0.31852949
1.8807498 -2.5643215 -0.31931099
1.8778036 -2.5935199 -0.32176712
1.8838165 -2.6357124 -0.32600951
1.880214 -2.6650844 -0.32846567
1.8905208 -2.7148964 -0.33371285
1.8856492 -2.7436423 -0.33605734
1.869337 -2.7559831 -0.33616897
1.8573673 -2.7748332 -0.33717376
1.8370194 -2.7812028 -0.33650392
1.8226333 -2.7965844 -0.33706212
7.2312231 -11.243344 -1.4638686
7.1466579 -11.263169 -1.460631
7.0695047 -11.294173 -1.4589564
6.9911962 -11.322964 -1.4570584
6.9060812 -11.340186 -1.4537091
6.8199949 -11.355087 -1.4501367
6.7461414 -11.38988 -1.4492434
6.684648 -11.445647 -1.4511414
6.6212358 -11.498504 -1.4527044
6.5598793 -11.555334 -1.4548256
6.4917655 -11.600571 -1.4554955
6.4238238 -11.646276 -1.4562769
6.3493948 -11.680234 -1.4556071
6.2588358 -11.683934 -1.4511414
6.1680074 -11.686086 -1.4465641
6.0934358 -11.718422 -1.4458942
6.0236835 -11.760013 -1.4464524
5.9505167 -11.794977 -1.4462291
5.8753791 -11.825928 -1.4455593
5.8232312 -11.903709 -1.4508065
5.7742305 -11.989354 -1.4570584
5.704814 -12.033537 -1.4581748
5.6275086 -12.06111 -1.4572817
5.5554705 -12.099929 -1.45784
5.4860315 -12.144656 -1.4591796
5.3976889 -12.147213 -1.4553838
5.2987766 -12.124559 -1.4485736
5.2023082 -12.105716 -1.4423217
5.0888667 -12.044954 -1.4310458
5.0114341 -12.067692 -1.430041
4.9466815 -12.121217 -1.432832
4.8577895 -12.115369 -1.428478
4.7666068 -12.102415 -1.4233425
4.6782756 -12.095289 -1.4189883
4.5944462 -12.098683 -1.415974
4.5194292 -12.124784 -1.4157507
4.4367547 -12.129889 -1.4130714
4.3548589 -12.136306 -1.4106152
4.2793202 -12.159986 -1.4102802
4.2075448 -12.194469 -1.411285
4.1351891 -12.227588 -1.4121782
4.0578957 -12.246127 -1.4113967
3.9835989 -12.273631 -1.4117316
3.9015923 -12.277007 -1.4092755
3.8205798 -12.282687 -1.4071543
3.7376194 -12.28118 -1.4042516
3.6602085 -12.297216 -1.40347
3.5966253 -12.360473 -1.4082707
3.5239768 -12.393779 -1.4096104
3.4462681 -12.409423 -1.4089406
3.3716209 -12.43609 -1.4096104
3.3049095 -12.49305 -1.4138528
3.2391155 -12.555431 -1.4187651
3.1617734 -12.574106 -1.4186535
3.0821962 -12.583618 -1.417537
3.0058486 -12.606159 -1.4179837
2.941468 -12.680511 -1.4244589
2.8653555 -12.706077 -1.425352
2.7813833 -12.696239 -1.4222261
2.6930919 -12.664466 -1.4166439
2.6137273 -12.672966 -1.4157507
2.5351393 -12.684867 -1.4153042
2.4504619 -12.66506 -1.411285
2.3690481 -12.660322 -1.4090523
2.2911444 -12.673642 -1.4089406
2.2148745 -12.696272 -1.4099454
2.1341283 -12.692964 -1.4080474
2.0579522 -12.71661 -1.4092755
1.9794276 -12.726052 -1.4089406
1.9002776 -12.731078 -1.408159
1.8163565 -12.702165 -1.4035817
0.39229122 -2.8711886 -0.28760454
0.36759251 -2.8193452 -0.28146422
0.3540861 -2.8521187 -0.28492513
0.91264081 -7.7334414 -0.83688504
0.21290781 -1.9071748 -0.1776368
0.20099279 -1.9064687 -0.17741352
0.18840615 -1.8987663 -0.17640874
1.1942245 -12.811609 -1.4076009
0.25352183 -2.9166791 -0.29095381
0.1555071 -1.9276659 -0.17931144
0.14567517 -1.9553404 -0.1823258
0.13381059 -1.9581803 -0.18254907
0.13490888 -2.1692305 -0.20621726
0.11032844 -1.9695967 -0.1836655
0.10201774 -2.0456669 -0.19215031
0.10921519 -2.4959891 -0.24272431
0.090859823 -2.4161758 -0.23368128
0.11413893 -3.6215024 -0.36910349
0.09216886 -3.6320689 -0.37021992
0.070131078 -3.6454823 -0.37167126
0.047525216 -3.6279581 -0.36966169
0.025010517 -3.5924072 -0.36564258
0.0029618551 -3.5865307 -0.36497271
-0.01925135 -3.6262307 -0.36943841
-0.041962888 -3.6667855 -0.37401575
-0.23015806 -13.15034 -1.4396422
-0.087824695 -3.7027528 -0.37814653
-0.10826726 -3.6256595 -0.36955005
-0.13044056 -3.6229405 -0.36932677
-0.55318993 -13.149668 -1.440647
-0.63448614 -13.158929 -1.4420984
-0.72055387 -13.253024 -1.453151
-0.23137407 -3.8180273 -0.39176688
-0.25162426 -3.7689414 -0.38640806
-0.27496183 -3.7702999 -0.38674298
-0.29809079 -3.7685418 -0.38674298
-1.1485907 -13.481137 -1.4820663
-0.34087873 -3.726994 -0.38250056
-1.3026508 -13.350308 -1.4690042
-1.3761337 -13.261011 -1.4598495
-1.4525884 -13.207868 -1.4548256
-1.5337178 -13.199693 -1.4549372
-0.35810485 -2.9227138 -0.29285175
-0.37653863 -2.9244039 -0.2932983
-1.7954137 -13.310057 -1.4709021
-1.8766323 -13.295837 -1.4705671
-1.9607867 -13.301769 -1.4725767
-2.0434244 -13.296363 -1.4733583
-0.48678362 -3.0410061 -0.30803511
-0.50429296 -3.0310998 -0.3072536
-2.3028595 -13.343654 -1.4832944
-2.378917 -13.29699 -1.4796102
-2.4593751 -13.27628 -1.4789404
-0.55665237 -2.9036188 -0.29419145
-0.55844283 -2.8192375 -0.28492513
-0.57951057 -2.8342569 -0.28704634
-0.58930886 -2.7946692 -0.28291556
-0.59632391 -2.7443869 -0.27755675
-0 -0 -0
-3.0458798 -13.239786 -1.4883183
-3.1245444 -13.21021 -1.4870902
-3.2205586 -13.25259 -1.4942354
-3.3022954 -13.234509 -1.4944587
-3.3839316 -13.215922 -1.494682
-0.72597933 -2.7633479 -0.2830272
-0.74627864 -2.7713163 -0.28447857
-3.6445823 -13.21654 -1.5022736
-3.700767 -13.105944 -1.4920025
-0.79495603 -2.7494726 -0.28358543
-0.80843067 -2.7331073 -0.28224573
-0.92296189 -3.0515132 -0.32020411
-4.0380125 -13.065293 -1.4983661
-4.1273799 -13.069647 -1.501827
-4.2441006 -13.157569 -1.5152241
-4.3300381 -13.147326 -1.517122
-4.4191761 -13.145943 -1.5201364
-4.5184536 -13.1731 -1.5266117
-4.6106825 -13.177957 -1.5305191
-4.6724215 -13.096067 -1.5241555
-1.1803288 -3.2443371 -0.34990099
-1.1494447 -3.1000583 -0.33348957
-1.1754662 -3.1115406 -0.33572242
-1.1745566 -3.0523298 -0.32947043
-5.1288486 -13.091849 -1.5416833
-1.3076389 -3.2776785 -0.35849747
-1.2653033 -3.1158245 -0.33985317
-1.2411429 -3.0032978 -0.32712594
-5.4343467 -12.928143 -1.5375526
-1.3224411 -3.0920067 -0.33985317
-1.3485212 -3.1002378 -0.34186274
-5.603879 -12.673233 -1.5187967
-5.698647 -12.676678 -1.5234857
-5.7771482 -12.643281 -1.5237089
-5.8525248 -12.603088 -1.5231507
-5.9246569 -12.556155 -1.521811
-1.3341435 -2.7823548 -0.30870494
-1.3603263 -2.7928791 -0.31104946
-1.3668653 -2.7631011 -0.30837002
-1.3855774 -2.7582142 -0.30881661
-6.3192143 -12.392412 -1.5248253
-6.3809724 -12.326047 -1.5213645
-1.4490551 -2.7568746 -0.31194258
-1.4626703 -2.7417936 -0.3111611
-6.6214366 -12.233599 -1.5248253
-6.7356005 -12.264166 -1.53398
-6.8402305 -12.275559 -1.5407902
-6.9144449 -12.231627 -1.5405669
-6.9695945 -12.154488 -1.5361012
-4.95228 -8.5146904 -1.0686547
-7.1384177 -12.102283 -1.5405669
-7.2125416 -12.058254 -1.5405669
-7.2894859 -12.01887 -1.5412368
-7.3688207 -11.983229 -1.5424649
-7.4506207 -11.951282 -1.5442511
-5.1763263 -8.1905499 -1.0505686
-5.223269 -8.1536131 -1.0498987
-5.2732005 -8.1214104 -1.0498987
-5.3425975 -8.1187878 -1.0539178
-5.6354461 -8.4504671 -1.1031522
-8.0106525 -11.854209 -1.5693706
-8.1006413 -11.830253 -1.5728316
-8.1742105 -11.781959 -1.5730549
-8.2497787 -11.736459 -1.5737247
-8.3216372 -11.685618 -1.5737247
-5.6444178 -7.8238702 -1.0458796
-1.7229712 -2.3571537 -0.29006067
-1.7350371 -2.3433425 -0.28961411
-8.7012882 -11.605091 -1.5915875
-8.6833868 -11.434351 -1.5750644
-1.7524316 -2.2779248 -0.28492513
-1.7382859 -2.2310655 -0.2797896
-1.656548 -2.099422 -0.26248503
-1.6966885 -2.1233814 -0.26739728
-8.5263147 -10.539879 -1.4850807
-8.6544266 -10.56501 -1.4963566
-1.6447648 -1.9824117 -0.25143242
-1.6767095 -1.9958729 -0.25489333
-8.8583708 -10.41679 -1.4982544
-1.6699533 -1.9389988 -0.2495345
-1.6935732 -1.9421992 -0.25154406
-1.6936221 -1.9183599 -0.2495345
-9.0822096 -10.163652 -1.4933422
-2.3817053 -2.6321659 -0.36084196
-2.4139194 -2.6350908 -0.36352137
-1.726002 -1.8609157 -0.24719001
-2.4943631 -2.6567128 -0.37144798
-2.5243084 -2.6557648 -0.37368083
-9.503891 -9.878334 -1.5020503
-9.5788841 -9.8347836 -1.5043948
-9.6278858 -9.7645006 -1.5026085
-3.247927 -3.2534566 -0.478513
-3.4542997 -3.4180088 -0.50798661
-3.2961347 -3.2216907 -0.47985271
-3.1228299 -3.0150232 -0.44970927
-3.3066585 -3.1535633 -0.47538704
-10.007527 -9.4287233 -1.5067393
-10.060827 -9.3630791 -1.5060694
-3.1695449 -2.9132652 -0.44569016
-3.5390217 -3.2130907 -0.49905521
-3.5468338 -3.1806989 -0.49726892
-3.5662835 -3.1588759 -0.49726892
-3.4494874 -3.0178342 -0.47695002
-3.4250832 -2.9595733 -0.47058639
-3.4008515 -2.9023721 -0.46433443
-10.627419 -8.9587011 -1.5235972
-3.4354482 -2.8597841 -0.46422279
-3.8758707 -3.1864133 -0.52573776
-3.9038353 -3.169462 -0.5269658
-10.679718 -8.5633965 -1.4999291
-10.714921 -8.4841337 -1.497473
-10.672836 -8.3447742 -1.4840759
-3.9505517 -3.0496249 -0.52272338
-10.754678 -8.1981115 -1.4812849
-10.823834 -8.1463108 -1.4839642
-10.868032 -8.0755939 -1.4831828
-10.923788 -8.0134602 -1.4840759
-10.986434 -7.9561911 -1.4859738
-11.097293 -7.9331312 -1.4945703
-11.190417 -7.8964038 -1.5007106
-11.291661 -7.8645105 -1.5079674
-11.424052 -7.8530631 -1.5194665
-11.536165 -7.8263373 -1.5281746
-11.730954 -7.8538165 -1.5480469
-11.870128 -7.8419461 -1.5603276
-3.0671391 -1.9990097 -0.37334588
-3.1002419 -1.993592 -0.37613696
-3.1484959 -1.9974266 -0.38093758
-3.166589 -1.9817612 -0.38171908
-3.4002216 -2.0990853 -0.41096938
-12.272942 -7.4741602 -1.5764041
-3.4862087 -2.0935311 -0.41889599
-12.363737 -7.3229899 -1.5764041
-7.6202288 -4.4503174 -0.95343965
-7.6293077 -4.3930626 -0.95109516
-7.7494516 -4.3991551 -0.96315259
-7.8560791 -4.3961716 -0.97342366
-7.9794917 -4.4011631 -0.98581594
-7.8282394 -4.2552929 -0.96304095
-7.8358068 -4.1973248 -0.96069646
-7.9835711 -4.2136469 -0.97621471
-7.9528489 -4.1352382 -0.9690696
-7.901125 -4.0469456 -0.95935673
-7.8912063 -3.9809313 -0.95500267
-7.6689677 -3.8099527 -0.92407775
-7.6788111 -3.7562745 -0.9224031
-8.2442722 -3.9704106 -0.99005836
-8.2406435 -3.9065523 -0.98659748
-8.1509905 -3.8029692 -0.97253054
-8.2527409 -3.7889607 -0.98224342
-5.7898993 -2.6152046 -0.67578506
-5.7840424 -2.5699439 -0.67310566
-8.0788727 -3.53055 -0.95254654
-8.4610186 -3.6359048 -0.99664527
-8.2735443 -3.4953487 -0.97107917
-8.6784534 -3.6038392 -1.0177457
-8.4731464 -3.4577694 -0.99017
-8.4277935 -3.3790839 -0.98213178
-8.3078279 -3.2719507 -0.9651621
-8.1609201 -3.1563807 -0.94506651
-8.5034275 -3.2290285 -0.98391807
-8.5268049 -3.1781802 -0.98436463
-8.5424128 -3.1244352 -0.98391807
-8.3004618 -2.9783115 -0.95276982
-8.5594883 -3.0121133 -0.98146194
-8.5759306 -2.9588883 -0.9812386
-8.5882769 -2.9043012 -0.98056877
-7.8126206 -2.5886486 -0.88667756
-7.8548226 -2.5492532 -0.88980353
-8.6980515 -2.7640886 -0.98737895
-8.7262344 -2.7142086 -0.98871869
-8.7218084 -2.6542482 -0.98626256
-8.7226915 -2.5961459 -0.98447627
-8.7985697 -2.5600691 -0.99150974
-8.7863922 -2.4981513 -0.98827207
-8.9605007 -2.4883387 -1.0068047
-8.797205 -2.3849394 -0.98603922
-8.8376112 -2.3377786 -0.98905361
-9.0394258 -2.3319213 -1.0108238
-9.032361 -2.2710807 -1.0083678
-9.0625353 -2.219636 -1.0102656
-9.0711508 -2.1628349 -1.0097075
-9.2071915 -2.1356571 -1.023886
-9.1076727 -2.0537601 -1.0109355
-9.4307337 -2.0658982 -1.046661
-9.3139544 -1.9804986 -1.0318127
-9.3755674 -1.9335507 -1.0375063
-9.4856768 -1.8956602 -1.0487822
-9.7468958 -1.8857548 -1.0773627
-10.115788 -1.8928227 -1.1182238
-10.344303 -1.8699707 -1.1430085
-10.846041 -1.8920406 -1.1989412
-11.387619 -1.9146127 -1.2593398
-12.015209 -1.9444207 -1.3294512
-13.212111 -2.0550454 -1.4642036
-13.590094 -2.0285242 -1.5057346
-14.647014 -2.0945241 -1.6242987
-15.474824 -2.1161134 -1.7167386
-15.704303 -2.049418 -1.7412999
-16.706686 -2.0760806 -1.8533889
-17.358618 -2.0490344 -1.9257331
-17.369877 -1.9423748 -1.9256215
-17.395304 -1.8372203 -1.9271845
-17.402292 -1.7300568 -1.9267379
-17.429401 -1.6248143 -1.9286358
-17.446964 -1.5185283 -1.929529
-17.460905 -1.4118478 -1.9300872
-17.469238 -1.3046831 -1.9300872
-17.485838 -1.1980809 -1.9310919
-17.498812 -1.0911385 -1.9317619
-17.505177 -0.98374724 -1.9317619
-17.501951 -0.87587172 -1.930757
-17.49806 -0.7680729 -1.9297522
-17.473646 -0.65960461 -1.9265146
-17.449554 -0.55149627 -1.9233886
-15.573476 1.147944 -1.9124284
-15.550313 1.242214 -1.9104452
-15.525592 1.3361578 -1.9083381
-15.495362 1.429389 -1.9056112
-15.451737 1.521035 -1.901273
-15.446061 1.6162298 -1.9017688
-15.441772 1.7116309 -1.9025126
-15.428021 1.8060013 -1.9021406
-15.41468 1.900389 -1.9018928
-15.410602 1.9959561 -1.9028844
-15.392165 2.0896747 -1.9021406
-15.367265 2.1824048 -1.9006532
-15.342787 2.2750537 -1.8992898
-15.31481 2.3670294 -1.8975546
-15.291181 2.4595361 -1.8964391
-15.265036 2.5515144 -1.8950757
-15.239316 2.643434 -1.8938361
-15.217926 2.7360127 -1.8932164
-15.210607 2.8311532 -1.8944559
-15.184179 2.9227417 -1.8933403
-15.1718 3.0170166 -1.8940841
-15.116065 3.1024685 -1.889374
-15.088978 3.1935163 -1.8883824
-15.059404 3.2839255 -1.887143
-15.036066 3.3756142 -1.8867711
-15.008303 3.4662466 -1.8859035
-14.987718 3.5584998 -1.8860275
-14.963673 3.6499252 -1.8857795
-14.93137 3.7392607 -1.8845401
-14.916795 3.8330307 -1.8856556
-14.896833 3.925498 -1.8861514
-14.859055 4.013206 -1.8844161
-14.820762 4.1005983 -1.8826809
-14.776228 4.186049 -1.8802019
-14.72358 4.2688966 -1.8767314
-14.683791 4.355207 -1.8749961
-14.644448 4.4414783 -1.8733847
-14.619763 4.5321326 -1.8737566
-14.60303 4.625349 -1.875244
-14.565878 4.7121148 -1.8741285
-14.531038 4.7995334 -1.8733847
-14.507896 4.8908229 -1.8742524
-14.478553 4.9800725 -1.8743763
-14.447722 5.0688176 -1.8743763
-14.410744 5.1553659 -1.8736327
-14.363924 5.2382507 -1.8716495
-14.328722 5.3252501 -1.8712777
-14.29021 5.4109607 -1.8705339
-14.262294 5.5006847 -1.8712777
-14.236587 5.5913582 -1.8723931
-14.213066 5.6830287 -1.8738805
-14.188957 5.774621 -1.8753679
-14.161509 5.8649921 -1.8764834
-14.143543 5.9594822 -1.8789624
-14.124039 6.0535817 -1.8813174
-14.102092 6.146873 -1.8834245
-14.078624 6.2397203 -1.8854077
-14.052738 6.3316951 -1.887143
-14.030764 6.4256535 -1.889498
-14.023458 6.5266991 -1.8939601
-14.008264 6.6245027 -1.8974307
-13.989712 6.7210751 -1.9005294
-13.967827 6.8163633 -1.9032562
-13.946188 6.9120765 -1.9061069
-13.910604 7.0010881 -1.9070985
-13.878871 7.0921807 -1.9087099
-13.842139 7.1808624 -1.9097015
-13.819767 7.2772212 -1.9128002
-13.815985 7.3838663 -1.9186257
-13.791351 7.479856 -1.9216005
-13.76519 7.5753427 -1.9244512
-13.734044 7.6683702 -1.9266824
-13.705728 7.763257 -1.9294091
-13.678483 7.8590732 -1.9323839
-13.647149 7.9528484 -1.9348629
-13.620304 8.0495644 -1.9380856
-13.605552 8.1539011 -1.9431674
-13.573071 8.2480526 -1.9457703
-13.554309 8.3509617 -1.9504803
-13.524693 8.4476414 -1.9537029
-13.486018 8.5389624 -1.9556861
-13.450071 8.6322708 -1.958165
-13.417645 8.7281647 -1.9612638
-13.391175 8.8283558 -1.9653541
-13.35573 8.9230356 -1.9682049
-13.318804 9.0170574 -1.9709318
-13.278771 9.1092768 -1.9732867
-13.242183 9.204175 -1.9762615
-13.206551 9.3001108 -1.9794841
-13.167815 9.3942251 -1.982335
-13.127618 9.4876337 -1.9850618
-13.083567 9.5785561 -1.9872929
-13.040488 9.6704779 -1.9897718
-12.99122 9.7580585 -1.9913831
-12.942156 9.8459997 -1.9931184
-12.89093 9.9324942 -1.9946058
-12.837565 10.017509 -1.9958452
-12.780528 10.099783 -1.9965889
-12.746981 10.200954 -2.0011749
-12.705733 10.296471 -2.0046456
-12.660726 10.389346 -2.0076203
-12.604371 10.473178 -2.0088599
-12.556575 10.564375 -2.0115867
-12.503602 10.651518 -2.0135698
-12.448529 10.737112 -2.015305
-12.392129 10.821779 -2.0169163
-12.338131 10.908787 -2.0190234
-12.281314 10.993552 -2.0207589
-12.229067 11.082697 -2.0233617
-12.17034 11.166245 -2.0249729
-12.117589 11.255569 -2.0276999
-12.066369 11.346705 -2.0307984
-12.009456 11.432846 -2.0330296
-11.947652 11.514583 -2.034517
-11.888848 11.599457 -2.0366242
-11.829453 11.684042 -2.0387311
-11.768764 11.767632 -2.0407143
-11.710284 11.853742 -2.0431933
-11.653962 11.942417 -2.0461681
-11.596992 12.030848 -2.0491428
-11.538691 12.118308 -2.0519936
-11.472274 12.197555 -2.0534811
-11.405319 12.276442 -2.0549684
-11.335145 12.352041 -2.0559599
-11.267803 12.430918 -2.0575712
-11.199921 12.509434 -2.0591826
-11.129526 12.585353 -2.0604222
-11.057969 12.660132 -2.0615375
-10.977487 12.724739 -2.0610418
-10.903064 12.796388 -2.0617855
-10.836479 12.877473 -2.0641406
-10.759797 12.946774 -2.0646362
-10.67449 13.005649 -2.0635207
-10.591989 13.067818 -2.063025
-10.504167 13.123266 -2.0615375
-10.405603 13.164894 -2.0579431
-10.294106 13.18938 -2.0517457
-10.194208 13.227929 -2.0479033
-10.106241 13.281544 -2.04654
-10.02277 13.340924 -2.0461681
-9.9383583 13.398983 -2.0456722
-9.8354397 13.431689 -2.0413342
-9.7598143 13.501436 -2.0428214
-9.6664143 13.546527 -2.0405905
-9.5545444 13.56502 -2.0343931
-9.5011482 13.666574 -2.0409622
-9.41992 13.728705 -2.0415821
-9.323822 13.768991 -2.0389791
-9.2408152 13.828417 -2.039351
-9.1568842 13.886515 -2.0395989
-9.0704231 13.940775 -2.039351
-9.0034733 14.025395 -2.043689
-8.8933573 14.042649 -2.0381114
-8.7859974 14.063291 -2.0331535
-8.6912136 14.103418 -2.0311704
-8.5962677 14.142914 -2.0291872
-8.5006542 14.180924 -2.0270801
-8.4109573 14.228545 -2.0264604
-8.3194971 14.273027 -2.0254688
-8.2332458 14.326387 -2.0258405
-8.1339369 14.356778 -2.0229897
-8.0311794 14.380425 -2.0192714
-7.9270029 14.400745 -2.0151811
-7.8342342 14.441263 -2.0140655
-7.7117996 14.426052 -2.0051413
-7.6208258 14.468709 -2.0045216
-7.530076 14.511674 -2.0040257
-7.4368286 14.549652 -2.0029104
-7.3380451 14.576396 -2.0003073
-7.2511115 14.626482 -2.0010509
-7.1573119 14.662673 -1.9999355
-7.0478706 14.666064 -1.9943578
-6.9738698 14.74312 -1.9990679
-6.8786702 14.775738 -1.9977045
-6.7866392 14.81496 -1.9973326
-6.6882706 14.840039 -1.9951016
-6.5958815 14.878077 -1.9947298
-6.5060534 14.921906 -1.9952255
-6.413981 14.960634 -1.9951016
-6.3220634 14.999708 -1.9951016
-6.2287688 15.035466 -1.9947298
-6.1363955 15.073402 -1.9947298
-6.0448966 15.113535 -1.9951016
-5.9560385 15.160501 -1.996465
-5.865046 15.202316 -1.9972087
-5.7677903 15.227809 -1.9958452
-5.6700974 15.251752 -1.9943578
-5.5774274 15.289052 -1.9947298
-5.4858503 15.329527 -1.9955974
-5.3913584 15.361962 -1.9954734
-5.292479 15.381618 -1.9937382
-5.1964145 15.409101 -1.9931184
-5.1027017 15.443521 -1.9934902
-5.0081515 15.475485 -1.9936142
-4.9145999 15.510653 -1.994234
-4.8196297 15.541464 -1.9943578
-4.7224498 15.565047 -1.9936142
-4.6203651 15.57185 -1.9907634
-4.5208621 15.586564 -1.9890281
-4.4221644 15.603509 -1.9876647
-4.3226347 15.61696 -1.9859294
-4.2233658 15.630735 -1.9843181
-4.1235847 15.641963 -1.9824588
-4.0181441 15.63045 -1.9777489
-3.9192688 15.64326 -1.9762615
-3.8133326 15.626525 -1.9710556
-3.4947712 14.712184 -1.8507023
-3.3959467 14.696611 -1.8459923
-3.2920105 14.656177 -1.8381835
-3.1664972 14.513224 -1.8173603
-3.0465622 14.386764 -1.7987682
-2.9261045 14.248691 -1.7788125
-2.8395889 14.271243 -1.7794323
-2.7497177 14.276705 -1.7779449
-2.6466291 14.210388 -1.7674093
-2.5149546 13.979274 -1.7360505
-2.4420233 14.068747 -1.7454705
-2.3281651 13.919043 -1.7246473
-2.2605257 14.043771 -1.7386534
-2.1824985 14.110332 -1.7453467
-2.1223731 14.3021 -1.7679051
-1.95266 13.738169 -1.6951478
-1.8589809 13.681063 -1.6864713
-1.7738531 13.683355 -1.6853559
-1.6916819 13.708755 -1.6872151
-1.6085733 13.727746 -1.6883307
-1.5397296 13.876418 -1.7058072
-1.4515609 13.856985 -1.7022128
-1.3693286 13.894269 -1.7058072
-1.2983643 14.057539 -1.7252671
-1.2233195 14.195741 -1.7416282
-1.1989559 14.988353 -1.8400428
-1.1079152 15.008292 -1.8416541
-1.0167419 15.028668 -1.8433894
-0.92432606 15.031652 -1.8430176
-0.83180243 15.032087 -1.8423978
-0.71069163 14.449189 -1.7688967
-0.62150872 14.441381 -1.7674093
-0.55310833 14.994279 -1.8360765
-0.45613682 14.835724 -1.8158729
-0.36614415 14.880898 -1.8212028
-0.27486628 14.88485 -1.8214506
-0.18374819 14.904116 -1.8236817
-0.091803372 14.824589 -1.8136419
-0.00083744706 14.927078 -1.8264085
0.085119776 14.01193 -1.7121286
0.18220665 14.915051 -1.8250451
0.27423227 14.941431 -1.8285156
0.36639348 14.959307 -1.8309946
0.45832744 14.961737 -1.8316144
0.5501954 14.960626 -1.8318622
0.64159805 14.948046 -1.8307467
0.73228252 14.923015 -1.8281438
0.77178299 13.977004 -1.7103933
0.85290366 13.896733 -1.7009733
0.93715215 13.876389 -1.6991141
1.0540416 14.300852 -1.7530314
1.1579835 14.496887 -1.7784407
1.199821 13.942798 -1.7098975
1.2883601 13.96778 -1.7139878
1.3708303 13.927025 -1.7098975
1.4612194 13.965722 -1.715847
1.5486343 13.972273 -1.7178302
1.6328366 13.949696 -1.7162188
1.714026 13.90396 -1.7117567
1.797904 13.882357 -1.7103933
1.8867905 13.898595 -1.7138638
1.9784565 13.931948 -1.7195655
2.0630305 13.913657 -1.7188218
2.1473026 13.893872 -1.7179542
2.2613642 14.059717 -1.7406366
2.3227136 13.896814 -1.7217965
2.4099753 13.894033 -1.7232839
2.5211799 14.023523 -1.7416282
2.5921021 13.926822 -1.7313405
2.6703768 13.873628 -1.7266304
2.7717164 13.938732 -1.7370421
2.864974 13.959372 -1.7418761
2.9419408 13.900757 -1.7366703
3.0314085 13.901834 -1.7391492
3.1312196 13.947839 -1.7474537
3.2212105 13.947701 -1.7499326
3.3441067 14.085038 -1.7701362
3.4657505 14.208855 -1.7887284
3.5813222 14.300902 -1.8033543
3.6769083 14.309412 -1.8073206
3.7565465 14.255877 -1.8033543
3.8447247 14.235434 -1.8037261
3.9248531 14.185753 -1.8003795
3.9872022 14.074527 -1.7891002
4.1072068 14.166064 -1.8042219
4.1980019 14.153914 -1.8059571
4.282177 14.119344 -1.8048416
4.3481588 14.02646 -1.7961652
4.4410348 14.021273 -1.799016
4.5367603 14.02397 -1.8029823
4.6249032 14.002464 -1.8038501
4.7205625 14.002971 -1.8076924
4.819953 14.013151 -1.8128982
4.9222736 14.030128 -1.8190956
5.005928 13.993122 -1.818228
5.0855732 13.945363 -1.8159969
5.1852207 13.95203 -1.8210788
5.2774086 13.937583 -1.8234338
5.3699718 13.923455 -1.8259127
5.4709044 13.929957 -1.8312424
5.572855 13.937587 -1.8368201
5.662385 13.913239 -1.8381835
5.7613196 13.911237 -1.8426456
5.8639107 13.916772 -1.8482233
5.9652219 13.917922 -1.8533052
6.0687499 13.9229 -1.8590068
6.1685419 13.918058 -1.8634689
6.2733951 13.923371 -1.8694184
6.3822637 13.936038 -1.8764834
6.4998984 13.965884 -1.8860275
6.6011672 13.958928 -1.8906136
6.698297 13.942309 -1.8939601
6.803741 13.941967 -1.8996617
6.9089918 13.939964 -1.9052393
7.0167036 13.941626 -1.9114368
7.1237922 13.940722 -1.9173863
7.2320471 13.940787 -1.9235836
7.341495 13.941804 -1.9300289
7.44842 13.93675 -1.9357306
7.5645485 13.947479 -1.9437871
7.6806092 13.956437 -1.9517198
7.7989988 13.967959 -1.9601482
7.9002094 13.94747 -1.9641145
8.0073948 13.936588 -1.9695683
8.1342297 13.958349 -1.979856
8.2409306 13.944053 -1.9850618
8.3763304 13.976633 -1.9972087
8.4923382 13.975003 -2.0045216
8.5878181 13.938683 -2.0068767
8.7236528 13.966517 -2.0187757
8.8484716 13.974763 -2.0279477
8.9726467 13.98033 -2.0368719
9.1004677 13.989889 -2.04654
9.222188 13.988461 -2.0547204
9.3376169 13.976165 -2.0614138
9.4510145 13.959689 -2.067611
9.5359306 13.900618 -2.067487
9.626708 13.849993 -2.0687265
9.6520844 13.706291 -2.055836
9.7089138 13.608846 -2.0500104
9.7928152 13.549821 -2.0501344
9.8687363 13.479871 -2.0486469
9.9264345 13.38559 -2.0434413
9.9922876 13.303009 -2.0400946
10.052094 13.213018 -2.0356326
10.117836 13.131442 -2.0325339
10.182345 13.048774 -2.0293112
10.247453 12.967367 -2.0263364
10.308225 12.881004 -2.0226181
10.372071 12.79901 -2.0196433
10.435301 12.716719 -2.0166686
10.501718 12.638713 -2.0144374
10.56118 12.552778 -2.0109668
10.616124 12.462059 -2.0067527
10.668408 12.368885 -2.0021665
10.730393 12.287498 -1.9995637
10.793755 12.208046 -1.9973326
10.855883 12.12754 -1.9949776
10.916098 12.045261 -1.9923747
10.971015 11.957583 -1.9889041
11.029996 11.874775 -1.9863013
11.089734 11.793139 -1.9839462
11.151624 11.714091 -1.982087
11.219847 11.641873 -1.9814672
11.277902 11.559318 -1.9791123
11.331182 11.472251 -1.9760135
11.381013 11.382161 -1.9724191
11.434402 11.296076 -1.9695683
11.484321 11.206993 -1.9662217
11.537151 11.121166 -1.9634949
11.589361 11.035113 -1.960768
11.64095 10.948839 -1.9580412
11.691918 10.862349 -1.9553143
11.7408 10.774302 -1.9523395
11.796395 10.692731 -1.9506043
11.852172 10.611545 -1.948993
11.890298 10.514958 -1.9445308
11.936656 10.426138 -1.9415561
11.955321 10.313812 -1.9341192
12.00554 10.229322 -1.9320121
12.05669 10.145883 -1.9301529
12.096585 10.053322 -1.9265584
12.154208 9.9757614 -1.9259386
12.195146 9.8847532 -1.922716
12.237749 9.7954788 -1.9198653
12.27816 9.7048235 -1.9167665
12.321049 9.6164837 -1.9141636
12.359385 9.5249548 -1.910941
12.401013 9.4363222 -1.9083381
12.440433 9.3463459 -1.9054873
12.483199 9.2591972 -1.9032562
12.51656 9.1654282 -1.8996617
12.550848 9.0727615 -1.8963151
12.584471 8.9800196 -1.8929685
12.618241 8.8877783 -1.8897458
12.649724 8.7943296 -1.8862753
12.678082 8.6991444 -1.8824329
12.718894 8.6128445 -1.8805737
12.745925 8.5175514 -1.8767314
12.782207 8.4288063 -1.8743763
12.822872 8.3431826 -1.8727651
12.858792 8.2546988 -1.8705339
12.896625 8.1676798 -1.8686748
12.930508 8.0784063 -1.8663198
12.965471 7.9900646 -1.8642126
13.001534 7.9026299 -1.8623534
13.039565 7.8165836 -1.8608661
13.079593 7.731883 -1.8597505
13.113071 7.6434884 -1.8577673
13.15026 7.5574465 -1.8564039
13.173073 7.4634104 -1.8530573
13.196959 7.3703475 -1.8499587
13.194122 7.2629189 -1.8431414
13.229715 7.1770935 -1.841902
13.257752 7.0873632 -1.8396709
13.29221 7.0012579 -1.8384315
13.319945 6.9117985 -1.8363243
13.341782 6.8195529 -1.8334736
13.362103 6.7268538 -1.8304988
13.408461 6.6473827 -1.8312424
13.450779 6.5658555 -1.8314904
13.490813 6.4831996 -1.8314904
13.52406 6.3973298 -1.8306228
13.567556 6.3163209 -1.8312424
13.606959 6.233366 -1.8313664
13.650379 6.152204 -1.8321102
13.692407 6.0703416 -1.8327298
13.717571 5.9810572 -1.8311186
13.761309 5.8999028 -1.8321102
13.801823 5.8172808 -1.8327298
13.852841 5.7389398 -1.834837
13.893309 5.6560769 -1.8355807
13.927752 5.5707226 -1.8355807
13.968137 5.4876981 -1.8364483
14.0071 5.4040303 -1.8371919
14.04742 5.3207941 -1.8381835
14.098405 5.241415 -1.8406625
14.112588 5.1483498 -1.8383075
14.148583 5.0633311 -1.8389273
14.190621 4.9803643 -1.8404146
14.237803 4.8990083 -1.8426456
14.280758 4.8159928 -1.844381
14.312866 4.7292109 -1.8447528
14.336894 4.6397724 -1.844133
14.357526 4.5493183 -1.8431414
14.383274 4.4605489 -1.8428936
14.408474 4.371635 -1.8426456
14.437881 4.2839904 -1.8430176
14.459129 4.1939387 -1.8423978
14.475998 4.102706 -1.8412822
14.488467 4.0103655 -1.8396709
14.521423 3.9237192 -1.8407865
14.548103 3.8353021 -1.8411583
14.577129 3.7474463 -1.841902
14.614287 3.6615486 -1.8437612
14.647083 3.5743949 -1.8451246
14.669704 3.484684 -1.8452486
14.698545 3.3963935 -1.8462402
14.705553 3.3030975 -1.844505
14.727483 3.2132266 -1.8447528
14.779928 3.1297867 -1.8489671
14.791078 3.0374436 -1.8479755
14.801651 2.9450817 -1.8469839
14.822367 2.8547678 -1.8473557
14.852285 2.7661266 -1.8489671
14.878745 2.6766987 -1.8502065
14.912487 2.5884073 -1.8524376
14.951577 2.5007842 -1.8554124
14.988194 2.4124634 -1.8581392
15.010559 2.321665 -1.8591307
15.011762 2.2276256 -1.8575194
15.019254 2.1346359 -1.8567758
7.0794258 0.96251774 -0.85428548
6.4760618 0.84014738 -0.77756172
6.4653378 0.79845208 -0.77557856
6.4385777 0.75507367 -0.77161223
6.4312544 0.71424091 -0.77012485
6.4197254 0.67311323 -0.76814169
6.4118848 0.63254303 -0.76665431
6.4067526 0.59236789 -0.76553881
6.406312 0.55270523 -0.76504302
6.3888111 0.51172644 -0.76244009
6.397768 0.47295365 -0.76318377
6.3886695 0.43288594 -0.7616964
6.398138 0.39410347 -0.76256406
6.3806205 0.35374284 -0.76008511
6.3787065 0.31439075 -0.75958931
6.3487911 0.2738831 -0.75562298
6.387042 0.23627305 -0.76020902
6.3834124 0.19692637 -0.75958931
6.3835087 0.15773045 -0.75946534
6.3843565 0.118559 -0.75946534
6.3859558 0.079395257 -0.75958931
6.3942609 0.040258806 -0.7605809
6.4003415 0.0010234716 -0.76132458
6.4121346 -0.038321625 -0.76281196
6.4226928 -0.077799208 -0.76417536
6.4290395 -0.11733465 -0.76504302
6.4410944 -0.15709715 -0.76665431
6.4568701 -0.19713381 -0.76876146
6.4624805 -0.23700453 -0.76962906
6.4777579 -0.27737778 -0.7717362
6.4808893 -0.3173629 -0.77235591
6.4907093 -0.3577804 -0.77384329
6.4953246 -0.39802602 -0.77471095
6.5105805 -0.43907809 -0.77694201
6.5344834 -0.48098952 -0.78028858
13.578973 -1.0845884 -1.6634171
13.526586 -1.1639698 -1.6577154
13.454964 -1.241016 -1.6496589
13.308845 -1.3099312 -1.6323062
13.243317 -1.3855743 -1.6251172
13.193143 -1.4622132 -1.6199114
10.570243 -1.236982 -1.2912017
10.571318 -1.3029099 -1.2923172
10.563124 -1.3677497 -1.2923172
10.560432 -1.4333395 -1.2930609
10.559299 -1.4992268 -1.2940525
10.559715 -1.5654454 -1.2952919
12.965212 -2.0036993 -1.6005756
12.942877 -2.0816381 -1.599336
12.877989 -2.1523407 -1.5927668
12.856719 -2.2299607 -1.5917752
12.848654 -2.30986 -1.5925189
12.84497 -2.3906527 -1.5938823
12.824213 -2.468297 -1.5931387
12.811746 -2.5475194 -1.5935105
12.821145 -2.6312718 -1.5967331
12.813496 -2.711741 -1.5978487
12.777225 -2.7860825 -1.5953697
12.75505 -2.8633423 -1.5947499
12.744975 -2.9433389 -1.5957415
12.732468 -3.022861 -1.5964853
8.2696066 -2.0165792 -1.0250856
12.787781 -3.2022698 -1.6085082
12.810177 -3.291543 -1.6139619
12.820444 -3.3781765 -1.6179283
7.5968785 -2.0512133 -0.94476742
12.66135 -3.5029581 -1.6028066
12.61766 -3.5743582 -1.5999558
12.451585 -3.6099761 -1.5812397
8.0370274 -2.38323 -1.0089724
7.9690776 -2.4163675 -1.0020313
7.9436755 -2.4619868 -1.0006679
7.9435544 -2.5154769 -1.0026511
8.4859285 -2.7447188 -1.0759043
12.546766 -4.1439705 -1.6123506
12.519222 -4.2202439 -1.6121026
12.431164 -4.2756743 -1.6039221
12.385032 -4.3449702 -1.6013192
7.7147856 -2.7593489 -0.98529834
12.319593 -4.4925461 -1.5998318
12.281565 -4.5642495 -1.5984684
12.234769 -4.632493 -1.5959895
12.187598 -4.7003341 -1.5935105
12.139132 -4.7674084 -1.5909076
12.120708 -4.8462243 -1.5923949
12.067767 -4.9111514 -1.5892962
12.013571 -4.9752321 -1.5860736
11.944412 -5.0326667 -1.5808678
11.887771 -5.094914 -1.5773972
11.835364 -5.1586394 -1.5745465
11.798046 -5.2287498 -1.5738028
11.761217 -5.2990041 -1.5731831
11.70683 -5.3611522 -1.5702083
11.642229 -5.4182262 -1.5658702
11.607867 -5.4891353 -1.5657462
11.56413 -5.5555291 -1.5643828
11.509314 -5.6163697 -1.5615319
11.460411 -5.6798325 -1.5595487
11.412936 -5.7437992 -1.5578135
11.367759 -5.8087521 -1.5564501
11.296671 -5.8601136 -1.5514922
11.24821 -5.9228444 -1.5497569
11.20378 -5.9875407 -1.5486413
11.147642 -6.045764 -1.5459145
11.094688 -6.1054382 -1.5436834
11.04922 -6.1690445 -1.542568
11.012023 -6.2372146 -1.5426918
10.967523 -6.3012047 -1.5418242
10.885787 -6.3433976 -1.5356269
10.831285 -6.4009838 -1.5333958
10.772229 -6.4555893 -1.530545
10.748527 -6.5313568 -1.5329
10.704025 -6.5945826 -1.5322802
10.657469 -6.6564569 -1.5314126
10.594628 -6.7079215 -1.52819
10.528218 -6.756722 -1.5244715
10.495711 -6.8271475 -1.5258349
10.419658 -6.8690238 -1.5207531
10.38639 -6.9388928 -1.5221165
10.338688 -6.9991536 -1.5213728
10.293093 -7.0607748 -1.521001
10.239798 -7.117002 -1.5195136
10.183767 -7.1711278 -1.5176544
10.12665 -7.2242575 -1.5156713
10.075699 -7.2816072 -1.5146797
10.026827 -7.3403621 -1.5140599
9.9728317 -7.3952451 -1.5126965
9.9161606 -7.4479542 -1.5109612
9.8536901 -7.4960403 -1.5083584
9.7980785 -7.5490918 -1.506871
9.7421865 -7.6017437 -1.5053836
9.677454 -7.6472254 -1.5025327
9.6086578 -7.6890998 -1.4990622
9.5597563 -7.7466631 -1.4988143
9.512043 -7.8051748 -1.4988143
9.4548149 -7.855782 -1.497327
9.3897305 -7.8995924 -1.4946001
9.337307 -7.9538403 -1.4939804
9.2965918 -8.0181131 -1.4953438
9.244977 -8.0730467 -1.494972
9.1818867 -8.1177893 -1.4927409
9.1215544 -8.1647091 -1.4910057
9.0529041 -8.2038641 -1.4879069
9.0023956 -8.2592573 -1.4879069
8.9420977 -8.3055592 -1.4862956
8.8844614 -8.3541527 -1.48518
8.8272858 -8.4030352 -1.4841884
8.771987 -8.4535971 -1.4835688
8.7156906 -8.5031042 -1.482825
8.6626463 -8.5557251 -1.4827011
8.6120911 -8.6108217 -1.483073
8.5563049 -8.6606789 -1.4825772
8.4898357 -8.699522 -1.4802221
8.4259682 -8.7407341 -1.4783629
6.9880252 -7.3383861 -1.2276164
8.3112736 -8.8362465 -1.4771235
8.2555485 -8.885623 -1.4768755
8.196846 -8.9317245 -1.4761319
8.1418877 -8.9818506 -1.4761319
8.0879469 -9.0331182 -1.4763798
6.7250156 -7.6040044 -1.2298474
6.6625667 -7.6271877 -1.2268727
2.1351905 -2.4736075 -0.37002116
2.1231899 -2.4904389 -0.3706409
2.111702 -2.5079753 -0.37138459
2.1051521 -2.53157 -0.37311986
7.6347089 -9.3014994 -1.4649765
2.063931 -2.5448782 -0.3711367
2.0414569 -2.5489724 -0.36977327
2.0147035 -2.5474372 -0.36754221
1.9843836 -2.5409763 -0.36456746
1.9445287 -2.5216641 -0.35960954
1.9139988 -2.5138052 -0.35651085
1.8931748 -2.5183616 -0.35539532
1.8640916 -2.5115988 -0.35254452
1.8451287 -2.5181854 -0.35180083
1.8302238 -2.5302639 -0.35192478
1.8135114 -2.5398307 -0.35167688
6.9463305 -9.8614683 -1.4685711
6.8766289 -9.8908682 -1.4665879
6.8113198 -9.9263306 -1.4655963
6.7430525 -9.9572554 -1.463985
6.6829314 -10.000093 -1.4642329
1.8411461 -2.7904298 -0.3794412
1.825613 -2.8041697 -0.37981305
1.8089086 -2.8161538 -0.37993699
1.7846938 -2.8163013 -0.37832567
6.4976268 -10.399841 -1.4936085
6.4290071 -10.431911 -1.492493
6.3633313 -10.468618 -1.4921211
6.3071389 -10.521084 -1.4941043
6.2520571 -10.575816 -1.4964594
6.1975398 -10.631983 -1.4990622
6.127737 -10.662066 -1.4979467
6.0626898 -10.700329 -1.4980706
5.9838576 -10.713935 -1.494724
5.9026952 -10.722631 -1.4907577
5.8344259 -10.754287 -1.4901379
5.7655225 -10.784633 -1.4893943
5.7029395 -10.82683 -1.4903859
5.6354861 -10.859858 -1.4901379
5.571003 -10.898649 -1.4907577
5.4977794 -10.920218 -1.4890225
5.4192133 -10.930631 -1.4857998
5.3546534 -10.969028 -1.4865435
5.2850995 -10.997205 -1.4859238
5.2209163 -11.036602 -1.4869153
5.1702662 -11.105313 -1.4919972
5.1119447 -11.158481 -1.494972
5.0376744 -11.176971 -1.4932367
4.9440689 -11.151427 -1.485552
4.8735695 -11.177006 -1.4849322
4.7947326 -11.182985 -1.4817095
