# .PCD v0.7 - Point Cloud Data file format
VERSION 0.7
FIELDS x y z
SIZE 4 4 4
TYPE F F F
COUNT 1 1 1
WIDTH 1533
HEIGHT 1
VIEWPOINT 0 0 0 1 0 0 0
POINTS 1533
DATA ascii
3.1529291 6.6725411 -1.8792942
3.2047002 6.6757541 -1.8858392
3.2337258 6.6316075 -1.8787907
3.292393 6.648067 -1.8893634
3.3318186 6.6251464 -1.8886082
3.3644857 6.5890627 -1.8840771
3.3861473 6.5322065 -1.8735044
3.4085903 6.4779034 -1.8636868
3.4459946 6.4525981 -1.8624282
3.4947441 6.4483504 -1.8674628
3.5272501 6.4140649 -1.8636868
3.5523946 6.3669462 -1.8561349
3.598068 6.3568211 -1.8596591
3.6182134 6.3018904 -1.8498416
3.6514561 6.270371 -1.8470726
3.6942906 6.2553477 -1.8493382
3.737078 6.2400351 -1.8516037
3.7863462 6.2351871 -1.8571419
3.8240259 6.2110128 -1.8568901
3.8651383 6.1923585 -1.8584005
3.8984044 6.1611648 -1.8561349
3.9319556 6.1306114 -1.8541211
3.9705532 6.1079926 -1.8546245
4.0191369 6.1004872 -1.8599108
4.0683146 6.0934196 -1.865449
4.0649557 6.0082216 -1.8465691
4.1011982 5.9823685 -1.8463174
4.1422443 5.9634504 -1.8483312
4.19101 5.9553347 -1.8538693
4.2358994 5.9413276 -1.8576453
4.2875733 5.936409 -1.864442
4.313632 5.8959293 -1.8599108
4.3624039 5.886457 -1.865449
4.3897262 5.8479686 -1.861673
4.4471965 5.8494301 -1.8709871
4.4706059 5.8059292 -1.8657007
4.500195 5.7707567 -1.8631834
4.5331202 5.7399969 -1.8621764
4.5682545 5.7120743 -1.8621764
4.6202707 5.7049961 -1.8692249
4.6380067 5.6555848 -1.8621764
4.677567 5.6329765 -1.8641903
4.6958499 5.5849094 -1.8576453
4.7300296 5.5559907 -1.8576453
4.7697182 5.5334611 -1.8599108
4.8143983 5.5164871 -1.8641903
4.8628945 5.5035238 -1.8699801
4.8997979 5.4771886 -1.8712388
4.9307146 5.4441514 -1.8702319
4.9803772 5.4316287 -1.8765252
5.0188785 5.4066424 -1.878539
5.0307512 5.3531761 -1.8704836
5.0628357 5.321506 -1.8702319
5.0974064 5.2924323 -1.8709871
5.140594 5.2721429 -1.8750148
5.137495 5.2046838 -1.8619248
5.179594 5.183332 -1.8657007
5.2257543 5.1657414 -1.8709871
5.2511206 5.1274943 -1.8687215
5.2810903 5.0938334 -1.8682179
5.3017364 5.0513191 -1.864442
5.3467255 5.0319595 -1.8694767
5.3626161 4.9852195 -1.8641903
5.4066472 4.9646587 -1.8689733
5.4198041 4.9157853 -1.8629316
5.4368906 4.8708129 -1.8584005
5.4645009 4.8354368 -1.8576453
5.5224857 4.8266563 -1.8674628
5.5607882 4.8002696 -1.8704836
5.572463 4.750988 -1.864442
5.619276 4.7316685 -1.8704836
5.6534119 4.7014322 -1.8722457
5.6821527 4.6666551 -1.8722457
5.7257123 4.6438956 -1.8772804
5.7563648 4.6104908 -1.8780355
5.7784739 4.5702806 -1.8760216
5.8170857 4.5430789 -1.8795459
5.8578801 4.5173478 -1.8838253
5.8954973 4.4889421 -1.8870978
5.9097795 4.4427962 -1.8828185
5.922164 4.3954911 -1.8780355
5.9490228 4.3590708 -1.8780355
5.9380193 4.2952576 -1.8659524
6.0028548 4.2863011 -1.8782873
6.0227137 4.2449269 -1.8762734
6.0629463 4.2178416 -1.8808045
6.0895104 4.1811085 -1.8810563
6.1078401 4.1387787 -1.8787907
6.1331201 4.1012239 -1.8787907
6.1533227 4.0603161 -1.8772804
6.1975851 4.0351577 -1.8833219
6.2205992 3.9960079 -1.8828185
6.2588973 3.9665718 -1.8870978
6.2798357 3.9260409 -1.886091
6.2972174 3.8833704 -1.8840771
6.3209267 3.8446581 -1.8840771
6.3468876 3.8072951 -1.8848323
6.3642988 3.7648301 -1.8830701
6.379756 3.7213197 -1.8808045
6.4234428 3.6941674 -1.8870978
6.4342027 3.648001 -1.8835737
6.4606891 3.6108139 -1.8848323
6.4750938 3.5669007 -1.8825667
6.484951 3.520638 -1.8790425
6.5320311 3.494478 -1.8865944
6.5653353 3.4606509 -1.8901186
6.5847282 3.4194095 -1.8896152
6.610755 3.3815868 -1.8911256
6.6417508 3.3461862 -1.8941463
6.6612906 3.30494 -1.8938947
6.6831832 3.2648544 -1.8943981
6.6987295 3.2216883 -1.8931395
6.724494 3.183424 -1.8949015
6.7403917 3.1404684 -1.8938947
6.7463388 3.0930002 -1.8901186
6.7828336 3.0595067 -1.8951533
6.8103247 3.0217562 -1.8976706
6.8127718 2.9729435 -1.8931395
6.8388891 2.9345202 -1.8954051
6.8335829 2.8827209 -1.88886
6.845778 2.8385122 -1.8873496
6.8836794 2.8048544 -1.8931395
6.907948 2.7654421 -1.8951533
6.9175811 2.7201698 -1.8931395
6.9503918 2.6839495 -1.8976706
6.9531555 2.6361051 -1.8938947
6.9583154 2.5893409 -1.8908738
6.9840722 2.5502486 -1.8936429
6.994122 2.5053887 -1.8921325
7.0066237 2.4614639 -1.8913773
7.0334907 2.4225235 -1.8946499
7.071146 2.3870611 -1.9009432
7.0911727 2.3454523 -1.9024535
7.1321301 2.3105485 -1.9097537
7.1184983 2.2579634 -1.9022018
7.1294465 2.2133815 -1.9014466
7.1364112 2.1676252 -1.8996844
7.1746254 2.1312382 -1.9064811
7.1624737 2.0798872 -1.8996844
7.1955838 2.041713 -1.9052225
7.1967845 1.9944211 -1.9022018
7.2032809 1.9487083 -1.9006914
7.2132311 1.9039789 -1.9001878
7.2407107 1.8637856 -1.9044673
7.2454395 1.8176736 -1.9027052
7.2602167 1.7741014 -1.9037122
7.2756734 1.7306402 -1.9049708
7.3068986 1.6907659 -1.9105089
7.3001399 1.6420759 -1.9059777
7.3299332 1.6015916 -1.9112641
7.3112206 1.5505607 -1.9037122
7.3215451 1.5058658 -1.9039639
7.3296976 1.4607241 -1.9037122
7.3518262 1.4182897 -1.9072363
7.3622932 1.3735081 -1.9077399
7.3610578 1.326591 -1.9052225
7.4005237 1.2868725 -1.9135296
7.409235 1.2415996 -1.9137814
7.4205356 1.1967305 -1.9147884
6.2753115 0.97250736 -1.6114519
5.8590074 0.87118512 -1.5004382
5.8297505 0.83030361 -1.4913759
5.8117208 0.79138184 -1.4853343
5.8279839 0.757204 -1.488355
5.8085084 0.71845824 -1.4820619
5.8022346 0.68156165 -1.4792928
0 0 -0
0 0 -0
0 0 -0
0 0 -0
0 0 -0
0 0 -0
0 0 -0
0 0 -0
5.8087916 0.35889274 -1.4735029
5.8021879 0.32275957 -1.4712373
5.8088918 0.28739136 -1.472496
0 0 -0
5.8090801 0.21597762 -1.4717408
5.8131976 0.18041997 -1.472496
5.8141952 0.14474747 -1.472496
5.8120713 0.10901486 -1.4717408
5.8145661 0.073375165 -1.4722443
5.7258716 0.037113052 -1.449085
5.784059 0.0020031349 -1.4641888
5.8139639 -0.033658873 -1.4719925
5.8184867 -0.069389425 -1.4732512
5.743443 -0.1037489 -1.4538679
0 -0 -0
0 -0 -0
0 -0 -0
0 -0 -0
0 -0 -0
0 -0 -0
0 -0 -0
5.8415146 -0.39283669 -1.4825653
5.8582983 -0.43008807 -1.4875998
5.8931746 -0.46901774 -1.4974174
5.9017568 -0.50616038 -1.5004382
5.9679289 -0.54873896 -1.5185629
5.883543 -0.57741237 -1.4974174
7.553813 -0.78804499 -1.9351786
7.5113196 -0.83023483 -1.925361
7.5147357 -0.87731737 -1.9276266
7.4938421 -0.92152125 -1.9235989
7.4784484 -0.96624565 -1.9210817
7.4848461 -1.0138024 -1.9243542
7.4257822 -1.0522442 -1.9105089
7.2851524 -1.077963 -1.8752664
7.0277996 -1.0840037 -1.8093128
6.8480577 -1.0993494 -1.7637494
6.7619505 -1.1281334 -1.7428557
6.6719365 -1.1552424 -1.720955
6.5761318 -1.1802644 -1.697544
6.5373659 -1.2147597 -1.6892369
6.5497479 -1.2586837 -1.6945232
6.6700544 -1.3242844 -1.728507
6.6532702 -1.363438 -1.7262414
6.6324692 -1.4016354 -1.7229689
6.6001029 -1.4371587 -1.7166756
6.5892715 -1.4772059 -1.7161721
6.5517921 -1.5110857 -1.7086202
6.5150876 -1.5447847 -1.7013199
6.5092473 -1.5856475 -1.7023269
6.4430623 -1.6114717 -1.6872231
6.4349279 -1.6514562 -1.6877265
6.4050188 -1.6857375 -1.6824402
6.372129 -1.7189579 -1.6763985
6.3390737 -1.7518386 -1.670357
6.3552113 -1.7983416 -1.6776572
6.3254647 -1.8319193 -1.6726226
6.2974024 -1.8657496 -1.6680914
6.256196 -1.8953769 -1.660036
6.2462974 -1.934301 -1.6605395
6.2324657 -1.9720074 -1.660036
6.2138019 -2.0081291 -1.6582739
6.2068777 -2.0480375 -1.6597843
6.1703472 -2.0780542 -1.6532393
6.1565652 -2.115561 -1.6529875
6.1242886 -2.1465759 -1.6477011
6.1319633 -2.1916037 -1.653491
6.0974855 -2.2215686 -1.6477011
6.0628715 -2.2511933 -1.6419114
6.0770059 -2.2989659 -1.6497151
6.0546575 -2.3330791 -1.6474494
6.0186052 -2.3617027 -1.6414078
6.0022035 -2.3978698 -1.6409044
5.9972396 -2.4386628 -1.6436734
5.9946833 -2.4805951 -1.6471977
5.9793496 -2.5173311 -1.6471977
5.9371009 -2.5425444 -1.6396458
5.9444585 -2.5889719 -1.6461908
5.9328856 -2.6273568 -1.6474494
5.9334207 -2.6712584 -1.6522323
5.882596 -2.6919115 -1.6424148
5.8861523 -2.7373409 -1.6482047
5.8447437 -2.7618301 -1.6411562
5.8320503 -2.7997348 -1.6424148
5.808672 -2.8324978 -1.6406527
5.794652 -2.8698039 -1.6416596
5.7769341 -2.9053051 -1.6416596
5.7589989 -2.940697 -1.6416596
5.7434244 -2.9773142 -1.6424148
5.7199087 -3.0097954 -1.6409044
5.7038946 -3.0462031 -1.6416596
5.6706309 -3.0733056 -1.6373801
5.6652355 -3.1155031 -1.6414078
5.6316442 -3.1421902 -1.6371285
5.6063623 -3.1733494 -1.6353663
5.5683203 -3.1970892 -1.6298282
5.5477624 -3.2307086 -1.6295764
5.5261679 -3.2637041 -1.629073
5.5135112 -3.3020253 -1.6313386
5.5080366 -3.3448346 -1.6358697
5.5055408 -3.3897302 -1.6414078
5.4780703 -3.4193485 -1.639394
5.458622 -3.4539318 -1.6398975
5.4267354 -3.4805686 -1.6366249
5.3995967 -3.5101089 -1.6348629
5.3892722 -3.5506277 -1.6383871
5.3697996 -3.5852408 -1.6391423
5.3436918 -3.6154103 -1.6378837
5.3285918 -3.6530552 -1.6401492
5.3013072 -3.6823697 -1.6386389
5.2714896 -3.7098162 -1.6363733
5.2478395 -3.7415297 -1.6361215
5.2255673 -3.7742262 -1.6363733
5.1788778 -3.7890761 -1.6288213
5.1531982 -3.8190532 -1.6280661
5.1257977 -3.8476961 -1.6268075
5.1074853 -3.8831747 -1.6285696
5.0728269 -3.9061749 -1.6250453
5.0396051 -3.9300864 -1.6220245
5.0191932 -3.9639337 -1.6232831
5.0091376 -4.0061402 -1.6280661
5.0032654 -4.0520267 -1.6343594
4.9648376 -4.0716043 -1.6298282
4.9606099 -4.1193018 -1.6368767
4.9507976 -4.1627407 -1.642163
4.9192667 -4.1880212 -1.6401492
4.9044728 -4.2276039 -1.6439252
4.8901076 -4.2677984 -1.6479529
4.8587518 -4.2932377 -1.6461908
4.8373671 -4.3274865 -1.6479529
4.8178964 -4.3635826 -1.6504703
4.7995915 -4.4009109 -1.653491
4.7923594 -4.4487128 -1.6605395
4.7889519 -4.5005674 -1.6690984
4.7142663 -4.4851751 -1.6522323
4.6971135 -4.524087 -1.6560084
4.6547136 -4.5386348 -1.6507219
4.6212668 -4.5616717 -1.6487081
2.3127224 -2.3113635 -0.81019032
2.2984967 -2.3255107 -0.81019032
2.2922983 -2.3478789 -0.81321108
4.5166607 -4.6827641 -1.6519806
4.4591351 -4.6802621 -1.6411562
4.4369669 -4.714582 -1.6436734
4.3954344 -4.728251 -1.6388905
4.4062715 -4.7986135 -1.6542462
4.3754444 -4.8241262 -1.6537427
4.3302617 -4.8335834 -1.6477011
4.2979565 -4.8571634 -1.6466942
4.2591558 -4.8732424 -1.64317
4.219687 -4.8882957 -1.639394
4.1839623 -4.9074674 -1.6371285
4.1593823 -4.9397097 -1.639394
4.1104293 -4.9428158 -1.6318421
4.0824804 -4.9709353 -1.632849
4.0531216 -4.9973946 -1.6333525
4.0260124 -5.0267024 -1.6348629
4.0065012 -5.0657325 -1.6396458
1.9986923 -2.5595405 -0.8044005
1.9805853 -2.5686908 -0.80339354
1.963028 -2.578485 -0.80263835
1.9454249 -2.5881608 -0.80188316
1.9150866 -2.5806215 -0.79558986
1.8820544 -2.5689046 -0.78803796
1.7108277 -2.3655548 -0.71906346
1.7002177 -2.3815207 -0.72082561
1.6794394 -2.3832071 -0.71805656
3.7004869 -5.3193583 -1.6451838
3.6392903 -5.300478 -1.6320938
3.6186433 -5.3403339 -1.6376319
3.5750473 -5.3463478 -1.6325973
3.5400431 -5.3649521 -1.6315904
3.5038891 -5.3817062 -1.63008
3.45877 -5.384377 -1.6242901
3.434993 -5.4202118 -1.6288213
3.3970528 -5.4338012 -1.6265557
3.3580592 -5.4454818 -1.6237867
3.3175414 -5.4544086 -1.6202624
3.2879946 -5.4813008 -1.6222763
3.2552855 -5.5030384 -1.6227797
3.2214582 -5.5229092 -1.6227797
3.1875098 -5.5425715 -1.6227797
3.1510544 -5.557816 -1.6215211
3.1140597 -5.5719771 -1.6200107
3.0718729 -5.5765696 -1.6157312
3.0366743 -5.5936122 -1.6152278
1.6042775 -2.999238 -0.8444258
1.5831364 -3.0038886 -0.84291542
1.5615526 -3.0075338 -0.84115326
2.9169986 -5.7026381 -1.6258005
2.8645332 -5.6858578 -1.6157312
2.8313124 -5.7067952 -1.6167382
2.7945433 -5.720582 -1.6157312
2.7572925 -5.7332606 -1.6144726
2.7158496 -5.7369504 -1.6106967
2.6818235 -5.7561383 -1.6114519
2.6533115 -5.7874403 -1.6157312
2.6141689 -5.7956724 -1.6134657
2.5730622 -5.7992191 -1.6099415
2.5436244 -5.8290896 -1.6139691
2.501703 -5.8303576 -1.6099415
2.4756629 -5.868782 -1.6164864
2.416621 -5.8284354 -1.6008791
2.396153 -5.8807955 -1.6114519
2.3481526 -5.8657384 -1.6031446
2.3177843 -5.8944464 -1.6071724
2.2801783 -5.9049459 -1.6061654
2.240129 -5.9088712 -1.6033964
2.2028179 -5.9197841 -1.6026412
2.1664534 -5.9331889 -1.6026412
2.136862 -5.9655032 -1.6079276
2.1034265 -5.9876332 -1.6104449
2.0593975 -5.9793811 -1.604655
2.0263851 -6.0029082 -1.6076758
1.9895136 -6.0152287 -1.6076758
1.9516726 -6.0245609 -1.6069206
1.9199377 -6.0530276 -1.6114519
1.8827609 -6.0646944 -1.6114519
1.8435439 -6.0696507 -1.6096897
1.8035102 -6.0715709 -1.6071724
1.7675714 -6.0871696 -1.6084311
1.7283385 -6.0913835 -1.6066689
1.6911883 -6.1028061 -1.6069206
1.6521938 -6.1074629 -1.6054102
1.6136998 -6.1137428 -1.6044034
1.5761561 -6.1235294 -1.6044034
1.540202 -6.1396561 -1.6061654
1.4997435 -6.1377096 -1.6031446
1.464743 -6.1580944 -1.6061654
1.4288942 -6.1754518 -1.6084311
1.3909754 -6.184103 -1.6084311
1.354864 -6.2010307 -1.6106967
1.3181956 -6.2158546 -1.6124587
1.2819811 -6.233305 -1.614976
0.77638298 -3.8967206 -0.99319911
0.75942677 -3.9375212 -1.0027649
0.73685014 -3.9506691 -1.0050305
0.71585774 -3.9732125 -1.0098134
0.6896407 -3.9670417 -1.0070443
0.66384643 -3.9626083 -1.0047787
0.63936567 -3.9656515 -1.0045271
0.61665189 -3.98002 -1.0072961
0.59435534 -3.9980879 -1.011072
0.5715872 -4.0141149 -1.0143446
0.54485595 -4.0022035 -1.0103168
0.5204134 -4.0064311 -1.0105686
0.49605834 -4.0114698 -1.011072
0.46951458 -3.9980981 -1.0067927
0.44550925 -4.005713 -1.0080513
0.42031527 -4.0025964 -1.0065409
0.39774835 -4.0253248 -1.0118272
0.37304193 -4.0276895 -1.0118272
0.34907237 -4.0385804 -1.0140928
0.32420802 -4.0396814 -1.0138412
0.29948649 -4.0425601 -1.0140928
0.2740851 -4.0356317 -1.0118272
0.24925804 -4.0362711 -1.0115756
0.22394907 -4.0280619 -1.0090582
0.19879813 -4.0206604 -1.0067927
0.17383039 -4.0150366 -1.0050305
0.14843483 -3.9957178 -0.99974418
0.12346346 -3.9820435 -0.99596816
0.098665498 -3.9682136 -0.99219221
0.07409656 -3.9571328 -0.98917145
0.049851488 -3.9604161 -0.98992664
0.02559427 -3.9674218 -0.99168873
0.001256563 -3.9829891 -0.99571645
-0.023315514 -4.0061483 -1.001758
-0.048125844 -4.0252848 -1.0067927
-0.07311964 -4.0413632 -1.011072
-0.098265849 -4.0553513 -1.014848
-0.12341074 -4.0633783 -1.0171137
-0.14925659 -4.0876908 -1.0236586
-0.175035 -4.1031356 -1.0279381
-0.200161 -4.1010175 -1.0276864
-0.2241012 -4.0774865 -1.0218965
-0.24858545 -4.0673404 -1.0196309
-0.27392673 -4.0715322 -1.0211413
-0.29939958 -4.0765314 -1.0229034
-0.3212617 -4.0350628 -1.0125824
-0.34510535 -4.0224085 -1.0098134
-0.36916006 -4.0134692 -1.0080513
-0.39330697 -4.0063128 -1.0067927
-0.41778147 -4.0028615 -1.0065409
-0.44456646 -4.0204234 -1.0118272
-0.47382611 -4.0570321 -1.0221483
-0.49823838 -4.0502062 -1.0211413
-0.52258474 -4.0432334 -1.0201344
-0.54855239 -4.0485821 -1.0224
-0.57827002 -4.0796366 -1.0314623
-0.59932625 -4.0492048 -1.0244138
-0.6220957 -4.0320606 -1.0208896
-0.64927781 -4.0434566 -1.0249174
-0.67375737 -4.0374875 -1.0244138
-0.69967365 -4.0399523 -1.026176
-0.7218855 -4.0212946 -1.0224
-0.74354136 -4.0006137 -1.0181205
-0.76478809 -3.9788685 -1.0135894
-0.78315836 -3.9437239 -1.0055339
-0.80831301 -3.9435849 -1.0067927
-0.83589602 -3.9546483 -1.011072
-0.86467439 -3.9702492 -1.0166101
-0.89261723 -3.9809232 -1.0208896
-0.91767919 -3.9782002 -1.0216448
-0.94675946 -3.9922705 -1.0269312
-0.97467279 -4.0004907 -1.0307071
-0.75246155 -3.0076606 -0.7661373
-0.76873738 -2.9945502 -0.76387167
-0.79029858 -3.0019441 -0.7671442
-0.81097138 -3.0054481 -0.76940978
-0.82372701 -2.979893 -0.76387167
-0.83830738 -2.961745 -0.76034749
-0.86427033 -2.9835043 -0.76764768
-1.1692438 -3.945991 -1.0302037
-1.1928729 -3.9368901 -1.0297002
-1.2361841 -3.9914382 -1.0465662
-1.2457651 -3.9367189 -1.0337279
-1.2341903 -3.8184905 -1.0035201
-1.0896245 -3.3016775 -0.86406088
-1.0885532 -3.2316427 -0.84669137
-1.1001859 -3.2011054 -0.84014636
-1.1134055 -3.1760275 -0.83511174
-1.3940543 -3.9000459 -1.0370004
-1.1294402 -3.0993805 -0.81774223
-1.1379949 -3.064266 -0.80993855
-1.1704708 -3.0934341 -0.82000786
-1.2645829 -3.2812619 -0.87438184
-1.5466106 -3.9410374 -1.0609149
-1.2243406 -3.0641754 -0.817994
-1.2383806 -3.0449505 -0.81472147
-1.2548208 -3.0319288 -0.81321108
-1.2718989 -3.0206044 -0.81220418
-1.6553453 -3.8650508 -1.053363
-1.6709155 -3.8361871 -1.0480766
-1.6928551 -3.8223226 -1.0470697
-1.7333583 -3.8498116 -1.0578941
-1.7533237 -3.831183 -1.0556285
-1.755988 -3.7755966 -1.0427903
-1.7650652 -3.7349992 -1.0342314
-1.7871119 -3.7223537 -1.0337279
-1.8663276 -3.8270161 -1.0672082
-1.8232082 -3.6810625 -1.0281898
-1.8335868 -3.6455963 -1.0211413
-1.8620822 -3.6463442 -1.0246656
-1.8915464 -3.648598 -1.0286933
-1.9184042 -3.6454878 -1.0312107
-1.9416481 -3.6353555 -1.0317141
-1.9620733 -3.6199698 -1.0307071
-1.9837818 -3.6070144 -1.0304554
-1.9955038 -3.5761805 -1.0249174
-2.005969 -3.5436547 -1.0188757
-2.0421298 -3.5564592 -1.0264277
-2.1150458 -3.6316791 -1.0528595
-2.1387658 -3.6211331 -1.0536147
-2.1246486 -3.5473287 -1.0352383
-2.1639547 -3.563179 -1.0440489
-2.196939 -3.5679655 -1.049587
-2.1921453 -3.5117252 -1.036497
-2.2131343 -3.4973903 -1.0362452
-2.2434337 -3.4975944 -1.0405247
-2.2754009 -3.4999921 -1.0455593
-2.2957687 -3.4843483 -1.0450559
-2.318717 -3.4726107 -1.0458111
-2.3269663 -3.4390795 -1.0397695
-2.3480244 -3.4247367 -1.0397695
-2.3684418 -3.4094703 -1.0395178
-2.4032409 -3.4146607 -1.0458111
-2.4415629 -3.4242802 -1.0536147
-2.4568617 -3.4013886 -1.0510974
-2.5011139 -3.4182746 -1.0614184
-2.5278029 -3.4106398 -1.0639358
-2.5132444 -3.3478494 -1.0485801
-2.5431104 -3.3446925 -1.0526078
-2.5801165 -3.350497 -1.0596563
-2.6030066 -3.3376553 -1.0606632
-2.6408305 -3.3436475 -1.0679634
-2.6334937 -3.2926118 -1.0563837
-2.6573014 -3.2809038 -1.0578941
-2.6994741 -3.2914784 -1.0669565
-2.6726336 -3.2182639 -1.0478249
-2.6300511 -3.1277258 -1.0226517
-2.8737752 -3.3753572 -1.1127716
-2.909596 -3.3752546 -1.1188132
-2.6808136 -3.0714934 -1.0201344
-2.8732617 -3.2515366 -1.0883536
-2.9389694 -3.2850599 -1.1062266
-2.9415307 -3.2475963 -1.0994298
-2.957478 -3.2252061 -1.0979195
-2.9805038 -3.2105453 -1.0991781
-3.0564792 -3.2521455 -1.1205753
-3.0977221 -3.2557685 -1.1286308
-2.911541 -3.022692 -1.0513492
-3.2374306 -3.3200681 -1.165887
-4.1530886 -4.2072959 -1.4974174
-4.6467175 -4.6500134 -1.6696018
-3.4026062 -3.3633373 -1.2041502
-2.912879 -2.8440561 -1.0186241
-3.4735746 -3.3502212 -1.2149746
-3.4744475 -3.3101511 -1.2079262
-3.3142817 -3.1189616 -1.1434829
-3.4559772 -3.2125697 -1.1870325
-3.4392705 -3.1579185 -1.1741941
-3.4385114 -3.1185496 -1.1671456
-3.4179378 -3.0618725 -1.1533004
-3.1518354 -2.7887788 -1.0543699
-3.7379775 -3.2668257 -1.2509723
-3.1631114 -2.7302852 -1.0465662
-3.1945331 -2.7233839 -1.0516008
-3.2726257 -2.7554741 -1.0724946
-3.2835186 -2.7303908 -1.0704807
-3.3211503 -2.727392 -1.0775292
-3.3280518 -2.6990366 -1.0742567
-3.3415287 -2.6761451 -1.0732498
-3.3335969 -2.6363785 -1.0651944
-3.3245411 -2.596215 -1.0568873
-3.3342779 -2.5710387 -1.0548733
-3.3753996 -2.5698805 -1.0631806
-5.0689321 -3.8106019 -1.6091863
-3.4766209 -2.5801811 -1.0858363
-3.3823187 -2.4781401 -1.0503422
-3.3574705 -2.4284098 -1.0375038
-3.3581309 -2.397639 -1.0329727
-3.3846447 -2.3853528 -1.0367486
-3.3952453 -2.3617764 -1.03549
-3.4615304 -2.376509 -1.0518526
-3.5409408 -2.3992028 -1.0722429
-3.5073271 -2.34515 -1.0571389
-3.4667232 -2.2873368 -1.0400212
-3.4944799 -2.2750001 -1.0443007
-3.5108161 -2.2550848 -1.0450559
-3.5474749 -2.2480075 -1.0521044
-3.5357633 -2.2102926 -1.0443007
-3.5591435 -2.1946526 -1.0473214
-3.5518718 -2.1601982 -1.0410281
-3.5783381 -2.1463301 -1.0450559
-3.6089323 -2.1346819 -1.0503422
-3.6069152 -2.1037197 -1.0458111
-3.6298227 -2.0873389 -1.0488318
-3.6484551 -2.0683689 -1.050594
-3.6661465 -2.0487769 -1.0521044
-3.6599998 -2.015969 -1.0465662
-3.6612442 -1.9874704 -1.0432937
-3.6307034 -1.9421394 -1.0307071
-3.6057389 -1.9004183 -1.0198827
-3.6362269 -1.8880715 -1.0254208
-3.6735911 -1.8789481 -1.0329727
-3.6928294 -1.8602914 -1.0352383
-3.858489 -1.9141695 -1.0800465
-3.8066838 -1.8594441 -1.0616701
-3.8241265 -1.8389883 -1.0634322
-3.847584 -1.8212874 -1.0669565
-3.8902671 -1.8123606 -1.0760188
-3.8969159 -1.7864393 -1.0747602
-3.961617 -1.7867714 -1.0901158
-4.0070052 -1.7777395 -1.0999333
-4.0258212 -1.7566036 -1.102199
-4.0694299 -1.7459905 -1.111513
-4.069366 -1.7164736 -1.1084921
-4.1155806 -1.7063013 -1.1185615
-4.2362094 -1.7259407 -1.1495245
-4.3132057 -1.7265356 -1.1681526
-4.3318238 -1.7032256 -1.1704181
-4.388236 -1.6943966 -1.1832565
-4.4075994 -1.6708704 -1.1857737
-4.3896513 -1.6333296 -1.1779701
-4.616858 -1.6857132 -1.2381339
-4.6544471 -1.6671455 -1.2456859
-4.873683 -1.7120233 -1.3033324
-4.9060564 -1.6896517 -1.309374
-4.9988565 -1.6873803 -1.3320298
-5.0927291 -1.6843367 -1.3549373
-5.2815785 -1.7109301 -1.4037733
-5.2928996 -1.6787834 -1.4040251
-5.4315734 -1.6861678 -1.4390157
-6.0039039 -1.8235701 -1.5918168
-6.0316792 -1.7916579 -1.5963479
-6.260036 -1.8177795 -1.6552531
-6.3744164 -1.8086637 -1.6831954
-6.2958612 -1.7447001 -1.6590291
-6.3933287 -1.7295454 -1.6824402
-6.5516667 -1.7293173 -1.7222137
-6.6033926 -1.6997017 -1.7332898
-6.7066283 -1.682471 -1.7582114
-6.7845144 -1.6578324 -1.776336
-7.0346456 -1.6732942 -1.8405275
-7.2361832 -1.6743989 -1.891629
-7.3851175 -1.6611952 -1.9286336
-7.3980079 -1.6164696 -1.9293888
-7.4134674 -1.5722508 -1.9308991
-7.4334021 -1.5288783 -1.9336683
-7.4464397 -1.4839958 -1.9346751
-7.4696593 -1.441028 -1.9384511
-7.4697981 -1.3935701 -1.9361855
-7.463922 -1.3451345 -1.9324095
-7.4672675 -1.2984822 -1.9311509
-7.4750943 -1.2526394 -1.9311509
-7.4893279 -1.2078285 -1.9329131
-7.4822521 -1.159628 -1.929137
-7.4700813 -1.1108479 -1.9241024
-7.4825058 -1.0658106 -1.9256128
-7.4716434 -1.0175271 -1.9210817
-7.5238128 -0.97765124 -1.9331647
-7.5335121 -0.93194306 -1.9341717
-7.5390882 -0.88570076 -1.9341717
-7.5443811 -0.83942509 -1.9341717
-7.5580521 -0.79402834 -1.9364372
-7.5685606 -0.7482096 -1.9379476
-7.5460262 -0.69925398 -1.9308991
-7.5328193 -0.65143746 -1.926368
-7.5424628 -0.60566974 -1.9278784
-7.5412116 -0.5590207 -1.9266198
-7.5773287 -0.51497102 -1.9351786
-7.5610271 -0.46727279 -1.930144
-7.5685835 -0.42113951 -1.9314026
-7.5661917 -0.37445217 -1.930144
-7.5644794 -0.32785201 -1.929137
-7.5789213 -0.28189936 -1.9324095
-7.5601945 -0.23475882 -1.9271232
-7.199038 0.52876407 -1.926142
-7.19662 0.57300329 -1.9264048
-7.1872005 0.61665434 -1.9248277
-7.1976933 0.66207051 -1.9287705
-7.1906147 0.70593899 -1.927982
-7.1813498 0.74954498 -1.9266677
-7.1794925 0.79391336 -1.9274563
-7.178319 0.83839929 -1.9285077
-7.1548452 0.88018763 -1.9235133
-7.141655 0.9230817 -1.9214104
-7.1454177 0.96818167 -1.9240391
-7.1336107 1.0111935 -1.9224619
-7.1329985 1.055794 -1.9240391
-7.1197109 1.0985105 -1.922199
-7.1280785 1.1446255 -1.9264048
-7.1247277 1.188977 -1.9274563
-7.0954328 1.2288805 -1.9214104
-7.0887089 1.2725649 -1.9216733
-7.0750756 1.3149776 -1.9200962
-7.0640316 1.3578179 -1.9193076
-7.0309629 1.3962462 -1.9124731
-7.0288792 1.4407183 -1.9143132
-7.0350099 1.4870145 -1.9185189
-7.0191545 1.5287142 -1.9166789
-7.018115 1.5736555 -1.9190447
-7.005507 1.6160371 -1.918256
-7.0086017 1.6621107 -1.9219362
-6.9776492 1.7000554 -1.9161532
-6.9642787 1.7421346 -1.9153646
-6.9506545 1.7841136 -1.9145761
-6.9405093 1.8269743 -1.9148389
-6.9198542 1.8670113 -1.9122102
-6.8943191 1.9055777 -1.9082673
-6.8964219 1.9517879 -1.9122102
-6.8870959 1.9948726 -1.9129988
-6.863626 2.0338023 -1.9098445
-6.8537874 2.0767183 -1.9106331
-6.8160329 2.111022 -1.9035357
-6.8498626 2.1676583 -1.9169418
-6.826335 2.2063816 -1.9140503
-6.786099 2.2394528 -1.9064273
-6.7731447 2.2813575 -1.9066901
-6.7553692 2.321619 -1.9056387
-6.7419076 2.3633447 -1.9059016
-6.7481742 2.4121406 -1.9119474
-6.7287145 2.451849 -1.9106331
-6.7243967 2.4971216 -1.9137874
-6.6927056 2.5321865 -1.9090558
-6.6635389 2.5679979 -1.905113
-6.6539431 2.6113048 -1.906953
-6.6530256 2.6581714 -1.9114217
-6.6240783 2.6938531 -1.9077415
-6.6020761 2.7322323 -1.9061644
-6.5789628 2.7700686 -1.9043244
-6.5733714 2.8153243 -1.9077415
-6.5550885 2.8552194 -1.9074787
-6.5489135 2.9004679 -1.9108959
-6.5380306 2.9437668 -1.9129988
-6.5251088 2.9862378 -1.9145761
-6.4961653 3.0213346 -1.9114217
-6.4897161 3.066911 -1.9151018
-6.4533815 3.0983188 -1.9098445
-6.4203749 3.1310887 -1.9056387
-6.4114161 3.1755648 -1.908793
-6.3935342 3.2157121 -1.9093188
-6.3453293 3.2403963 -1.9006443
-6.3364615 3.2850442 -1.9040614
-6.3067942 3.3189182 -1.90117
-6.2990756 3.3643737 -1.905113
-6.2630467 3.3946826 -1.9003814
-6.2235022 3.4228158 -1.8945985
-6.2394514 3.4816303 -1.9061644
-6.2196498 3.5208001 -1.9066901
-6.1912365 3.5550523 -1.9045873
-6.1659722 3.5910313 -1.9035357
-6.1504674 3.6327238 -1.9056387
-6.0800581 3.6416321 -1.8903927
-6.09553 3.7019143 -1.9024843
-6.0710578 3.738234 -1.9019586
-6.0300016 3.7641721 -1.8961756
-5.9921179 3.7918115 -1.8914441
-5.9711752 3.8300703 -1.8922327
-5.9605031 3.8750529 -1.8964385
-5.9583645 3.9258895 -1.9035357
-5.931757 3.9607675 -1.9027472
-5.9025483 3.9938447 -1.90117
-5.8659964 4.021801 -1.897227
-5.8261547 4.0472574 -1.8922327
-5.8169899 4.0940385 -1.8974899
-5.7972584 4.1335759 -1.89933
-5.7819524 4.176415 -1.9027472
-5.7476535 4.2055454 -1.8998557
-5.7333665 4.2493529 -1.9037986
-5.7195292 4.2937222 -1.9080044
-5.6830921 4.3211422 -1.9045873
-5.6526494 4.3529878 -1.9032729
-5.6395264 4.3982725 -1.9080044
-5.6086478 4.4298024 -1.9066901
-5.5700607 4.4550915 -1.9027472
-5.5381222 4.4855404 -1.90117
-5.5060196 4.5157657 -1.8995929
-5.4715285 4.5439162 -1.897227
-5.4472361 4.5805087 -1.8985413
-5.4138865 4.609467 -1.8967013
-5.4088831 4.6627622 -1.905113
-5.3620009 4.6799984 -1.8985413
-5.3028231 4.6859727 -1.8875011
-5.3084803 4.7493067 -1.9001186
-5.2406297 4.7468066 -1.885924
-5.2035842 4.7716985 -1.8830324
-5.1791563 4.8081331 -1.8848726
-5.1615067 4.8510566 -1.8893412
-5.1316442 4.8826356 -1.8893412
-5.1182632 4.9300981 -1.8956499
-5.0817003 4.9553471 -1.8932841
-5.0656161 5.0006709 -1.8988042
-5.0225549 5.0193806 -1.8940727
-5.0045466 5.0631437 -1.899067
-4.9565377 5.0764942 -1.8924955
-4.9353409 5.1172299 -1.8964385
-4.8985257 5.1418271 -1.8943356
-4.847712 5.1514072 -1.8867126
-4.8160124 5.1810555 -1.8867126
-4.789351 5.2161946 -1.8888154
-4.7566066 5.2447686 -1.8885525
-4.71275 5.2609181 -1.883821
-4.7040324 5.3164759 -1.8935469
-4.6687837 5.3423328 -1.8924955
-4.6340246 5.3686881 -1.8917069
-4.5916085 5.3860054 -1.887764
-4.5584741 5.4140778 -1.887764
-4.5319529 5.4501076 -1.8906555
-4.4806724 5.4561863 -1.8830324
-4.43678 5.4708357 -1.8785638
-4.409761 5.5062413 -1.8814553
-4.3974338 5.5604429 -1.8909184
-4.3828254 5.6124177 -1.8995929
-4.3288674 5.6139874 -1.8909184
-4.2873273 5.6312299 -1.887764
-4.2758784 5.6882839 -1.8982785
-4.2190504 5.684968 -1.8882897
-4.1863689 5.7138619 -1.8893412
-4.1240954 5.7019119 -1.8767238
-4.0957575 5.7365332 -1.8798782
-4.0571475 5.756824 -1.8783009
-4.0278072 5.7903233 -1.8811924
-3.9911106 5.8133373 -1.8806667
-3.9705155 5.8600845 -1.8880268
-3.9355562 5.885941 -1.8885525
-3.900429 5.9115891 -1.8890783
-3.856715 5.9240894 -1.8853983
-3.8312402 5.9646916 -1.8909184
-3.7852759 5.9734163 -1.8861868
-3.7659366 6.0243492 -1.8951242
-3.7451015 6.073626 -1.9035357
-3.7092676 6.0989642 -1.9043244
-3.6628444 6.1067142 -1.8995929
-3.6036987 6.0925317 -1.8880268
-3.5881159 6.1520367 -1.8998557
-3.5392408 6.1546984 -1.8938098
-3.4976041 6.1695833 -1.8917069
-3.4578004 6.1875591 -1.8906555
-3.4258187 6.2196465 -1.8940727
-3.4000156 6.2634468 -1.90117
-3.3510561 6.2646217 -1.8951242
-3.3336906 6.3251853 -1.9074787
-3.274816 6.3069854 -1.8956499
-3.2487926 6.3518734 -1.9032729
-3.2127945 6.3777204 -1.905113
-3.1676004 6.3852119 -1.9014329
-3.1406381 6.4296713 -1.9090558
-3.0869155 6.4192548 -1.9001186
-3.0330267 6.4075499 -1.8909184
-3.0070941 6.4549031 -1.8995929
-2.97346 6.4863896 -1.9035357
-2.9264667 6.4886799 -1.8988042
-2.8901179 6.5144525 -1.90117
-2.837749 6.5037627 -1.8927584
-2.8065355 6.5414476 -1.8988042
-2.7558501 6.5336514 -1.8914441
-2.7256811 6.5745039 -1.8985413
-2.6925671 6.6089764 -1.9037986
-2.645155 6.6083531 -1.8988042
-2.6109092 6.6406226 -1.9035357
-2.5732403 6.664619 -1.9059016
-2.529222 6.6721625 -1.9035357
-2.4700744 6.6387224 -1.8893412
-2.4405389 6.6845703 -1.8982785
-2.4040296 6.7121367 -1.9019586
-2.3592839 6.7167473 -1.899067
-2.3230505 6.7456937 -1.9032729
-2.2840831 6.7671347 -1.9053758
-2.2431235 6.7828541 -1.9059016
-2.1964107 6.7808852 -1.9014329
-2.1623421 6.8181477 -1.9082673
-2.1127474 6.8064065 -1.90117
-2.074307 6.8303208 -1.9043244
-2.0389469 6.8651185 -1.9106331
-1.9919454 6.8608212 -1.9059016
-1.9437577 6.8515649 -1.8998557
-1.9052854 6.8763804 -1.9035357
-1.8592803 6.8739705 -1.8995929
-1.8096861 6.8572612 -1.8917069
-1.7707007 6.8803835 -1.8951242
-1.7322034 6.9060931 -1.89933
-1.6886517 6.9119053 -1.8980156
-1.6504476 6.9399714 -1.90301
-1.6126146 6.9706488 -1.908793
-1.5660055 6.9634681 -1.9040614
-1.5234547 6.9738884 -1.9043244
-1.4784353 6.9727221 -1.9014329
-1.4371771 6.989223 -1.9035357
-1.3982208 7.0177813 -1.9090558
-1.3540388 7.0205441 -1.9074787
-1.3051034 6.9974194 -1.8988042
-1.2623144 7.0062456 -1.899067
-1.2232634 7.0366735 -1.9053758
-1.1837271 7.0659337 -1.9114217
-1.1398888 7.0702062 -1.9106331
-1.0942719 7.0627651 -1.9066901
-1.0517652 7.0750728 -1.9082673
-1.0084695 7.0823479 -1.9085301
-0.96642393 7.0989189 -1.9114217
-0.92222697 7.0999312 -1.9101074
-0.87900001 7.1083288 -1.9108959
-0.83480573 7.1087971 -1.9095817
-0.78936088 7.0974836 -1.905113
-0.74559546 7.1002746 -1.9045873
-0.70229912 7.1075959 -1.9053758
-0.65725332 7.0963998 -1.90117
-0.61684948 7.136827 -1.9111588
-0.57181466 7.1250896 -1.906953
-0.52808517 7.1284637 -1.906953
-0.48414016 7.1286821 -1.9061644
-0.4411613 7.1440377 -1.9095817
-0.39769182 7.1533537 -1.9114217
-0.35407713 7.1614413 -1.9129988
-0.31046128 7.1711903 -1.9151018
-0.26545537 7.1459637 -1.9077415
-0.22175227 7.1522794 -1.9090558
-0.17767192 7.1457891 -1.906953
-0.13405563 7.1592855 -1.9103702
-0.090028659 7.1522555 -1.9082673
-0.046220429 7.1652155 -1.9116845
-0.0022566852 7.1788721 -1.9153646
0.041740134 7.1700673 -1.9129988
0.085523583 7.1523108 -1.9082673
0.13020028 7.1950617 -1.9200962
0.17302816 7.1401124 -1.9053758
0.2168947 7.1408453 -1.9059016
0.26088285 7.1442008 -1.9072158
0.30463138 7.1405377 -1.9066901
0.34891111 7.1481709 -1.9093188
0.39154342 7.1237378 -1.9032729
0.43571863 7.1289058 -1.9053758
0.48062122 7.1434255 -1.9101074
0.52437258 7.13938 -1.9098445
0.5667879 7.1187158 -1.905113
0.61120057 7.1237559 -1.9074787
0.65410286 7.1112247 -1.905113
0.69866842 7.1166792 -1.9077415
0.74412805 7.1295309 -1.9124731
0.78785998 7.1248312 -1.9124731
0.8307777 7.1131544 -1.9106331
0.87216634 7.0897288 -1.9056387
0.91466105 7.0765891 -1.9035357
0.95884317 7.07658 -1.905113
1.0014328 7.0648317 -1.9035357
1.04547 7.0633264 -1.9048501
1.0904102 7.0672674 -1.9077415
1.1340599 7.0623488 -1.9082673
1.1764184 7.0495477 -1.9066901
1.2196515 7.0421963 -1.9066901
1.2635212 7.0383787 -1.9077415
1.3059783 7.0266991 -1.9066901
1.3488864 7.0176063 -1.9064273
1.391356 7.0063581 -1.9056387
1.4339322 6.9957991 -1.905113
1.473436 6.9708219 -1.9006443
1.5196735 6.9776754 -1.905113
1.5620365 6.9663367 -1.9045873
1.6025815 6.9472203 -1.9019586
1.6418369 6.9231749 -1.8980156
1.6858855 6.9195318 -1.8998557
1.7283113 6.9090571 -1.8998557
1.762751 6.8674841 -1.8911812
1.8068219 6.8640027 -1.8932841
1.8504136 6.858376 -1.8948613
1.8904034 6.8394537 -1.8927584
1.9283905 6.8138008 -1.8888154
1.975266 6.819447 -1.8938098
2.0170722 6.807199 -1.8938098
2.0630014 6.8085442 -1.8977528
2.1035967 6.7920713 -1.8967013
2.1396987 6.7615595 -1.8917069
2.1740215 6.7262707 -1.8853983
2.2188823 6.7237988 -1.8885525
2.2610214 6.7128 -1.8893412
2.2955794 6.6796398 -1.883821
2.3342865 6.6590557 -1.881981
2.3854985 6.6736789 -1.8903927
2.416158 6.6308155 -1.8822439
2.4578063 6.6185784 -1.8830324
2.5171573 6.6530023 -1.8974899
2.5555024 6.6311302 -1.8956499
2.6003735 6.6261024 -1.8988042
2.6313124 6.5858326 -1.8917069
2.6662185 6.5561576 -1.887764
2.6776071 6.4701419 -1.8672607
2.7060201 6.4269156 -1.8593748
2.745024 6.4093041 -1.8591119
2.7943203 6.4153371 -1.8659464
2.8391037 6.4104204 -1.8696265
2.8811576 6.3990374 -1.8714665
2.921572 6.3838701 -1.8722551
2.963944 6.3728218 -1.8743579
3.0025787 6.3536434 -1.8740951
3.026469 6.3037906 -1.8646321
3.0790524 6.3137174 -1.8733065
3.0890338 6.2367826 -1.8556948
3.1476262 6.2582192 -1.8680493
3.1644583 6.1966872 -1.8551691
3.2255199 6.2216916 -1.8688378
3.2654326 6.2051978 -1.8698894
3.2948062 6.1688762 -1.864895
3.322938 6.1307321 -1.8593748
3.3744457 6.1355872 -1.8672607
3.4162619 6.1223488 -1.8696265
3.439976 6.0769243 -1.8620034
3.4863296 6.071599 -1.8669978
3.5395467 6.0776038 -1.8756723
3.5478139 6.0067616 -1.8601635
3.5702229 5.9608779 -1.8525404
3.6142454 5.9512281 -1.8564833
3.6456332 5.9207244 -1.8538547
3.6987581 5.9252501 -1.8625292
3.7391734 5.9089651 -1.8646321
3.7774441 5.8891592 -1.8656836
3.8124561 5.8642526 -1.8651578
3.8462429 5.8375268 -1.8641063
3.8916352 5.8282585 -1.8688378
3.9229968 5.7978783 -1.866735
3.9688668 5.788816 -1.8717294
4.0032105 5.7627697 -1.8712037
4.0273857 5.7223196 -1.8659464
4.0769887 5.7179232 -1.8727808
4.0984344 5.6740308 -1.8664721
4.1445699 5.6643476 -1.8717294
4.1729264 5.6302848 -1.8688378
4.2073951 5.6045742 -1.8688378
4.2452092 5.5832601 -1.8704151
4.2740884 5.5502281 -1.8680493
4.3128114 5.529984 -1.8701522
4.3610168 5.5215864 -1.8764609
4.4062672 5.5090375 -1.8814553
4.4223728 5.4601574 -1.8738322
4.4606881 5.4388866 -1.8759352
4.5013752 5.42032 -1.8790895
4.5351701 5.3933363 -1.8793523
4.5669265 5.3639383 -1.8788266
4.6003828 5.3365459 -1.8790895
4.6254258 5.2994967 -1.8759352
4.6482711 5.2601724 -1.8719922
4.6720943 5.2222056 -1.868575
4.7195973 5.2105999 -1.8748838
4.750176 5.1801209 -1.8743579
4.7884364 5.1579466 -1.8769866
4.8074384 5.1151123 -1.8719922
4.8447199 5.0918078 -1.8743579
4.8765411 5.0626802 -1.8746209
4.9129028 5.0381885 -1.8767238
4.937623 5.00177 -1.8743579
4.9989161 5.0020847 -1.8861868
5.0006895 4.9428353 -1.8751466
5.037138 4.9181242 -1.8775123
5.0658312 4.8857851 -1.8769866
5.0971117 4.8559403 -1.8775123
5.1064315 4.8054018 -1.8698894
5.1393547 4.7772627 -1.8712037
5.1735463 4.7502055 -1.8730437
5.2211804 4.7352209 -1.8798782
5.2285743 4.6837854 -1.8719922
5.2485428 4.6439447 -1.8688378
5.2827516 4.6167312 -1.8709408
5.3153625 4.5880117 -1.8725179
5.3698502 4.5778403 -1.881981
5.4007907 4.5472908 -1.8830324
5.4352684 4.5196176 -1.8853983
5.4651351 4.4880185 -1.8861868
5.4985662 4.4592619 -1.8882897
5.5039816 4.4079523 -1.8806667
5.5097322 4.3573432 -1.8733065
5.5394068 4.325829 -1.8743579
5.6116948 4.3271003 -1.8901298
5.5997519 4.2633696 -1.8769866
5.6466317 4.2445793 -1.8840839
5.6508732 4.1937561 -1.8767238
5.7021861 4.1778173 -1.8853983
5.7175493 4.1354017 -1.881981
5.750669 4.1058464 -1.8846097
5.7899513 4.0804863 -1.8893412
5.8251777 4.0520434 -1.8927584
5.8531127 4.0184088 -1.8938098
5.8808546 3.9845831 -1.8948613
5.8602724 3.9183991 -1.880141
5.8882322 3.8850236 -1.8814553
5.9184284 3.8530312 -1.8835582
5.9484539 3.8208141 -1.8856611
5.9758615 3.7868247 -1.8869754
6.0014391 3.7516203 -1.887764
6.0062761 3.7035875 -1.881981
6.0148726 3.6581433 -1.8775123
6.0760975 3.6444869 -1.8898669
6.107481 3.6125379 -1.8927584
6.1061935 3.5613883 -1.8853983
6.1471701 3.5349133 -1.8914441
6.1679044 3.4966528 -1.8911812
6.1942973 3.4615648 -1.8927584
6.234015 3.4337299 -1.8985413
6.2558146 3.3958743 -1.8988042
6.2697268 3.3537858 -1.8967013
6.2662859 3.30266 -1.8893412
6.3172617 3.2801497 -1.8988042
6.3398466 3.2426436 -1.8995929
6.341527 3.1945696 -1.8940727
6.3454499 3.1478829 -1.8893412
6.3577094 3.1055021 -1.8872383
6.4044719 3.0798094 -1.8956499
6.4101663 3.0342646 -1.8917069
6.4496551 3.0046506 -1.8980156
6.4618301 2.9622061 -1.8961756
6.4939575 2.9288459 -1.9003814
6.5021043 2.8846421 -1.8974899
6.5267568 2.8477774 -1.8995929
6.5361271 2.8042538 -1.897227
6.5736589 2.772717 -1.9032729
6.5941133 2.7338071 -1.9043244
6.6188059 2.6965699 -1.9066901
6.6397061 2.6576989 -1.9080044
6.6496024 2.6144381 -1.9061644
6.658318 2.5708086 -1.9040614
6.6586289 2.5240943 -1.8995929
6.6821299 2.486217 -1.9019586
6.7081356 2.4491384 -1.905113
6.7066865 2.4020786 -1.9003814
6.732223 2.3647172 -1.9035357
6.75208 2.3252485 -1.905113
6.7616491 2.2822328 -1.9037986
6.7810221 2.2425179 -1.9053758
6.7946544 2.2008681 -1.9053758
6.8236661 2.1640913 -1.9098445
6.8229938 2.1178932 -1.9059016
6.8386302 2.076829 -1.9066901
6.8632689 2.0383978 -1.9101074
6.8608212 1.9919454 -1.9059016
6.8747706 1.9503371 -1.9064273
6.8921876 1.9096624 -1.9080044
6.9000497 1.8663297 -1.906953
6.9076395 1.8229725 -1.9059016
6.9383183 1.7856003 -1.9114217
6.9482079 1.7427595 -1.9111588
6.966269 1.7019238 -1.9132617
6.9747033 1.6587014 -1.9127359
6.9997902 1.6193513 -1.9169418
6.9841776 1.5706593 -1.9098445
7.0219626 1.5339484 -1.9177303
7.0284114 1.4902337 -1.9169418
7.0355325 1.4466918 -1.916416
7.0414381 1.4029301 -1.9156275
7.046124 1.358968 -1.9145761
7.033463 1.3118198 -1.908793
7.0527744 1.2706897 -1.9119474
7.0566359 1.2267303 -1.9108959
7.0716429 1.1846826 -1.9129988
7.0844946 1.1421901 -1.9145761
6.5297689 1.0117805 -1.7597498
6.5053144 0.96716064 -1.7513382
5.9150686 0.84245145 -1.5873117
5.84938 0.79652184 -1.5678599
5.8321505 0.75776088 -1.5618141
5.8070059 0.7182954 -1.5536654
5.8017216 0.68152696 -1.5510367
5.79141 0.6443181 -1.5470937
5.8029308 0.60957539 -1.5491967
5.7969604 0.57301062 -1.546568
5.7840343 0.53592038 -1.5420994
5.7766399 0.4995079 -1.5392079
5.7651701 0.46289828 -1.535265
5.7640529 0.42723066 -1.5342135
5.7723417 0.39224637 -1.5357907
0 0 -0
0 0 -0
0 0 -0
0 0 -0
0 0 -0
0 0 -0
0 0 -0
0 0 -0
0 0 -0
0 0 -0
0 0 -0
0 -0 -0
0 -0 -0
0 -0 -0
0 -0 -0
0 -0 -0
0 -0 -0
0 -0 -0
0 -0 -0
0 -0 -0
0 -0 -0
0 -0 -0
0 -0 -0
0 -0 -0
0 -0 -0
0 -0 -0
6.5684042 -0.64475256 -1.7576469
7.3118558 -0.76318759 -1.962417
7.2216873 -0.79858613 -1.9390223
7.2185678 -0.84310675 -1.939548
7.2123013 -0.88726521 -1.9392852
7.215333 -0.93261683 -1.9416509
7.192265 -0.97453707 -1.9369193
7.1651344 -1.0156672 -1.9311364
7.0995941 -1.0508442 -1.9148389
6.9642863 -1.0745041 -1.8793523
6.7479892 -1.0835283 -1.8215226
6.591805 -1.0999547 -1.7802531
6.5041265 -1.1263721 -1.7579098
6.4201732 -1.1524382 -1.7366179
6.352273 -1.1805166 -1.7197946
6.2691131 -1.2048892 -1.6987656
6.2161789 -1.2343049 -1.6861482
6.2784295 -1.2867712 -1.7056
6.2789111 -1.3270679 -1.7079659
6.2706504 -1.3655695 -1.7079659
6.2979274 -1.4120474 -1.7179546
6.2647018 -1.4450215 -1.7111201
6.2378807 -1.4792008 -1.7061257
6.2249379 -1.5165337 -1.7050743
6.2183232 -1.5554035 -1.7058629
6.190907 -1.5889685 -1.7008685
6.1586485 -1.6210271 -1.6945598
6.112258 -1.6489776 -1.6843082
6.1085348 -1.688251 -1.6861482
6.064641 -1.7162364 -1.6766851
6.056776 -1.7542217 -1.6774738
6.0394235 -1.7894325 -1.6756337
6.0190964 -1.8236567 -1.6730051
6.0059505 -1.8599837 -1.6724794
5.9944243 -1.8968005 -1.6724794
5.979919 -1.9326552 -1.6716907
5.9422951 -1.9608406 -1.6643306
5.9283228 -1.9966487 -1.6638049
5.9214344 -2.034869 -1.665382
5.906106 -2.0702059 -1.6645935
5.9041939 -2.1103051 -1.6677479
5.8775373 -2.1415358 -1.6638049
5.8480067 -2.1715107 -1.6590734
5.8345723 -2.2073526 -1.6590734
5.8434243 -2.2517889 -1.6656449
5.8205166 -2.2840748 -1.6630163
5.7804112 -2.3093603 -1.6553932
5.7598763 -2.3422394 -1.6535532
5.7240014 -2.368679 -1.6472446
5.67735 -2.3902724 -1.6377815
5.6927295 -2.437983 -1.6467187
5.6980066 -2.4817321 -1.6527647
5.7047248 -2.5264192 -1.6593362
5.711988 -2.5716779 -1.6661706
5.6987329 -2.6078825 -1.6669593
5.6738758 -2.63873 -1.6643306
5.6645565 -2.6767936 -1.6664335
5.648025 -2.7115002 -1.6664335
5.623477 -2.7422974 -1.6640677
5.6013579 -2.7741804 -1.6624906
5.5687165 -2.8006916 -1.6577591
5.5411167 -2.8295405 -1.6546047
5.5150857 -2.8590448 -1.651976
5.5017076 -2.8950782 -1.6532904
5.4957538 -2.935147 -1.6569704
5.4912114 -2.9761715 -1.6611762
5.466084 -3.0060883 -1.6590734
5.447536 -3.0395708 -1.6590734
5.4103127 -3.0624795 -1.6532904
5.4048061 -3.1033082 -1.6574962
5.3906646 -3.1393273 -1.6590734
5.3580098 -3.1644917 -1.6548675
5.3384919 -3.1973083 -1.6548675
5.3311419 -3.237519 -1.6588105
5.3037834 -3.2656152 -1.6564447
5.2746439 -3.2924755 -1.6535532
5.2494512 -3.3216817 -1.651976
5.2265344 -3.3522661 -1.6511874
5.1767492 -3.3653355 -1.6417243
5.1535859 -3.3954432 -1.6409358
5.1358638 -3.4291449 -1.6419872
5.1283097 -3.4697874 -1.6464559
5.1013532 -3.4973686 -1.6446159
5.0671206 -3.5197947 -1.6404101
5.0399055 -3.5469317 -1.6385701
5.0266876 -3.5839522 -1.6414615
5.0077305 -3.6169882 -1.642513
5.006464 -3.6630332 -1.6496103
5.0001698 -3.7057507 -1.6551304
4.9943109 -3.7491076 -1.6609133
4.9381914 -3.7545652 -1.6496103
4.9120035 -3.7824397 -1.6485589
4.8932667 -3.8160689 -1.650136
4.86446 -3.8418345 -1.648296
4.8513427 -3.8800488 -1.651976
4.8139501 -3.8988101 -1.6472446
4.7735267 -3.9148111 -1.6414615
4.7367992 -3.9335463 -1.6369928
4.6815634 -3.9364514 -1.6259526
4.6639323 -3.9707332 -1.6283184
4.6606703 -4.0175486 -1.6359414
4.6315708 -4.042263 -1.6343642
4.5821023 -4.0488791 -1.6254269
4.5744276 -4.0923605 -1.6317356
4.5377913 -4.1099863 -1.6275299
4.5587029 -4.1801457 -1.6446159
4.5075164 -4.1844029 -1.6351528
4.5253391 -4.2529564 -1.6514503
4.5103407 -4.2912865 -1.6556561
4.4978204 -4.3322697 -1.6609133
4.4904919 -4.3786502 -1.6682736
2.3490684 -2.3180771 -0.85865605
2.3307068 -2.3283541 -0.85707885
2.3177326 -2.3439839 -0.85760462
4.399878 -4.506176 -1.6753708
4.3373227 -4.4969702 -1.6617019
4.3129754 -4.5269923 -1.6630163
4.2718949 -4.5393157 -1.6577591
4.2288561 -4.5491862 -1.6517131
4.1878147 -4.560832 -1.6464559
4.2245564 -4.6579218 -1.6727422
4.151484 -4.634161 -1.6546047
4.1165791 -4.6523199 -1.651976
4.0822425 -4.6709518 -1.6496103
4.0572872 -4.700295 -1.6511874
4.025867 -4.7221642 -1.650136
3.971343 -4.7165127 -1.6393586
3.9312267 -4.7274365 -1.6346271
3.9535701 -4.8141108 -1.6567075
3.9403625 -4.8585143 -1.6638049
3.909874 -4.8818474 -1.663542
3.8792477 -4.9049892 -1.6632792
2.0056024 -2.5672472 -0.84709007
1.9904011 -2.5802691 -0.84735292
1.9721942 -2.5893624 -0.8463015
1.9539505 -2.5983293 -0.84525007
1.9362462 -2.607945 -0.84446144
1.9122262 -2.6088791 -0.84078139
1.727718 -2.3875661 -0.76244825
1.7135962 -2.3989074 -0.76271111
1.6871753 -2.392813 -0.757191
3.5260017 -5.0686812 -1.6417243
3.4981103 -5.0949941 -1.6433016
3.4575839 -5.1027818 -1.6388329
3.4315703 -5.1319222 -1.6414615
3.3750494 -5.1150265 -1.629107
3.3588624 -5.1590905 -1.63673
3.3307927 -5.185286 -1.6385701
3.3020117 -5.2105165 -1.6401472
3.2663991 -5.2249517 -1.6383072
3.2398469 -5.2539301 -1.6411986
3.2075484 -5.2737107 -1.6411986
3.1652062 -5.2767425 -1.6359414
3.1337514 -5.2977257 -1.6364671
3.1007001 -5.316021 -1.6362042
3.0617723 -5.3240719 -1.6327871
3.0352309 -5.3536711 -1.6362042
3.0056179 -5.3780904 -1.6380444
2.959532 -5.3727655 -1.6306841
2.9334121 -5.4035444 -1.6346271
2.8738143 -5.3720932 -1.6193811
1.5721376 -2.9815834 -0.87784505
1.5591471 -3.0014498 -0.88099939
1.5433365 -3.0161145 -0.88257658
1.524367 -3.0246658 -0.88231373
2.7329636 -5.508718 -1.63489
2.6961479 -5.5193143 -1.63305
2.6609774 -5.533145 -1.6322613
2.6249132 -5.5450077 -1.630947
2.591655 -5.5627584 -1.6314727
2.5538564 -5.570662 -1.629107
2.5184379 -5.5835886 -1.6283184
2.4774811 -5.5839419 -1.6238497
2.4458718 -5.6052294 -1.6256897
2.4159961 -5.6307721 -1.6288441
2.3784022 -5.6383781 -1.6267412
2.3297253 -5.6189947 -1.6167524
2.3046649 -5.6564169 -1.6235869
2.2552202 -5.6337242 -1.6128095
2.2248447 -5.6582317 -1.6159638
2.1980741 -5.6924791 -1.6220096
2.168232 -5.7193928 -1.6259526
2.1263716 -5.7145028 -1.6206954
2.0853145 -5.7111278 -1.6159638
2.0586872 -5.7474337 -1.6227983
2.016032 -5.7390189 -1.6167524
1.9876883 -5.7713518 -1.6225355
1.9553226 -5.7925816 -1.625164
1.9242851 -5.8182116 -1.629107
1.8840915 -5.8161402 -1.625164
1.8483689 -5.8275909 -1.625164
1.8108613 -5.8332939 -1.6235869
1.775315 -5.8452182 -1.6238497
1.7424361 -5.8661761 -1.6267412
1.7037205 -5.8674908 -1.6241126
1.6703179 -5.8871164 -1.6267412
1.6284994 -5.8767982 -1.6209582
1.5901434 -5.8782969 -1.6185925
1.5533068 -5.8851447 -1.6178039
1.5159655 -5.8898926 -1.6164895
1.4819084 -5.9075065 -1.6188554
1.4442598 -5.9108644 -1.6172781
1.4077411 -5.9186759 -1.6170152
1.3696598 -5.919682 -1.6149124
1.3314077 -5.9195023 -1.6125467
1.295267 -5.928503 -1.6128095
1.2550665 -5.9184051 -1.6078151
1.2163981 -5.9146538 -1.6046607
1.1766928 -5.904973 -1.5999292
0.74609929 -3.8656907 -1.0321455
0.71936113 -3.8540711 -1.0276768
0.69587034 -3.8593621 -1.0279397
0.66887474 -3.8445473 -1.0226824
0.64654654 -3.8561919 -1.0247854
0.62640184 -3.8819952 -1.0308312
0.6028657 -3.8876727 -1.0313569
0.58495212 -3.9313819 -1.0423971
0.56000346 -3.9291658 -1.04082
0.53289413 -3.9105392 -1.0347742
0.50628287 -3.8936422 -1.029254
0.4781253 -3.8622034 -1.019791
0.45430592 -3.8641059 -1.0195282
0.43101361 -3.8706565 -1.0205796
0.40977076 -3.8972178 -1.0271511
0.38585016 -3.8996587 -1.0271511
0.36413562 -3.9259713 -1.0337226
0.3363907 -3.8858359 -1.0221567
0.31377375 -3.9032149 -1.0263625
0.28917804 -3.8964069 -1.0239967
0.26454729 -3.8875191 -1.0211053
0.24009582 -3.8794389 -1.0184766
0.21687493 -3.8914361 -1.0213681
0.19294596 -3.8917298 -1.0211053
0.1689384 -3.8899486 -1.0203167
0.14463902 -3.8793418 -1.0171623
0.12047618 -3.8685839 -1.0140079
0.096379347 -3.8547823 -1.0100651
0.072510153 -3.843725 -1.0069107
0.048912145 -3.8431327 -1.0066478
0.025427284 -3.8587976 -1.0108536
0.0017512891 -3.8694942 -1.0137451
-0.022205107 -3.9051301 -1.023471
-0.045885492 -3.8817663 -1.0171623
-0.069667473 -3.8794823 -1.0166366
-0.094246738 -3.9108117 -1.0253111
-0.11721054 -3.8764064 -1.0161109
-0.14191303 -3.9006832 -1.0229453
-0.1649776 -3.8794959 -1.0174252
-0.18811791 -3.8649192 -1.0137451
-0.21124488 -3.8530951 -1.0108536
-0.23582733 -3.8671348 -1.0150595
-0.25961611 -3.8665776 -1.0153223
-0.28574434 -3.8976276 -1.0242596
-0.30957761 -3.8948393 -1.0239967
-0.33347008 -3.8928664 -1.0239967
-0.35796967 -3.8974724 -1.0258368
-0.38206622 -3.8971229 -1.0263625
-0.40717509 -3.9062204 -1.0295169
-0.43092313 -3.9017305 -1.0289911
-0.45205355 -3.8750556 -1.0224196
-0.47959664 -3.9028518 -1.0308312
-0.50415426 -3.9046199 -1.0321455
-0.52978915 -3.913882 -1.0355628
-0.55447215 -3.9153337 -1.036877
-0.57933432 -3.9175844 -1.0384542
-0.60174119 -3.9034672 -1.0355628
-0.62598735 -3.9016068 -1.0360885
-0.65849966 -3.9490812 -1.0502831
-0.67711502 -3.9126441 -1.0413457
-0.70162171 -3.9112647 -1.0421343
-0.7241959 -3.8992975 -1.0400314
-0.7475611 -3.8919382 -1.0392429
-0.77199173 -3.8901169 -1.0400314
-0.80030596 -3.9070454 -1.0460773
-0.81847322 -3.8746867 -1.0384542
-0.8387394 -3.8535659 -1.0339855
-0.85983366 -3.83705 -1.0308312
-0.88574845 -3.8420429 -1.0337226
-0.90908331 -3.835597 -1.0334598
-0.93008697 -3.8196356 -1.0305684
-0.75154626 -3.0070643 -0.80398059
-0.76878291 -2.9977238 -0.80266625
-0.78789943 -2.9957492 -0.80345488
-0.80777508 -2.9964473 -0.80503201
-0.82203066 -2.9765558 -0.80082625
-0.83554691 -2.954746 -0.79609472
-0.85392976 -2.9504902 -0.79635757
-1.1177586 -3.7740228 -1.0318826
-1.1439738 -3.7772498 -1.0347742
-1.167129 -3.7701595 -1.0347742
-1.1882017 -3.7564883 -1.0329341
-1.2112286 -3.7491269 -1.0329341
-1.1234912 -3.4063017 -0.93672633
-1.084286 -3.2210536 -0.88546807
-1.0968138 -3.1933546 -0.87942219
-1.1304374 -3.226625 -0.89098817
-1.282775 -3.5902889 -0.99823618
-1.1283085 -3.0982943 -0.85786748
-1.1446098 -3.0840774 -0.85576457
-1.1788825 -3.1176016 -0.86759341
-1.4673401 -3.8088923 -1.0715749
-1.2050625 -3.0723653 -0.85865605
-1.2213846 -3.0586419 -0.85681599
-1.2394018 -3.0493028 -0.85629028
-1.2569814 -3.0389662 -0.85550171
-1.5149435 -3.5993724 -1.023471
-1.5712004 -3.6698256 -1.0471287
-1.5971574 -3.6680763 -1.0494945
-1.6102537 -3.6370363 -1.0431857
-1.6396725 -3.6429224 -1.0479172
-1.664404 -3.6380565 -1.0494945
-1.6842533 -3.6225266 -1.0479172
-1.701088 -3.6007848 -1.0445001
-1.7214791 -3.5868003 -1.0434486
-1.7379551 -3.5648973 -1.0400314
-1.7610812 -3.5567598 -1.04082
-1.7889433 -3.5579534 -1.0445001
-1.8247871 -3.5744042 -1.0529116
-1.842687 -3.5554318 -1.0505459
-1.8635691 -3.5423508 -1.0500202
-1.8789039 -3.5189359 -1.0463401
-1.8949414 -3.4971628 -1.0431857
-1.9177593 -3.4880059 -1.0439743
-1.9386549 -3.4753306 -1.0437114
-1.9604181 -3.4642093 -1.0439743
