# .PCD v0.7 - Point Cloud Data file format
VERSION 0.7
FIELDS x y z
SIZE 4 4 4
TYPE F F F
COUNT 1 1 1
WIDTH 1567
HEIGHT 1
VIEWPOINT 0 0 0 1 0 0 0
POINTS 1567
DATA ascii
-2.7839622 -2.1210279 -1.0423247
-2.7915807 -2.0998857 -1.0402547
-2.8051798 -2.083287 -1.0405504
-2.830235 -2.0750742 -1.0452816
-2.8630326 -2.0722342 -1.0529702
-2.8624811 -2.0451856 -1.0479431
-2.8648286 -2.0204248 -1.0440989
-2.851301 -1.9847953 -1.0343405
-2.9366446 -2.0175786 -1.0618414
-2.9631996 -2.0091734 -1.0671641
-2.9603882 -1.9808583 -1.0615456
-2.9597328 -1.9542333 -1.0568143
-3.0108848 -1.9615917 -1.071304
-2.9682245 -1.9079497 -1.0511959
-2.9976225 -1.9009582 -1.0577015
-3.0254261 -1.892664 -1.0636156
-3.0442986 -1.8785803 -1.066277
-3.0622957 -1.8638396 -1.0686426
-3.0810454 -1.8494402 -1.071304
-3.0767174 -1.8212532 -1.0656855
-3.0861845 -1.8013772 -1.0650941
-3.1095979 -1.7895554 -1.0695298
-3.1321514 -1.7770425 -1.0736697
-3.1446636 -1.7587233 -1.0742611
-3.1930399 -1.7601515 -1.0875679
-3.2230849 -1.751017 -1.0943693
-3.2354527 -1.7321094 -1.0949607
-3.2637625 -1.7215859 -1.1011705
-3.3013878 -1.7156264 -1.1106331
-3.3416128 -1.7105755 -1.120983
-3.3801932 -1.7042346 -1.1307414
-3.4256651 -1.7008835 -1.1428654
-3.5132718 -1.7176011 -1.1694791
-3.5555913 -1.7113438 -1.1804203
-3.5919225 -1.7017677 -1.1892915
-3.5884449 -1.6732354 -1.1845602
-3.7010922 -1.698205 -1.2194537
-3.7993765 -1.7151701 -1.2493203
-3.8814175 -1.7236236 -1.2735683
-3.8612816 -1.6863906 -1.2632185
-4.0479784 -1.738452 -1.3226559
-4.1430511 -1.7492597 -1.3510438
-4.2066431 -1.7457801 -1.3687863
-4.2331972 -1.7264305 -1.374109
-4.2915931 -1.7196146 -1.3900772
-4.3305078 -1.7044476 -1.3995399
-4.3800888 -1.6930012 -1.412551
-4.4618425 -1.6932142 -1.4362078
-4.5231724 -1.6848155 -1.4530631
-4.5899482 -1.6776955 -1.4716927
-4.6801839 -1.6782039 -1.4980108
-4.9355063 -1.7356758 -1.5784433
-4.9397421 -1.7031792 -1.5763733
-5.0577917 -1.7092401 -1.6115626
-5.1751904 -1.7136147 -1.6464561
-5.2810168 -1.7127795 -1.6775055
-5.3651738 -1.7037684 -1.7014579
-5.4184008 -1.6841456 -1.7153561
-5.4761567 -1.6653233 -1.7307329
-5.5842433 -1.6608363 -1.7623737
-5.6310201 -1.6372113 -1.7742021
-5.7016068 -1.6198639 -1.7937188
-5.8771248 -1.6308368 -1.8469462
-5.9810681 -1.6202279 -1.8771085
-6.0934105 -1.6106014 -1.909932
-6.1115036 -1.5753292 -1.9125934
-6.1507015 -1.5452503 -1.9220561
-6.1647067 -1.5086169 -1.9235346
-6.1933618 -1.4754127 -1.9297445
-6.2013679 -1.4371675 -1.9294487
-6.2203202 -1.4013997 -1.9327016
-6.2316012 -1.363819 -1.9335887
-6.2482619 -1.3273441 -1.9362501
-6.2553535 -1.2887876 -1.9359543
-6.2434711 -1.2464526 -1.9297445
-6.2697597 -1.2117465 -1.9356587
-6.2892838 -1.1755356 -1.9395028
-6.2841578 -1.1347156 -1.9356587
-6.2853551 -1.0951512 -1.9338844
-6.2947831 -1.0570391 -1.9347715
-6.3086944 -1.0196149 -1.9371371
-6.3063364 -0.97956616 -1.9344758
-6.3008904 -0.93916208 -1.9309273
-6.3216653 -0.90264428 -1.9356587
-6.3157268 -0.86228687 -1.9321102
-6.3123732 -0.82240677 -1.9294487
-6.351429 -0.78789508 -1.9400942
-0 -0 -0
-6.3919487 -0.71339256 -1.9498526
-6.4133058 -0.67596227 -1.9551754
-0 -0 -0
-0 -0 -0
-0 -0 -0
-0 -0 -0
-0 -0 -0
-0 -0 -0
-0 -0 -0
-0 -0 -0
-0 -0 -0
-0 -0 -0
-0 -0 -0
-0 -0 -0
-0 0 -0
-0 0 -0
-0 0 -0
-0 0 -0
-0 0 -0
-0 0 -0
-0 0 -0
-0 0 -0
-0 0 -0
-0 0 -0
-0 0 -0
-0 0 -0
-0 0 -0
-0 0 -0
-0 0 -0
-6.0735917 1.0101295 -1.9426576
-6.0344529 1.0417042 -1.9319234
-6.021389 1.0775363 -1.9297765
-6.0146642 1.1144626 -1.9297765
-6.0123868 1.1522435 -1.9313099
-5.9986677 1.1878178 -1.9291631
-5.9819417 1.2226948 -1.9260962
-5.9789834 1.2603587 -1.9276297
-5.9646268 1.2956059 -1.9254829
-5.9500632 1.3307244 -1.923336
-5.9195251 1.3620815 -1.9159753
-5.9342113 1.4038599 -1.9236426
-5.9356589 1.4427198 -1.9270163
-5.9137664 1.4758841 -1.9227226
-5.8944573 1.5095431 -1.919349
-5.8878455 1.5464083 -1.9202691
-5.8966269 1.5874584 -1.9264029
-5.8886104 1.6241161 -1.9270163
-5.8776183 1.6599585 -1.9267097
-5.8737226 1.697843 -1.9288565
-5.8531547 1.7308805 -1.9254829
-5.8387799 1.7656595 -1.9242561
-5.8287454 1.8017336 -1.9245628
-5.8103199 1.8351694 -1.9221092
-5.7926097 1.8687396 -1.9199624
-5.7756104 1.9024595 -1.9181222
-5.7602201 1.9366481 -1.9168955
-5.7572312 1.975046 -1.9199624
-5.7351222 2.0068746 -1.9165888
-5.7164259 2.0397866 -1.9144419
-5.7163239 2.079381 -1.9187356
-5.7105966 2.1170647 -1.9211892
-5.694828 2.1510551 -1.9202691
-5.6726394 2.1825378 -1.9172021
-5.6786361 2.224946 -1.9239494
-5.6277494 2.2449291 -1.9110683
-5.6209235 2.2822838 -1.9135219
-5.5857034 2.3080027 -1.9061612
-5.5644174 2.3392801 -1.9037077
-5.6435924 2.4134409 -1.9365238
-5.575439 2.4248576 -1.9178156
-5.5526218 2.4555562 -1.9150553
-5.5513387 2.4958274 -1.9199624
-5.520339 2.5227189 -1.9144419
-5.4952607 2.5521317 -1.9110683
-5.4751945 2.5837703 -1.9095348
-5.4729686 2.623903 -1.9144419
-5.458477 2.6582689 -1.9150553
-5.4412103 2.6912892 -1.9147487
-5.4245944 2.7246253 -1.9147487
-5.4043827 2.7561283 -1.9135219
-5.3941312 2.7927394 -1.9159753
-5.3777361 2.8262274 -1.9162821
-5.358614 2.8582752 -1.9156687
-5.3376274 2.8892882 -1.9144419
-5.3189645 2.9215264 -1.9141352
-5.2976127 2.9522541 -1.9129084
-5.2818837 2.9861097 -1.9138285
-5.2700667 3.0222518 -1.9162821
-5.2390833 3.0473506 -1.9116817
-5.216188 3.0770211 -1.9101483
-5.1980262 3.1094577 -1.9104549
-5.1934958 3.1501818 -1.9159753
-5.1700158 3.1794953 -1.9144419
-5.1536398 3.2131729 -1.9156687
-5.1281958 3.241174 -1.9135219
-5.1042047 3.2700109 -1.9119884
-5.0800533 3.2986758 -1.9104549
-5.0549474 3.3266439 -1.9086148
-5.0344405 3.3575978 -1.9086148
-5.0137439 3.3884254 -1.9086148
-5.0054221 3.4277322 -1.9135219
-4.9874234 3.4605515 -1.9147487
-4.962203 3.4883509 -1.9132152
-4.9352794 3.5148666 -1.9110683
-4.9190221 3.5489821 -1.9132152
-4.8971534 3.5790977 -1.9132152
-4.8659215 3.6022811 -1.9095348
-4.8513408 3.6377816 -1.9126017
-4.8410544 3.6766934 -1.9175088
-4.8123689 3.7016847 -1.9150553
-4.7888141 3.7305582 -1.9147487
-4.7665811 3.7604613 -1.9150553
-4.7419305 3.788449 -1.9144419
-4.7222948 3.8204677 -1.9159753
-4.6914024 3.843338 -1.9129084
-4.66114 3.8665812 -1.9101483
-4.6424284 3.8993948 -1.9122951
-4.6205893 3.929657 -1.9132152
-4.6050439 3.965389 -1.9168955
-4.580626 3.9935703 -1.9168955
-4.5581765 4.0234914 -1.9178156
-4.5355315 4.053287 -1.9187356
-4.4978733 4.0695434 -1.9132152
-4.4791341 4.1028528 -1.9159753
-4.4510841 4.1276693 -1.9147487
-4.4152665 4.1451292 -1.9101483
-4.3842311 4.1668959 -1.9076947
-4.3489804 4.1844778 -1.903401
-4.3348117 4.2223763 -1.9086148
-4.2898493 4.2301788 -1.9000274
-4.2665067 4.2591114 -1.9012542
-4.242301 4.28724 -1.9021742
-4.2199063 4.3172746 -1.9040143
-4.1966414 4.3465104 -1.9055479
-4.1738334 4.3763118 -1.907388
-4.1579952 4.4136195 -1.9126017
-4.1321321 4.440443 -1.9132152
-4.0925727 4.4523969 -1.907388
-4.065176 4.4774246 -1.907388
-4.0344501 4.4987402 -1.9058546
-4.0111871 4.528399 -1.9080014
-3.9676611 4.5350142 -1.9003341
-3.945982 4.5664768 -1.903401
-3.9104753 4.5819139 -1.8997207
-3.8908737 4.6160121 -1.9040143
-3.8679566 4.6463838 -1.9067746
-3.8303094 4.6589994 -1.9021742
-3.8010504 4.681675 -1.9018675
-3.7764194 4.7101088 -1.9040143
-3.7403593 4.7242355 -1.9003341
-3.6995797 4.7320976 -1.8942002
-3.66873 4.7524481 -1.8932801
-3.6596901 4.8013678 -1.9040143
-3.625011 4.8168874 -1.9012542
-3.5891442 4.8306341 -1.8978806
-3.5464919 4.8349113 -1.8908266
-3.5223393 4.8642917 -1.8938936
-3.4974065 4.8927822 -1.8966538
-3.467319 4.9141502 -1.8966538
-3.4604847 4.9689226 -1.9098415
-3.4245408 4.9822173 -1.9067746
-3.3949745 5.0047116 -1.907388
-3.3620849 5.0222845 -1.9061612
-3.3191426 5.0245509 -1.8991073
-3.2929263 5.0519996 -1.9018675
-3.2598071 5.0689068 -1.9006407
-3.2347608 5.0984588 -1.9043211
-3.2059402 5.1222453 -1.9058546
-3.165453 5.1272407 -1.9003341
-3.1334383 5.1457539 -1.9000274
-3.0993562 5.1608033 -1.8984939
-3.0652075 5.1756282 -1.8969605
-3.0338726 5.1951604 -1.8972671
-2.9962413 5.2037787 -1.8935869
-2.962846 5.2195816 -1.8926668
-2.932622 5.2409859 -1.8938936
-2.9027061 5.2630491 -1.895427
-2.8680861 5.2765794 -1.8938936
-2.8419452 5.3058257 -1.8981873
-2.8097796 5.3240056 -1.8984939
-2.7704756 5.3284774 -1.8938936
-2.7372949 5.3445292 -1.8935869
-2.7018788 5.3561249 -1.8917466
-2.6638837 5.3623724 -1.8880664
-2.6384559 5.3940082 -1.8935869
-2.603245 5.405808 -1.8920534
-2.5675814 5.4165182 -1.8902133
-2.5411363 5.4468355 -1.895427
-2.502507 5.4510789 -1.89144
-2.4674461 5.4628615 -1.8902133
-2.435039 5.4805083 -1.8911333
-2.4025083 5.497963 -1.8920534
-2.3732355 5.5230961 -1.8957337
-2.3393016 5.5375538 -1.8957337
-2.3034556 5.5474076 -1.8942002
-2.2744062 5.5737758 -1.8984939
-2.2412252 5.5902767 -1.8994139
-2.2065332 5.6030378 -1.8991073
-2.1655922 5.5996032 -1.8932801
-2.1291666 5.6074462 -1.89144
-2.0950522 5.6212969 -1.8917466
-2.060848 5.6349401 -1.8920534
-2.0291252 5.6555429 -1.8948137
-1.9899646 5.6553159 -1.89052
-1.9527448 5.6602211 -1.8880664
-1.9152352 5.663981 -1.8853061
-1.8825397 5.681951 -1.887453
-1.8529258 5.709692 -1.8929734
-1.8126718 5.7046247 -1.887453
-1.7787647 5.7192755 -1.8886797
-1.7428076 5.7273502 -1.8877597
-1.7084465 5.7406731 -1.8886797
-1.6684073 5.7345963 -1.8831593
-1.6342294 5.7483878 -1.8843861
-1.6009631 5.7656446 -1.8868396
-1.5660534 5.7771964 -1.887453
-1.5320349 5.7922182 -1.8892932
-1.4950403 5.7959795 -1.887453
-1.4578254 5.7985816 -1.8853061
-1.4238021 5.8138895 -1.887453
-1.3878815 5.8215904 -1.8871464
-1.3499861 5.8207245 -1.8840793
-1.312572 5.8214698 -1.8816259
-1.2780483 5.8349929 -1.883466
-1.2493408 5.8762422 -1.8945069
-1.2105726 5.8707461 -1.8902133
-1.174714 5.8789968 -1.89052
-1.1373549 5.8795524 -1.8883731
-1.100208 5.8808069 -1.8865329
-1.0652872 5.8940034 -1.8886797
-1.0304091 5.9079304 -1.8911333
-0.99256331 5.9047551 -1.8880664
-0.95555449 5.9060364 -1.8865329
-0.91856742 5.9070854 -1.8849995
-0.88735557 5.9465013 -1.8960404
-0.84627825 5.9197974 -1.8856128
-0.80800813 5.9107327 -1.8810124
-0.77135652 5.9127479 -1.8800924
-0.73072749 5.8824201 -1.8687447
-0.69673556 5.9047532 -1.8745719
-0.65785283 5.8852687 -1.8669046
-0.62671632 5.936523 -1.8822392
-0.58905756 5.9279437 -1.8782523
-0.55461192 5.9522963 -1.8849995
-0.51832581 5.9584322 -1.8859196
-0.48221472 5.9671926 -1.8877597
-0.44594494 5.9747849 -1.8892932
-0.4092111 5.976459 -1.8889865
-0.3728866 5.9845576 -1.8908266
-0.33568043 5.9781799 -1.8880664
-0.2988033 5.9763246 -1.8868396
-0.26208612 5.9770947 -1.8865329
-0.22547777 5.9804926 -1.8871464
-0.18800208 5.9570284 -1.8791723
-0.15135089 5.9542637 -1.8779455
-0.114995 5.9645967 -1.8810124
-0.078468703 5.9709005 -1.8828527
-0.041914757 5.9836426 -1.8868396
-0.0051996708 5.9847393 -1.8871464
0.031480525 5.9770441 -1.8846928
0.06818749 5.9795938 -1.8856128
0.10485943 5.9781108 -1.8853061
0.14162931 5.9811611 -1.8865329
0.17795518 5.9678116 -1.8825459
0.21453524 5.9656563 -1.8822392
0.25073352 5.9547181 -1.8791723
0.2876808 5.9616237 -1.8819325
0.32171249 5.913177 -1.8669046
0.35972071 5.9395933 -1.8761054
0.39660344 5.943922 -1.8782523
0.43334469 5.9451737 -1.8794791
0.46906343 5.9329147 -1.876412
0.50570136 5.9327698 -1.8773322
0.5420078 5.9286075 -1.8770255
0.57994992 5.9412742 -1.8822392
0.6198402 5.9707384 -1.8929734
0.65427464 5.9469547 -1.8865329
0.69130248 5.9475555 -1.8880664
0.72674018 5.9346991 -1.8853061
0.76289779 5.9282403 -1.8846928
0.79811132 5.9149585 -1.8819325
0.83558893 5.9184318 -1.8846928
0.87147099 5.9103689 -1.8837727
0.90757513 5.9039693 -1.883466
0.94047165 5.8776135 -1.8767188
0.98042655 5.8952041 -1.8843861
1.0128523 5.8675056 -1.8773322
1.049507 5.8649278 -1.8785589
1.0880775 5.8724155 -1.8831593
1.1219376 5.8544116 -1.8794791
1.1604292 5.8604884 -1.8837727
1.1969391 5.8560553 -1.8846928
1.2350101 5.8588452 -1.8880664
1.2683073 5.839066 -1.8840793
1.3030717 5.8265295 -1.8825459
1.3396525 5.8221345 -1.8837727
1.3725004 5.8017645 -1.8797857
1.4073986 5.7904592 -1.8788656
1.4424404 5.7798676 -1.8782523
1.4785868 5.773674 -1.8791723
1.5086623 5.7442412 -1.8724251
1.5443752 5.7367144 -1.8730385
1.584864 5.7463975 -1.8794791
1.615175 5.719162 -1.8736519
1.6576421 5.734745 -1.8822392
1.6949593 5.7317677 -1.8846928
1.7284428 5.7157936 -1.8828527
1.7668569 5.715992 -1.8865329
1.80247 5.7068582 -1.8871464
1.8351134 5.6884446 -1.8846928
1.8705784 5.6788855 -1.8853061
1.9066021 5.6709094 -1.8865329
1.9407443 5.6573038 -1.8859196
1.9782512 5.6533742 -1.8886797
2.0084217 5.6285796 -1.8843861
2.0432458 5.6170449 -1.8846928
2.0753558 5.598155 -1.8825459
2.1100028 5.586206 -1.8828527
2.1442394 5.573154 -1.8828527
2.1773529 5.5572338 -1.8819325
2.2096465 5.5393496 -1.8803991
2.245743 5.5309777 -1.8822392
2.2792747 5.5162144 -1.8819325
2.3130786 5.5021253 -1.8819325
2.3467956 5.4878292 -1.8819325
2.3773859 5.4663439 -1.8794791
2.4143479 5.4594874 -1.8822392
2.4446776 5.4376264 -1.8797857
2.4831414 5.4337769 -1.8837727
2.5176389 5.4210277 -1.8846928
2.5532925 5.4106417 -1.8865329
2.5885017 5.3991642 -1.8880664
2.6232493 5.3866024 -1.8892932
2.654985 5.367846 -1.8883731
2.6968462 5.3693137 -1.8948137
2.7219546 5.3374043 -1.8892932
2.760344 5.3315892 -1.8932801
2.7828183 5.2951756 -1.8862263
2.8130159 5.2738018 -1.8846928
2.8457756 5.2572794 -1.8849995
2.878897 5.2413874 -1.8856128
2.9096127 5.2211299 -1.8846928
2.9415944 5.2031789 -1.8846928
2.9710968 5.1809034 -1.8831593
3.0018728 5.1609306 -1.8825459
3.0329993 5.1415944 -1.8822392
3.0669343 5.1269712 -1.8837727
3.0968537 5.1056151 -1.8828527
3.1311154 5.0913811 -1.8846928
3.1638079 5.0744958 -1.8856128
3.204041 5.0694685 -1.8911333
3.2248144 5.0336862 -1.8849995
3.2597878 5.0201898 -1.887453
3.2952402 5.0072484 -1.8902133
3.3222044 4.9813929 -1.8880664
3.3473759 4.9530292 -1.8849995
3.3760903 4.9300413 -1.8840793
3.410619 4.9154882 -1.8865329
3.4341452 4.8851261 -1.8828527
3.4640551 4.8639627 -1.8828527
3.4910493 4.838757 -1.8813192
3.5262914 4.8249288 -1.8843861
3.5575297 4.8054957 -1.8853061
3.5903757 4.7881451 -1.8871464
3.61796 4.763751 -1.8862263
3.6477022 4.7422166 -1.8865329
3.6790717 4.7227483 -1.8877597
3.7050321 4.6963491 -1.8862263
3.7355614 4.6757579 -1.8871464
3.7629836 4.651269 -1.8865329
3.7968822 4.6347175 -1.8892932
3.824641 4.6106009 -1.8889865
3.854696 4.5892324 -1.8899065
3.8821657 4.5647693 -1.8895998
3.9113438 4.542305 -1.8902133
3.9353876 4.513916 -1.8883731
3.9611204 4.4875436 -1.887453
3.9847746 4.4588966 -1.8856128
4.0178075 4.4407139 -1.8883731
4.0526958 4.4243984 -1.8920534
4.0855932 4.4057283 -1.8948137
4.1008205 4.3680882 -1.8892932
4.1275454 4.3428435 -1.8892932
4.1527948 4.3160644 -1.8886797
4.1825209 4.2939105 -1.8902133
4.2054467 4.2647781 -1.8886797
4.2557483 4.2631392 -1.8997207
4.2676158 4.2228899 -1.8932801
4.288681 4.1919684 -1.8911333
4.3300738 4.1807775 -1.8981873
4.3542671 4.1528163 -1.8975738
4.3734303 4.1201482 -1.8948137
4.3923564 4.0874014 -1.8920534
4.4152508 4.0584416 -1.8911333
4.4534612 4.0434275 -1.8969605
4.4817309 4.0192022 -1.8984939
4.4849296 3.9726977 -1.8892932
4.5178189 3.9526229 -1.8929734
4.5355039 3.9192281 -1.8902133
4.5696039 3.8999736 -1.8945069
4.5956316 3.8737013 -1.895427
4.6310196 3.8551714 -1.9003341
4.6398802 3.8145971 -1.8942002
4.6698503 3.7914536 -1.8969605
4.6900554 3.7603476 -1.8957337
4.7078156 3.7273643 -1.8935869
4.7335978 3.700752 -1.8948137
4.7516947 3.6681485 -1.8929734
4.7983398 3.6573827 -1.9027876
4.803957 3.6152837 -1.8960404
4.8191724 3.5806315 -1.8932801
4.8633118 3.5673158 -1.9021742
4.8827958 3.5357335 -1.9012542
4.9028502 3.5046 -1.9006407
4.9234838 3.4739022 -1.9003341
4.9353328 3.4371011 -1.8966538
4.9571137 3.4072928 -1.8969605
4.9802904 3.3784149 -1.8978806
5.0175381 3.3589089 -1.9043211
5.0396423 3.3291075 -1.9049344
5.047215 3.2898088 -1.9000274
5.0625019 3.2556896 -1.8981873
5.0743451 3.2194679 -1.8951203
5.090776 3.1862524 -1.8938936
5.1248107 3.1639535 -1.8994139
5.1359973 3.1274998 -1.896347
5.1608033 3.0993562 -1.8984939
5.1797233 3.0676317 -1.8984939
5.2033806 3.0386708 -1.9003341
5.2301769 3.0114341 -1.903401
5.245245 2.9774067 -1.9021742
5.2775373 2.9530649 -1.907388
5.2988915 2.9224651 -1.9086148
5.3192329 2.8912599 -1.9095348
5.3570118 2.8693492 -1.9168955
5.2903314 2.792016 -1.8862263
5.3352337 2.7739871 -1.896347
5.3606267 2.7455356 -1.8994139
5.3943701 2.7211621 -1.9055479
5.3990302 2.6820855 -1.9012542
5.4273567 2.6547599 -1.9055479
5.4272485 2.6135652 -1.8997207
5.4664073 2.5912182 -1.9080014
5.4830661 2.5580306 -1.908308
5.4977937 2.523942 -1.9080014
5.5227194 2.4944687 -1.911375
5.5257425 2.4551268 -1.9070814
5.5476809 2.4242227 -1.9095348
5.5624514 2.3901372 -1.9095348
5.5752587 2.3552213 -1.9089215
5.6001544 2.3253458 -1.9126017
5.6160798 2.2916589 -1.9132152
5.6300354 2.2571561 -1.9132152
5.6517501 2.2257059 -1.9159753
5.6759539 2.1951032 -1.9196557
5.6893158 2.1602349 -1.9196557
5.7113833 2.1286075 -1.9227226
5.7288065 2.0951569 -1.9242561
5.7442422 2.06093 -1.9251761
5.7460046 2.0218561 -1.9214958
5.7691002 1.9902841 -1.9251761
5.7757936 1.9530197 -1.923336
5.7840543 1.9163467 -1.9221092
5.7966089 1.881114 -1.922416
5.8053207 1.844647 -1.9214958
5.8119855 1.807579 -1.9199624
5.8120394 1.7685604 -1.9162821
5.8255186 1.7336791 -1.9172021
5.8369608 1.6981674 -1.9175088
5.848186 1.6625807 -1.9178156
5.8692832 1.6297194 -1.9214958
5.8764162 1.5929289 -1.9205757
5.8971224 1.5597603 -1.9242561
5.8973651 1.5211713 -1.9211892
5.9093571 1.4856528 -1.9221092
5.9211354 1.4500444 -1.9230293
5.9299212 1.4136858 -1.9230293
5.9384837 1.3772738 -1.9230293
5.930109 1.337045 -1.9175088
5.9530783 1.3038888 -1.922416
5.9609666 1.2673368 -1.922416
5.9723597 1.2315054 -1.9236426
5.9732699 1.1935322 -1.9214958
5.9888916 1.1584839 -1.9242561
5.9986939 1.1222395 -1.9251761
5.9886069 1.0823671 -1.9196557
6.0063877 1.0475615 -1.923336
6.0183344 1.0116329 -1.9251761
6.0291262 0.97544527 -1.9267097
6.024652 0.93682617 -1.923336
6.0519395 0.90306872 -1.9303899
6.0441751 0.86403453 -1.9260962
6.0625658 0.82873416 -1.9303899
6.0694246 0.79176521 -1.9310033
6.0788913 0.75509477 -1.9325367
6.0739574 0.71666765 -1.9294698
6.0744567 0.67896289 -1.928243
6.0699892 0.64078021 -1.9254829
6.0870667 0.60483849 -1.9297765
6.1134086 0.56959248 -1.9371371
6.107306 0.53124756 -1.9340702
6.1057072 0.49338138 -1.9325367
6.1114674 0.45612016 -1.9334568
6.1056046 0.4180288 -1.9306966
6.1004548 0.38008559 -1.928243
6.1007714 0.34254038 -1.9276297
6.1122646 0.30557376 -1.9306966
6.1054664 0.26769024 -1.9279364
6.1212611 0.23075792 -1.9325367
6.1168537 0.19301519 -1.9306966
6.1264863 0.15569527 -1.9334568
6.1178102 0.11791929 -1.9303899
6.1279359 0.08050213 -1.9334568
6.1292663 0.042906795 -1.9337635
6.1360765 0.0053020227 -1.9359103
6.1369457 -0.032353532 -1.9362171
6.1394868 -0.070041619 -1.9371371
6.1360865 -0.10766086 -1.9362171
6.1353102 -0.14530915 -1.9362171
6.1495252 -0.18340883 -1.9411242
6.1520886 -0.2212757 -1.9423509
6.1534681 -0.25914073 -1.943271
6.1298962 -0.29583344 -1.9362171
6.1498246 -0.33463374 -1.943271
6.150506 -0.37253523 -1.9441911
6.1481042 -0.410267 -1.9441911
6.1521163 -0.44846898 -1.9463379
6.1596856 -0.48703641 -1.9497116
6.155633 -0.52474135 -1.9494048
6.1608281 -0.56328326 -1.952165
6.1667285 -0.60200131 -1.955232
6.1685991 -0.64041913 -1.9570721
6.150362 -0.67669278 -1.9524717
6.1621666 -0.71628922 -1.9576855
6.1595449 -0.75431782 -1.9582989
6.1604643 -0.7928279 -1.960139
6.1498241 -0.82984811 -1.9582989
6.1408472 -0.86703414 -1.9570721
6.1278787 -0.9035852 -1.9546186
6.1241002 -0.94145775 -1.955232
6.1106896 -0.97781223 -1.9527785
6.0989418 -1.0143503 -1.9509383
6.0710311 -1.0480256 -1.9438844
6.0438747 -1.0815645 -1.9371371
5.9781661 -1.1076927 -1.9178156
0 -0 -0
5.734446 -1.1354465 -1.8423692
5.5968223 -1.1439016 -1.7994324
5.5133314 -1.1621084 -1.7742835
0 -0 -0
5.4094882 -1.2097182 -1.7448411
5.3611526 -1.2334886 -1.7313467
5.3201399 -1.2584661 -1.7203058
5.2808733 -1.283437 -1.7098782
5.2728987 -1.3158157 -1.7098782
5.29884 -1.3568882 -1.7212259
5.3069844 -1.393731 -1.7267463
5.2974138 -1.4260201 -1.7264396
5.2784715 -1.4557121 -1.723066
5.2602806 -1.4854841 -1.7199991
5.2547245 -1.5187905 -1.7212259
5.2334414 -1.5474932 -1.7172388
5.189229 -1.5691 -1.7055845
5.1776853 -1.6003485 -1.7049712
5.1704907 -1.6329486 -1.7058913
5.1395407 -1.6579181 -1.6988373
5.1102881 -1.6831656 -1.6923968
5.0944514 -1.712669 -1.6905566
5.082046 -1.7432777 -1.6899432
5.0694571 -1.7737986 -1.6893299
5.0737166 -1.8103117 -1.6945436
5.0276313 -1.8287132 -1.6825826
5.0082846 -1.8565485 -1.6798223
5.0092635 -1.8919547 -1.6841161
5.0108843 -1.9277847 -1.6887164
4.9963026 -1.9574524 -1.6877964
4.9629822 -1.9796045 -1.6804358
4.9648509 -2.0157514 -1.6853428
4.9400749 -2.0410862 -1.6810491
4.915175 -2.0661929 -1.6767554
4.8805275 -2.0869527 -1.6690881
4.8894496 -2.126354 -1.6767554
4.8580317 -2.1482275 -1.6703149
4.8282661 -2.1705768 -1.6644877
4.833035 -2.208473 -1.6709284
4.8150773 -2.2360809 -1.6693949
4.8012662 -2.2655835 -1.6693949
4.779551 -2.291296 -1.6666346
4.7671132 -2.3214135 -1.667248
4.7510734 -2.349776 -1.6666346
4.7467713 -2.3840122 -1.6703149
4.7295103 -2.4117951 -1.6693949
4.6968746 -2.4315763 -1.6629543
4.6911335 -2.4652226 -1.666328
4.6692009 -2.4903755 -1.6638744
4.661365 -2.5230575 -1.6666346
4.6466303 -2.5520701 -1.6669413
4.6084375 -2.5680189 -1.6586607
4.5901084 -2.5948417 -1.6577406
4.5757513 -2.6239045 -1.6583539
4.5645013 -2.6548038 -1.660194
4.5661592 -2.6934035 -1.6669413
4.5585308 -2.7267468 -1.6703149
4.5685668 -2.7709608 -1.6804358
4.5636382 -2.8064222 -1.6850362
4.552793 -2.8384011 -1.6874897
4.5264421 -2.8606877 -1.6841161
4.4935784 -2.8786492 -1.6782889
4.4734364 -2.9046116 -1.6773689
4.4459901 -2.9257247 -1.6736885
4.4287462 -2.9534779 -1.6739953
4.4105406 -2.9805965 -1.6739953
4.3874574 -3.0043755 -1.672155
4.3611217 -3.0258124 -1.6690881
4.3237882 -3.0393739 -1.6617275
4.3042822 -3.0652947 -1.6614208
4.267642 -3.0788355 -1.654367
4.2640371 -3.1161988 -1.6605008
4.2501903 -3.1462691 -1.6626476
4.2330894 -3.1740019 -1.6635677
4.2142925 -3.2004919 -1.6638744
4.1832604 -3.2175832 -1.659274
4.1679435 -3.246701 -1.6611142
4.1598978 -3.2816486 -1.6660212
4.1389403 -3.3065174 -1.6657145
4.1237526 -3.3360426 -1.6678613
4.1032057 -3.3612828 -1.6678613
4.0839686 -3.3876119 -1.6684748
4.0682068 -3.416893 -1.6706216
4.0449901 -3.4399405 -1.6697016
4.0209222 -3.4622104 -1.6684748
3.9831045 -3.4724278 -1.6614208
3.9610095 -3.4961724 -1.6611142
3.957932 -3.5369048 -1.6690881
3.9347441 -3.5598462 -1.6684748
3.9261603 -3.5961399 -1.674302
3.8447094 -3.5651395 -1.6482331
2.3900654 -2.2431102 -1.0149137
2.3748775 -2.2564213 -1.0143003
2.3603017 -2.2702909 -1.0139936
3.7887795 -3.6903043 -1.6629543
3.7586112 -3.7061296 -1.6595807
3.7270448 -3.7203786 -1.6555938
3.6934373 -3.7323503 -1.6506866
3.6684709 -3.7529001 -1.6497666
3.6427305 -3.7725995 -1.6485398
3.6300223 -3.8059022 -1.6534469
3.6131268 -3.8350332 -1.6565138
3.5953617 -3.8634028 -1.659274
3.5715888 -3.8853908 -1.659274
3.5553572 -3.9156902 -1.6629543
3.5147455 -3.9190049 -1.6549803
3.4849539 -3.9340837 -1.6522201
3.4500971 -3.943213 -1.6470063
3.4177487 -3.9549444 -1.6430193
3.3847687 -3.9657035 -1.6387256
3.3665049 -3.9936762 -1.6417925
3.3705513 -4.0486441 -1.6562071
3.3396027 -4.0618954 -1.6531402
3.3296113 -4.1007867 -1.6608075
3.2924817 -4.1062851 -1.6546736
3.2778563 -4.1398444 -1.660194
2.010468 -2.5707164 -1.0103133
1.991749 -2.5792363 -1.0087799
1.9689636 -2.5823238 -1.0050995
1.9456433 -2.5844684 -1.0011126
1.9314512 -2.5986505 -1.0020326
1.9171582 -2.6127553 -1.0029527
1.7509646 -2.4170644 -0.92045248
1.6746792 -2.3418007 -0.88640964
1.6646674 -2.3582547 -0.88886321
0 -0 -0
3.0014265 -4.366395 -1.6660212
2.9670999 -4.3737006 -1.6617275
2.9402075 -4.3918238 -1.6617275
2.9231694 -4.4248734 -1.6675547
2.898042 -4.4459162 -1.6687815
2.8743107 -4.4692192 -1.6709284
2.8509121 -4.4932017 -1.6733818
2.8248031 -4.5130305 -1.674302
2.7890606 -4.5173187 -1.6693949
2.7607956 -4.5335336 -1.6690881
2.7304769 -4.546308 -1.6675547
2.6967115 -4.5531478 -1.6638744
2.6668038 -4.5663209 -1.6626476
2.637311 -4.5801229 -1.6617275
2.6063399 -4.5912523 -1.6598874
2.5725441 -4.5971894 -1.6562071
2.5433688 -4.6112208 -1.6555938
2.5141182 -4.6250668 -1.6549803
2.4794025 -4.6286588 -1.6506866
2.4678304 -4.6757755 -1.6623409
2.4570897 -4.7254567 -1.6749153
2.417639 -4.7201104 -1.6675547
2.3796325 -4.7170081 -1.6611142
2.361227 -4.7528334 -1.6687815
2.3211503 -4.7449999 -1.6608075
1.4903293 -3.0936301 -1.0652112
1.4713191 -3.1027162 -1.0652112
1.4522535 -3.1116858 -1.0652112
2.1984458 -4.7884235 -1.6565138
2.1604075 -4.7827377 -1.6497666
2.1283164 -4.7898145 -1.6476197
2.0992675 -4.8036556 -1.6479264
2.0723825 -4.8225679 -1.6500733
2.0534892 -4.8606219 -1.6589673
2.0236263 -4.8731303 -1.6589673
2.0001571 -4.901319 -1.6644877
1.9629651 -4.8958292 -1.6583539
1.9391626 -4.9237237 -1.6638744
1.9013654 -4.915998 -1.6571271
1.8762311 -4.9409204 -1.6617275
1.8442177 -4.9478798 -1.660194
1.8115361 -4.9528451 -1.6580472
1.7756504 -4.9486361 -1.6528335
1.7462 -4.9621315 -1.6537535
1.7203736 -4.9862504 -1.6583539
1.686699 -4.9876952 -1.655287
1.6581577 -5.0042758 -1.6574339
1.6285952 -5.0179772 -1.6586607
1.5971987 -5.0260615 -1.6580472
1.5674593 -5.0394025 -1.659274
1.5356779 -5.0461936 -1.6583539
1.5055001 -5.0582581 -1.659274
1.4723091 -5.0600891 -1.6568204
1.4394126 -5.0626187 -1.6546736
1.4083219 -5.0713553 -1.6546736
1.3769293 -5.0789824 -1.654367
1.3476849 -5.094697 -1.6568204
1.3142611 -5.0945754 -1.6540602
1.2836723 -5.1053128 -1.6549803
1.2536799 -5.1186404 -1.6568204
1.2237927 -5.1327181 -1.6589673
0.75158989 -3.2383618 -1.0299416
0.72919548 -3.23177 -1.0262613
1.1337886 -5.1757598 -1.6660212
0.69758993 -3.2786477 -1.0388356
0.67861164 -3.2884595 -1.0406759
0.65413594 -3.2710936 -1.0336219
0.63314962 -3.2703731 -1.0320884
0.61464471 -3.2826169 -1.0348487
0.59449142 -3.2863264 -1.0348487
0.57529581 -3.2955384 -1.0366888
0.55868876 -3.3205957 -1.0437428
0.54513615 -3.3662443 -1.0575439
0.52578562 -3.3779905 -1.0603042
0.50238317 -3.3632662 -1.054477
0.4818716 -3.3672278 -1.0547837
0.4662222 -3.4069006 -1.0667447
0.42994109 -3.2917178 -1.0284082
0.40715808 -3.2735133 -1.0216609
0.38762128 -3.2806764 -1.0231944
0.36357877 -3.2479932 -1.0118468
0.35172188 -3.3268349 -1.0366888
0.33271119 -3.343138 -1.0412892
0.31448296 -3.3697572 -1.0492632
0.29314217 -3.3640375 -1.0468097
0.26813573 -3.3116951 -1.0293282
0.25339273 -3.3882635 -1.0535569
0.23363535 -3.404948 -1.0584639
0.21197148 -3.3939679 -1.054477
0.19039799 -3.3819001 -1.0501833
0.16888593 -3.3677945 -1.0452762
0.14751264 -3.352602 -1.0400624
0.12651056 -3.3420303 -1.0363821
0.10671803 -3.3655758 -1.0437428
0.08599323 -3.3633127 -1.0428227
0.065009609 -3.345696 -1.0369955
0.044430286 -3.3422251 -1.0357687
0.023993265 -3.3529043 -1.0391424
0.0034262149 -3.3625066 -1.0422093
-0.01716423 -3.3548501 -1.0397557
-0.037693698 -3.3499229 -1.0382223
-0.057910208 -3.3305953 -1.0320884
-0.078549698 -3.3387411 -1.0348487
-0.099177115 -3.3429532 -1.0363821
-0.11886186 -3.3194532 -1.0290215
-0.13886537 -3.3101027 -1.0262613
-0.15995619 -3.3253503 -1.0314751
-0.17921551 -3.3033974 -1.0247278
-0.19988546 -3.3088861 -1.0268747
-0.22005753 -3.3056979 -1.0262613
-0.23971237 -3.2957418 -1.023501
-0.26150939 -3.3141346 -1.0299416
-0.28378412 -3.335228 -1.0373023
-0.30320129 -3.3220499 -1.0336219
-0.32496908 -3.3343363 -1.0382223
-0.34542206 -3.3322797 -1.0382223
-0.36335954 -3.3073914 -1.0308617
-0.37924352 -3.2672827 -1.018594
-0.39800948 -3.2545023 -1.0152204
-0.41529456 -3.2312307 -1.0084732
-0.4344759 -3.2239056 -1.0069396
-0.45891273 -3.2541642 -1.017674
-0.47775906 -3.2437544 -1.0152204
-0.50373489 -3.2802725 -1.0281014
-0.52204597 -3.265842 -1.0244211
-0.55411243 -3.3348713 -1.0480365
-0.57894081 -3.3567319 -1.0563171
-0.60573649 -3.3877816 -1.0676647
-0.62616497 -3.3821294 -1.0670514
-0.64851946 -3.3866365 -1.0698116
-0.66558611 -3.3639207 -1.0636778
-0.67934602 -3.3262036 -1.0526369
-0.70779902 -3.3601561 -1.0652112
-0.73426735 -3.3827221 -1.0741053
-0.79160243 -3.541626 -1.1280831
-0.7795682 -3.3901525 -1.0796257
-0.80561823 -3.4075341 -1.0869863
-0.82178682 -3.383105 -1.0805458
-0.85913622 -3.4444869 -1.1026276
-0.88096392 -3.4419165 -1.1035477
-0.82584888 -3.1464758 -1.0069396
-0.81691283 -3.0365789 -0.97197676
-0.83046478 -3.0131593 -0.9658429
-0.84790206 -3.004343 -0.96461618
-0.86764282 -3.0036557 -0.96614963
-0.97221351 -3.2894218 -1.0639844
-1.0260116 -3.3945379 -1.1014009
-1.0743847 -3.4772902 -1.1314567
-1.095127 -3.4688172 -1.1308433
-1.1614205 -3.6015227 -1.1780739
-1.1167555 -3.3918393 -1.1093749
-1.0677426 -3.1774342 -1.0388356
-1.0847467 -3.1636207 -1.0363821
-1.0987906 -3.1416337 -1.0311683
-1.1074851 -3.1052518 -1.0210475
-1.1180536 -3.0751433 -1.0130736
-1.1382253 -3.0717947 -1.0143003
-1.162436 -3.0789983 -1.0192074
-1.4695709 -3.8206129 -1.2777489
-1.4690158 -3.7503798 -1.2565871
-1.4905888 -3.7377594 -1.2553604
-1.4952248 -3.6835701 -1.239719
-1.395977 -3.3796594 -1.1369772
-1.4037716 -3.3403227 -1.126243
-1.4227433 -3.3281462 -1.1250162
-1.4514928 -3.3385546 -1.1317635
-1.461167 -3.3052139 -1.123176
-1.4763439 -3.2849019 -1.119189
-1.4889522 -3.2593343 -1.1133618
-1.5053133 -3.2423685 -1.1106017
-1.5097377 -3.2003644 -1.0989474
-1.5157622 -3.1627202 -1.0888265
-1.5305538 -3.1439481 -1.0854529
-1.5354631 -3.1054931 -1.0750253
-1.5544891 -3.0960131 -1.0750253
-1.5838386 -3.1067646 -1.082386
-1.5796695 -3.0521944 -1.0661312
-1.6010255 -3.0474989 -1.0679715
-1.5981851 -2.9973114 -1.0532502
-1.6065744 -2.9690354 -1.0465029
-1.6288873 -2.9666293 -1.0492632
-1.652158 -2.9657235 -1.0526369
-1.6726671 -2.9596725 -1.0541703
-1.7054793 -2.9749465 -1.0636778
-1.7294457 -2.9742978 -1.067358
-1.739923 -2.9505148 -1.062451
-1.7531065 -2.9316161 -1.0593841
-1.7651362 -2.9110396 -1.0557038
-1.7859575 -2.9050181 -1.0575439
-1.8037486 -2.8940051 -1.0575439
-1.8148593 -2.8724246 -1.0535569
-1.8360451 -2.8668442 -1.0557038
-1.8484161 -2.8475428 -1.0526369
-1.8470113 -2.807528 -1.0415959
-1.8673729 -2.8008926 -1.0434361
-1.8738614 -2.7736118 -1.0373023
-1.9102105 -2.7903297 -1.0483432
-1.9582322 -2.8231246 -1.0658246
-1.9623768 -2.7923706 -1.0584639
-1.9745029 -2.7733004 -1.0557038
-1.9836837 -2.7503281 -1.0514101
-1.9915338 -2.7258112 -1.0465029
-2.0082216 -2.7135401 -1.0465029
-2.0174086 -2.6912687 -1.042516
-2.0327322 -2.6773236 -1.0419025
-2.0462196 -2.6610289 -1.0403692
-2.0654342 -2.6521773 -1.0419025
-2.0692856 -2.623764 -1.035462
-2.0924768 -2.6199398 -1.0391424
-2.1210878 -2.6225884 -1.0455829
-2.1479995 -2.6227751 -1.0511034
-2.1676991 -2.6139407 -1.0529435
-2.1910448 -2.6093352 -1.0566238
-2.2137988 -2.6038163 -1.0599974
-2.2247641 -2.5844145 -1.0575439
-2.2305698 -2.559238 -1.0526369
-2.2474911 -2.5469303 -1.0532502
-2.2649796 -2.5352206 -1.0541703
-2.2645249 -2.5036335 -1.0465029
-2.2997782 -2.5114455 -1.0560105
-2.309319 -2.4910069 -1.0532502
-2.3252118 -2.4774842 -1.0535569
-2.3279085 -2.4500644 -1.0477297
-2.3481784 -2.4412205 -1.0501833
-2.3511565 -2.4144959 -1.0446628
-2.349885 -2.3837616 -1.0373023
-2.3765736 -2.3814209 -1.0428227
-2.4134719 -2.3888822 -1.0529435
-2.429446 -2.3753588 -1.0535569
-2.4412358 -2.3577633 -1.0523301
-2.446701 -2.3342016 -1.0483432
-2.4637492 -2.3217552 -1.0495698
-2.4730704 -2.3020563 -1.047423
-2.487149 -2.2868385 -1.047423
-2.4905617 -2.2619395 -1.0428227
-2.5249469 -2.2650397 -1.0517168
-2.5416477 -2.2520282 -1.0529435
-2.5675981 -2.2470427 -1.0581573
-2.582778 -2.2324903 -1.0587707
-2.5978758 -2.2178361 -1.0593841
-2.6172583 -2.2067604 -1.0618376
-2.6227016 -2.1839628 -1.0584639
-2.6331112 -2.1654117 -1.0572373
-2.6493046 -2.1516137 -1.0584639
-2.633491 -2.1121025 -1.0465029
-2.6478939 -2.0970855 -1.0471164
-2.6734607 -2.0907624 -1.0523301
-2.6922674 -2.0789707 -1.0547837
-2.6981592 -2.0572205 -1.0520234
-2.7206194 -2.0480647 -1.0560105
-2.7338989 -2.0319002 -1.0563171
-2.7440124 -2.0133986 -1.055397
-2.7501464 -1.9920591 -1.0529435
-2.770062 -1.9806805 -1.0560105
-2.7837188 -1.9647436 -1.0566238
-2.8019712 -1.9519764 -1.0590774
-2.8240938 -1.9417541 -1.0630643
-2.843045 -1.9291968 -1.0658246
-2.8524556 -1.9101279 -1.0649046
-2.8641224 -1.8925896 -1.0649046
-2.8844533 -1.8806955 -1.0682781
-2.8919356 -1.860388 -1.0667447
-2.9008849 -1.8410791 -1.0658246
-2.9532793 -1.8489907 -1.0814658
-2.9394591 -1.8153393 -1.0719584
-2.9700553 -1.809146 -1.079319
-2.978652 -1.7894185 -1.0783989
-3.0002234 -1.7774113 -1.082386
-3.0373774 -1.7743233 -1.0922002
-3.0638809 -1.7646736 -1.0980272
-3.0845852 -1.7514772 -1.1017076
-3.0977662 -1.7339115 -1.1026276
-3.1183493 -1.7203854 -1.106308
-3.136374 -1.7053087 -1.1090682
-3.1610434 -1.6936693 -1.114282
-3.207576 -1.6933376 -1.1274698
-3.2483101 -1.6894253 -1.1385106
-3.2772543 -1.6790043 -1.1452578
-3.317241 -1.673862 -1.1559922
-3.3632543 -1.6712546 -1.1688732
-3.4102142 -1.6685631 -1.182061
-3.4366832 -1.6554503 -1.1878881
-3.5173082 -1.6677496 -1.2130369
-3.657733 -1.7068758 -1.2593473
-3.7191775 -1.7078201 -1.2774422
-3.7183087 -1.6798763 -1.2734553
-3.7737806 -1.6771172 -1.2894032
-3.9244318 -1.715264 -1.3387806
-4.0284615 -1.7313408 -1.3715967
-4.0591764 -1.7151051 -1.3786507
-4.0959969 -1.7011112 -1.3878514
-4.1248655 -1.6834948 -1.394292
-4.215518 -1.6903692 -1.4222009
-4.2302389 -1.6662145 -1.4237344
-4.3264995 -1.6735126 -1.4534836
-4.460381 -1.6938741 -1.4961138
-4.4965568 -1.6761086 -1.5050079
-4.5398331 -1.6605766 -1.5163554
-4.5821915 -1.6442548 -1.5273963
-4.9926605 -1.7569357 -1.6641811
-5.0132451 -1.7296809 -1.6675547
-5.0544219 -1.7092479 -1.6779822
-5.114511 -1.6946571 -1.6948503
-5.165555 -1.6764563 -1.7086514
-5.1929808 -1.6502029 -1.7144786
-5.1966457 -1.6163307 -1.7123318
-5.3366866 -1.6240127 -1.7561888
-5.4140625 -1.6113144 -1.7788839
-5.5572867 -1.6168585 -1.823661
-5.7181735 -1.6256461 -1.8742652
-5.8316798 -1.6192857 -1.9089215
-5.85988 -1.5884496 -1.9150553
-5.9302502 -1.5685158 -1.935297
-5.9369974 -1.5313863 -1.934377
-5.9416666 -1.4937692 -1.9328434
-5.9747581 -1.4631655 -1.9408175
-5.9762163 -1.4247133 -1.9383639
-5.9950452 -1.3903805 -1.9417375
-6.0081062 -1.3546153 -1.943271
-6.0423398 -1.3234218 -1.9518584
-6.0345187 -1.2829599 -1.9466445
-6.0227003 -1.2418758 -1.940204
-6.034874 -1.2058294 -1.9417375
-6.0440283 -1.1691386 -1.9423509
-6.0464101 -1.1311569 -1.9408175
-6.0513635 -1.0936973 -1.940204
-6.0776515 -1.0599767 -1.9466445
-6.0765319 -1.0214041 -1.9441911
-6.0751677 -0.98288536 -1.9417375
-6.0820246 -0.94573641 -1.9420443
-6.078299 -0.90699703 -1.9389772
-6.0780964 -0.86887711 -1.9371371
-6.0814271 -0.83130878 -1.9365238
-6.0930204 -0.79483885 -1.9386706
-6.09306 -0.75685203 -1.9371371
-6.1042061 -0.72023094 -1.939284
-6.1075644 -0.68265712 -1.9389772
-6.1400352 -0.64816129 -1.9481781
-6.1410551 -0.61019272 -1.947258
-0 -0 -0
-0 -0 -0
-0 -0 -0
-0 -0 -0
-0 -0 -0
-0 -0 -0
-0 -0 -0
-0 -0 -0
-0 -0 -0
-0 -0 -0
-0 -0 -0
-0 -0 -0
-0 -0 -0
-0 -0 -0
-0 -0 -0
-0 -0 -0
-0 0 -0
-0 0 -0
-0 0 -0
-0 0 -0
-0 0 -0
-0 0 -0
-0 0 -0
-0 0 -0
-0 0 -0
-6.1723571 0.37386286 -1.951245
-6.1775446 0.41223711 -1.9536985
-0 -0 -0
-0 -0 -0
-0 -0 -0
-0 -0 -0
-0 -0 -0
-0 0 -0
-0 0 -0
-0 0 -0
-0 0 -0
-0 0 -0
-0 0 -0
-0 0 -0
-0 0 -0
-0 0 -0
-0 0 -0
-0 0 -0
-0 0 -0
-0 0 -0
-0 0 -0
-0 0 -0
-0 0 -0
-0 0 -0
-0 0 -0
-0 0 -0
-0 0 -0
-0 0 -0
-0 0 -0
-0 0 -0
-0 0 -0
-0 0 -0
-0 0 -0
-5.7883224 0.96264881 -1.9196087
-5.7841759 0.99846971 -1.9202427
-5.7826085 1.0347769 -1.9218274
-5.770555 1.0692025 -1.9199257
-5.767612 1.1053036 -1.9211935
-5.7588606 1.140304 -1.9205596
-5.7638354 1.1780864 -1.9246802
-5.7639227 1.2149949 -1.9272161
-5.740603 1.2469176 -1.9218274
-5.7374721 1.2831525 -1.9234123
-5.718399 1.3157815 -1.9196087
-5.7056031 1.3497527 -1.9180238
-5.6944489 1.3840644 -1.9170729
-5.6932111 1.4208156 -1.9196087
-5.6862235 1.4561921 -1.9202427
-5.6771812 1.4910548 -1.9202427
-5.6752524 1.5278331 -1.9227784
-5.6566277 1.560106 -1.9196087
-5.6469488 1.5947851 -1.9196087
-5.6397905 1.6301939 -1.9205596
-5.6278625 1.6642306 -1.9199257
-5.6057429 1.6951631 -1.915805
-5.6061101 1.7328877 -1.9196087
-5.585423 1.7641122 -1.916122
-5.5618563 1.7942747 -1.9116843
-5.5624533 1.8322244 -1.915805
-5.5520053 1.8666227 -1.916122
-5.5395503 1.9003463 -1.915805
-5.5331569 1.9361798 -1.9177068
-5.516706 1.9685007 -1.916122
-5.5027413 2.0016651 -1.915488
-5.477016 2.0304475 -1.9107335
-5.4777632 2.0690415 -1.915488
-5.4623094 2.1015921 -1.9145371
-5.4475451 2.1343768 -1.9139031
-5.4325843 2.1670594 -1.9132692
-5.4253368 2.2028494 -1.915488
-5.4108415 2.2357352 -1.915171
-5.3961473 2.2685258 -1.914854
-5.3856144 2.3030846 -1.916122
-5.3626838 2.3323047 -1.9129522
-5.3526092 2.3670833 -1.9145371
-5.3414445 2.4014373 -1.915805
-5.3214331 2.4318016 -1.9139031
-5.3141537 2.4680023 -1.9167559
-5.2954793 2.4989443 -1.915488
-5.2834673 2.5330293 -1.9167559
-5.2627091 2.5629094 -1.914854
-5.2468843 2.5951524 -1.914854
-5.2232342 2.6234672 -1.9120013
-5.2087283 2.6563287 -1.9126352
-5.1898046 2.6869307 -1.9116843
-5.1707015 2.7174008 -1.9107335
-5.1539307 2.7490764 -1.9107335
-5.1377997 2.7811 -1.9110503
-5.1156502 2.8098333 -1.9091486
-5.0966563 2.8402462 -1.9085146
-5.0683994 2.8653982 -1.9043939
-5.0507221 2.8964431 -1.9043939
-5.032855 2.9273794 -1.9043939
-5.0221505 2.9625418 -1.9072467
-5.0177155 3.0015774 -1.9126352
-5.0008254 3.0332925 -1.9132692
-4.9885826 3.0678942 -1.915805
-4.9648352 3.0954354 -1.9139031
-4.9433432 3.124321 -1.9129522
-4.9208851 3.1525476 -1.9116843
-4.8966761 3.1795835 -1.9097825
-4.8754897 3.2085264 -1.9091486
-4.8517652 3.2357504 -1.9075637
-4.8357491 3.2681146 -1.9091486
-4.8101273 3.2939739 -1.9069297
-4.7945008 3.3266699 -1.9088316
-4.7747746 3.3565712 -1.9091486
-4.7587247 3.3891063 -1.9110503
-4.7447624 3.4232354 -1.9139031
-4.7236686 3.4522843 -1.9139031
-4.6940112 3.4749961 -1.9104165
-4.6756363 3.5060084 -1.9116843
-4.6479931 3.5300429 -1.9091486
-4.6300044 3.5613871 -1.9107335
-4.6043239 3.5868151 -1.9091486
-4.5822291 3.6149993 -1.9091486
-4.5629258 3.6454151 -1.9104165
-4.5345726 3.6685722 -1.9078807
-4.51051 3.6951246 -1.9072467
-4.4870224 3.7221255 -1.9069297
-4.4691834 3.7538571 -1.9091486
-4.4467883 3.7818232 -1.9094656
-4.4292498 3.8139875 -1.9120013
-4.4057641 3.8410931 -1.9120013
-4.382113 3.8680542 -1.9120013
-4.3519311 3.8891819 -1.9091486
-4.3237658 3.911994 -1.9072467
-4.2926865 3.9320447 -1.9040769
-4.2622199 3.9525065 -1.9012241
-4.2323556 3.9733918 -1.8986884
-4.2140832 4.0051661 -1.9015411
-4.188745 4.0302906 -1.9012241
-4.1564631 4.0486374 -1.8977375
-4.1335688 4.0760622 -1.8986884
-4.1145225 4.1073785 -1.9015411
-4.0932455 4.1365924 -1.903443
-4.0677867 4.1616302 -1.903443
-4.0355864 4.1796889 -1.9002733
-4.0098643 4.2043719 -1.9002733
-3.986593 4.231658 -1.9015411
-3.9663684 4.2622881 -1.9043939
-3.9343638 4.280261 -1.9015411
-3.9080267 4.3043213 -1.9015411
-3.8872416 4.3345737 -1.9043939
-3.8561695 4.3533745 -1.9021751
-3.8362553 4.3848047 -1.9056618
-3.8086581 4.4075437 -1.9053448
-3.7926259 4.4438148 -1.9110503
-3.7487824 4.4474235 -1.902492
-3.7147474 4.4623241 -1.8990054
-3.6830807 4.4799056 -1.8967866
-3.6537297 4.5002112 -1.8958356
-3.6313879 4.5292048 -1.8986884
-3.6041176 4.552145 -1.8990054
-3.5825448 4.5823922 -1.902492
-3.5717487 4.6268096 -1.9120013
-3.526042 4.6260104 -1.902492
-3.4924576 4.640739 -1.8996394
-3.4650483 4.6636033 -1.9002733
-3.4341238 4.6817179 -1.8990054
-3.4136772 4.7142234 -1.90376
-3.3758616 4.7227359 -1.8986884
-3.3386173 4.7317371 -1.8939338
-3.3068106 4.7482419 -1.8923489
-3.2760019 4.766098 -1.8913981
-3.2461636 4.7853246 -1.8910811
-3.2225444 4.8138218 -1.8945677
-3.1966064 4.8390436 -1.8967866
-3.1699622 4.8633337 -1.8986884
-3.1380093 4.8795018 -1.8974205
-3.1024206 4.8898554 -1.8939338
-3.0708487 4.9063878 -1.8929828
-3.0421808 4.9275589 -1.8939338
-3.0104086 4.9437027 -1.8929828
-2.9770877 4.9572029 -1.8910811
-2.946615 4.9753766 -1.8910811
-2.9136395 4.9892678 -1.8894962
-2.8853376 5.0111613 -1.8910811
-2.8545353 5.0287709 -1.8910811
-2.8231626 5.0453639 -1.8907641
-2.7976487 5.072557 -1.8945677
-2.7664714 5.0896277 -1.8945677
-2.7360857 5.1081786 -1.8952017
-2.7051337 5.1257095 -1.8955187
-2.6780078 5.1506262 -1.8986884
-2.6398678 5.1542993 -1.8939338
-2.6094735 5.1729403 -1.8948847
-2.5726197 5.1786618 -1.8910811
-2.5403786 5.1934977 -1.8907641
-2.5101104 5.2124052 -1.8920319
-2.4797056 5.2311368 -1.8932998
-2.4483635 5.2479725 -1.8939338
-2.4161165 5.2628965 -1.8939338
-2.3802643 5.2698436 -1.8910811
-2.3482695 5.2852163 -1.8913981
-2.3138964 5.2951803 -1.8898132
-2.2809877 5.3084068 -1.8894962
-2.2465274 5.3179345 -1.8879113
-2.2131274 5.3298674 -1.8872774
-2.179307 5.3407121 -1.8863264
-2.1443782 5.3487015 -1.8844246
-2.1149945 5.3705831 -1.8875943
-2.0792642 5.3763828 -1.8850585
-2.0637462 5.4351454 -1.9015411
-2.0207508 5.4219337 -1.8923489
-1.9900509 5.4413567 -1.8948847
-1.9566259 5.453465 -1.8948847
-1.9193488 5.4546318 -1.8910811
-1.8867718 5.468996 -1.8920319
-1.8543947 5.4840636 -1.8932998
-1.8213068 5.4971395 -1.8939338
-1.7837361 5.4964838 -1.8898132
-1.7502639 5.5082293 -1.8901302
-1.7122072 5.5052805 -1.8853755
-1.6783953 5.5156827 -1.8853755
-1.6499319 5.5440578 -1.8917149
-1.612173 5.541328 -1.8872774
-1.5739909 5.5365195 -1.8822057
-1.5460815 5.5680051 -1.8898132
-1.5091575 5.567318 -1.8863264
-1.4786074 5.5902262 -1.8910811
-1.4414352 5.5881734 -1.8872774
-1.4050379 5.5886345 -1.8844246
-1.3695918 5.5925446 -1.8828397
-1.3367909 5.6073008 -1.8850585
-1.3010739 5.6098542 -1.8831567
-1.2680887 5.6242085 -1.8853755
-1.2329464 5.6291037 -1.8844246
-1.200554 5.6467676 -1.8879113
-1.1668415 5.6586723 -1.8894962
-1.1322845 5.6666555 -1.8898132
-1.0976734 5.6744275 -1.8901302
-1.0621372 5.6773267 -1.8888623
-1.0272818 5.6837368 -1.8888623
-0.99173558 5.6861959 -1.8875943
-0.95619792 5.6884332 -1.8863264
-0.92067021 5.6904478 -1.8850585
-0.88544536 5.6941156 -1.8844246
-0.85049021 5.6994414 -1.8844246
-0.81496596 5.7007971 -1.8831567
-0.77984267 5.7047505 -1.8828397
-0.74445605 5.7066069 -1.8818887
-0.71001184 5.7157736 -1.8834736
-0.67481595 5.7190804 -1.8831567
-0.64013332 5.7268834 -1.8844246
-0.60577887 5.7382493 -1.8869604
-0.57112134 5.7475209 -1.8888623
-0.53628474 5.7556386 -1.8904471
-0.50112319 5.7607107 -1.8910811
-0.46530795 5.7580047 -1.8891792
-0.4296861 5.7569685 -1.8879113
-0.3938351 5.7519269 -1.8853755
-0.35818025 5.7485557 -1.8834736
-0.32284778 5.7496982 -1.8831567
-0.28751481 5.7506237 -1.8828397
-0.25197455 5.7465944 -1.8809379
-0.21674517 5.74898 -1.8812549
-0.1816459 5.7558894 -1.8831567
-0.14651833 5.7644806 -1.8856925
-0.11123712 5.7700124 -1.8872774
-0.075743198 5.763948 -1.8850585
-0.040408399 5.7690463 -1.8866434
-0.005005877 5.7653918 -1.8853755
0.030345347 5.760572 -1.8837906
0.065712482 5.7621741 -1.8844246
0.10115012 5.7664037 -1.8860095
0.13614963 5.7495556 -1.880621
0.17120005 5.7410278 -1.8780851
0.2063891 5.7389216 -1.8777682
0.24159858 5.7375469 -1.8777682
0.27657071 5.7312202 -1.8761833
0.31198892 5.7341504 -1.8777682
0.34733894 5.7349682 -1.8787191
0.38296303 5.7393532 -1.8809379
0.41851625 5.7416253 -1.8825227
0.45448521 5.748404 -1.8856925
0.4890238 5.7370019 -1.8828397
0.52507901 5.7433386 -1.8860095
0.55690277 5.7050819 -1.8742814
0.59502977 5.7317457 -1.8844246
0.63070613 5.7327003 -1.8860095
0.66565061 5.7268381 -1.8853755
0.70181423 5.7311187 -1.8882283
0.73684549 5.7257638 -1.8879113
0.7709502 5.7136154 -1.8853755
0.80533111 5.704082 -1.8837906
0.83990073 5.696218 -1.8828397
0.8732518 5.6806459 -1.879353
0.90794134 5.6742439 -1.8790361
0.9427408 5.6685662 -1.8790361
0.97782725 5.6645441 -1.87967
1.0127329 5.6593714 -1.879987
1.047439 5.6530509 -1.879987
1.0833548 5.653038 -1.8822057
1.1171001 5.6416321 -1.880621
1.1528347 5.6402469 -1.8825227
1.1880075 5.6358514 -1.8834736
1.224176 5.6358705 -1.8860095
1.2566648 5.6189971 -1.8828397
1.2917565 5.6139536 -1.8837906
1.3261787 5.6059217 -1.8837906
1.360775 5.5986004 -1.8841076
1.394413 5.5873852 -1.8831567
1.4281998 5.5768862 -1.8825227
1.464319 5.5753565 -1.8850585
1.4980081 5.564435 -1.8844246
1.5313663 5.5523958 -1.8834736
1.5654064 5.5428948 -1.8834736
1.5964912 5.5231628 -1.879987
1.6308883 5.5150819 -1.880621
1.6627764 5.4986162 -1.8784021
1.6981641 5.4937472 -1.880304
1.7318411 5.4832239 -1.880304
1.7666174 5.4761047 -1.8815719
1.800185 5.4651623 -1.8815719
1.8282454 5.4378314 -1.8758663
1.8680384 5.4453511 -1.8825227
1.9007889 5.4319959 -1.8818887
1.9296217 5.4077244 -1.8774512
1.9643874 5.4002395 -1.8790361
1.9988041 5.3916416 -1.880304
2.0321841 5.3801632 -1.880621
2.06652 5.3711333 -1.8818887
2.1018591 5.3645339 -1.8841076
2.1336818 5.3488932 -1.8831567
2.167532 5.3383369 -1.8841076
2.1987982 5.3214307 -1.8828397
2.2299383 5.3043413 -1.8815719
2.2613246 5.2879429 -1.880621
2.2925937 5.2713585 -1.87967
2.3256621 5.2589273 -1.880304
2.3582752 5.2454233 -1.880621
2.3943577 5.239481 -1.8837906
2.4256625 5.2229705 -1.8831567
2.4613068 5.2157083 -1.8860095
2.4965432 5.2073498 -1.8885453
2.5321846 5.1996078 -1.8913981
2.5581553 5.1720705 -1.8869604
2.5885653 5.1537337 -1.8860095
2.6145387 5.1267695 -1.8818887
2.6459467 5.1106305 -1.8818887
2.6776962 5.0951385 -1.8822057
2.713372 5.0869813 -1.8853755
2.7449856 5.0710707 -1.8856925
2.7728536 5.0483131 -1.8834736
2.8023925 5.0287185 -1.8825227
2.8322618 5.0097775 -1.8818887
2.8624761 4.9914818 -1.8815719
2.891619 4.9713645 -1.880621
2.923032 4.955162 -1.8812549
2.9553287 4.9403896 -1.8825227
2.9885375 4.9270287 -1.8844246
3.0172226 4.9061747 -1.8834736
3.0457642 4.8851542 -1.8825227
3.0761883 4.8671761 -1.8828397
3.1039486 4.8450146 -1.8815719
3.1331022 4.8250823 -1.8812549
3.1610854 4.80339 -1.880304
3.1915512 4.7854819 -1.8809379
3.2187302 4.7626653 -1.87967
3.2478929 4.742826 -1.87967
3.2790956 4.725925 -1.8809379
3.3091223 4.7072678 -1.8815719
3.3412442 4.6915102 -1.8834736
3.3688581 4.6693821 -1.8828397
3.3963263 4.6470919 -1.8822057
3.4292905 4.6322637 -1.8847415
3.4570801 4.6103759 -1.8844246
3.4847302 4.5883212 -1.8841076
3.5191782 4.5751228 -1.8875943
3.5471845 4.5534434 -1.8875943
3.5756445 4.5323372 -1.8879113
3.6016111 4.5080891 -1.8869604
3.6262221 4.4822183 -1.8853755
3.6536562 4.4598837 -1.8853755
3.6755035 4.4308114 -1.8825227
3.7026212 4.4081755 -1.8825227
3.7259133 4.3810387 -1.880621
3.7582939 4.364563 -1.8834736
3.7837572 4.3399906 -1.8828397
3.8147087 4.3216696 -1.8850585
3.8373625 4.2939382 -1.8831567
3.8680913 4.2752352 -1.8853755
3.8942509 4.2514205 -1.8853755
3.9221983 4.2295322 -1.8863264
3.9519711 4.2095356 -1.8882283
3.9783792 4.185895 -1.8885453
4.0020161 4.1593547 -1.8875943
4.0241532 4.1313233 -1.8860095
4.0540881 4.1112814 -1.8882283
4.0772281 4.0843148 -1.8872774
4.1096277 4.0665593 -1.8907641
4.1270418 4.0339737 -1.8872774
4.1571741 4.013845 -1.8898132
4.1885872 3.994808 -1.8929828
4.2178521 3.9735849 -1.8952017
4.2546511 3.9592607 -1.9009073
4.2614088 3.917033 -1.8929828
4.2853632 3.8908117 -1.8929828
4.3063321 3.8619108 -1.8917149
4.3349166 3.8398175 -1.8939338
4.3541131 3.8093994 -1.8920319
4.3824282 3.7869525 -1.8942508
4.4048605 3.7593753 -1.8939338
4.4285698 3.7328882 -1.8942508
4.4543066 3.7080722 -1.8955187
4.4601254 3.6668167 -1.8882283
4.4906397 3.6459575 -1.8917149
4.5070071 3.6135881 -1.8891792
4.5224028 3.5805664 -1.8863264
4.5517592 3.5585923 -1.8894962
4.567503 3.5259593 -1.8869604
4.5943317 3.5018921 -1.8891792
4.6210365 3.4776285 -1.8913981
4.6491394 3.4543002 -1.8942508
4.665659 3.4223425 -1.8923489
4.6911788 3.3969879 -1.8942508
4.7204208 3.374207 -1.8977375
4.7464604 3.3490074 -1.8999563
4.7630286 3.3171101 -1.8983715
4.766098 3.2760019 -1.8913981
4.8135791 3.2653329 -1.902492
4.8319483 3.2346807 -1.9018581
4.8517046 3.2049716 -1.9018581
4.8673062 3.1725519 -1.9002733
4.8874788 3.1431401 -1.9005903
4.9018679 3.1100428 -1.8986884
4.9232702 3.0814168 -1.8996394
4.9420848 3.0511501 -1.8996394
4.9607129 3.0207686 -1.8996394
4.9913507 2.9975986 -1.9043939
5.0104656 2.9673994 -1.9047109
5.0367684 2.9413834 -1.9078807
5.0530777 2.9094763 -1.9072467
5.0757837 2.8812258 -1.9091486
5.0701928 2.8370581 -1.9002733
5.0792007 2.8013134 -1.8971035
5.0896277 2.7664714 -1.8945677
5.1257353 2.745491 -1.9018581
5.1567435 2.7215149 -1.9072467
5.1716623 2.6889474 -1.9066128
5.1618962 2.6437595 -1.8967866
5.1873355 2.6167362 -1.9002733
