# .PCD v0.7 - Point Cloud Data file format
VERSION 0.7
FIELDS x y z
SIZE 4 4 4
TYPE F F F
COUNT 1 1 1
WIDTH 1530
HEIGHT 1
VIEWPOINT 0 0 0 1 0 0 0
POINTS 1530
DATA ascii
23.631046 21.411055 -1.5951415
23.67416 21.187069 -1.5891099
23.746845 20.991142 -1.585225
24.024912 20.97574 -1.5953971
24.200813 20.869019 -1.5986174
26.199591 22.313673 -1.7244135
26.310026 22.130638 -1.7226756
26.439945 21.964319 -1.7223178
26.571129 21.799141 -1.7221134
26.71913 21.647636 -1.7230846
26.758654 21.40904 -1.7170017
26.878542 21.235783 -1.7162861
19.873375 15.504535 -1.2531253
19.968134 15.382302 -1.2531253
27.243406 20.721115 -1.714906
27.31653 20.513386 -1.7114812
27.502054 20.389996 -1.7153149
0 0 -0
27.836817 20.113548 -1.7207843
23.086884 16.467056 -1.4144469
22.751408 16.018093 -1.3871511
22.92882 15.93347 -1.3921093
28.428291 19.497204 -1.7273782
28.550697 19.324644 -1.7275827
28.664581 19.146322 -1.7273271
28.790693 18.976126 -1.7278894
0 0 -0
0 0 -0
29.146074 18.449911 -1.7285539
29.280758 18.284479 -1.729883
29.37369 18.092951 -1.7287583
29.018972 17.629787 -1.7009002
26.442535 15.843348 -1.5407542
26.462725 15.63559 -1.5362049
26.485676 15.430696 -1.5319113
26.531363 15.240037 -1.5290487
28.593634 16.192017 -1.6448772
28.736921 16.04109 -1.6474842
28.93281 15.918376 -1.6532091
29.211674 15.83908 -1.6637901
29.609566 15.820491 -1.6812718
29.83864 15.708291 -1.6889391
30.209299 15.667435 -1.704785
30.525429 15.594449 -1.7174618
30.712431 15.453087 -1.7227267
31.098404 15.408885 -1.7393905
31.504725 15.370156 -1.7571788
31.212233 14.991079 -1.7352501
31.605194 14.941839 -1.7523228
32.028595 14.902239 -1.7710823
32.627037 14.937815 -1.799656
33.230743 14.96824 -1.8284343
33.804077 14.977651 -1.8554235
34.448338 15.0109 -1.8862975
0 0 -0
35.935059 15.136733 -1.9587798
36.014339 14.910606 -1.9580641
36.045021 14.664884 -1.9547416
0 0 -0
0 0 -0
35.630466 13.737401 -1.9175292
0 0 -0
0 0 -0
35.304928 12.870596 -1.8863486
35.325874 12.633214 -1.8832306
0 0 -0
0 0 -0
0 0 -0
35.236446 11.634104 -1.862273
35.199791 11.382957 -1.8564969
35.26421 11.165255 -1.8562413
0 0 -0
34.773514 10.542192 -1.8228116
34.940952 10.359283 -1.8283321
0 0 -0
34.683002 9.8214378 -1.8079879
0 0 -0
34.594578 9.3393879 -1.7970492
34.294868 9.0330906 -1.7781874
34.364159 8.8262177 -1.7789541
34.350819 8.5984669 -1.7754271
34.181709 8.3336048 -1.7637727
0 0 -0
33.708241 7.7812266 -1.7336655
33.836231 7.5923958 -1.7379081
33.91243 7.3912296 -1.7394927
34.028469 7.1980929 -1.7432241
34.192329 7.0138426 -1.7495114
34.279781 6.8128643 -1.7518628
34.347416 6.607492 -1.7532429
34.454079 6.4090333 -1.7567188
34.441643 6.188324 -1.7540607
34.48782 5.9784126 -1.7545208
34.520901 5.7661934 -1.7543675
0 0 -0
34.69072 5.357832 -1.7596323
0 0 -0
0 0 -0
34.879459 4.7314 -1.7645906
34.908825 4.5174227 -1.7646418
0 0 -0
35.0271 4.0963516 -1.7680154
35.06448 3.882781 -1.7686799
35.065788 3.665273 -1.7675554
35.231735 3.4642098 -1.7749671
35.185699 3.2418301 -1.7715423
35.223831 3.027498 -1.7725135
0 0 -0
0 0 -0
35.361279 2.3845396 -1.7770118
0 0 -0
35.478619 1.9554211 -1.7816633
0 0 -0
35.533871 1.5213479 -1.7834013
35.66729 1.307858 -1.7897907
35.591789 1.0864565 -1.7855481
35.610764 0.86836505 -1.7862126
35.587463 0.64933592 -1.7847813
35.747562 0.43285647 -1.7928065
0 0 -0
0 -0 -0
31.169559 -0.19621091 -1.5583892
27.356054 -0.33993238 -1.3632799
27.330488 -0.50735223 -1.3621043
27.322866 -0.67494059 -1.3618999
27.288265 -0.84165293 -1.3603663
26.19775 -0.96890455 -1.3048034
25.429022 -1.0967211 -1.2657509
27.276129 -1.3441917 -1.3607752
27.264376 -1.5113636 -1.3606219
25.664692 -1.5806353 -1.2790922
25.643549 -1.7373381 -1.2785299
25.629419 -1.8944303 -1.2783766
27.256903 -2.1830411 -1.3625643
27.302694 -2.3553979 -1.3656313
19.957655 -1.8448653 -0.98885626
19.918131 -1.964542 -0.98742503
19.943445 -2.0906794 -0.98936743
30.766304 -3.4168611 -1.5473993
10.593507 -1.2415785 -0.50892949
10.588662 -1.306923 -0.50908279
10.553703 -1.368399 -0.50770271
10.535213 -1.4317836 -0.50719154
10.567756 -1.5023075 -0.50933838
10.581059 -1.5704967 -0.51051408
13.874497 -2.1467836 -0.68159884
0 -0 -0
14.286412 -2.3904247 -0.70439649
13.710622 -2.3806083 -0.67526048
0 -0 -0
29.179806 -5.4375958 -1.4822266
29.03606 -5.5953679 -1.4765016
28.887562 -5.7508016 -1.4705721
28.798906 -5.917088 -1.4678119
28.668266 -6.0738082 -1.4629048
28.566061 -6.2355399 -1.4595312
28.421057 -6.3868289 -1.4539595
28.30349 -6.5430984 -1.4498702
28.157875 -6.6917 -1.4443498
28.007624 -6.8378139 -1.4386247
27.884737 -6.9893804 -1.4343821
27.779425 -7.1444235 -1.4311107
24.781103 -6.5355453 -1.2747473
8.1448412 -2.2007766 -0.39483887
8.1080847 -2.2443135 -0.39361209
7.9356279 -2.2490668 -0.38517797
7.9159236 -2.2960465 -0.38487127
7.9888091 -2.3704388 -0.38952282
7.9855819 -2.4228938 -0.39013621
7.991549 -2.4783576 -0.39126074
8.145648 -2.5810661 -0.40035936
7.9120774 -2.5605502 -0.38865384
26.487123 -8.7547045 -1.3908315
26.488737 -8.9358988 -1.3938472
26.417356 -9.0927362 -1.3929783
26.763428 -9.3959351 -1.4148048
26.727837 -9.5680552 -1.4160315
18.910948 -6.9005933 -0.9933545
25.790306 -9.5910454 -1.3713562
18.228086 -6.9060082 -0.96069145
18.563641 -7.1637239 -0.98144448
18.478437 -7.2614198 -0.97919542
18.749716 -7.5011802 -0.9966259
25.24626 -10.280834 -1.3582195
18.214331 -7.5475507 -0.97214139
25.059303 -10.565037 -1.354948
24.916906 -10.685532 -1.3506544
24.78771 -10.810668 -1.3471273
24.675264 -10.942314 -1.3445716
24.555763 -11.070115 -1.341658
24.475574 -11.215169 -1.3409934
24.365559 -11.346164 -1.3386933
24.265692 -11.481359 -1.3370064
24.164183 -11.615321 -1.3352685
23.997332 -11.71692 -1.3298502
23.91246 -11.857733 -1.3291346
23.814278 -11.991656 -1.3277034
23.714462 -12.124367 -1.326221
23.621895 -12.260446 -1.3251987
23.522366 -12.392586 -1.3238186
23.399208 -12.511723 -1.3211094
23.312342 -12.649822 -1.3205471
12.895541 -7.0995975 -0.71645987
23.240795 -12.982682 -1.3255565
23.184156 -13.138336 -1.3269366
12.516785 -7.1943994 -0.70194298
12.589738 -7.3394804 -0.70889473
12.615817 -7.4587831 -0.71313733
22.840183 -13.694615 -1.3260676
12.434589 -7.5590773 -0.70782125
22.294647 -13.742229 -1.3034744
22.003262 -13.749624 -1.2910022
21.840023 -13.83467 -1.2862483
21.711864 -13.940896 -1.2836415
21.590761 -14.050975 -1.2814946
21.498304 -14.179339 -1.2811368
21.459053 -14.343174 -1.2841015
21.48144 -14.549626 -1.290951
21.406582 -14.691333 -1.2918711
21.324234 -14.828107 -1.2923822
21.233665 -14.959246 -1.2924334
21.116278 -15.071265 -1.2908489
20.942476 -15.142029 -1.2857372
20.555101 -15.054841 -1.2670799
20.424643 -15.152713 -1.2646775
19.037119 -14.30517 -1.1818186
18.964085 -14.433204 -1.1827898
19.996737 -15.413904 -1.2552722
19.62154 -15.317521 -1.2370749
19.17935 -15.162614 -1.2143794
19.046194 -15.248178 -1.2117726
18.930553 -15.347144 -1.2103413
18.792032 -15.426889 -1.2074277
18.632511 -15.488276 -1.2031339
18.407238 -15.492977 -1.1944443
18.265465 -15.566113 -1.1913263
18.115927 -15.63157 -1.1876969
17.922653 -15.657668 -1.181103
17.627268 -15.591333 -1.1675062
17.469521 -15.643898 -1.1632636
17.297739 -15.68237 -1.1580498
17.08568 -15.682181 -1.1500247
16.862574 -15.669106 -1.1411816
16.751564 -15.758592 -1.1401592
16.841856 -16.039474 -1.1533983
16.720118 -16.120331 -1.1517625
16.224255 -15.83545 -1.1233932
16.067114 -15.875736 -1.1190995
15.923507 -15.928112 -1.115777
15.484449 -15.680146 -1.0909346
15.362145 -15.748409 -1.0890434
15.154358 -15.727302 -1.0808648
15.030721 -15.791777 -1.0788714
14.685917 -15.620298 -1.0603673
14.540867 -15.657424 -1.056687
14.428995 -15.729423 -1.0555114
6.8885922 -7.6016536 -0.48807418
14.444002 -16.138987 -1.0715617
6.7471685 -7.6317382 -0.48439384
6.6844506 -7.6549382 -0.48316708
6.6217031 -7.6776567 -0.4819403
14.814775 -17.394159 -1.1324407
14.789408 -17.581799 -1.1389325
6.5252066 -7.8535519 -0.48562062
14.075943 -17.156618 -1.0988576
14.088596 -17.38855 -1.1084673
14.08645 -17.605682 -1.1170548
13.986207 -17.701971 -1.1177194
2.0329196 -2.604105 -0.13210334
2.0028861 -2.5983324 -0.13092767
1.9754184 -2.5954697 -0.12995647
1.953459 -2.5995557 -0.12944531
1.9368769 -2.6106906 -0.12939419
1.9278996 -2.6321969 -0.13000758
1.9327679 -2.6731191 -0.13184775
1.9424248 -2.7215168 -0.13414797
13.044736 -18.527803 -1.1227798
12.942773 -18.62472 -1.1238533
10.053802 -14.658152 -0.87277216
12.876137 -19.022823 -1.138728
12.734212 -19.064098 -1.1364278
12.54775 -19.036806 -1.1299871
12.392051 -19.053995 -1.1263579
12.211267 -19.030487 -1.1203263
12.22246 -19.307581 -1.1325941
11.92868 -19.101818 -1.1156747
11.819629 -19.188257 -1.1164926
11.704781 -19.265541 -1.1167992
11.586349 -19.336998 -1.1167992
11.468497 -19.409445 -1.1169015
11.346171 -19.474272 -1.1165948
11.724867 -20.411266 -1.1678129
11.603341 -20.489777 -1.1682218
11.089953 -19.866438 -1.1275337
10.888419 -19.789732 -1.1190995
10.765359 -19.853535 -1.1189462
10.640513 -19.913931 -1.1186395
10.519984 -19.98238 -1.1188439
10.400854 -20.053646 -1.1192528
10.273523 -20.109083 -1.1187928
10.122563 -20.117321 -1.1156747
10.008689 -20.19874 -1.1167992
9.860918 -20.211302 -1.1140391
9.6978073 -20.190405 -1.1094387
9.5980673 -20.300993 -1.1123523
6.8976722 -14.823318 -0.79982984
9.3128853 -20.340063 -1.1080073
8.9090185 -19.777618 -1.0732486
9.1224508 -20.587954 -1.1155725
8.3201799 -19.092583 -1.0289823
8.2532148 -19.260777 -1.0355251
8.1383667 -19.31934 -1.0359851
8.1804953 -19.757387 -1.0575049
7.9879851 -19.632372 -1.0478439
7.8736739 -19.696781 -1.048713
7.8117909 -19.895321 -1.0569937
7.7639313 -20.135769 -1.0675747
7.6964436 -20.331541 -1.0757022
7.5489411 -20.31753 -1.0723796
7.3895884 -20.2687 -1.0672169
7.3225842 -20.474464 -1.0759577
7.1353464 -20.343718 -1.0664501
7.0639606 -20.542948 -1.0748843
6.9103532 -20.504515 -1.0704883
6.773139 -20.512388 -1.0686481
6.6557531 -20.58017 -1.0700794
6.529953 -20.622524 -1.0701816
6.3648677 -20.538189 -1.0635365
6.3407083 -20.91328 -1.0815294
5.6488299 -19.051144 -0.98006433
6.1678171 -21.280163 -1.0970174
5.9778156 -21.108126 -1.0858742
5.8495169 -21.149221 -1.0861298
4.013608 -14.864492 -0.75106531
3.9215624 -14.885942 -0.75091195
5.2535524 -20.452381 -1.0438058
5.0236969 -20.067642 -1.021826
5.0047765 -20.525982 -1.0443681
4.8976436 -20.635986 -1.0485597
4.7835088 -20.720142 -1.0514221
0.5378533 -2.3920457 -0.088501506
0.52210271 -2.3904219 -0.088245921
0.50742549 -2.3935804 -0.088245921
0.49353182 -2.4005623 -0.088450387
0.47781974 -2.3986475 -0.08819481
0.46912906 -2.4329174 -0.089830518
0.44707042 -2.3974576 -0.087836996
0.43058568 -2.390326 -0.087325841
0.43978712 -2.5306864 -0.094482057
3.6491897 -21.844278 -1.0965574
0.45417571 -2.8188868 -0.10915231
0.44266215 -2.8591261 -0.11109471
0.42276904 -2.8459818 -0.11027686
0.40585956 -2.8524776 -0.11048132
0.38647053 -2.8410592 -0.1097657
0.36633998 -2.822578 -0.10869227
0.35072285 -2.8386495 -0.10940789
0.34002498 -2.8982804 -0.11237261
0.32014731 -2.8814523 -0.11140141
0.2064548 -1.9645739 -0.064119235
0.19488499 -1.9707732 -0.064374819
0.18141498 -1.9570147 -0.06360808
0.16837767 -1.9461507 -0.062994689
0.24740584 -3.0880277 -0.12157346
0.14426291 -1.9450823 -0.062841341
0.1323254 -1.945931 -0.062841341
0.11928409 -1.9287634 -0.061921254
0.10689791 -1.9194871 -0.061410096
0.09531337 -1.9240969 -0.061614558
0.084658064 -1.9515857 -0.062994689
0.071475185 -1.9191335 -0.061307862
0.059485186 -1.9125484 -0.060950052
0.048575535 -1.9468229 -0.062687993
0.036647327 -1.9480828 -0.062739111
0.024126632 -1.9013358 -0.060336664
0.012127621 -1.8455223 -0.057474174
0.00080563838 -1.8345764 -0.056911901
-0.010501717 -1.8425361 -0.057320826
-0.022255365 -1.8783872 -0.059160996
-0.034096353 -1.8951901 -0.060029969
-0.045724377 -1.8949451 -0.060029969
-0.05731985 -1.8936307 -0.05997885
-0.10001708 -2.7325687 -0.10296729
-0.08076869 -1.8977736 -0.060234431
-0.10023439 -2.0558417 -0.068361856
-0.15632755 -2.8389552 -0.10853892
-0.18461834 -3.0143764 -0.11758643
-0.20297562 -3.011194 -0.1174842
-1.5681726 -21.218258 -1.0519844
-1.6980965 -21.20525 -1.051831
-0.30208066 -3.5133994 -0.14350218
-0.26669464 -2.8959167 -0.11186145
-0.28377205 -2.8872685 -0.11150364
-0.3590945 -3.434737 -0.13977072
-0.40938523 -3.6955042 -0.15331641
-0.44764513 -3.8258362 -0.16016594
-0.47931543 -3.889425 -0.1635907
-0.32683572 -2.5275984 -0.09345974
-0.34772259 -2.5651286 -0.095504373
-0.55209184 -3.8888421 -0.16405074
-0.45122018 -3.0457048 -0.12060227
-0.47387236 -3.0685391 -0.12193128
-0.49443892 -3.0764196 -0.12249355
-0.60333663 -3.6111305 -0.15040281
-0.5425809 -3.1301417 -0.12561162
-3.569488 -19.83193 -0.99437678
-3.9119802 -20.994669 -1.0560737
-0.83353704 -4.3307185 -0.1887397
-0.51899087 -2.6124384 -0.099338062
-0.52998483 -2.5847485 -0.098060168
-0.89965308 -4.2511373 -0.18541718
-0.90867877 -4.1674805 -0.18132791
-4.6991673 -20.912455 -1.0600606
-4.6910572 -20.293577 -1.0290844
-5.2339635 -22.024992 -1.1217064
-0.67830348 -2.7827523 -0.10961235
-0.69803679 -2.7891936 -0.11017463
-0.72508949 -2.8235464 -0.11221926
-0.73348552 -2.7852459 -0.1104302
-0.60877216 -2.2562327 -0.082623176
-0.60981011 -2.2062566 -0.080169618
-0.91431642 -3.2286186 -0.13476136
-0.75095934 -2.5918467 -0.10112712
-0.75405842 -2.5441072 -0.098826908
-0.69307005 -2.2871456 -0.085332319
-0.80090714 -2.5852156 -0.10153605
-0.81222773 -2.5659726 -0.10076931
-0.83595538 -2.5856438 -0.10209832
-0.86747777 -2.6278772 -0.10465411
-0.6961742 -2.0670362 -0.074649103
-0.62530106 -1.8200386 -0.061512329
-0.70130515 -2.0008574 -0.071531035
-1.1865398 -3.3175638 -0.14334883
-0.72272432 -1.9836571 -0.071070991
-0.7582081 -2.0419002 -0.074495755
-1.5485595 -4.0899029 -0.18684842
-7.9217768 -20.52767 -1.0891967
-1.1847275 -3.0174928 -0.12893414
-1.2002521 -3.002749 -0.12852523
-1.358785 -3.3394001 -0.14754032
-1.3769554 -3.3254642 -0.14723362
-1.1815962 -2.8053031 -0.11881321
-1.7518753 -4.0875583 -0.19063099
-1.2901989 -2.9608567 -0.12832075
-1.3099617 -2.9565363 -0.12852523
-1.7746855 -3.9389946 -0.18413928
-1.7513901 -3.8245308 -0.17831208
-0.85694337 -1.842814 -0.067032844
-0.87037039 -1.8420347 -0.067288421
-0.87127161 -1.8150575 -0.066061638
-0.88414508 -1.813267 -0.066266105
-0.88638008 -1.7899137 -0.065243788
-0.9184584 -1.8263638 -0.067646228
-0.92146355 -1.8046883 -0.066726148
-0.93620044 -1.8060914 -0.067135073
-1.4877577 -2.8261135 -0.12648059
-0.95923537 -1.7962282 -0.067237303
-0.96309358 -1.777142 -0.066470563
-0.97157115 -1.7668251 -0.066214986
-0.97557473 -1.7486243 -0.065499365
-1.4836344 -2.6201468 -0.11712638
-1.4553839 -2.5339365 -0.11257707
-1.4578252 -2.5025275 -0.11124806
-1.4878947 -2.5184648 -0.11273042
-1.5012653 -2.5058618 -0.11252595
-1.10465 -1.819052 -0.07193996
-1.5041273 -2.442193 -0.10981682
-1.4926201 -2.3905725 -0.10726102
-2.5745847 -4.0661263 -0.2093394
-5.1535559 -8.0276241 -0.45127076
-1.662758 -2.5568824 -0.1191199
-1.4441571 -2.1914909 -0.097344548
-1.4292713 -2.1402447 -0.094737634
-1.4272542 -2.1091094 -0.093357511
-1.3542652 -1.9751555 -0.085587896
-1.3190328 -1.8987556 -0.081345282
-1.3295081 -1.8889935 -0.081243053
-1.3410738 -1.8808002 -0.081243053
-1.3596112 -1.8822476 -0.081856437
-1.3445783 -1.8376143 -0.079556227
-1.3820118 -1.8646193 -0.081805326
-1.8188184 -2.4221516 -0.11804647
-1.8027976 -2.3704174 -0.11543956
-1.5209745 -1.9749087 -0.09059725
-1.5914489 -2.0403225 -0.095453262
-1.6274754 -2.0602887 -0.097395658
-1.6375897 -2.0471456 -0.0971912
-1.6689889 -2.0603313 -0.098724678
-1.6777972 -2.0454206 -0.098417982
-2.5273106 -3.0418994 -0.16543087
-2.5099118 -2.9835486 -0.16256839
-2.5113282 -2.9483299 -0.16123937
-2.5117548 -2.9124508 -0.15985924
-2.5538905 -2.9248106 -0.16175053
-2.1251435 -2.4041669 -0.12724732
-2.1558456 -2.408937 -0.1284741
-2.1316781 -2.3527522 -0.12550938
-2.1967258 -2.3948073 -0.12934308
-2.1284363 -2.2920327 -0.12310694
-2.2040498 -2.3443937 -0.12770736
-2.3726802 -2.4928148 -0.13915733
-2.4260573 -2.5177503 -0.1419687
-2.4435532 -2.5049608 -0.14212205
-2.4988899 -2.530411 -0.14503564
-3.2489431 -3.249316 -0.19819614
-2.6128986 -2.5816536 -0.15101621
-2.6437037 -2.5802164 -0.15208964
-2.6566091 -2.5611746 -0.15188517
-2.6628695 -2.5358753 -0.15122066
-3.1513493 -2.964118 -0.18444598
-3.1694777 -2.944726 -0.18444598
-3.002018 -2.7551067 -0.17156477
-3.2194374 -2.91835 -0.18541718
-3.2588656 -2.9178543 -0.18689954
-2.8180079 -2.4923635 -0.15556552
-2.8362572 -2.4776528 -0.15576997
-3.6501088 -3.1488953 -0.20974833
-3.627543 -3.0908258 -0.20693696
-3.3147364 -2.7895169 -0.18475267
-4.2183199 -3.505537 -0.24374038
-3.3579841 -2.7562311 -0.18536606
-3.4904561 -2.8292456 -0.19298232
-3.4040318 -2.724798 -0.18618391
-3.5727153 -2.8239639 -0.19610038
-11.054873 -8.6252947 -0.68067878
-2.9907632 -2.3051629 -0.15628113
-2.9961069 -2.2801185 -0.15571886
-3.0164299 -2.2664893 -0.15612778
-3.0286756 -2.2467484 -0.15602556
-3.0552988 -2.2375598 -0.15684341
-3.0827324 -2.2287135 -0.15771239
-3.0621998 -2.1854007 -0.15556552
-3.0731018 -2.1648457 -0.15541217
-3.1043704 -2.1584859 -0.15653671
-4.3101611 -2.9572718 -0.23055248
-4.5374746 -3.0723903 -0.2434848
-4.5911217 -3.0677876 -0.24563166
-4.6148624 -3.0428569 -0.24593836
-4.6192131 -3.0052278 -0.24506938
-5.781569 -3.7108159 -0.31463808
-5.7038107 -3.6117091 -0.30855528
-5.7250171 -3.5761144 -0.30850416
-23.780972 -14.648333 -1.3925693
-23.856747 -14.493843 -1.3917515
-3.8057358 -2.2814138 -0.19011983
-3.83428 -2.2666552 -0.19098881
-3.8981664 -2.272243 -0.19395353
-3.9276233 -2.2572348 -0.19487362
-3.8605783 -2.1873293 -0.19011983
-3.8547418 -2.1528916 -0.18899529
-3.8495038 -2.1190898 -0.18792185
-3.9230127 -2.1282742 -0.19144885
-3.9359977 -2.1041629 -0.19144885
-3.9576719 -2.0846243 -0.19196001
-4.0235825 -2.087887 -0.19502696
-4.13237 -2.1122255 -0.20054747
-4.3656125 -2.1976955 -0.21317309
-4.3611174 -2.1619999 -0.21215077
-7.6406155 -3.7285964 -0.39816138
-4.3864198 -2.107887 -0.21209966
-7.7787933 -3.6785159 -0.40342632
-5.7258272 -2.6651642 -0.28626877
-5.7348084 -2.6266553 -0.28585985
-26.486881 -11.930837 -1.4498702
-26.576023 -11.775373 -1.4507903
-5.8709941 -2.5593467 -0.2908181
-5.8241639 -2.4965308 -0.28734219
-5.8034778 -2.4456286 -0.28534868
-5.8257565 -2.4130292 -0.2857576
-5.8469286 -2.3798718 -0.28611541
-9.5838642 -3.8317389 -0.4912945
-9.6202097 -3.7779706 -0.49201012
-23.266764 -8.9709835 -1.239324
-23.290548 -8.8163862 -1.2376372
-23.257141 -8.6409683 -1.2328835
-28.363398 -10.340268 -1.5081935
-23.679276 -8.4685745 -1.2501606
-28.546583 -10.011917 -1.5113627
-28.635811 -9.8463116 -1.5128961
-11.526874 -3.8852818 -0.58560324
-7.8215909 -2.5834291 -0.38461569
-7.8192401 -2.5295501 -0.38364449
-28.811701 -9.1225023 -1.5098292
-28.838514 -8.9366779 -1.5082957
-28.878469 -8.7552147 -1.5075289
-29.095381 -8.6263924 -1.5162697
-29.55064 -8.5644503 -1.5377384
-9.7433605 -2.7599692 -0.48132691
-9.6908064 -2.6809685 -0.47764656
-12.890808 -3.4808478 -0.64643115
-9.6882095 -2.5526893 -0.47580639
-9.6978855 -2.4917049 -0.47549969
-17.949821 -4.4936528 -0.91008675
-13.097516 -3.1939547 -0.65302509
-13.318984 -3.1614873 -0.66365719
-13.122102 -3.0298431 -0.65230948
-11.507234 -2.5828574 -0.56663924
-11.492616 -2.5056098 -0.56505466
-11.524384 -2.4385583 -0.56592363
-17.85424 -3.6629937 -0.89587653
-17.805853 -3.5393589 -0.89219618
-17.863522 -3.4370167 -0.89408749
-19.746857 -3.6737506 -0.99105424
-19.795567 -3.5572846 -0.99243438
-18.002481 -3.121269 -0.89817673
-32.184361 -5.3759894 -1.6331207
-32.192089 -5.1744475 -1.6318427
-20.158197 -3.1138408 -1.0070025
-25.870262 -3.8334782 -1.3015832
-32.081154 -4.5525427 -1.6214662
-32.06197 -4.3493028 -1.6190637
-32.034573 -4.1455731 -1.6163034
-18.222168 -2.2450325 -0.90272605
-23.997759 -2.8068614 -1.1996582
-32.268242 -3.57324 -1.6246865
-32.922283 -3.441293 -1.6572473
-33.138577 -3.2584665 -1.6673172
-33.601486 -3.0959215 -1.6901147
-33.785023 -2.9038796 -1.6986001
-0 -0 -0
-38.098927 -2.8039935 -1.918296
-38.128368 -2.571043 -1.9189605
-38.128475 -2.3361278 -1.9181938
-38.11816 -2.1008136 -1.916967
-38.115368 -1.8661534 -1.9162003
-0 -0 -0
-38.054558 -1.395317 -1.9120599
-0 -0 -0
-38.053841 -0.92785925 -1.9112931
-37.897057 -0.69140154 -1.9030124
-0 -0 -0
-0 -0 -0
-0 0 -0
-0 0 -0
-0 0 -0
-0 0 -0
-38.024578 0.93975544 -1.9098108
-0 0 -0
-0 0 -0
-0 0 -0
-0 0 -0
-0 0 -0
-0 0 -0
-0 0 -0
-30.87574 -0.7811476 -1.9113935
-30.880949 -0.59170204 -1.9114566
-30.876015 -0.40210488 -1.9109528
-30.857943 -0.21250792 -1.9096935
-0 -0 -0
-30.829285 0.16602701 -1.9078676
-30.782778 0.35467198 -1.9050342
-30.738111 0.54280531 -1.9023896
-30.683317 0.73019034 -1.8991784
-30.72315 0.91978925 -1.9020119
-30.590263 1.1037171 -1.8940153
-30.661688 1.2947199 -1.8989896
-30.531549 1.4769506 -1.8913078
-30.49102 1.6625768 -1.8893559
-30.450359 1.8478217 -1.887467
-30.441435 2.0348265 -1.8876559
-30.393539 2.2190304 -1.8854522
-30.327616 2.4013839 -1.8821779
-30.410757 2.5958273 -1.8884114
-30.327667 2.7762806 -1.8841928
-30.395485 2.9706631 -1.8896078
-30.371721 3.1565945 -1.889293
-30.364677 3.3443127 -1.8901114
-30.348541 3.5311406 -1.8904263
-30.27083 3.71049 -1.8869003
-30.236605 3.8947563 -1.8862077
-30.109278 4.0663214 -1.8796594
-30.013599 4.2410784 -1.8751888
-0 0 -0
-29.925756 4.6039128 -1.8730481
-29.887089 4.7858691 -1.8724184
-29.882757 4.9734225 -1.8740555
-29.877249 5.1611028 -1.8756926
-29.904943 5.3550591 -1.8795334
-29.91568 5.546638 -1.8823669
-29.875204 5.7289653 -1.881989
-29.943262 5.9327273 -1.8886633
-30.047094 6.1451383 -1.8977302
-30.199247 6.3695493 -1.9100083
-0 0 -0
-30.334049 6.7878218 -1.9239235
-30.339485 6.9847913 -1.9270089
-30.385405 7.1919661 -1.9328016
-30.349432 7.3803945 -1.9333682
-0 0 -0
-30.48184 7.8099861 -1.9480391
-30.660179 8.0564737 -1.9628358
-30.640041 8.2524948 -1.9647876
-30.684072 8.4666224 -1.9710212
-30.495167 8.6162062 -1.9620801
-30.805084 8.9082308 -1.9859438
-30.824493 9.1191626 -1.990855
-30.954235 9.3644772 -2.0031331
-30.902866 9.5562963 -2.0035739
-30.903603 9.7646761 -2.0075407
-0 0 -0
-30.861071 10.169412 -2.0128298
-31.230389 10.503972 -2.0416045
-31.204996 10.709006 -2.0442491
-31.198044 10.921048 -2.0482159
-31.310915 11.176687 -2.0603051
-31.293327 11.387366 -2.0637681
-31.278076 11.599638 -2.0674832
-31.232454 11.801215 -2.0692461
-31.143621 11.986538 -2.0681758
-31.004442 12.151914 -2.0637681
-30.874607 12.320102 -2.0600533
-30.735554 12.483775 -2.0557716
-30.62425 12.658025 -2.053442
-30.444807 12.803138 -2.0465159
-30.263823 12.946134 -2.0395267
-30.086809 13.089383 -2.0328524
-29.896404 13.225297 -2.0252967
-29.773733 13.390069 -2.0224633
-29.620213 13.540142 -2.0175521
-29.495844 13.702712 -2.0147188
-29.330887 13.845522 -2.0091147
-29.234581 14.020054 -2.0083592
-29.025984 14.139729 -1.999796
-28.805393 14.251622 -1.9904143
-28.693325 14.416003 -1.9887142
-28.557213 14.567756 -1.9853771
-28.430952 14.723888 -1.9827956
-28.276468 14.864625 -1.9782621
-28.11957 15.003081 -1.9736027
-27.995388 15.158231 -1.971336
-27.891356 15.323956 -1.9705803
-27.671276 15.424833 -1.9615135
-27.530935 15.568786 -1.9582393
-27.346586 15.686768 -1.9518169
-27.195473 15.82265 -1.9478501
-27.062634 15.968426 -1.9452686
-26.935026 16.116756 -1.9431278
-26.814297 16.268782 -1.9415537
-26.667215 16.404245 -1.9380906
-26.587229 16.580765 -1.9396647
-26.442812 16.716925 -1.9365165
-26.3347 16.875629 -1.9361387
-26.201363 17.017872 -1.9339349
-26.08478 17.170639 -1.9330534
-25.948212 17.309877 -1.9307238
-25.848953 17.473797 -1.9312904
-25.602921 17.537325 -1.9207124
-25.472694 17.678728 -1.9190123
-25.219238 17.733088 -1.9078676
-25.148159 17.914711 -1.9108269
-25.009438 18.048239 -1.9086231
-24.884529 18.191341 -1.9075527
-24.737951 18.31815 -1.9048452
-24.612312 18.460012 -1.9038378
-24.448513 18.572651 -1.899871
-24.312737 18.705883 -1.8981709
-24.153416 18.82036 -1.894645
-24.013977 18.949661 -1.892756
-23.843456 19.053663 -1.8884114
-23.713682 19.18956 -1.887404
-23.556892 19.303076 -1.8842558
-23.388853 19.406469 -1.880226
-23.225016 19.512381 -1.876574
-23.096491 19.647408 -1.8758814
-22.929373 19.749025 -1.8720406
-22.772411 19.858517 -1.8690813
-22.620955 19.972111 -1.8666257
-22.434734 20.054001 -1.8612736
-22.243925 20.130341 -1.8555439
-22.083931 20.233414 -1.8524586
-21.968878 20.377359 -1.8532771
-0 0 -0
-21.776474 20.701801 -1.8584403
-21.65048 20.836414 -1.8585662
-21.543667 20.989759 -1.8604552
-21.417313 21.124357 -1.8607069
-21.274582 21.242682 -1.8595736
-21.110147 21.338764 -1.8565513
-20.988583 21.477884 -1.8574328
-20.810654 21.558874 -1.8532771
-20.684177 21.692659 -1.8538438
-20.528105 21.795193 -1.851766
-20.392626 21.919279 -1.8516401
-20.246943 22.032236 -1.8506327
-20.113386 22.158272 -1.8508215
-19.97105 22.27458 -1.8502549
-19.840616 22.404171 -1.8508844
-19.715916 22.540514 -1.8521438
-0 0 -0
-0 0 -0
-19.359419 22.972864 -1.8581884
-19.244911 23.123436 -1.8608329
-0 0 -0
-18.92951 23.320665 -1.8578106
-18.768583 23.414572 -1.8560476
-18.604738 23.504253 -1.8540328
-18.437429 23.588873 -1.851703
-18.258806 23.658106 -1.84824
-18.113298 23.769693 -1.84824
-17.967709 23.881186 -1.848303
-12.50455 16.834225 -1.2858392
-17.667986 24.092634 -1.8477362
-17.506363 24.181997 -1.8462881
-17.348372 24.275967 -1.8452806
-17.208294 24.395006 -1.8462881
-17.003538 24.421507 -1.8402435
-16.827936 24.488365 -1.8374101
-16.635908 24.530037 -1.8327507
-16.47953 24.623358 -1.832121
-16.294584 24.67321 -1.8282802
-0 0 -0
-15.96791 24.836054 -1.8256357
-0 0 -0
-11.419331 18.250023 -1.3210365
-11.34016 18.373251 -1.3250033
-11.432206 18.779211 -1.3498743
-11.453418 19.076603 -1.3666229
-11.439371 19.32085 -1.3794048
-11.351804 19.444115 -1.3833085
-14.77932 25.675276 -1.8318691
-9.6237535 16.958904 -1.1930293
-0 0 -0
-14.28928 25.915873 -1.8299172
-0 0 -0
-11.246083 21.002199 -1.4658554
-10.806365 20.482058 -1.4238578
-10.950683 21.067783 -1.4608182
-10.790731 21.07506 -1.4565995
-10.95647 21.726334 -1.4979674
-0 0 -0
-10.738133 21.959564 -1.5050193
-10.570289 21.956697 -1.500234
-10.440495 22.031963 -1.5009896
-9.3272552 19.999039 -1.3550375
-10.105232 22.018742 -1.4912931
-9.9609022 22.06032 -1.4899079
-9.8087444 22.083628 -1.4873263
-9.690237 22.182724 -1.4900337
-0 0 -0
-0 0 -0
-10.008042 24.110508 -1.6097926
-10.00957 24.538324 -1.6347896
-9.8476782 24.571489 -1.6329007
-9.988471 25.372505 -1.6831465
-10.228842 26.4582 -1.7524706
-10.101368 26.612839 -1.7587042
-10.234407 27.470184 -1.8122871
-10.091706 27.603703 -1.8170724
-9.9420223 27.72053 -1.8207873
-9.8535442 28.013554 -1.8363396
-9.6746378 28.053673 -1.8350173
-9.5000839 28.10589 -1.8345766
-9.3305883 28.173126 -1.8352063
-9.149847 28.206114 -1.8336321
-8.9763031 28.260775 -1.8335692
-8.7982845 28.301025 -1.8326247
-8.6131401 28.31724 -1.8301691
-8.3993864 28.235634 -1.821354
-8.1245317 27.937815 -1.7984349
-7.5303669 26.500093 -1.7009026
-7.3633533 26.530413 -1.6998951
-7.1993828 26.571241 -1.6996433
-6.9132528 26.149851 -1.6692942
-6.6883836 25.942444 -1.6530493
-6.4641337 25.72456 -1.6362379
-6.2449474 25.513636 -1.6199929
-6.0609827 25.436914 -1.612563
-5.9092984 25.493071 -1.6138223
-5.7532034 25.530796 -1.6139483
-5.596868 25.567566 -1.6140742
-5.4425797 25.614117 -1.6148927
-5.2891397 25.665602 -1.6160891
-5.1339045 25.709316 -1.6168447
-2.8573415 14.781456 -0.91264737
-2.7179825 14.538741 -0.89596176
-2.610096 14.452023 -0.88935047
-2.5121167 14.414673 -0.88595033
-2.4087422 14.341235 -0.88028353
-2.3106651 14.293676 -0.87631673
-2.2178602 14.275042 -0.87423891
-2.1271374 14.267652 -0.87291664
-2.0276973 14.197445 -0.86762762
-1.912316 14.002953 -0.85446799
-1.8277785 14.025309 -0.85516059
-1.7725403 14.284855 -0.87096477
-1.6881285 14.323214 -0.87272775
-1.6004325 14.335286 -0.8728537
-1.5143269 14.362701 -0.87398708
-1.4271563 14.381655 -0.87461668
-1.3393477 14.395109 -0.87493151
-1.2648176 14.56214 -0.88500589
-1.1811423 14.640256 -0.88947636
-1.093737 14.680071 -0.89155424
-1.0116055 14.803001 -0.89892107
-1.5758566 25.340595 -1.564647
-1.1293232 20.157276 -1.2365378
-0.72100621 14.459278 -0.87619084
-0.63327527 14.486362 -0.877639
-0.56788653 15.115289 -0.91711789
-0.45894036 14.603767 -0.88462812
-0.36919841 14.60132 -0.88431329
-0.27919769 14.582356 -0.88299102
-0.18880613 14.51394 -0.87858349
-0.099195853 14.434985 -0.8735463
-0.010619535 14.431331 -0.87329447
0.078090489 14.461063 -0.8751834
0.16683193 14.46131 -0.87524635
0.25570258 14.467998 -0.87575006
0.34705839 14.574909 -0.88261324
0.43645194 14.571507 -0.88255024
0.526932 14.598476 -0.88443917
0.61881167 14.64981 -0.88790226
0.7181868 14.842117 -0.90030628
0.81195903 14.887258 -0.90345454
1.5088227 24.862762 -1.5342979
1.6616821 24.858017 -1.5346128
1.8137407 24.841381 -1.534235
1.9651065 24.816851 -1.5334164
2.1156454 24.784437 -1.5321572
2.2675891 24.769995 -1.5320941
2.4205029 24.765549 -1.5327238
2.5734475 24.760157 -1.5333534
2.7247782 24.738941 -1.5330386
2.8766377 24.722748 -1.5331016
3.0279152 24.701658 -1.5329127
3.1777673 24.669746 -1.5320941
3.3258729 24.626047 -1.530583
2.2352312 15.817109 -0.97063786
2.3387969 15.847526 -0.97347128
3.7855744 24.606031 -1.5334795
2.3407476 14.616352 -0.89671731
4.0911751 24.581352 -1.5349905
4.2456636 24.577421 -1.5363758
4.3990269 24.565643 -1.5373203
4.5498576 24.539171 -1.5373832
4.699214 24.504911 -1.5370054
4.852006 24.488342 -1.5378239
5.0071716 24.482555 -1.5393981
5.1632719 24.479691 -1.541224
5.3186779 24.47193 -1.5427982
5.4724393 24.455391 -1.5438685
5.6217203 24.418434 -1.5436797
5.7700639 24.377653 -1.5433019
5.9174113 24.333061 -1.5427352
6.0644293 24.28758 -1.5421685
6.2091298 24.233477 -1.5410981
6.3551707 24.18527 -1.5404685
4.2983899 15.958418 -1.0055203
4.3946352 15.925971 -1.0051426
6.7992659 24.064196 -1.5404685
5.9199142 20.470861 -1.3072472
4.3345604 14.650895 -0.92675149
7.2687988 24.02667 -1.5465131
7.4328928 24.035967 -1.5501021
7.5658021 23.944227 -1.5470798
7.7156439 23.906851 -1.5477095
7.8793664 23.911192 -1.5511725
8.0434322 23.914423 -1.5546355
8.2130175 23.931641 -1.559106
8.3930073 23.975937 -1.5654655
8.5587511 23.976622 -1.5689915
8.7135572 23.945227 -1.5704397
8.8637877 23.900667 -1.5710694
9.0183859 23.867304 -1.5725175
9.1833038 23.859951 -1.5757917
9.3517475 23.859837 -1.5796325
9.5201654 23.857622 -1.5834104
9.7016754 23.885677 -1.5893291
9.8758821 23.89303 -1.5939255
10.044353 23.88442 -1.5975145
6.3150744 14.762056 -0.97580099
6.3832383 14.671781 -0.97227496
10.551728 23.852476 -1.6083444
10.717124 23.830063 -1.6113038
10.884301 23.810146 -1.6145149
11.052898 23.79179 -1.617915
11.21401 23.756014 -1.6201818
11.388046 23.746151 -1.6243374
11.563255 23.736839 -1.6286191
11.756038 23.761156 -1.6353563
11.947312 23.779539 -1.6417787
12.105694 23.730677 -1.6435417
12.276317 23.704693 -1.6470047
8.3888807 15.957508 -1.1002192
12.655076 23.718679 -1.6589051
12.814153 23.666035 -1.6607311
9.0050821 16.38994 -1.1426575
9.0986767 16.322172 -1.141776
8.3640108 14.790054 -1.0347989
9.2704811 16.160809 -1.1382499
9.3393545 16.051865 -1.134472
9.4452791 16.007151 -1.1354165
9.577652 16.006273 -1.1396352
14.40826 23.747688 -1.7152585
14.593443 23.723438 -1.7200438
9.914485 15.897556 -1.1448612
14.967727 23.675854 -1.7299923
15.124564 23.602055 -1.7313775
15.281058 23.527222 -1.7327627
10.170498 15.450218 -1.1298127
10.283384 15.41492 -1.1318905
15.971984 23.627264 -1.7621043
16.134705 23.555164 -1.7641191
16.292589 23.475399 -1.7656302
10.54952 15.002794 -1.1199272
16.671509 23.402941 -1.7756417
16.788513 23.263788 -1.7728082
16.91386 23.136972 -1.7709823
16.969986 22.917257 -1.7619153
17.106691 22.807911 -1.7615376
17.22579 22.675495 -1.7593968
17.375553 22.583611 -1.7605301
17.519318 22.483658 -1.7610968
0 0 -0
11.937477 14.938133 -1.1692286
0 0 -0
12.061698 14.719497 -1.1634358
12.118013 14.604504 -1.1600987
17.45294 20.773657 -1.6745833
17.578136 20.663897 -1.6743944
17.743023 20.600266 -1.6781093
17.988468 20.627909 -1.6895689
18.156313 20.564278 -1.6935357
18.42515 20.612465 -1.7070731
19.02339 21.020718 -1.7514632
19.129765 20.879313 -1.7493854
19.258196 20.762272 -1.7494483
19.384546 20.642988 -1.7493854
19.510843 20.523659 -1.7493854
15.677215 16.28957 -1.3891643
19.768196 20.289833 -1.750015
19.893721 20.169577 -1.7501409
20.021336 20.051369 -1.7505188
20.186562 19.970257 -1.7542967
20.288731 19.826488 -1.7525336
16.316429 15.750017 -1.3935719
16.440208 15.675776 -1.3959645
17.124546 16.128872 -1.4469659
20.875135 19.421179 -1.7616636
21.017424 19.314335 -1.7636783
17.20718 15.619087 -1.4289579
21.244684 19.047636 -1.7629857
21.370123 18.924864 -1.7637414
21.456545 18.767756 -1.7612857
21.562235 18.627918 -1.7605301
21.695868 18.512108 -1.7621672
21.773178 18.348408 -1.7592078
21.822451 18.162113 -1.7540448
21.981283 18.067162 -1.7579486
22.107224 17.944527 -1.7592078
21.936577 17.583824 -1.7365406
22.016668 17.427214 -1.7343369
0 0 -0
0 0 -0
21.977303 16.747398 -1.7060657
21.987139 16.542629 -1.6987617
22.052177 16.380627 -1.6959283
22.086279 16.196611 -1.6907653
22.138355 16.026844 -1.6871133
22.232218 15.887802 -1.6867985
22.347227 15.763744 -1.6881837
22.485302 15.655412 -1.6913949
22.695269 15.595718 -1.700147
22.910301 15.537395 -1.7092769
23.091463 15.454258 -1.7158252
23.233322 15.343631 -1.7194142
23.332884 15.204599 -1.719855
23.773281 15.284597 -1.7459223
23.938253 15.183879 -1.7512743
24.118111 15.091239 -1.7577597
23.987747 14.805629 -1.7412629
24.2367 14.754694 -1.7529744
24.50646 14.713587 -1.766197
24.88225 14.732265 -1.7871642
25.083359 14.644224 -1.7952867
25.397629 14.619494 -1.8116574
25.683018 14.574706 -1.8258874
26.316332 14.721374 -1.8652405
26.872862 14.816954 -1.8988636
27.325434 14.84859 -1.924868
27.626303 14.793246 -1.9399166
28.009605 14.778077 -1.9608209
28.239668 14.678662 -1.9707693
28.323872 14.502381 -1.9703915
28.389154 14.316632 -1.9687544
28.227976 14.01876 -1.9512502
28.268635 13.82337 -1.948102
28.276485 13.612859 -1.94275
28.299957 13.410893 -1.9385943
28.285837 13.192279 -1.9319201
28.386206 13.027631 -1.9333053
28.297335 12.777227 -1.9216568
28.315004 12.576618 -1.9175011
28.229763 12.331927 -1.9063563
28.355333 12.180145 -1.9098195
0 0 -0
28.065756 11.649899 -1.8799741
28.074797 11.452215 -1.8757555
28.134348 11.275652 -1.8750629
28.148214 11.08124 -1.871348
28.127245 10.874127 -1.8653663
28.13932 10.680796 -1.8617144
28.094908 10.467167 -1.8543476
28.120173 10.280532 -1.851766
28.024902 10.05119 -1.841188
28.006964 9.8512259 -1.8358989
27.944229 9.6368933 -1.8277135
27.913015 9.4348879 -1.8217318
27.923012 9.2477503 -1.8185836
27.870058 9.0408278 -1.8113426
27.788036 8.8261433 -1.8022758
27.835951 8.6536951 -1.801898
0 0 -0
27.58707 8.2064457 -1.778664
27.674278 8.0478888 -1.7811196
27.639618 7.8541965 -1.7756417
27.661325 7.6772485 -1.7739416
27.56053 7.4674425 -1.764308
27.630917 7.3048263 -1.7659451
27.688747 7.1386371 -1.7668266
27.684601 6.9566889 -1.7637414
27.721918 6.785502 -1.7634265
27.775652 6.6182833 -1.764245
27.868238 6.4599009 -1.7676451
27.860619 6.2782516 -1.7646228
27.975636 6.1240449 -1.7695971
28.021471 5.9541411 -1.7701638
28.094622 5.7897477 -1.7725564
28.133533 5.6180353 -1.7728082
28.19981 5.4515572 -1.7748861
28.241558 5.2800746 -1.7754527
28.295033 5.1105909 -1.7768379
28.341589 4.9396219 -1.7778454
28.406796 4.7715802 -1.7801121
28.460169 4.601172 -1.7816863
28.520411 4.4315143 -1.7837641
28.594444 4.2634978 -1.7867864
28.64378 4.0913529 -1.7882975
28.692076 3.9187624 -1.7898088
28.734385 3.7450883 -1.791005
28.769697 3.5703051 -1.7918236
28.792055 3.3938272 -1.7918866
28.81432 3.21732 -1.7920125
28.839474 3.0410862 -1.7923902
7.5806656 0.75207353 -0.44343439
7.5781813 0.70489788 -0.44299364
7.5435872 0.65501666 -0.44053802
7.4151587 0.59803998 -0.43216372
7.4107265 0.55193675 -0.43166
7.348258 0.50196236 -0.42750433
7.3840704 0.45890951 -0.42958215
7.341907 0.41107997 -0.42674875
7.3213654 0.36487931 -0.42530057
7.3434076 0.32082167 -0.42655984
7.3402514 0.27556986 -0.42624503
7.3557692 0.230965 -0.42712653
7.3640318 0.18600328 -0.42756727
7.3580499 0.140681 -0.42712653
7.3557806 0.095491178 -0.42693764
7.3532343 0.050334506 -0.42674875
7.3923273 0.0052446816 -0.42920437
7.4251542 -0.040290818 -0.43128219
7.4537077 -0.086183019 -0.43310818
7.5398526 -0.13344841 -0.43858612
7.6266923 -0.18179786 -0.44412699
7.6693263 -0.22990444 -0.44689745
7.7475605 -0.27983603 -0.45193464
25.021933 -1.0566493 -1.5428611
24.985073 -1.2087148 -1.5409722
24.963234 -1.3612372 -1.5400907
20.298248 -1.2318939 -1.2457937
24.977512 -1.6696681 -1.5421685
24.989691 -1.8245668 -1.5436168
24.984989 -1.9784178 -1.5440575
24.978346 -2.1321948 -1.5444353
19.946787 -1.8261228 -1.2265265
19.916334 -1.9466354 -1.2253301
19.910963 -2.0695252 -1.2257708
25.18634 -2.7740483 -1.5614357
10.578457 -1.2310964 -0.63472116
10.570704 -1.2959814 -0.63472116
10.556614 -1.3600527 -0.63434339
10.556972 -1.4260032 -0.63491005
10.565811 -1.493266 -0.63604343
10.559411 -1.5585055 -0.63623232
13.843282 -2.1299303 -0.84647149
13.871342 -2.2214582 -0.84911597
24.814672 -4.1300039 -1.5499132
14.415406 -2.4903789 -0.88576144
13.609029 -2.4371815 -0.83507484
24.426323 -4.5289359 -1.5301423
24.358868 -4.6712103 -1.5276237
24.229891 -4.8008018 -1.5212013
24.148155 -4.9387856 -1.5178641
24.045132 -5.0716224 -1.5132048
23.91116 -5.1968107 -1.5065935
23.783377 -5.3220725 -1.500423
23.697754 -5.4558144 -1.4970229
23.666746 -5.6018076 -1.4972117
23.559196 -5.7292328 -1.4924893
23.496487 -5.8669124 -1.4907264
23.480349 -6.0161753 -1.4920486
8.0868025 -2.1252468 -0.49034309
8.1988878 -2.2085667 -0.49852851
7.9571724 -2.1959212 -0.48360586
7.8302193 -2.2126851 -0.47617602
7.9468832 -2.2983928 -0.48473924
8.0158911 -2.3717415 -0.49021718
7.9925904 -2.4182806 -0.48965049
7.9842758 -2.4693406 -0.49009123
8.2420959 -2.6045799 -0.50816208
22.379602 -7.2227697 -1.4464622
7.8654318 -2.592149 -0.48530591
22.259012 -7.4866772 -1.4444473
22.191889 -7.6159883 -1.4430621
22.098583 -7.7358551 -1.4399768
18.967724 -6.7708516 -1.2334526
21.890385 -7.9658456 -1.432484
21.819572 -8.0920315 -1.4310359
18.242378 -6.8930793 -1.1931552
18.512695 -7.1253285 -1.2143112
18.479776 -7.2431564 -1.2150669
18.604618 -7.4240966 -1.2265894
21.277212 -8.6422396 -1.4117056
18.287062 -7.5588269 -1.211226
21.118038 -8.8810282 -1.4081796
21.074158 -9.0151491 -1.4089352
21.029428 -9.149065 -1.4096907
20.961943 -9.2730827 -1.4089352
20.95562 -9.4244509 -1.4124613
21.026289 -9.6117716 -1.4214022
21.079151 -9.7927437 -1.4292098
20.996105 -9.9112482 -1.4276357
20.787313 -9.9691181 -1.4173095
20.679096 -10.073751 -1.4140353
20.599005 -10.191595 -1.4127761
20.522707 -10.311076 -1.4118316
20.462608 -10.438621 -1.4120834
20.394629 -10.562145 -1.4118316
20.311768 -10.677797 -1.4105723
20.213289 -10.784845 -1.4082426
12.9642 -7.0197697 -0.89293945
19.955212 -10.963841 -1.3993016
19.856182 -11.068585 -1.3970349
19.754881 -11.171544 -1.3946422
12.504936 -7.1734319 -0.87234998
12.602159 -7.332334 -0.88267618
12.613661 -7.4429941 -0.88683188
19.39769 -11.60687 -1.3889754
18.504419 -11.227154 -1.3283404
12.364864 -7.6064553 -0.87870944
18.838634 -11.748597 -1.3635377
18.761131 -11.860767 -1.3631599
18.679598 -11.970276 -1.3625302
18.59408 -12.077056 -1.3616487
18.474611 -12.161288 -1.3582486
18.348999 -12.240634 -1.3544078
18.22311 -12.318896 -1.350567
18.088718 -12.390437 -1.3460964
17.965618 -12.46876 -1.3425075
17.860199 -12.558668 -1.3403037
17.738096 -12.636173 -1.3368406
17.573633 -12.682284 -1.3301034
17.410887 -12.728033 -1.3234921
17.224182 -12.754447 -1.3149918
17.137615 -12.853905 -1.3143622
17.017891 -12.928028 -1.311151
16.919262 -13.017599 -1.3096398
16.817026 -13.103993 -1.3078768
16.713585 -13.189005 -1.3060509
16.573868 -13.244583 -1.3013285
16.437981 -13.302083 -1.296921
16.303558 -13.359681 -1.2926394
16.167513 -13.414858 -1.2882318
16.026058 -13.464375 -1.2833836
15.919576 -13.54241 -1.2814317
15.811226 -13.618342 -1.2793539
15.688254 -13.680994 -1.2760797
15.537428 -13.71821 -1.2704759
15.40162 -13.767396 -1.2661313
15.305015 -13.850924 -1.2651238
15.222683 -13.94727 -1.2653757
15.114134 -14.019373 -1.2634238
15.005275 -14.09067 -1.2614719
14.903343 -14.168035 -1.2601496
14.796714 -14.240528 -1.2584496
14.652584 -14.276031 -1.2534753
14.518526 -14.320116 -1.2493826
14.388012 -14.366621 -1.2456048
14.318541 -14.473789 -1.2473048
14.188307 -14.519261 -1.2435899
14.048351 -14.553628 -1.2389934
13.940192 -14.620051 -1.2372934
13.81943 -14.67262 -1.23446
13.716904 -14.743985 -1.2333267
6.9122219 -7.5221028 -0.60733151
6.9061842 -7.6087122 -0.61110938
12.977487 -14.474565 -1.1893144
6.7448034 -7.6166801 -0.60468698
6.6893992 -7.6481566 -0.60386848
6.6175518 -7.6603599 -0.60147578
13.205916 -15.477281 -1.2464232
12.510011 -14.845229 -1.1876143
12.976047 -15.59138 -1.2425824
6.5036111 -7.9129748 -0.60903156
12.782481 -15.747892 -1.2424566
12.668136 -15.804223 -1.2406936
12.545528 -15.849572 -1.238112
2.0223873 -2.5880234 -0.17004164
1.9973227 -2.5885327 -0.16909716
1.9741431 -2.5912137 -0.16834158
1.9582067 -2.6032782 -0.16834158
1.9427915 -2.6160457 -0.16840455
1.9284738 -2.6303315 -0.16859344
1.9228326 -2.656666 -0.1697268
11.444005 -16.014088 -1.2046148
11.275919 -15.985328 -1.196996
11.166217 -16.037834 -1.1957368
10.045086 -14.618105 -1.0818336
10.963526 -16.16622 -1.19517
10.840811 -16.198351 -1.1925255
10.658715 -16.139647 -1.1830808
10.57474 -16.228155 -1.1848438
10.486301 -16.310364 -1.186166
10.404737 -16.403896 -1.1883699
10.270535 -16.414129 -1.1844031
10.113014 -16.385118 -1.1776029
9.9157572 -16.288303 -1.1658914
10.059138 -16.75441 -1.1957368
9.6276693 -16.261051 -1.1550615
9.5372734 -16.336195 -1.1562579
9.4278946 -16.378838 -1.1551244
9.6153793 -16.944149 -1.1919588
9.5053844 -16.992376 -1.1912032
8.9166384 -16.172047 -1.1279237
8.864893 -16.314144 -1.1342202
8.782527 -16.401665 -1.1366129
8.596961 -16.294596 -1.1251533
8.4862309 -16.326672 -1.123705
8.4040861 -16.413967 -1.1262237
8.4187098 -16.694241 -1.1424056
8.0142488 -16.137764 -1.0995896
7.9185863 -16.193808 -1.1000934
8.077095 -16.77803 -1.1376203
7.9325376 -16.739794 -1.1315128
6.9134088 -14.823632 -0.99475336
7.4792376 -16.297092 -1.0941117
7.6226583 -16.882061 -1.1314497
7.5404005 -16.976854 -1.1347868
7.4616604 -17.081335 -1.1388166
7.3527718 -17.117626 -1.1381869
7.267015 -17.208389 -1.1413352
7.1708555 -17.2757 -1.1429093
7.3025837 -17.902472 -1.1826401
7.2063365 -17.981218 -1.1849698
7.0728374 -17.966593 -1.181003
6.9095592 -17.872814 -1.1717472
6.7282205 -17.726397 -1.1590283
6.623508 -17.77857 -1.1597838
6.547195 -17.908859 -1.1658285
6.4803133 -18.068941 -1.173888
6.1812186 -17.573608 -1.138124
6.0029898 -17.407413 -1.1245236
5.8887162 -17.422174 -1.1230755
6.1080389 -18.443279 -1.1885587
5.9377847 -18.304787 -1.1769103
5.773088 -18.176321 -1.1660174
5.6205635 -18.079885 -1.1573282
5.5022607 -18.090162 -1.1557541
5.3891659 -18.116886 -1.1553134
5.2706552 -18.124697 -1.1536763
5.2529197 -18.485977 -1.1752732
5.1578102 -18.584215 -1.1796178
4.0301719 -14.875097 -0.93512577
3.9429059 -14.914984 -0.93613321
4.6332159 -17.971491 -1.1337165
4.5756402 -18.209621 -1.1473798
4.4324989 -18.109394 -1.1390685
4.2905302 -18.00713 -1.1306942
4.2058783 -18.144924 -1.1379352
4.1444893 -18.39237 -1.1522911
4.0458579 -18.482773 -1.1565096
3.562705 -16.76763 -1.0443066
0.50425094 -2.4486752 -0.12055137
0.4763169 -2.3871295 -0.1163957
0.47302729 -2.4487994 -0.12017358
3.4221542 -18.304857 -1.1376833
0.50804806 -2.8148587 -0.14328162
0.49368018 -2.8346372 -0.14435203
0.47164842 -2.8100548 -0.14258902
0.45487526 -2.8158514 -0.14277792
0.43559673 -2.8057692 -0.14195937
0.41631195 -2.7945697 -0.14107786
0.40197963 -2.8168314 -0.14233716
0.38144666 -2.7955127 -0.140826
0.35499862 -2.7265463 -0.13629255
0.24213554 -1.9541674 -0.087054148
0.22815408 -1.9387667 -0.085983746
0.21857971 -1.9609591 -0.087306008
0.20518263 -1.9493606 -0.086487465
0.19242907 -1.9426378 -0.085983746
0.18161546 -1.9557066 -0.086739324
0.16892096 -1.94883 -0.086235605
0.15415005 -1.9150125 -0.084031843
0.14210014 -1.9119413 -0.083779983
0.13029794 -1.9117815 -0.083717018
0.11955637 -1.9284824 -0.084724456
0.1073861 -1.923201 -0.084346667
0.096080847 -1.9337915 -0.084976308
0.084344365 -1.9373358 -0.085165203
0.072380513 -1.9358222 -0.085039273
0.060281541 -1.9292473 -0.084598526
0.048164967 -1.9186062 -0.083905913
0.036315188 -1.9148742 -0.083654054
0.024226816 -1.8891149 -0.082016967
0.012449055 -1.8622822 -0.080316924
0.0010243581 -1.8653175 -0.080505818
-0.010619416 -1.9022148 -0.08283551
-0.031100117 -2.6675413 -0.13112944
-0.047625728 -2.676281 -0.13169612
-0.04567863 -1.9036925 -0.08296144
-0.057507869 -1.9083642 -0.083276264
-0.12893085 -3.5636051 -0.18779768
-0.70892996 -16.78466 -1.0227097
-0.8520636 -17.610371 -1.0751593
-0.95222569 -17.460314 -1.0660294
-1.1274563 -18.576841 -1.1369907
-1.157235 -17.309895 -1.0573403
-0.24453361 -3.3444314 -0.17438619
-0.23905772 -3.0145502 -0.15360785
-0.28318024 -3.3133357 -0.17262319
-0.35317352 -3.8541839 -0.20700191
-0.28926376 -2.9560018 -0.15020774
-0.30522969 -2.9333251 -0.14888549
-0.42471206 -3.8529823 -0.2073797
-0.44430897 -3.8156073 -0.20517594
-0.4400309 -3.5869517 -0.19081998
-0.4616493 -3.5812147 -0.19063109
-0.48281318 -3.5723803 -0.1902533
-0.36649543 -2.591032 -0.12791824
-0.38413504 -2.6005824 -0.12867382
-0.46791282 -3.039103 -0.15681905
-0.4849737 -3.02632 -0.1561894
-0.63935226 -3.8394182 -0.20838714
-0.5375331 -3.1096349 -0.16191918
-0.5574829 -3.1111901 -0.16223401
-3.6409483 -19.636627 -1.2228116
-3.2052381 -16.713625 -1.036499
-3.3127735 -16.719097 -1.038136
-0.5384869 -2.6311491 -0.13226281
-0.55153185 -2.6131473 -0.13131833
-0.86236793 -3.966289 -0.21890225
-4.4819798 -20.028866 -1.257694
-3.8175766 -16.581406 -1.0363101
-4.2447252 -17.932869 -1.1254681
-4.087975 -16.80969 -1.054255
-0.69109917 -2.7663372 -0.14271495
-0.71648175 -2.7949152 -0.14485575
-0.74300158 -2.8261807 -0.14718544
-1.0969532 -4.0714579 -0.22885066
-0.65445888 -2.3704512 -0.11796982
-0.93138403 -3.2951169 -0.17885669
-0.93800044 -3.2423618 -0.17577142
-0.74780804 -2.5264382 -0.12905161
-0.68671638 -2.2686577 -0.11236596
-0.78435689 -2.5351872 -0.13024794
-1.0560772 -3.3411279 -0.18389386
-6.054646 -18.759985 -1.2065036
-1.344993 -4.0805354 -0.23388785
-1.3690509 -4.0693679 -0.23369895
-0.72537369 -2.1125193 -0.10373979
-0.73238707 -2.0910733 -0.10260643
-1.196121 -3.3498089 -0.18723099
-1.4999022 -4.1208272 -0.2394917
-1.526547 -4.1152892 -0.23974356
-1.5556494 -4.1161146 -0.24043617
-1.5826684 -4.1111488 -0.240751
-1.1803191 -3.0104816 -0.16683044
-1.1580828 -2.9012184 -0.15990432
-1.3801637 -3.3970728 -0.19415711
-1.3986944 -3.3830061 -0.19377932
-1.2225078 -2.9060898 -0.16173029
-1.248559 -2.9178033 -0.16305254
-1.3010763 -2.9897068 -0.16853048
-1.3161664 -2.9743655 -0.16802676
-1.7596891 -3.9119418 -0.23344709
-1.5567032 -3.4045694 -0.1990054
-1.4451153 -3.1098411 -0.17917152
-1.4986771 -3.1740198 -0.18427165
-7.3591189 -15.344777 -1.036499
-1.9304322 -3.9619954 -0.24087693
-0.89787775 -1.8139462 -0.090517208
-0.90630275 -1.8030521 -0.090139419
-0.91372102 -1.7903448 -0.0896357
-0.92285335 -1.7811598 -0.089383841
-1.4589759 -2.774585 -0.16059692
-0.9413529 -1.7635372 -0.088943087
-0.9483546 -1.7507068 -0.088439368
-0.96244282 -1.7509778 -0.088880122
-2.0470455 -3.6715713 -0.22803213
-1.5198189 -2.6868262 -0.15757462
-10.148928 -17.692242 -1.2496345
-10.265325 -17.643438 -1.2506419
-10.383026 -17.596451 -1.2518382
-10.474402 -17.505005 -1.2498235
-5.0947862 -8.3967257 -0.58246046
-1.5361112 -2.496455 -0.14775212
-1.5651311 -2.5090005 -0.14938921
-0 -0 -0
-5.1953955 -8.106987 -0.57030827
-1.3359847 -2.0562563 -0.11752906
-1.369977 -2.0805314 -0.11998469
-1.3661021 -2.047179 -0.11809575
-1.4172029 -2.0958095 -0.12244032
-1.4210123 -2.0739 -0.12143288
-1.4240373 -2.0512033 -0.12036248
-1.3413054 -1.9069045 -0.10991034
-1.3593502 -1.9075799 -0.11060295
-1.4282629 -1.9785141 -0.11677349
-1.4609901 -1.9979126 -0.11897726
-1.4987595 -2.0233994 -0.12168474
-1.4919845 -1.9886161 -0.11966986
-1.4534473 -1.9126676 -0.11438083
-1.4602873 -1.8973854 -0.11387711
-1.539377 -1.9749871 -0.12080323
-1.574959 -1.9952765 -0.12319589
-1.6152083 -2.0206599 -0.1260293
-1.6344821 -2.0192454 -0.12672192
-2.953047 -3.6032753 -0.25674403
-1.6757073 -2.0190053 -0.12835899
