# .PCD v0.7 - Point Cloud Data file format
VERSION 0.7
FIELDS x y z
SIZE 4 4 4
TYPE F F F
COUNT 1 1 1
WIDTH 1586
HEIGHT 1
VIEWPOINT 0 0 0 1 0 0 0
POINTS 1586
DATA ascii
1.7173605 -4.4385033 -1.6649922
1.6884223 -4.4445577 -1.6633043
1.662764 -4.4592433 -1.6649922
1.6402242 -4.4826212 -1.6700561
1.6136428 -4.4952588 -1.6710688
1.5866553 -4.5068512 -1.671744
1.5592791 -4.5173917 -1.6720816
1.5279107 -4.5161748 -1.6680305
1.5031339 -4.534399 -1.6714064
1.4715029 -4.5318985 -1.6670178
1.4430975 -4.5390482 -1.6663426
1.4146597 -4.54602 -1.6656674
1.385368 -4.5501122 -1.6639795
1.3598413 -4.5666461 -1.6670178
1.3317953 -4.574904 -1.6670178
1.3062755 -4.5920434 -1.6703937
1.2793349 -4.6045065 -1.6720816
1.2525371 -4.6177201 -1.6741072
1.2246616 -4.6271386 -1.6747823
1.1976589 -4.6400342 -1.6768079
1.1687062 -4.6454701 -1.6761327
0.72016758 -2.939302 -1.0434924
0.70277435 -2.9464121 -1.0445052
0.68553382 -2.9543364 -1.0458555
0.66988057 -2.9695055 -1.0499066
0.65164739 -2.9735599 -1.0499066
0.63084203 -2.9655337 -1.0455179
0.61720175 -2.9914732 -1.0536201
0.59661883 -2.9841278 -1.049569
0.57990831 -2.9960494 -1.0526073
0.56047404 -2.9940002 -1.0505818
0.54041624 -2.9881203 -1.0472059
0.51996583 -2.9793258 -1.0428172
0.50511307 -3.0028813 -1.0502442
0.48321521 -2.9845529 -1.0424796
0.46489325 -2.9874618 -1.0424796
0.44307494 -2.9669843 -1.03404
0.4247281 -2.9687152 -1.0337024
0.40586582 -2.9666026 -1.0320145
0.38680151 -2.9625034 -1.0296513
0.36838412 -2.9629529 -1.0289762
0.35052842 -2.9679618 -1.0299889
0.33231077 -2.9700568 -1.0299889
0.31497204 -2.9804645 -1.0330272
0.29667833 -2.9823411 -1.0330272
0.2802121 -3.0037868 -1.0401165
0.26202136 -3.0082629 -1.0411294
0.24409042 -3.0163815 -1.0434924
0.22677259 -3.0337796 -1.0492314
0.20912135 -3.0492001 -1.0542953
0.19058417 -3.0532444 -1.055308
0.17200522 -3.0571756 -1.0563208
0.15329073 -3.0591135 -1.0566584
0.13447602 -3.0590563 -1.0563208
0.11541793 -3.0522988 -1.0536201
0.096148632 -3.0360148 -1.0475435
0.077590622 -3.0393705 -1.0485562
0.058664337 -3.0256727 -1.0434924
0.039934278 -3.0137401 -1.0391037
0.021421095 -3.0111046 -1.0380911
0.0029480443 -3.014003 -1.0391037
-0.01542265 -2.9894912 -1.0303265
-0.033692006 -2.9827516 -1.0279634
-0.052139699 -2.9909592 -1.0310017
-0.07068938 -2.999052 -1.03404
-0.089256853 -3.0042074 -1.0360655
-0.10836063 -3.0224168 -1.0428172
-0.12658882 -3.0141714 -1.0401165
-0.14562275 -3.0246205 -1.0441676
-0.16366963 -3.0142708 -1.0407917
-0.18204843 -3.0113306 -1.0401165
-0.19802459 -2.9725881 -1.026613
-0.21571471 -2.9638066 -1.0239123
-0.23404413 -2.964304 -1.0245875
-0.25278637 -2.9693775 -1.0269506
-0.27057403 -2.9630835 -1.0252627
-0.2889325 -2.9632411 -1.0259379
-0.31050304 -2.9941826 -1.0377535
-0.32270652 -2.9360805 -1.0174981
-0.34451163 -2.9667711 -1.0293137
-0.36373657 -2.9730105 -1.0323521
-0.38329086 -2.9809926 -1.0360655
-0.40119773 -2.975786 -1.0350528
-0.42023745 -2.9788606 -1.0370783
-0.43932998 -2.9818137 -1.0391037
-0.45718938 -2.9762707 -1.0380911
-0.47573984 -2.9752684 -1.0387663
-0.49583715 -2.9834361 -1.0428172
-0.51493329 -2.9849758 -1.0445052
-0.53257674 -2.9780536 -1.0431548
-0.55340868 -2.9886134 -1.0482187
-0.57562876 -3.0055008 -1.0556456
-0.59716368 -3.0176101 -1.0613846
-0.61190271 -2.9954438 -1.0546329
-0.62871945 -2.9842639 -1.0519321
-0.64602083 -2.9757507 -1.0502442
-0.66242063 -2.9634628 -1.0472059
-0.68501943 -2.9786074 -1.0542953
-0.6952734 -2.9404538 -1.0418046
-0.72929317 -3.001992 -1.0661108
-0.75817347 -3.0394742 -1.0816399
-0.76234448 -2.9782257 -1.0607095
-0.76985413 -2.9325204 -1.0455179
-0.79052246 -2.9377406 -1.0492314
-0.80253208 -2.9110551 -1.0411294
-0.82753593 -2.931442 -1.0505818
-0.85647619 -2.9642913 -1.0647604
-0.87624884 -2.9643967 -1.0667861
-1.2102209 -4.0042005 -1.4583883
-1.2367117 -4.002995 -1.4607514
-1.2768307 -4.0447025 -1.4793187
-1.2938274 -4.0126023 -1.4702039
-0.9959017 -3.0246401 -1.1002072
-1.0231347 -3.044349 -1.1099973
-1.0259236 -2.9917111 -1.0924428
-1.0405329 -2.9746974 -1.0883917
-1.0612948 -2.9753497 -1.0910923
-1.0798527 -2.9696665 -1.0914299
-1.0898794 -2.9409177 -1.0829903
-1.1105632 -2.9412203 -1.085691
-1.1265625 -2.9290791 -1.0836655
-1.1496614 -2.9352589 -1.0887293
-1.1523142 -2.8896766 -1.0738754
-1.1594061 -2.8563848 -1.0637478
-1.1765513 -2.8483469 -1.0634102
-1.1841627 -2.8176429 -1.0542953
-1.1969904 -2.7999372 -1.0502442
-1.2073942 -2.7770009 -1.0441676
-1.2255523 -2.7721231 -1.0451804
-1.2444675 -2.7688441 -1.0468683
-1.2626065 -2.7637248 -1.0478811
-1.2835034 -2.7644637 -1.051257
-1.2980326 -2.7514279 -1.0492314
-1.9188763 -4.0040092 -1.5505499
-1.326756 -2.7251356 -1.0451804
-1.346789 -2.7236941 -1.0478811
-1.3575641 -2.7036014 -1.0431548
-1.393362 -2.73296 -1.0583463
-1.407077 -2.7185068 -1.0559832
-1.4517432 -2.7631559 -1.0775888
-1.4558291 -2.7301075 -1.0677987
-1.470314 -2.7169838 -1.0661108
-1.5014521 -2.7343156 -1.0769137
-1.5314837 -2.7488995 -1.0867038
-1.5404499 -2.7255189 -1.0809647
-1.5379535 -2.6825323 -1.0671237
-1.5425575 -2.6527004 -1.0586839
-1.5540245 -2.635077 -1.055308
-1.5658165 -2.6182208 -1.0522697
-1.5911236 -2.6238577 -1.0586839
-1.6116295 -2.6212626 -1.0617222
-1.6291764 -2.6137211 -1.062735
-1.6446805 -2.6028798 -1.0623974
-1.6646811 -2.5990808 -1.065098
-1.6811099 -2.5896072 -1.0654356
-1.7005886 -2.5847485 -1.0677987
-1.7117176 -2.5672159 -1.0647604
-1.72533 -2.5535448 -1.0634102
-1.731396 -2.5289283 -1.0573336
-1.7458078 -2.51671 -1.0566584
-0 -0 -0
-1.7847481 -2.5065997 -1.0617222
-1.8044993 -2.5017092 -1.064423
-1.8076003 -2.4738679 -1.056996
-1.8137875 -2.4506233 -1.0515946
-1.826532 -2.436435 -1.0502442
-1.8568138 -2.445425 -1.0593591
-1.8591619 -2.4175684 -1.0519321
-1.8693345 -2.4001737 -1.0492314
-1.8811123 -2.3849626 -1.0475435
-1.8980602 -2.3763177 -1.0488938
-1.9078704 -2.3587711 -1.0461931
-1.9240966 -2.3492053 -1.0472059
-1.9390757 -2.3380795 -1.0475435
-1.9479382 -2.3196492 -1.0445052
-1.9578671 -2.302633 -1.042142
-1.9738011 -2.2927167 -1.0431548
-1.9804109 -2.2720466 -1.0391037
-1.9943147 -2.2598522 -1.0391037
-1.9987375 -2.2370427 -1.03404
-2.0168455 -2.2296236 -1.0364031
-2.0374801 -2.2248435 -1.0401165
-2.0549326 -2.2164419 -1.042142
-2.0684936 -2.2037914 -1.042142
-2.0813286 -2.1903753 -1.0418046
-2.0960343 -2.1789203 -1.0424796
-2.1165874 -2.1734371 -1.0461931
-2.1120431 -2.1423082 -1.0370783
-2.1324618 -2.1366384 -1.0407917
-2.1421871 -2.1202023 -1.0391037
-2.1511183 -2.1030695 -1.0370783
-2.1680439 -2.0937548 -1.0391037
-2.1801691 -2.0797627 -1.0387663
-2.1956291 -2.0689287 -1.0401165
-2.2186165 -2.0650389 -1.0451804
-2.2575741 -2.0755994 -1.0580088
-2.2779315 -2.06867 -1.0617222
-2.2940848 -2.0577972 -1.0634102
-2.3017366 -2.0393119 -1.0610471
-2.3149147 -2.0257704 -1.0613846
-2.3194683 -2.0047565 -1.0576712
-2.3324413 -1.9910979 -1.0580088
-2.3395774 -1.9725009 -1.0556456
-2.3595927 -1.9647349 -1.0593591
-2.382508 -1.9591892 -1.064423
-2.3974071 -1.9469074 -1.0657732
-2.4166505 -1.9380505 -1.0691491
-2.4329236 -1.9266926 -1.0711746
-2.4498899 -1.9157878 -1.0735378
-2.4593639 -1.8989934 -1.072525
-2.4732149 -1.8855796 -1.0735378
-2.4749625 -1.8630083 -1.0691491
-2.4871025 -1.8483486 -1.0694867
-2.4983969 -1.8330532 -1.0694867
-2.5095973 -1.8176889 -1.0694867
-2.5138125 -1.797328 -1.0664485
-2.5294073 -1.7851268 -1.0684739
-2.5464914 -1.7738781 -1.0711746
-2.5619812 -1.76142 -1.0732002
-2.5805295 -1.7509531 -1.0765761
-2.598263 -1.7398007 -1.0796144
-2.615957 -1.7284964 -1.0826527
-2.6320326 -1.716012 -1.0850158
-2.6448872 -1.7013578 -1.0860286
-2.6544819 -1.6845926 -1.085691
-2.6711507 -1.6722701 -1.0883917
-2.6941745 -1.6637636 -1.093793
-2.7115669 -1.6516091 -1.0968313
-2.7337525 -1.6422124 -1.1018952
-2.7583539 -1.634045 -1.1079718
-2.789459 -1.6294361 -1.116749
-2.8108232 -1.6188681 -1.1214753
-2.8428028 -1.6141423 -1.1305902
-2.8740079 -1.6086247 -1.1393675
-2.9233828 -1.61279 -1.1555717
-2.9621654 -1.6105626 -1.1673872
-3.0367048 -1.6270392 -1.1937191
-3.1065612 -1.6400231 -1.2180256
-3.175019 -1.651341 -1.2416567
-3.2127357 -1.6459951 -1.2527971
-3.3160498 -1.673332 -1.2902694
-3.2857955 -1.6328422 -1.2740651
-3.3380253 -1.6333406 -1.2909446
-3.7609508 -1.8118223 -1.45535
-4.1138868 -1.9508789 -1.5910604
-3.9040177 -1.8220742 -1.5032876
-3.7132597 -1.7053528 -1.4236168
-3.7502441 -1.6945546 -1.4340819
-3.7691722 -1.6753356 -1.4374578
-3.83199 -1.6751815 -1.4580507
-3.8975403 -1.675434 -1.4796563
-3.9727728 -1.6789761 -1.5049754
-4.0621009 -1.6874357 -1.535696
-4.0993929 -1.6735107 -1.5461612
-4.1917033 -1.6812718 -1.5778946
-4.2334671 -1.6679449 -1.5900477
-4.338429 -1.6786298 -1.6265072
-4.3407278 -1.6489688 -1.6234689
-4.4909935 -1.674606 -1.6771455
-4.5462656 -1.6635182 -1.6943624
-4.6068845 -1.6537231 -1.7136049
-4.6542344 -1.6385562 -1.7277837
-4.7122474 -1.6265565 -1.7460134
-4.7783113 -1.6166216 -1.7672814
-4.830133 -1.6011963 -1.7831482
-4.947298 -1.6064217 -1.8236587
-5.0844388 -1.6165445 -1.8715962
-5.1670618 -1.6079775 -1.8989408
-5.2128491 -1.5872126 -1.9124444
-5.2513576 -1.563796 -1.9232472
-5.2762179 -1.5360188 -1.9289862
-5.2973132 -1.5069648 -1.9333749
-5.3109946 -1.4756931 -1.9350628
-5.317224 -1.4423381 -1.93405
-5.3287039 -1.4104079 -1.9350628
-5.3381691 -1.3779204 -1.9354004
-5.3465233 -1.34514 -1.9354004
-5.3565044 -1.3127573 -1.9360756
-5.3644586 -1.2798657 -1.9360756
-5.3832135 -1.2494806 -1.9401267
-5.386188 -1.21539 -1.9384387
-5.4018192 -1.1841327 -1.9414769
-5.4172692 -1.1527293 -1.9445152
-5.4140997 -1.1173742 -1.9408017
-5.4208541 -1.0841329 -1.9408017
-5.4347968 -1.0522827 -1.9435025
-5.4411511 -1.0189157 -1.9435025
-5.4454484 -0.98517489 -1.9428273
-0 -0 -0
-5.4664102 -0.91983932 -1.9462032
-5.4812431 -0.88778645 -1.9495791
-5.4819369 -0.85341311 -1.9478911
-0 -0 -0
-0 -0 -0
-0 -0 -0
-0 -0 -0
-0 -0 -0
-0 -0 -0
-0 -0 -0
-0 -0 -0
-0 -0 -0
-0 -0 -0
-0 -0 -0
-0 -0 -0
-0 -0 -0
-0 -0 -0
-0 -0 -0
-0 -0 -0
-0 -0 -0
-0 -0 -0
-5.403841 -0.20465046 -1.8975905
-5.4717932 -0.17361364 -1.9215592
-0 0 -0
-0 0 -0
-0 0 -0
-0 0 -0
-0 0 -0
-0 0 -0
-0 0 -0
-0 0 -0
-0 0 -0
-0 0 -0
-0 0 -0
-0 0 -0
-0 0 -0
-0 0 -0
-0 0 -0
-0 0 -0
-0 0 -0
-0 0 -0
-0 0 -0
-0 0 -0
-0 0 -0
-5.2568059 1.0743362 -1.9491054
-0 0 -0
-5.1955881 1.1284071 -1.9310137
-5.1885662 1.1602654 -1.9310137
-5.1685591 1.1891344 -1.9261428
-5.1629896 1.2212577 -1.9268386
-5.1608648 1.2542439 -1.9289262
-5.1530719 1.2858866 -1.9289262
-5.1450849 1.3174812 -1.9289262
-5.1341839 1.3483109 -1.9278824
-5.1203828 1.378325 -1.925795
-5.104599 1.4077216 -1.9230115
-5.104887 1.4415661 -1.9264908
-5.0887408 1.470778 -1.9237075
-5.0796208 1.5019742 -1.9237075
-5.0730014 1.5339285 -1.9247512
-5.0563283 1.5628107 -1.9219679
-5.0466442 1.5938063 -1.9219679
-5.0394464 1.6256059 -1.9230115
-5.0267057 1.6556163 -1.9219679
-5.020895 1.6879232 -1.9237075
-5.013104 1.7196121 -1.9247512
-5.0077672 1.7521986 -1.9268386
-4.9942732 1.7819469 -1.925795
-4.9841261 1.8128783 -1.9261428
-4.9676347 1.8414699 -1.9240553
-4.9579959 1.8725789 -1.9247512
-4.934164 1.8982499 -1.9198804
-4.9267879 1.9302006 -1.9216199
-4.9070148 1.9572666 -1.9184886
-4.90273 1.9905144 -1.9216199
-4.8904243 2.0205595 -1.9216199
-4.8744774 2.0490746 -1.9202282
-4.8626747 2.079314 -1.9205762
-4.8515444 2.1098599 -1.921272
-4.8333631 2.1373127 -1.9191844
-4.8158827 2.1650064 -1.9174449
-4.7965393 2.1917865 -1.9150095
-4.7864013 2.2227564 -1.9164011
-4.7718248 2.2516832 -1.9160533
-4.7536926 2.2788928 -1.9143137
-4.7337203 2.3051436 -1.9118782
-4.7178063 2.3333139 -1.9111824
-4.6832957 2.3521152 -1.9028324
-4.6829724 2.3880506 -1.908747
-4.6715612 2.4184644 -1.9101386
-4.6599531 2.4488285 -1.9115303
-4.641531 2.4756095 -1.9101386
-4.6262536 2.5040429 -1.9101386
-4.6083374 2.5310276 -1.9090949
-4.5886259 2.5569735 -1.9073553
-4.5769305 2.5873883 -1.9090949
-4.5658479 2.6182225 -1.9111824
-4.5488863 2.6457171 -1.9108344
-4.5349889 2.6750083 -1.9118782
-4.5200992 2.7037468 -1.9125741
-4.5114393 2.7362945 -1.9160533
-4.4937663 2.7634335 -1.9157053
-4.4751344 2.7899623 -1.9150095
-4.4587235 2.8178697 -1.9153574
-4.4421391 2.8456807 -1.9157053
-4.4214497 2.8708408 -1.9143137
-4.4037514 2.8979161 -1.9143137
-4.3851075 2.9243622 -1.9139657
-4.3748479 2.9564648 -1.9174449
-4.3612657 2.9864318 -1.9195324
-4.3382382 3.0099282 -1.9174449
-4.3173871 3.0348725 -1.9164011
-4.2941031 3.0580423 -1.9143137
-4.2623353 3.0750053 -1.9083991
-4.2433872 3.1011004 -1.9083991
-4.2167449 3.1214993 -1.9049199
-4.2020125 3.1506896 -1.9070073
-4.178122 3.1730103 -1.9049199
-4.1756635 3.2117372 -1.912922
-4.1617937 3.2419086 -1.9157053
-4.1506548 3.2743535 -1.9198804
-4.135612 3.3038571 -1.9223157
-4.111618 3.3262217 -1.9205762
-4.0911317 3.3513875 -1.9205762
-4.0632763 3.37044 -1.917097
-4.0410833 3.3941021 -1.9164011
-4.0137553 3.4133661 -1.9132699
-3.9891839 3.4348705 -1.9115303
-3.9673264 3.4586666 -1.9111824
-3.939002 3.4767392 -1.9077032
-3.9120035 3.4958441 -1.9049199
-3.8904798 3.5197818 -1.9049199
-3.8632801 3.5385201 -1.9021366
-3.8490558 3.5691719 -1.9059637
-3.8209329 3.5869455 -1.9028324
-3.8036077 3.6148448 -1.9052678
-3.7813559 3.6381154 -1.9052678
-3.7589617 3.6612487 -1.9052678
-3.7370934 3.6849029 -1.9056157
-3.7137494 3.7071013 -1.9052678
-3.6929111 3.7318184 -1.9063115
-3.6712539 3.7557485 -1.9070073
-3.6526976 3.7829263 -1.9094428
-3.6307111 3.8066247 -1.9101386
-3.6079285 3.8295131 -1.9104866
-3.5837245 3.8508925 -1.9101386
-3.5593941 3.8721189 -1.9097908
-3.5380886 3.896663 -1.9111824
-3.5103576 3.9141104 -1.9090949
-3.4875181 3.9369798 -1.9097908
-3.4565065 3.9505417 -1.9059637
-3.4340398 3.9738047 -1.9070073
-3.4089839 3.9940875 -1.9066595
-3.3856206 4.0163631 -1.9073553
-3.3651109 4.0421062 -1.9097908
-3.3372693 4.0590563 -1.9080511
-3.3128915 4.0801849 -1.9083991
-3.2866209 4.0989723 -1.9077032
-3.2573354 4.1139154 -1.9052678
-3.2302997 4.1316085 -1.904224
-3.2008786 4.1461558 -1.9017886
-3.1753781 4.1657181 -1.9017886
-3.1475034 4.1821265 -1.9003969
-3.124578 4.2051239 -1.9021366
-3.1014891 4.2279973 -1.9038761
-3.0683417 4.2370753 -1.8993531
-3.0411956 4.2542968 -1.8986573
-3.0117924 4.26828 -1.8965698
-2.9967947 4.3028383 -1.9038761
-2.9671509 4.3165088 -1.9017886
-2.9406095 4.3346338 -1.9017886
-2.9155216 4.3549328 -1.9028324
-2.8871956 4.3703933 -1.9017886
-2.8593013 4.3864551 -1.9010928
-2.8318257 4.4031286 -1.9007449
-2.8082702 4.4259634 -1.9031802
-2.78106 4.4431114 -1.9031802
-2.75473 4.4616876 -1.9038761
-2.7273018 4.4785066 -1.9038761
-2.6973581 4.4911375 -1.9021366
-2.6711831 4.5100236 -1.9031802
-2.6420419 4.5239 -1.9021366
-2.6165724 4.5440888 -1.9038761
-2.5904918 4.5633202 -1.9052678
-2.5661039 4.5856748 -1.9080511
-2.537466 4.600513 -1.9077032
-2.5073998 4.6127005 -1.9063115
-2.4790494 4.6279988 -1.9063115
-2.4501686 4.6422939 -1.9059637
-2.4229348 4.6597362 -1.9070073
-2.3878894 4.6619973 -1.9017886
-2.3617713 4.6815839 -1.9038761
-2.3325844 4.695148 -1.9035282
-2.3086729 4.7194791 -1.9077032
-2.2788582 4.7318664 -1.9070073
-2.2525909 4.7516909 -1.9094428
-2.2229965 4.7645731 -1.9090949
-2.1917648 4.7738628 -1.9073553
-2.1608887 4.7838035 -1.9059637
-2.1303537 4.7944021 -1.9049199
-2.1005204 4.8065243 -1.904572
-2.0680289 4.8124309 -1.9017886
-2.0362735 4.8198471 -1.8997011
-2.0059423 4.8305192 -1.8990053
-1.9769732 4.8444724 -1.8997011
-1.9479083 4.858252 -1.9003969
-1.9256159 4.8893056 -1.9080511
-1.8898333 4.8861628 -1.9021366
-1.8628105 4.9055552 -1.9052678
-1.8254762 4.8975649 -1.8976136
-1.7928162 4.901629 -1.8948302
-1.7611244 4.9081249 -1.8930907
-1.7266213 4.9064565 -1.8882198
-1.6955665 4.9142995 -1.887176
-1.6701833 4.9388213 -1.8927428
-1.6436788 4.9605465 -1.8972657
-1.6169703 4.982132 -1.9017886
-1.5883563 4.9982147 -1.904224
-1.5607188 5.017715 -1.9080511
-1.5258099 5.013742 -1.9028324
-1.4942157 5.0203142 -1.9017886
-1.4646921 5.0338893 -1.9035282
-1.4294218 5.0274501 -1.8976136
-1.3970431 5.0307059 -1.8955261
-1.3651685 5.0355639 -1.8941344
-1.3342452 5.0438457 -1.8941344
-1.3032715 5.0519371 -1.8941344
-1.2713352 5.0562019 -1.8927428
-1.2407328 5.0657287 -1.8934386
-1.2102784 5.0759826 -1.8944824
-1.1782634 5.0796595 -1.8930907
-1.1462489 5.0831351 -1.891699
-1.1154386 5.0919046 -1.8923949
-1.0859274 5.1069064 -1.8955261
-1.0558957 5.1199012 -1.8979615
-1.0242772 5.1253643 -1.8976136
-0.99280924 5.1315527 -1.8976136
-0.96113169 5.1366262 -1.8972657
-0.93042874 5.1470399 -1.8990053
-0.89866865 5.1517286 -1.8986573
-0.86719656 5.1580701 -1.8990053
-0.83568048 5.1642199 -1.8993531
-0.80239505 5.1590595 -1.8955261
-0.77058637 5.1629586 -1.8951782
-0.739025 5.1685176 -1.8955261
-0.70767808 5.1757417 -1.8965698
-0.67566478 5.1781273 -1.895874
-0.64445668 5.1868272 -1.8976136
-0.61207032 5.1860285 -1.895874
-0.5807578 5.1943455 -1.8976136
-0.54887497 5.1978111 -1.8976136
-0.51715648 5.2029467 -1.8983095
-0.48496169 5.2032218 -1.8972657
-0.4527019 5.2023635 -1.895874
-0.4226557 5.2284055 -1.904572
-0.38875723 5.2065921 -1.8955261
-0.35686672 5.2098145 -1.895874
-0.32448632 5.2053561 -1.8934386
-0.29254076 5.2072492 -1.8934386
-0.26077071 5.2126918 -1.8948302
-0.2288222 5.2151303 -1.8951782
-0.19671303 5.2136254 -1.8941344
-0.1648073 5.2175455 -1.8951782
-0.13278994 5.2184587 -1.8951782
-0.10074969 5.2182379 -1.8948302
-0.068789989 5.2234449 -1.8965698
-0.036687143 5.2162685 -1.8937865
-0.0046825646 5.2201457 -1.8951782
0.027357973 5.221951 -1.895874
0.059463974 5.2273097 -1.8979615
0.091520399 5.2259092 -1.8976136
0.12378562 5.2336845 -1.9007449
0.15598094 5.2356377 -1.9017886
0.18800166 5.2317715 -1.9007449
0.21986194 5.2248993 -1.8986573
0.25164497 5.2178335 -1.8965698
0.28334957 5.2105742 -1.8944824
0.31531572 5.2087374 -1.8944824
0.3472074 5.2057695 -1.8941344
0.37880117 5.1988659 -1.8923949
0.41069368 5.1964436 -1.8923949
0.44257075 5.1938257 -1.8923949
0.47468773 5.1938133 -1.8934386
0.50654745 5.1908031 -1.8934386
0.53858203 5.1894622 -1.8941344
0.57041383 5.18606 -1.8941344
0.60189891 5.1796684 -1.8930907
0.63344115 5.1740165 -1.8923949
0.66493672 5.1681728 -1.891699
0.69650996 5.1630664 -1.8913511
0.72817683 5.1586957 -1.8913511
0.76063788 5.1596951 -1.8934386
0.79271072 5.157711 -1.8944824
0.82582599 5.1620069 -1.8979615
0.85748392 5.1568427 -1.8979615
0.88942891 5.1533318 -1.8986573
0.92004049 5.1422405 -1.8965698
0.95106244 5.1337328 -1.8955261
0.98166132 5.1231971 -1.8937865
1.0128959 5.1161575 -1.8934386
1.0457723 5.1171942 -1.896222
1.0783125 5.1161852 -1.8983095
1.1062986 5.0938983 -1.8923949
1.1399908 5.0979929 -1.8965698
1.17125 5.0909019 -1.8965698
1.2024652 5.0836196 -1.8965698
1.2320838 5.0697689 -1.8941344
1.2638497 5.0648422 -1.8951782
1.2944376 5.0551758 -1.8944824
1.3254313 5.0471382 -1.8944824
1.3566189 5.0398154 -1.8948302
1.3872676 5.0304928 -1.8944824
1.4183631 5.0227885 -1.8948302
1.4486345 5.0121899 -1.8941344
1.4782974 4.9996109 -1.8927428
1.5103043 4.9949327 -1.8944824
1.5400931 4.9828844 -1.8934386
1.570356 4.9724469 -1.8930907
1.6005487 4.9618258 -1.8927428
1.6306703 4.9510212 -1.8923949
1.6610185 4.9409223 -1.8923949
1.6913042 4.9306374 -1.8923949
1.7215261 4.920167 -1.8923949
1.7535748 4.9148088 -1.8944824
1.7849811 4.9074807 -1.895874
1.8147331 4.8955569 -1.8955261
1.8440747 4.8825755 -1.8948302
1.8766935 4.8781681 -1.8976136
1.9035105 4.8587055 -1.8944824
1.933287 4.8469343 -1.8944824
1.9615794 4.8315063 -1.8930907
1.9879643 4.8115816 -1.8899595
2.0156326 4.7949724 -1.8882198
2.0439098 4.7799287 -1.887176
2.0713301 4.7629991 -1.8854365
2.1024129 4.7544866 -1.887176
2.1327002 4.7440619 -1.8882198
2.1656673 4.7394133 -1.891699
2.1951022 4.7268858 -1.8920469
2.2256656 4.7167192 -1.8934386
2.2561867 4.7063551 -1.8948302
2.2837901 4.6898942 -1.8937865
2.3104446 4.6715918 -1.8920469
2.3382237 4.6556516 -1.8913511
2.3693027 4.6462274 -1.8934386
2.3986292 4.6332674 -1.8941344
2.4300673 4.6242709 -1.8965698
2.4592783 4.6109276 -1.8972657
2.4902029 4.6006975 -1.8993531
2.5174823 4.5836878 -1.8986573
2.5469296 4.570611 -1.8997011
2.5707724 4.5475531 -1.8965698
2.6000268 4.534133 -1.8976136
2.6221404 4.5083704 -1.8934386
2.6559484 4.5026927 -1.8979615
2.6825635 4.4847026 -1.8972657
2.7085714 4.4657536 -1.896222
2.7324829 4.4434605 -1.8937865
2.759696 4.4266109 -1.8937865
2.7812939 4.400878 -1.8899595
2.8112803 4.3884649 -1.8920469
2.8396866 4.3734913 -1.8930907
2.8669839 4.3567681 -1.8934386
2.8915811 4.3359752 -1.8920469
2.923383 4.3259177 -1.8955261
2.9504011 4.3086724 -1.895874
2.9778521 4.292028 -1.8965698
3.0046709 4.2744427 -1.8969178
3.0281217 4.2521081 -1.8951782
3.057996 4.2387691 -1.8976136
3.0845003 4.2206826 -1.8979615
3.1047602 4.1941428 -1.8944824
3.1287487 4.1727638 -1.8934386
3.1554277 4.1549807 -1.8941344
3.1780043 4.1318259 -1.8923949
3.2021441 4.1107693 -1.891699
3.2273071 4.0910439 -1.891699
3.2517631 4.0704322 -1.8913511
3.279037 4.053318 -1.8927428
3.3050344 4.0345721 -1.8934386
3.3351161 4.02071 -1.8965698
3.3621366 4.0030417 -1.8979615
3.389673 3.9859068 -1.8997011
3.4177375 3.969295 -1.9017886
3.4414122 3.9475429 -1.9014407
3.4643278 3.924947 -1.9007449
3.482722 3.897326 -1.8976136
3.5027952 3.8717127 -1.8955261
3.5264857 3.850147 -1.8955261
3.5481305 3.8263745 -1.8944824
3.5753927 3.8086319 -1.8965698
3.6019249 3.790019 -1.8983095
3.6238117 3.7664957 -1.8976136
3.6429286 3.7401609 -1.8955261
3.6723933 3.7244122 -1.8990053
3.6945143 3.7011454 -1.8986573
3.7158213 3.677088 -1.8979615
3.7356312 3.651598 -1.8965698
3.7579668 3.628608 -1.8965698
3.7869463 3.6119504 -1.900049
3.7967522 3.5770767 -1.8937865
3.8309853 3.5652068 -1.900049
3.8562407 3.5448048 -1.9017886
3.8744476 3.5179262 -1.900049
3.9015448 3.4990933 -1.9028324
3.9299607 3.481303 -1.9063115
3.9505417 3.4565065 -1.9059637
3.9660003 3.4272985 -1.9031802
3.9912345 3.4065499 -1.9052678
4.0113444 3.381392 -1.9049199
4.0284138 3.3537169 -1.9031802
4.0503645 3.3301263 -1.9038761
4.0641699 3.2998939 -1.9007449
4.084341 3.2748945 -1.9007449
4.1058288 3.2509356 -1.9014407
4.1264377 3.2262588 -1.9017886
4.1528363 3.2060332 -1.9049199
4.1761584 3.1833327 -1.9066595
4.1993585 3.1604662 -1.9083991
4.2149086 3.131845 -1.9066595
4.2332897 3.1053696 -1.9063115
4.2530236 3.0798857 -1.9066595
4.2771811 3.0575471 -1.9090949
4.2981596 3.0328662 -1.9101386
4.3259215 3.0128639 -1.9143137
4.3335085 2.9788311 -1.9094428
4.3470488 2.949028 -1.9073553
4.3642831 2.9217782 -1.9070073
4.3860402 2.8975275 -1.908747
4.4005947 2.8685136 -1.9073553
4.4196897 2.8424718 -1.9080511
4.4441733 2.8198187 -1.9111824
4.4518542 2.7865298 -1.9070073
4.4489222 2.7468524 -1.8983095
4.4833112 2.7302265 -1.9059637
4.5048022 2.7055612 -1.9080511
4.5213184 2.6778693 -1.9080511
4.5570965 2.6614196 -1.9164011
4.5497766 2.6198459 -1.9063115
4.5625043 2.590029 -1.9049199
4.575038 2.5601547 -1.9035282
4.5890183 2.5311294 -1.9028324
4.6061106 2.5038192 -1.9035282
4.621387 2.4755094 -1.9035282
4.6422939 2.4501686 -1.9059637
4.6638956 2.4250965 -1.908747
4.6870332 2.4007058 -1.9122262
4.7050238 2.37359 -1.9136178
4.7186599 2.3442588 -1.9132699
4.7304282 2.3140261 -1.9122262
4.7428484 2.2841442 -1.9115303
4.7567739 2.2549994 -1.9115303
4.7696714 2.2253737 -1.9111824
4.783236 2.1960657 -1.9111824
4.8017478 2.1689897 -1.9132699
4.8192501 2.1413882 -1.9150095
4.8340173 2.1125281 -1.9157053
4.8486114 2.0835671 -1.9164011
4.8708053 2.0577888 -1.9202282
4.8772783 2.0253479 -1.9177928
4.8896141 1.9953834 -1.9177928
4.8982844 1.9639488 -1.9164011
4.9102426 1.9338566 -1.9164011
4.9167695 1.9016634 -1.9143137
4.930975 1.8724568 -1.9153574
4.944128 1.8428202 -1.9160533
4.9623871 1.8150237 -1.9188366
4.9813728 1.7873888 -1.9219679
4.9993219 1.7592782 -1.9247512
5.0153403 1.7304033 -1.9268386
5.0231991 1.6986967 -1.925795
5.0433173 1.6710846 -1.9296221
5.0383153 1.6351912 -1.9237075
5.0491476 1.6045296 -1.9240553
5.0526309 1.5715706 -1.9216199
5.0567966 1.5389022 -1.9195324
5.0670428 1.5081125 -1.9198804
5.0816026 1.4785637 -1.9219679
5.0842662 1.4455624 -1.9195324
5.0948472 1.41484 -1.9202282
5.1043372 1.383797 -1.9205762
5.110013 1.3517327 -1.9195324
5.1218424 1.3212888 -1.9209241
5.1316714 1.2902937 -1.9216199
5.1449561 1.2601191 -1.9237075
5.1553273 1.2291782 -1.9247512
5.1645989 1.1979458 -1.925447
5.1800838 1.1680882 -1.9285783
5.1908169 1.1370835 -1.9299699
5.1940279 1.1044327 -1.9285783
5.2172351 1.0759468 -1.9348408
5.2136254 1.0418955 -1.9310137
5.2309661 1.0120202 -1.9351887
5.2370772 0.97990453 -1.9351887
5.2568307 0.95025057 -1.9404075
5.2459373 0.91508102 -1.934145
5.2597747 0.88427246 -1.9372762
5.2632504 0.85168332 -1.9365804
5.2655978 0.818941 -1.9355366
5.2797961 0.78799838 -1.9390157
5.2789631 0.75479233 -1.9369283
5.2825665 0.72226018 -1.9365804
5.2859688 0.68971229 -1.9362324
5.2873101 0.65691906 -1.9351887
5.285655 0.62380624 -1.9331012
5.2809973 0.59042662 -1.9299699
5.2957091 0.55919093 -1.934145
5.2999735 0.52677906 -1.9344928
5.2993722 0.49390191 -1.9331012
5.3041706 0.4615384 -1.933797
5.303165 0.4286826 -1.9324054
5.3141098 0.39676133 -1.9355366
5.318315 0.36427483 -1.9362324
5.3157716 0.33134478 -1.9344928
5.3167682 0.29866922 -1.934145
5.3138189 0.26580733 -1.9324054
5.3219066 0.23348357 -1.9348408
5.3241758 0.20085971 -1.9351887
5.3309302 0.16836375 -1.9372762
5.3374863 0.13579246 -1.9393637
0 0 -0
0 0 -0
5.3540816 0.037625972 -1.9449304
0 0 -0
0 -0 -0
0 -0 -0
0 -0 -0
0 -0 -0
5.3574615 -0.15963715 -1.9470179
0 -0 -0
0 -0 -0
0 -0 -0
5.3444409 -0.29065883 -1.9442346
0 -0 -0
0 -0 -0
5.3363152 -0.38884661 -1.9435388
5.3244829 -0.42084157 -1.9400595
5.3395491 -0.45502037 -1.9466699
0 -0 -0
5.3410277 -0.52124071 -1.9494534
5.3367963 -0.55390584 -1.9491054
5.3398204 -0.58736032 -1.9515408
0 -0 -0
5.3238354 -0.65181667 -1.9484096
5.3160162 -0.68399149 -1.9470179
5.296854 -0.71458834 -1.9414512
5.2932982 -0.74720705 -1.9417992
5.2858315 -0.77926123 -1.9407554
5.3189416 -0.81752741 -1.9550201
0 -0 -0
0 -0 -0
5.2835917 -0.91194046 -1.9477137
5.2862024 -0.9458307 -1.950845
5.2830648 -0.97876137 -1.9518888
5.2649903 -1.008863 -1.9473659
5.255022 -1.0404202 -1.9459741
5.2476211 -1.072457 -1.9456263
5.2161736 -1.0994097 -1.9362324
5.1827621 -1.1256187 -1.9261428
5.1373329 -1.1487969 -1.9115303
5.0443077 -1.1605195 -1.878826
4.9832664 -1.1787045 -1.8582989
4.8784676 -1.1855479 -1.8210717
4.8001537 -1.1977389 -1.7939341
4.7454891 -1.215066 -1.7758424
4.6744738 -1.2274778 -1.7514882
4.6315494 -1.2466251 -1.7379194
4.5957975 -1.2672876 -1.727134
4.5554562 -1.2862837 -1.7146089
4.5303664 -1.3092617 -1.7079985
4.5150557 -1.3349066 -1.7052152
4.5552363 -1.3772485 -1.7240027
4.5547609 -1.4076664 -1.727134
4.5469317 -1.4358699 -1.7274818
4.5371437 -1.4634544 -1.727134
4.5218458 -1.4892118 -1.7246985
4.5161772 -1.5181251 -1.7260902
4.5076642 -1.5461116 -1.7264382
4.4998622 -1.5743606 -1.727134
4.4962978 -1.6041484 -1.7295694
4.4890132 -1.632669 -1.7306131
4.4771528 -1.6595302 -1.7299173
4.4607472 -1.6846501 -1.7274818
4.452951 -1.7129995 -1.7285256
4.4667964 -1.749871 -1.7382673
4.4141798 -1.7605644 -1.7215673
4.3920026 -1.783029 -1.7170444
4.3783803 -1.8088696 -1.7160006
4.3525076 -1.8295213 -1.710086
4.3351665 -1.8536118 -1.7076505
4.2901845 -1.8655879 -1.6940818
4.2915168 -1.8975672 -1.6993005
4.2686777 -1.9188639 -1.6947776
4.2431812 -1.9387825 -1.689211
4.2575622 -1.9770286 -1.6999964
4.2461991 -2.0035155 -1.7003443
4.2279086 -2.0266938 -1.6979089
4.1934805 -2.0419209 -1.688863
4.1741505 -2.0642867 -1.6860797
4.146327 -2.0822828 -1.6798172
4.1593604 -2.1208935 -1.6906027
4.1387763 -2.1424942 -1.6874714
4.1388292 -2.1748297 -1.6930381
4.119617 -2.1970944 -1.6906027
4.1044097 -2.2214377 -1.6899068
4.0676961 -2.233938 -1.6801651
4.0375352 -2.2497241 -1.6732067
4.0358953 -2.281379 -1.6784256
4.0267005 -2.3088989 -1.680513
4.0075955 -2.3307338 -1.6784256
3.9996784 -2.359092 -1.6812088
4.0044351 -2.3951437 -1.6895589
3.9952738 -2.423074 -1.6919943
3.9755399 -2.4445951 -1.6899068
3.9723976 -2.4763851 -1.6951256
3.955543 -2.4997106 -1.6944298
3.9282908 -2.516346 -1.689211
3.9269285 -2.5495951 -1.6954734
3.9112105 -2.5736423 -1.6954734
3.8898861 -2.5939503 -1.6930381
3.8645768 -2.6114681 -1.688863
3.8415196 -2.6303627 -1.6857318
3.8206866 -2.6506767 -1.6836443
3.8112524 -2.6789238 -1.6867756
3.8039055 -2.708787 -1.6909505
3.794055 -2.7370145 -1.6940818
3.774919 -2.7585828 -1.6930381
3.7488809 -2.7749977 -1.688863
3.7272832 -2.7945726 -1.6867756
3.7085729 -2.8162558 -1.6860797
3.6733909 -2.8252363 -1.6777297
3.6707759 -2.8592486 -1.684688
3.6538987 -2.8822989 -1.6850359
3.6515241 -2.9169564 -1.6923422
3.6386585 -2.9434357 -1.6947776
3.6219797 -2.9668951 -1.6954734
3.6094787 -2.9938531 -1.6982569
3.5917585 -3.0165472 -1.6986047
3.5738957 -3.0391364 -1.6989527
3.558022 -3.0634558 -1.7003443
3.5320926 -3.0790675 -1.6968652
2.4582994 -2.1692269 -1.1746408
2.4414482 -2.1811457 -1.1729012
2.4314945 -2.1992307 -1.1746408
3.4457877 -3.1559546 -1.6919943
3.4284201 -3.178951 -1.6930381
3.4122667 -3.2031364 -1.6947776
3.3925486 -3.2240136 -1.6947776
3.3740535 -3.2460694 -1.6954734
3.3520579 -3.2647483 -1.6944298
3.3079352 -3.2615523 -1.6819047
3.2719393 -3.2658885 -1.6735547
3.2735956 -3.307899 -1.6850359
3.240133 -3.3145118 -1.6780776
3.2067132 -3.3208387 -1.6711192
3.1843357 -3.3384166 -1.6700755
3.1676483 -3.3619876 -1.672163
3.1622849 -3.3978355 -1.680513
3.1470854 -3.423388 -1.6836443
3.1304312 -3.4474933 -1.6860797
3.0992062 -3.455467 -1.680513
3.0779455 -3.4744184 -1.680513
3.0565689 -3.4932389 -1.680513
3.0375285 -3.514766 -1.6819047
3.0219901 -3.5404699 -1.6853839
3.011687 -3.5725682 -1.6919943
2.9933076 -3.595304 -1.6940818
2.9694049 -3.6114299 -1.6930381
2.9430542 -3.6244862 -1.6906027
2.9160688 -3.6366239 -1.6878192
2.8838093 -3.6419506 -1.6819047
2.0070121 -2.5662942 -1.1669866
1.986073 -2.5718806 -1.1638553
1.964573 -2.5765612 -1.1603762
1.9487265 -2.588567 -1.1603762
1.9316888 -2.5989702 -1.1596804
1.9157053 -2.610774 -1.1596804
1.8963516 -2.6179225 -1.1575929
1.6447937 -2.2999747 -1.0072924
1.617682 -2.2916365 -0.99894238
1.6035903 -2.3015192 -0.99894238
2.6114409 -3.7987902 -1.6686838
2.5854521 -3.8108625 -1.6669443
2.5557637 -3.8173046 -1.6627692
2.5369425 -3.8399558 -1.6659005
2.5082152 -3.847595 -1.6624213
2.4774623 -3.8518717 -1.6575505
2.4522746 -3.8646255 -1.6565067
2.4295101 -3.8811891 -1.6572025
2.403188 -3.8920341 -1.655463
2.3782868 -3.9051049 -1.6547672
2.3542807 -3.9196243 -1.6547672
2.3297086 -3.9331892 -1.6544192
2.3093121 -3.9538875 -1.6572025
2.2826698 -3.9639199 -1.655463
2.2527528 -3.9680665 -1.6512879
2.2315662 -3.9875422 -1.6537234
2.2011731 -3.9904861 -1.6492004
2.1739612 -3.9989746 -1.647113
2.1498256 -4.0130649 -1.6474608
2.1207871 -4.0178881 -1.6439817
2.0965261 -4.0316572 -1.6443295
2.0734577 -4.0477839 -1.6457212
2.0506926 -4.0646157 -1.6474608
2.0277987 -4.0813203 -1.6492004
2.0023062 -4.0928435 -1.6488525
1.9848807 -4.1211033 -1.655463
1.9627681 -4.1399822 -1.6582463
1.9373287 -4.151948 -1.6582463
1.9141623 -4.1688695 -1.6603338
1.8920183 -4.1882267 -1.663465
1.40207 -3.1544151 -1.2390056
1.3826885 -3.1629586 -1.2390056
1.3643647 -3.1739676 -1.2400494
1.3696613 -3.2410107 -1.2637078
1.7576239 -4.2321701 -1.6585943
1.7302066 -4.2394023 -1.6572025
1.7045102 -4.2508092 -1.6575505
1.6790824 -4.2629328 -1.6582463
1.657288 -4.2845235 -1.6627692
1.63762 -4.3121424 -1.6697276
1.6127666 -4.3265023 -1.6714672
1.5877986 -4.3407192 -1.6732067
1.5601852 -4.3477325 -1.672163
1.5372108 -4.367837 -1.676338
1.5094646 -4.3745279 -1.6752943
1.4849957 -4.3908129 -1.6780776
1.4589103 -4.4025121 -1.6791214
1.4321587 -4.4122725 -1.6794692
1.4047749 -4.4200835 -1.6791214
1.3781838 -4.4304104 -1.6798172
1.3482459 -4.4298139 -1.676338
1.322643 -4.4433947 -1.6784256
1.2909046 -4.4361224 -1.6725109
1.2644295 -4.4466653 -1.6735547
1.2361188 -4.4507265 -1.672163
1.2105021 -4.4645619 -1.6745985
1.1826062 -4.4700923 -1.6739026
1.1528161 -4.4681859 -1.6704234
1.1249212 -4.4733567 -1.6697276
1.0961151 -4.4747109 -1.6676401
0.69542044 -2.9145212 -1.0699176
0.66948187 -2.884027 -1.0566968
0.65033102 -2.8816783 -1.0542613
0.63163501 -2.8810353 -1.0525217
0.61394542 -2.8848567 -1.0525217
0.5958544 -2.8867331 -1.0518259
0.5777635 -2.8884959 -1.0511301
0.55789459 -2.8809407 -1.046955
0.53986251 -2.8824666 -1.0462592
0.52050018 -2.8764987 -1.04278
0.50380594 -2.88518 -1.0448675
0.48190197 -2.8632531 -1.0354737
0.4602862 -2.8411672 -1.02608
0.4405424 -2.8291152 -1.0205133
0.42497146 -2.8438199 -1.0250362
0.40950161 -2.8602955 -1.030255
0.38839301 -2.8367448 -1.0205133
0.37376505 -2.8604569 -1.0285155
0.35332176 -2.8394365 -1.0198175
0.33731851 -2.8536553 -1.0243404
0.32198575 -2.8752379 -1.0316466
0.30325684 -2.8669035 -1.0278195
0.28575268 -2.8696432 -1.0281675
0.26848668 -2.8750765 -1.0295591
0.25148904 -2.8841419 -1.0323426
0.2340889 -2.8893688 -1.0337342
0.21635565 -2.8907506 -1.0337342
0.19989154 -2.9107306 -1.0406926
0.18127227 -2.8997381 -1.0361696
0.16352879 -2.9017317 -1.0365175
0.14698017 -2.9279623 -1.0459113
0.12868464 -2.9213161 -1.0431279
0.11075737 -2.9220507 -1.0431279
0.093237408 -2.9357941 -1.0479988
0.075411089 -2.9438088 -1.0507821
0.057436254 -2.9489028 -1.0525217
0.039413881 -2.9548244 -1.0546092
0.021199649 -2.9428232 -1.0500863
0.0031386227 -2.9372725 -1.0479988
-0.014863729 -2.9334865 -1.0466071
-0.032797758 -2.9277153 -1.0445197
-0.050728019 -2.9255843 -1.0438237
-0.068409622 -2.9139707 -1.0396488
-0.08631625 -2.9144332 -1.0399966
-0.10450212 -2.922281 -1.0431279
-0.12298564 -2.9346983 -1.0479988
-0.14058198 -2.9254608 -1.0448675
-0.15898964 -2.9329681 -1.0479988
-0.17726728 -2.9366164 -1.0497384
-0.1952201 -2.9345381 -1.0493904
-0.2130174 -2.9304798 -1.0483468
-0.23121668 -2.9319215 -1.0493904
-0.24888305 -2.9267111 -1.0479988
-0.26632312 -2.9195271 -1.0459113
-0.28414071 -2.9169049 -1.0455633
-0.30164522 -2.9113767 -1.0441717
-0.32032505 -2.9169261 -1.046955
-0.33886749 -2.9204931 -1.0490426
-0.35735157 -2.9230115 -1.0507821
-0.37695789 -2.9337816 -1.055653
-0.39608204 -2.939775 -1.0587842
-0.41923118 -2.9734929 -1.072353
-0.43527731 -2.9560251 -1.0667863
-0.45297909 -2.9505188 -1.0657426
-0.47285429 -2.9587924 -1.0699176
-0.49053824 -2.9530609 -1.0688739
-0.50625378 -2.9361379 -1.0636551
-0.52558267 -2.9403591 -1.0664384
-0.54070777 -2.9214082 -1.0605239
-0.55862302 -2.9180355 -1.0605239
-0.58125651 -2.9384634 -1.0695697
-0.59833604 -2.930249 -1.0678301
-0.61688513 -2.9292746 -1.0688739
-0.63663977 -2.9336793 -1.0720052
-0.65401411 -2.9269731 -1.0709614
-0.67090935 -2.9183371 -1.0692217
-0.68664324 -2.9050424 -1.0657426
-0.70312577 -2.895309 -1.0636551
-0.71383506 -2.8627431 -1.0528697
-0.72929221 -2.8501356 -1.0497384
-0.74390662 -2.8347263 -1.0455633
-1.0790734 -4.009645 -1.4989001
-0.82178998 -2.98173 -1.1057531
-0.83981508 -2.9757292 -1.1054052
-0.86431026 -2.9921346 -1.1137552
-0.88637781 -2.9993608 -1.1186261
-1.222741 -4.0446501 -1.5260376
-1.257509 -4.069315 -1.5385627
-1.2898 -4.084765 -1.5476085
-1.3286641 -4.1195989 -1.5643085
-0.98853087 -3.0028145 -1.1311511
-0.98391879 -2.9282713 -1.1043614
-0.96595013 -2.817544 -1.0633072
-0.98414952 -2.8142185 -1.064351
-1.0013987 -2.8081269 -1.064351
-1.0147624 -2.7913578 -1.0601759
-1.01622 -2.7428868 -1.0434759
-1.0416484 -2.7594013 -1.0525217
-1.0592338 -2.7547078 -1.0532175
-1.0853553 -2.7717235 -1.0626113
-1.1065122 -2.7754605 -1.0667863
-1.1351659 -2.7972822 -1.0782676
-1.1458609 -2.7746689 -1.0720052
-1.1581389 -2.7563515 -1.0674822
-1.1750298 -2.7491932 -1.0674822
-1.1877615 -2.7324755 -1.0636551
-1.2052641 -2.7268507 -1.064351
-1.2196654 -2.7142739 -1.0622634
-1.2281103 -2.688834 -1.0549572
-1.2437955 -2.6795473 -1.0542613
-1.2574116 -2.6659305 -1.0518259
-1.2737458 -2.658165 -1.0518259
-1.2859255 -2.6418715 -1.0483468
-1.3050221 -2.6398132 -1.0507821
-1.3371915 -2.663589 -1.064003
-1.3760924 -2.6995945 -1.0824426
-1.375814 -2.6586337 -1.0688739
-1.3969005 -2.6592696 -1.072701
-1.4259914 -2.6746349 -1.0827905
-1.4633591 -2.7045815 -1.0991427
-2.0583029 -3.7480767 -1.5448252
-1.4804596 -2.6577601 -1.0869656
-1.4865853 -2.6306734 -1.0793114
-1.4971001 -2.6117439 -1.0751363
-1.494236 -2.5700963 -1.0612197
-1.5090247 -2.5592647 -1.0605239
-1.5203667 -2.542717 -1.0573926
-1.5461537 -2.5501719 -1.0646988
-1.5632459 -2.5430322 -1.0657426
-1.5798125 -2.5349834 -1.0664384
-1.5978423 -2.5292041 -1.0681781
-1.6194019 -2.5288243 -1.072353
-1.6302915 -2.5117643 -1.0692217
-1.6446416 -2.5001478 -1.0685259
-1.6557885 -2.4837704 -1.0657426
-1.6610205 -2.4588072 -1.0591321
-1.6771359 -2.4501159 -1.059828
-1.6899996 -2.4366984 -1.0584363
-1.7081549 -2.4308841 -1.0605239
-1.7246704 -2.422648 -1.0615675
-1.7329189 -2.4028976 -1.0573926
-1.7642304 -2.4149239 -1.0678301
-1.7991018 -2.4311757 -1.0803552
-1.8106098 -2.4155912 -1.0782676
-1.8225617 -2.4007034 -1.0765281
-1.8263947 -2.3753581 -1.0699176
-1.8374774 -2.3596699 -1.0678301
-1.8414667 -2.3351042 -1.0615675
-1.8662958 -2.3369436 -1.0678301
-1.8664445 -2.3079581 -1.0594801
-1.8770051 -2.2921119 -1.0573926
-1.886843 -2.2755013 -1.0549572
-1.9019759 -2.2653165 -1.055653
-1.9097646 -2.2464631 -1.0521739
-1.9229009 -2.2339923 -1.0518259
-1.9421183 -2.2285106 -1.0549572
-1.9632022 -2.2249851 -1.0591321
-1.970569 -2.2059078 -1.055653
-1.9746301 -2.1833489 -1.0504342
-2.0019243 -2.1863983 -1.0580884
-2.0063753 -2.1644511 -1.0532175
-2.0132003 -2.1452656 -1.0497384
-2.0146973 -2.1206427 -1.0434759
-2.0276716 -2.1082408 -1.0434759
-2.0497293 -2.10516 -1.0483468
-2.0658998 -2.0958805 -1.0500863
-2.0800459 -2.0844917 -1.0507821
-2.0901308 -2.0690525 -1.0493904
-2.1128454 -2.0660167 -1.0546092
-2.1221097 -2.0497582 -1.0528697
-2.1271827 -2.0295825 -1.0490426
-2.146421 -2.0229197 -1.0525217
-2.1663439 -2.0167353 -1.0563488
-2.1883426 -2.0122855 -1.0612197
-2.2110622 -2.0082712 -1.0664384
-2.224041 -1.9952923 -1.0667863
-2.2425594 -1.9872019 -1.0699176
-2.2575333 -1.9758731 -1.0713092
-2.2681954 -1.9607583 -1.0706134
-2.271625 -1.9395022 -1.0664384
-2.2906523 -1.9315683 -1.0699176
-2.2909307 -1.9078817 -1.064351
-2.3149076 -1.9039083 -1.0702655
-2.3323696 -1.8943948 -1.0730488
-2.3776014 -1.9070184 -1.089053
-2.3782308 -1.8836666 -1.0838343
-2.4096889 -1.8846256 -1.0932281
-2.4249187 -1.8726683 -1.0949677
-2.4318891 -1.8543448 -1.0928801
-2.4289863 -1.8286798 -1.0862697
-2.4454298 -1.8176544 -1.0887052
-2.4512441 -1.7987347 -1.0862697
-2.4614754 -1.7831105 -1.0859218
-2.4738958 -1.7690637 -1.0866176
-2.4824054 -1.7522298 -1.0855739
-2.4677186 -1.7192889 -1.0740926
-2.4898124 -1.7120786 -1.0793114
-2.5064781 -1.7009784 -1.0820947
-2.5199847 -1.6876525 -1.0834864
-2.5404632 -1.6788741 -1.0880094
-2.5664268 -1.6734903 -1.0949677
-2.5987287 -1.6719064 -1.1047094
-2.6057715 -1.6539209 -1.1033177
-2.6500471 -1.6592824 -1.1182781
-2.7024634 -1.6690857 -1.1367178
-2.7198615 -1.6568593 -1.1398491
-2.7556987 -1.6555803 -1.1509824
-2.773066 -1.6429387 -1.1541137
-2.7839046 -1.6263652 -1.1544616
-2.8084574 -1.6176707 -1.160724
-2.8395312 -1.6124369 -1.16977
-2.8747368 -1.6091704 -1.1805553
-2.9724069 -1.6399308 -1.2177826
-3.0153651 -1.6395644 -1.2316993
-3.9634736 -2.1232753 -1.6265858
-3.1024251 -1.6378692 -1.2598807
-3.1581705 -1.6425804 -1.2790161
-3.2266068 -1.6530765 -1.3033704
-3.2902658 -1.6602609 -1.3256371
-3.3457353 -1.6625559 -1.3444246
-3.4089355 -1.667938 -1.3663434
-3.474015 -1.6734192 -1.3889581
-3.7366955 -1.7716937 -1.4926375
-3.778085 -1.7629961 -1.5051625
-3.6823184 -1.6909072 -1.4616728
-3.7182589 -1.6798538 -1.4721104
-3.9024343 -1.7342496 -1.5427376
-3.9207344 -1.7136492 -1.5458689
-3.9260066 -1.6873399 -1.5437814
-3.9406044 -1.665042 -1.545521
-4.1308575 -1.7155787 -1.6178879
-4.1933928 -1.7114424 -1.638763
-4.2099071 -1.688121 -1.6411983
-4.261188 -1.6783956 -1.6575505
-4.326498 -1.673512 -1.6794692
-4.3480802 -1.6512579 -1.6839921
-4.4459858 -1.657272 -1.718784
-4.5115457 -1.6502372 -1.7407027
-4.5480618 -1.632017 -1.7511402
-4.6092868 -1.6221189 -1.7713195
-4.6599245 -1.6078633 -1.7873237
-4.7149997 -1.5945475 -1.8050675
-4.7941155 -1.5885724 -1.8322051
-4.8697653 -1.5805286 -1.857951
-4.9794502 -1.5823977 -1.8969178
-5.0454683 -1.5693446 -1.9188366
-5.0872936 -1.5481758 -1.9313616
-5.107481 -1.5201386 -1.9355366
-5.1212134 -1.4900798 -1.9372762
-5.1329656 -1.4593971 -1.9383199
-5.1345963 -1.4258691 -1.9355366
-5.1369143 -1.3926212 -1.9331012
-5.1462688 -1.361315 -1.9334491
-5.1599722 -1.3311164 -1.9355366
-5.1780448 -1.3019429 -1.9393637
-5.1859355 -1.2701465 -1.9393637
-5.2136955 -1.2430816 -1.9470179
-5.181952 -1.201967 -1.9320575
-5.1627059 -1.1641736 -1.9219679
-5.1880693 -1.1364822 -1.9289262
-5.183023 -1.1020951 -1.9244033
-5.2282538 -1.0782168 -1.9390157
-5.2283359 -1.0448319 -1.9365804
-5.2521377 -1.0161114 -1.9431908
-5.2518225 -0.98266017 -1.9407554
-5.2688246 -0.95241594 -1.9449304
-5.2681041 -0.91894281 -1.942495
-5.2579255 -0.88396198 -1.9365804
-5.2734308 -0.85332847 -1.9404075
-5.2757883 -0.82052362 -1.9393637
-5.2853599 -0.78882754 -1.9411033
-0 -0 -0
-0 -0 -0
-0 -0 -0
-0 -0 -0
-0 -0 -0
-0 -0 -0
-0 -0 -0
-0 -0 -0
-0 -0 -0
-0 -0 -0
-0 -0 -0
-0 -0 -0
-0 -0 -0
-0 -0 -0
-0 -0 -0
-0 -0 -0
-0 -0 -0
-0 -0 -0
-0 -0 -0
-0 -0 -0
-0 -0 -0
-0 -0 -0
-0 -0 -0
-0 -0 -0
-0 0 -0
-0 0 -0
-0 0 -0
-0 0 -0
-0 0 -0
-0 0 -0
-0 0 -0
-0 0 -0
-0 0 -0
-0 0 -0
-0 0 -0
-0 -0 -0
-5.1544666 -0.10022455 -1.9336559
-5.177393 -0.0688954 -1.942245
-0 -0 -0
-5.2030602 -0.0053836936 -1.9519078
-0 0 -0
-0 0 -0
-0 0 -0
-0 0 -0
-0 0 -0
-0 0 -0
-0 0 -0
-0 0 -0
-0 0 -0
-0 0 -0
-0 0 -0
-0 0 -0
-0 0 -0
-0 0 -0
-0 0 -0
-0 0 -0
-0 0 -0
-0 0 -0
-0 0 -0
-0 0 -0
-0 0 -0
-0 0 -0
-0 0 -0
-0 0 -0
-0 0 -0
-0 0 -0
-0 0 -0
-0 0 -0
-0 0 -0
-0 0 -0
-0 0 -0
-0 0 -0
-0 0 -0
-5.0255699 1.0584948 -1.9261404
-5.016243 1.0887172 -1.9250668
-5.0076456 1.1190687 -1.924351
-4.997045 1.1489373 -1.9229195
-4.9926271 1.1802212 -1.9239931
-4.9807544 1.2097316 -1.9222038
-4.97505 1.2407219 -1.9229195
-4.9646297 1.2705306 -1.9218459
-4.9621596 1.3023909 -1.9239931
-4.9540749 1.3328136 -1.9239931
-4.952105 1.3649225 -1.9264983
-4.9364476 1.3932539 -1.9236352
-4.9367766 1.4261079 -1.927214
-4.9359927 1.4587537 -1.9304349
-4.9323125 1.4906332 -1.9325823
-4.918612 1.5194916 -1.9307928
-4.9083056 1.5493621 -1.9304349
-4.9013729 1.580309 -1.9315087
-4.8951321 1.6115212 -1.9329401
-4.8762999 1.6385533 -1.9293613
-4.8794041 1.6729846 -1.9347295
-4.8628769 1.7007352 -1.9322244
-4.8479519 1.7289733 -1.9304349
-4.8293538 1.7558162 -1.927214
-4.8158627 1.7844424 -1.9261404
-4.7969604 1.8109908 -1.9229195
-4.7796569 1.8380448 -1.9204143
-4.763072 1.8652949 -1.9182671
-4.7576089 1.8969058 -1.9207722
-4.7432842 1.925009 -1.9196986
-4.7339725 1.9551462 -1.9207722
-4.7253304 1.9856031 -1.9222038
-4.7121992 2.0141928 -1.9218459
-4.6971827 2.0419519 -1.9207722
-4.6802945 2.0688477 -1.9189829
-4.6641054 2.0959957 -1.9175513
-4.6435122 2.1210835 -1.9143304
-4.622787 2.1459975 -1.9111094
-4.5943303 2.1671526 -1.9046676
-4.5927362 2.2009509 -1.909678
-4.5841823 2.2315416 -1.9118253
-4.5754261 2.2621102 -1.9139725
-4.5622945 2.290561 -1.9143304
-4.5514817 2.3202076 -1.9157619
-4.5388184 2.3489494 -1.9164777
-4.5268002 2.3780575 -1.9175513
-4.5071793 2.4031532 -1.9154041
-4.4800296 2.424099 -1.9100358
-4.4626155 2.4501941 -1.9089622
-4.4401555 2.4734409 -1.9057413
-4.4224563 2.4992607 -1.9046676
-4.4094682 2.5277424 -1.9057413
-4.3979115 2.5570972 -1.9075307
-4.3813343 2.5835598 -1.9071728
-4.373414 2.6151862 -1.9107516
-4.3612781 2.644392 -1.912541
-4.3457656 2.6715915 -1.9128989
-4.3213663 2.6932681 -1.9093201
-4.3039699 2.719234 -1.9089622
-4.2950678 2.7506268 -1.912541
-4.2788925 2.7774374 -1.9128989
-4.267231 2.8072317 -1.9154041
-4.2545877 2.8364697 -1.9175513
-4.2378769 2.8630445 -1.9179091
-4.2256241 2.8926857 -1.9204143
-4.1947508 2.909513 -1.9143304
-4.1752915 2.934123 -1.9136146
-4.1518846 2.9558964 -1.9111094
-4.1313968 2.9796779 -1.9100358
-4.1062498 3.0000143 -1.9068149
-4.0802588 3.0195992 -1.9032362
-4.0646429 3.0468185 -1.9046676
-4.044384 3.0705721 -1.9039519
-4.0291686 3.0981758 -1.9057413
-4.0122929 3.1245611 -1.9068149
-3.9930453 3.1491213 -1.9068149
-3.9853225 3.1828854 -1.912541
-3.9635394 3.2055175 -1.9114674
-0 0 -0
-3.9274983 3.2568948 -1.9132568
-3.9103012 3.2833338 -1.9146882
-3.8786979 3.2975888 -1.9089622
-3.8633454 3.3255899 -1.9114674
-3.8421633 3.3486187 -1.9111094
-3.8215442 3.3721309 -1.9111094
-3.8035669 3.3980041 -1.912541
-3.7791827 3.4181468 -1.9107516
-3.7615819 3.4444239 -1.912541
-3.7410612 3.4680746 -1.9128989
-3.7231157 3.4941587 -1.9146882
-3.7002518 3.5156512 -1.9139725
-3.6786106 3.5382893 -1.9139725
-3.6554928 3.5594916 -1.9132568
-3.6355784 3.5838206 -1.9143304
-3.612859 3.605401 -1.9139725
-3.5906687 3.6275012 -1.9139725
-3.5683432 3.6494651 -1.9139725
-3.5445859 3.6699481 -1.9132568
-3.520067 3.6896014 -1.9121832
-3.4980021 3.7118101 -1.912541
-3.4751611 3.7332036 -1.912541
-3.4433401 3.7448342 -1.9075307
-3.4190416 3.7645092 -1.9068149
-3.3977494 3.7875023 -1.9078885
-3.3725879 3.8061826 -1.9068149
-3.3516302 3.8296154 -1.9082465
-3.3317332 3.8543468 -1.9103937
-3.3074143 3.8740072 -1.9100358
-3.2799697 3.8899453 -1.9078885
-3.254247 3.907845 -1.9068149
-3.2302074 3.9277391 -1.9068149
-3.2042804 3.9453111 -1.9057413
-3.1835177 3.9692681 -1.9078885
-3.1608422 3.9909229 -1.9089622
-3.132843 4.0058293 -1.9068149
-3.1070633 4.023499 -1.9060992
-3.0840156 4.0447154 -1.9071728
-3.0568931 4.0605783 -1.9057413
-3.0308061 4.0777597 -1.9050256
-3.0068333 4.0977855 -1.9057413
-2.9630067 4.0904479 -1.8935734
-2.9449139 4.1184254 -1.8982259
-2.9276659 4.1478601 -1.903594
-2.9005587 4.1634474 -1.9025204
-2.8760159 4.1827054 -1.9032362
-2.8497727 4.199501 -1.9028783
-2.8234317 4.2161317 -1.9025204
-2.796994 4.2325978 -1.9021626
-2.7719908 4.2512445 -1.9028783
-2.7458534 4.2681732 -1.9028783
-2.7211142 4.2873058 -1.9039519
-2.6982255 4.3094616 -1.9064571
-2.672714 4.3275251 -1.9071728
-2.6470821 4.345438 -1.9078885
-2.6179645 4.3575964 -1.9060992
-2.5892735 4.3703647 -1.9046676
-2.559582 4.3813324 -1.9025204
-2.5312521 4.3945279 -1.9014468
-2.5042403 4.409977 -1.9014468
-2.477134 4.4252596 -1.9014468
-2.4490321 4.4387407 -1.900731
-2.4221966 4.454504 -1.9010888
-2.3930542 4.4659905 -1.8996574
-2.3625541 4.4748101 -1.8971522
-2.3341908 4.4875655 -1.8964365
-2.302779 4.4943242 -1.8932155
-2.2760005 4.5100365 -1.8939313
-2.2470376 4.5214086 -1.8928577
-2.2229469 4.5426593 -1.8960786
-2.1978693 4.5621018 -1.8985838
-2.1742373 4.5847821 -1.9025204
-2.1484346 4.6031132 -1.9046676
-2.1236582 4.6238461 -1.9078885
-2.0948622 4.6359386 -1.9075307
-2.0652392 4.6461453 -1.9064571
-2.0325768 4.6493187 -1.9025204
-2.0029044 4.6591296 -1.9014468
-1.9713701 4.6644506 -1.8985838
-1.9402044 4.670423 -1.8960786
-1.9097457 4.6779175 -1.8942891
-1.8820497 4.6921473 -1.8953629
-1.8539085 4.7053447 -1.8960786
-1.8226429 4.7105355 -1.8935734
-1.7980171 4.7329779 -1.8982259
-1.7692686 4.7447963 -1.8985838
-1.7404428 4.7564397 -1.8989416
-1.7134339 4.773181 -1.9014468
-1.682253 4.7783203 -1.8992995
-1.6519879 4.7859044 -1.8982259
-1.6219923 4.7941818 -1.8975101
-1.5916636 4.8013849 -1.8964365
-1.561596 4.8092847 -1.8957207
-1.5241336 4.79386 -1.8857001
-1.501906 4.8263025 -1.895005
-1.4730803 4.8381071 -1.8960786
-1.4449658 4.8524241 -1.8982259
-1.4182976 4.8719573 -1.9025204
-1.387866 4.8787718 -1.9018047
-1.3584044 4.8889952 -1.9025204
-1.3286251 4.898139 -1.9028783
-1.2978287 4.9034915 -1.9018047
-1.2672501 4.909554 -1.9010888
-1.2366459 4.9154263 -1.9003731
-1.2064623 4.9229217 -1.9003731
-1.1755828 4.9275069 -1.8992995
-1.1442701 4.9300795 -1.8975101
-1.1150261 4.9415622 -1.8992995
-1.0834842 4.9428382 -1.8971522
-1.0523574 4.9457402 -1.8957207
-1.0227464 4.9557619 -1.8971522
-0.98883861 4.9445472 -1.8903525
-0.96132183 4.9651895 -1.8960786
-0.92911857 4.9618163 -1.8924998
-0.89915484 4.9701805 -1.8935734
-0.86735618 4.9682455 -1.8907104
-0.8374753 4.9771571 -1.8921419
-0.8057254 4.9748282 -1.8892789
-0.77504152 4.9787555 -1.888921
-0.74572027 4.9917288 -1.8921419
-0.71468043 4.9934378 -1.8910682
-0.68491471 5.0042048 -1.8935734
-0.65431762 5.0092392 -1.8939313
-0.62472248 5.0224257 -1.8975101
-0.59411299 5.028019 -1.8982259
-0.56387419 5.0371375 -1.9003731
-0.5329563 5.0405025 -1.9003731
-0.50266623 5.0501819 -1.9028783
-0.47097459 5.0457335 -1.9000152
-0.44041145 5.0531797 -1.9018047
-0.40902022 5.0511332 -1.9000152
-0.37767071 5.048892 -1.8982259
-0.34636411 5.0464563 -1.8964365
