# .PCD v0.7 - Point Cloud Data file format
VERSION 0.7
FIELDS x y z
SIZE 4 4 4
TYPE F F F
COUNT 1 1 1
WIDTH 1515
HEIGHT 1
VIEWPOINT 0 0 0 1 0 0 0
POINTS 1515
DATA ascii
3.6717207 14.28923 -1.8047177
3.7552819 14.25108 -1.8027345
3.8436894 14.231602 -1.8032303
3.9269705 14.193404 -1.8013711
4.0001879 14.120352 -1.7950497
4.1049957 14.158441 -1.8032303
4.1946154 14.142499 -1.8044697
4.2902431 14.145931 -1.8083122
4.3613839 14.069109 -1.8017429
4.4548211 14.064786 -1.8047177
4.5355382 14.020193 -1.8024865
4.6354866 14.034499 -1.8080642
4.7205625 14.002971 -1.8076924
4.8131733 13.993447 -1.8102953
4.9019022 13.972077 -1.8114108
4.9948959 13.962291 -1.8141377
5.0906739 13.959346 -1.8178561
5.1703534 13.912036 -1.815749
5.2700281 13.918096 -1.8208308
5.371757 13.928083 -1.8265325
5.4680018 13.922568 -1.8302509
5.5724869 13.936666 -1.8366961
5.6679969 13.927025 -1.8400428
5.7844844 13.967158 -1.8502065
5.8785543 13.951519 -1.8529334
5.9726501 13.93525 -1.8556602
6.0754914 13.938363 -1.8611139
6.1846275 13.954345 -1.8684268
6.2742105 13.92518 -1.8696663
6.3826766 13.93694 -1.8766074
6.4852414 13.934399 -1.8816893
6.5901361 13.935606 -1.8873909
6.6995864 13.944993 -1.8943319
6.806788 13.948209 -1.9005294
6.9164839 13.955078 -1.9073465
7.0225039 13.953148 -1.913048
7.1328244 13.958393 -1.9198653
7.2352462 13.946953 -1.9244512
7.3387208 13.936536 -1.9292853
7.4423389 13.925373 -1.9341192
7.5602903 13.93963 -1.9426717
7.6791735 13.95383 -1.9513479
7.7917414 13.954964 -1.958289
7.8918943 13.932793 -1.9620075
8.0172825 13.953795 -1.9720472
8.1212387 13.936059 -1.9766333
8.2469893 13.954304 -1.9865491
8.3559237 13.942589 -1.9922508
8.4840918 13.961436 -2.0025384
8.5961466 13.9522 -2.0088599
8.7289104 13.974933 -2.020015
8.864398 13.999913 -2.0316663
8.982295 13.995362 -2.039103
9.1080437 14.001534 -2.0482752
9.2216425 13.987633 -2.0545964
9.3409243 13.981114 -2.0621574
9.4560223 13.967084 -2.0687265
9.5550175 13.928437 -2.0717013
9.6210432 13.841845 -2.067487
9.6452274 13.696556 -2.0543487
9.7146778 13.616922 -2.05125
9.7945585 13.552233 -2.0505064
9.8564253 13.463058 -2.0460441
9.9264345 13.38559 -2.0434413
9.9994392 13.31253 -2.0415821
10.063511 13.228023 -2.0379875
10.129951 13.147161 -2.0350127
10.194556 13.064419 -2.03179
10.259144 12.982158 -2.0286915
10.322486 12.898823 -2.0254688
10.382069 12.811345 -2.0216265
10.442856 12.725924 -2.0181558
10.499815 12.636423 -2.0140655
10.548403 12.537594 -2.0084879
10.603253 12.446953 -2.0042737
10.668408 12.368885 -2.0021665
10.744102 12.303192 -2.0021665
10.818733 12.236293 -2.0020425
10.892286 12.168201 -2.0017948
10.936756 12.068053 -1.9962171
10.982421 11.970013 -1.9910113
11.032022 11.876956 -1.9866731
11.087695 11.79097 -1.9835744
11.14136 11.703312 -1.9802278
11.198499 11.619726 -1.9776249
11.253646 11.53446 -1.9747741
11.313051 11.453897 -1.972791
11.359261 11.360411 -1.9685767
11.410398 11.272367 -1.9653541
11.462304 11.185511 -1.9623793
11.522148 11.106706 -1.960892
11.584331 11.030324 -1.9599004
11.648179 10.955637 -1.9592806
11.705731 10.875179 -1.9576693
11.757617 10.789733 -1.9551903
11.80816 10.703393 -1.9525875
11.852172 10.611545 -1.948993
11.880634 10.506413 -1.9429195
11.929929 10.420263 -1.9404405
11.958327 10.316405 -1.934615
12.017626 10.239618 -1.9339952
12.067321 10.154826 -1.9318881
12.113376 10.067274 -1.9292853
12.154208 9.9757614 -1.9259386
12.193604 9.8835039 -1.9224681
12.243947 9.8004389 -1.9208568
12.29373 9.7171288 -1.9192455
12.335912 9.6280823 -1.9165186
12.37432 9.5364618 -1.913296
12.407331 9.4411287 -1.9093297
12.441225 9.3469419 -1.9056112
12.475229 9.2532864 -1.9020168
12.513357 9.163084 -1.8991659
12.550044 9.0721807 -1.8961911
12.591741 8.9852066 -1.8940841
12.626354 8.8934927 -1.8909854
12.66439 8.8045235 -1.8885064
12.707538 8.7193527 -1.8868951
12.717251 8.6117325 -1.8803258
12.739325 8.5131416 -1.8757398
12.774752 8.4238901 -1.8732609
12.813723 8.3372307 -1.8714015
12.861298 8.2563066 -1.8709058
12.899979 8.1698036 -1.8691705
12.936399 8.0820856 -1.8671874
12.962936 7.988503 -1.8638408
12.993901 7.8979917 -1.8612379
13.019137 7.8043408 -1.8578913
13.052257 7.7157269 -1.8557842
13.08478 7.6270008 -1.853677
13.121867 7.5411325 -1.8523136
13.155805 7.453629 -1.8505783
13.190029 7.366477 -1.8489671
13.217594 7.2758369 -1.8464881
13.238439 7.1818247 -1.8431414
13.270004 7.0939116 -1.8414062
13.286942 6.9984837 -1.8376877
13.306733 6.9049439 -1.8344651
13.327644 6.8123279 -1.8314904
13.370966 6.7313151 -1.8317382
13.410238 6.6482644 -1.8314904
13.448996 6.5649848 -1.8312424
13.493496 6.4844885 -1.8318622
13.534824 6.4024205 -1.8321102
13.574754 6.3196707 -1.832234
13.612372 6.2358451 -1.8321102
13.652188 6.1530194 -1.832358
13.696943 6.0723519 -1.8333496
13.742131 5.9917636 -1.8344651
13.786845 5.9108491 -1.8355807
13.828341 5.828455 -1.8363243
13.865676 5.7442555 -1.8365723
13.904338 5.6605659 -1.8370681
13.936966 5.5744071 -1.8368201
13.964442 5.4862471 -1.8359525
14.008026 5.4043875 -1.8373159
14.028859 5.313766 -1.8357046
14.063061 5.2282777 -1.8359525
14.103266 5.1449499 -1.8370681
14.143912 5.0616598 -1.8383075
14.173767 4.9744506 -1.8381835
14.217159 4.8919072 -1.8399189
14.25349 4.8067994 -1.8407865
14.288369 4.7211189 -1.8415302
14.314236 4.6324415 -1.8411583
14.337661 4.5430255 -1.8405386
14.365266 4.4549661 -1.8405386
14.408474 4.371635 -1.8426456
14.449296 4.2873769 -1.844505
14.477237 4.1991897 -1.8447528
14.499866 4.1094685 -1.844381
14.521939 4.0196276 -1.8440092
14.546329 3.9304469 -1.8440092
14.570173 3.8411183 -1.8440092
14.592506 3.7513981 -1.8438852
14.621987 3.6634772 -1.8447528
14.653831 3.5760412 -1.8459923
14.683221 3.4878936 -1.8469839
14.705313 3.3979568 -1.8471078
14.716204 3.3054888 -1.8458683
14.717788 3.2111123 -1.8435134
14.743039 3.121978 -1.844257
14.813435 3.042033 -1.8508263
14.851286 2.9549534 -1.8533052
14.85647 2.8613334 -1.8516939
14.879601 2.7712116 -1.8524376
14.915856 2.6833723 -1.8549166
14.946706 2.5943441 -1.8567758
14.974088 2.5045474 -1.8582631
14.970559 2.4096265 -1.8559082
14.98016 2.3169653 -1.8552884
14.996058 2.2252965 -1.8555362
15.014341 2.1339383 -1.856156
7.0479612 0.95824504 -0.85031915
6.462285 0.83836257 -0.77582645
6.448596 0.79638749 -0.77347147
6.421823 0.7531119 -0.76950514
6.4154744 0.71249127 -0.76814169
6.4157782 0.67270005 -0.7676459
6.4168224 0.63302922 -0.76727408
6.4116931 0.5928238 -0.76615852
6.4112554 0.55313081 -0.76566273
6.4026589 0.51283312 -0.76417536
6.4225082 0.47477806 -0.7662825
6.3975797 0.43348807 -0.76281196
6.3941765 0.39386016 -0.76206827
6.3875556 0.35412607 -0.76095271
6.3816795 0.31453675 -0.75996113
6.3616791 0.27443671 -0.75723428
6.3682013 0.23557952 -0.75785404
6.3715105 0.19656137 -0.75810194
6.3716049 0.15743849 -0.75797796
6.3774114 0.11843131 -0.75859773
6.3938937 0.079492494 -0.7605809
6.3942609 0.040258806 -0.7605809
6.3963723 0.0010235582 -0.76082879
6.4041963 -0.038272746 -0.76182038
6.4117785 -0.077665024 -0.76281196
6.4141579 -0.11706036 -0.76318377
6.4252224 -0.15670717 -0.76467115
6.4429846 -0.19670738 -0.76702619
6.4535556 -0.23667562 -0.76851356
6.4569387 -0.27648258 -0.76913327
6.466023 -0.31663224 -0.77049673
6.473866 -0.35684896 -0.7717362
6.4834399 -0.39729556 -0.77322358
6.5145407 -0.43934587 -0.77743781
6.5483375 -0.48201177 -0.78202385
13.602713 -1.0864866 -1.6663918
13.506813 -1.1622666 -1.6552365
13.466821 -1.2421107 -1.6511463
13.322669 -1.3112931 -1.6340414
13.25812 -1.3871244 -1.6269764
13.217799 -1.4649481 -1.62301
10.596853 -1.240099 -1.2945483
10.585105 -1.3046107 -1.2940525
10.566076 -1.3681324 -1.2926891
10.559449 -1.433206 -1.2929369
10.566175 -1.500204 -1.2949201
10.571494 -1.5671929 -1.2967793
12.972076 -2.0047607 -1.6014432
12.937978 -2.0808499 -1.5987163
12.88484 -2.1534865 -1.5936345
12.842053 -2.2274158 -1.589916
12.838887 -2.3081036 -1.5912794
12.843994 -2.390471 -1.5937583
12.823238 -2.4681094 -1.5930147
12.826344 -2.5504234 -1.5953697
12.824061 -2.6318705 -1.597105
12.813496 -2.711741 -1.5978487
12.794677 -2.7898891 -1.5976008
12.773445 -2.8674736 -1.597105
12.756577 -2.9460194 -1.5972289
12.741157 -3.0249248 -1.5976008
8.2590027 -2.0139918 -1.0237222
12.807994 -3.2073333 -1.611111
12.806333 -3.290555 -1.6134661
12.798375 -3.3723593 -1.6150774
7.5892148 -2.0491428 -0.94377583
12.671869 -3.5058694 -1.60417
12.60143 -3.5697589 -1.5978487
12.480175 -3.6182678 -1.5849581
8.0065851 -2.3741984 -1.0050061
7.9671783 -2.4157915 -1.0017834
7.9493618 -2.4637501 -1.0014116
7.935041 -2.5127797 -1.0015355
8.5000896 -2.7493012 -1.0777634
12.526979 -4.1374335 -1.6097476
12.497596 -4.2129512 -1.6092519
12.442423 -4.2795482 -1.6054095
12.376605 -4.3420129 -1.6002036
7.7222595 -2.7620234 -0.98628992
12.311204 -4.4894857 -1.5987163
12.272264 -4.560792 -1.5972289
12.236625 -4.6331959 -1.5962373
12.198708 -4.7046199 -1.5949979
12.150215 -4.7717619 -1.5923949
12.070955 -4.8263268 -1.5857018
12.023652 -4.8931937 -1.5833467
11.986068 -4.9638395 -1.5823551
11.954471 -5.0369058 -1.5822313
11.921515 -5.1093802 -1.5819833
11.875387 -5.1760879 -1.5800002
11.81256 -5.2351837 -1.575786
11.763027 -5.2998195 -1.5734309
11.716754 -5.3656979 -1.5715717
11.668317 -5.4303703 -1.5694646
11.611455 -5.4908323 -1.566242
11.548924 -5.548223 -1.5622756
11.492371 -5.6080999 -1.5591769
11.447075 -5.6732216 -1.5576895
11.394323 -5.7344298 -1.5552106
11.335066 -5.7920427 -1.551864
11.28346 -5.8532586 -1.5496329
11.242064 -5.9196076 -1.5488893
11.192404 -5.9814596 -1.5470301
11.148514 -6.0462375 -1.5460385
11.109467 -6.1135726 -1.5457906
11.061349 -6.175818 -1.5443032
11.00598 -6.2337904 -1.5418242
10.939991 -6.2853837 -1.5378579
10.878929 -6.3394003 -1.5346353
10.812491 -6.3898754 -1.530669
10.763719 -6.4504876 -1.5293055
10.731567 -6.5210495 -1.530421
10.6677 -6.5721984 -1.5269505
10.60445 -6.6233358 -1.5236039
10.561095 -6.686686 -1.5232321
10.513187 -6.7470737 -1.5222405
10.470758 -6.8109131 -1.5221165
10.451138 -6.8897805 -1.5254631
10.385565 -6.9383411 -1.5219926
10.32472 -6.9896955 -1.5192658
10.283274 -7.054038 -1.5195136
10.232465 -7.1119046 -1.518398
10.187823 -7.1739845 -1.5182742
10.139574 -7.233479 -1.5176544
10.085349 -7.2885828 -1.516167
10.030029 -7.3427072 -1.5145557
9.9728317 -7.3952451 -1.5126965
9.9137802 -7.446166 -1.5105894
9.8560591 -7.4978428 -1.5087302
9.7965059 -7.5478806 -1.506623
9.7374926 -7.5980806 -1.5046399
9.6813469 -7.6503019 -1.5031525
9.642745 -7.7163825 -1.5045159
9.5905914 -7.7716551 -1.5037723
9.5350542 -7.8240604 -1.5025327
9.4708414 -7.8691006 -1.4999299
9.4147863 -7.9206758 -1.4986904
9.3660088 -7.9782944 -1.4986904
9.3018513 -8.0226498 -1.4962114
9.2419872 -8.0704355 -1.4944762
9.179657 -8.1158171 -1.4923691
9.1193361 -8.1627235 -1.4906337
9.0587864 -8.2091951 -1.4888985
8.9987402 -8.2559023 -1.4872872
8.9384623 -8.3021832 -1.4856758
8.8851843 -8.3548326 -1.485304
8.8373461 -8.4126148 -1.4859238
8.7791309 -8.4604836 -1.4848082
8.7277632 -8.5148849 -1.4849322
8.6746473 -8.5675802 -1.4848082
8.6184063 -8.617137 -1.4841884
8.5604887 -8.6649151 -1.4833208
8.5023098 -8.712306 -1.4824532
7.0494475 -7.3125176 -1.2305912
7.003078 -7.354197 -1.2303432
8.3275881 -8.8535957 -1.4800982
8.2596006 -8.8899851 -1.4776193
8.2008715 -8.9361115 -1.4768755
8.1458864 -8.9862623 -1.4768755
8.0879469 -9.0331182 -1.4763798
6.728302 -7.6077209 -1.2304672
6.6703992 -7.6361561 -1.2283601
2.1254685 -2.4623368 -0.36816195
2.1051719 -2.4692893 -0.36717036
2.0976472 -2.4912713 -0.36865774
2.0848584 -2.507148 -0.36915353
7.6265254 -9.2915277 -1.4633652
7.5043945 -9.2579737 -1.4504746
2.0377367 -2.5443239 -0.36902958
2.0110121 -2.5427661 -0.36679852
1.9837731 -2.540194 -0.36444351
1.9578532 -2.5389564 -0.3623364
1.9260154 -2.5295994 -0.3589898
1.9044981 -2.5334358 -0.35775033
1.8723669 -2.5227571 -0.35427979
1.8509904 -2.5261919 -0.35304031
1.8331301 -2.5342848 -0.35254452
1.8210034 -2.5503316 -0.3532882
6.9274759 -9.8346958 -1.4644808
6.8664346 -9.8762026 -1.4643568
6.8028994 -9.9140568 -1.4637371
6.7452779 -9.9605417 -1.4644808
6.6768675 -9.9910164 -1.4628694
1.8356842 -2.7821455 -0.37820172
1.8158731 -2.7891977 -0.37758198
1.7992607 -2.8011224 -0.37770593
1.8101748 -2.8565421 -0.38427517
6.4955239 -10.396475 -1.4931127
6.4295278 -10.432755 -1.4926169
6.3720918 -10.483034 -1.4942282
6.3209124 -10.544065 -1.4974509
6.2576108 -10.585213 -1.4978228
6.1945419 -10.626839 -1.4983186
6.1193328 -10.647441 -1.4958396
6.0543752 -10.685651 -1.4959636
5.9862766 -10.718267 -1.4953438
5.9180055 -10.75045 -1.494724
5.8415227 -10.76737 -1.4919972
5.7725387 -10.79776 -1.4912535
5.7047892 -10.830342 -1.4908817
5.6341152 -10.857215 -1.4897661
5.5615206 -10.880094 -1.4881548
5.4915338 -10.907809 -1.4872872
5.4227386 -10.937743 -1.4867914
5.3533478 -10.966352 -1.4861716
5.2816615 -10.990049 -1.4849322
5.2162495 -11.026735 -1.485552
5.1589608 -11.081024 -1.4886506
5.1032677 -11.139535 -1.4923691
5.0311518 -11.162497 -1.4912535
4.9416561 -11.145984 -1.4848082
4.8680182 -11.16427 -1.4831969
4.7951236 -11.183898 -1.4818335
4.7179327 -11.192992 -1.4791067
4.6392927 -11.197894 -1.475884
4.5678778 -11.219716 -1.4750164
4.4878955 -11.219893 -1.4712979
4.4098978 -11.224129 -1.4681993
4.3402309 -11.249125 -1.4679513
4.2644491 -11.257912 -1.4655963
4.1894145 -11.268054 -1.4634892
4.117136 -11.285158 -1.4623736
4.0464768 -11.306471 -1.4618778
3.9819536 -11.345131 -1.4637371
3.9129117 -11.371227 -1.463985
3.8405294 -11.3875 -1.4629934
3.7712071 -11.412735 -1.4632413
3.6995816 -11.43094 -1.4626216
3.6266763 -11.444911 -1.461506
3.5528572 -11.455575 -1.4600186
3.48106 -11.472411 -1.4593989
3.4111655 -11.495458 -1.4596468
3.347199 -11.539044 -1.4626216
3.2858012 -11.59278 -1.4669597
3.2130194 -11.606985 -1.4662161
3.1404459 -11.621691 -1.4655963
3.072618 -11.654175 -1.4673315
3.0050032 -11.688186 -1.4693147
2.9317827 -11.700629 -1.4685711
2.8547599 -11.697189 -1.4658442
2.7918746 -11.752138 -1.4706782
2.720829 -11.773882 -1.4712979
2.6437519 -11.769054 -1.4685711
2.5662024 -11.760818 -1.4654723
2.4876208 -11.746247 -1.46163
2.4113102 -11.740878 -1.4590271
2.336127 -11.739881 -1.4570439
2.2704265 -11.787124 -1.4612582
2.2007835 -11.815466 -1.4631174
2.1141944 -11.750617 -1.4532015
2.0457859 -11.784877 -1.4559283
0.45324248 -2.7040508 -0.3043288
0.43569654 -2.7009027 -0.30358511
0.41850954 -2.6996028 -0.30308932
0.40208277 -2.7031014 -0.30321327
0.38646615 -2.7123947 -0.3040809
0.36914834 -2.7097986 -0.30346116
0.35251436 -2.7120125 -0.30346116
0.23725359 -1.9144435 -0.20281552
0.22146332 -1.8813688 -0.19847734
0.20849372 -1.869871 -0.19686602
0.29266968 -2.7849822 -0.31164172
0.27421451 -2.7729003 -0.30990645
0.72375637 -7.8305912 -0.94414765
0.67365241 -7.8111577 -0.9411729
0.62365615 -7.7894263 -0.93795025
0.5765062 -7.8020129 -0.93906581
0.13483647 -1.9780821 -0.2095087
0.13109067 -2.1155505 -0.22661351
0.20636122 -3.7134478 -0.42641744
0.18493474 -3.7423949 -0.42988798
0.15962614 -3.6889336 -0.42307085
0.13691527 -3.6878603 -0.42282295
0.11379774 -3.6727619 -0.42083979
0.090286739 -3.6337113 -0.41588187
0.22517195 -12.182312 -1.4838166
0.043452144 -3.4519782 -0.39307547
0.021839634 -3.3817286 -0.38427517
0.0010891528 -3.3897374 -0.38526675
-0.07393197 -12.195084 -1.48518
-0.041471906 -3.4678805 -0.39505863
-0.22288395 -12.155558 -1.4804701
-0.29885414 -12.210505 -1.4875351
-0.37334433 -12.194555 -1.4857998
-0.4492946 -12.222775 -1.4896421
-0.52551991 -12.248538 -1.4932367
-0.60120147 -12.255985 -1.4946001
-0.67699414 -12.262963 -1.4959636
-0.75374728 -12.28334 -1.4990622
-0.25290284 -3.7573133 -0.43224299
-0.27456513 -3.7368884 -0.42988798
-0.29646093 -3.7222745 -0.42827666
-1.056331 -12.27696 -1.5010453
-1.1351075 -12.307795 -1.5057554
-1.2088543 -12.282823 -1.5035243
-1.2827507 -12.261358 -1.5017891
-1.3579609 -12.253256 -1.5017891
-1.4334662 -12.24765 -1.5021609
-1.5091969 -12.243548 -1.5027807
-1.586589 -12.25177 -1.5050117
-0.39420867 -2.9106803 -0.32874653
-1.741843 -12.266745 -1.5094738
-1.8150388 -12.242085 -1.5077386
-1.8908789 -12.23562 -1.5083584
-1.9622936 -12.201255 -1.5055075
-0.50834811 -3.0469592 -0.34771055
-0.52822196 -3.0506265 -0.34857818
-2.1984913 -12.229479 -1.5139359
-2.2704005 -12.199175 -1.5118289
-2.3446476 -12.182091 -1.511457
-2.4222555 -12.182074 -1.5133163
-2.5039427 -12.201002 -1.5176544
-0.59184831 -2.8009863 -0.31945044
-0.60669732 -2.7866375 -0.31808701
-0.61682653 -2.7518811 -0.31412068
-0.85706949 -3.7148654 -0.43806854
-0.88030595 -3.7114675 -0.43831643
-2.9485085 -12.089004 -1.516167
-3.0363741 -12.125549 -1.5232321
-3.1020718 -12.073053 -1.5188938
-0.75209498 -2.8578067 -0.33097759
-0.75978142 -2.8167362 -0.32626757
-0.78181446 -2.8292353 -0.32849863
-3.4077055 -12.029567 -1.5236039
-0.79767996 -2.7546229 -0.32007018
-0.82642084 -2.7896314 -0.32527599
-0.98640335 -3.2554872 -0.38675413
-0.99783736 -3.2218881 -0.38315964
-3.7733083 -11.913699 -1.5228602
-3.8426726 -11.878994 -1.5213728
-3.9092627 -11.836348 -1.5188938
-3.9783278 -11.801795 -1.5175304
-1.1036235 -3.2113447 -0.38601044
-4.1497974 -11.828864 -1.5276942
-4.2249746 -11.810653 -1.5286858
-1.1656072 -3.1988764 -0.38712597
-4.3720117 -11.764427 -1.5295534
-1.1713866 -3.0961752 -0.37535092
-1.1914337 -3.0917068 -0.37572277
-4.5910807 -11.690271 -1.530669
-1.2458653 -3.1183133 -0.38130042
-1.2249446 -3.0122707 -0.368038
-1.2707467 -3.0707037 -0.37696224
-1.2868667 -3.056448 -0.37609461
-1.3102881 -3.0594385 -0.37758198
-5.0531535 -11.59341 -1.5415764
-5.120173 -11.553115 -1.5403368
-5.1909652 -11.521481 -1.5403368
-5.2607355 -11.487608 -1.540089
-5.327354 -11.447017 -1.5389735
-5.3983402 -11.415907 -1.5392213
-1.3450369 -2.8018012 -0.35006556
-1.3652499 -2.7997375 -0.35093319
-1.3960652 -2.8188684 -0.35477558
-1.4115505 -2.8067038 -0.35427979
-1.4323584 -2.8050585 -0.35527137
-1.4463439 -2.7900515 -0.35440373
-5.8058567 -11.026085 -1.518398
-5.8794837 -11.00163 -1.5200094
-5.9265323 -10.927841 -1.5146797
-5.9829464 -10.872147 -1.5119528
-6.0437379 -10.824835 -1.5104654
-6.1105332 -10.788411 -1.5105894
-4.9050064 -8.5378952 -1.1917955
-6.204988 -10.648315 -1.5012933
-6.2742476 -10.616876 -1.5022849
-6.3367224 -10.573922 -1.5016651
-6.4045758 -10.539929 -1.5024089
-6.4727712 -10.506347 -1.5032765
-4.9388757 -7.9080634 -1.126475
-5.2007236 -8.2146177 -1.176302
-5.2231565 -8.1391296 -1.1698567
-5.2729988 -8.1069279 -1.1698567
-5.3455844 -8.1092138 -1.1750625
-5.6504951 -8.4582577 -1.2324504
-6.9296088 -10.235982 -1.5058794
-6.9900398 -10.189998 -1.5053836
-7.0575304 -10.154248 -1.5064991
-7.1254168 -10.118866 -1.5077386
-7.1833363 -10.0693 -1.506871
-5.6493216 -7.8175197 -1.1666341
-1.7061857 -2.3321359 -0.32279703
-1.7145522 -2.313653 -0.32155755
-1.7215641 -2.2935688 -0.32007018
-1.7326005 -2.2790139 -0.31945044
-1.7465516 -2.2683399 -0.31945044
-1.7573845 -2.2536693 -0.3188307
-7.7321362 -9.7848864 -1.5196376
-7.7467651 -9.6807051 -1.5105894
-7.8235135 -9.6545744 -1.5140599
-7.8807168 -9.6040878 -1.5136881
-7.9509139 -9.5692883 -1.5159191
-8.0190639 -9.5317116 -1.5177784
-8.0799723 -9.4853487 -1.5182742
-8.1445026 -9.4431067 -1.5195136
-1.6950217 -1.9424777 -0.2838774
-8.274889 -9.3595467 -1.5223644
-8.322896 -9.2982464 -1.5206292
-8.3811255 -9.2484732 -1.520877
-8.4464369 -9.206378 -1.5224884
-8.5047932 -9.1565599 -1.5228602
-8.5642157 -9.1078167 -1.5234799
-8.6267815 -9.0622826 -1.5247195
-8.6815357 -9.0084648 -1.5245955
-8.7421913 -8.9607077 -1.5255871
-8.8046789 -8.9146633 -1.5269505
-8.8634233 -8.8646812 -1.5276942
-3.4266813 -3.3863726 -0.56362772
-3.2904351 -3.2121356 -0.53623527
-3.3343742 -3.2152979 -0.5404495
-3.3928487 -3.2317255 -0.54714268
-3.3179195 -3.1217945 -0.53090549
-3.1625273 -2.9392965 -0.501158
-3.1783094 -2.9178238 -0.50078619
-3.5395157 -3.2094593 -0.55866981
-3.5591421 -3.1876807 -0.55866981
-3.6120861 -3.1953604 -0.56424749
-3.4739246 -3.0354135 -0.53809446
-3.4271138 -2.9576542 -0.52731103
-3.3794818 -2.8805859 -0.51652753
-3.4031675 -2.8649063 -0.51751912
-3.7999856 -3.1591582 -0.57912123
-3.8990731 -3.2012489 -0.59201181
-9.9456263 -8.0616856 -1.5610361
-9.9972296 -8.0023689 -1.561408
-3.9059546 -3.0883303 -0.58383125
-10.131445 -7.9077768 -1.5672336
-10.189208 -7.8527308 -1.5687209
-10.256942 -7.8050838 -1.5718197
-10.341136 -7.7694159 -1.5775212
-10.379049 -7.6987243 -1.5760338
-10.440504 -7.6454463 -1.578265
-10.519387 -7.6044912 -1.5832229
-10.557772 -7.534039 -1.5819833
-10.60948 -7.4731154 -1.5828509
-10.65595 -7.4084425 -1.5829749
-10.697115 -7.3401127 -1.5823551
-10.773997 -7.2960348 -1.5871892
-10.830112 -7.2375073 -1.5889244
-10.945563 -7.2178912 -1.599584
-11.026243 -7.1744032 -1.6050377
-5.7046857 -3.6628904 -0.80867267
-5.7438207 -3.6384354 -0.81115162
-6.9728799 -4.356977 -0.98889285
-6.9454155 -4.2807965 -0.98096019
-6.9808788 -4.2437682 -0.98232359
-6.9974241 -4.1952434 -0.98096019
-6.8718338 -4.0628638 -0.95902139
-7.0346622 -4.1010637 -0.97897702
-7.037324 -4.0449696 -0.97575438
-7.144896 -4.0486646 -0.98765337
-7.0743027 -3.9515331 -0.97401911
-7.0288696 -3.869776 -0.96410328
-7.1693625 -3.8899705 -0.98071229
-7.1878452 -3.8431005 -0.97996861
-7.3877659 -3.8918595 -1.0048821
-7.2467961 -3.7610028 -0.98170388
-7.1575208 -3.6591191 -0.96596247
-7.4448552 -3.7485237 -1.0030229
-7.3050165 -3.6221285 -0.98034042
-7.2985678 -3.5633106 -0.97637409
-7.2389035 -3.4793544 -0.96509486
-7.2628069 -3.4361446 -0.96546668
-7.2936497 -3.3961222 -0.96683013
-7.3278832 -3.3575032 -0.96868932
-7.3601074 -3.3177764 -0.97030067
-5.7945952 -2.5696883 -0.75363982
-5.8220787 -2.5392399 -0.75525111
-7.5357585 -3.2313876 -0.98604202
-7.5124664 -3.1669776 -0.9802165
-7.5335908 -3.1215818 -0.9804644
-7.7207932 -3.1437545 -1.0031469
-7.3105869 -2.9246314 -0.94538713
-7.7661796 -3.0516739 -1.0041385
-7.6190386 -2.9400432 -0.98195177
-7.6666303 -2.9044836 -0.9859181
-7.6926789 -2.8604987 -0.98703361
-7.6513557 -2.7918236 -0.97922492
-7.6253648 -2.7294466 -0.97352332
-7.6344781 -2.6799788 -0.97253174
-7.5466247 -2.5972552 -0.95877349
-7.7091036 -2.6003559 -0.97810936
-7.6627278 -2.5324628 -0.9699288
-7.7243834 -2.5003648 -0.97600228
-7.8975558 -2.5029645 -0.99670154
-7.9582586 -2.4685636 -1.0026511
-7.8612065 -2.385699 -0.98802519
-7.9537048 -2.3605585 -0.99818891
-7.8441453 -2.2757854 -0.98207569
-7.9133348 -2.2433007 -0.98926467
-7.8982596 -2.1867642 -0.98554623
-7.9000335 -2.135155 -0.98405886
-8.0214119 -2.1152165 -0.99806499
-8.0621109 -2.0731208 -1.0016595
-8.1151066 -2.0337393 -1.0068653
-8.1611729 -1.9921387 -1.0112034
-8.1896553 -1.9459226 -1.0133106
-8.291357 -1.9164046 -1.0248377
-8.2990866 -1.8646241 -1.0243419
-8.3365479 -1.8193759 -1.0276885
-8.6203432 -1.825933 -1.0625179
-9.2700024 -1.9040982 -1.1439517
-9.3175201 -1.8543446 -1.1485376
-9.8646402 -1.9003127 -1.216709
-10.224379 -1.9045823 -1.2609584
-10.671447 -1.9201365 -1.3162391
-11.052592 -1.9187387 -1.3630915
-11.791336 -1.9724549 -1.4551847
-12.511534 -2.0140209 -1.544799
-12.667809 -1.9594984 -1.5630193
-13.811324 -2.0495844 -1.7059312
-14.211699 -2.0199242 -1.7548906
-14.816733 -2.0131981 -1.8296312
-15.654438 -2.029207 -1.9336234
-15.703033 -1.9376085 -1.9382095
-15.72941 -1.8429511 -1.9400687
-15.760147 -1.7485895 -1.9425477
-15.666955 -1.6410079 -1.9295331
-15.671791 -1.5443603 -1.9289134
-15.738281 -1.4534593 -1.9361024
-15.739984 -1.3562678 -1.9352348
-15.753943 -1.2601378 -1.9359784
-15.752473 -1.1627929 -1.9348629
-15.75139 -1.0655805 -1.9338713
-15.747728 -0.96830344 -1.9326319
-15.738511 -0.87083775 -1.9307727
-15.728692 -0.77352166 -1.9289134
-15.714306 -0.67618853 -1.9265584
-15.719151 -0.57979113 -1.9266824
-15.727372 -0.48348138 -1.9273021
-15.713179 -0.38655731 -1.925195
-15.719223 -0.29020876 -1.9256908
-15.704832 -0.19355749 -1.9237076
-15.71267 -0.097233266 -1.9245752
-15.709002 -0.00082038814 -1.9240794
-15.702758 0.09553159 -1.9233358
-15.697907 0.19183131 -1.92284
-15.687506 0.28798366 -1.9217244
-15.653699 0.38345501 -1.9177581
-15.665929 0.47995397 -1.9196173
-15.662689 0.5760693 -1.9196173
-15.657868 0.67212027 -1.9194933
-15.647503 0.76789021 -1.9187497
-15.619709 0.86262685 -1.9158989
-15.613132 0.95839047 -1.9157749
-15.587156 1.0528339 -1.913296
-14.273587 -0.36090264 -1.9149828
-14.279495 -0.27339071 -1.915525
-14.319541 -0.18627192 -1.9208111
-14.278803 -0.098118253 -1.9151183
-14.294989 -0.010515427 -1.917287
-14.275959 0.077096038 -1.9147117
-14.286116 0.16481565 -1.9162027
-14.270967 0.25222579 -1.9143051
-14.253303 0.33940908 -1.9121364
-14.24798 0.42677042 -1.9117297
-14.227271 0.51354355 -1.90929
-14.227812 0.60099792 -1.9098321
-14.205054 0.68737751 -1.9072568
-14.175837 0.77317685 -1.9038683
-14.17577 0.86044359 -1.904546
-14.192961 0.94892782 -1.9076635
-14.198729 1.0368619 -1.90929
-14.169383 1.1221657 -1.9061725
-14.117807 1.205295 -1.9000731
-14.127906 1.2935231 -1.9025129
-14.093079 1.3775842 -1.8988532
-14.116881 1.4674112 -1.9033262
-14.06034 1.5487974 -1.8968201
-14.059429 1.6360713 -1.8980399
-14.057977 1.7233924 -1.8992598
-14.011762 1.8050618 -1.8943803
-13.981767 1.8884832 -1.8918049
-13.976784 1.9752084 -1.8927537
-13.964401 2.0609312 -1.8927537
-13.938762 2.144618 -1.8909917
-13.930232 2.2308874 -1.8916694
-13.915304 2.3161571 -1.8915339
-13.865684 2.3954253 -1.8866544
-13.873155 2.4844747 -1.8897718
-13.844011 2.5670235 -1.8878742
-13.813404 2.6491218 -1.8858411
-13.788142 2.7320964 -1.8846213
-13.747823 2.8118832 -1.8813682
-13.729341 2.8959811 -1.8812326
-13.732613 2.984797 -1.8842146
-13.715974 3.0694351 -1.8844857
-13.718123 3.158427 -1.8874676
-13.668597 3.2354665 -1.8832659
-13.632121 3.3152947 -1.8809615
-13.625941 3.4024775 -1.8829947
-13.615365 3.4887257 -1.8844857
-13.586994 3.5704398 -1.8835369
-13.565787 3.6539984 -1.8836725
-13.538336 3.7358501 -1.8829947
-13.515159 3.8188496 -1.8829947
-13.485762 3.9000537 -1.8821814
-13.443526 3.9773872 -1.8796061
-13.407488 4.0563579 -1.8779796
-13.388972 4.1405969 -1.8789284
-13.366148 4.223568 -1.879335
-13.339981 4.3055015 -1.879335
-13.31143 4.3866529 -1.879064
-13.294594 4.4717216 -1.8805549
-13.286585 4.5599651 -1.8834014
-13.22095 4.6283107 -1.8779796
-13.149379 4.6940246 -1.8717446
-13.133365 4.7793627 -1.8736422
-13.103791 4.8598576 -1.8736422
-13.085773 4.9447217 -1.8754044
-13.010804 5.0078397 -1.8688983
-12.988133 5.0908322 -1.8701181
-12.956653 5.1704297 -1.8701181
-12.926519 5.2505789 -1.8703892
-12.922443 5.3415275 -1.8745911
-12.822754 5.3926811 -1.8646965
-12.818574 5.4837275 -1.8690338
-12.730174 5.5385633 -1.8609012
-12.679641 5.609355 -1.8584615
-12.710043 5.7163086 -1.8682206
-12.665718 5.7900691 -1.8668652
-12.618272 5.8622489 -1.8651031
-12.665389 5.9788952 -1.8777086
-12.634718 6.059495 -1.8786573
-12.604425 6.140377 -1.8797417
-12.586937 6.2277055 -1.8828591
-12.562653 6.3119369 -1.8850279
-12.536925 6.3956542 -1.887061
-12.499206 6.4733701 -1.8873321
-12.466267 6.5536299 -1.8884164
-12.436309 6.6355948 -1.8900429
-12.404073 6.716495 -1.8913983
-12.384336 6.8044052 -1.894787
-12.34841 6.8836427 -1.8957357
-12.328363 6.9719615 -1.8992598
-12.311994 7.062758 -1.9034617
-12.274421 7.1416578 -1.9044105
-12.252555 7.229928 -1.9079345
-12.215614 7.3095508 -1.9091544
-12.17731 7.3884783 -1.9102387
-12.130058 7.4620194 -1.9099677
-12.112628 7.5541329 -1.9145762
-12.079448 7.6367831 -1.9167448
-12.047378 7.7203794 -1.9191846
-12.004765 7.7973933 -1.9199978
-11.963315 7.8752642 -1.9210821
-11.888393 7.9309273 -1.9167448
-11.811599 7.9848585 -1.9121364
-11.826139 8.1008539 -1.9227087
-11.799002 8.1890821 -1.9265039
-11.794729 8.2938089 -1.9342299
-11.733934 8.3591251 -1.9326034
-11.750713 8.4802475 -1.9441245
-11.722454 8.5697298 -1.9481907
-11.692741 8.6585941 -1.9521215
-11.657623 8.7438498 -1.9552389
-11.612431 8.8218069 -1.9567299
-11.557298 8.8922892 -1.9565943
-11.500174 8.9612093 -1.9561877
-11.545306 9.1107769 -1.9736727
-11.414882 9.1220703 -1.9606607
-11.385652 9.2137518 -1.9654046
-11.351893 9.3022785 -1.969471
-11.306802 9.3818798 -1.9716396
-11.257367 9.4580908 -1.9731306
-11.219498 9.5443192 -1.9767902
-11.159223 9.6116877 -1.9765191
-11.109744 9.6884441 -1.9782811
-11.061228 9.7662659 -1.9803144
-11.008482 9.8405552 -1.9816698
-10.962586 9.9212122 -1.9843806
-10.887625 9.9755745 -1.9818053
-10.85672 10.07049 -1.987498
-10.800503 10.142342 -1.9885825
-10.751711 10.221391 -1.9911578
-10.696644 10.294727 -1.9926487
-10.62334 10.350488 -1.9907511
-10.563863 10.41965 -1.9915644
-10.515155 10.499674 -1.9945463
-10.467953 10.581604 -1.9979348
-10.413907 10.656973 -2.0001035
-10.354514 10.727086 -2.0013235
-10.296704 10.799023 -2.00295
-10.227531 10.859115 -2.0024078
-10.153285 10.913686 -2.0009167
-10.095514 10.985992 -2.0028145
-10.037905 11.058735 -2.0048475
-9.9916868 11.144462 -2.0093205
-9.9336271 11.217427 -2.0114892
-9.8567839 11.269218 -2.0098627
-9.8062353 11.351229 -2.0137935
-9.7370443 11.411939 -2.0139289
-9.6706696 11.476015 -2.0147421
-9.6171846 11.555698 -2.0184019
-9.5536489 11.623675 -2.0200284
-9.4871426 11.688231 -2.0211127
-9.4239216 11.757045 -2.0230103
-9.3706675 11.83873 -2.0272121
-9.3002911 11.899127 -2.0277543
-9.2264986 11.955184 -2.0276186
-9.1631784 12.024968 -2.029923
-9.1023264 12.098384 -2.0329049
-9.0373745 12.166733 -2.0350735
-8.9537611 12.209971 -2.0330405
-8.8978472 12.291164 -2.0375133
-8.8211107 12.343917 -2.0372422
-8.7600527 12.418859 -2.0407662
-8.6899137 12.48132 -2.0422573
-8.6232672 12.549104 -2.044697
-8.5516663 12.609979 -2.0460525
-8.4790916 12.669623 -2.0472724
-8.3995543 12.718932 -2.0468657
-8.3240585 12.774382 -2.0475435
-8.2492704 12.83105 -2.0484922
-8.1799383 12.896484 -2.0509322
-8.0885649 12.927115 -2.0478146
-7.9971247 12.957111 -2.044697
-7.954566 13.066869 -2.0544562
-7.8558788 13.084852 -2.0495765
-7.7779679 13.137072 -2.0502543
-7.692718 13.176848 -2.0490344
-7.612216 13.22466 -2.04917
-7.5226145 13.256471 -2.0468657
-7.4280725 13.279033 -2.0432062
-7.3445406 13.32089 -2.0426641
-7.2536788 13.349164 -2.0400887
-7.1650853 13.381193 -2.0381911
-7.0990267 13.455575 -2.0429351
-6.9948545 13.457562 -2.0365646
-6.9166641 13.509048 -2.03792
-6.8327518 13.549464 -2.0376489
-6.7565365 13.605331 -2.0398176
-6.6459432 13.59135 -2.0314138
-6.5697293 13.647049 -2.0337181
-6.5002947 13.717544 -2.0383265
-6.38585 13.692521 -2.0285676
-6.3074999 13.744053 -2.0304651
-6.211225 13.75631 -2.0265343
-6.1178527 13.774242 -2.0235524
-6.033617 13.812429 -2.0236881
-5.958137 13.871038 -2.0269411
-5.8806229 13.925591 -2.0296519
-5.7829113 13.932129 -2.0253146
-5.6875863 13.943498 -2.0217903
-5.6052408 13.986411 -2.0230103
-5.504436 13.982742 -2.017453
-5.4224658 14.02642 -2.018944
-5.3394637 14.067763 -2.0201638
-5.2554665 14.10676 -2.0211127
-5.1722121 14.148046 -2.0224681
-5.0832968 14.173921 -2.0216548
-4.9972181 14.207648 -2.0220616
-4.9067173 14.228677 -2.0207059
-4.8231263 14.269779 -2.0223327
-4.7367239 14.302867 -2.0228748
-4.6476512 14.327892 -2.0223327
-4.55725 14.348585 -2.0212481
-4.4664755 14.367764 -2.0200284
-4.3770795 14.391107 -2.0194862
-4.2847395 14.404398 -2.0175886
-4.1932316 14.419953 -2.0160975
-4.104403 14.444458 -2.0159621
-4.0170212 14.474143 -2.0166397
-3.9299474 14.505213 -2.0175886
-3.830235 14.488823 -2.0118957
-3.7434874 14.520687 -2.0131156
-3.6644614 14.583741 -2.0188084
-3.5664277 14.571306 -2.0139289
-3.3752124 14.165957 -1.9538835
-3.2680914 14.099535 -1.9416847
-3.1399136 13.934714 -1.915796
-3.0412159 13.893712 -1.9073924
-2.9419045 13.84621 -1.8981755
-2.8422911 13.793163 -1.8882809
-2.7479029 13.761764 -1.8815037
-2.6496816 13.707355 -1.8716091
-2.5671639 13.73212 -1.872829
-2.4659498 13.654014 -1.8598169
-2.3797421 13.655222 -1.8579193
-2.3016553 13.703765 -1.8626633
-2.2184761 13.723498 -1.8634765
-2.1310337 13.716292 -1.8606302
-2.0431788 13.704612 -1.8572416
-1.952045 13.66785 -1.8504645
-1.8641212 13.650121 -1.8463982
-1.7776413 13.64067 -1.8435518
-1.6984254 13.687699 -1.8485669
-1.6122034 13.679169 -1.8459916
-1.5247205 13.657294 -1.8416542
-1.4392297 13.650628 -1.8394855
-1.3555417 13.660188 -1.8396211
-1.2725252 13.677127 -1.8408409
-1.1895233 13.695535 -1.8423319
-1.1072999 13.725289 -1.8454494
-1.0224731 13.723921 -1.844365
-0.94054306 13.763544 -1.8489735
-0.86597693 13.928263 -1.8707958
-0.78332591 13.983765 -1.8777086
-0.69696534 13.977423 -1.8762176
-0.61205435 14.001232 -1.8789284
-0.5216288 13.884926 -1.8625277
-0.43592432 13.872021 -1.8603591
-0.35405824 14.003193 -1.8779796
-0.26516664 13.85057 -1.856835
-0.1820617 13.996576 -1.8766242
-0.09731847 14.162886 -1.8992598
-0.010432965 14.186995 -1.9025129
0.076542474 14.17292 -1.9006152
0.16096184 13.951257 -1.8703892
0.24649219 13.946044 -1.8698471
0.3345325 14.04827 -1.8840791
0.4219991 14.088537 -1.8899074
0.50722259 14.052019 -1.885299
0.58077341 13.748705 -1.8442295
0.66608012 13.764675 -1.8469404
0.75047213 13.759339 -1.8468049
0.83518374 13.75942 -1.8474826
0.91946208 13.75206 -1.8472115
1.0056291 13.770863 -1.8506
1.090263 13.766409 -1.8508711
1.175554 13.769332 -1.8522265
1.2616445 13.779619 -1.8546664
1.3486763 13.797256 -1.8581904
1.4339237 13.794634 -1.8590037
1.5165868 13.767849 -1.8565639
1.6043565 13.786824 -1.8604946
1.6892823 13.779671 -1.8609012
1.773801 13.769046 -1.8609012
1.8569269 13.748085 -1.8595458
1.9436051 13.753109 -1.86185
2.0327287 13.77327 -1.866323
2.1188586 13.77131 -1.8678139
2.2067642 13.779572 -1.8707958
2.2955012 13.791183 -1.87432
2.3795731 13.77391 -1.8739134
2.4668376 13.774653 -1.8760821
2.555284 13.78069 -1.879064
2.6424048 13.778375 -1.8809615
2.7307487 13.781339 -1.8836725
2.8228011 13.801209 -1.888823
2.9074306 13.783629 -1.888823
2.9942651 13.77618 -1.890314
3.0882568 13.800091 -1.8962779
3.1764309 13.79633 -1.8984466
3.2665002 13.799719 -1.9016995
3.3548579 13.79482 -1.9038683
3.4473584 13.805697 -1.9083412
3.5383968 13.809238 -1.9118652
3.6301122 13.814098 -1.9156605
3.7207315 13.813568 -1.9187779
3.8112175 13.81149 -1.92176
3.9004707 13.804053 -1.9240642
3.9914277 13.801751 -1.9271816
4.0864377 13.812154 -1.9321967
4.1768479 13.805786 -1.9349076
4.2696757 13.806401 -1.9387027
4.3665481 13.818677 -1.94426
4.4625144 13.826511 -1.949275
4.5575004 13.829923 -1.953748
4.6539593 13.836444 -1.958763
4.7506695 13.8423 -1.9637781
4.8456626 13.84188 -1.9679799
4.9404955 13.83988 -1.9720463
5.0381961 13.844686 -1.9771968
5.135797 13.847882 -1.9822119
5.2301245 13.841133 -1.9858716
5.327765 13.842069 -1.9907511
5.4342899 13.864465 -1.9988837
5.5335789 13.866748 -2.0041699
5.6334724 13.869251 -2.0095916
5.7343616 13.872881 -2.0152843
5.8285937 13.859354 -2.0185373
5.9298892 13.861588 -2.0242302
6.0389404 13.880362 -2.0324984
6.1488452 13.899223 -2.0409019
6.2429533 13.881112 -2.0438838
6.3469563 13.883995 -2.0501187
6.4432974 13.869051 -2.0537784
6.5506902 13.87674 -2.0609622
6.6579905 13.88274 -2.0680103
6.7495565 13.854986 -2.0700436
6.841032 13.826632 -2.0720768
6.9284105 13.789707 -2.07289
7.0074897 13.736345 -2.0712636
7.0957432 13.701008 -2.0724833
7.1427965 13.587052 -2.06164
7.2059765 13.505381 -2.0558116
7.3354101 13.547167 -2.0692303
7.407423 13.48193 -2.0661128
7.4750533 13.409398 -2.0619111
7.5284171 13.312396 -2.0539141
7.6020713 13.252201 -2.0517454
7.6782598 13.196742 -2.0503898
7.7485156 13.131461 -2.0475435
7.8416605 13.104925 -2.0509322
7.862309 12.958303 -2.0352092
7.9333663 12.896316 -2.0330405
8.0029097 12.832262 -2.0306005
8.0703793 12.765328 -2.0277543
8.1298447 12.686373 -2.0230103
8.2005177 12.625448 -2.0212481
8.2729292 12.567445 -2.0200284
8.3432884 12.506556 -2.0184019
8.414876 12.44774 -2.0171819
8.4877357 12.390968 -2.0163686
8.5534382 12.324004 -2.0139289
8.6192074 12.257511 -2.0116246
8.6833344 12.189061 -2.0090494
8.7388287 12.109039 -2.0045764
8.7930841 12.027996 -1.9999681
8.8637733 11.969835 -1.9992903
8.9340792 11.91126 -1.9986126
9.0004044 11.847538 -1.9971216
9.0560141 11.770103 -1.9933264
9.1110125 11.692431 -1.9895313
9.1733789 11.62464 -1.987498
9.2352562 11.556524 -1.9854649
9.3022518 11.495019 -1.9846517
9.3638182 11.426996 -1.9827541
9.4185724 11.351027 -1.9795011
9.4663754 11.267229 -1.9748926
9.5179987 11.188557 -1.971233
9.5644884 11.104421 -1.9666245
9.6356993 11.049258 -1.9673022
9.6980686 10.983985 -1.9662179
9.7573595 10.915408 -1.9645914
9.8048725 10.834028 -1.9606607
9.8551006 10.75613 -1.9574076
9.9108076 10.684562 -1.9553745
9.9592247 10.605493 -1.951986
10.00568 10.524796 -1.9483262
10.064574 10.457493 -1.9472419
10.124403 10.391283 -1.9464287
10.183102 10.324027 -1.9454799
10.231556 10.246628 -1.9426335
10.261132 10.150905 -1.936263
10.288503 10.053822 -1.9296213
10.324336 9.9657316 -1.9247419
10.377402 9.8946733 -1.9232509
10.431429 9.8246994 -1.922031
10.491516 9.7605085 -1.922031
10.535888 9.6818714 -1.9191846
10.576756 9.6003933 -1.915796
10.614809 9.5167961 -1.9120009
10.660394 9.4403191 -1.9096966
10.706932 9.3649454 -1.9076635
10.755196 9.2912998 -1.906037
10.800698 9.2154856 -1.9040039
10.844161 9.1381865 -1.9016995
10.875659 9.0511942 -1.8973622
10.90956 8.9666767 -1.8935671
10.950527 8.8883286 -1.8911272
10.983986 8.8042383 -1.8874676
11.024594 8.726223 -1.8851634
11.06544 8.6486502 -1.8829947
11.093985 8.5618258 -1.8787929
11.135278 8.4851856 -1.8768953
11.180007 8.4113398 -1.8756754
11.181301 8.3053608 -1.8671362
11.244834 8.2459726 -1.8693049
11.313678 8.1901836 -1.8724223
11.296007 8.0722198 -1.8610368
11.367185 8.018177 -1.8646965
11.416169 7.9482784 -1.8646965
11.435328 7.8578796 -1.8598169
11.483328 7.7875657 -1.8598169
11.482316 7.6844454 -1.8518199
11.545785 7.6247668 -1.8545307
11.584882 7.5489116 -1.8533108
11.618483 7.4696484 -1.8512777
11.661587 7.396626 -1.8508711
11.701713 7.3217793 -1.8500578
11.743889 7.24828 -1.8496512
11.775448 7.1683564 -1.8476181
11.789481 7.0781183 -1.8428741
11.829279 7.0036268 -1.8423319
11.829249 6.9059348 -1.8355548
11.851651 6.8218532 -1.8324373
11.894148 6.7494936 -1.8325728
11.918909 6.6671948 -1.8299975
11.945712 6.5862818 -1.8278289
11.979806 6.5095491 -1.8268801
12.018649 6.435452 -1.8267446
12.050023 6.3574247 -1.8255246
12.065948 6.2714863 -1.8220005
12.145651 6.2185564 -1.828371
12.167655 6.1358843 -1.8259313
12.207737 6.0624318 -1.8263379
12.251826 5.9908943 -1.8274223
12.332097 5.9366651 -1.8340638
12.336956 5.8460345 -1.8293198
12.394144 5.7802773 -1.8325728
12.406866 5.6937876 -1.8291843
12.450599 5.6216307 -1.8305397
12.503873 5.5535755 -1.8333861
12.53045 5.4735756 -1.8323017
12.575634 5.4016709 -1.8340638
12.616755 5.3278756 -1.8352836
12.608031 5.2332673 -1.8291843
12.6344 5.1535621 -1.828371
12.672222 5.0785217 -1.8293198
12.718817 5.0068412 -1.831624
12.757616 4.931921 -1.8328439
12.808942 4.8616357 -1.8359615
12.848744 4.7867551 -1.8374524
12.892762 4.7132697 -1.8396211
12.913979 4.6313968 -1.8385367
12.950564 4.5550299 -1.8397566
12.970777 4.4728966 -1.8386723
12.995162 4.3922734 -1.8382657
13.018106 4.3112078 -1.8377235
12.999078 4.2165742 -1.8312174
13.085139 4.15593 -1.8398921
13.104716 4.0737982 -1.8390789
13.120935 3.9907174 -1.837859
13.149923 3.9115465 -1.8385367
13.16892 3.8294029 -1.837859
13.225525 3.758007 -1.842603
13.23306 3.6725464 -1.8404343
13.262039 3.5930946 -1.8413831
13.261806 3.5058279 -1.8382657
13.323361 3.4347782 -1.8439584
13.318242 3.3464432 -1.8402988
13.35296 3.2681947 -1.8423319
13.371799 3.1859713 -1.8421963
13.415224 3.109457 -1.845585
13.434052 3.0270841 -1.845585
13.420433 2.9376054 -1.841112
13.507013 2.8698256 -1.8507355
13.481671 2.7780945 -1.8447716
13.527612 2.7011411 -1.848838
13.552686 2.6197791 -1.8500578
13.549027 2.5329301 -1.847347
13.608189 2.4576724 -1.8534464
13.642533 2.3775303 -1.8561573
13.679338 2.2975519 -1.8592747
13.701981 2.2149971 -1.8604946
13.765244 2.1386404 -1.8674073
13.779087 2.0542843 -1.8675429
6.5324225 0.93275088 -0.86439168
6.3063517 0.86100632 -0.8324036
0 0 -0
6.2132039 0.7707395 -0.81817162
6.1902652 0.72935361 -0.81437641
6.20644 0.6926766 -0.81600296
6.1632786 0.64959371 -0.80949688
6.1750355 0.61254722 -0.81058127
0 0 -0
6.1732039 0.53595209 -0.80936134
6.1388493 0.49503529 -0.80421072
0 0 -0
0 0 -0
0 0 -0
0 0 -0
0 0 -0
0 0 -0
0 0 -0
0 0 -0
0 0 -0
0 0 -0
0 0 -0
0 0 -0
6.1914706 0.0043277293 -0.80868363
0 -0 -0
6.2069087 -0.071833894 -0.81085235
6.2023888 -0.10984749 -0.81031018
0 -0 -0
0 -0 -0
0 -0 -0
6.197825 -0.26202863 -0.81031018
6.219851 -0.30120146 -0.81356317
6.2386613 -0.34049264 -0.81640959
6.248322 -0.37948593 -0.81803608
6.3308926 -0.42349949 -0.82969278
6.3825226 -0.46630436 -0.83714759
6.3874426 -0.50608355 -0.83823192
6.378294 -0.54476112 -0.83741868
12.37858 -1.133408 -1.6621957
12.343782 -1.2066422 -1.6584005
12.308553 -1.279492 -1.6546054
12.251229 -1.3495691 -1.6478282
10.5815 -1.2314504 -1.4190322
10.579646 -1.2970773 -1.4198455
10.574436 -1.362348 -1.4202521
10.568823 -1.4276036 -1.4206587
10.577523 -1.4949208 -1.4230984
10.579913 -1.5615307 -1.4247251
11.974381 -1.8424354 -1.6190932
11.892412 -1.9045956 -1.6093341
11.901026 -1.9809458 -1.6121805
11.863263 -2.0495472 -1.6086564
11.83486 -2.1195061 -1.6064878
11.812864 -2.1904583 -1.6052678
11.772929 -2.2578616 -1.6016082
11.75205 -2.3287086 -1.6006594
11.742394 -2.4017665 -1.6013371
11.756519 -2.4799051 -1.6054033
11.747859 -2.553468 -1.6063522
11.735837 -2.6263688 -1.6068944
11.678949 -2.6889937 -1.6012015
8.2848635 -1.9612554 -1.1263956
11.62293 -2.8267255 -1.5980841
11.598638 -2.8963094 -1.5971353
11.574889 -2.9659474 -1.5963219
7.5510073 -1.9844649 -1.0297537
7.5300784 -2.0284407 -1.0285338
11.553673 -3.188251 -1.6013371
11.531033 -3.2582748 -1.6009305
11.522244 -3.3322692 -1.6025569
11.523433 -3.4093699 -1.6056744
7.974514 -2.4128122 -1.1014558
7.9529333 -2.4596486 -1.100507
7.9376912 -2.5084007 -1.100507
7.9400654 -2.5628395 -1.1030823
11.344735 -3.7386096 -1.5957798
11.350693 -3.8179402 -1.5999817
11.465748 -3.9351106 -1.620042
11.482533 -4.0197916 -1.6260059
7.7448082 -2.7648923 -1.0866816
7.7202487 -2.8096511 -1.0855973
11.355503 -4.2115197 -1.618551
11.322034 -4.2783146 -1.6174667
11.251186 -4.3306231 -1.6109606
11.158908 -4.373909 -1.6013371
11.137382 -4.4444995 -1.6021503
11.084198 -4.5023141 -1.5983552
11.055449 -4.5698624 -1.5982196
11.01898 -4.6341548 -1.5969998
10.976674 -4.6958337 -1.5949665
10.939478 -4.7595396 -1.5937467
10.889228 -4.8173552 -1.5906292
10.8432 -4.8767648 -1.5881895
10.793248 -4.934144 -1.5852075
10.769059 -5.0031991 -1.5861562
10.727406 -5.0641074 -1.5845298
10.67201 -5.1182671 -1.5808702
10.62259 -5.1749749 -1.5781593
10.602181 -5.2457681 -1.5799214
10.534382 -5.2929316 -1.5744996
10.508767 -5.3610716 -1.5755839
10.465117 -5.4199839 -1.5739574
10.4036 -5.4693422 -1.5696201
10.317397 -5.5050917 -1.5614876
10.283423 -5.5682945 -1.5614876
10.266431 -5.6408291 -1.5641984
10.207395 -5.6902099 -1.5604032
10.151589 -5.7410293 -1.5571501
10.102422 -5.7953229 -1.5549815
10.034986 -5.8387661 -1.5499665
10.009211 -5.9062715 -1.5515929
9.9659805 -5.9635057 -1.5505086
9.9080248 -6.0116959 -1.54712
9.8506975 -6.0599189 -1.543867
9.7864275 -6.1034708 -1.5395297
9.7462807 -6.1618161 -1.5391231
9.6932735 -6.2118802 -1.5366832
9.6292171 -6.2545104 -1.5324814
9.6427965 -6.3477955 -1.5410206
9.5715208 -6.3854003 -1.5357344
9.527236 -6.440681 -1.5349212
9.4507542 -6.4738226 -1.5288217
9.4328299 -6.5469418 -1.5324814
9.3778925 -6.5944395 -1.5300417
9.3469372 -6.6587548 -1.5316682
9.3091173 -6.7183003 -1.5322104
9.217329 -6.7384577 -1.5236712
9.1495333 -6.7754307 -1.5191982
9.0903502 -6.8183656 -1.5162163
9.0680656 -6.8889976 -1.5196048
9.0476122 -6.9614244 -1.5234001
9.0203581 -7.0289879 -1.5261109
8.968504 -7.0774522 -1.5246199
8.9233608 -7.1311116 -1.5243489
8.8771267 -7.1838603 -1.5239422
8.822917 -7.2300305 -1.5221802
8.7860136 -7.2903576 -1.5235356
8.7342882 -7.3383942 -1.5223157
8.6807947 -7.3847876 -1.5208248
8.6120472 -7.4178691 -1.5166229
8.5469542 -7.4536414 -1.5130988
8.4914036 -7.4974198 -1.5113368
8.4445019 -7.5487208 -1.5112013
8.3693743 -7.5744658 -1.505915
8.3161659 -7.6196532 -1.5046952
8.2750673 -7.6759267 -1.5057795
8.2205906 -7.7197752 -1.5044241
8.1809673 -7.7775793 -1.505915
8.1466541 -7.8406839 -1.5084903
8.0948429 -7.8870659 -1.5078126
8.0455914 -7.9358907 -1.5076771
7.9743104 -7.962707 -1.5033398
7.9218183 -8.0079651 -1.5026621
7.8815351 -8.0656328 -1.5044241
7.0281825 -7.2812529 -1.3461102
7.7819638 -8.1617441 -1.5044241
7.688941 -8.1639032 -1.4958849
7.1075778 -7.6400552 -1.3892128
7.1041422 -7.7309403 -1.3980231
7.1438079 -7.8704877 -1.4157792
7.1211762 -7.9429421 -1.4210653
6.8043022 -7.6838651 -1.3657639
2.1478345 -2.456085 -0.40801957
2.127542 -2.4632199 -0.40693521
2.1156034 -2.4799962 -0.40761295
6.673059 -7.9189954 -1.3783695
6.5647655 -7.8882084 -1.3656284
6.4979963 -7.9061441 -1.3616977
6.4418697 -7.936635 -1.3600712
6.3825154 -7.9628701 -1.357767
6.3310766 -7.9987755 -1.3572247
2.008996 -2.5708911 -0.40801957
1.9865247 -2.574542 -0.40652859
1.9670871 -2.5819545 -0.40571535
1.9440594 -2.5844753 -0.40408882
1.8944886 -2.5510206 -0.3963629
1.8553634 -2.5306387 -0.3909412
1.8305048 -2.5291348 -0.38877252
1.8466356 -2.5846536 -0.39622736
6.3630924 -9.0209522 -1.4718938
6.332531 -9.095602 -1.4778577
6.2782855 -9.1367359 -1.4782643
6.2159882 -9.1660671 -1.4767734
6.1480565 -9.1867437 -1.473927
6.0997624 -9.2366962 -1.4759601
5.9537191 -9.1369867 -1.4535956
1.8076066 -2.8121581 -0.41899851
1.7919096 -2.8257065 -0.41940516
1.7750632 -2.8374882 -0.4195407
5.8177209 -9.4262028 -1.4770445
5.7432866 -9.4346418 -1.4727072
5.6750889 -9.4527159 -1.4699962
5.6129427 -9.4805393 -1.4689119
5.5536666 -9.5130901 -1.4686408
5.4996395 -9.5547152 -1.4698607
5.4497113 -9.6037912 -1.4723005
5.3993878 -9.6526127 -1.4747403
5.3405371 -9.686429 -1.4748758
5.2791095 -9.7155333 -1.4743336
5.2179937 -9.745122 -1.473927
5.1511655 -9.7638111 -1.4718938
5.0852184 -9.7838068 -1.4701318
5.0214777 -9.8077698 -1.4690474
4.9616499 -9.8392811 -1.469183
4.9051504 -9.8775253 -1.4704028
4.8557668 -9.9305782 -1.473927
4.7921638 -9.9548302 -1.4731138
4.7271733 -9.9759884 -1.4718938
4.6717362 -10.017377 -1.4737915
4.6105962 -10.046754 -1.473927
4.5517178 -10.081176 -1.4748758
4.5706158 -10.290914 -1.5021199
4.5442724 -10.403201 -1.5147253
4.496778 -10.469122 -1.5204182
4.4343834 -10.501081 -1.5210959
4.3702464 -10.529007 -1.5212314
4.2894678 -10.516176 -1.515403
4.2204375 -10.531262 -1.5137765
4.1528363 -10.549585 -1.5126922
4.0737357 -10.537904 -1.5072705
4.0019674 -10.544175 -1.5045596
3.9382322 -10.571318 -1.5049663
3.882139 -10.619477 -1.5084903
3.823596 -10.66175 -1.5112013
3.7558033 -10.678468 -1.5102524
3.6869805 -10.691945 -1.5088969
3.6114712 -10.68527 -1.5046952
3.5430362 -10.698764 -1.5034753
3.4733486 -10.708051 -1.5017133
3.401881 -10.71122 -1.4991379
3.3319762 -10.718647 -1.4972403
3.2655685 -10.736994 -1.4969692
3.2004735 -10.759678 -1.4973758
3.1321797 -10.771502 -1.4962915
3.0595281 -10.767645 -1.4930385
2.9910166 -10.777623 -1.4918187
2.9232755 -10.790035 -1.4910053
2.8590398 -10.815432 -1.4920897
2.7936132 -10.836608 -1.4926319
2.7244122 -10.842976 -1.4911408
2.6568875 -10.855639 -1.4905987
2.5888505 -10.865954 -1.4897854
2.5201159 -10.872948 -1.4885656
2.4513929 -10.879508 -1.4873457
2.385227 -10.897248 -1.4877523
2.3177001 -10.908771 -1.4873457
2.2503214 -10.920846 -1.4870746
2.1807477 -10.921818 -1.4853126
0.5055334 -2.6169345 -0.32628736
0.4918339 -2.6326478 -0.32804939
1.9867401 -11.001057 -1.4910053
1.9181807 -11.007184 -1.4901921
0.45035005 -2.6832693 -0.33387774
0.43229595 -2.6762013 -0.3325223
0.41738829 -2.6885939 -0.33387774
0.40468279 -2.7165825 -0.33740184
0.38338292 -2.6866477 -0.33292893
0.36689076 -2.6889493 -0.33292893
0.35973331 -2.7628696 -0.34282357
0.34472641 -2.7807565 -0.34499222
1.3098003 -11.11399 -1.4926319
1.2394923 -11.103109 -1.4900565
1.1704063 -11.101638 -1.4888366
1.102266 -11.10861 -1.4888366
1.0340841 -11.115165 -1.4888366
0.68028492 -7.834414 -1.0374796
0.62973028 -7.8078265 -1.0332779
0.28393617 -3.8149579 -0.48500779
0.53684223 -7.858459 -1.0392417
0.23439296 -3.7746451 -0.47904393
0.62432045 -11.146684 -1.4889722
0.1848949 -3.7139068 -0.47036919
0.16080438 -3.6852765 -0.4663029
0.13401988 -3.5753057 -0.45112213
0.11061575 -3.5295177 -0.44475162
0.085572354 -3.3964186 -0.42645338
0.064369842 -3.3780584 -0.42387804
0.043847889 -3.3942409 -0.42604673
0.023034066 -3.3964274 -0.42631781
0.008235231 -11.308804 -1.5087614
-0.061079923 -11.294771 -1.5068638
-0.13031377 -11.288239 -1.5060506
-0.20002915 -11.312984 -1.5095747
