# .PCD v0.7 - Point Cloud Data file format
VERSION 0.7
FIELDS x y z
SIZE 4 4 4
TYPE F F F
COUNT 1 1 1
WIDTH 1542
HEIGHT 1
VIEWPOINT 0 0 0 1 0 0 0
POINTS 1542
DATA ascii
9.0215378 1.8012499 -1.9024984
9.0276165 1.7449322 -1.9014657
9.0112238 1.6844717 -1.8956823
9.0733843 1.63854 -1.9068358
9.0890503 1.5838441 -1.9080751
9.1034222 1.5288553 -1.9091078
9.0131445 1.4568834 -1.8878336
0 0 -0
5.8764896 0.87587696 -1.2147011
0 0 -0
0 0 -0
0 0 -0
0 0 -0
0 0 -0
0 0 -0
0 0 -0
0 0 -0
0 0 -0
0 0 -0
0 0 -0
0 0 -0
0 0 -0
0 0 -0
0 0 -0
0 0 -0
0 0 -0
0 0 -0
0 0 -0
0 0 -0
0 0 -0
0 0 -0
0 0 -0
0 0 -0
0 -0 -0
0 -0 -0
0 -0 -0
0 -0 -0
0 -0 -0
0 -0 -0
0 -0 -0
0 -0 -0
0 -0 -0
0 -0 -0
5.8832464 -0.39358294 -1.2052
5.8875513 -0.4301731 -1.2066457
5.8935795 -0.46698532 -1.2085047
5.9188752 -0.5055517 -1.2144945
0 -0 -0
5.9511776 -0.58195376 -1.2227564
6.0555196 -0.62968433 -1.245683
8.975049 -0.98877972 -1.8665594
8.6859961 -1.010928 -1.8064545
8.4203272 -1.0324244 -1.7513069
8.2702112 -1.0655732 -1.7207381
8.1568575 -1.101895 -1.6980181
7.99687 -1.1302959 -1.6653838
8.1156187 -1.19791 -1.6922348
8.1680737 -1.2569073 -1.7050406
8.1795301 -1.3100959 -1.7091715
8.1597557 -1.3583325 -1.7066931
8.1474104 -1.407708 -1.7058668
8.1482506 -1.4593977 -1.7079322
8.1237497 -1.5065131 -1.7046275
8.0941734 -1.5524617 -1.7002901
8.0643406 -1.5981044 -1.6959527
8.0754719 -1.6518688 -1.7004967
8.0249739 -1.6929076 -1.6918217
8.0086994 -1.7408693 -1.6905824
8.00455 -1.7914724 -1.6920283
7.9638491 -1.8337492 -1.6856253
7.901032 -1.870411 -1.6744719
7.8561311 -1.9107642 -1.6672428
7.291769 -1.8209893 -1.5470332
7.5392141 -1.9319907 -1.6034201
7.7789378 -2.0443542 -1.6583613
7.7454624 -2.0864487 -1.6538173
7.7079911 -2.1271682 -1.6484472
7.6665468 -2.1664429 -1.6422508
7.6314912 -2.2071919 -1.6375002
7.5868425 -2.2448168 -1.6306841
7.568243 -2.2899101 -1.6296514
7.5353546 -2.3305237 -1.6255205
7.5153151 -2.3749473 -1.6242813
7.511775 -2.4246216 -1.6267598
7.5004735 -2.4718921 -1.627586
7.4814553 -2.5166202 -1.6267598
7.4723511 -2.5647011 -1.6282057
7.4749436 -2.6169677 -1.6323365
7.4338651 -2.6539028 -1.6267598
7.4247971 -2.7021427 -1.6284121
7.4346814 -2.7575157 -1.634402
7.4240284 -2.8055029 -1.6358478
7.4377213 -2.8629518 -1.6428703
7.4382339 -2.9156756 -1.6470013
7.4829082 -2.9862814 -1.661253
7.4517527 -3.0269849 -1.6583613
7.4330392 -3.0726509 -1.6583613
7.4014187 -3.1128914 -1.6554697
7.3587899 -3.148242 -1.6500995
7.3357453 -3.1917741 -1.6492733
7.305285 -3.2319756 -1.6467947
7.2746081 -3.2719235 -1.6443162
7.2063422 -3.2945325 -1.6331627
7.184217 -3.3378632 -1.6327497
7.1742187 -3.3868937 -1.6352282
7.1506553 -3.4295809 -1.6346085
7.127718 -3.4725351 -1.6341954
7.0825982 -3.5044899 -1.6286187
7.0417271 -3.5382185 -1.6240747
7.0190129 -3.5809145 -1.6238681
6.9873514 -3.6189656 -1.6215961
6.9528894 -3.6553972 -1.6187046
6.926013 -3.6956878 -1.6176717
6.9204149 -3.7474327 -1.6218027
6.8878579 -3.7846425 -1.6195307
6.8448496 -3.8158774 -1.6147802
6.7829804 -3.836132 -1.6054856
6.826364 -3.9161394 -1.6218027
6.766686 -3.9372859 -1.6131278
6.7499843 -3.9832065 -1.6149867
6.8656325 -4.1084452 -1.6494799
6.876265 -4.172318 -1.6583613
6.8355336 -4.205204 -1.6546434
6.8237162 -4.2558684 -1.6581547
6.7908578 -4.2934752 -1.6565024
6.7512045 -4.3266163 -1.6531976
6.7130423 -4.360498 -1.650306
6.6828914 -4.3994546 -1.6494799
6.6476312 -4.4349475 -1.6474143
6.6170516 -4.4734612 -1.6465882
6.6266108 -4.539413 -1.6560893
6.578537 -4.566041 -1.6509256
6.5263853 -4.5894365 -1.6447293
6.4765854 -4.614068 -1.6391525
6.4346638 -4.6439872 -1.6356412
6.4092073 -4.6856918 -1.6364675
6.3771906 -4.7226009 -1.6356412
6.366096 -4.7751441 -1.6403918
6.2665553 -4.7608485 -1.6218027
6.2348986 -4.79742 -1.621183
6.2261834 -4.8518233 -1.6267598
6.2055135 -4.8972082 -1.6292384
6.1363649 -4.9040418 -1.6187046
6.1152864 -4.948987 -1.621183
6.0848045 -4.9864163 -1.621183
6.0247273 -4.9992924 -1.6131278
6.011169 -5.0506411 -1.6178783
5.9964619 -5.101377 -1.6224223
5.958375 -5.1323276 -1.6205634
5.9112854 -5.1552868 -1.616226
5.8729405 -5.1856327 -1.614367
5.8337169 -5.2150502 -1.6123016
5.8284507 -5.2750382 -1.6199437
5.8031883 -5.3173113 -1.6220093
5.7460623 -5.3301959 -1.6149867
5.7296538 -5.3807573 -1.6197373
5.70504 -5.4239025 -1.6222157
5.6589622 -5.4465933 -1.618498
5.6310425 -5.4866757 -1.6201503
5.5568671 -5.4812737 -1.6081706
5.5535951 -5.5456853 -1.6172587
5.4767985 -5.5365324 -1.6044528
5.470078 -5.5980239 -1.6127146
5.4485378 -5.6448574 -1.616639
2.251102 -2.3613734 -0.6491788
2.2379122 -2.3765662 -0.64959192
2.2239542 -2.3909693 -0.64979845
2.2099035 -2.4052906 -0.65000498
5.2044249 -5.7339888 -1.5951583
5.1632652 -5.7592583 -1.5932994
5.1336684 -5.7974234 -1.5951583
5.107018 -5.8391242 -1.59805
5.076211 -5.8762736 -1.5997024
5.0451398 -5.9132643 -1.6013547
5.0087619 -5.9441094 -1.6013547
4.9690657 -5.9709706 -1.6003219
4.9279857 -5.9960566 -1.5988761
4.86027 -5.9881983 -1.5885488
4.8332272 -6.0301223 -1.5918536
4.840467 -6.1156688 -1.6069314
2.0009739 -2.5606279 -0.64649373
1.9888114 -2.5775049 -0.64773303
1.9694004 -2.58499 -0.64649373
1.948796 -2.5907707 -0.64484137
1.9241109 -2.5908978 -0.64174318
1.7843517 -2.4338076 -0.59754241
1.7705321 -2.4462953 -0.59795547
1.7372838 -2.4316394 -0.59134603
4.4374399 -6.2911658 -1.5856572
4.3998723 -6.319881 -1.5860703
4.3671074 -6.3556294 -1.5883423
4.3082566 -6.3531537 -1.5809066
4.2637515 -6.3713379 -1.5788412
4.2348223 -6.4128923 -1.5827656
4.1836414 -6.420722 -1.5782216
4.1277623 -6.4207582 -1.5718186
4.0867152 -6.4434862 -1.5711989
4.0413928 -6.4593167 -1.568927
4.0032248 -6.4864902 -1.5695466
3.9918416 -6.5577331 -1.5811132
3.9646242 -6.6039133 -1.5864834
3.9070795 -6.5994902 -1.5794609
3.8650324 -6.6208043 -1.5788412
1.6770424 -2.9141417 -0.67024648
1.6581641 -2.9226749 -0.66983342
1.6406775 -2.9336481 -0.67003995
3.694299 -6.7008104 -1.575743
3.6577859 -6.7319493 -1.5778085
3.605787 -6.7344275 -1.5730579
3.574899 -6.776329 -1.5778085
3.5544627 -6.8389397 -1.5875161
3.5035141 -6.8432026 -1.5833852
3.456172 -6.8540874 -1.5809066
3.4140511 -6.875165 -1.5809066
3.3593366 -6.8704939 -1.5749168
3.3166924 -6.8900957 -1.5747102
3.2559166 -6.8714128 -1.5656222
3.2265139 -6.9187503 -1.5720252
3.1770623 -6.9233003 -1.5685139
3.1268713 -6.9257207 -1.5645895
3.0799479 -6.9349403 -1.5623175
3.0479138 -6.9779167 -1.5678942
3.0019512 -6.989295 -1.5662419
2.9631965 -7.017498 -1.5685139
2.9133298 -7.0192814 -1.5647961
2.8639228 -7.0216241 -1.5612848
2.8095009 -7.01091 -1.5548819
2.7703726 -7.0380316 -1.5571539
2.7158453 -7.0256944 -1.5505444
2.6685185 -7.031249 -1.5480659
2.6294248 -7.0584931 -1.5505444
2.5830414 -7.0662236 -1.5486856
2.5383139 -7.0782557 -1.5478593
2.4941854 -7.0918512 -1.5474463
2.4471147 -7.0968471 -1.5451742
2.4047763 -7.1154361 -1.5460004
2.3586106 -7.1226273 -1.544348
2.3356953 -7.2011828 -1.5585997
2.2914658 -7.2153788 -1.5585997
2.2494736 -7.2367778 -1.5602521
2.2001867 -7.2345304 -1.5567408
2.1660776 -7.2825937 -1.564383
2.1156139 -7.2760177 -1.5600455
2.0834999 -7.333097 -1.5697532
2.0327086 -7.3250017 -1.5652092
1.9800483 -7.3090048 -1.5590128
1.9324129 -7.3106112 -1.5567408
1.8892294 -7.3289628 -1.5581867
1.8382624 -7.3166933 -1.553023
1.7965904 -7.3411403 -1.5559146
1.751739 -7.3529778 -1.5561211
1.6970878 -7.3226018 -1.5472397
1.6602993 -7.3691483 -1.5550884
1.6146332 -7.377285 -1.5546753
1.5697434 -7.3889675 -1.5550884
1.5265485 -7.4090014 -1.5573604
1.4737777 -7.3817682 -1.5495117
1.4275275 -7.385869 -1.548479
1.3852389 -7.4108391 -1.5519903
1.3426975 -7.4355679 -1.5555015
1.2960403 -7.4378829 -1.5542623
1.2419491 -7.3955197 -1.5435219
1.1826484 -7.3170366 -1.5251393
1.1396829 -7.3367243 -1.5278244
1.0927682 -7.3309984 -1.5251393
1.0451365 -7.3191619 -1.521215
0.99901551 -7.3167119 -1.519356
0.95271105 -7.3120317 -1.517084
0.90722477 -7.3128848 -1.5160513
0.8624512 -7.3192854 -1.5162579
0.81774187 -7.3263845 -1.5166709
0.77297783 -7.33321 -1.517084
0.72883737 -7.3465781 -1.518943
0.68093514 -7.3207107 -1.51254
0.63651139 -7.3305998 -1.5137793
0.59230679 -7.3441195 -1.5158447
0.54657847 -7.3388343 -1.5139859
0.50180489 -7.3459544 -1.514812
0.45678225 -7.3498716 -1.5150186
0.4115662 -7.3505826 -1.5146054
0.36645612 -7.3529692 -1.5146054
0.32158878 -7.3609443 -1.5158447
0.27579191 -7.3461576 -1.5123335
0.2308961 -7.353579 -1.5135727
0.18567201 -7.350945 -1.5127466
0.14078905 -7.3636851 -1.5152251
0.095692955 -7.3712587 -1.5166709
0.050441708 -7.3687716 -1.5160513
0.0052985488 -7.4628725 -1.5358797
-0.040550698 -7.473527 -1.5381516
-0.086699389 -7.4985752 -1.5435219
-0.13265637 -7.4949675 -1.5429022
-0.17852579 -7.4891214 -1.5418695
-0.22482602 -7.4996209 -1.544348
-0.26960427 -7.4638772 -1.5371189
-0.31708857 -7.5021629 -1.5455873
-0.36486375 -7.5362358 -1.5532296
-0.41040599 -7.5211544 -1.5505444
-0.45494738 -7.4921255 -1.5449677
-0.50214928 -7.5077419 -1.548892
-0.54706675 -7.4889059 -1.5455873
-0.5930075 -7.4854083 -1.5455873
-0.63942516 -7.4874778 -1.5468266
-0.68669313 -7.4980288 -1.5499247
-0.73459047 -7.5131502 -1.5540557
-0.78189009 -7.5201797 -1.5565343
-0.82941061 -7.527884 -1.5592194
-0.87219322 -7.4934964 -1.553023
-0.92351234 -7.5317063 -1.5623175
-0.97008359 -7.5288095 -1.5629371
-1.0175706 -7.5324116 -1.5650027
-1.0624006 -7.5163383 -1.5629371
-1.1089284 -7.5125818 -1.5635568
-1.1569378 -7.518208 -1.5662419
-1.1951575 -7.4616947 -1.5557081
-1.2499138 -7.5082703 -1.5672746
-1.2947944 -7.4937105 -1.5658288
-1.3381639 -7.4711781 -1.5627307
-1.385051 -7.4685988 -1.5639699
-1.4308515 -7.4599595 -1.5639699
-1.4775487 -7.4558387 -1.5650027
-1.5260136 -7.4600525 -1.5678942
-1.5679225 -7.4323583 -1.5639699
-1.6132892 -7.4216418 -1.5637634
-1.6472603 -7.3600426 -1.5526099
-0.68750763 -2.9846847 -0.6070435
-0.71685046 -3.0270646 -0.61716425
-0.7293998 -2.99789 -0.61179405
-1.8662592 -7.4730844 -1.5864834
-1.876624 -7.3231106 -1.5563277
-0.77476037 -2.9470501 -0.60373878
-0.7933374 -2.9441302 -0.60415184
-0.8106066 -2.9363775 -0.6035322
-0.83100283 -2.9398227 -0.60539114
-2.1196735 -7.3288341 -1.5709925
-2.1537776 -7.2790985 -1.5629371
-2.2069001 -7.2938418 -1.5691335
-1.0714163 -3.4635122 -0.72580731
-2.2918189 -7.2522159 -1.5660354
-2.325156 -7.2035646 -1.5583931
-2.3720684 -7.1975255 -1.5602521
-1.0802996 -3.210819 -0.67561668
-1.0952168 -3.190248 -0.67251849
-1.1089524 -3.1668451 -0.66880065
-2.5654228 -7.1859837 -1.5711989
-2.607794 -7.1655097 -1.5701662
-1.1578702 -3.1211269 -0.66322392
-1.1749244 -3.1084719 -0.66198468
-1.2249019 -3.1815608 -0.6801607
-1.2568967 -3.205869 -0.68738979
-2.8528385 -7.1484842 -1.5852441
-2.8841288 -7.1000233 -1.5782216
-2.9224069 -7.0695333 -1.5753299
-2.9566271 -7.0298223 -1.5703728
-1.2692169 -2.9660964 -0.64153665
-1.2862217 -2.9555612 -0.640917
-1.3031451 -2.9449291 -0.64029735
-1.3248019 -2.9449089 -0.64215624
-3.1733148 -6.9411592 -1.5716121
-3.221204 -6.9330935 -1.5742972
-3.2624311 -6.9105434 -1.5736775
-3.3043489 -6.8895135 -1.573471
-3.3641279 -6.9051733 -1.5819393
-3.4224873 -6.9168491 -1.5895816
-3.4547613 -6.8756104 -1.584831
-3.4750984 -6.8115749 -1.5747102
-3.5114288 -6.7796979 -1.5722318
-3.5666201 -6.7840066 -1.5784281
-3.6164691 -6.7775331 -1.5821459
-3.6696339 -6.7767258 -1.5873096
-3.7153862 -6.7617993 -1.5891684
-3.7668099 -6.7568221 -1.593506
-3.8163855 -6.7480612 -1.5970172
-3.864048 -6.7355504 -1.5997024
-3.9136684 -6.7260919 -1.6032135
-3.9503903 -6.6943669 -1.6013547
-3.9647658 -6.6255021 -1.5904077
-4.0444236 -6.665462 -1.6063118
-4.0693541 -6.6146855 -1.5999088
-2.6006358 -4.1694775 -0.99782801
-2.6376724 -4.1716366 -1.002372
-2.6716657 -4.1685548 -1.0056767
-2.707319 -4.1676736 -1.0096011
-2.7387581 -4.1599736 -1.0118731
-2.6941886 -4.0380902 -0.98522872
-2.8043959 -4.1479378 -1.0174499
-2.7971723 -4.0830259 -1.0052637
-2.8606648 -4.1212497 -1.0195153
-2.9061587 -4.1324329 -1.026951
-2.9274864 -4.1089449 -1.0255052
-2.9703927 -4.1155009 -1.031908
-3.0002084 -4.1035166 -1.0335604
-3.0340643 -4.0968256 -1.0366586
-3.0409458 -4.0538664 -1.0302557
-3.0562928 -4.0226655 -1.026951
-3.0648088 -3.9828985 -1.0213742
-3.177592 -4.0774736 -1.0517365
-3.2461905 -4.113203 -1.0666077
-3.2090657 -4.0152416 -1.0455401
-3.1770182 -3.9254999 -1.0265379
-3.156395 -3.8514414 -1.0116665
-3.1699712 -3.8199537 -1.0083618
-3.1958678 -3.8034279 -1.0091881
-3.2552807 -3.8262274 -1.0209612
-3.3074303 -3.8395429 -1.0302557
-3.363723 -3.8567858 -1.0407895
-3.3976858 -3.8478096 -1.0440943
-3.4192753 -3.8247008 -1.0434747
-3.4479311 -3.8094523 -1.045127
-3.4646308 -3.7810102 -1.0430615
-3.4438505 -3.7123344 -1.0294296
-3.4766107 -3.7018325 -1.0325277
-3.5316176 -3.7144697 -1.042442
-3.5543427 -3.6927302 -1.042442
-3.5837617 -3.6778598 -1.0445074
-3.5767171 -3.6258464 -1.0356259
-3.5988977 -3.6038318 -1.0356259
-3.6487653 -3.6092069 -1.0438877
-3.6792395 -3.5949569 -1.0463663
-3.4886332 -3.3670912 -0.98398948
-3.469573 -3.3078101 -0.9724229
-3.442796 -3.2421823 -0.9587909
-3.5127692 -3.2676499 -0.97324908
-3.4837642 -3.201014 -0.95920396
-3.4997172 -3.1762896 -0.95817125
-3.3967538 -3.0450227 -0.92347157
-3.4043865 -3.0143929 -0.92037338
-3.634917 -3.1789725 -0.97985858
-3.6810086 -3.1796367 -0.9872942
-3.7934873 -3.236378 -1.0131124
-3.9232574 -3.3057272 -1.0434747
-3.9156415 -3.2584333 -1.0358324
-3.9680634 -3.2610617 -1.0447139
-3.9879982 -3.2366526 -1.0447139
-3.9993851 -3.2053902 -1.042442
-4.0105386 -3.1741099 -1.04017
-4.0214596 -3.1428139 -1.0378979
-3.9477193 -3.0463421 -1.0131124
-3.9601111 -3.0173175 -1.0114601
-3.9785507 -2.9929621 -1.0114601
-3.9135833 -2.9066477 -0.98956621
-3.9676387 -2.9091964 -0.99906731
-4.003643 -2.8979933 -1.0038178
-4.0356784 -2.8836131 -1.0075357
-4.0900741 -2.8847404 -1.0170368
-4.0555043 -2.8232493 -1.0036113
-4.2598329 -2.9268746 -1.0515299
-4.2380328 -2.8737712 -1.0414091
-4.1043448 -2.7464898 -1.0029917
-4.1268349 -2.7250288 -1.0044374
-4.1344604 -2.6937795 -1.0021654
-4.1616101 -2.6752393 -1.0048506
-4.177947 -2.6496537 -1.0048506
-4.2123737 -2.6353867 -1.0093946
-4.181839 -2.5807114 -0.99782801
-4.2611117 -2.5936718 -1.0135255
-4.349926 -2.6112957 -1.031495
-4.2959871 -2.5431802 -1.0143517
-4.2971463 -2.5083861 -1.0108404
-4.343832 -2.5000329 -1.0184826
-4.3327103 -2.4583621 -1.0120797
-4.3545442 -2.4355524 -1.0137321
-4.395968 -2.4234333 -1.0201349
-4.4184923 -2.400619 -1.0219939
-4.4616032 -2.3887048 -1.0288099
-4.4380999 -2.3411942 -1.0197219
-4.404633 -2.2890985 -1.0083618
-4.5126538 -2.31019 -1.0306689
-4.4848099 -2.2613094 -1.0207546
-4.5581899 -2.2633431 -1.0347997
-4.5623231 -2.2306039 -1.0325277
-4.4992256 -2.1656427 -1.0145582
-4.5681324 -2.1643929 -1.0275706
-4.5041809 -2.1003416 -1.0096011
-4.5356579 -2.0812354 -1.0139385
-4.6312747 -2.0908139 -1.0331473
-4.591259 -2.0389235 -1.0209612
-4.5830612 -2.0017049 -1.0162106
-4.774158 -2.0503964 -1.0573132
-4.7460885 -2.0039344 -1.0480187
-4.8098044 -1.9961573 -1.0597918
-4.9044037 -2.0002382 -1.0785874
-4.7821703 -1.916235 -1.0480187
-4.7965693 -1.8879313 -1.0486382
-4.8345284 -1.8686968 -1.0546281
-4.8632841 -1.8455948 -1.0585525
-4.8158374 -1.7938566 -1.0453335
-4.8258348 -1.7639375 -1.045127
-4.8301201 -1.7319813 -1.0436811
-4.9348025 -1.7354281 -1.0647489
-4.9943814 -1.7220231 -1.0756958
-5.0474916 -1.7057585 -1.0851969
-5.4201021 -1.7947302 -1.1657497
-5.5063982 -1.785895 -1.1824799
-5.5442958 -1.7606647 -1.1884698
-5.5774188 -1.7335838 -1.1934268
-5.5860786 -1.6987593 -1.1930138
-5.7408209 -1.7074164 -1.2248218
-5.9278173 -1.7235268 -1.2636524
-6.1980443 -1.7609414 -1.320659
-6.2445588 -1.7328216 -1.3285078
-7.4912705 -2.0294354 -1.5988761
-6.7534556 -1.7851084 -1.4350853
-6.7936525 -1.7512091 -1.4414883
-7.1307025 -1.7915232 -1.51254
-7.4523349 -1.8238091 -1.5800805
-7.5271549 -1.7932439 -1.593919
-7.5837679 -1.7576303 -1.6038332
-7.7948546 -1.7562363 -1.6472079
-8.1667767 -1.7874695 -1.7252821
-8.3144512 -1.7664083 -1.7548182
-8.4161711 -1.7341211 -1.7744401
-8.8881683 -1.7746152 -1.8737885
-8.9901514 -1.7376889 -1.8934103
-9.1141329 -1.7037133 -1.9177828
-9.1061211 -1.6444534 -1.9138584
-9.2076111 -1.6045095 -1.9334803
-9.1979847 -1.5447406 -1.9293493
-9.2729702 -1.4988933 -1.9433944
-9.2607222 -1.4386618 -1.9388504
-9.2645369 -1.3810905 -1.9378177
-9.2757425 -1.3246335 -1.9384373
-9.2807875 -1.2672964 -1.9378177
-9.2786865 -1.2090621 -1.9357523
-9.3170023 -1.1559627 -1.9423617
-9.3035135 -1.0963674 -1.9380243
-9.2964516 -1.0377412 -1.9351326
-9.2753992 -0.97780633 -1.9293493
-9.3143282 -0.92416114 -1.9363718
-9.2944937 -0.86463463 -1.9310017
-9.3210688 -0.80945164 -1.9355457
-9.3434153 -0.7536602 -1.9392635
-9.3244457 -0.69457048 -1.9343064
-9.3421984 -0.63827801 -1.937198
-9.3166428 -0.57912099 -1.9310017
-9.3776579 -0.52517456 -1.9431878
-9.3357515 -0.46538168 -1.9336867
-9.3667793 -0.40932983 -1.9396766
-9.3319597 -0.35045177 -1.9318279
-9.3574057 -0.29392359 -1.936785
-8.7715349 0.64144421 -1.9278113
-8.7693796 0.69540775 -1.9282478
-8.7318888 0.74637246 -1.9208251
-8.7203426 0.79931182 -1.919297
-8.7026482 0.85156661 -1.9164588
-8.6933765 0.90454453 -1.9155856
-8.7196722 0.9614026 -1.9227901
-8.76789 1.0212169 -1.9350156
-8.7430553 1.072736 -1.9308676
-8.7024345 1.1219902 -1.9232266
-8.6789455 1.1731418 -1.9195153
-8.6561241 1.2241843 -1.9160223
-8.6629305 1.2794148 -1.919297
-8.7031422 1.3399768 -1.9302126
-8.617671 1.3809897 -1.9127476
-8.666791 1.4434677 -1.9258463
-8.6471939 1.4947891 -1.923445
-8.6196079 1.5445464 -1.919297
-8.6310778 1.6013254 -1.9240999
-8.5635872 1.6432129 -1.9110011
-8.5954609 1.704083 -1.9206069
-8.5781507 1.7554212 -1.9190787
-8.5404835 1.8023769 -1.9129659
-8.5454741 1.8582737 -1.9166772
-8.4824886 1.8991525 -1.9048883
-8.4849396 1.954452 -1.908163
-8.5107718 2.0154781 -1.9168955
-8.5077267 2.0699697 -1.9190787
-8.461729 2.1138506 -1.9114376
-8.4287481 2.1606395 -1.9068531
-8.4143887 2.2120683 -1.9066348
-8.3959455 2.2623863 -1.9055432
-8.3593302 2.3076248 -1.9003037
-8.3478308 2.3596702 -1.9009587
-8.37819 2.4238708 -1.9114376
-8.3575449 2.4735703 -1.9101278
-8.3440781 2.5253704 -1.9105644
-8.3452063 2.5817149 -1.914494
-8.3133907 2.6278691 -1.9107827
-8.2748222 2.6716306 -1.9055432
-8.2712488 2.7266328 -1.9085996
-8.227541 2.7683043 -1.9022685
-8.2039394 2.8165164 -1.9007403
-8.2371578 2.8845482 -1.9127476
-8.177949 2.9202623 -1.9029235
-8.1708803 2.9743936 -1.9055432
-8.146986 3.0224359 -1.9042333
-8.1447182 3.0785809 -1.908163
-8.1010866 3.1190276 -1.9022685
-8.0981493 3.1750903 -1.9061981
-8.0667334 3.220015 -1.9033601
-8.0504398 3.2709208 -1.9042333
-8.0383339 3.3236127 -1.9061981
-7.9908051 3.3615167 -1.8996488
-7.9700289 3.4104841 -1.8996488
-7.9632688 3.4655557 -1.9031417
-7.9463162 3.5163271 -1.9042333
-7.9272609 3.56622 -1.9048883
-7.9158788 3.6196649 -1.907508
-7.9005995 3.6714587 -1.9092546
-7.8382154 3.7011108 -1.8994304
-7.8091998 3.7461801 -1.8979023
-7.7948384 3.7983019 -1.9000853
-7.7670131 3.8438938 -1.8989938
-7.7520003 3.8958623 -1.9011769
-7.724473 3.9415796 -1.9003037
-7.6949439 3.986208 -1.8989938
-7.678113 4.037437 -1.9009587
-7.6196208 4.0665488 -1.8924444
-7.6228409 4.1285658 -1.8996488
-7.5708547 4.1606874 -1.892881
-7.5502963 4.2099152 -1.8941909
-7.5107331 4.2484741 -1.890698
-7.5183787 4.3139105 -1.8994304
-7.4647794 4.3442502 -1.8924444
-7.4631939 4.4048557 -1.8989938
-7.4109068 4.4355273 -1.8924444
-7.3827171 4.4804101 -1.8922261
-7.3343101 4.5128374 -1.8867682
-7.3172445 4.5644708 -1.8896064
-7.3245635 4.6317148 -1.8989938
-7.2450719 4.6439128 -1.8854584
-7.246717 4.7079558 -1.893536
-7.2168779 4.7517953 -1.8933177
-7.1802807 4.7911119 -1.8913529
-7.1572146 4.8394527 -1.8930993
-7.1257753 4.8821745 -1.8926628
-7.0676298 4.9063239 -1.8850218
-7.0589418 4.9647589 -1.8909162
-7.0474181 5.0215716 -1.8961557
-7.0212212 5.0681472 -1.8974656
-7.0002313 5.1186228 -1.9003037
-6.9357586 5.1370797 -1.8911345
-6.9056687 5.1807113 -1.8915712
-6.8714199 5.2212148 -1.8909162
-6.8431201 5.2662549 -1.8920078
-6.7991338 5.2991443 -1.888733
-6.7695546 5.3431821 -1.8896064
-6.7488375 5.3943691 -1.8930993
-6.7125773 5.4332213 -1.8922261
-6.6911879 5.4842062 -1.8957192
-6.6213698 5.4952393 -1.8852401
-6.5718398 5.5225773 -1.8806555
-6.5668135 5.5874648 -1.8891697
-6.5242739 5.6206455 -1.8867682
-6.5014286 5.6708369 -1.8902613
-6.4540772 5.6996388 -1.8865499
-6.4211655 5.7410851 -1.8872049
-6.3937755 5.7875814 -1.8896064
-6.3797245 5.8464866 -1.8961557
-6.3337164 5.8762283 -1.8930993
-6.292563 5.9103031 -1.8915712
-6.2568865 5.9494748 -1.8917894
-6.2216697 5.9891081 -1.8922261
-6.1903944 6.0326204 -1.8939726
-6.1352024 6.0526686 -1.8882965
-6.0979486 6.0901995 -1.8882965
-6.0597787 6.1268072 -1.8880781
-6.0343451 6.1764402 -1.8920078
-6.0173388 6.2351213 -1.8987755
-5.9735813 6.266274 -1.897029
-5.9296684 6.2971249 -1.8952825
-5.9101901 6.3541145 -1.9016136
-5.8651495 6.383791 -1.8996488
-5.8324261 6.4268861 -1.9018319
-5.7765999 6.4443831 -1.8963741
-5.7582936 6.5038209 -1.9035784
-5.7291975 6.5515203 -1.9072897
-5.6990952 6.5983691 -1.9107827
-5.6338043 6.6042552 -1.9022685
-5.6026053 6.6498952 -1.9055432
-5.5673137 6.6908994 -1.907508
-5.5199599 6.7173929 -1.9053249
-5.4854016 6.7594728 -1.9077264
-5.4426031 6.7914801 -1.9072897
-5.3923521 6.8140326 -1.9042333
-5.3738704 6.8769836 -1.9127476
-5.3238244 6.8997822 -1.9099095
-5.2784314 6.9284372 -1.9088179
-5.2281952 6.9505553 -1.9059799
-5.1802135 6.9754519 -1.9040151
-5.1436615 7.0157638 -1.9064165
-5.1079535 7.0574708 -1.9092546
-5.0673895 7.0926504 -1.9103462
-5.0181513 7.115634 -1.908163
-4.9894462 7.1679182 -1.9140575
-4.9520006 7.2080512 -1.9166772
-4.9377947 7.2827291 -1.9286845
-4.874568 7.2853107 -1.9212618
-4.8071957 7.2808766 -1.9120927
-4.7704191 7.3225017 -1.9153674
-4.7280374 7.3557396 -1.9164588
-4.6890845 7.3945026 -1.9190787
-4.6394849 7.4165158 -1.9173322
-4.6005511 7.4556408 -1.9201702
-4.5501523 7.4762259 -1.9182054
-4.5368314 7.5583954 -1.9323958
-4.4680047 7.5482974 -1.9225717
-4.4516058 7.6269865 -1.9358888
-4.3862314 7.6220136 -1.9275929
-4.3441954 7.6572719 -1.9297761
-4.2933197 7.6769691 -1.9280295
-4.2376561 7.6877832 -1.9240999
-4.1890078 7.7110677 -1.923445
-4.1462197 7.7452297 -1.9256281
-4.0895143 7.7532601 -1.9212618
-4.062108 7.8171773 -1.9310859
-4.0153999 7.8445606 -1.9317409
-3.9816847 7.8978095 -1.9389452
-3.9461651 7.9483161 -1.9454947
-3.8797534 7.9364314 -1.9365437
-3.8352141 7.9688816 -1.9387269
-3.7770567 7.9728608 -1.933924
-3.7280653 7.9958863 -1.933924
-3.7053771 8.0762682 -1.9481144
-3.6593647 8.1068573 -1.9500792
-3.5996552 8.1068592 -1.9446213
-3.5432074 8.1135893 -1.94091
-3.5037498 8.1593895 -1.9468045
-3.4604485 8.1969185 -1.9507341
-3.3943841 8.1801376 -1.9415649
-3.3566523 8.2315369 -1.9489876
-3.306807 8.2537889 -1.9494243
-3.262531 8.2902708 -1.9533539
-3.2073812 8.2992096 -1.9507341
-3.1539755 8.3123465 -1.949206
-3.1063173 8.3406878 -1.9513891
-3.0570903 8.3650904 -1.9526989
-3.0057056 8.3836908 -1.9526989
-2.9564726 8.4084206 -1.9542271
-2.9038701 8.4236345 -1.9535722
-2.8552516 8.4505396 -1.9557554
-2.7972147 8.4493704 -1.9513891
-2.7432115 8.459877 -1.9498609
-2.6968596 8.4942226 -1.9540088
-2.6446893 8.5106106 -1.9540088
-2.5986619 8.5472193 -1.9588118
-2.5433881 8.5536489 -1.9566286
-2.4914005 8.5709686 -1.9570652
-2.435565 8.5748281 -1.9544455
-2.392292 8.6234655 -1.9623047
-2.3380594 8.6332722 -1.9612132
-2.2862887 8.652174 -1.9623047
-2.2326701 8.6641493 -1.9618682
-2.1747139 8.6587553 -1.9575019
-2.1261795 8.6908951 -1.9618682
-2.0696497 8.690486 -1.9588118
-2.0171673 8.7068243 -1.959685
-1.9649911 8.7247505 -1.9609948
-1.909961 8.72997 -1.9594667
-1.8583848 8.751071 -1.9616498
-1.798949 8.7345896 -1.9553187
-1.7476112 8.7569475 -1.9579384
-1.6936616 8.7665472 -1.9577202
-1.6448542 8.8036346 -1.963833
-1.5804121 8.7559395 -1.9507341
-1.5283302 8.7750854 -1.9529172
-1.474297 8.7833357 -1.9526989
-1.4209979 8.7960701 -1.9535722
-1.3695425 8.8210173 -1.9572835
-1.3168287 8.8389072 -1.9594667
-1.2589879 8.821702 -1.9537905
-1.2078671 8.8515005 -1.9588118
-1.155295 8.8722935 -1.9618682
-1.1031128 8.8976164 -1.9660161
-1.0480413 8.9003401 -1.9651428
-0.99438256 8.9153328 -1.9671077
-0.9356786 8.8834152 -1.9585934
-0.88134569 8.8909321 -1.95903
-0.82975125 8.9282389 -1.9662344
-0.76947898 8.8699665 -1.952044
-0.71644789 8.8920298 -1.9559736
-0.66237986 8.9030714 -1.9575019
-0.61297733 8.9838839 -1.9747486
-0.55452353 8.9339056 -1.9627414
-0.49817383 8.9098577 -1.9566286
-0.44388157 8.9205437 -1.9583751
-0.3896465 8.9347992 -1.9609948
-0.33416089 8.9194679 -1.9570652
-0.27991256 8.9369574 -1.9605583
-0.2252178 8.9443598 -1.9618682
-0.16981533 8.9182539 -1.9557554
-0.11543979 8.9464502 -1.9618682
-0.060737558 8.9762659 -1.9684175
-0.0056453734 8.9491444 -1.9623047
0.049436096 8.9792624 -1.9690725
0.1043586 8.9641533 -1.9657978
0.15958679 8.9760284 -1.9686358
0.21437815 8.9631729 -1.9660161
0.26863497 8.9373035 -1.9605583
0.32314929 8.9267092 -1.9585934
0.37750235 8.9148083 -1.9564103
0.43124759 8.8928299 -1.952044
0.48628521 8.8987865 -1.9540088
0.54141217 8.9044018 -1.9559736
0.59616899 8.9028597 -1.9564103
0.65171164 8.9116859 -1.9592483
0.7075395 8.9221115 -1.9625231
0.76227123 8.9176025 -1.9625231
0.8148334 8.8894348 -1.9572835
0.86850607 8.8755264 -1.9553187
0.92385906 8.8787661 -1.9572835
0.97799951 8.8700199 -1.9566286
1.0313892 8.8551283 -1.9546638
1.0843952 8.8379784 -1.9522623
1.1393532 8.8369656 -1.9535722
1.1926383 8.8230391 -1.952044
1.249215 8.8329468 -1.9559736
1.301677 8.8135309 -1.9533539
1.3595957 8.8304548 -1.95903
1.4101982 8.7997847 -1.9540088
1.4569458 8.7476492 -1.9441848
1.5135874 8.7558537 -1.9481144
1.5729681 8.7781 -1.9553187
1.6246622 8.7567692 -1.9526989
1.6816746 8.7638865 -1.9566286
1.7327585 8.7400017 -1.9535722
1.7961422 8.7770071 -1.9644879
1.8406878 8.721899 -1.9544455
1.888775 8.685648 -1.9487693
1.9426736 8.6767521 -1.9494243
1.9978491 8.6732273 -1.9513891
2.042479 8.6247215 -1.9430932
2.0930526 8.6025448 -1.94091
2.1453242 8.5876465 -1.9404734
2.2040379 8.5979538 -1.9459312
2.2540216 8.5738869 -1.9435297
2.3020151 8.5429344 -1.9396001
2.3715374 8.5907326 -1.9540088
2.4242046 8.5760193 -1.9540088
2.4699972 8.5375481 -1.9485509
2.518734 8.510067 -1.9457129
2.5655301 8.4767065 -1.9415649
2.6278813 8.4943657 -1.9494243
2.6781867 8.4724989 -1.9481144
2.7178242 8.4178324 -1.9391636
2.7639222 8.3843155 -1.9352338
2.8025508 8.329278 -1.926283
2.8647006 8.3442287 -1.933924
2.9135873 8.3200474 -1.9323958
2.973119 8.3259077 -1.938072
3.0004406 8.242403 -1.9225717
3.0506189 8.2229233 -1.9223534
3.1117165 8.2323465 -1.9291211
3.1723425 8.2395077 -1.9354522
3.2146437 8.1989918 -1.930431
3.2525866 8.1482992 -1.9230083
3.3098714 8.1462698 -1.9273746
3.3415167 8.0816193 -1.9166772
3.387635 8.0528688 -1.9147124
3.4454315 8.0516682 -1.9195153
3.5013928 8.0455866 -1.9232266
3.5550389 8.0337677 -1.9256281
3.5938537 7.9886651 -1.9199519
3.6249423 7.9274158 -1.9103462
3.6698134 7.8970599 -1.9083813
3.717366 7.8726287 -1.9079447
3.7609575 7.8399935 -1.9055432
3.8089919 7.8167691 -1.9055432
3.8555841 7.7906265 -1.9048883
3.8936706 7.7476406 -1.9000853
3.9522276 7.7453337 -1.9055432
3.9969838 7.7157388 -1.9042333
4.0347109 7.6729312 -1.8996488
4.0826344 7.6497517 -1.9000853
4.1336794 7.6322794 -1.9020503
4.1874843 7.6195998 -1.9053249
4.2294049 7.5852399 -1.9031417
4.2749062 7.557447 -1.9027052
4.3100243 7.5116076 -1.897684
4.3511238 7.4765868 -1.8955008
4.3969173 7.449748 -1.8955008
4.4455533 7.4276524 -1.8968107
4.4966149 7.4094114 -1.8992121
4.5445514 7.3858366 -1.9003037
4.585135 7.3503613 -1.8983389
4.6358881 7.3311615 -1.9007403
4.6781502 7.2984705 -1.8996488
4.7138052 7.2557178 -1.8959374
4.7512584 7.216063 -1.8930993
4.792737 7.1827154 -1.8920078
4.8334389 7.1483226 -1.890698
4.8567967 7.0887465 -1.8826203
4.9085503 7.0708361 -1.885895
4.9428596 7.0278144 -1.8824019
4.9875875 6.9997373 -1.8830569
5.0253019 6.9618816 -1.8810921
5.0615873 6.9222512 -1.8786906
5.0998993 6.8855748 -1.8771625
5.1555247 6.8721051 -1.8821837
5.1910982 6.8317957 -1.8797822
5.2329197 6.7998152 -1.8797822
5.2661438 6.756804 -1.8767258
5.3129463 6.7312579 -1.8786906
5.3358665 6.6756649 -1.8721412
5.3822536 6.6496253 -1.874106
5.4056296 6.5953441 -1.8679932
5.4416327 6.5567956 -1.8664651
5.4792504 6.5202951 -1.8655919
5.53054 6.499929 -1.8695215
5.5817857 6.4791784 -1.8734511
5.6252856 6.4492197 -1.874761
5.6453691 6.3926401 -1.8682116
5.686439 6.3600631 -1.8688666
5.7174964 6.316371 -1.8662468
5.7337251 6.2567115 -1.8588241
5.7753267 6.2249889 -1.8599157
5.8180914 6.1944132 -1.8614439
5.8633881 6.1663761 -1.8638453
5.8889298 6.1176291 -1.8599157
5.9229503 6.0778861 -1.8588241
5.9608173 6.0421238 -1.8590424
6.0032969 6.0109582 -1.8607889
6.0518632 5.9856744 -1.8645003
6.0814953 5.9416094 -1.8623171
6.1431203 5.928575 -1.8701764
6.2118778 5.9217401 -1.8802189
6.2168317 5.8540812 -1.8706131
6.2554932 5.8184834 -1.8714863
6.273828 5.7641473 -1.8662468
6.2895637 5.7078385 -1.8603523
6.336823 5.6802111 -1.8640636
6.3752103 5.6444559 -1.8651552
6.4075198 5.6033053 -1.8645003
6.4550757 5.5753641 -1.8684299
6.4980745 5.5432506 -1.8710496
6.5043483 5.4800138 -1.862972
6.5318484 5.435008 -1.8612256
6.5801554 5.4072165 -1.8655919
6.6116939 5.36551 -1.8651552
6.6871409 5.3590097 -1.8773807
6.7221932 5.3196936 -1.8780357
6.7500935 5.2747421 -1.8767258
6.7359695 5.1974626 -1.8636271
6.7863665 5.1702247 -1.8688666
6.8054829 5.1191025 -1.8653735
6.8563538 5.0917916 -1.8708314
6.8803835 5.0444336 -1.8688666
6.9262276 5.012991 -1.8730145
6.9600329 4.9726667 -1.8738878
6.9983897 4.9354901 -1.8760709
7.0365515 4.8980303 -1.8782541
7.0487757 4.842608 -1.8734511
7.1001668 4.8140497 -1.8793455
7.1165934 4.7617121 -1.8758526
7.1619658 4.7287078 -1.8802189
7.2284617 4.7091722 -1.8902613
7.2358751 4.6510143 -1.8845851
7.2585073 4.6028709 -1.8830569
7.2708926 4.5484157 -1.878909
7.3177676 4.5155005 -1.8839302
7.3461699 4.4710217 -1.8841485
7.3676081 4.4223475 -1.8826203
7.412241 4.3874941 -1.8872049
7.4171076 4.3291435 -1.8815287
7.4629865 4.294744 -1.8865499
7.4891982 4.2488713 -1.8865499
7.5287566 4.2104578 -1.8900429
7.5279541 4.1495829 -1.8832753
7.5601339 4.1070399 -1.8850218
7.5963774 4.0665603 -1.8878598
7.5668035 3.9911976 -1.874106
7.6344504 3.9671867 -1.8850218
7.6308489 3.9060426 -1.8780357
7.6372433 3.8503628 -1.8736694
7.6782074 3.8121061 -1.8780357
7.7032075 3.7657788 -1.8784723
7.7534299 3.7315576 -1.8852401
7.7682424 3.6801541 -1.8832753
7.7933311 3.6336565 -1.8839302
7.842978 3.5983808 -1.890698
7.8319974 3.5353384 -1.8826203
7.8490829 3.4852362 -1.8815287
7.9078836 3.4534075 -1.890698
7.9280276 3.4044359 -1.8904796
7.9775386 3.3678679 -1.8974656
8.0007572 3.319977 -1.8981205
8.0146523 3.2682443 -1.8965924
8.0254955 3.2153776 -1.8944092
8.0695934 3.1757193 -1.9003037
8.0880175 3.1257937 -1.9000853
8.1079569 3.0764539 -1.9003037
8.123023 3.0252845 -1.8994304
8.1313496 2.9717023 -1.897029
8.1769905 2.9316299 -1.9035784
8.1966658 2.8820488 -1.9040151
8.197588 2.8259783 -1.9000853
8.2064524 2.7728152 -1.8981205
8.2223854 2.7221026 -1.8979023
8.2677116 2.6809273 -1.90467
8.2616816 2.6230626 -1.8994304
8.2860088 2.5749257 -1.9013953
8.2755079 2.5160902 -1.8952825
8.2992096 2.4677675 -1.8972473
8.3366861 2.4233325 -1.9024868
8.378624 2.379863 -1.9088179
8.3704987 2.32215 -1.9035784
8.3704596 2.266921 -1.9003037
8.381381 2.2147708 -1.8996488
8.3721323 2.1574602 -1.8944092
8.4145546 2.1134145 -1.9011769
8.4842415 2.0756509 -1.9142758
8.4578934 2.0142891 -1.9053249
8.4624882 1.9605936 -1.9035784
8.4857836 1.9112034 -1.9061981
8.4725637 1.8536799 -1.900522
8.5028706 1.8057103 -1.9048883
8.5510674 1.7611762 -1.9134026
8.538744 1.7040939 -1.908163
8.5720358 1.6561089 -1.9134026
8.5657282 1.6004359 -1.9096912
8.5782681 1.548367 -1.9103462
8.544343 1.4881732 -1.900522
8.5716 1.4387851 -1.90467
8.5976076 1.3889629 -1.9085996
5.9424491 0.92300016 -1.3056176
5.8456845 0.87129104 -1.2824763
5.8142085 0.83017164 -1.2741804
5.8008213 0.79197615 -1.2700324
5.7968621 0.75523514 -1.2680676
5.7926707 0.7185725 -1.2661028
5.7853403 0.68164784 -1.263483
5.7729259 0.64429998 -1.2597717
5.7680359 0.60794699 -1.2578069
5.7619462 0.57158214 -1.2556237
5.7449393 0.53432292 -1.2510391
5.7383871 0.49822044 -1.2488561
5.7325816 0.46229675 -1.2468911
5.728498 0.42660764 -1.245363
5.7446384 0.39237848 -1.2484194
0 0 -0
0 0 -0
0 0 -0
0 0 -0
0 0 -0
0 0 -0
0 0 -0
0 0 -0
0 0 -0
0 0 -0
0 0 -0
0 -0 -0
0 -0 -0
0 -0 -0
0 -0 -0
0 -0 -0
0 -0 -0
0 -0 -0
0 -0 -0
0 -0 -0
0 -0 -0
0 -0 -0
0 -0 -0
0 -0 -0
0 -0 -0
0 -0 -0
0 -0 -0
0 -0 -0
8.6139431 -0.94973123 -1.8989938
8.5934143 -1.0008721 -1.8957192
8.3527098 -1.0247903 -1.8428873
8.000742 -1.0314283 -1.7649493
7.9033585 -1.0682007 -1.7444278
7.7526846 -1.0962944 -1.711899
7.6579618 -1.130857 -1.6920326
7.5785418 -1.166677 -1.6756591
7.7099938 -1.2354103 -1.7070962
7.7186322 -1.2854223 -1.7108076
7.6913681 -1.3294317 -1.7064413
7.6859474 -1.3771168 -1.7070962
7.685029 -1.4256761 -1.7088428
7.6579275 -1.4693072 -1.7046947
7.6430244 -1.5151283 -1.7033849
7.6211553 -1.5594513 -1.7005467
7.6047597 -1.6047732 -1.6990186
7.587141 -1.6497449 -1.6972721
7.5635438 -1.6932809 -1.6942157
7.5368457 -1.7359321 -1.6905043
7.5089598 -1.7780944 -1.6865747
7.4154162 -1.8040528 -1.6675814
7.2318983 -1.8064498 -1.6278484
7.3407288 -1.8815808 -1.6555742
7.406435 -1.9469434 -1.6734759
7.4301543 -2.0020049 -1.6817719
7.4055018 -2.0441804 -1.6789337
7.3618312 -2.0808172 -1.6717294
7.3545494 -2.1275773 -1.6730393
7.3338704 -2.1704473 -1.6712928
7.3260188 -2.2171032 -1.6726027
7.2498164 -2.2426808 -1.6579757
7.2591805 -2.2944791 -1.6634334
7.2496085 -2.3404772 -1.664525
7.248086 -2.389195 -1.6675814
7.2258906 -2.4311328 -1.6658349
7.1988392 -2.4713032 -1.6629969
7.173409 -2.5118787 -1.6605954
7.1633754 -2.5578165 -1.6619053
7.1383762 -2.5983825 -1.6597221
7.1122346 -2.6383989 -1.6573207
7.095912 -2.681989 -1.6573207
7.0683937 -2.7212691 -1.6547009
7.0488381 -2.7635198 -1.6540459
7.0199671 -2.8020139 -1.6512079
6.9926972 -2.8409927 -1.6488065
6.9706249 -2.8819807 -1.6477149
6.9294238 -2.9148555 -1.6420387
6.9042311 -2.9542465 -1.6402923
6.8913426 -2.9988918 -1.6416022
6.8808432 -3.0446749 -1.643567
6.8593621 -3.0856361 -1.642912
6.8252134 -3.1207654 -1.6392007
6.8112459 -3.1650536 -1.6405106
6.781991 -3.2022023 -1.6381091
6.7472582 -3.236578 -1.6343977
6.7246399 -3.2766347 -1.6337428
6.7149034 -3.3230302 -1.6363626
6.694387 -3.3641696 -1.6363626
6.6744881 -3.4056258 -1.6365809
6.6482673 -3.4438217 -1.6352711
6.5881457 -3.4641063 -1.6254469
6.5710707 -3.5067632 -1.6265385
6.5520039 -3.5484111 -1.6271935
6.5309629 -3.5890167 -1.6274117
6.5096707 -3.6294978 -1.62763
6.482182 -3.6664884 -1.6263201
6.47649 -3.715909 -1.6306864
6.4476643 -3.7521415 -1.6291583
6.4253607 -3.792129 -1.6293765
6.3919239 -3.8254676 -1.6267568
6.368331 -3.8646157 -1.6267568
6.321228 -3.8892956 -1.620644
6.3783813 -3.9786365 -1.6420387
6.3686938 -4.0270886 -1.6459684
6.3652239 -4.0797853 -1.6516446
6.4169884 -4.1687503 -1.672166
6.4287786 -4.2327375 -1.6822084
6.3872638 -4.2618103 -1.6780605
6.3415933 -4.2878003 -1.6728209
6.2612309 -4.2896681 -1.6581939
6.2091422 -4.310194 -1.6512079
6.1969447 -4.3583188 -1.6551375
6.1907477 -4.4109869 -1.6608137
6.1651483 -4.4500322 -1.6612504
6.1589947 -4.5033321 -1.6671448
6.1030183 -4.5201244 -1.6592855
6.060338 -4.5463576 -1.6551375
6.0237818 -4.576962 -1.6527361
5.9692926 -4.5935979 -1.6453135
5.92945 -4.6211381 -1.6420387
5.8848987 -4.6447349 -1.6374542
5.83952 -4.6673493 -1.6326512
5.8919268 -4.7687979 -1.6560109
5.8429332 -4.7887735 -1.6503347
5.802928 -4.8158083 -1.6472783
5.7665462 -4.8456726 -1.6453135
5.7248144 -4.8708439 -1.6418204
5.6970377 -4.9077902 -1.6424754
5.6535807 -4.9311061 -1.6385458
5.6027384 -4.9476128 -1.6324329
5.5868235 -4.9949083 -1.6367992
5.552453 -5.0258198 -1.6357076
5.5171943 -5.0558376 -1.6343977
5.4932218 -5.0962338 -1.6365809
5.4526024 -5.1211567 -1.6337428
5.4019847 -5.1363583 -1.6278484
5.3788028 -5.1775298 -1.6304681
5.3238721 -5.1879573 -1.6232638
5.2905498 -5.2191553 -1.6228272
5.2356429 -5.2287588 -1.6156228
5.2322798 -5.2899308 -1.624792
5.1629014 -5.2842374 -1.613003
2.2675865 -2.3486195 -0.69062823
2.2524595 -2.3617826 -0.6904099
2.2359188 -2.3734272 -0.68975496
2.2179909 -2.3835287 -0.68866342
4.9904571 -5.4314971 -1.6103833
4.9563804 -5.4612927 -1.610165
4.9455719 -5.5170383 -1.617806
4.9168015 -5.5531259 -1.6195525
4.8755698 -5.5751085 -1.617151
4.8125696 -5.5716815 -1.6073269
4.8061543 -5.6337771 -1.6169326
4.7652092 -5.6556969 -1.6147496
4.7198071 -5.6720753 -1.6110382
4.6929684 -5.7107315 -1.6138763
4.6609135 -5.7432084 -1.6149678
4.6194844 -5.7640834 -1.6127847
4.5646544 -5.7678289 -1.6057987
1.9969012 -2.554271 -0.68560702
1.9788066 -2.5633848 -0.68473375
1.9636321 -2.5762546 -0.68495208
1.9466144 -2.5866947 -0.68451542
1.9277976 -2.5946727 -0.68342388
1.8524194 -2.5253816 -0.66093755
1.7522236 -2.4196885 -0.62862718
1.7197604 -2.4057767 -0.62185943
4.2151594 -5.9766874 -1.5964112
4.1956878 -6.0272703 -1.603179
4.1586261 -6.0529013 -1.603179
4.1197653 -6.0758805 -1.602524
4.0731831 -6.087255 -1.5988127
4.0400562 -6.118649 -1.6005591
4.0109582 -6.1564069 -1.6040522
3.9636118 -6.1661239 -1.6001226
3.9340627 -6.2035155 -1.6036155
3.8933372 -6.2234006 -1.602524
3.8432939 -6.2280698 -1.5975028
3.8070357 -6.254869 -1.598376
3.7565341 -6.258028 -1.5931365
3.7225375 -6.2885184 -1.5951014
3.6656847 -6.2800546 -1.5870237
3.623189 -6.2956614 -1.5852772
1.6722322 -2.9461107 -0.71813571
1.6565048 -2.9605749 -0.71922731
1.631714 -2.9587176 -0.71617091
3.4806349 -6.4066949 -1.59139
3.4288261 -6.4046998 -1.5854956
3.3794494 -6.4066272 -1.5806926
3.3499725 -6.4462943 -1.5854956
3.3170238 -6.4797592 -1.5887703
3.2728102 -6.4912758 -1.5865871
3.2199035 -6.4850111 -1.5800377
3.1774807 -6.4993854 -1.5787278
3.1320415 -6.5073271 -1.5758897
3.0924718 -6.5273046 -1.5761081
3.0861685 -6.6186876 -1.5940098
3.0426512 -6.63129 -1.5924816
2.9922719 -6.6284862 -1.587242
2.9590664 -6.6636691 -1.59139
2.9130476 -6.670073 -1.5885519
2.8693714 -6.6815443 -1.5870237
2.8302174 -6.7035203 -1.5881153
2.7882841 -6.7189569 -1.5876787
2.7484784 -6.7395539 -1.5885519
2.7077992 -6.7581034 -1.5889885
2.6652095 -6.7718663 -1.5883336
2.6200912 -6.7789893 -1.5861505
2.570487 -6.773952 -1.5811293
2.5261507 -6.78228 -1.5793828
2.4834833 -6.7949028 -1.5787278
2.4608388 -6.863296 -1.59139
2.4202979 -6.8828692 -1.5924816
2.3700716 -6.8745246 -1.5870237
2.3384626 -6.920373 -1.5944464
2.2941165 -6.9290323 -1.5931365
2.2464426 -6.927197 -1.5894252
2.2038958 -6.9408503 -1.5894252
2.1592398 -6.9477186 -1.5878969
2.117136 -6.9627042 -1.5883336
2.0624192 -6.9353399 -1.5789461
2.02391 -6.9619212 -1.5822208
1.9723593 -6.9432287 -1.5750165
1.9255472 -6.9401536 -1.5715234
1.883182 -6.9527802 -1.5717418
1.8407344 -6.9651475 -1.5719601
1.7974756 -6.974421 -1.5715234
1.7539346 -6.9824791 -1.5708685
1.7177796 -7.0206003 -1.5771996
1.6735399 -7.0262618 -1.5761081
1.6301759 -7.0354471 -1.5758897
1.5859051 -7.0405569 -1.5747982
1.5439259 -7.0558758 -1.5761081
1.4993873 -7.0594883 -1.5747982
1.4536819 -7.0570855 -1.5721784
1.4057724 -7.0429034 -1.5669389
1.3658613 -7.068644 -1.5708685
1.3210304 -7.0692172 -1.569122
1.276417 -7.070467 -1.5675938
1.2363559 -7.0973945 -1.5719601
1.1898782 -7.0875235 -1.5680305
1.1451236 -7.0869837 -1.5662839
1.1011683 -7.0909834 -1.565629
1.0551957 -7.0811973 -1.5619177
1.0103489 -7.0778775 -1.5597346
0.96900994 -7.0994148 -1.5632275
0.92429757 -7.0965171 -1.5612627
0.88433504 -7.1311092 -1.5678121
0.83828276 -7.1170173 -1.5634458
0.79470581 -7.1229968 -1.5636642
0.74965769 -7.1151223 -1.5608261
0.7075243 -7.1351261 -1.5643191
0.66409135 -7.1432199 -1.5651923
0.61864877 -7.1286879 -1.5610445
0.57489634 -7.1323495 -1.5610445
0.53148365 -7.1406088 -1.5621359
0.48878688 -7.1602869 -1.5658473
0.44695455 -7.1972418 -1.5734882
0.40077364 -7.1637974 -1.5654107
0.35671312 -7.1641722 -1.5649741
0.31160328 -7.1399021 -1.5590796
0.26789701 -7.1446056 -1.5597346
0.22435775 -7.155869 -1.5619177
0.18027487 -7.1502819 -1.5603895
0.13706246 -7.1863785 -1.5682487
0.092990011 -7.1890359 -1.5686854
0.048818871 -7.1806884 -1.5667206
0.0047649313 -7.1945152 -1.569777
-0.039374374 -7.1934333 -1.5695586
-0.083971143 -7.2320886 -1.5782912
-0.12829241 -7.2285099 -1.5776362
-0.17276059 -7.2324648 -1.5787278
-0.21684046 -7.2215142 -1.5765446
-0.26096961 -7.2151713 -1.5754532
-0.30362102 -7.1754093 -1.5669389
-0.34925422 -7.206552 -1.5743616
-0.39229196 -7.1828361 -1.5695586
-0.43837565 -7.2134123 -1.5769813
-0.4827587 -7.212534 -1.577418
-0.52750403 -7.216249 -1.5789461
-0.57030398 -7.1943932 -1.5747982
-0.61277241 -7.1713119 -1.5704319
-0.65801209 -7.1810222 -1.5734882
-0.70215678 -7.1778207 -1.5737066
-0.74578136 -7.1694946 -1.5728333
-0.79125756 -7.1783633 -1.5758897
-0.84082663 -7.2208695 -1.5865871
-0.88154805 -7.1865163 -1.5800377
-0.92550218 -7.1800041 -1.5798193
-0.96666175 -7.152915 -1.5750165
-1.0127215 -7.1623087 -1.5785094
-1.0576484 -7.1627178 -1.5800377
-1.0997946 -7.1445193 -1.577418
-1.1477846 -7.1636529 -1.5833124
-1.1970133 -7.188241 -1.5905167
-1.2410969 -7.1807609 -1.5905167
-1.2773825 -7.1297855 -1.5806926
-1.3237782 -7.1362057 -1.5839673
-1.373245 -7.1576581 -1.5907351
-1.418467 -7.155798 -1.5922632
-1.455887 -7.1154103 -1.5850589
-1.4997205 -7.1072984 -1.5852772
-1.5414344 -7.0893803 -1.5833124
-1.5853317 -7.0816932 -1.5837491
-1.6335762 -7.0927534 -1.5885519
-0.70570529 -2.9832406 -0.64609224
-0.73369169 -3.0186782 -0.6552614
-0.74770391 -2.9961312 -0.65111345
-1.7938144 -6.9985366 -1.5765446
-1.8394536 -6.9977798 -1.5789461
-0.79840767 -2.965843 -0.64740211
-0.81477207 -2.9543035 -0.64587396
-0.83208728 -2.9464314 -0.64521897
-2.0041218 -6.9280324 -1.5737066
-2.0596163 -6.9595833 -1.5839673
-2.098887 -6.935607 -1.5813476
-2.1422691 -6.9253945 -1.5820025
-1.0853881 -3.4359252 -0.76638305
-2.2387915 -6.9348011 -1.5905167
-2.2693801 -6.884789 -1.5820025
-1.088984 -3.2387118 -0.72468513
-1.0974239 -3.1987424 -0.71682584
-1.1131585 -3.1808968 -0.7142061
-2.4573557 -6.8821621 -1.5951014
-2.48785 -6.8348608 -1.5874604
-1.1406202 -3.0766122 -0.69433957
-1.1639637 -3.0814221 -0.69717765
-1.2249398 -3.1835017 -0.72337526
-1.2562095 -3.2059062 -0.73057961
-2.689461 -6.7381105 -1.5833124
-2.7384713 -6.7404666 -1.5878969
-2.7801516 -6.7244382 -1.5881153
-1.262588 -3.0032113 -0.68910003
-1.2744629 -2.9801562 -0.68538868
-1.2931144 -2.9731748 -0.68560702
-1.3097531 -2.9616151 -0.68473375
-3.0075414 -6.6858287 -1.6003408
-3.0375478 -6.6432881 -1.5944464
-3.0918286 -6.6537275 -1.6016507
-3.1430168 -6.6566911 -1.6071086
-2.0028932 -4.1764269 -0.99648553
-3.2432823 -6.6562176 -1.6167144
-2.0366747 -4.1165509 -0.98775297
-2.0702233 -4.1205425 -0.99190092
-2.1087778 -4.1338382 -0.99845034
-2.1417358 -4.135551 -1.0021616
-2.1647992 -4.1180129 -1.0010701
-2.1904857 -4.1055136 -1.0012884
-2.2188895 -4.098002 -1.0028167
-2.2576261 -4.1091099 -1.0091478
-2.2932546 -4.1139302 -1.0139506
-2.3203764 -4.103179 -1.0148239
-2.348424 -4.0939422 -1.0161338
-2.3744817 -4.0811424 -1.0165703
-2.401463 -4.0698576 -1.0174437
-2.4414284 -4.0801644 -1.023993
-2.467937 -4.0676098 -1.024648
-2.5081944 -4.0773225 -1.0311974
-2.5156007 -4.0337067 -1.0237747
-2.5236099 -3.9918036 -1.0167887
-2.5385745 -3.9614565 -1.012859
-2.6362166 -4.0587273 -1.0429863
-2.654093 -4.0318804 -1.0401483
-2.6240642 -3.9335389 -1.0180986
-2.6476038 -3.9165556 -1.0178802
-2.6666203 -3.8929915 -1.0159154
-2.6815512 -3.8637311 -1.0124224
-2.7209308 -3.8695529 -1.0185353
-2.7672789 -3.884572 -1.0272677
-2.8253384 -3.9149909 -1.0403665
-2.8902111 -3.953506 -1.0558668
-2.8888538 -3.9011962 -1.0462611
-2.9303088 -3.9068134 -1.0528104
-2.9453678 -3.8771057 -1.0495358
-2.9488626 -3.8326683 -1.0421131
-2.8913231 -3.7106018 -1.0126407
-2.8747299 -3.6430054 -0.99845034
-2.9396873 -3.6786525 -1.0137323
-2.9665022 -3.6658549 -1.0152605
-2.9549103 -3.6060767 -1.0032532
-3.029341 -3.6509504 -1.0215915
-3.0435228 -3.6225827 -1.0187535
-3.0796082 -3.6201892 -1.0235564
-3.1259711 -3.629317 -1.0318524
-3.1744857 -3.6402171 -1.0408032
-3.2193744 -3.6462688 -1.0484442
-3.2475417 -3.6329932 -1.050409
-3.2933521 -3.6390409 -1.0582683
-3.2417634 -3.5381949 -1.0338172
-3.3470542 -3.608367 -1.0613247
-3.3557677 -3.5735373 -1.0569584
-3.3857021 -3.5613649 -1.0595782
-3.4474263 -3.5819991 -1.0724586
-3.4843261 -3.5761523 -1.0772616
-3.5439034 -3.5929093 -1.0892688
-3.5369148 -3.5421002 -1.0800996
-3.5044558 -3.4668117 -1.0630711
-3.4956424 -3.4159224 -1.0536836
-3.5052996 -3.383568 -1.0501907
-3.473012 -3.3115015 -1.0338172
-3.4548955 -3.2540078 -1.0220282
-3.4705088 -3.2287605 -1.0207183
-3.4988792 -3.2153268 -1.0233381
-3.5142057 -3.1898632 -1.0220282
-3.4152505 -3.0620823 -0.9864431
-3.4193599 -3.0281332 -0.98207682
-3.623754 -3.1695993 -1.0373101
-3.6638157 -3.1651628 -1.0434229
-3.8205347 -3.2597725 -1.0838109
-3.8412106 -3.2368975 -1.0840293
-3.7844753 -3.1496108 -1.0617613
-3.7456675 -3.0786312 -1.0449511
-3.6887031 -2.9941072 -1.0231198
-3.8418081 -3.0794172 -1.0617613
-3.8537428 -3.0503371 -1.0597965
-3.7316544 -2.9166913 -1.0198451
-3.7896612 -2.9247339 -1.0311974
-3.8455765 -2.9303992 -1.0418948
-3.7402513 -2.8140779 -1.0074012
-3.7786036 -2.8067818 -1.0132957
-3.7989028 -2.7858515 -1.014169
-3.7993219 -2.7504759 -1.0095843
-3.7859507 -2.7055583 -1.0012884
-3.837574 -2.7070193 -1.0108942
-3.8669279 -2.6923401 -1.0143872
-3.8825705 -2.6680098 -1.014169
-3.9198709 -2.6583726 -1.0198451
-3.9596317 -2.6500056 -1.0261762
-4.0654073 -2.6847947 -1.0501907
-3.9566903 -2.5783143 -1.0167887
-3.989677 -2.5650666 -1.0213733
-4.040782 -2.5630059 -1.0307608
-4.0357471 -2.5252278 -1.0253029
-4.0686073 -2.5111768 -1.0298876
-4.0472565 -2.4638462 -1.0202817
-4.0673189 -2.4419789 -1.0215915
-4.078867 -2.4149885 -1.0207183
-4.0860224 -2.3854892 -1.0187535
-4.1056576 -2.3632927 -1.0200634
-4.1311164 -2.3443151 -1.0229014
-4.1607556 -2.3274949 -1.0268312
-4.1416249 -2.2835529 -1.0183169
-4.134119 -2.246454 -1.012859
-4.1245942 -2.2086129 -1.0069646
-4.1337523 -2.1809876 -1.005873
-4.1306024 -2.1470349 -1.0017251
-4.1602049 -2.1300957 -1.005873
-4.1853971 -2.110678 -1.0089294
-4.2113814 -2.091465 -1.0122041
-4.252192 -2.0792961 -1.0191902
-4.2420058 -2.0421658 -1.013514
-4.2597485 -2.018605 -1.0148239
-4.2932825 -2.0023241 -1.0200634
-4.3347602 -1.9893687 -1.0272677
-4.3548903 -1.966346 -1.0292326
-4.4230671 -1.9645305 -1.0429863
-4.4350381 -1.9373541 -1.0429863
-4.450429 -1.9116445 -1.0438596
-4.4728642 -1.8888543 -1.0464793
-4.5645947 -1.8946513 -1.0659093
-4.5896897 -1.8721334 -1.0691839
-4.6364217 -1.8580861 -1.0776982
-4.6540923 -1.8321033 -1.0792264
-4.8017926 -1.8562624 -1.1119734
-4.6707497 -1.772776 -1.0779165
-4.7190361 -1.7580428 -1.0868673
-4.7425675 -1.7337422 -1.0899237
-4.7972121 -1.7204126 -1.1004028
-4.7726927 -1.6786489 -1.0921068
-4.8170404 -1.661096 -1.1001844
-4.9704509 -1.679908 -1.1340231
-5.3456941 -1.7701709 -1.2200387
-5.3991585 -1.7511779 -1.2300811
-5.4163132 -1.7200826 -1.2316092
-5.5777426 -1.7337114 -1.266976
-5.5938773 -1.7011569 -1.2682859
-5.6874642 -1.6915449 -1.2877158
-5.900156 -1.7154262 -1.3348715
-6.2306948 -1.7700733 -1.4093165
-6.2348557 -1.7299839 -1.4077883
-6.4007797 -1.7337661 -1.44381
-6.6368003 -1.7540157 -1.4959869
-6.8147097 -1.7563413 -1.5346285
-6.8887744 -1.7304128 -1.5492555
-7.0215483 -1.7180114 -1.577418
-7.3357525 -1.7472032 -1.6472783
-7.5716572 -1.7543302 -1.6990186
-7.7327042 -1.7416968 -1.7335122
-7.8795757 -1.7240251 -1.7647309
-8.1267509 -1.725888 -1.8188727
-8.4507036 -1.7405193 -1.8904796
-8.6708145 -1.7304333 -1.9382902
-8.6994743 -1.6807125 -1.9424382
-8.7230539 -1.6298093 -1.9454947
-8.7617016 -1.5814514 -1.952044
-8.7366285 -1.5216373 -1.9441848
-8.7977724 -1.4767183 -1.9559736
-8.8355703 -1.4273738 -1.9625231
-8.713975 -1.3529375 -1.9330508
-8.742383 -1.3024611 -1.9376353
-8.7791929 -1.2529269 -1.9441848
-8.7596416 -1.1953443 -1.938072
-8.7706823 -1.1420772 -1.9389452
-8.7910833 -1.089919 -1.9420016
-8.8072977 -1.0370973 -1.9441848
-8.7989473 -0.98141652 -1.94091
-8.8387718 -0.93098217 -1.9485509
-8.7841072 -0.87077028 -1.9350156
-8.8349552 -0.82109404 -1.9452763
-8.7581587 -0.75979418 -1.9269379
-8.8375568 -0.71206599 -1.9437481
-8.7940731 -0.65428472 -1.9330508
-8.7774754 -0.59892052 -1.9284662
