# .PCD v0.7 - Point Cloud Data file format
VERSION 0.7
FIELDS x y z
SIZE 4 4 4
TYPE F F F
COUNT 1 1 1
WIDTH 1571
HEIGHT 1
VIEWPOINT 0 0 0 1 0 0 0
POINTS 1571
DATA ascii
4.30475 3.2823198 -1.899616
4.3172894 3.2501826 -1.8962401
4.3462157 3.23037 -1.9002912
4.3325653 3.1791368 -1.8854374
4.3786697 3.1718216 -1.8972529
4.3880959 3.1377766 -1.8928642
4.4118805 3.1140499 -1.8948898
4.4401722 3.0933781 -1.8989408
4.4435577 3.0554078 -1.8921891
4.480135 3.0402431 -1.8999536
4.4987054 3.0126963 -1.8999536
4.5194621 2.9865932 -1.9009664
4.5432215 2.9624054 -1.9033295
4.5628958 2.9354916 -1.9040047
4.5832062 2.9089522 -1.9050175
4.6017666 2.8812752 -1.905355
4.615355 2.8505116 -1.9036671
4.6279354 2.8192 -1.9016416
4.6411123 2.7883265 -1.8999536
4.6621828 2.7621958 -1.9016416
4.6749802 2.7311628 -1.8999536
4.7030687 2.7090046 -1.9046799
4.7269688 2.6842802 -1.9077182
4.7334943 2.6497073 -1.9036671
4.7438946 2.6174297 -1.901304
4.7714424 2.5945687 -1.9060302
4.7847834 2.5639088 -1.9050175
4.8054194 2.5371389 -1.907043
4.8242369 2.5093434 -1.9083933
4.8412185 2.4805539 -1.9090685
4.86307 2.4541953 -1.9117692
4.8822517 2.4264047 -1.9134572
4.9021206 2.398885 -1.9154826
4.9048758 2.3630404 -1.9107565
4.910778 2.328866 -1.9073806
4.9317989 2.3018758 -1.9100813
4.9612265 2.2786443 -1.9161578
4.9802613 2.2504859 -1.9181833
4.9974165 2.2214148 -1.9195337
5.0195775 2.1944807 -1.9229096
5.0286241 2.1617808 -1.9212216
5.0391932 2.1297855 -1.9202089
5.0504279 2.098103 -1.9195337
5.0562348 2.0642281 -1.916833
5.065311 2.0317626 -1.9154826
5.0759311 1.999954 -1.9148074
5.0889845 1.9691108 -1.915145
5.101851 1.9381827 -1.9154826
5.1171751 1.9081576 -1.916833
5.1376266 1.8799585 -1.9202089
5.149065 1.8483993 -1.9202089
5.1576462 1.8158325 -1.9191961
5.1740294 1.7859948 -1.9212216
5.1839991 1.7539122 -1.9208841
5.190196 1.7205894 -1.9191961
5.2033415 1.6895829 -1.9202089
5.2073312 1.655627 -1.9178458
5.2218857 1.6250432 -1.9195337
5.2290573 1.5921489 -1.9185209
5.2396302 1.5603027 -1.9188585
5.2509127 1.52865 -1.9195337
5.2647204 1.4976903 -1.9212216
5.2765317 1.4661146 -1.9222344
5.2881536 1.4344503 -1.9232472
5.3023152 1.4034213 -1.9252727
5.3162951 1.3722725 -1.9272983
5.3173127 1.3377886 -1.9245975
5.3245068 1.3049129 -1.92426
5.3324132 1.2722178 -1.92426
5.3483715 1.2413907 -1.9272983
5.3522148 1.2077214 -1.9259479
5.3668799 1.176471 -1.9286486
5.3758392 1.1439103 -1.9293238
5.3836784 1.1110935 -1.9296614
5.3857799 1.0771157 -1.9279734
5.3913636 1.0438699 -1.9276358
5.3995175 1.011116 -1.928311
5.4074721 0.97830153 -1.9289862
5.4161549 0.94558936 -1.929999
5.4264965 0.91311997 -1.9316869
0 0 -0
0 0 -0
0 0 -0
0 0 -0
0 0 -0
0 0 -0
0 0 -0
0 0 -0
0 0 -0
0 0 -0
0 0 -0
0 0 -0
0 0 -0
0 0 -0
0 0 -0
0 0 -0
0 0 -0
0 0 -0
0 0 -0
0 0 -0
0 0 -0
0 0 -0
0 0 -0
0 0 -0
0 0 -0
0 0 -0
0 0 -0
0 -0 -0
0 -0 -0
0 -0 -0
0 -0 -0
0 -0 -0
0 -0 -0
0 -0 -0
0 -0 -0
0 -0 -0
0 -0 -0
0 -0 -0
5.5127025 -0.40088135 -1.9404641
5.5092006 -0.43462515 -1.9401267
0 -0 -0
5.5034523 -0.50219882 -1.9401267
5.5068254 -0.53659642 -1.9424897
5.5081105 -0.57086039 -1.9441776
5.499826 -0.60413325 -1.9424897
0 -0 -0
0 -0 -0
0 -0 -0
5.5141277 -0.74306995 -1.9536301
5.4880266 -0.77386868 -1.9458656
5.5092502 -0.81136626 -1.9553181
5.5023074 -0.84486949 -1.9546429
5.4905133 -0.87757564 -1.9522798
5.4896679 -0.91201925 -1.9539677
5.4821134 -0.94536626 -1.9532925
5.4669433 -0.97733027 -1.9499167
5.459918 -1.0106852 -1.9495791
5.4480667 -1.043106 -1.9475535
5.4194021 -1.0721323 -1.9394515
5.3933539 -1.1014112 -1.9323621
5.3708353 -1.1311867 -1.9266231
5.2994008 -1.1501499 -1.9029919
5.1838431 -1.1584293 -1.8631566
5.0839829 -1.1689191 -1.8290601
4.9768639 -1.1764961 -1.792263
4.9375362 -1.1992383 -1.7804474
4.8588443 -1.2117512 -1.7541156
4.8157525 -1.2324431 -1.7409496
4.7753229 -1.2533687 -1.7287964
4.7357278 -1.2740895 -1.7169808
4.7051339 -1.2968721 -1.7085412
4.6816874 -1.3213725 -1.7028022
4.7322731 -1.3670496 -1.7247454
4.6894927 -1.3859257 -1.711917
4.7061305 -1.4222965 -1.7213695
4.6982141 -1.4514238 -1.7217071
4.6838341 -1.4785244 -1.7196815
4.6719861 -1.5063697 -1.7186688
4.6572905 -1.5332425 -1.7166432
4.6424413 -1.5599917 -1.7146177
4.6256585 -1.586006 -1.711917
4.6096201 -1.6121839 -1.7095538
4.6023011 -1.6413862 -1.7105666
4.5974512 -1.6715237 -1.7125922
4.5950522 -1.7026446 -1.7156305
4.5950866 -1.7347959 -1.7196815
4.5843554 -1.7629582 -1.7196815
4.568193 -1.788995 -1.717656
4.5475116 -1.8131572 -1.7139425
4.5301948 -1.8385488 -1.7115794
4.4979477 -1.8576889 -1.7034773
4.4786539 -1.8819716 -1.700439
4.4523072 -1.9031284 -1.6947
4.439683 -1.9300362 -1.6943624
4.4380884 -1.9618073 -1.6984135
4.4182401 -1.9855299 -1.6953752
4.4016924 -2.0106473 -1.6936872
4.3892727 -2.0376177 -1.6936872
4.3477411 -2.0508602 -1.6822093
4.3367729 -2.0783122 -1.6828845
4.3222466 -2.1040592 -1.6822093
4.3193808 -2.1355457 -1.6862603
4.2902122 -2.1539853 -1.6798462
4.2794304 -2.1815515 -1.6808589
4.2492442 -2.1991169 -1.6741072
4.2506709 -2.233027 -1.6801838
4.246026 -2.2639372 -1.6838971
4.232883 -2.2903957 -1.6842347
4.2162743 -2.3149662 -1.6832221
4.2135034 -2.3472054 -1.6879482
4.1998415 -2.3734777 -1.6882858
4.1851988 -2.3992028 -1.6882858
4.1720266 -2.4257836 -1.688961
4.1603069 -2.4532495 -1.6903113
4.1443677 -2.4782474 -1.6899738
4.1323032 -2.5055819 -1.6913241
4.1080303 -2.5254681 -1.6876106
4.0908594 -2.5496314 -1.6869355
4.070363 -2.5716681 -1.6849099
4.0600562 -2.6001482 -1.687273
4.0440254 -2.6250112 -1.687273
4.0302019 -2.6513274 -1.6882858
4.0091581 -2.6728737 -1.6862603
3.9911225 -2.6963694 -1.6855851
3.972949 -2.7197444 -1.6849099
3.9554129 -2.7435343 -1.6845723
3.9385042 -2.7677526 -1.6845723
3.9153128 -2.7874999 -1.6818717
3.8966084 -2.8103702 -1.6811965
3.8838513 -2.8375578 -1.6832221
3.8603139 -2.8568561 -1.6805214
3.8366861 -2.8759727 -1.6778206
3.8197169 -2.9000292 -1.6781582
3.8040895 -2.925133 -1.679171
3.7949822 -2.9553587 -1.6832221
3.7812119 -2.9820857 -1.6852475
3.7584295 -3.0017066 -1.6832221
3.7399409 -3.0247114 -1.6832221
3.7249525 -3.0505841 -1.6849099
3.7047153 -3.0721807 -1.6842347
3.6843531 -3.0936441 -1.6835597
3.6645842 -3.1155832 -1.6832221
3.6432581 -3.1361678 -1.6822093
3.626785 -3.1609371 -1.6835597
3.6023805 -3.1787717 -1.6811965
2.4525616 -2.1912456 -1.1376796
2.4362776 -2.2037275 -1.1363292
2.4247928 -2.2205417 -1.137342
3.5074065 -3.2515042 -1.673432
3.4969995 -3.2819815 -1.6781582
3.4747484 -3.3014319 -1.6771455
3.4564612 -3.3246479 -1.6781582
3.4359965 -3.3457937 -1.6781582
3.4187543 -3.3701174 -1.6798462
3.3973451 -3.3903661 -1.6795086
3.3638954 -3.3984382 -1.6730944
3.3436379 -3.4196877 -1.673432
3.3082044 -3.4252455 -1.666005
3.2929738 -3.4516089 -1.6690433
3.2781892 -3.4785988 -1.6724192
3.2599905 -3.5020926 -1.6741072
3.2397149 -3.5234153 -1.6747823
3.2136042 -3.5383503 -1.6724192
3.1930902 -3.5594032 -1.6730944
3.1761844 -3.5845644 -1.6757951
3.15661 -3.6068187 -1.6771455
3.1368821 -3.6289678 -1.6784958
3.1139448 -3.6474311 -1.6781582
3.091506 -3.6664693 -1.6781582
3.0767822 -3.694772 -1.6825469
3.0498679 -3.7084925 -1.6801838
3.0264621 -3.7264059 -1.6798462
2.9888153 -3.7265494 -1.6714064
2.9688158 -3.7485075 -1.6730944
2.007998 -2.5677757 -1.1272143
1.9881771 -2.5748334 -1.1248512
1.963208 -2.5750084 -1.1194497
1.9400105 -2.5772305 -1.1150612
1.9191064 -2.5822868 -1.1120229
1.9009979 -2.5909781 -1.1106725
1.7746129 -2.4501407 -1.0431548
1.6347001 -2.2864177 -0.96618474
1.6173829 -2.2917912 -0.96415925
1.573693 -2.2591956 -0.94559187
2.6948407 -3.91926 -1.6639795
2.6675701 -3.9310484 -1.6619539
2.6428757 -3.9465604 -1.6616163
2.6149771 -3.9572055 -1.6592532
2.5896184 -3.9715993 -1.658578
2.5590885 -3.977915 -1.6545271
2.5316055 -3.9887743 -1.6525015
2.5070832 -4.0042329 -1.6525015
2.4794981 -4.0147357 -1.650476
2.4557972 -4.0314817 -1.6511512
2.4276204 -4.0408263 -1.648788
2.3970225 -4.0459285 -1.644737
2.3693027 -4.0556841 -1.6427114
2.3420234 -4.0660672 -1.6410235
2.3226089 -4.0901828 -1.6450746
2.3149424 -4.1355677 -1.657903
2.2745152 -4.1224976 -1.6467625
2.2586215 -4.1537414 -1.6538519
2.2304242 -4.1625438 -1.6518263
2.203083 -4.1728215 -1.650476
2.1748312 -4.1812506 -1.6484505
2.1495638 -4.195354 -1.648788
2.123781 -4.2084646 -1.648788
2.1004324 -4.2264738 -1.6508136
2.0806668 -4.2519646 -1.6558774
2.055764 -4.2671947 -1.6568902
2.028332 -4.2771773 -1.6558774
2.005235 -4.2963657 -1.658578
1.9784422 -4.3077335 -1.6582404
1.4107736 -3.1223693 -1.1869674
1.3904414 -3.1283865 -1.1859547
1.3712198 -3.1368592 -1.1859547
1.8814249 -4.3766079 -1.6666802
1.8530691 -4.3846016 -1.6653298
1.8290203 -4.4028435 -1.6680305
1.7948536 -4.3965545 -1.6612788
1.7738014 -4.4223356 -1.6670178
1.7383502 -4.4121184 -1.6589156
1.7112452 -4.4227018 -1.6589156
1.6850789 -4.4357586 -1.6599284
1.6617771 -4.4565978 -1.6639795
1.6353712 -4.4693623 -1.6649922
1.6101437 -4.4855137 -1.6673554
1.5835288 -4.4979725 -1.6683681
1.5574359 -4.512053 -1.6700561
1.5300229 -4.5224161 -1.6703937
1.5019488 -4.5308256 -1.6700561
1.472666 -4.5354795 -1.6683681
1.4459503 -4.5480185 -1.6697185
1.4168978 -4.5532098 -1.6683681
1.3908529 -4.5681214 -1.6707313
1.3636034 -4.5792761 -1.671744
1.3375852 -4.5947866 -1.6744447
1.3119432 -4.6119609 -1.6778206
1.2793349 -4.6045065 -1.6720816
1.255002 -4.6268048 -1.677483
1.2253844 -4.6298685 -1.6757951
1.1981295 -4.6418571 -1.677483
1.1677872 -4.641819 -1.6747823
0.72599483 -2.9630716 -1.0522697
0.69927812 -2.9317629 -1.0391037
0.69192052 -2.9818435 -1.0559832
0.6717459 -2.9777691 -1.0529449
0.65830094 -3.0039017 -1.0610471
0.63828915 -3.000519 -1.0583463
0.61415654 -2.9767234 -1.0482187
0.59865016 -2.9942808 -1.0532825
0.57650739 -2.9784913 -1.0461931
0.56168729 -3.0004766 -1.0529449
0.53806919 -2.975153 -1.0424796
0.52012777 -2.980253 -1.0431548
0.50495678 -3.0019529 -1.0499066
0.48201069 -2.9771197 -1.0397789
0.46445864 -2.9846716 -1.041467
0.44683206 -2.99212 -1.0431548
0.42566216 -2.9752378 -1.0360655
0.40854791 -2.986187 -1.0391037
0.38911939 -2.9802372 -1.0360655
0.37117445 -2.9853711 -1.0370783
0.3518548 -2.9791791 -1.03404
0.3345114 -2.989701 -1.0370783
0.31556633 -2.9860809 -1.0350528
0.2982645 -2.9982643 -1.0387663
0.28003702 -3.0019124 -1.0394413
0.26177594 -3.0054495 -1.0401165
0.24401437 -3.0154431 -1.0431548
0.22635084 -3.0281477 -1.0472059
0.20860511 -3.0416875 -1.0515946
0.19046663 -3.0513654 -1.0546329
0.17274722 -3.0703328 -1.0610471
0.1531018 -3.0553532 -1.055308
0.13447602 -3.0590563 -1.0563208
0.11527516 -3.0485363 -1.0522697
0.09590926 -3.0284882 -1.0448428
0.077228412 -3.0252557 -1.0434924
0.058315247 -3.0077915 -1.0370783
0.039770499 -3.0015042 -1.0347152
0.021339219 -2.9998093 -1.03404
0.0029323343 -2.9998837 -1.03404
-0.015441563 -2.9932563 -1.0316769
-0.033755027 -2.988399 -1.0299889
-0.052432723 -3.0078998 -1.0370783
-0.070843756 -3.0056393 -1.0364031
-0.089952528 -3.0277293 -1.0445052
-0.10886464 -3.0365274 -1.0478811
-0.1275731 -3.037683 -1.0485562
-0.14625472 -3.0377834 -1.0488938
-0.16473873 -3.034009 -1.0478811
-0.18097159 -2.9934785 -1.0337024
-0.19771239 -2.9678919 -1.0249251
-0.21530549 -2.9581735 -1.0218868
-0.23315662 -2.9530432 -1.0205364
-0.25198922 -2.9599984 -1.0235747
-0.26997572 -2.9565215 -1.0228995
-0.28719932 -2.9454408 -1.0195237
-0.30536377 -2.9445593 -1.0198612
-0.32188484 -2.9285951 -1.0147974
-0.3433187 -2.9564857 -1.0256003
-0.36327985 -2.9692731 -1.0310017
-0.38233152 -2.9735234 -1.0333648
-0.40170032 -2.9795175 -1.0364031
-0.42023745 -2.9788606 -1.0370783
-0.44138616 -2.9957826 -1.0441676
-0.45990244 -2.9939482 -1.0445052
-0.4781158 -2.9901404 -1.0441676
-0.49552876 -2.9815791 -1.042142
-0.51301461 -2.9738443 -1.0404541
-0.5310865 -2.9697139 -1.0401165
-0.55152476 -2.9784319 -1.0445052
-0.57067442 -2.9796143 -1.0461931
-0.595155 -3.0074527 -1.0576712
-0.61190271 -2.9954438 -1.0546329
-0.6283316 -2.9824219 -1.051257
-0.64482337 -2.9702313 -1.0482187
-0.659958 -2.9524391 -1.0431548
-0.67658544 -2.9419124 -1.0407917
-0.69202626 -2.9267128 -1.0367407
-0.72818267 -2.9974184 -1.064423
-0.84128386 -3.3728428 -1.2048596
-0.76327771 -2.9818733 -1.0620598
-0.76865965 -2.927968 -1.04383
-0.78758878 -2.9268324 -1.0451804
-0.81053358 -2.9400945 -1.0519321
-0.84108323 -2.9794559 -1.0684739
-0.86796737 -3.0040822 -1.0796144
-0.8813163 -2.9815483 -1.0732002
-1.1794577 -3.90238 -1.4202409
-1.2494889 -4.0443664 -1.4762805
-1.2779638 -4.0482931 -1.4806691
-1.3042235 -4.0448546 -1.482357
-0.99943298 -3.0353694 -1.1042583
-1.0474147 -3.1166244 -1.137342
-1.0295863 -3.0023963 -1.0964938
-1.032766 -2.9524837 -1.079952
-1.0616109 -2.9762363 -1.0914299
-1.0817821 -2.9749744 -1.0934554
-1.0928222 -2.9488618 -1.0860286
-1.1138871 -2.9500268 -1.0890669
-1.1309538 -2.9405007 -1.0880541
-1.1482887 -2.9317529 -1.0873789
-1.1456918 -2.8730633 -1.0674613
-1.1537435 -2.8424292 -1.0583463
-1.1693664 -2.8309462 -1.0566584
-1.1779648 -2.8028901 -1.0485562
-1.1895924 -2.7826259 -1.0434924
-1.2073942 -2.7770009 -1.0441676
-1.2266939 -2.7747059 -1.0461931
-1.2568121 -2.7963197 -1.0576712
-1.2716002 -2.7834179 -1.0556456
-1.2803332 -2.7576332 -1.0485562
-1.2944191 -2.7437656 -1.0461931
-1.9335183 -4.0345693 -1.562703
-1.3242844 -2.7200572 -1.0431548
-1.342618 -2.7152557 -1.0445052
-1.3613646 -2.7111726 -1.0461931
-1.3950717 -2.7363145 -1.0596967
-1.4135655 -2.7310469 -1.0610471
-1.4473664 -2.7548225 -1.0742129
-1.4766407 -2.7691476 -1.0836655
-1.482407 -2.7393374 -1.0752257
-1.5109643 -2.7516437 -1.084003
-1.5236974 -2.7349195 -1.0809647
-1.5492479 -2.7410898 -1.0873789
-1.5328047 -2.6735489 -1.0634102
-1.5420843 -2.6518867 -1.0583463
-1.5568929 -2.6399422 -1.0573336
-1.5662996 -2.6190288 -1.0526073
-1.602347 -2.6423712 -1.0664485
-1.6254307 -2.6437166 -1.0711746
-1.6291764 -2.6137211 -1.062735
-1.6436751 -2.6012881 -1.0617222
-1.6662039 -2.601459 -1.0661108
-1.6826471 -2.5919759 -1.0664485
-1.6990368 -2.5823891 -1.0667861
-1.7127618 -2.5687826 -1.0654356
-1.7290181 -2.5590048 -1.0657732
-1.7345859 -2.5335889 -1.0593591
-1.7468805 -2.5182569 -1.0573336
-1.7769104 -2.528286 -1.0664485
-1.7803812 -2.5004647 -1.0590215
-1.7951397 -2.48873 -1.0586839
-1.8076003 -2.4738679 -1.056996
-1.8137875 -2.4506233 -1.0515946
-1.8316127 -2.4432139 -1.0532825
-1.8437238 -2.4281807 -1.0515946
-1.8585881 -2.4168222 -1.0515946
-1.874539 -2.406858 -1.0522697
-1.8840265 -2.3886583 -1.0492314
-1.8986475 -2.3770533 -1.0492314
-1.9108297 -2.3624308 -1.0478811
-1.9235003 -2.3484769 -1.0468683
-1.9372733 -2.3359058 -1.0465307
-1.9467278 -2.3182075 -1.04383
-1.9554286 -2.2997642 -1.0407917
-1.9664327 -2.2841554 -1.0391037
-1.9797926 -2.271337 -1.0387663
-1.9918238 -2.2570288 -1.0377535
-2.0012457 -2.2398508 -1.0353904
-2.0200024 -2.2331142 -1.0380911
-2.0425653 -2.2303975 -1.0428172
-2.0568521 -2.218513 -1.0431548
-2.0691378 -2.2044778 -1.0424796
-2.0800321 -2.1890104 -1.0411294
-2.0921195 -2.1748495 -1.0404541
-2.1146176 -2.1714137 -1.0451804
-2.1199722 -2.150353 -1.0411294
-2.1311321 -2.1353056 -1.0401165
-2.1435249 -2.1215267 -1.0397789
-2.1531372 -2.1050439 -1.0380911
-2.168721 -2.0944088 -1.0394413
-2.1822121 -2.081712 -1.0397789
-2.197684 -2.0708656 -1.0411294
-2.2255058 -2.0714529 -1.0485562
-2.2589598 -2.0768738 -1.0586839
-2.2800217 -2.0705688 -1.062735
-2.3031929 -2.0659692 -1.0677987
-2.3193483 -2.0549197 -1.0694867
-2.328372 -2.03755 -1.0677987
-2.3408303 -2.0232251 -1.0677987
-2.3288622 -1.9880416 -1.0563208
-2.3388579 -1.9718941 -1.055308
-2.3617625 -1.9665422 -1.0603719
-2.3716035 -1.9502198 -1.0593591
-2.391562 -1.9421595 -1.0630726
-2.4159162 -1.9374615 -1.0688115
-2.4343994 -1.9278616 -1.0718498
-2.4513726 -1.9169477 -1.0742129
-2.4668136 -1.9047471 -1.0759009
-2.4806998 -1.8912876 -1.0769137
-2.4704506 -1.859611 -1.0671237
-2.4901242 -1.8505949 -1.0708371
-2.4938438 -1.8297118 -1.0674613
-2.5088351 -1.8171366 -1.0691491
-2.5138125 -1.797328 -1.0664485
-2.5201795 -1.7786125 -1.064423
-2.5310454 -1.7631155 -1.064423
-2.5573277 -1.7582197 -1.0711746
-2.5742986 -1.7467241 -1.0738754
-2.5849679 -1.7308956 -1.0738754
-2.5971103 -1.71604 -1.0745505
-2.6138985 -1.7041856 -1.0772513
-2.6290555 -1.6911711 -1.0792768
-2.6417668 -1.6765211 -1.0802896
-2.6575885 -1.663777 -1.0826527
-2.6797595 -1.6548593 -1.0877165
-2.6954901 -1.6418138 -1.0900797
-2.7143886 -1.6305767 -1.093793
-2.7316306 -1.6182096 -1.0968313
-2.7610137 -1.6128153 -1.1049335
-2.7839077 -1.6033618 -1.1103349
-2.8100631 -1.5955474 -1.1170866
-2.8469043 -1.59345 -1.1282271
-2.8978345 -1.5986913 -1.1451064
-2.9505887 -1.6042664 -1.1626611
-3.0176227 -1.6168123 -1.1859547
-3.0824227 -1.6272762 -1.2082355
-3.1374419 -1.6317915 -1.2264652
-3.2118981 -1.6455659 -1.2524595
-4.1101475 -2.0741553 -1.6092902
-3.2790523 -1.6294904 -1.2713645
-3.3414073 -1.6349958 -1.292295
-3.9322429 -1.894362 -1.5235428
-4.0611572 -1.925868 -1.57013
-3.9978399 -1.8658735 -1.5404222
-3.7124045 -1.7049598 -1.4232792
-3.7296581 -1.6852503 -1.4259799
-3.7579908 -1.6703644 -1.4330692
-3.8173285 -1.6687703 -1.4523118
-3.8707333 -1.6639075 -1.4691911
-3.9632356 -1.6749444 -1.5012619
-4.0942626 -1.7007996 -1.5481868
-4.0566926 -1.6560743 -1.5296195
-4.2650867 -1.710713 -1.606252
-4.267621 -1.6814047 -1.6032137
-4.3305283 -1.675572 -1.6234689
-4.3768044 -1.6626773 -1.63731
-4.4936395 -1.6755929 -1.6781582
-4.5542212 -1.66643 -1.6974007
-4.6254888 -1.6604033 -1.7206943
-4.6790943 -1.6473106 -1.7372361
-4.7300425 -1.6327006 -1.7527652
-4.7916856 -1.6211476 -1.7723453
-4.8569369 -1.6100841 -1.7932757
-4.9204402 -1.5976986 -1.813531
-5.0422788 -1.6031365 -1.8557296
-5.1284151 -1.5959475 -1.8844246
-5.2074461 -1.585567 -1.9104189
-5.2432384 -1.5613776 -1.9202089
-5.2716994 -1.534703 -1.9272983
-5.2918811 -1.505419 -1.9313493
-5.3037391 -1.4736766 -1.9323621
-5.3154068 -1.4418452 -1.9333749
-5.3250637 -1.4094442 -1.9337125
-5.3354344 -1.3772143 -1.9343876
-5.3437848 -1.3444508 -1.9343876
-5.3656468 -1.3149985 -1.9394515
-5.3653741 -1.2800843 -1.9364132
-5.3740444 -1.2473516 -1.9367508
-5.381597 -1.2143537 -1.9367508
-5.3990607 -1.1835278 -1.9404641
-5.409904 -1.1511614 -1.9418145
-5.4159436 -1.1177549 -1.9414769
-5.4273148 -1.0854256 -1.9431649
-5.4320245 -1.0517458 -1.9424897
-5.4439268 -1.0194356 -1.9445152
-5.455637 -0.987019 -1.9465408
-5.467154 -0.95449698 -1.9485663
-5.4701233 -0.9204644 -1.9475535
-5.4988976 -0.89064717 -1.9559933
-0 -0 -0
-0 -0 -0
-0 -0 -0
-0 -0 -0
-0 -0 -0
-0 -0 -0
-0 -0 -0
-0 -0 -0
-0 -0 -0
-0 -0 -0
-0 -0 -0
-0 -0 -0
-0 -0 -0
-0 -0 -0
-0 -0 -0
-0 -0 -0
-0 -0 -0
-0 -0 -0
-0 -0 -0
-0 -0 -0
-0 -0 -0
-0 0 -0
-0 0 -0
-0 0 -0
-0 0 -0
-0 0 -0
-0 0 -0
-0 0 -0
-0 0 -0
-0 0 -0
-0 0 -0
-0 0 -0
-0 0 -0
-0 0 -0
-0 0 -0
-0 0 -0
-0 0 -0
-0 0 -0
-0 0 -0
-0 0 -0
-0 0 -0
-0 0 -0
-5.181489 1.0589267 -1.9205762
-5.1914058 1.0941838 -1.9268386
-5.1900911 1.127212 -1.9289262
-5.1830769 1.1590366 -1.9289262
-5.1676455 1.188924 -1.925795
-5.1629896 1.2212577 -1.9268386
-5.1535773 1.252471 -1.9261428
-5.1467047 1.2842964 -1.9264908
-5.1396356 1.3160845 -1.9268386
-5.1287436 1.346881 -1.925795
-5.1176667 1.3775933 -1.9247512
-5.1073103 1.4084699 -1.9240553
-5.0913544 1.4377415 -1.921272
-5.0914431 1.4715594 -1.9247512
-5.0796208 1.5019742 -1.9237075
-5.0846667 1.5374585 -1.9292741
-5.0715547 1.5675204 -1.9278824
-5.0573711 1.5971967 -1.9261428
-5.0358772 1.6244539 -1.9216199
-5.0249248 1.6550293 -1.921272
-5.0155635 1.6861295 -1.9216199
-4.9909353 1.7120025 -1.9160533
-4.9812217 1.7429038 -1.9164011
-4.9721994 1.7740657 -1.917097
-4.9568157 1.802938 -1.9153574
-4.9535708 1.8362529 -1.9184886
-4.9465952 1.8682702 -1.9202282
-4.9402885 1.9006076 -1.9223157
-4.932025 1.9322536 -1.9237075
-4.9253001 1.9645648 -1.925795
-4.9131532 1.9947488 -1.925795
-4.9008212 2.0248578 -1.925795
-4.8908973 2.0559812 -1.9268386
-4.87819 2.0859523 -1.9268386
-4.8661585 2.1162193 -1.9271866
-4.8547969 2.1467962 -1.9278824
-4.8423877 2.176929 -1.9282304
-4.8306446 2.2073798 -1.9289262
-4.8136086 2.2353983 -1.9275346
-4.8006496 2.2652924 -1.9278824
-4.7393222 2.2719998 -1.9083991
-4.7396197 2.308018 -1.9143137
-4.7060428 2.3274927 -1.9063115
-4.6740813 2.3474846 -1.8990053
-4.6746211 2.3837895 -1.9052678
-4.6840482 2.4249325 -1.9153574
-4.6607828 2.4492648 -1.9118782
-4.6464939 2.4782579 -1.9122262
-4.6312003 2.5067217 -1.9122262
-4.6149101 2.5346396 -1.9118782
-4.5976334 2.5619953 -1.9111824
-4.580195 2.5892346 -1.9104866
-4.5666609 2.6186888 -1.9115303
-4.5472655 2.644774 -1.9101386
-4.5357966 2.6754847 -1.9122262
-4.5200992 2.7037468 -1.9125741
-4.5002179 2.7294853 -1.9111824
-4.4801917 2.7550817 -1.9097908
-4.4632025 2.7825198 -1.9097908
-4.4397058 2.8058448 -1.9070073
-4.4224057 2.8330336 -1.9070073
-4.4049397 2.8601155 -1.9070073
-4.3967037 2.8932762 -1.9111824
-4.3741889 2.9170775 -1.9090949
-4.3585377 2.9454374 -1.9101386
-4.3380628 2.970536 -1.9090949
-4.3151331 2.9938903 -1.9070073
-4.2959151 3.0197718 -1.9066595
-4.278832 3.0471621 -1.9073553
-4.2592945 3.0728104 -1.9070073
-4.244144 3.1016538 -1.908747
-4.2295532 3.130985 -1.9108344
-4.2087622 3.1557529 -1.9101386
-4.1923056 3.1837866 -1.9115303
-4.1764064 3.2123089 -1.9132699
-4.1543989 3.2361455 -1.9122262
-4.136672 3.2633181 -1.9132699
-4.1151061 3.287468 -1.9125741
-4.0977721 3.3150153 -1.9139657
-4.0780792 3.3406906 -1.9143137
-4.059669 3.3674464 -1.9153574
-4.0410833 3.3941021 -1.9164011
-4.0208955 3.4194412 -1.9167491
-3.9955769 3.4403775 -1.9146615
-3.9779246 3.4679101 -1.9164011
-3.9523544 3.4885297 -1.9143137
-3.9266813 3.508966 -1.9122262
-3.9016013 3.5298479 -1.9104866
-3.8853989 3.5587883 -1.9132699
-3.8600528 3.5793736 -1.9115303
-3.8414345 3.6062002 -1.9132699
-3.8212731 3.6316409 -1.9143137
-3.8097253 3.665422 -1.9198804
-3.7844772 3.6861119 -1.9184886
-3.7637906 3.7112389 -1.9195324
-3.7323241 3.7256508 -1.9150095
-3.7074158 3.7464821 -1.9139657
-3.6830475 3.7678189 -1.9132699
-3.6500933 3.7802279 -1.9080511
-3.6268296 3.8025534 -1.9080511
-3.601501 3.8226881 -1.9070073
-3.5754235 3.8419685 -1.9056157
-3.5555882 3.8679769 -1.9077032
-3.5324178 3.890415 -1.9080511
-3.5091062 3.9127142 -1.9083991
-3.486275 3.935576 -1.9090949
-3.4657643 3.9611275 -1.9111824
-3.4438455 3.9851565 -1.9125741
-3.4168942 4.0033593 -1.9111824
-3.3850167 4.0156465 -1.9070073
-3.3537169 4.0284138 -1.9031802
-3.3265548 4.0460186 -1.9017886
-3.3016663 4.0663538 -1.9017886
-3.2795851 4.0901937 -1.9035282
-3.2584991 4.115386 -1.9059637
-3.2343407 4.1367798 -1.9066595
-3.2094698 4.1572895 -1.9070073
-3.1856053 4.1791415 -1.9080511
-3.1570847 4.1948633 -1.9063115
-3.1357579 4.2201772 -1.9090949
-3.1098044 4.2393384 -1.9090949
-3.083184 4.2575803 -1.908747
-3.0575471 4.2771811 -1.9090949
-3.0334065 4.2989259 -1.9104866
-3.0064361 4.3166881 -1.9101386
-2.9767075 4.3304176 -1.9080511
-2.951659 4.3509288 -1.9090949
-2.9269922 4.3720746 -1.9104866
-2.9006271 4.3907342 -1.9108344
-2.8649311 4.3950958 -1.9049199
-2.8374023 4.4118032 -1.904572
-2.8102787 4.4291306 -1.904572
-2.7830491 4.4462905 -1.904572
-2.7537453 4.4600921 -1.9031802
-2.725352 4.4753032 -1.9024844
-2.6983232 4.4927449 -1.9028324
-2.6697502 4.5076036 -1.9021366
-2.6444051 4.5279484 -1.9038761
-2.6179752 4.5465264 -1.9049199
-2.5891037 4.5608735 -1.904224
-2.5619853 4.578311 -1.9049199
-2.536108 4.5980496 -1.9066595
-2.5056095 4.6094055 -1.9049199
-2.4759519 4.6222134 -1.9038761
-2.4488564 4.6398063 -1.9049199
-2.4190438 4.6522489 -1.9038761
-2.3857532 4.6578245 -1.900049
-2.3545959 4.6673527 -1.8979615
-2.3246624 4.6791935 -1.8969178
-2.293437 4.6883154 -1.8948302
-2.2642202 4.7014546 -1.8944824
-2.2365344 4.7178011 -1.8955261
-2.2071481 4.7305856 -1.8951782
-2.1776893 4.7431874 -1.8948302
-2.1524022 4.7650051 -1.8983095
-2.1242657 4.7806926 -1.8993531
-2.0975184 4.7996511 -1.9017886
-2.0680289 4.8124309 -1.9017886
-2.0351794 4.817256 -1.8986573
-2.0066612 4.8322506 -1.8997011
-1.9769732 4.8444724 -1.8997011
-1.9472109 4.8565116 -1.8997011
-1.9187486 4.8718576 -1.9010928
-1.8847634 4.8730454 -1.8969178
-1.852499 4.8783827 -1.8944824
-1.8264579 4.9002004 -1.8986573
-1.7944254 4.9060316 -1.8965698
-1.765238 4.9195971 -1.8976136
-1.7269323 4.9073405 -1.8885678
-1.7029006 4.9355712 -1.8955261
-1.6635802 4.9192815 -1.8850886
-1.6395532 4.9480867 -1.8923949
-1.6117643 4.9660797 -1.8955261
-1.5838164 4.9839177 -1.8986573
-1.5518146 4.9890656 -1.8969178
-1.5236279 5.0065665 -1.900049
-1.4896724 5.0050373 -1.895874
-1.4586724 5.0131836 -1.8955261
-1.4266036 5.01753 -1.8937865
-1.3932831 5.0171552 -1.8903073
-1.3641881 5.0319443 -1.8927428
-1.3320892 5.0356879 -1.8910031
-1.3013997 5.0446744 -1.8913511
-1.2729342 5.0625668 -1.8951782
-1.2407328 5.0657287 -1.8934386
-1.2104956 5.0768943 -1.8948302
-1.1803797 5.0887928 -1.8965698
-1.1495454 5.0977688 -1.8972657
-1.1182444 5.1047263 -1.8972657
-1.0890441 5.1215796 -1.9010928
-1.0579765 5.130002 -1.9017886
-1.0259289 5.1336389 -1.9007449
-0.99334288 5.1343141 -1.8986573
-0.96199286 5.1412339 -1.8990053
-0.92826331 5.135046 -1.8944824
-0.89625508 5.1378741 -1.8934386
-0.8639366 5.1386538 -1.891699
-0.83358663 5.1512623 -1.8944824
-0.80066848 5.1479425 -1.8913511
-0.76961899 5.1564674 -1.8927428
-0.73862755 5.1657333 -1.8944824
-0.70615649 5.1645947 -1.8923949
-0.67518044 5.1744084 -1.8944824
-0.64364892 5.1803145 -1.8951782
-0.61294782 5.1934772 -1.8986573
-0.58054984 5.192482 -1.8969178
-0.54828548 5.1922169 -1.8955261
-0.51595366 5.1908188 -1.8937865
-0.48496169 5.2032218 -1.8972657
-0.45262083 5.2014294 -1.8955261
-0.42092296 5.206912 -1.8965698
-0.38875723 5.2065921 -1.8955261
-0.35731375 5.216362 -1.8983095
-0.32512566 5.2156491 -1.8972657
-0.29285502 5.2128658 -1.8955261
-0.26063079 5.2098827 -1.8937865
-0.22861776 5.2104473 -1.8934386
-0.1966076 5.210815 -1.8930907
-0.16448399 5.2072377 -1.8913511
-0.13234074 5.2006512 -1.8885678
-0.10049922 5.2051148 -1.8899595
-0.068547212 5.2046962 -1.8896115
-0.036642436 5.2097063 -1.8913511
-0.0046800282 5.2163959 -1.8937865
0.027357973 5.221951 -1.895874
0.059453104 5.2263722 -1.8976136
0.091437288 5.2212224 -1.895874
0.12331577 5.2140021 -1.8934386
0.15522158 5.2103362 -1.8923949
0.18688382 5.2008533 -1.8892636
0.21891101 5.2024188 -1.8903073
0.25082833 5.2009778 -1.8903073
0.28365624 5.2161908 -1.8965698
0.31548628 5.211545 -1.8955261
0.34752038 5.2104464 -1.895874
0.37948453 5.2082162 -1.895874
0.41002703 5.1880322 -1.8892636
0.44281015 5.1966281 -1.8934386
0.47443113 5.1910124 -1.8923949
0.50682122 5.1936021 -1.8944824
0.538679 5.1903944 -1.8944824
0.57082468 5.1897874 -1.8955261
0.60244101 5.1843247 -1.8948302
0.63424009 5.1805305 -1.8948302
0.66517639 5.1700325 -1.8923949
0.69625884 5.1612082 -1.8906553
0.72922677 5.166122 -1.8941344
0.76104873 5.1624775 -1.8944824
0.79285336 5.1586375 -1.8948302
0.8255294 5.1601553 -1.8972657
0.85732996 5.1559176 -1.8976136
0.88831133 5.1468649 -1.896222
0.91937917 5.1385489 -1.8951782
0.95054948 5.1309676 -1.8944824
0.98130804 5.1213555 -1.8930907
1.0123491 5.1133986 -1.8923949
1.0448328 5.1126018 -1.8944824
1.0757964 5.10426 -1.8937865
1.1066968 5.0957303 -1.8930907
1.1379429 5.0888438 -1.8930907
1.1693563 5.0826793 -1.8934386
1.198577 5.0671983 -1.8903073
1.2296462 5.0597482 -1.8903073
1.2593061 5.0466504 -1.8882198
1.2914118 5.0433698 -1.8899595
1.3232863 5.0389776 -1.8913511
1.3544239 5.0316682 -1.891699
1.3870182 5.0295892 -1.8941344
1.4168332 5.017375 -1.8927428
1.4470716 5.0067859 -1.8920469
1.4764352 4.9933176 -1.8903073
1.5062312 4.9814725 -1.8892636
1.5367686 4.9721365 -1.8892636
1.5672481 4.9626136 -1.8892636
1.5985327 4.9555802 -1.8903073
1.6306703 4.9510212 -1.8923949
1.6628121 4.9462538 -1.8944824
1.6928262 4.935071 -1.8941344
1.7230753 4.9245911 -1.8941344
1.7545205 4.9174576 -1.8955261
1.7856225 4.9092426 -1.8965698
1.8157114 4.8981938 -1.8965698
1.8487149 4.8948536 -1.8997011
1.8777039 4.8807931 -1.8986573
1.9076166 4.8691797 -1.8986573
1.9367623 4.8556418 -1.8979615
1.967931 4.8471408 -1.8993531
1.9951282 4.8289099 -1.8969178
2.0258107 4.8191695 -1.8979615
2.0546048 4.804925 -1.8972657
2.0821784 4.7879291 -1.8955261
2.1088619 4.7690616 -1.8930907
2.1396229 4.7594523 -1.8944824
2.1683962 4.7453814 -1.8941344
2.1974726 4.731987 -1.8941344
2.2268665 4.7192621 -1.8944824
2.2569976 4.7080455 -1.8955261
2.2866645 4.6957941 -1.896222
2.3162661 4.6833553 -1.8969178
2.3453798 4.6698928 -1.8972657
2.3773983 4.6620946 -1.900049
2.4003539 4.6365972 -1.8955261
2.4300673 4.6242709 -1.8965698
2.4579542 4.6084461 -1.896222
2.4848454 4.5908046 -1.8951782
2.5107098 4.5713634 -1.8934386
2.5364292 4.5517774 -1.891699
2.5601566 4.5287843 -1.8885678
2.5897627 4.516243 -1.8899595
2.6183681 4.5018878 -1.8906553
2.6407006 4.4768558 -1.8868282
2.6743791 4.4710264 -1.8913511
2.7017624 4.4545326 -1.8913511
2.7275703 4.4354758 -1.8903073
2.7582076 4.4242244 -1.8927428
2.7878075 4.4111791 -1.8944824
2.8138096 4.3924117 -1.8937865
2.8432617 4.3789949 -1.8955261
2.869046 4.3599005 -1.8948302
2.8999066 4.348453 -1.8976136
2.9223328 4.3243647 -1.8948302
2.9482815 4.3055787 -1.8944824
2.9746447 4.2874074 -1.8944824
2.9992776 4.2667737 -1.8934386
3.0270338 4.2505808 -1.8944824
3.0514116 4.2296467 -1.8934386
3.077307 4.210844 -1.8934386
3.1064341 4.196403 -1.8955261
3.1264985 4.1697636 -1.8920469
3.1514575 4.149755 -1.891699
3.1780043 4.1318259 -1.8923949
3.2015679 4.1100297 -1.8913511
3.230792 4.0954595 -1.8937865
3.2582018 4.0784879 -1.8951782
3.287884 4.0642495 -1.8979615
3.3080058 4.038198 -1.8951782
3.3315239 4.0163813 -1.8944824
3.3567085 3.9965816 -1.8948302
3.3848128 3.9801943 -1.8969178
3.4116187 3.9621918 -1.8983095
3.4383309 3.9440103 -1.8997011
3.4630868 3.9235415 -1.900049
3.4895954 3.9050143 -1.9014407
3.520411 3.891175 -1.9052678
3.5353529 3.8598239 -1.9003969
3.553869 3.8325603 -1.8976136
3.5734673 3.8065817 -1.8955261
3.5954647 3.7832248 -1.8948302
3.61601 3.7583902 -1.8934386
3.6448915 3.7421753 -1.8965698
3.6658092 3.7177379 -1.8955261
3.6885519 3.6951749 -1.8955261
3.710489 3.6718135 -1.8951782
3.7295961 3.6457012 -1.8934386
3.7566175 3.6273057 -1.895874
3.773375 3.5990119 -1.8930907
3.8063076 3.5860751 -1.8986573
3.8344176 3.5683994 -1.9017886
3.8583119 3.5467076 -1.9028324
3.8834727 3.5261171 -1.904572
3.9064314 3.5034738 -1.9052678
3.9229414 3.4750879 -1.9028324
3.9427788 3.4497175 -1.9021366
3.9589055 3.4211702 -1.8997011
3.9869552 3.402899 -1.9031802
4.0048919 3.3759551 -1.9017886
4.0262518 3.3519177 -1.9021366
4.0452943 3.3259597 -1.9014407
4.0678096 3.3028479 -1.9024844
4.085073 3.2754807 -1.9010928
4.106564 3.2515173 -1.9017886
4.125699 3.2256813 -1.9014407
4.1461558 3.2008786 -1.9017886
4.1657181 3.1753781 -1.9017886
4.1851234 3.1497579 -1.9017886
4.2051239 3.124578 -1.9021366
4.2234607 3.0981627 -1.9017886
4.241632 3.07164 -1.9014407
4.2581105 3.043921 -1.9003969
4.262917 3.0080099 -1.8941344
4.2897577 2.9876888 -1.8979615
4.3188272 2.9687438 -1.9028324
4.3276501 2.9358742 -1.8986573
4.3525953 2.9139574 -1.9017886
4.3719578 2.8882287 -1.9024844
4.3833132 2.8572543 -1.8997011
4.4125919 2.8379092 -1.9049199
4.4433813 2.8193166 -1.9108344
4.4351635 2.7760878 -1.8997011
4.4233918 2.731097 -1.887176
4.4480743 2.7087786 -1.8906553
4.4879222 2.6954281 -1.9007449
4.5148644 2.6740487 -1.9052678
4.5457611 2.6548028 -1.9115303
4.5570898 2.6240547 -1.9094428
4.5722895 2.5955808 -1.9090949
4.5856748 2.5661039 -1.9080511
4.5996919 2.5370133 -1.9073553
4.6044626 2.502924 -1.9028324
4.6346111 2.4825895 -1.9090949
4.6497569 2.4541054 -1.9090949
4.6688867 2.4276905 -1.9108344
4.6887021 2.4015603 -1.912922
4.7050238 2.37359 -1.9136178
4.7245378 2.3471775 -1.9157053
4.7279015 2.3127909 -1.9111824
4.7386246 2.2821109 -1.9097908
4.7533851 2.2533939 -1.9101386
4.7611747 2.2214117 -1.9077032
4.7849402 2.1968477 -1.9118782
4.8060203 2.1709182 -1.9150095
4.8286757 2.1455739 -1.9188366
4.8494821 2.1192825 -1.9219679
4.8692861 2.0924463 -1.9247512
4.8837609 2.0632589 -1.925447
4.895463 2.0328944 -1.9250991
4.9035039 2.0010481 -1.9233595
4.9156895 1.9709229 -1.9233595
4.9303074 1.9417539 -1.9244033
4.9412546 1.9111276 -1.9240553
4.9511352 1.8801073 -1.9233595
4.9652138 1.850674 -1.9244033
4.9870424 1.8240354 -1.9285783
4.9946103 1.7921355 -1.9271866
5.0090504 1.7626994 -1.9285783
5.0153403 1.7304033 -1.9268386
5.0249753 1.6992971 -1.9264908
5.0415373 1.6704953 -1.9289262
5.0508008 1.6392403 -1.9285783
5.0661249 1.6099207 -1.9306657
5.0768032 1.5790836 -1.9310137
5.0837059 1.5470848 -1.9299699
5.0895085 1.5147938 -1.9285783
5.0942059 1.4822279 -1.9268386
5.1032047 1.4509425 -1.9268386
5.1120114 1.4196025 -1.9268386
5.1251502 1.3894347 -1.9285783
5.1362987 1.3586799 -1.9296221
5.1427231 1.3266705 -1.9289262
5.1516757 1.2953188 -1.9292741
5.1586161 1.2634616 -1.9289262
5.1635351 1.2311333 -1.9278824
5.1846919 1.2026019 -1.9331012
5.2084365 1.1744752 -1.9393637
5.2045546 1.1400898 -1.9351887
5.201364 1.105991 -1.9313616
5.2098889 1.0744336 -1.9320575
5.2099481 1.0411614 -1.9296221
5.2226815 1.0104192 -1.9320575
5.220489 0.97680444 -1.9289262
5.2236166 0.94425404 -1.9278824
5.2403955 0.91411561 -1.9320575
5.2431321 0.88147825 -1.9310137
5.2512183 0.84973907 -1.9320575
5.2646713 0.81879711 -1.9351887
5.2640324 0.78564912 -1.9331012
5.2659698 0.75293738 -1.9320575
5.2742062 0.72111899 -1.9334491
5.2803907 0.68898571 -1.934145
5.2845192 0.65657288 -1.934145
5.2865863 0.62391591 -1.9334491
5.2968369 0.59219408 -1.9358846
5.3013034 0.55978042 -1.9362324
5.2822475 0.52502108 -1.9278824
5.3077736 0.49468309 -1.9362324
5.3004346 0.46121413 -1.9324054
5.2966232 0.42815524 -1.9299699
5.300086 0.39571732 -1.9303179
5.2986727 0.3629337 -1.9289262
5.3064141 0.33076355 -1.9310137
5.313024 0.29845968 -1.9327533
5.3156919 0.26590061 -1.9331012
5.3312726 0.23389246 -1.9383199
5.3354182 0.20128141 -1.9393637
0 0 -0
5.3543568 0.13621801 -1.9456263
0 0 -0
0 0 -0
0 0 -0
0 0 -0
5.3391399 -0.027997784 -1.9393637
0 -0 -0
0 -0 -0
0 -0 -0
5.3452787 -0.15927154 -1.942495
5.3423271 -0.19199879 -1.9417992
0 -0 -0
0 -0 -0
5.3397603 -0.29040328 -1.942495
5.3378778 -0.32316196 -1.942495
0 -0 -0
5.3466005 -0.38959831 -1.9473659
5.3506517 -0.42291561 -1.9498012
5.3498244 -0.45589823 -1.950497
0 -0 -0
0 -0 -0
0 -0 -0
5.3267741 -0.58592242 -1.9466699
0 -0 -0
5.3312798 -0.65272975 -1.951193
5.3290343 -0.68566924 -1.9518888
5.3163648 -0.71722478 -1.9487575
0 -0 -0
5.3071632 -0.78241074 -1.9487575
5.3439598 -0.82137829 -1.9644138
5.3304882 -0.85281795 -1.9612825
0 -0 -0
5.3103828 -0.91657048 -1.9578034
5.2972765 -0.94781452 -1.9550201
5.2913609 -0.98030019 -1.9550201
5.2741976 -1.0106293 -1.950845
5.2734151 -1.0440658 -1.9529325
5.2577243 -1.074524 -1.9494534
5.2326856 -1.1028936 -1.942495
5.2111621 -1.1317931 -1.9369283
5.1775875 -1.1578079 -1.9268386
5.0689754 -1.1662003 -1.8882198
4.9714065 -1.1758964 -1.853776
4.9067073 -1.1924175 -1.8318572
4.7965155 -1.1968302 -1.7925425
4.7336831 -1.2120401 -1.7713195
4.6808209 -1.2291461 -1.7539237
4.6234021 -1.2444301 -1.7347882
4.5930862 -1.2665393 -1.7260902
4.5617714 -1.2880687 -1.7170444
4.5483785 -1.3144718 -1.7149569
4.5348334 -1.3407593 -1.7128694
4.5507498 -1.3758909 -1.7222631
4.5637174 -1.4104369 -1.7306131
4.5522952 -1.4375651 -1.7295694
4.5433888 -1.4654704 -1.7295694
4.5316401 -1.4924401 -1.7285256
4.5241747 -1.5208155 -1.7292215
4.5112109 -1.5473292 -1.7278298
4.5113654 -1.5783883 -1.7316569
4.4910002 -1.6022569 -1.7274818
4.4784417 -1.628821 -1.7264382
4.471879 -1.6575738 -1.7278298
4.4563622 -1.6829928 -1.7257423
4.439827 -1.7079471 -1.7233069
4.4362464 -1.7378948 -1.7260902
4.4185338 -1.762302 -1.7233069
4.3972144 -1.7851461 -1.7191318
4.3783803 -1.8088696 -1.7160006
4.3646064 -1.8346103 -1.7149569
4.329133 -1.8510302 -1.7052152
4.293623 -1.8670843 -1.6954734
4.3129506 -1.9070507 -1.7079985
4.286633 -1.9269404 -1.7020839
4.2644973 -1.9485284 -1.6979089
4.2550116 -1.9758433 -1.6989527
4.2385693 -1.9999131 -1.6972131
4.2262182 -2.0258827 -1.6972131
4.2052798 -2.0476699 -1.6937339
4.1892753 -2.0717711 -1.6923422
4.1622434 -2.0902808 -1.6864276
4.1451635 -2.1136501 -1.684688
4.1262894 -2.1360261 -1.6822526
4.113935 -2.1617405 -1.6826005
4.0939765 -2.1834114 -1.6798172
4.072258 -2.204026 -1.676338
4.0471549 -2.2226503 -1.6714672
4.044086 -2.2533765 -1.6759901
4.0358953 -2.281379 -1.6784256
4.024261 -2.3074994 -1.6794692
4.0310946 -2.3444083 -1.6885151
4.0198636 -2.3710043 -1.6899068
4.0173068 -2.4028468 -1.6951256
3.996877 -2.4240468 -1.6926901
3.9891145 -2.4529469 -1.6958214
3.9676247 -2.4734082 -1.6930381
3.9523735 -2.4977064 -1.6930381
3.9361842 -2.5214047 -1.6926901
3.9127769 -2.5404022 -1.689211
3.917475 -2.5777667 -1.6982569
3.9062636 -2.6048772 -1.7003443
3.8801103 -2.6219702 -1.6958214
3.8523476 -2.6377809 -1.6906027
3.8368602 -2.6619034 -1.6909505
3.8181541 -2.6837778 -1.6899068
3.7955065 -2.7028029 -1.6871234
3.7704887 -2.7200053 -1.6832963
3.7431328 -2.7353425 -1.6784256
3.7270319 -2.7588165 -1.6787734
3.7152839 -2.7855713 -1.6812088
3.6906569 -2.8026438 -1.6777297
3.6934519 -2.8406734 -1.6871234
3.6774313 -2.8644352 -1.6878192
3.6553707 -2.8834608 -1.6857318
3.6463976 -2.9128592 -1.6899068
3.6291847 -2.9357681 -1.6902547
3.6154535 -2.9615467 -1.6923422
3.5921636 -2.9794841 -1.6899068
3.5766852 -3.0038815 -1.6912985
3.5681832 -3.0342762 -1.6961693
3.5544703 -3.0603964 -1.6986047
3.5384514 -3.0846136 -1.6999964
2.4660296 -2.176053 -1.1784679
2.4526312 -2.1911433 -1.1784679
2.4377503 -2.2048929 -1.177772
3.4423316 -3.1527877 -1.6902547
3.4242961 -3.1751251 -1.6909505
3.4074831 -3.1986439 -1.6923422
3.3850746 -3.2169075 -1.6909505
3.3652725 -3.2376175 -1.6909505
3.3352716 -3.2483909 -1.6857318
3.3086026 -3.2622106 -1.6822526
3.2865338 -3.280463 -1.6812088
3.2656839 -3.2999005 -1.6808609
3.236202 -3.3104882 -1.6759901
3.2112708 -3.3255608 -1.6735547
3.1804543 -3.3343453 -1.6679879
3.16572 -3.3599401 -1.6711192
3.148237 -3.3827336 -1.6728588
3.1337647 -3.4088907 -1.676338
3.1298013 -3.4467993 -1.6857318
3.1079674 -3.4652402 -1.6853839
3.0847819 -3.4821396 -1.6843401
3.0633578 -3.5010018 -1.6843401
3.0473342 -3.5261178 -1.6874714
3.0213816 -3.5397568 -1.6850359
3.0026255 -3.5618138 -1.6867756
2.9723186 -3.5700815 -1.6819047
2.9545238 -3.5933223 -1.6843401
2.9401002 -3.6208465 -1.688863
2.9248636 -3.6475973 -1.6930381
2.8977728 -3.6595941 -1.6902547
2.0133624 -2.57442 -1.1708137
1.9826366 -2.5674272 -1.1617678
1.9623003 -2.5735784 -1.1589845
1.9430906 -2.5810752 -1.1568969
1.9238628 -2.5884333 -1.1548095
1.9084986 -2.600945 -1.1551574
1.901299 -2.6247578 -1.160724
1.6366181 -2.2885327 -1.0020736
1.6214645 -2.2969995 -1.0013778
1.6051972 -2.3038275 -0.99998617
2.5949826 -3.7748361 -1.6578984
2.5670364 -3.783704 -1.6547672
2.5411649 -3.7954879 -1.6530275
2.5157619 -3.8078794 -1.6516359
2.5046327 -3.8420963 -1.6599859
2.4835458 -3.8613353 -1.6617255
2.4582999 -3.8741262 -1.6606817
2.435477 -3.8907268 -1.6613775
2.4086039 -3.9008102 -1.6592901
2.3855987 -3.9171174 -1.6599859
2.3504205 -3.9131937 -1.6519837
2.3125155 -3.904146 -1.6418941
2.2913523 -3.9231198 -1.6439817
2.2798638 -3.9590445 -1.6533754
2.2596927 -3.9802978 -1.6565067
2.232024 -3.9883604 -1.6540713
2.2011731 -3.9904861 -1.6492004
2.1753039 -4.0014458 -1.6481566
2.1511531 -4.0155444 -1.6485046
2.1273484 -4.0303264 -1.6492004
2.1008494 -4.0399761 -1.6478088
2.0721762 -4.04528 -1.6446775
2.0426729 -4.0487099 -1.6408504
2.0277987 -4.0813203 -1.6492004
1.9990119 -4.0861058 -1.6460692
1.9751222 -4.1008286 -1.647113
1.9535356 -4.1204958 -1.6502442
1.9274235 -4.1307058 -1.6495483
1.9036056 -4.1458626 -1.6509401
1.88006 -4.1617374 -1.6526796
1.3906549 -3.12871 -1.2285681
1.3733075 -3.1414797 -1.2303076
1.3562256 -3.1550157 -1.2323952
1.344864 -3.1822793 -1.2400494
1.7612175 -4.240829 -1.6620734
1.7397656 -4.2628412 -1.6665963
1.7111356 -4.2673445 -1.6641608
1.6835461 -4.2742739 -1.6627692
1.6566119 -4.2827744 -1.6620734
1.6329632 -4.299871 -1.6648567
1.6075306 -4.3124452 -1.6659005
1.5858674 -4.3354359 -1.6711192
1.5592358 -4.3450851 -1.6711192
1.5303684 -4.3483796 -1.6686838
1.5085479 -4.3718691 -1.6742505
1.4774922 -4.3686085 -1.6693796
1.4512484 -4.3793716 -1.6700755
1.4234822 -4.3855186 -1.6690317
1.3965464 -4.3941703 -1.6690317
1.3703927 -4.4053426 -1.6700755
1.3427907 -4.4118743 -1.6693796
1.3164964 -4.4227266 -1.6704234
1.2909046 -4.4361224 -1.6725109
1.2654542 -4.4502726 -1.6749463
1.2383747 -4.4588571 -1.6752943
1.2102571 -4.4636569 -1.6742505
1.1821271 -4.4682798 -1.6732067
1.1556239 -4.4790802 -1.6745985
1.1262918 -4.4788127 -1.671815
1.0987891 -4.4856391 -1.671815
0.69520319 -2.9136093 -1.0695697
0.67244482 -2.8968136 -1.0615675
0.65280336 -2.8926537 -1.0584363
0.63383961 -2.8911097 -1.0563488
0.6127767 -2.8793542 -1.0504342
0.59623271 -2.8885694 -1.0525217
0.57647884 -2.8820603 -1.0486946
0.55682731 -2.8754177 -1.0448675
0.53693461 -2.8667998 -1.0403446
0.51983386 -2.8728082 -1.0413884
0.50090963 -2.8685548 -1.038605
0.48190197 -2.8632531 -1.0354737
0.4625296 -2.8550498 -1.0312988
0.44284445 -2.8439379 -1.02608
0.42303681 -2.8308377 -1.0201653
0.40883911 -2.855655 -1.0285155
0.38890022 -2.8404605 -1.0219049
0.37424943 -2.8641758 -1.0299071
0.35297558 -2.8366454 -1.0187737
0.33578297 -2.84062 -1.0194695
0.32021832 -2.8593984 -1.025732
0.3033551 -2.8678358 -1.0281675
0.28538257 -2.8659115 -1.0267758
0.26866028 -2.8769436 -1.030255
0.25067836 -2.8748016 -1.0288633
0.23333554 -2.8800237 -1.030255
0.21572925 -2.8823361 -1.0306029
0.1997638 -2.90886 -1.0399966
0.18109789 -2.8969309 -1.0351259
0.16410495 -2.9120283 -1.0403446
0.14646718 -2.9176624 -1.0420842
0.12880732 -2.9241259 -1.0441717
0.11089793 -2.9257982 -1.0445197
0.093237408 -2.9357941 -1.0479988
0.075600229 -2.9513066 -1.0535655
0.05757938 -2.9564016 -1.055305
0.039498851 -2.9613864 -1.0570446
0.021333767 -2.9625106 -1.0573926
0.0031474996 -2.950398 -1.0528697
-0.014848373 -2.9306741 -1.0455633
-0.032808628 -2.9286528 -1.0448675
-0.050661527 -2.9218347 -1.0424321
-0.068320125 -2.9102218 -1.0382571
-0.08609125 -2.9069364 -1.0372133
-0.10453599 -2.923218 -1.0434759
-0.12274791 -2.9290783 -1.0459113
-0.14071809 -2.9282701 -1.0459113
-0.15914299 -2.9357767 -1.0490426
-0.17749472 -2.9403596 -1.0511301
-0.19553308 -2.9392152 -1.0511301
-0.21349575 -2.9370251 -1.0507821
-0.2309204 -2.9281831 -1.0479988
-0.24912247 -2.9295135 -1.0490426
-0.26734954 -2.9307306 -1.0500863
-0.28423199 -2.9178381 -1.0459113
-0.30125728 -2.9076467 -1.04278
-0.32032505 -2.9169261 -1.046955
-0.33897591 -2.9214244 -1.0493904
-0.35929185 -2.9388309 -1.0566968
-0.37504044 -2.9189043 -1.0500863
-0.39633313 -2.9416332 -1.0594801
-0.41804999 -2.9651382 -1.0692217
-0.43568811 -2.9588075 -1.0678301
-0.45554632 -2.9671977 -1.0720052
-0.47285429 -2.9587924 -1.0699176
-0.49146214 -2.9586098 -1.0709614
-0.5096066 -2.9555385 -1.0709614
-0.52773184 -2.9523559 -1.0709614
-0.54481131 -2.9435315 -1.0688739
-0.56321549 -2.9419746 -1.0695697
-0.58143878 -2.939383 -1.0699176
-0.59871191 -2.932086 -1.0685259
-0.61707866 -2.930192 -1.0692217
-0.63524556 -2.9272666 -1.0695697
-0.65094221 -2.91325 -1.0657426
-0.66943651 -2.9119418 -1.0667863
-0.68318719 -2.8904457 -1.0601759
-0.70046657 -2.8843775 -1.0594801
-0.71133602 -2.8527377 -1.0490426
-0.72859395 -2.8474112 -1.0486946
-0.74557495 -2.8410735 -1.0479988
-1.1024867 -4.0965486 -1.5323001
-0.81630236 -2.9618478 -1.0980989
-0.84058005 -2.9784358 -1.1064489
-0.86300772 -2.9876316 -1.1120156
-0.88265336 -2.9867749 -1.1137552
-1.2194824 -4.0338821 -1.5218626
-1.2597253 -4.0764804 -1.541346
-1.2951682 -4.1017499 -1.5542189
-1.3364404 -4.1436882 -1.5737023
-0.98442209 -2.9903488 -1.1262803
-0.95641625 -2.8465211 -1.072353
-0.96929842 -2.8272982 -1.0671343
-0.98476917 -2.8159883 -1.0650468
-1.0026597 -2.8116586 -1.0657426
-1.0205342 -2.8072155 -1.0664384
-1.0312185 -2.7833207 -1.0594801
-1.0486088 -2.777818 -1.059828
-1.0652965 -2.7704566 -1.0594801
-1.0836444 -2.7673593 -1.0608717
-1.115548 -2.7980995 -1.0758322
-1.1337545 -2.7938077 -1.0768759
-1.1401299 -2.7608066 -1.0664384
-1.1595929 -2.7598081 -1.0688739
-1.1739234 -2.7466075 -1.0664384
-1.1892579 -2.735914 -1.0650468
-1.202988 -2.7217066 -1.0622634
-1.2165886 -2.7074339 -1.0594801
-1.2246019 -2.6811602 -1.0518259
-1.240635 -2.6727455 -1.0514779
-1.256611 -2.6642349 -1.0511301
-1.270502 -2.6514025 -1.0490426
-1.2879788 -2.6460855 -1.0500863
-1.3058538 -2.6414938 -1.0514779
-1.3376125 -2.6644266 -1.064351
-1.3692751 -2.6862328 -1.0768759
-1.3680524 -2.6436491 -1.0626113
-1.3916649 -2.6493118 -1.0685259
-1.4162809 -2.6564384 -1.0751363
-1.4347861 -2.6518202 -1.0768759
-2.1124835 -3.846674 -1.5865753
-1.4649373 -2.6299191 -1.0751363
-1.4828928 -2.624145 -1.0765281
-1.491035 -2.6011724 -1.0706134
-1.5017805 -2.5830612 -1.0667863
-1.5156957 -2.5705683 -1.0653946
-1.5401058 -2.5757 -1.0716572
-1.55199 -2.5597897 -1.0688739
-1.5666848 -2.5486217 -1.0681781
-1.5803088 -2.535779 -1.0667863
-1.5988444 -2.5307891 -1.0688739
-1.618896 -2.5280349 -1.0720052
-1.6323344 -2.5149093 -1.0706134
-1.6508281 -2.5095444 -1.072701
-1.6677563 -2.5017076 -1.0737447
-1.6772989 -2.4828839 -1.0699176
-1.6856138 -2.4624908 -1.0653946
-1.6932071 -2.4413195 -1.0605239
-1.7140874 -2.4393196 -1.064351
-1.7306546 -2.431047 -1.0653946
-1.7433438 -2.4173412 -1.064003
-1.7564836 -2.4043283 -1.0629592
-1.7857105 -2.413094 -1.0720052
-1.8016084 -2.4035916 -1.072701
-1.8151884 -2.3909991 -1.0720052
-1.8201054 -2.3671851 -1.0660905
-1.8322908 -2.3530147 -1.0646988
-1.8379818 -2.3306885 -1.0594801
-1.8627839 -2.3325496 -1.0657426
-1.8652649 -2.3065007 -1.0587842
-1.8746281 -2.2892113 -1.0560009
-1.8934287 -2.2834375 -1.0587842
-1.9086102 -2.273212 -1.0594801
-1.9200925 -2.2586021 -1.0580884
-1.9320792 -2.244647 -1.0570446
-1.951978 -2.2398152 -1.0605239
-1.9712695 -2.2341208 -1.0636551
-1.9730685 -2.2087035 -1.0570446
-1.9840671 -2.1937752 -1.055653
-1.9911567 -2.1746478 -1.0521739
-2.0025496 -2.1603272 -1.0511301
-2.0061402 -2.1377485 -1.0459113
-2.0082374 -2.1138482 -1.0399966
-2.0335228 -2.11432 -1.0466071
-2.0516922 -2.1071744 -1.0493904
-2.0678749 -2.097883 -1.0511301
-2.0846832 -2.0891354 -1.0532175
-2.0967963 -2.0756454 -1.0528697
-2.1155279 -2.0686374 -1.0560009
-2.1241333 -2.0517113 -1.0539134
-2.136004 -2.0379925 -1.0535655
-2.1436911 -2.0203485 -1.0511301
-2.1725221 -2.0224822 -1.0594801
-2.1835101 -2.0078452 -1.0587842
-2.2075908 -2.0051208 -1.0646988
-2.2205508 -1.9921633 -1.0650468
-2.2474728 -1.9915525 -1.072353
-2.2575333 -1.9758731 -1.0713092
-2.2752903 -1.9668868 -1.0740926
-2.2766175 -1.9437616 -1.0688739
-2.2920861 -1.9327765 -1.0706134
-2.2873275 -1.9048834 -1.0626113
-2.311286 -1.900932 -1.0685259
-2.3272741 -1.8902591 -1.0706134
-2.3666279 -1.8982236 -1.0838343
-2.3819065 -1.8865757 -1.0855739
-2.4045181 -1.8805845 -1.0907927
-2.4204652 -1.8692317 -1.0928801
-2.4386005 -1.8594586 -1.0960114
-2.4439704 -1.8399518 -1.0932281
-2.4499457 -1.8210083 -1.0907927
-2.4565368 -1.8026152 -1.0887052
-2.4516025 -1.7759643 -1.0813988
-2.4670303 -1.7641584 -1.0834864
-2.4732118 -1.7457457 -1.0813988
-2.4500215 -1.7069691 -1.0660905
-2.4720399 -1.6998676 -1.0713092
-2.5142376 -1.7062401 -1.0855739
-2.5020638 -1.6756606 -1.0754843
-2.5209043 -1.6659592 -1.0793114
-2.5522876 -1.6642781 -1.0887052
-2.5876877 -1.6648089 -1.0998385
-2.6081467 -1.6554272 -1.1043614
-2.6389198 -1.6523211 -1.1134073
-2.6849113 -1.6582539 -1.1290636
-2.7094505 -1.6505225 -1.1353261
-2.754091 -1.6546153 -1.1502866
-2.7545106 -1.6319543 -1.1461116
-2.7693303 -1.6178579 -1.1481991
-2.7678294 -1.5942881 -1.1433282
-2.8199613 -1.6013331 -1.16142
-2.858372 -1.6000175 -1.1735971
-2.9658387 -1.63631 -1.2149992
-3.0095985 -1.6364315 -1.2292639
-3.0237155 -1.6201466 -1.2310034
-3.0402334 -1.6050624 -1.2337868
-3.0874598 -1.6058323 -1.2494431
-3.1807077 -1.6295795 -1.2842349
-3.2567804 -1.6433774 -1.3117204
-3.288635 -1.6342038 -1.3207662
-3.3390286 -1.6337599 -1.3374662
-3.5568018 -1.7132667 -1.423054
-3.7366955 -1.7716937 -1.4926375
-3.8876946 -1.8141072 -1.5500439
-3.6584594 -1.6799595 -1.4519311
-3.7806363 -1.7080138 -1.4975084
-3.8647335 -1.7175074 -1.5274292
-3.9155793 -1.7113978 -1.5437814
-3.9311752 -1.6895597 -1.5458689
-3.9621971 -1.6741587 -1.5542189
-4.053791 -1.6835955 -1.5869231
-4.2229085 -1.7234797 -1.6505921
-4.2412362 -1.7006744 -1.6537234
-4.2725291 -1.6828593 -1.6620734
-4.3160043 -1.669456 -1.6752943
-4.3507099 -1.6522557 -1.6850359
-4.4161148 -1.6461456 -1.7069547
-4.4675183 -1.6341448 -1.7233069
-4.5242338 -1.623473 -1.7417465
