# .PCD v0.7 - Point Cloud Data file format
VERSION 0.7
FIELDS x y z
SIZE 4 4 4
TYPE F F F
COUNT 1 1 1
WIDTH 1517
HEIGHT 1
VIEWPOINT 0 0 0 1 0 0 0
POINTS 1517
DATA ascii
-3.0911965 5.694325 -1.8857602
-3.0521309 5.7055774 -1.883195
-3.0215325 5.7326779 -1.8860452
-2.98895 5.7562146 -1.8877553
-2.9570649 5.7812734 -1.8900355
-2.9349 5.8258481 -1.8988711
-2.8850455 5.8154082 -1.8894655
-2.8539345 5.8424759 -1.8926007
-2.8134642 5.8503747 -1.8894655
-2.7771041 5.8666611 -1.8891804
-2.7434824 5.888804 -1.8908905
-2.7017078 5.8933272 -1.8869003
-2.6694355 5.9185324 -1.8897505
-2.6377325 5.9453149 -1.8931707
-2.6004367 5.9596305 -1.8926007
-2.5743983 6.0001407 -1.9005812
-2.5326927 6.0043416 -1.896876
-2.4869964 5.998517 -1.8900355
-2.4454439 6.0021234 -1.8863302
-2.4035847 6.0045562 -1.88234
-2.3663456 6.0182991 -1.8820549
-2.3276479 6.028234 -1.8806298
-2.2895968 6.0397139 -1.8797748
-2.2611814 6.0770078 -1.8871853
-2.222208 6.0862651 -1.8857602
-2.1880522 6.1088104 -1.8886104
-2.1441779 6.104033 -1.88291
-2.1088674 6.1234188 -1.8849051
-2.072787 6.1407843 -1.8863302
-2.0338657 6.1497469 -1.8851901
-1.9996359 6.1730537 -1.8886104
-1.9692513 6.2089639 -1.8960209
-1.9299806 6.217268 -1.8948808
-1.8870634 6.2134008 -1.8900355
-1.8480849 6.222106 -1.8891804
-1.8098719 6.2333283 -1.8891804
-1.7731596 6.2498493 -1.8908905
-1.7340106 6.2578402 -1.8900355
-1.6955805 6.268362 -1.8900355
-1.6519535 6.2591844 -1.88405
-1.6156654 6.2775578 -1.8866153
-1.5766506 6.2854934 -1.8860452
-1.5330524 6.2745633 -1.8797748
-1.4929723 6.2773242 -1.8777796
-1.4544272 6.2863669 -1.8777796
-1.4179291 6.3045244 -1.8806298
-1.3796273 6.3149791 -1.8811998
-1.3376747 6.308322 -1.8766396
-1.3039579 6.3408227 -1.88405
-1.2659626 6.353405 -1.8854752
-1.2314893 6.384583 -1.8926007
-1.1859697 6.3580966 -1.88234
-1.1455764 6.3577065 -1.8800598
-1.120978 6.447722 -1.9051415
-1.0763315 6.4242268 -1.8960209
-1.0344542 6.4155688 -1.8914605
-0.99712205 6.4350572 -1.8954508
-0.95677376 6.4353652 -1.8937408
-0.91726911 6.4411149 -1.8937408
-0.87915051 6.4570694 -1.896876
-0.83988404 6.4651937 -1.8977309
-0.79949367 6.4645181 -1.8960209
-0.75925487 6.4645419 -1.8945957
-0.71883434 6.46241 -1.8926007
-0.68216664 6.4952979 -1.9011512
-0.6422053 6.4984078 -1.9008662
-0.60461408 6.5270414 -1.9082767
-0.5630706 6.5134387 -1.9031464
-0.52470124 6.5368361 -1.9091318
-0.48571268 6.5552268 -1.9136921
-0.44593495 6.5647783 -1.9156872
-0.40605831 6.5740876 -1.9176823
-0.36624333 6.5860262 -1.9205326
-0.32360795 6.5431533 -1.9071367
-0.28246254 6.5220327 -1.9002962
-0.24272218 6.5313063 -1.9025763
-0.20216949 6.5173435 -1.898016
-0.16343051 6.5692472 -1.9131221
-0.12317266 6.5730014 -1.9139771
-0.082303271 6.5305033 -1.9011512
-0.042183079 6.5232177 -1.8988711
-0.0021573086 6.5281463 -1.9002962
0.038070735 6.5567918 -1.9088467
0.078022942 6.5334315 -1.9020063
0.11774243 6.5127044 -1.8960209
0.15943131 6.5827689 -1.9171124
0.19791776 6.519392 -1.898586
0.23777574 6.5142231 -1.8974459
0.27839795 6.5279636 -1.9020063
0.31464976 6.4485855 -1.8789197
0.35911828 6.5355406 -1.9054265
0.39891967 6.5284305 -1.9040014
0.43651885 6.4895186 -1.8931707
0.47337416 6.446569 -1.8811998
0.51330179 6.4483204 -1.882625
0.5628736 6.5615592 -1.9173973
0.59802282 6.5026226 -1.9008662
0.6295622 6.4139318 -1.8754995
0.67697769 6.4871674 -1.898586
0.71539789 6.4705062 -1.8948808
0.7517463 6.4374342 -1.8863302
0.79170024 6.4365058 -1.8874702
0.83228618 6.4400821 -1.8900355
0.87139958 6.4320045 -1.8891804
0.90869433 6.4113522 -1.8846201
0.94928104 6.4141893 -1.8871853
0.98349887 6.3750892 -1.8772095
1.0262482 6.3916473 -1.88405
1.0649735 6.3823938 -1.883195
1.1055886 6.3842392 -1.8857602
1.1494873 6.4037504 -1.8937408
1.1849016 6.375845 -1.8874702
1.2218277 6.3571596 -1.88405
1.2602509 6.3467226 -1.883195
1.2987847 6.3369923 -1.882625
1.3406191 6.3429704 -1.8869003
1.383392 6.3524194 -1.8923156
1.4194055 6.3307176 -1.8883253
1.4580077 6.3209553 -1.8880403
1.4963223 6.3100247 -1.8874702
1.5327412 6.2914124 -1.8846201
1.5715485 6.2828188 -1.8849051
1.6053003 6.2544904 -1.8792048
1.6380314 6.2232037 -1.8726493
1.664693 6.1704679 -1.8595384
1.7053335 6.1702995 -1.8626736
1.7470793 6.1735535 -1.866949
1.784393 6.1608763 -1.8663789
1.8267938 6.1654339 -1.8712242
1.8673708 6.1632819 -1.8740743
1.909125 6.1645255 -1.8780646
1.9515433 6.1673164 -1.882625
1.9840395 6.1388097 -1.8774946
2.0249751 6.1365323 -1.8806298
2.0604472 6.1176333 -1.8786347
2.1013741 6.1148462 -1.8817699
2.1356821 6.0927925 -1.8789197
2.1759317 6.0876966 -1.8814849
2.2161989 6.0823355 -1.88405
2.2524762 6.065927 -1.883195
2.2913501 6.0564742 -1.8846201
2.3177793 6.014576 -1.8757845
2.3532391 5.9966722 -1.8746444
2.3857203 5.9714394 -1.8712242
2.421593 5.9549131 -1.8706541
2.4577193 5.9390564 -1.8703692
2.4937425 5.9229813 -1.8700842
2.5334358 5.9154978 -1.8726493
2.5727482 5.9068713 -1.8749294
2.6015661 5.8743234 -1.8695141
2.642679 5.8696113 -1.8732194
2.6758513 5.8471851 -1.8712242
2.7104654 5.8280492 -1.8703692
2.7494521 5.8182406 -1.8726493
2.7830255 5.7969408 -1.8712242
2.8198032 5.7823396 -1.8720793
2.849272 5.7529044 -1.868089
2.8957191 5.7575755 -1.8754995
2.9309924 5.7396994 -1.8754995
2.9661553 5.7216072 -1.8754995
3.0007601 5.7024512 -1.8752145
3.0356932 5.6839318 -1.8752145
3.0664001 5.6576147 -1.8726493
3.0973604 5.6319747 -1.8703692
3.1388671 5.6254177 -1.8746444
3.1761589 5.6110563 -1.8763546
3.2153022 5.5997739 -1.8792048
3.2505665 5.5815964 -1.8797748
3.2857285 5.5631967 -1.8803449
3.3158605 5.5363531 -1.8780646
3.348773 5.5142646 -1.8774946
3.382545 5.4936132 -1.8774946
3.4121277 5.4662509 -1.8752145
3.4466293 5.4468312 -1.8757845
3.4732561 5.4150929 -1.8720793
3.5184367 5.4121609 -1.8786347
3.5568538 5.3984737 -1.8814849
3.5856519 5.3701711 -1.8792048
3.6222963 5.3536253 -1.8811998
3.6539929 5.3297176 -1.8806298
3.6822507 5.3008995 -1.8783497
3.7169144 5.2813411 -1.8794898
3.7442408 5.2514119 -1.8769246
3.775831 5.227562 -1.8766396
3.8163276 5.2158976 -1.8809148
3.8454056 5.1885328 -1.8794898
3.8852277 5.1755705 -1.8834801
3.9093676 5.141716 -1.8797748
3.9461074 5.1244659 -1.88234
3.9739387 5.0956221 -1.8806298
4.010478 5.0779114 -1.883195
4.049345 5.0629377 -1.8869003
4.0857649 5.0446992 -1.8894655
4.1032662 5.0032315 -1.883195
4.1326632 4.9764853 -1.882625
4.1538653 4.9400315 -1.8783497
4.1921782 4.9239373 -1.8820549
4.2173042 4.8923144 -1.8797748
4.2579608 4.8786201 -1.8846201
4.2903547 4.8552747 -1.8857602
4.3085589 4.8160014 -1.8806298
4.3438206 4.795867 -1.883195
4.3686304 4.7641792 -1.8811998
4.3860397 4.7246413 -1.8760695
4.430048 4.7137022 -1.882625
4.4569049 4.6843481 -1.8817699
4.482903 4.6541519 -1.8806298
4.5214157 4.6368504 -1.8849051
4.5484347 4.607656 -1.884335
4.5813651 4.5844054 -1.8863302
4.6121354 4.5589037 -1.8874702
4.6386495 4.5291791 -1.8869003
4.6691127 4.5032926 -1.8880403
4.6938801 4.4719148 -1.8869003
4.7128534 4.4351482 -1.8834801
4.7371693 4.4035373 -1.88234
4.7619815 4.3724432 -1.8814849
4.7965317 4.3502235 -1.8846201
4.8352728 4.3315816 -1.8894655
4.840939 4.2834148 -1.8811998
4.8815675 4.2662435 -1.8869003
4.9178128 4.244977 -1.8908905
4.9262581 4.1998005 -1.88405
4.9629345 4.1787529 -1.8883253
4.9892187 4.1488352 -1.8886104
5.0138407 4.1175356 -1.8883253
5.0472012 4.0933337 -1.8914605
5.0639915 4.0556979 -1.8883253
5.0744948 4.0132551 -1.88291
5.1050687 3.9867616 -1.8851901
5.1180477 3.9465847 -1.8809148
5.1467433 3.9185896 -1.882625
5.1798859 3.893846 -1.8860452
5.2121487 3.8682716 -1.8891804
5.2334657 3.8345184 -1.8883253
5.2514582 3.798403 -1.8863302
5.29105 3.7778029 -1.8923156
5.3172646 3.7474747 -1.8934557
5.3425198 3.7164197 -1.8943107
5.3628516 3.6819415 -1.8934557
5.3877234 3.650579 -1.8943107
5.4140062 3.620115 -1.8957359
5.4297156 3.5826051 -1.8934557
5.4483824 3.5471303 -1.8923156
5.50876 3.5384915 -1.9059966
5.5028372 3.4871843 -1.8963059
5.502996 3.4401469 -1.8888954
5.5305285 3.4103401 -1.8911755
5.5357881 3.3668804 -1.8857602
5.592514 3.354538 -1.898301
5.6237178 3.3265018 -1.9020063
5.6514759 3.2962778 -1.9045714
5.6649466 3.2577174 -1.9022913
5.6915007 3.2266772 -1.9045714
5.7019868 3.186552 -1.9014362
5.72647 3.1542792 -1.9031464
5.7423463 3.1172543 -1.9020063
5.7647467 3.0837691 -1.9031464
5.7962804 3.0550408 -1.9074216
5.8064089 3.0150025 -1.9045714
5.843575 2.9889176 -1.9108418
5.8361216 2.940073 -1.9022913
5.8969884 2.9254994 -1.9165423
5.888988 2.8766446 -1.9079916
5.8693805 2.8226001 -1.8957359
5.8987188 2.7922723 -1.8997262
5.9070516 2.7519796 -1.896876
5.9395113 2.7228701 -1.9020063
5.9596024 2.6879504 -1.9031464
5.9952598 2.6598809 -1.9094168
6.0097108 2.6222782 -1.9088467
6.0265684 2.5857317 -1.9091318
6.0423207 2.5487046 -1.9091318
6.0498762 2.5082793 -1.9065666
6.0749178 2.4750872 -1.9097018
6.0784211 2.4331369 -1.9059966
6.1119704 2.403157 -1.9119819
6.1033506 2.3566368 -1.9045714
6.1185918 2.3194826 -1.9048564
6.1372008 2.2835665 -1.9062816
6.1546988 2.2471805 -1.9074216
6.1692739 2.2096968 -1.9077066
6.1836205 2.1721187 -1.9079916
6.2013636 2.1356957 -1.9094168
6.2052689 2.0945406 -1.9065666
6.2198243 2.0570281 -1.9071367
6.2378006 2.0205965 -1.9088467
6.2528224 1.983153 -1.9097018
6.2685351 1.9458851 -1.9108418
6.2941146 1.9115611 -1.9151171
6.3158331 1.8759055 -1.9182523
6.3244629 1.8363156 -1.9173973
6.3374557 1.7979978 -1.9179673
6.3465214 1.7585665 -1.9173973
6.3608932 1.7205923 -1.9185374
6.3778186 1.6832412 -1.9205326
6.3833852 1.6428823 -1.9191074
6.3905563 1.6029845 -1.9182523
6.4039965 1.564652 -1.9193925
6.4200044 1.5268797 -1.9213876
6.4217811 1.4857314 -1.9191074
6.4354525 1.4473509 -1.9205326
6.4563861 1.4104939 -1.9242377
6.4630442 1.3704543 -1.9236678
6.4750867 1.3315437 -1.9248078
6.4709144 1.2893553 -1.9211025
6.4692917 1.2478126 -1.9182523
6.453269 1.2037045 -1.9111269
6.4765701 1.166972 -1.9159722
6.4751091 1.1257344 -1.9134071
6.5112014 1.0908874 -1.9222426
6.5083089 1.0493908 -1.9193925
6.5222034 1.0106096 -1.9216726
6.5301781 0.97085267 -1.9222426
6.5464506 0.93225068 -1.9253778
6.5558467 0.8925814 -1.926518
6.5193758 0.84691292 -1.9139771
6.533011 0.80795211 -1.9165423
6.5635495 0.77086538 -1.9242377
6.5748248 0.73131824 -1.9262329
6.5753751 0.69056231 -1.9250928
6.5756726 0.64982718 -1.9239528
6.5518575 0.60690838 -1.9156872
6.5812421 0.5689199 -1.9233828
6.5817428 0.52829784 -1.9225277
6.5829487 0.4877618 -1.9219576
6.610682 0.449045 -1.9293681
6.6104426 0.40829739 -1.9285131
6.6243081 0.36836541 -1.9319333
6.6341028 0.32808992 -1.9342134
6.6283298 0.28704721 -1.9319333
6.6155982 0.24583974 -1.927658
6.640934 0.2059813 -1.9347835
6.6238666 0.16477969 -1.9293681
6.6362529 0.12434678 -1.9327884
6.642642 0.083696611 -1.9344984
6.6344037 0.042882301 -1.9319333
6.6489201 0.0021757528 -1.9362086
6.6315551 -0.038518064 -1.9310782
6.6398196 -0.079312339 -1.9336435
6.6257911 -0.11980706 -1.9296532
6.6488872 -0.16104431 -1.9367787
6.6563964 -0.20210139 -1.9393438
6.6636519 -0.24325669 -1.941909
6.6658645 -0.28430355 -1.9430491
6.6687818 -0.32543361 -1.9444741
6.6743159 -0.36676842 -1.9467543
6.6614156 -0.40706941 -1.9436191
6.6654868 -0.44838694 -1.9456142
6.6597424 -0.48906603 -1.9447591
6.6441951 -0.52892923 -1.9410539
6.6503744 -0.57050824 -1.9439042
6.6620202 -0.61271065 -1.9484644
6.6772137 -0.65545261 -1.9541649
6.6864128 -0.69780606 -1.958155
6.6581879 -0.73618239 -1.9510295
6.678298 -0.77991748 -1.9584401
6.6591172 -0.8191222 -1.9541649
6.6378055 -0.85787499 -1.9493195
6.6523628 -0.90129358 -1.9553049
6.6258292 -0.9391318 -1.9490345
6.6009789 -0.97695947 -1.9433341
6.5844398 -1.0158345 -1.9401989
6.5733509 -1.055456 -1.9387738
6.5071893 -1.08582 -1.9208175
6.3502393 -1.0996945 -1.8754995
6.2046905 -1.1137189 -1.8336017
6.0752339 -1.1289797 -1.7965492
0 -0 -0
5.9180222 -1.1750453 -1.7532263
5.8430948 -1.1974667 -1.7327049
5.7859359 -1.2227827 -1.7175988
0 -0 -0
0 -0 -0
0 -0 -0
5.7345996 -1.3597605 -1.7116134
5.7205606 -1.3935595 -1.7099032
5.701674 -1.4260736 -1.706768
5.7271671 -1.4698546 -1.7173138
5.6670604 -1.4915397 -1.7016377
5.6494732 -1.5240356 -1.6990726
5.6363206 -1.5576494 -1.6979325
5.6146674 -1.5888087 -1.6942272
5.6130986 -1.6256311 -1.6967924
5.6122079 -1.6627665 -1.6996427
5.5982308 -1.6960586 -1.6985025
5.5556736 -1.7204463 -1.6885269
5.5486679 -1.7556603 -1.689667
5.5441751 -1.7917378 -1.6916621
5.5358071 -1.8266242 -1.6925172
5.52177 -1.8596385 -1.6916621
5.490314 -1.8866274 -1.6853917
5.4415503 -1.9072733 -1.6737058
5.4532108 -1.9490184 -1.6811163
5.4276409 -1.9775172 -1.676841
5.408217 -2.0081129 -1.6745609
5.3966904 -2.0415986 -1.6748459
5.3804841 -2.0732942 -1.6737058
5.3649845 -2.1052184 -1.6728508
5.345736 -2.1356072 -1.6708556
5.3343072 -2.1690903 -1.6714257
5.2881298 -2.1882131 -1.66088
5.2746038 -2.2206192 -1.66088
5.2652841 -2.2548294 -1.6623051
5.2425623 -2.2832651 -1.6594549
5.2389703 -2.3200493 -1.6628752
5.2290058 -2.3541198 -1.6643002
5.2310214 -2.3937414 -1.6697155
5.2153664 -2.4253891 -1.6694306
5.223783 -2.4684057 -1.677126
5.2059469 -2.499167 -1.6762711
5.1879301 -2.5298021 -1.675416
5.1877694 -2.5692472 -1.6805463
5.189888 -2.6100779 -1.6865317
5.1823111 -2.646234 -1.689382
5.1770382 -2.6837194 -1.6930871
5.1553845 -2.7127554 -1.691377
5.1344156 -2.7420785 -1.6899519
5.1048541 -2.7666776 -1.6856767
5.0877824 -2.7979484 -1.6856767
5.0571275 -2.8216386 -1.6811163
5.0205355 -2.8417521 -1.6745609
5.0054975 -2.8739362 -1.675416
4.9761744 -2.8978398 -1.6714257
4.9500475 -2.9234426 -1.6685755
4.9435277 -2.9606576 -1.6725658
4.9088845 -2.9809809 -1.6668653
4.9002943 -3.0170777 -1.6702856
4.8987632 -3.0577502 -1.6762711
4.8572321 -3.073396 -1.6682905
4.8286018 -3.0969298 -1.6648703
4.7974558 -3.1186604 -1.6605949
4.7558208 -3.1332684 -1.6526145
4.7444763 -3.1677146 -1.6554646
4.7217755 -3.1946173 -1.6543245
4.7005038 -3.222445 -1.6537545
4.6617517 -3.2380986 -1.646914
4.6715779 -3.2876101 -1.6577448
4.6357107 -3.3050804 -1.6520444
4.6231127 -3.3390763 -1.6548946
4.5862947 -3.3554914 -1.6489092
4.581789 -3.3955574 -1.6548946
4.5708323 -3.4310896 -1.6585999
4.5489306 -3.4584908 -1.6583148
4.5261054 -3.4851675 -1.6577448
4.5038795 -3.512284 -1.6574597
4.4882607 -3.5446069 -1.6597399
4.4701691 -3.5750737 -1.661165
4.4563413 -3.6090724 -1.6643002
4.4407816 -3.6418197 -1.6668653
4.4168777 -3.6677742 -1.6662953
4.3935561 -3.6941898 -1.6660104
4.3620496 -3.7136204 -1.6625901
4.3224854 -3.7259183 -1.6560347
4.2728267 -3.7290452 -1.645489
4.2592015 -3.7634454 -1.6491942
4.243886 -3.79654 -1.6523294
4.220511 -3.8225086 -1.6523294
4.1948581 -3.8463893 -1.6514744
4.1648569 -3.8661857 -1.6489092
4.1396589 -3.8903549 -1.6483392
4.1177936 -3.9176645 -1.6491942
2.355654 -2.2681823 -0.93151569
2.3416924 -2.2825935 -0.93151569
2.3255966 -2.2948985 -0.93066061
3.9709237 -3.9680703 -1.6283878
3.9269636 -3.9725878 -1.6201222
3.9065313 -4.0007238 -1.6218324
3.8832405 -4.0259991 -1.6224024
3.9192805 -4.1136079 -1.6486242
3.8788602 -4.1215215 -1.6420687
3.8626328 -4.1550741 -1.646059
3.8565097 -4.1998816 -1.6546096
3.8564196 -4.2518702 -1.6660104
3.8283398 -4.2733107 -1.6651553
3.800142 -4.2945666 -1.6643002
3.7661519 -4.3091407 -1.66088
3.7252383 -4.3154769 -1.6543245
3.7148538 -4.3572211 -1.6617351
3.684345 -4.3755331 -1.6600249
3.6666188 -4.4091139 -1.6643002
3.6413205 -4.4337516 -1.6651553
3.6140471 -4.4560108 -1.6651553
3.5932269 -4.4863334 -1.6682905
3.5608761 -4.5022812 -1.6660104
2.0190945 -2.5845301 -0.93436587
1.9891536 -2.5786505 -0.9275254
1.9674888 -2.58318 -0.92467523
1.9481467 -2.5906057 -0.92296511
1.9287877 -2.5978918 -0.92125499
1.9179084 -2.6166375 -0.9238202
1.7260303 -2.3852317 -0.83460915
1.6835202 -2.3567684 -0.82035816
1.6756521 -2.376457 -0.82377839
3.2731667 -4.705081 -1.6634451
3.2534559 -4.7385116 -1.6682905
3.221632 -4.7544169 -1.6668653
3.1844091 -4.7621417 -1.6625901
3.1572402 -4.7847919 -1.6637301
3.1199794 -4.7920237 -1.6594549
3.1076076 -4.8376937 -1.6688606
3.0722234 -4.8477635 -1.6657254
3.0596907 -4.8941607 -1.675416
3.0280941 -4.9103947 -1.6745609
2.9959159 -4.9256058 -1.6734208
2.9616933 -4.9373193 -1.6711407
2.9298792 -4.9529238 -1.6702856
2.8999162 -4.9716358 -1.6705706
2.8473825 -4.9511094 -1.6574597
2.8126962 -4.9609818 -1.6548946
2.7812684 -4.9764733 -1.6543245
2.7488317 -4.9900866 -1.6531844
2.7154183 -5.0018044 -1.6514744
2.6778972 -5.0056925 -1.647199
2.6404307 -5.0093093 -1.6429237
2.6211252 -5.0475359 -1.6503342
2.5839961 -5.0515757 -1.6463439
1.5368654 -3.0494864 -0.97455359
1.5176992 -3.0580001 -0.97426856
1.4963838 -3.0620871 -0.97255844
2.4272709 -5.0469484 -1.6243975
2.4220846 -5.1163321 -1.6423538
2.3918598 -5.1337042 -1.6432087
2.3535271 -5.1334696 -1.6383635
2.3223782 -5.1486878 -1.6386485
2.2891884 -5.1593361 -1.6375084
2.2532732 -5.1636205 -1.6343732
2.2283475 -5.1932058 -1.6395035
2.1908553 -5.1935325 -1.6352283
2.1574793 -5.2033358 -1.6340882
2.1276805 -5.2218022 -1.6357983
2.0959561 -5.2356491 -1.6360834
2.0658948 -5.2537637 -1.6377934
2.0291331 -5.2547154 -1.6340882
1.9982111 -5.2706528 -1.6352283
1.9588171 -5.2639475 -1.6292429
1.9343674 -5.2974782 -1.6360834
1.9057029 -5.3200769 -1.6395035
1.8730236 -5.3316698 -1.6395035
1.8355945 -5.3294668 -1.6352283
1.8046973 -5.3460789 -1.6369383
1.7742668 -5.3643327 -1.6392186
1.7392521 -5.3687348 -1.6372234
1.7065669 -5.3802195 -1.6375084
1.6766465 -5.4006596 -1.6406436
1.6429204 -5.4090114 -1.6400735
1.6097003 -5.4189901 -1.6400735
1.5748171 -5.4232421 -1.6383635
1.5425569 -5.4364915 -1.6395035
1.505845 -5.433845 -1.6357983
1.4727253 -5.4439077 -1.6360834
1.4392943 -5.4528418 -1.6360834
1.4067641 -5.4652839 -1.6372234
1.3722712 -5.4700937 -1.6360834
1.3411821 -5.4886537 -1.6392186
1.3074791 -5.4967794 -1.6392186
1.2737269 -5.5046988 -1.6392186
1.2382455 -5.5049291 -1.6369383
1.2026049 -5.5039949 -1.6343732
0.73512691 -3.4642532 -1.0121762
0.71482134 -3.4733932 -1.0136012
0.69293416 -3.4748936 -1.0127462
0.67105544 -3.4762564 -1.0118911
0.65094203 -3.4869046 -1.0138862
0.62953454 -3.490833 -1.0138862
0.61154765 -3.5144622 -1.0198717
0.59202862 -3.5304382 -1.0235769
0.57568961 -3.5671258 -1.0335525
0.55906904 -3.6046917 -1.0438132
0.53792608 -3.6146913 -1.0458084
0.52073044 -3.6530359 -1.0563542
0.49339858 -3.6200705 -1.0455234
0.45933887 -3.5317762 -1.0181615
0.43648487 -3.5250154 -1.0153114
0.41975969 -3.569515 -1.0278522
0.3941468 -3.5386803 -1.0178765
0.37992257 -3.6125293 -1.039253
0.35530284 -3.5899913 -1.0318425
0.33494499 -3.6102383 -1.0372578
0.31484628 -3.6360998 -1.0443833
0.29184097 -3.6293643 -1.0418181
0.26815292 -3.6119683 -1.0361178
0.24520774 -3.6020696 -1.0326976
0.22286555 -3.5996797 -1.0315574
0.2014638 -3.613421 -1.0352627
0.17909977 -3.6107597 -1.0341226
0.15714771 -3.6165788 -1.0355477
0.13470586 -3.61077 -1.0335525
0.11240031 -3.6067381 -1.0321275
0.09036234 -3.6111929 -1.0332676
0.067989297 -3.600179 -1.0298474
0.045790557 -3.5919025 -1.0272821
0.023822529 -3.6036179 -1.0307024
0.0017133323 -3.6209495 -1.0358328
-0.020533103 -3.6256845 -1.0372578
-0.04293051 -3.6379499 -1.0409631
-0.065304235 -3.6404932 -1.0418181
-0.090516016 -3.7578871 -1.0768756
-0.11339673 -3.7515125 -1.0751654
-0.1344108 -3.696147 -1.0589193
-0.15803066 -3.7172785 -1.0654747
-0.17807019 -3.6597538 -1.0486586
-0.19862331 -3.6241379 -1.0383979
-0.2198015 -3.6056299 -1.0332676
-0.23747057 -3.5382252 -1.0136012
-0.26065394 -3.556776 -1.0195867
-0.28361648 -3.569442 -1.0238619
-0.3069084 -3.5838697 -1.0287073
-0.33135545 -3.6086445 -1.0366879
-0.35311624 -3.6027277 -1.0355477
-0.37531516 -3.6014466 -1.0358328
-0.40141535 -3.6352782 -1.0466635
-0.42649716 -3.6565478 -1.0537889
-0.45337841 -3.6900125 -1.0646197
-0.47724161 -3.6966672 -1.0674698
-0.5250414 -3.8788843 -1.1230487
-0.53132361 -3.752218 -1.0859962
-0.52722037 -3.5658908 -1.0309874
-0.53957987 -3.5010149 -1.0124612
-0.57383001 -3.5771334 -1.0364028
-0.59545219 -3.5716543 -1.0358328
-0.60998857 -3.525434 -1.0230069
-0.64991671 -3.6235135 -1.0537889
-0.66845655 -3.5996678 -1.0478035
-0.6930663 -3.6086762 -1.0517938
-0.70697403 -3.56299 -1.039253
-0.72997856 -3.5642188 -1.0409631
-0.75322312 -3.566237 -1.0429583
-0.77223313 -3.5484366 -1.038968
-0.79881841 -3.5651426 -1.0455234
-0.8221879 -3.5667117 -1.0475185
-0.84427869 -3.5625322 -1.0478035
-0.86952788 -3.5712535 -1.0520788
-0.9126054 -3.6504655 -1.0780156
-0.91018718 -3.5482452 -1.0483736
-0.78569418 -2.9873772 -0.87764704
-0.81075513 -3.0074856 -0.8853426
-0.82689387 -2.9941397 -0.88277739
-0.85308522 -3.0166771 -0.89132798
-0.86730987 -2.9966559 -0.88676769
-1.0543399 -3.5601263 -1.0631946
-1.0928508 -3.6086273 -1.0802958
-1.1300099 -3.6503789 -1.0954018
-1.1552804 -3.6525147 -1.0982519
-1.1809144 -3.6553893 -1.1013871
-1.2126377 -3.6762905 -1.1102228
-1.072015 -3.1846418 -0.9583075
-1.0896654 -3.1725655 -0.95659739
-1.1037184 -3.1504431 -0.95175207
-1.1168956 -3.1264632 -0.94633669
-1.1291636 -3.1006398 -0.94035131
-1.1434939 -3.081074 -0.93636101
-1.1657709 -3.0829639 -0.93921119
-1.1881139 -3.0846965 -0.94206142
-1.2098215 -3.084486 -0.94434154
-1.3770849 -3.4481544 -1.0631946
-1.4014674 -3.4476304 -1.0657598
-1.4200287 -3.4327672 -1.0637646
-1.4395766 -3.4204559 -1.0626246
-1.4624245 -3.4159636 -1.0640496
-1.4829741 -3.4060473 -1.0637646
-1.5019038 -3.3925021 -1.0623395
-1.5238725 -3.3858447 -1.0631946
-1.5585848 -3.4069338 -1.0731703
-1.5818862 -3.4025207 -1.0748804
-1.5847076 -3.3546219 -1.0623395
-1.6164663 -3.3681638 -1.0700351
-1.6215518 -3.3263078 -1.0594894
-1.6415055 -3.3154366 -1.0592043
-1.6501852 -3.2821836 -1.0515088
-1.6532863 -3.2387068 -1.040393
-1.6890146 -3.2591336 -1.0506537
-1.7107664 -3.2521012 -1.0517938
-1.7297853 -3.2398522 -1.0512238
-1.7414081 -3.2140102 -1.0460935
-1.7717234 -3.2225802 -1.0526489
-1.7980042 -3.2233658 -1.0566392
-1.8186932 -3.2139409 -1.0572091
-1.8326501 -3.1927471 -1.0537889
-1.8502759 -3.1781292 -1.0526489
-1.8599896 -3.1502116 -1.0469484
-1.8733722 -3.1288729 -1.0435283
-1.8761115 -3.090286 -1.0341226
-1.8950379 -3.0787163 -1.0341226
-1.9128774 -3.0654047 -1.0335525
-1.9439548 -3.0730469 -1.040393
-1.9544917 -3.0481536 -1.0358328
-2.0092163 -3.0915477 -1.0554991
-1.9801451 -3.0063326 -1.0295624
-2.061378 -3.0881793 -1.0631946
-2.1146741 -3.1262748 -1.0814358
-2.1175525 -3.0895267 -1.0728853
-2.0773952 -2.9914656 -1.0421032
-2.0962632 -2.9794464 -1.0423882
-2.1467881 -3.0117884 -1.0589193
-2.1747713 -3.0117671 -1.0637646
-2.1937764 -2.9991398 -1.0640496
-2.2001491 -2.9694529 -1.0580642
-2.1895485 -2.9175742 -1.0438132
-2.2016065 -2.8964553 -1.0409631
-2.2316213 -2.898838 -1.0469484
-2.2228343 -2.8510823 -1.0341226
-2.2390978 -2.8358853 -1.0335525
-2.257654 -2.82359 -1.0341226
-2.269506 -2.8029814 -1.0315574
-2.2963896 -2.8008597 -1.0361178
-2.3098571 -2.7822928 -1.0344076
-2.306524 -2.7438612 -1.025002
-2.3438263 -2.7537379 -1.0344076
-2.3694422 -2.7494671 -1.0383979
-2.3799639 -2.7276564 -1.0355477
-2.3896725 -2.7051022 -1.0324125
-2.4273202 -2.7139587 -1.0418181
-2.4574425 -2.7139306 -1.0478035
-2.4740486 -2.6988008 -1.0478035
-2.5009978 -2.6948073 -1.0523639
-2.5266776 -2.6891878 -1.0563542
-2.5490782 -2.6798825 -1.0589193
-2.5495117 -2.6476254 -1.0520788
-2.5630319 -2.6291876 -1.0509387
-2.5979741 -2.6325083 -1.0589193
-2.5693517 -2.5717776 -1.0401081
-2.6184926 -2.5889759 -1.0540739
-2.6260977 -2.5648263 -1.0506537
-2.6383355 -2.5453379 -1.0492287
-2.6587625 -2.5337288 -1.0512238
-2.6749573 -2.518024 -1.0515088
-2.6896551 -2.500911 -1.0512238
-2.7098927 -2.4888976 -1.053219
-2.7307942 -2.4773736 -1.0554991
-2.7466578 -2.4612105 -1.0557841
-2.7638617 -2.4462163 -1.0566392
-2.7766538 -2.4273195 -1.0557841
-2.8016553 -2.4190032 -1.0597744
-2.8091497 -2.3955498 -1.0569242
-2.809129 -2.3659234 -1.0512238
-2.815485 -2.3419023 -1.0480886
-2.8312833 -2.3257992 -1.0486586
-2.8544357 -2.3156266 -1.0520788
-2.87308 -2.3016629 -1.0537889
-2.882637 -2.2804239 -1.0520788
-2.8807087 -2.2503071 -1.0460935
-2.9035718 -2.2396111 -1.0495137
-2.9035299 -2.2113037 -1.0443833
-2.9063156 -2.185385 -1.040393
-2.9935715 -2.2223375 -1.0677549
-3.0759742 -2.2543347 -1.0931216
-3.0035288 -2.1730788 -1.0614845
-3.1221313 -2.2297821 -1.0999621
-3.04094 -2.1437857 -1.0654747
-3.0422323 -2.1168783 -1.0611994
-3.1033726 -2.1312571 -1.0785856
-3.0965509 -2.098737 -1.0714601
-3.1117609 -2.0812953 -1.0723152
-3.0956674 -2.0431638 -1.0620545
-3.0944884 -2.0152426 -1.0572091
-3.1422844 -2.0190043 -1.0697501
-3.1481357 -1.9955822 -1.0674698
-3.1554439 -1.9731803 -1.0657598
-3.1674917 -1.9537817 -1.0657598
-3.1745062 -1.931322 -1.0640496
-3.1435487 -1.8861761 -1.0492287
-3.1319606 -1.8531923 -1.0412481
-3.1689425 -1.8489063 -1.0500838
-3.1935236 -1.8370702 -1.054644
-3.2380927 -1.8363438 -1.0660448
-3.2392576 -1.8108312 -1.0626246
-3.2754974 -1.8047907 -1.0711751
-3.2881949 -1.785573 -1.0717452
-3.3261378 -1.7798265 -1.0808657
-3.3531084 -1.767873 -1.0862812
-3.4004753 -1.7662529 -1.098537
-3.4658694 -1.7732803 -1.1167783
-3.5160658 -1.771811 -1.1298891
-3.4847929 -1.7293377 -1.1159232
-3.5582159 -1.7386234 -1.1367296
-3.577456 -1.7209104 -1.1395798
-3.6537967 -1.7300837 -1.1612412
-3.7103968 -1.7290771 -1.1763473
-3.7610204 -1.7246454 -1.1894581
-3.8292048 -1.7275355 -1.2082694
-3.9115834 -1.7358699 -1.2316409
-5.0933328 -2.2226186 -1.6115717
-4.0479932 -1.7372278 -1.2689785
-4.186645 -1.766351 -1.3103063
-4.1982899 -1.7409959 -1.3105913
-4.3021059 -1.753161 -1.3405184
-4.4080057 -1.7648282 -1.3710154
-4.379499 -1.7223223 -1.3584745
-4.4320135 -1.7116376 -1.3718704
-4.495317 -1.7044481 -1.3886865
-4.5308461 -1.6861882 -1.3966671
-4.569921 -1.6688704 -1.4057877
-4.6378312 -1.661474 -1.424029
-4.7537541 -1.6701343 -1.4573762
-4.8817363 -1.6814885 -1.4944288
-5.0727005 -1.7124745 -1.5511476
-5.2742329 -1.7444867 -1.6110016
-5.2200909 -1.6911312 -1.5907652
-5.4012351 -1.7132282 -1.6440638
-5.5581222 -1.7254957 -1.689667
-5.6025419 -1.7016594 -1.7002126
-5.6634169 -1.6822522 -1.7158887
-5.7408328 -1.6669693 -1.7366951
-5.8072057 -1.6476616 -1.7540812
-5.8596992 -1.6237646 -1.7671921
-6.0462871 -1.6355522 -1.8216308
-6.1507454 -1.6233544 -1.8507028
-6.3443961 -1.6328551 -1.9071367
-6.4379745 -1.6148697 -1.9327884
-6.433794 -1.5719267 -1.9285131
-6.4656992 -1.5377389 -1.9353535
-6.4647403 -1.4956623 -1.9322183
-6.5037222 -1.4626923 -1.9413389
-6.5069556 -1.4215322 -1.9396288
-6.5258703 -1.3837647 -1.942764
-6.5492606 -1.3467833 -1.9473244
-6.5489407 -1.3048881 -1.9447591
-6.5370584 -1.2608713 -1.9387738
-6.5625758 -1.2240731 -1.9441891
-6.5444922 -1.179198 -1.9364936
-6.5393276 -1.1368874 -1.9327884
-6.5631967 -1.0995893 -1.9379187
-6.5726595 -1.0597548 -1.9387738
-6.5818796 -1.0198457 -1.9396288
-6.5918059 -0.98000401 -1.940769
-6.5938993 -0.93899912 -1.9396288
-6.6052356 -0.89929688 -1.9413389
-6.6049256 -0.85801113 -1.9396288
-6.6338487 -0.82040489 -1.9467543
-6.6378055 -0.77957326 -1.9464693
-6.6453218 -0.73914713 -1.9473244
-6.6554518 -0.69895798 -1.9490345
-6.6605692 -0.65820187 -1.9493195
-6.6549377 -0.61643857 -1.9464693
-6.6595502 -0.57567543 -1.9467543
-6.6648679 -0.53495538 -1.9473244
-6.6622896 -0.49362651 -1.9456142
-6.6766686 -0.45351568 -1.9490345
-6.6869793 -0.41301125 -1.9513146
-6.6960874 -0.37234432 -1.9533098
-6.701118 -0.33139241 -1.9541649
-6.7068558 -0.29043412 -1.9553049
-6.7056379 -0.24916987 -1.9544498
-6.7079988 -0.2080497 -1.9547348
-6.7014828 -0.16669692 -1.9524547
-6.6947126 -0.12543194 -1.9501746
-6.6943979 -0.084339693 -1.9498895
-6.6717854 -0.043117382 -1.9430491
-6.6508369 -0.0021760454 -1.9367787
-6.6766047 0.038787607 -1.9444741
-6.6599474 0.079556279 -1.9396288
-6.6535835 0.12031447 -1.9379187
-6.6450543 0.16095081 -1.9356385
-6.6151991 0.20084338 -1.927088
-6.6301265 0.24202698 -1.9319333
-6.6285167 0.28270411 -1.9319333
-6.6247425 0.32327685 -1.9313632
-6.6274195 0.36418322 -1.9327884
-6.6250601 0.40484142 -1.9327884
-6.6253204 0.44567791 -1.9336435
-0 -0 -0
-0 -0 -0
-0 -0 -0
-0 -0 -0
-0 -0 -0
-0 0 -0
-6.4226084 0.07431633 -1.9471912
-6.4248967 0.11377387 -1.9480784
-6.4116626 0.15289888 -1.9442341
-0 0 -0
-6.4322152 0.2323947 -1.9513311
-0 0 -0
-6.4288793 0.31131038 -1.9513311
-6.4268479 0.35075137 -1.9513311
-6.4007368 0.38873291 -1.9439385
-6.4010906 0.42819089 -1.9448256
-6.3916736 0.46697235 -1.9427556
-6.3801169 0.50550359 -1.9400942
-6.3692808 0.54399186 -1.9377286
-6.3601151 0.58254039 -1.9359543
-6.3507166 0.62099689 -1.9341801
-0 0 -0
-6.3673058 0.70160198 -1.9418685
-0 0 -0
-0 0 -0
-0 0 -0
-0 0 -0
-6.3513007 0.89779043 -1.9445299
-6.3314967 0.93465269 -1.9400942
-6.3199778 0.97261298 -1.93832
-6.2912526 1.0077485 -1.931223
-6.2774119 1.0450774 -1.9288573
-6.2671161 1.0829248 -1.9276745
-6.2603536 1.1213588 -1.9276745
-6.2467804 1.1585314 -1.9256046
-6.2461214 1.1980984 -1.9276745
-6.2358413 1.2358445 -1.9267874
-6.2253332 1.2735094 -1.9259002
-6.2080545 1.3097119 -1.9229432
-6.1924334 1.3461564 -1.9205775
-6.1821928 1.3837098 -1.9199861
-6.1698623 1.4207598 -1.9188033
-6.1684651 1.4603508 -1.9211689
-6.1556759 1.4972694 -1.9199861
-6.1482263 1.5354745 -1.9205775
-6.12851 1.5705625 -1.9173248
-6.1252251 1.609836 -1.9193947
-6.1060081 1.6449051 -1.9164376
-6.1123757 1.6869134 -1.9217603
-6.1147799 1.7280227 -1.9259002
-6.1040621 1.7655097 -1.9259002
-6.0995264 1.8048272 -1.9279703
-6.0764508 1.8386234 -1.924126
-6.0568409 1.8733333 -1.9214647
-6.031569 1.906145 -1.917029
-6.0170321 1.942238 -1.9161419
-5.9913921 1.9746368 -1.9117063
-5.9954615 2.0168436 -1.917029
-5.9721308 2.0498722 -1.9134805
-5.9522271 2.0839531 -1.9111149
-5.9384289 2.1201148 -1.9108192
-5.9055591 2.1493261 -1.9043136
-5.8949466 2.186518 -1.9052007
-5.89393 2.2273746 -1.9093406
-5.8605385 2.2559483 -1.902835
-5.8545909 2.2950027 -1.9054965
-5.8350749 2.3287585 -1.9037222
-5.8383775 2.3717074 -1.9096364
-5.8263636 2.408581 -1.9105234
-5.822042 2.4487293 -1.9140719
-5.802516 2.482528 -1.9125934
-5.7950583 2.5215147 -1.9152548
-5.7768564 2.5558655 -1.9143677
-5.7427692 2.5830357 -1.9081578
-5.7354999 2.6221955 -1.9111149
-5.7123718 2.6541188 -1.9087492
-5.6959786 2.6891193 -1.9087492
-5.685401 2.7269101 -1.9108192
-5.6745734 2.764672 -1.9128891
-5.6506534 2.7960496 -1.9105234
-5.647902 2.8379593 -1.9155505
-5.6133633 2.8638792 -1.9096364
-5.6041679 2.9026611 -1.9125934
-5.5676494 2.9272141 -1.9060879
-5.5504265 2.9617712 -1.9063835
-5.517868 2.98804 -1.9013565
-5.5094767 3.0273604 -1.904905
-5.4966383 3.0643649 -1.9069749
-5.4586067 3.0872188 -1.9001737
-5.4495049 3.1263578 -1.9037222
-5.442605 3.1669424 -1.9081578
-5.424716 3.2012489 -1.9087492
-5.4148083 3.2403598 -1.9122977
-5.3964572 3.2745144 -1.9128891
-5.3746362 3.3065639 -1.9122977
-5.3420877 3.3318975 -1.9078621
-5.3271952 3.3681862 -1.909932
-5.311254 3.4039023 -1.9117063
-5.2822571 3.4312243 -1.9087492
-5.2634978 3.4651468 -1.9096364
-5.2381635 3.4947271 -1.9081578
-5.2118731 3.5235922 -1.9063835
-5.1980357 3.5609035 -1.9093406
-5.1705952 3.5889184 -1.9072707
-5.1508207 3.6222255 -1.9081578
-5.1323886 3.6565335 -1.9096364
-5.1129546 3.6901922 -1.9108192
-5.0879021 3.719804 -1.909932
-5.0718913 3.7560692 -1.9125934
-5.0449281 3.7842531 -1.9111149
-5.0185704 3.8128254 -1.909932
-5.0018954 3.8487897 -1.9125934
-4.9736643 3.8758855 -1.9108192
-4.9460387 3.9033716 -1.9093406
-4.9122934 3.9258938 -1.9054965
-4.8955383 3.9619703 -1.9084535
-4.8644857 3.9864852 -1.9057921
-4.837728 4.0144281 -1.904905
-4.8151994 4.0458798 -1.9057921
-4.7917385 4.0765867 -1.9063835
-4.7680826 4.1071587 -1.9069749
-4.7449517 4.1382213 -1.9078621
-4.7101612 4.1590385 -1.9040179
-4.6909633 4.1935911 -1.9066793
-4.6594772 4.2171674 -1.9043136
-4.6433744 4.2547126 -1.9084535
-4.6185813 4.2844229 -1.9090449
-4.5713143 4.2930636 -1.9001737
-4.5407324 4.3170829 -1.8983995
-4.5162225 4.3468504 -1.8992865
-4.4942555 4.3791461 -1.9013565
-4.4781828 4.4173727 -1.9060879
-4.4476142 4.4413924 -1.9046093
-4.4088569 4.4570541 -1.8995823
-4.3847647 4.4874382 -1.9010608
-4.3531666 4.5101347 -1.8992865
-4.3306851 4.5422912 -1.9016522
-4.3014226 4.5673871 -1.9010608
-4.2668095 4.5867004 -1.8981037
-4.2340612 4.6078711 -1.8960338
-4.2012134 4.6288128 -1.8939638
-4.1803851 4.6630387 -1.8975123
-4.1497946 4.6864557 -1.8966252
-4.1247344 4.7161446 -1.8983995
-4.0988417 4.7449789 -1.899878
-4.0677896 4.7678595 -1.8989909
-4.0390739 4.7934599 -1.8992865
-4.005919 4.8137474 -1.8975123
-3.969028 4.829381 -1.8939638
-3.9411268 4.8558688 -1.894851
-3.9136474 4.8829408 -1.8960338
-3.8842056 4.9076118 -1.8963295
-3.8599029 4.938879 -1.8992865
-3.8382807 4.9738131 -1.9037222
-3.818691 5.0117073 -1.9093406
-3.7700634 5.0113802 -1.9001737
-3.7381039 5.0328851 -1.8995823
-3.7065873 5.0549564 -1.8992865
-3.6648574 5.0629025 -1.8936681
-3.6370554 5.0899577 -1.8954424
-3.5996985 5.1035919 -1.8921895
-3.5617654 5.1161752 -1.8886411
-3.5292239 5.1363592 -1.8880496
-3.5024672 5.1650329 -1.8907111
-3.4574261 5.1665792 -1.8833183
-3.4330297 5.1988559 -1.8874582
-3.392199 5.2062173 -1.8824311
-3.3803389 5.2582707 -1.8939638
-3.3326607 5.2547126 -1.8850926
-3.3125169 5.294498 -1.8921895
-3.2694316 5.2976527 -1.8859797
-3.2458057 5.3323011 -1.8913025
-3.2086005 5.3447456 -1.8886411
-3.1757455 5.3643327 -1.8886411
-3.1418073 5.3820677 -1.8880496
-3.1068182 5.3979325 -1.8868668
-3.0778821 5.4243712 -1.8895282
-3.0482719 5.4498243 -1.8918939
-3.0166199 5.4717717 -1.8930767
-2.9811647 5.4868207 -1.8918939
-2.9501476 5.5100627 -1.8936681
-2.9140542 5.5238361 -1.8921895
-2.8827493 5.5466981 -1.8939638
-2.8451781 5.5574794 -1.8915981
-2.8088737 5.5705681 -1.8901196
-2.7695415 5.5774312 -1.886571
-2.7319095 5.5874543 -1.8842055
-2.7025468 5.6144404 -1.887754
-2.6635463 5.6214218 -1.8845011
-2.6285999 5.6367931 -1.8842055
-2.5927684 5.6502113 -1.8833183
-2.5549054 5.659049 -1.8809526
-2.525563 5.6868415 -1.8850926
-2.4825909 5.6838474 -1.8788826
-2.4454064 5.693707 -1.8771085
-2.4100528 5.7077246 -1.8768127
-2.3819442 5.7391682 -1.8824311
-2.3380246 5.7324471 -1.8753341
-2.3038733 5.7493453 -1.8762213
-2.2692523 5.765151 -1.8768127
-2.2279792 5.7638197 -1.8717858
-2.1993513 5.7952437 -1.8776999
-2.1810939 5.8551784 -1.8930767
-2.1474223 5.8747311 -1.8951466
-2.1097229 5.8833008 -1.8936681
-2.069463 5.8844204 -1.8898239
-2.029269 5.8852673 -1.8859797
-1.9964844 5.9075627 -1.8892325
-1.9595981 5.9178882 -1.8886411
-1.9253131 5.936161 -1.8907111
-1.8845153 5.934206 -1.8862754
-1.8455158 5.9374475 -1.8836141
-1.8087716 5.9477458 -1.8833183
-1.7725152 5.9596481 -1.8836141
-1.7319127 5.9566526 -1.8791784
-1.695853 5.9690051 -1.8797698
-1.6602179 5.9829803 -1.8809526
-1.6149814 5.9617052 -1.8708986
-1.5805682 5.9798145 -1.87356
-1.5431315 5.9866252 -1.8726728
-1.5005487 5.9728189 -1.8652802
-1.464099 5.9828415 -1.8655758
-1.4293543 6.0000758 -1.8682373
-1.3905702 6.0003576 -1.8655758
-1.3549865 6.0143685 -1.8673501
-1.316219 6.0141711 -1.8646888
-1.2798876 6.0249372 -1.8655758
-1.2448235 6.0420332 -1.8685329
-1.2090364 6.0561147 -1.8706028
-1.1714913 6.0615435 -1.8700114
-1.1342763 6.0686178 -1.8700114
-1.0987166 6.0848637 -1.8729686
-1.0654608 6.1150179 -1.8803612
-1.0290276 6.1280351 -1.8824311
-0.98637563 6.1031137 -1.8726728
-0.9521361 6.129818 -1.8791784
-0.91718322 6.1534967 -1.8847969
-0.87697721 6.1419864 -1.8794742
-0.83552492 6.1198034 -1.8708986
-0.80351514 6.1674418 -1.8842055
-0.76530433 6.1694121 -1.8833183
-0.72765881 6.175889 -1.8839097
-0.69038665 6.1859341 -1.885684
-0.65241748 6.1900535 -1.885684
-0.61385763 6.1882367 -1.8839097
-0.57357407 6.1671562 -1.8762213
-0.53696263 6.184835 -1.880657
-0.49761987 6.1708741 -1.8753341
-0.46123779 6.1938167 -1.8815441
-0.42368063 6.2032013 -1.8836141
-0.38667804 6.222846 -1.8889368
-0.34795356 6.2155638 -1.8859797
-0.31042784 6.2299852 -1.8898239
-0.27219552 6.2317724 -1.8898239
-0.23406063 6.2361894 -1.8907111
-0.19323897 6.1563497 -1.8655758
-0.15705609 6.2204475 -1.8850926
-0.1189035 6.222249 -1.8853883
-0.080933943 6.2391 -1.8904153
-0.042617071 6.2347026 -1.8889368
-0.0043506385 6.2214732 -1.8847969
0.033905797 6.2366667 -1.8895282
0.072139643 6.2334757 -1.8886411
0.10939178 6.1765633 -1.8711942
0.14708397 6.1671805 -1.8685329
0.18572238 6.1928978 -1.8768127
0.22234049 6.1534553 -1.8649844
0.26005292 6.151021 -1.8646888
0.29783612 6.1502633 -1.8649844
0.33520383 6.141643 -1.8629144
0.37276623 6.1375637 -1.862323
0.41099191 6.1437392 -1.8649844
0.44875097 6.1420546 -1.8652802
0.48650485 6.1401377 -1.8655758
0.52465826 6.1427479 -1.8673501
0.56294912 6.1460724 -1.8694201
0.60065007 6.1425023 -1.8694201
0.64030325 6.1577044 -1.8753341
0.67744678 6.1479626 -1.87356
0.71317017 6.1266103 -1.8682373
0.74958676 6.112637 -1.8652802
0.79061794 6.1353989 -1.8738557
0.8265872 6.1181254 -1.8700114
0.86865574 6.1450982 -1.8800656
0.90746057 6.147213 -1.8824311
0.941531 6.1179247 -1.8750385
0.982979 6.1365576 -1.8827269
1.0192024 6.1219296 -1.8800656
1.0560962 6.1117954 -1.8788826
1.0945878 6.1108422 -1.880657
1.1310178 6.0983753 -1.8788826
1.1666166 6.0819387 -1.8759257
1.2052121 6.0812254 -1.8779956
1.2403978 6.0634208 -1.8747427
1.2783675 6.0594349 -1.8759257
1.3165377 6.0561442 -1.8774042
1.3542985 6.0507488 -1.8782912
1.3898996 6.0358086 -1.8762213
1.4255884 6.0215888 -1.8744471
1.4638636 6.0182977 -1.8762213
1.5014578 6.0119829 -1.8771085
1.5368959 5.9971046 -1.8753341
1.5758493 5.9958768 -1.8779956
1.6133549 5.988862 -1.8788826
1.6480389 5.9714828 -1.8765171
1.6846482 5.9612584 -1.8765171
1.7196019 5.945303 -1.8747427
1.7549653 5.9309759 -1.87356
1.7891111 5.9127812 -1.8711942
1.8267686 5.9062552 -1.8726728
1.8626866 5.8940244 -1.8723772
1.8929489 5.8643017 -1.8664629
1.9324834 5.8634639 -1.8700114
1.9617251 5.8315763 -1.8635058
2.0083225 5.8510542 -1.8738557
2.0482891 5.8503423 -1.8776999
2.0818996 5.8313665 -1.8756299
2.1140478 5.8086076 -1.8723772
2.1473238 5.789257 -1.8703072
2.1878703 5.7893767 -1.8747427
2.2240384 5.7776265 -1.8753341
2.2618873 5.7700968 -1.8774042
2.291939 5.7428007 -1.8729686
2.3285708 5.7321701 -1.8741513
2.3644288 5.7195401 -1.8747427
2.3987381 5.7031631 -1.8741513
2.4333112 5.687459 -1.8738557
2.4635899 5.6619101 -1.8703072
2.5036948 5.6589174 -1.8744471
2.5391536 5.6451912 -1.8750385
2.5769212 5.6364555 -1.8774042
2.6110549 5.6196713 -1.8771085
2.6491573 5.6113191 -1.8797698
2.683538 5.5949588 -1.8797698
2.7186542 5.5801053 -1.8803612
2.7541127 5.5658875 -1.8812484
2.7843528 5.5412011 -1.878587
2.8196027 5.5265656 -1.8794742
2.8473098 5.4972844 -1.8753341
2.8796535 5.4771738 -1.8744471
2.9096093 5.4526587 -1.8720814
2.935734 5.4212623 -1.8673501
2.9758427 5.4157057 -1.8717858
3.0113423 5.4015164 -1.8732642
3.038316 5.3721275 -1.8694201
3.0678942 5.3475828 -1.8673501
3.1040113 5.3344378 -1.8694201
3.1395972 5.3202281 -1.8711942
3.1741443 5.304143 -1.8723772
3.2081168 5.2870169 -1.8732642
3.2440004 5.2729282 -1.8753341
3.2818537 5.2618408 -1.878587
3.3110154 5.2367597 -1.8768127
3.3446314 5.2187581 -1.8776999
3.3745089 5.1949329 -1.8765171
3.4120984 5.1829071 -1.8797698
3.4454262 5.164257 -1.880657
3.4845383 5.154099 -1.8847969
3.5112393 5.1255283 -1.8821355
3.5371761 5.0960393 -1.8791784
3.5606859 5.0632997 -1.8750385
3.5955665 5.0468025 -1.8771085
3.6247883 5.0223217 -1.8762213
3.6606102 5.0069265 -1.8788826
3.6895578 4.9820681 -1.8779956
3.7194846 4.9585714 -1.8776999
3.7544625 4.941741 -1.8800656
3.7858789 4.9201255 -1.880657
3.8171711 4.8983102 -1.8812484
3.8406456 4.8665471 -1.8779956
3.8680484 4.8399048 -1.8768127
3.89587 4.8138518 -1.8759257
3.931994 4.7979846 -1.8791784
3.9570899 4.7686219 -1.8771085
3.9899621 4.7486401 -1.8788826
4.0289273 4.7357111 -1.8836141
4.0529218 4.7051101 -1.8812484
4.072926 4.6700735 -1.8771085
4.1122522 4.6571689 -1.8821355
4.1643062 4.6582012 -1.8930767
4.1748624 4.6127291 -1.8847969
4.197279 4.5806866 -1.8821355
4.2363501 4.5667529 -1.8871626
4.2655993 4.5420661 -1.887754
4.2894397 4.5116529 -1.8859797
4.3210163 4.4893785 -1.887754
4.3424816 4.4566226 -1.8850926
4.367733 4.4278536 -1.8842055
4.398869 4.405026 -1.8859797
4.4264941 4.378624 -1.8862754
4.4519114 4.3500457 -1.885684
4.4771442 4.3213205 -1.8850926
4.5035748 4.2937679 -1.8850926
4.5235777 4.260159 -1.8824311
4.5496325 4.2323227 -1.8824311
4.5762196 4.2049732 -1.8827269
4.6068859 4.1813097 -1.8847969
4.6353002 4.1555142 -1.8859797
4.6764441 4.1409278 -1.8924853
4.6809125 4.0939164 -1.8839097
4.7081127 4.0669913 -1.8847969
4.7329788 4.0380263 -1.8847969
4.7562056 4.0076785 -1.8842055
4.7865806 3.9833081 -1.886571
4.8160973 3.9581094 -1.8886411
4.8447433 3.9320962 -1.8904153
4.8665428 3.9005029 -1.8895282
4.8926315 3.8723476 -1.8904153
4.9253311 3.8493135 -1.8939638
4.9405389 3.8125997 -1.8907111
4.9691582 3.7862663 -1.892781
4.9861898 3.7511101 -1.8904153
5.0160141 3.7255716 -1.8930767
5.0295353 3.6879447 -1.8895282
5.0474267 3.6536534 -1.887754
5.0744133 3.6259468 -1.8895282
5.1004691 3.5974958 -1.8910067
5.1247993 3.5677698 -1.8918939
5.1489558 3.5378807 -1.892781
5.1666141 3.5035396 -1.8913025
5.195159 3.4765539 -1.8939638
5.2267556 3.4514554 -1.897808
5.2374306 3.4125395 -1.8939638
5.2550569 3.3782725 -1.892781
5.2805266 3.3490345 -1.8945552
5.3042154 3.3185978 -1.895738
5.3252912 3.2864909 -1.8960338
5.3478045 3.255244 -1.8969209
5.3709536 3.2243361 -1.8981037
5.3873487 3.189373 -1.8969209
5.4026918 3.1538486 -1.8954424
5.4178023 3.1182561 -1.8939638
5.4476342 3.0910838 -1.897808
5.4631634 3.0557339 -1.8966252
5.4793005 3.0207713 -1.895738
5.4884996 2.9820769 -1.8924853
5.5184841 2.9546573 -1.8966252
5.546648 2.9260902 -1.9001737
5.5797548 2.8999321 -1.9054965
5.6152997 2.874784 -1.9117063
5.6098037 2.8286607 -1.9037222
5.601387 2.7814391 -1.894851
5.6406603 2.7579281 -1.9025394
5.6566157 2.7228515 -1.9022436
5.6568146 2.6803191 -1.8966252
5.6835432 2.6504047 -1.9001737
5.7083812 2.6194658 -1.9031308
5.7243462 2.5843906 -1.9031308
5.7322388 2.545728 -1.9004694
5.756505 2.5143318 -1.9034264
5.7779684 2.4816024 -1.9054965
5.7930865 2.4461029 -1.9054965
5.8141623 2.4130747 -1.9075664
5.820014 2.3737462 -1.9046093
5.8318095 2.3369243 -1.9037222
5.8433723 2.3000472 -1.902835
5.860939 2.2655275 -1.9040179
5.8872333 2.2342689 -1.9081578
5.9079928 2.2007718 -1.9105234
5.9204884 2.1641514 -1.9102278
5.9426475 2.1310084 -1.9131849
5.9619193 2.0967238 -1.9152548
5.969254 2.058234 -1.9134805
5.9844856 2.0224862 -1.9143677
5.9985962 1.9863288 -1.9149591
6.0070367 1.9483056 -1.9137763
6.020699 1.9119889 -1.9143677
6.0432639 1.8784138 -1.9179162
6.0583315 1.8424096 -1.919099
6.0686069 1.8049294 -1.9188033
6.0795674 1.7676591 -1.9188033
6.0801911 1.7274499 -1.9155505
6.0787101 1.6867887 -1.9117063
6.0972438 1.6517072 -1.9143677
6.1155758 1.6164616 -1.917029
6.1281538 1.5796223 -1.9179162
6.1405106 1.5426893 -1.9188033
6.1424375 1.5031657 -1.9164376
6.1692009 1.4696554 -1.9220561
6.1734495 1.4306957 -1.9205775
6.1821117 1.3927891 -1.9205775
6.1952076 1.3558517 -1.9220561
6.2043447 1.3180116 -1.9223518
6.2151217 1.2804961 -1.9232389
6.2247353 1.2427109 -1.9238303
6.2303677 1.2041305 -1.9232389
6.2273097 1.1639478 -1.9199861
6.2418547 1.1270744 -1.9223518
6.2533584 1.089574 -1.9238303
6.2608681 1.0513418 -1.924126
6.2785177 1.0147357 -1.9276745
6.2770739 0.97501892 -1.9253088
6.2848282 0.93676692 -1.9259002
6.2828922 0.89710557 -1.9235346
6.2825994 0.85776192 -1.9217603
6.289639 0.8194434 -1.9223518
6.2945485 0.78083545 -1.9223518
6.293529 0.74152708 -1.9205775
6.304606 0.70363891 -1.9226475
6.3078547 0.66484112 -1.9223518
6.3089638 0.62584126 -1.9214647
6.2670288 0.58286923 -1.9072707
6.327589 0.5493657 -1.9250132
6.3365541 0.5109911 -1.9267874
6.3367119 0.4718881 -1.9259002
6.334723 0.43267208 -1.9244218
6.3467927 0.39438787 -1.9273788
6.354816 0.35575801 -1.9291531
6.3492465 0.31637806 -1.9267874
6.3558402 0.27762261 -1.9282659
6.3364224 0.23782909 -1.9217603
6.3482656 0.1992754 -1.9250132
6.3484139 0.16029526 -1.9247174
6.3359065 0.12108273 -1.9205775
6.3384404 0.082228966 -1.9211689
6.3560205 0.043454114 -1.9264917
6.3599882 0.0044564065 -1.9276745
6.3694487 -0.034619153 -1.9306316
6.3652954 -0.07365673 -1.9294487
6.3589931 -0.11261094 -1.9276745
6.3715525 -0.15194486 -1.9318144
6.3714547 -0.19106568 -1.9321102
6.3758907 -0.23036319 -1.9338844
6.382947 -0.26984319 -1.9365457
6.385942 -0.30923387 -1.9380243
6.3848782 -0.34846345 -1.93832
6.3969226 -0.38850152 -1.9427556
6.3972778 -0.42793608 -1.9436427
6.3964372 -0.46732008 -1.9442341
6.40202 -0.50723761 -1.9468956
6.4168715 -0.54805356 -1.9525141
6.4229012 -0.58828712 -1.955471
6.4125152 -0.62703592 -1.9534011
6.4123478 -0.66676551 -1.954584
6.403388 -0.70557553 -1.9531054
6.3714209 -0.74165136 -1.9445299
6.3923512 -0.78386939 -1.9525141
6.3902636 -0.82344347 -1.9534011
6.3860373 -0.86276573 -1.9536968
6.3692727 -0.90032971 -1.9501483
6.3570132 -0.93841779 -1.9480784
6.3473587 -0.976825 -1.9468956
6.3233237 -1.0128837 -1.9412771
6.2915468 -1.0474297 -1.933293
6.2558203 -1.0809736 -1.924126
6.1587987 -1.1031747 -1.895738
6.0448365 -1.1210921 -1.8620273
5.8577123 -1.1236211 -1.8052514
5.7963576 -1.1487745 -1.7881004
5.7302375 -1.1722608 -1.7694707
5.663115 -1.1947821 -1.7505454
5.5978012 -1.21693 -1.7322115
5.5231085 -1.2362361 -1.7109206
5.4800439 -1.2619582 -1.6996837
5.4443092 -1.288959 -1.6908123
5.5328341 -1.3458147 -1.721566
5.5170574 -1.377887 -1.7192004
5.5057225 -1.4110018 -1.7183132
5.4794068 -1.4401453 -1.7126948
5.4584761 -1.4705095 -1.7088506
5.4511919 -1.5044826 -1.709442
5.4253106 -1.5332271 -1.7041192
5.410295 -1.5648952 -1.702345
5.4005909 -1.5980626 -1.702345
5.377883 -1.6272975 -1.6982051
5.3559322 -1.6565962 -1.6943609
5.3374686 -1.6868382 -1.6916995
5.308836 -1.7136887 -1.6857853
5.2909627 -1.7438391 -1.6834197
5.2819738 -1.7768801 -1.6840111
5.2474794 -1.8011944 -1.6763227
5.2805085 -1.8488233 -1.6908123
5.2420745 -1.8715551 -1.6819412
5.2071524 -1.8951917 -1.6742527
5.19453 -1.9267743 -1.673957
5.1709929 -1.9542217 -1.6701128
5.1687112 -1.9896878 -1.6733656
5.1341701 -2.0126505 -1.6659729
5.1323714 -2.0483637 -1.6695215
5.1241312 -2.081614 -1.6709999
5.1024342 -2.1093669 -1.6680429
5.0955591 -2.1432273 -1.6701128
5.0665035 -2.1676903 -1.66479
5.0592389 -2.2014043 -1.66686
5.0316582 -2.2262228 -1.6621287
5.0213885 -2.2586217 -1.6633115
5.0204678 -2.295347 -1.6677471
5.0054231 -2.3257062 -1.6674515
4.9927864 -2.3571908 -1.6680429
4.9747834 -2.3861294 -1.66686
4.9523196 -2.4128439 -1.6641986
4.9434147 -2.4461505 -1.6662686
4.9069724 -2.4657154 -1.6588759
4.8908997 -2.4953437 -1.6585802
4.8737998 -2.5244281 -1.6579888
4.8632917 -2.5569525 -1.659763
4.8373971 -2.5813489 -1.6562146
4.845829 -2.6241722 -1.66479
4.8354969 -2.6570761 -1.66686
4.8241086 -2.689487 -1.6686343
4.8050208 -2.7176259 -1.6677471
4.7716827 -2.7375515 -1.661833
4.7333274 -2.7542882 -1.6541445
4.7146926 -2.7823086 -1.6535531
4.6950727 -2.8097136 -1.6526661
4.6997957 -2.8518479 -1.6606501
4.6854634 -2.8826334 -1.661833
4.6733618 -2.9148672 -1.663903
4.6570034 -2.9445086 -1.6644944
4.6332183 -2.96942 -1.6624244
4.6181154 -2.9998744 -1.6636072
4.5844612 -3.0181746 -1.6579888
4.5674448 -3.0473077 -1.6585802
4.5439124 -3.0720658 -1.656806
4.5194602 -3.0961101 -1.654736
4.5113649 -3.131408 -1.6588759
4.5030065 -3.1667228 -1.6630158
4.4671516 -3.1826539 -1.656806
4.4390182 -3.2038548 -1.6535531
4.4053946 -3.2208843 -1.6482304
4.3832455 -3.2461491 -1.6473433
4.360188 -3.2706904 -1.6461605
4.3400373 -3.2973826 -1.6461605
4.3265376 -3.3291929 -1.6488218
4.3180852 -3.3650718 -1.6535531
4.301856 -3.3950541 -1.6553274
4.2876596 -3.426753 -1.6579888
4.2776918 -3.4620109 -1.6624244
4.2371573 -3.4724512 -1.654736
4.2084193 -3.4922848 -1.6517789
4.1978831 -3.5272586 -1.6562146
4.1783442 -3.5548067 -1.6571016
4.165863 -3.5884819 -1.6609459
4.1495261 -3.6189983 -1.6633115
4.1100554 -3.6292174 -1.6562146
4.0877099 -3.6543679 -1.6562146
4.0609603 -3.675535 -1.6544403
4.0397396 -3.701674 -1.6550317
4.019752 -3.7289901 -1.6562146
3.9988849 -3.7555463 -1.6571016
2.3715672 -2.2550218 -0.97194612
2.3563094 -2.2682061 -0.97135472
2.3409791 -2.2812881 -0.97076327
3.8830707 -3.8304162 -1.6473433
3.8594947 -3.8541703 -1.6473433
3.8377888 -3.8798163 -1.6482304
3.8125751 -3.9019251 -1.647639
3.7733018 -3.9094374 -1.6408377
3.7466061 -3.9297509 -1.6396549
3.7158732 -3.9457119 -1.6366978
3.6844354 -3.9607444 -1.633445
3.6594169 -3.9825737 -1.6331493
3.6272066 -3.9964647 -1.6296008
3.6198347 -4.0378494 -1.6375849
3.5949907 -4.0599842 -1.6375849
3.5788167 -4.0920324 -1.6417248
