# .PCD v0.7 - Point Cloud Data file format
VERSION 0.7
FIELDS x y z
SIZE 4 4 4
TYPE F F F
COUNT 1 1 1
WIDTH 1512
HEIGHT 1
VIEWPOINT 0 0 0 1 0 0 0
POINTS 1512
DATA ascii
2.5769939 -7.0496826 -1.5449677
2.5475631 -7.1040435 -1.5536426
2.4932115 -7.0890822 -1.5468266
2.4560468 -7.1227465 -1.5509576
2.4054031 -7.11729 -1.5464135
2.3807597 -7.1895022 -1.5592194
2.340224 -7.2151432 -1.5616978
2.2757668 -7.1659551 -1.5476527
2.2369831 -7.1966019 -1.5513706
2.2001867 -7.2345304 -1.5567408
2.1607769 -7.2647753 -1.5604587
2.1186194 -7.2863522 -1.5623175
2.0647776 -7.2672148 -1.555295
2.0264282 -7.3023744 -1.5602521
1.9818395 -7.3156152 -1.5604587
1.9414161 -7.3446646 -1.5641764
1.8882523 -7.3251729 -1.5573604
1.8368317 -7.3109999 -1.5517837
1.7961252 -7.3392396 -1.5555015
1.7490174 -7.3415561 -1.5536426
1.7001812 -7.3359461 -1.5501313
1.6555669 -7.3481493 -1.5505444
1.613587 -7.3725061 -1.5536426
1.5699468 -7.3899245 -1.555295
1.5295111 -7.4233761 -1.5604587
1.485083 -7.4383783 -1.5616978
1.4356995 -7.4281373 -1.557567
1.380024 -7.3829479 -1.5460004
1.3380016 -7.4095707 -1.5499247
1.2861277 -7.3810129 -1.542076
1.2372483 -7.367537 -1.5375321
1.1859281 -7.3373203 -1.5294768
1.1375794 -7.3231883 -1.5249327
1.0921909 -7.3271275 -1.5243131
1.0467968 -7.3307853 -1.5236934
1.002326 -7.3409481 -1.5245197
0.95498747 -7.3294959 -1.5208018
0.90662217 -7.3080301 -1.5150186
0.86176389 -7.3134551 -1.5150186
0.81763327 -7.3254123 -1.5164644
0.77236211 -7.3273721 -1.5158447
0.72777426 -7.3358679 -1.5166709
0.68374592 -7.3509116 -1.518943
0.63718897 -7.3383975 -1.5154316
0.59199196 -7.3402185 -1.5150186
0.54694211 -7.3437128 -1.5150186
0.5020051 -7.3488832 -1.5154316
0.45684299 -7.3508482 -1.5152251
0.41238746 -7.3652358 -1.5177037
0.36640736 -7.3519921 -1.5143989
0.32103294 -7.348237 -1.5131596
0.27645358 -7.3637567 -1.5160513
0.23135751 -7.3682485 -1.5166709
0.18567201 -7.350945 -1.5127466
0.14056396 -7.3519459 -1.5127466
0.0956802 -7.3702803 -1.5164644
0.05065098 -7.3991027 -1.5224541
0.0053284331 -7.5020099 -1.5441415
-0.040876597 -7.5341892 -1.5509576
-0.08708223 -7.5318398 -1.5505444
-0.13257004 -7.4900761 -1.5418695
-0.17936334 -7.5243354 -1.5493052
-0.22359683 -7.4585452 -1.5356731
-0.26995692 -7.4736552 -1.5391845
-0.31613946 -7.4796786 -1.5408368
-0.36396575 -7.5176673 -1.5493052
-0.41019297 -7.5172462 -1.5497183
-0.45808777 -7.5438871 -1.5559146
-0.50038767 -7.4813828 -1.5433153
-0.54763657 -7.4967127 -1.5472397
-0.59347081 -7.4912605 -1.5468266
-0.63984114 -7.4923525 -1.5478593
-0.68473113 -7.476593 -1.5453808
-0.73582757 -7.5258098 -1.5567408
-0.78320479 -7.5328317 -1.5592194
-0.83016038 -7.5346918 -1.5606651
-0.87355 -7.5051594 -1.5555015
-0.92125076 -7.5132542 -1.5583931
-0.96720892 -7.5064898 -1.5581867
-1.0137734 -7.5042925 -1.5590128
-1.0554194 -7.4669285 -1.5524033
-1.1043581 -7.481607 -1.5569474
-1.1512848 -7.4814596 -1.5583931
-1.1982514 -7.4810176 -1.559839
-1.2460589 -7.4851065 -1.5623175
-1.2957937 -7.4994955 -1.5670681
-1.3407506 -7.4856248 -1.5658288
-1.3852295 -7.4695606 -1.5641764
-1.4325098 -7.4686079 -1.5658288
-1.4807813 -7.4721546 -1.5685139
-1.5267978 -7.4638867 -1.5687205
-1.5731722 -7.4572501 -1.5693401
-1.6216006 -7.4598866 -1.5720252
-1.6675568 -7.4507508 -1.5722318
-0.69036114 -2.9970803 -0.60972857
-0.70918858 -2.9946921 -0.61014169
-0.7224642 -2.9693682 -0.60559767
-1.8259666 -7.3117042 -1.5513706
-1.8710388 -7.3013105 -1.5515771
-0.77476037 -2.9470501 -0.60373878
-0.79231966 -2.9403512 -0.60332566
-0.81164759 -2.9401503 -0.60435838
-0.83366311 -2.9492383 -0.60745656
-2.1001041 -7.2611594 -1.5561211
-2.1457283 -7.2518897 -1.5569474
-1.0501444 -3.470021 -0.72580731
-1.0777755 -3.484077 -0.73035133
-2.2829754 -7.224227 -1.559839
-2.3293629 -7.2166009 -1.5612848
-2.3742118 -7.2040305 -1.5616978
-1.0781163 -3.2043273 -0.67417085
-1.0939463 -3.1865463 -0.67169231
-1.1076593 -3.163151 -0.66797447
-2.5914078 -7.2587814 -1.5875161
-2.6352289 -7.2409053 -1.587103
-1.1544682 -3.111953 -0.6611585
-1.1780368 -3.1167095 -0.66384357
-1.2090873 -3.1404693 -0.67086613
-1.2590389 -3.2113347 -0.68862903
-2.8615413 -7.1702943 -1.5902013
-2.9047472 -7.1507883 -1.5897881
-2.9216595 -7.0677247 -1.5749168
-2.948662 -7.0108819 -1.5660354
-1.2823005 -2.9966824 -0.64855921
-1.2959797 -2.9779916 -0.64608061
-1.3126447 -2.9664042 -0.64525443
-1.3248019 -2.9449089 -0.64215624
-3.1842976 -6.9651861 -1.5771888
-3.2277997 -6.9472914 -1.5776019
-3.272455 -6.9317789 -1.5786346
-3.3174644 -6.9168625 -1.5798739
-3.3645563 -6.9060526 -1.5821459
-3.409471 -6.8905401 -1.5833852
-3.4459763 -6.8581243 -1.5807
-3.4737647 -6.8089604 -1.5740906
-3.5231273 -6.8022881 -1.5776019
-3.5707176 -6.791801 -1.580287
-3.6206143 -6.7853022 -1.5840049
-3.6523969 -6.7448902 -1.5796673
-3.7017233 -6.7369308 -1.5831786
-3.7534711 -6.7328925 -1.5877227
-3.7845986 -6.6918492 -1.5833852
-3.8557718 -6.7211223 -1.596191
-3.9126842 -6.7244 -1.6028005
-3.9583457 -6.70785 -1.6046594
-3.9838562 -6.6574078 -1.5982565
-4.0388408 -6.6562605 -1.6040398
-4.0729423 -6.6205192 -1.6013547
-2.6280763 -4.2134795 -1.008775
-2.6554487 -4.1997557 -1.0093946
-2.6933095 -4.2023311 -1.0141451
-2.708385 -4.1693149 -1.0100142
-2.7204673 -4.1321864 -1.0048506
-2.7099347 -4.0616951 -0.99121857
-2.8186426 -4.169014 -1.0228201
-2.7706323 -4.0442786 -0.99534947
-2.8852108 -4.1566176 -1.0286033
-2.9140377 -4.1436386 -1.0298426
-2.9115913 -4.0866313 -1.0197219
-2.9446273 -4.0797973 -1.0226135
-2.9817309 -4.0782404 -1.026951
-3.0183434 -4.0755944 -1.0310819
-3.0526872 -4.0695214 -1.0343866
-3.0610278 -4.0288982 -1.0286033
-3.0898674 -4.0154686 -1.0300492
-3.18541 -4.0875072 -1.0544215
-3.2346745 -4.098609 -1.0626833
-3.2108982 -4.0175347 -1.0461597
-3.1517835 -3.894315 -1.0180695
-3.1532941 -3.8476574 -1.0106338
-3.1724703 -3.8229659 -1.0091881
-3.189574 -3.7959363 -1.0071226
-3.2540128 -3.8247368 -1.0205481
-3.3087075 -3.8410256 -1.0306689
-3.3598647 -3.8523612 -1.0395503
-3.3976858 -3.8478096 -1.0440943
-3.4049301 -3.8086519 -1.0389307
-3.4630311 -3.8261383 -1.0498775
-3.4566994 -3.7723529 -1.040583
-3.4298778 -3.6972697 -1.0250921
-3.4940248 -3.7203774 -1.0378979
-3.5376847 -3.7208519 -1.0443008
-3.5441656 -3.6821551 -1.0393437
-3.5728371 -3.6666467 -1.0412027
-3.5918326 -3.6411719 -1.04017
-3.6044283 -3.6093709 -1.0372783
-3.6251161 -3.5858104 -1.0368651
-3.637253 -3.5539258 -1.0339736
-3.4717381 -3.3507822 -0.97903234
-3.4957733 -3.3327928 -0.98006511
-3.4449327 -3.244195 -0.95941055
-3.4819663 -3.2389915 -0.96436763
-3.4931297 -3.2096207 -0.96188909
-3.5163801 -3.1914151 -0.9629218
-3.3996677 -3.0476353 -0.92429775
-3.3904693 -3.0020678 -0.91644901
-3.6194515 -3.1654446 -0.97552109
-3.6699028 -3.170042 -0.98419601
-3.834424 -3.2713084 -1.0244725
-3.9352283 -3.3158154 -1.0467794
-3.9216578 -3.2634406 -1.0374848
-3.947655 -3.2442868 -1.0391371
-3.972805 -3.2243197 -1.040583
-3.9741917 -3.1851952 -1.0356259
-4.0028672 -3.1680374 -1.0381044
-4.0068126 -3.1313655 -1.0339736
-3.9624362 -3.0577006 -1.0170368
-3.9678936 -3.0232482 -1.0135255
-3.9902782 -3.001786 -1.0145582
-3.9779897 -2.9544909 -1.006503
-3.9889419 -2.9248192 -1.004644
-4.002058 -2.8968458 -1.0034047
-4.0229416 -2.8745108 -1.004231
-4.0461001 -2.8537202 -1.0056767
-4.0643373 -2.8293991 -1.0058833
-4.2340283 -2.9091418 -1.0449204
-4.2202177 -2.8616891 -1.0368651
-4.1482534 -2.7758772 -1.0141451
-4.1554103 -2.7439013 -1.0116665
-4.1434774 -2.6996558 -1.0044374
-4.1780705 -2.6858222 -1.0089815
-4.2002554 -2.6638043 -1.0104274
-4.2231565 -2.642134 -1.0120797
-4.1909976 -2.5863643 -1.0001
-4.2452326 -2.5840049 -1.0096011
-4.3339877 -2.6017261 -1.0275706
-4.2943029 -2.5421832 -1.0139385
-4.2726421 -2.4940796 -1.0048506
-4.3497677 -2.5034499 -1.0199285
-4.3012247 -2.4404941 -1.0044374
-4.3502746 -2.4331639 -1.0126994
-4.3642654 -2.4059529 -1.0124928
-4.399579 -2.3903413 -1.0174499
-4.4607406 -2.388243 -1.0286033
-4.4519458 -2.3484995 -1.0230266
-4.409842 -2.291806 -1.0096011
-4.4813013 -2.2941363 -1.0232332
-4.5319858 -2.2851009 -1.031908
-4.5590663 -2.2637784 -1.0350063
-4.5245275 -2.2121212 -1.0236462
-4.4992256 -2.1656427 -1.0145582
-4.5363016 -2.1493087 -1.0201349
-4.5307832 -2.1127489 -1.0157975
-4.5063128 -2.0677671 -1.0071226
-4.6714029 -2.1089339 -1.042442
-4.5849996 -2.0361433 -1.0195153
-4.6180291 -2.0169809 -1.0242659
-4.7624712 -2.0453761 -1.0546281
-4.7794385 -2.018019 -1.0556608
-4.8369145 -2.007411 -1.0659881
-4.9098396 -2.0024555 -1.0798267
-4.7585568 -1.9067709 -1.0426484
-4.7665253 -1.8761034 -1.0418223
-4.8491302 -1.8743421 -1.0579329
-4.8605399 -1.8445531 -1.0579329
-4.8204217 -1.7955647 -1.0463663
-4.8304296 -1.7656174 -1.0461597
-4.8513031 -1.7395788 -1.0484318
-4.9043436 -1.7247139 -1.0579329
-4.9564576 -1.7089441 -1.0672274
-5.1791134 -1.75025 -1.1145264
-5.3783054 -1.7808869 -1.1564552
-5.531527 -1.7940469 -1.1880567
-5.5648117 -1.7671812 -1.1930138
-5.5830245 -1.7353268 -1.1946661
-5.6310105 -1.7124269 -1.2029279
-5.8421049 -1.7375475 -1.2471287
-5.9616399 -1.7333632 -1.271088
-6.1942797 -1.7598715 -1.3198328
-6.2341881 -1.7299432 -1.3262358
-7.4771047 -2.0255971 -1.595778
-6.7894011 -1.7946119 -1.442934
-6.8220763 -1.7585377 -1.4476846
-7.1838431 -1.8048773 -1.5241066
-7.3810563 -1.8063612 -1.5645895
-7.5319138 -1.7943779 -1.5949517
-7.5809083 -1.7569675 -1.6032135
-7.8339891 -1.7650557 -1.6556762
-8.1839809 -1.7912359 -1.729
-8.2866964 -1.7605104 -1.7488283
-8.4324627 -1.7374785 -1.7779512
-8.8085308 -1.758711 -1.8566452
-9.0987043 -1.7586758 -1.91675
-9.1545277 -1.711266 -1.9264576
-9.1898899 -1.6595846 -1.9318279
-9.1064005 -1.5868683 -1.9117929
-9.1767559 -1.5411744 -1.9248053
-9.2092209 -1.4885861 -1.9297624
-9.283926 -1.4422677 -1.9438075
-9.2664719 -1.3813791 -1.9382308
-9.2563705 -1.3218662 -1.9343064
-9.2575207 -1.2641183 -1.9328606
-9.2262936 -1.2022327 -1.9245987
-9.2635975 -1.1493345 -1.9310017
-9.2733908 -1.0928162 -1.9316213
-9.3090935 -1.0391529 -1.9378177
-9.3006983 -0.98047441 -1.9347194
-9.3094606 -0.92367792 -1.9353391
-9.3412571 -0.86898685 -1.9409158
-9.3756561 -0.81419438 -1.9471122
-9.32586 -0.7522434 -1.9355457
-9.3166399 -0.69398874 -1.932654
-9.3421984 -0.63827801 -1.937198
-9.3400793 -0.58057886 -1.9359587
-9.3229513 -0.5221085 -1.9316213
-9.3406382 -0.46562546 -1.9347194
-9.3247461 -0.40749121 -1.9307951
-9.3212051 -0.35004741 -1.9295559
-9.3456697 -0.29355446 -1.9343064
-8.7880812 0.64265633 -1.9315225
-8.741168 0.69316685 -1.9219167
-8.7396679 0.74703836 -1.9225717
-8.7203426 0.79931182 -1.919297
-8.7240143 0.85366029 -1.9212618
-8.7157011 0.90687037 -1.9206069
-8.7187023 0.96129555 -1.9225717
-8.7262096 1.0163567 -1.9256281
-8.6926889 1.0665494 -1.9195153
-8.6850128 1.1197418 -1.919297
-8.6779785 1.1730109 -1.919297
-8.6271372 1.2200809 -1.9094728
-8.6107998 1.2717086 -1.907508
-8.6394854 1.3301674 -1.9158039
-8.6369419 1.3840805 -1.9171139
-8.6292496 1.4372102 -1.9173322
-8.6029596 1.4871367 -1.9134026
-8.5850286 1.5383453 -1.9114376
-8.60709 1.5968719 -1.918642
-8.5683794 1.6441331 -1.9120927
-8.5456858 1.6942079 -1.9092546
-8.5360851 1.7468071 -1.9094728
-8.5395288 1.8021753 -1.9127476
-8.5168676 1.852049 -1.9101278
-8.4901066 1.9008592 -1.9066348
-8.4963512 1.9570822 -1.9107827
-8.5126705 2.0159283 -1.9173322
-8.5067778 2.0697389 -1.9188603
-8.4361668 2.1074612 -1.9055432
-8.4561615 2.1676705 -1.9131842
-8.4521389 2.2219982 -1.9153674
-8.4270391 2.2707694 -1.9127476
-8.3922529 2.3167181 -1.9079447
-8.4098072 2.377198 -1.9153674
-8.3763151 2.4233282 -1.9110011
-8.3640957 2.4755099 -1.911656
-8.3394089 2.5239563 -1.9094728
-8.3237648 2.5750785 -1.9094728
-8.2798939 2.617276 -1.9029235
-8.2831802 2.6743302 -1.907508
-8.2712488 2.7266328 -1.9085996
-8.227541 2.7683043 -1.9022685
-8.2233219 2.8231735 -1.9053249
-8.2067652 2.8739004 -1.9055432
-8.1843815 2.9225605 -1.9044516
-8.2121429 2.9894207 -1.9153674
-8.1570501 3.026171 -1.9066348
-8.1282873 3.0723679 -1.9042333
-8.1174784 3.1253412 -1.9061981
-8.0972404 3.1747339 -1.9059799
-8.0640144 3.2189293 -1.9027052
-8.0640001 3.2764328 -1.907508
-8.0302181 3.3202558 -1.9042333
-7.977313 3.3558388 -1.8963741
-8.002326 3.4243095 -1.907508
-7.9749007 3.4706197 -1.9059799
-7.9534554 3.5194874 -1.9059799
-7.9308205 3.567822 -1.9057615
-7.8892555 3.6074867 -1.9009587
-7.866972 3.6558266 -1.9009587
-7.8240972 3.694442 -1.8959374
-7.803041 3.7432246 -1.8963741
-7.8062425 3.8038607 -1.9029235
-7.8054943 3.8629446 -1.9085996
-7.7607193 3.9002454 -1.9033601
-7.7253423 3.9420233 -1.900522
-7.6715493 3.9740851 -1.8930993
-7.6573849 4.0265336 -1.8957192
-7.6764388 4.0968819 -1.9068531
-7.6262732 4.1304255 -1.900522
-7.5982203 4.1757312 -1.8998671
-7.5460353 4.2075381 -1.8930993
-7.5387616 4.2643332 -1.8979023
-7.5090685 4.308567 -1.897029
-7.481647 4.3540697 -1.8968107
-7.4539499 4.3993979 -1.8965924
-7.4092321 4.434525 -1.8920078
-7.4227586 4.5047178 -1.9027052
-7.4007959 4.5537586 -1.9042333
-7.355329 4.5882349 -1.8996488
-7.3303366 4.6353664 -1.900522
-7.3149009 4.6886849 -1.9040151
-7.2720833 4.7244401 -1.9003037
-7.2372527 4.7652144 -1.8987755
-7.2135596 4.813324 -1.9003037
-7.1758065 4.8520279 -1.8981205
-7.1346302 4.8882427 -1.8950641
-7.0996928 4.9285884 -1.8937542
-7.0389881 4.9507208 -1.8854584
-7.0243726 5.005146 -1.8898246
-6.9903646 5.0458674 -1.8889514
-6.94982 5.0817513 -1.8863317
-6.9310541 5.133594 -1.8898246
-6.9119129 5.1853971 -1.8933177
-6.8993893 5.2424731 -1.8987755
-6.8678656 5.2853036 -1.8989938
-6.8145261 5.3111444 -1.8930993
-6.7864051 5.3564858 -1.8944092
-6.7305441 5.3797436 -1.8878598
-6.7080264 5.4295368 -1.8909162
-6.6542087 5.4538894 -1.8850218
-6.6056018 5.4821496 -1.8806555
-6.6002269 5.5464387 -1.8889514
-6.5794468 5.5982175 -1.892881
-6.5353627 5.6302013 -1.8900429
-6.4845157 5.6560807 -1.8852401
-6.4577341 5.7028694 -1.8876415
-6.4226203 5.7423859 -1.8876415
-6.3793073 5.7744813 -1.8852401
-6.3667755 5.8346171 -1.8922261
-6.3244176 5.8675985 -1.8902613
-6.299675 5.916985 -1.8937542
-6.2484012 5.9414043 -1.8891697
-6.2378378 6.0046763 -1.8972473
-6.1603456 6.0033298 -1.8845851
-6.1254778 6.0430722 -1.8852401
-6.1124468 6.1046829 -1.892881
-6.046742 6.1136227 -1.8839302
-5.9907045 6.1317601 -1.8780357
-5.9997215 6.2168612 -1.8930993
-5.9554033 6.2472 -1.8911345
-5.9450536 6.3134675 -1.9003037
-5.9101901 6.3541145 -1.9016136
-5.8493061 6.3665419 -1.8944092
-5.8337374 6.4283314 -1.9022685
-5.7876716 6.456738 -1.9000853
-5.733068 6.4753218 -1.8950641
-5.7047901 6.523602 -1.8989938
-5.6844258 6.5813804 -1.9057615
-5.6338043 6.6042552 -1.9022685
-5.5969477 6.6431775 -1.9035784
-5.5498395 6.6698923 -1.9013953
-5.5106678 6.7060823 -1.9020503
-5.4903207 6.7655354 -1.9094728
-5.4426031 6.7914801 -1.9072897
-5.405067 6.8301048 -1.9088179
-5.3558474 6.8539128 -1.9061981
-5.3095193 6.8812375 -1.90467
-5.2624664 6.9074759 -1.9029235
-5.2217436 6.9419756 -1.9035784
-5.1947565 6.9950404 -1.9094728
-5.1500072 7.0244222 -1.9088179
-5.1148181 7.0669584 -1.9118743
-5.0622845 7.0855031 -1.9083813
-5.0198383 7.1180267 -1.9088179
-4.9838719 7.1599083 -1.9118743
-4.9403982 7.1911583 -1.9120927
-4.8994665 7.2261834 -1.9134026
-4.861546 7.2658434 -1.9160223
-4.8082709 7.2825055 -1.9125292
-4.7704191 7.3225017 -1.9153674
-4.7206516 7.3442459 -1.9134026
-4.6754994 7.3730731 -1.9134026
-4.6332755 7.4065871 -1.9147124
-4.5949154 7.4465046 -1.9177688
-4.5633407 7.4979014 -1.9238815
-4.5277934 7.5433331 -1.9284662
-4.4834108 7.5743327 -1.9293394
-4.4206214 7.5738845 -1.922135
-4.3852582 7.6203218 -1.9271562
-4.3268638 7.6267133 -1.9219167
-4.2909389 7.6727099 -1.9269379
-4.2616763 7.7313728 -1.9352338
-4.2067056 7.7436552 -1.9317409
-4.1549683 7.7615776 -1.9297761
-4.1172795 7.8059168 -1.9345789
-4.0814524 7.8544154 -1.9404734
-4.0425172 7.8975544 -1.945058
-3.9935431 7.9213386 -1.9448397
-3.940959 7.9378262 -1.9428748
-3.8771825 7.9311709 -1.9352338
-3.8305602 7.9592085 -1.9363254
-3.7845752 7.9887362 -1.9378536
-3.7367227 8.0144615 -1.9385086
-3.6907313 8.0443344 -1.940255
-3.6509356 8.0881777 -1.9454947
-3.6139081 8.1389694 -1.9524807
-3.5564821 8.1439981 -1.9483327
-3.5106788 8.1755304 -1.9507341
-3.4638634 8.2050104 -1.9526989
-3.4134533 8.2261095 -1.9526989
-3.3610728 8.2423811 -1.9516073
-3.2995508 8.235671 -1.945058
-3.2593157 8.2820978 -1.9513891
-3.2151182 8.3192358 -1.9555371
-3.1595128 8.3269453 -1.9526989
-3.1148291 8.3635511 -1.956847
-3.0560858 8.3623409 -1.952044
-3.0037303 8.3781786 -1.9513891
-2.9493539 8.3881655 -1.9494243
-2.900373 8.4134855 -1.9511708
-2.8502555 8.4357462 -1.9522623
-2.80212 8.4641943 -1.9548821
-2.7561498 8.499795 -1.9592483
-2.7006969 8.5063143 -1.956847
-2.6452682 8.5124741 -1.9544455
-2.5966756 8.5406837 -1.9572835
-2.5458901 8.562068 -1.9585934
-2.4908559 8.5690937 -1.9566286
-2.4384966 8.5851555 -1.956847
-2.3826442 8.5886707 -1.9542271
-2.3324499 8.6125488 -1.9564103
-2.2842951 8.6446257 -1.9605583
-2.227802 8.6452484 -1.9575019
-2.1773274 8.6691666 -1.9599034
-2.1203849 8.6671963 -1.9564103
-2.0662603 8.6762457 -1.9555371
-2.0132051 8.6897116 -1.9557554
-1.9607053 8.7057095 -1.9566286
-1.9082934 8.7223425 -1.9577202
-1.8514967 8.7186136 -1.9542271
-1.7940307 8.7106934 -1.9498609
-1.743603 8.7368498 -1.9533539
-1.6927366 8.7617569 -1.9566286
-1.6446751 8.8026762 -1.9636146
-1.5843961 8.7780275 -1.9557554
-1.5318439 8.7952757 -1.9575019
-1.4805924 8.8208704 -1.9612132
-1.423797 8.8134117 -1.9575019
-1.3647555 8.7901583 -1.9502975
-1.3151046 8.8273239 -1.956847
-1.2654622 8.8671093 -1.9640512
-1.2127445 8.8872766 -1.9668894
-1.1568056 8.8839064 -1.9644879
-1.1052718 8.9150486 -1.9699457
-1.0480413 8.9003401 -1.9651428
-0.99222153 8.8959351 -1.9627414
-0.93475974 8.8746805 -1.9566286
-0.88432598 8.9210367 -1.9657978
-0.83029234 8.9340687 -1.9675443
-0.77436352 8.9263563 -1.9647062
-0.71832585 8.9153757 -1.9612132
-0.66628289 8.9556236 -1.9692907
-0.611386 8.9605169 -1.9695091
-0.55645412 8.9650736 -1.9697274
-0.49904346 8.9254475 -1.9601216
-0.44480067 8.9390631 -1.9625231
-0.38934976 8.9279747 -1.9594667
-0.33335993 8.8980141 -1.9522623
-0.28061235 8.9593916 -1.9655795
-0.22504672 8.9375305 -1.9603399
-0.16977844 8.9163017 -1.9553187
-0.115365 8.9405956 -1.9605583
-0.060433112 8.9303999 -1.9581568
-0.0056301933 8.9188929 -1.9555371
0.0491172 8.9226627 -1.9564103
0.10449643 8.9758625 -1.9684175
0.15932469 8.9613924 -1.9653611
0.21444853 8.9660997 -1.966671
0.26887053 8.9451065 -1.9623047
0.32343274 8.9345112 -1.9603399
0.37733671 8.9109087 -1.9555371
0.43186373 8.9055014 -1.9548821
0.48676559 8.9075556 -1.9559736
0.54301471 8.9307013 -1.9618682
0.59832484 8.9349909 -1.9636146
0.65563321 8.9652157 -1.9712557
0.71140313 8.9707527 -1.9734387
0.7617718 8.9117689 -1.9612132
0.8151902 8.893322 -1.9581568
0.8718369 8.9095192 -1.9629596
0.92487031 8.8884716 -1.9594667
0.97864199 8.8758402 -1.9579384
1.0356843 8.8919621 -1.9629596
1.085704 8.8486328 -1.9546638
1.1426009 8.8621292 -1.9592483
1.1957787 8.8462486 -1.9572835
1.2468898 8.8165207 -1.9522623
1.3008207 8.8077393 -1.952044
1.359447 8.8294907 -1.9588118
1.4069529 8.7795496 -1.9494243
1.4620802 8.7784529 -1.9511708
1.5177462 8.7798939 -1.9535722
1.5724514 8.775218 -1.9546638
1.6243058 8.7548504 -1.9522623
1.6756017 8.7322607 -1.9494243
1.725732 8.7045851 -1.9454947
1.7826338 8.7110405 -1.9494243
1.8320174 8.6808424 -1.945058
1.8806828 8.6484594 -1.940255
1.9373401 8.6529455 -1.9439664
1.980315 8.5971518 -1.933924
2.0463042 8.6408644 -1.9468045
2.1027474 8.6423683 -1.9500792
2.1554999 8.6283569 -1.9498609
2.2091293 8.6178045 -1.9505159
2.266434 8.6210756 -1.9544455
2.3154788 8.5928726 -1.9511708
2.3730965 8.5963764 -1.9553187
2.4130504 8.5365791 -1.9448397
2.4406934 8.4363089 -1.9249731
2.5106988 8.4829311 -1.9393818
2.5590253 8.455224 -1.9365437
2.6195135 8.4673309 -1.9430932
2.6631796 8.425045 -1.9369804
2.7304225 8.4568348 -1.9483327
2.7779822 8.4269476 -1.9452763
2.8065982 8.3413019 -1.9291211
2.8716745 8.3645344 -1.9387269
2.9019716 8.2868919 -1.9245365
2.9507945 8.2634153 -1.9232266
2.9964333 8.2313995 -1.9199519
3.0686154 8.2714128 -1.933924
3.1155133 8.2423878 -1.9315225
3.1737456 8.2431507 -1.9363254
3.2142875 8.1980839 -1.9302126
3.2674246 8.1854572 -1.9319592
3.291131 8.1001625 -1.9162406
3.3374138 8.0717001 -1.9142758
3.402019 8.0870495 -1.9230083
3.4515762 8.0660229 -1.9230083
3.4885383 8.0160599 -1.9160223
3.5416083 8.0034275 -1.9182054
3.5926523 7.9859953 -1.919297
3.6444273 7.9700131 -1.9208251
3.6833887 7.9262629 -1.9155856
3.7302868 7.8999829 -1.9147124
3.7660239 7.8505511 -1.908163
3.7987297 7.7957158 -1.9003037
3.8607798 7.8011212 -1.907508
3.9212854 7.8025703 -1.9138391
3.9602137 7.7609792 -1.9094728
4.0064125 7.7339339 -1.9088179
4.0533376 7.7083421 -1.9085996
4.095963 7.6747174 -1.9064165
4.1369333 7.6382861 -1.9035784
4.1851339 7.615324 -1.9042333
4.2265525 7.5801258 -1.9018319
4.254241 7.5209255 -1.8933177
4.3095384 7.5107613 -1.8974656
4.3491602 7.4732132 -1.8946276
4.4118013 7.4749584 -1.9020503
4.4580851 7.448585 -1.9022685
4.4895253 7.3977327 -1.8961557
4.5517125 7.3974719 -1.9033601
4.6016665 7.3768549 -1.9053249
4.6379747 7.3344603 -1.9016136
4.6639285 7.2762895 -1.8937542
4.6983838 7.231988 -1.8896064
4.7254934 7.1769433 -1.8826203
4.7770262 7.1591768 -1.8856767
4.8099294 7.1135635 -1.8813105
4.8314195 7.0517178 -1.8725779
4.8885126 7.0419793 -1.8780357
4.9467902 7.0334015 -1.8839302
4.9915524 7.0053 -1.8845851
5.0407262 6.9832435 -1.8869866
5.0650439 6.9269772 -1.8800006
5.1074519 6.8957682 -1.8800006
5.1356096 6.8455667 -1.874761
5.1651158 6.7976108 -1.8701764
5.1983938 6.7549639 -1.86712
5.2535439 6.7406416 -1.8721412
5.3075037 6.7243643 -1.8767258
5.3529296 6.6970067 -1.8782541
5.3908505 6.6602435 -1.8771625
5.4043922 6.5938349 -1.8675567
5.4497361 6.5665569 -1.8693032
5.4886694 6.5315003 -1.8688666
5.5229502 6.4910111 -1.8669018
5.5639482 6.4584794 -1.8673383
5.6079631 6.4293652 -1.8688666
5.6621671 6.4116564 -1.8738878
5.7137618 6.390614 -1.8780357
5.7410765 6.3424134 -1.874106
5.7515297 6.2761345 -1.8647186
5.7779822 6.22785 -1.8607889
5.8140821 6.190146 -1.860134
5.8472466 6.149405 -1.8586059
5.884192 6.1127086 -1.8583875
5.9297619 6.0848742 -1.8610072
5.9690428 6.0504594 -1.8616621
6.0046759 6.0123391 -1.8612256
6.0400662 5.9740095 -1.8607889
6.0787029 5.9388819 -1.8614439
6.1227536 5.9089251 -1.8638453
6.1723175 5.8840375 -1.8679932
6.2331743 5.8694658 -1.8756343
6.2526345 5.815825 -1.8706131
6.2903581 5.7793307 -1.871268
6.3083553 5.7248874 -1.8660284
6.3535385 5.6951904 -1.8690848
6.3664412 5.6366944 -1.8625355
6.4141321 5.609086 -1.8664651
6.4432578 5.5651593 -1.8649369
6.4602056 5.5109549 -1.8599157
6.511066 5.485672 -1.8649369
6.5581069 5.456851 -1.8688666
6.5937281 5.4183669 -1.8695215
6.6223035 5.3741174 -1.8682116
6.6780019 5.3516879 -1.874761
6.7130094 5.312428 -1.8754159
6.7385583 5.2657309 -1.8734511
6.7491055 5.2075953 -1.8673383
6.7855897 5.1696334 -1.8686482
6.8304415 5.1378713 -1.8723595
6.8367653 5.0772486 -1.8653735
6.8803835 5.0444336 -1.8688666
6.8835344 4.9820995 -1.8612256
6.9370036 4.9562178 -1.8675567
7.0175314 4.9489861 -1.8813105
7.0373526 4.8985877 -1.8784723
7.0704951 4.8575249 -1.8793455
7.1098604 4.8206205 -1.8819654
7.1157823 4.7611694 -1.8756343
7.1562648 4.7249446 -1.8786906
7.177762 4.6761522 -1.8767258
7.2498317 4.6599827 -1.8882965
7.2692223 4.6096635 -1.885895
7.2742023 4.5504851 -1.8797822
7.3377008 4.5277972 -1.8891697
7.3311634 4.4618917 -1.8802189
7.3977323 4.440424 -1.8904796
7.4399562 4.4038944 -1.8944092
7.4499803 4.3483243 -1.8900429
7.4646783 4.2957177 -1.8869866
7.4841051 4.2459826 -1.8852401
7.5219421 4.2066483 -1.8882965
7.5476122 4.1604152 -1.8882965
7.5421252 4.0972595 -1.8804371
7.6067028 4.0720859 -1.8904796
7.6358614 4.0276113 -1.8915712
7.6535025 3.9770837 -1.8898246
7.6881862 3.9353824 -1.8924444
7.6738443 3.8688095 -1.8828386
7.6939421 3.8199153 -1.8819654
7.7672124 3.7970574 -1.8944092
7.769259 3.7391732 -1.8891697
7.7955837 3.6931021 -1.8900429
7.7782941 3.6266479 -1.8802189
7.8190279 3.5873964 -1.8848034
7.8506775 3.5437675 -1.8872049
7.885653 3.5014684 -1.8904796
7.9329262 3.4643397 -1.8968107
7.929821 3.4052057 -1.8909162
7.9352813 3.3500347 -1.8872049
7.9475746 3.2979167 -1.8852401
8.0029039 3.2634554 -1.8937542
8.0264015 3.2157404 -1.8946276
8.0432577 3.165359 -1.8939726
8.0425014 3.1082101 -1.8891697
8.0477352 3.0536127 -1.885895
8.1047316 3.0184751 -1.8950641
8.1286001 2.9706976 -1.8963741
8.1549425 2.9237287 -1.8983389
8.1957455 2.8817253 -1.9037967
8.1911297 2.8237526 -1.8985572
8.2434359 2.7853055 -1.9068531
8.2297974 2.7245553 -1.8996488
8.2380047 2.6712987 -1.897684
8.2709837 2.6260145 -1.9016136
8.2505941 2.5639257 -1.8930993
8.2773752 2.5166578 -1.8957192
8.2561798 2.4549787 -1.8872049
8.3085728 2.4151645 -1.8959374
8.3260517 2.364938 -1.8965924
8.3592138 2.3190207 -1.9009587
8.3535042 2.2623315 -1.8963741
8.3728895 2.212528 -1.897684
8.3711872 2.1572168 -1.8941909
8.4145546 2.1134145 -1.9011769
8.4235716 2.060817 -1.9003037
8.4673872 2.0165489 -1.907508
8.5195312 1.9738015 -1.9166772
8.4886398 1.9118463 -1.9068531
8.5145111 1.8628516 -1.9101278
8.5315084 1.8117881 -1.9114376
8.5204802 1.7548808 -1.9064165
8.5215178 1.7006584 -1.9042333
8.5317926 1.6483394 -1.9042333
8.57724 1.6025852 -1.912311
8.531209 1.5398794 -1.8996488
8.6049128 1.4987144 -1.9142758
8.5937357 1.4424977 -1.9096912
8.6505957 1.3975159 -1.9206069
5.948235 0.92389774 -1.3069274
5.8534064 0.8724404 -1.2842228
5.8171072 0.83058488 -1.2748353
5.8046889 0.79250342 -1.2709057
5.7978296 0.75536102 -1.2682859
5.7946076 0.71881241 -1.2665395
5.783402 0.68141985 -1.2630464
5.7748656 0.64451605 -1.2602084
5.7651243 0.60764068 -1.257152
5.7502928 0.57042843 -1.253004
5.7468829 0.53450328 -1.2514758
5.7490821 0.49914682 -1.2512574
5.7335544 0.46237499 -1.2471095
5.7489352 0.42812547 -1.2499475
5.7465858 0.3925111 -1.2488561
0 0 -0
0 0 -0
0 0 -0
0 0 -0
0 0 -0
0 0 -0
0 0 -0
0 0 -0
0 0 -0
0 0 -0
0 0 -0
0 -0 -0
0 -0 -0
0 -0 -0
0 -0 -0
0 -0 -0
0 -0 -0
0 -0 -0
0 -0 -0
0 -0 -0
0 -0 -0
0 -0 -0
0 -0 -0
0 -0 -0
0 -0 -0
0 -0 -0
0 -0 -0
0 -0 -0
8.672143 -0.95615584 -1.9120927
8.6331558 -1.0055062 -1.90467
8.3614273 -1.025861 -1.8448521
8.0501022 -1.0377989 -1.7760832
7.8985233 -1.0675465 -1.7433362
7.7381911 -1.0942427 -1.7086244
7.6608582 -1.1312852 -1.6926875
7.5717902 -1.1656367 -1.6741308
7.6859045 -1.2315468 -1.7016383
7.6964927 -1.281732 -1.7057863
7.7086768 -1.3324261 -1.7103709
7.6840267 -1.3767723 -1.7066596
7.6773529 -1.424251 -1.7070962
7.6627192 -1.4702274 -1.7057863
7.652597 -1.5170273 -1.705568
7.633584 -1.5619965 -1.7033849
7.6143079 -1.6067895 -1.7012017
7.5890484 -1.6501598 -1.6977087
7.5597348 -1.6924276 -1.6933424
7.5454044 -1.7379047 -1.6924692
7.4766741 -1.7704442 -1.679152
7.4277425 -1.8070537 -1.6704195
7.247993 -1.8104727 -1.6315597
7.3851571 -1.8929759 -1.6658349
7.3960533 -1.9442127 -1.6710745
7.4169631 -1.9984485 -1.6787155
7.3688159 -2.0340478 -1.6704195
7.3533797 -2.0784271 -1.6697645
7.3423629 -2.1240501 -1.6702012
7.3310633 -2.169616 -1.6706378
7.309207 -2.2120125 -1.668673
7.2721906 -2.2496059 -1.6632152
7.2880249 -2.303601 -1.6702012
7.266324 -2.3458765 -1.6684546
7.2267699 -2.382165 -1.6625602
7.2101674 -2.4258401 -1.6621236
7.1877637 -2.4674993 -1.6603771
7.1678829 -2.5099428 -1.6592855
7.1449952 -2.5512505 -1.657539
7.122788 -2.5927057 -1.6560109
7.1204686 -2.6414547 -1.6592855
7.1068654 -2.686131 -1.6599405
7.0756793 -2.7240751 -1.6564474
7.0406613 -2.7603126 -1.6520811
7.0208731 -2.8023756 -1.6514262
6.9981217 -2.8431973 -1.6501163
6.9625087 -2.8786235 -1.64575
6.9222279 -2.9118273 -1.6402923
6.9149966 -2.9588549 -1.642912
6.8895531 -2.9981127 -1.6411655
6.8701348 -3.0399346 -1.6409472
6.8477931 -3.0804298 -1.6400739
6.824326 -3.1203594 -1.6389824
6.8103609 -3.1646423 -1.6402923
6.7864027 -3.2042863 -1.6392007
6.7551765 -3.2403779 -1.6363626
6.7448158 -3.2864695 -1.638764
6.7175269 -3.3243291 -1.6370175
6.6987467 -3.3663611 -1.6374542
6.6753573 -3.4060695 -1.6367992
6.6370034 -3.4379847 -1.6324329
6.6149197 -3.4781897 -1.6322147
6.5865664 -3.5150359 -1.6304681
6.5571523 -3.5512002 -1.6285033
6.5275426 -3.5871363 -1.6265385
6.495182 -3.6214166 -1.6239188
6.4804831 -3.6655273 -1.6258836
6.468873 -3.7115371 -1.6287216
6.4552546 -3.7565601 -1.6311231
6.433764 -3.7970903 -1.6315597
6.3944359 -3.8269713 -1.6274117
6.367497 -3.8641093 -1.6265385
6.3112555 -3.8831575 -1.6180242
6.3667903 -3.9714038 -1.6389824
6.3117871 -3.9910929 -1.6309048
6.3077173 -4.0429144 -1.6363626
6.4088058 -4.1634331 -1.6699829
6.3643942 -4.1903324 -1.6649617
6.366972 -4.2482662 -1.6726027
6.3181515 -4.271945 -1.6664898
6.2877955 -4.3078737 -1.6653982
6.2660537 -4.3497133 -1.6667082
6.2424393 -4.3903251 -1.6675814
6.2201514 -4.4319439 -1.6688913
6.1604013 -4.4466047 -1.6599405
6.1282754 -4.4808636 -1.6586306
6.0896883 -4.5102487 -1.6555742
6.0377021 -4.5293713 -1.6488065
5.997366 -4.5568848 -1.6453135
5.9723859 -4.5959792 -1.6461867
5.9417639 -4.6307383 -1.6455318
5.9109406 -4.6652951 -1.6448768
5.8311357 -4.660646 -1.6302499
5.8851004 -4.7632709 -1.6540459
5.8308587 -4.7788744 -1.6468416
5.7999244 -4.8133149 -1.646405
5.7650518 -4.8444166 -1.6448768
5.7151537 -4.8626218 -1.6389824
5.6881666 -4.900146 -1.6398556
5.6513748 -4.9291816 -1.6378908
5.6312628 -4.9728098 -1.6409472
5.5700927 -4.9799461 -1.631778
5.5517297 -5.0251646 -1.6354893
5.5092812 -5.048584 -1.6319963
5.4646091 -5.0696807 -1.6278484
5.4398003 -5.1091294 -1.6298132
5.4097629 -5.1437559 -1.6302499
5.4083276 -5.2059588 -1.6396374
5.360909 -5.2240596 -1.6348344
5.2815199 -5.2102442 -1.619989
5.2349524 -5.2280693 -1.6154045
5.2089505 -5.2663374 -1.6173693
5.1806302 -5.3023882 -1.6186792
2.2702968 -2.3514287 -0.6915015
2.2578456 -2.367434 -0.69215643
2.2365878 -2.3741379 -0.68997329
2.2199845 -2.3856726 -0.68931836
4.9897971 -5.430778 -1.610165
4.985888 -5.4938164 -1.619989
4.9455719 -5.5170383 -1.617806
4.9070992 -5.5421648 -1.6162777
4.8916278 -5.5934758 -1.6226088
4.808743 -5.5672498 -1.606017
4.8048878 -5.6322918 -1.6164961
4.7727532 -5.6646538 -1.6173693
4.7310405 -5.6855798 -1.6149678
4.6842957 -5.7001748 -1.6108199
4.6424689 -5.7204733 -1.6084185
4.5865355 -5.7229571 -1.6009958
4.5392241 -5.7356853 -1.5966295
2.0179284 -2.581187 -0.69324797
1.9865552 -2.5734298 -0.68757182
1.9665885 -2.5801363 -0.68604362
1.948374 -2.5890346 -0.68517035
1.9417589 -2.6134775 -0.68866342
1.8754957 -2.5568655 -0.6696701
1.7665251 -2.4394538 -0.634085
1.7447172 -2.4407177 -0.63146526
4.2972579 -6.0931344 -1.6282851
4.1889987 -6.0176582 -1.6005591
4.1586261 -6.0529013 -1.603179
4.1252408 -6.0839586 -1.6047071
4.097599 -6.1237564 -1.6086367
4.036293 -6.1129475 -1.599031
3.9955134 -6.1326923 -1.5977211
3.9673047 -6.1718707 -1.6016507
3.92518 -6.1895037 -1.5999042
3.8860931 -6.2118168 -1.5994676
3.8397074 -6.2222557 -1.5959746
3.8085575 -6.25737 -1.599031
3.7565341 -6.258028 -1.5931365
3.7205496 -6.2851591 -1.594228
3.6715865 -6.2901692 -1.5896435
3.6280553 -6.3041201 -1.5874604
1.6693435 -2.9410176 -0.71682584
1.641742 -2.9341693 -0.71245956
1.634069 -2.962991 -0.71726245
3.4708545 -6.3886857 -1.5868055
3.4320495 -6.4107227 -1.5870237
3.3789942 -6.4057636 -1.5804744
3.3351269 -6.4177165 -1.5782912
3.3005757 -6.4476156 -1.5806926
3.2622695 -6.4703608 -1.5813476
3.2186019 -6.4823885 -1.5793828
3.1800516 -6.5046458 -1.5800377
3.1409261 -6.5257945 -1.5804744
3.0999901 -6.54318 -1.5800377
3.0779233 -6.600997 -1.5896435
3.0418375 -6.6295161 -1.5920449
3.0019052 -6.6498346 -1.5924816
2.9598582 -6.665453 -1.5918267
2.9169519 -6.6790171 -1.5907351
2.8747604 -6.6940989 -1.5900801
2.8305967 -6.7044196 -1.5883336
2.7886581 -6.7198586 -1.5878969
2.7484784 -6.7395539 -1.5885519
2.7092505 -6.7617269 -1.5898618
2.6619942 -6.7636933 -1.5863688
2.6151679 -6.7662449 -1.5830941
2.5684106 -6.768477 -1.5798193
2.5227458 -6.7731347 -1.5771996
2.4905152 -6.8141518 -1.5833124
2.4605095 -6.8623772 -1.5911717
2.4232101 -6.8911552 -1.5944464
2.3799274 -6.9031262 -1.5937915
2.3309684 -6.8981833 -1.5892068
2.2867587 -6.9067974 -1.5878969
2.2437346 -6.9188418 -1.5874604
2.1982872 -6.9231772 -1.5852772
2.1667659 -6.9719496 -1.5935731
2.1199737 -6.9720416 -1.5905167
2.0788221 -6.990531 -1.5918267
2.0348008 -6.9994059 -1.5909534
1.9792887 -6.9676371 -1.5806926
1.9380634 -6.9852929 -1.5820025
1.8895564 -6.9763293 -1.5771996
1.8407344 -6.9651475 -1.5719601
1.7962586 -6.969696 -1.5704319
1.7610625 -7.0108747 -1.577418
1.7170843 -7.0177565 -1.5765446
1.6755736 -7.0348058 -1.5780729
1.6284149 -7.0278416 -1.5741432
1.5895481 -7.0567422 -1.5785094
1.5451766 -7.0615959 -1.577418
1.502021 -7.0718985 -1.5776362
1.4580101 -7.078114 -1.5769813
1.4151248 -7.089798 -1.5776362
1.370301 -7.0916405 -1.5761081
1.3235378 -7.0826473 -1.5721784
1.2797081 -7.0887146 -1.5717418
1.2380291 -7.1070089 -1.5741432
1.1919767 -7.1000347 -1.5708685
1.1496334 -7.1149225 -1.572615
1.0999715 -7.0832686 -1.5638825
1.0557704 -7.0850582 -1.5627909
1.0132416 -7.098166 -1.5643191
0.97111905 -7.1148858 -1.5667206
0.92341638 -7.0897431 -1.5597346
0.88025695 -7.0981812 -1.5603895
0.8358888 -7.0966644 -1.5588613
0.79394948 -7.1162076 -1.5621359
0.75078076 -7.1257982 -1.5632275
0.70723587 -7.1322126 -1.5636642
0.66291904 -7.1305881 -1.5623543
0.62193322 -7.166605 -1.5695586
0.57700908 -7.1586137 -1.5669389
0.53090543 -7.132823 -1.5603895
0.48765969 -7.1437354 -1.5621359
0.44327438 -7.1378269 -1.5601711
0.4003388 -7.1560025 -1.5636642
0.35768056 -7.1836658 -1.5693403
0.31338373 -7.1808505 -1.5682487
0.26898929 -7.1738615 -1.5662839
0.22517921 -7.1822047 -1.5678121
0.18100803 -7.1795487 -1.5669389
0.13746841 -7.2078443 -1.5730517
0.093276717 -7.2114792 -1.5737066
0.04887069 -7.1884952 -1.568467
0.0047668903 -7.1984186 -1.5706502
-0.039209429 -7.1641574 -1.5630093
-0.083109707 -7.1589026 -1.5619177
-0.12743622 -7.1806993 -1.5669389
-0.17200989 -7.2012458 -1.5717418
-0.2156332 -7.1815214 -1.5675938
-0.26089874 -7.2132211 -1.5750165
-0.30449072 -7.1958842 -1.5715234
-0.34972817 -7.2162995 -1.5765446
-0.39303923 -7.1964779 -1.572615
-0.43635765 -7.180294 -1.5695586
-0.48047221 -7.1784549 -1.569777
-0.52486587 -7.1802382 -1.5708685
-0.56852674 -7.1720185 -1.569777
-0.61285567 -7.1722841 -1.5706502
-0.65952855 -7.1975427 -1.5771996
-0.70187128 -7.1749072 -1.5730517
-0.74851167 -7.1957016 -1.5787278
-0.79393452 -7.2026134 -1.5813476
-0.83630556 -7.182097 -1.5778545
-0.88131011 -7.1845794 -1.579601
-0.93049866 -7.2187185 -1.5885519
-0.96744686 -7.1587172 -1.5763264
-1.0140893 -7.1719713 -1.5806926
-1.0615015 -7.1887832 -1.5859321
-1.1082665 -7.1994953 -1.5898618
-1.1501027 -7.1781063 -1.5865871
-1.1960505 -7.1824656 -1.5892068
-1.2442577 -7.1990314 -1.5946647
-1.2882344 -7.1903005 -1.5944464
-1.3264502 -7.150598 -1.587242
-1.3697485 -7.1394491 -1.5865871
-1.4152386 -7.1395254 -1.5885519
-1.460194 -7.1364436 -1.5898618
-1.5019385 -7.1178012 -1.5876787
-1.5462067 -7.1113124 -1.5883336
-1.5859717 -7.0845499 -1.584404
-1.6280968 -7.0689797 -1.5830941
-0.71290553 -3.0136273 -0.65307826
-0.73184502 -3.0110927 -0.65351492
-0.74865049 -2.9999182 -0.65198672
-1.8151499 -7.0817213 -1.5957563
-1.8466526 -7.0251493 -1.5852772
-0.79688346 -2.9601893 -0.64609224
-0.81347305 -2.9496002 -0.64478236
-0.82996267 -2.9389191 -0.64347249
-2.0242002 -6.9973998 -1.5898618
-2.0549059 -6.9436765 -1.580256
-2.0997353 -6.9384089 -1.5820025
-2.1437118 -6.9300556 -1.5830941
-1.0903903 -3.4517431 -0.77009434
-2.234592 -6.9218001 -1.5874604
-2.2693801 -6.884789 -1.5820025
-2.3050437 -6.8513122 -1.577418
-1.0936199 -3.1876669 -0.7142061
-1.1118679 -3.1772127 -0.71333283
-2.4626086 -6.8968658 -1.5985943
-2.4674799 -6.7789254 -1.5741432
-1.1450344 -3.088506 -0.69717765
-1.1857089 -3.1389284 -0.71093136
-1.2207308 -3.1725738 -0.72075552
-1.2444503 -3.1759257 -0.72337526
-2.6880133 -6.7344851 -1.5824392
-2.7351642 -6.7323298 -1.5859321
-2.7663505 -6.6910725 -1.5800377
-1.2694016 -3.0194018 -0.69302964
-1.284832 -3.0043788 -0.69128317
-1.294283 -2.9758592 -0.68626195
-1.3109381 -2.9642923 -0.68538868
-2.988318 -6.6431127 -1.5898618
-3.0436368 -6.6565995 -1.5977211
-3.0877147 -6.6448784 -1.5994676
-3.1626062 -6.6981635 -1.6173693
-2.0066931 -4.1843452 -0.99845034
-3.2548273 -6.6799021 -1.6226088
-2.0513959 -4.146286 -0.99517566
-2.0877566 -4.1554184 -1.0006335
-2.1141016 -4.1442685 -1.0010701
-2.1444297 -4.1407495 -1.0034716
-2.166162 -4.120604 -1.0017251
-2.1849704 -4.0951829 -0.99866867
-2.1989 -4.0611062 -0.99342912
-2.2411718 -4.0791788 -1.0015067
-2.2723386 -4.0764298 -1.0043448
-2.3059587 -4.0776987 -1.0082744
-2.3357935 -4.0719366 -1.0104576
-2.3671172 -4.0684915 -1.0132957
-2.4118817 -4.0875049 -1.0220282
-2.4614797 -4.113656 -1.0327256
-2.4785717 -4.0851278 -1.0292326
-2.5112636 -4.0823092 -1.0325073
-2.5207667 -4.0419855 -1.0259578
-2.5403037 -4.0181952 -1.0237747
-2.5601704 -3.9951389 -1.0218099
-2.6186686 -4.031724 -1.035782
-2.6385267 -4.0082455 -1.0338172
-2.6078112 -3.9091883 -1.0115491
-2.6497908 -3.9197888 -1.0187535
-2.6622069 -3.8865519 -1.014169
-2.6843343 -3.867739 -1.013514
-2.7490067 -3.9094601 -1.0294509
-2.7893686 -3.9155648 -1.035782
-2.8150554 -3.9007492 -1.0364369
-2.8879068 -3.9503553 -1.0549935
-2.9097676 -3.9294245 -1.0541203
-2.9484668 -3.9310102 -1.0595782
-2.9571781 -3.8926444 -1.053902
-2.9137416 -3.7870436 -1.0292326
-2.8649228 -3.676738 -1.0030349
-2.8819866 -3.6521966 -1.0010701
-2.9134829 -3.6458776 -1.0043448
-2.9800117 -3.6825409 -1.0200634
-2.9437735 -3.5924926 -0.99932361
-3.0006678 -3.6164107 -1.0115491
-3.0328481 -3.6098833 -1.0150422
-3.1042757 -3.6491725 -1.0320706
-3.1641939 -3.6736729 -1.0449511
-3.1847508 -3.6519825 -1.0442961
-3.2232509 -3.6506572 -1.049754
-3.2735636 -3.6620898 -1.0591415
-3.2946622 -3.6404879 -1.0587049
-3.2569301 -3.5547407 -1.0388384
-3.3497097 -3.6112282 -1.0621979
-3.356436 -3.5742486 -1.0571767
-3.3830118 -3.5585363 -1.0587049
-3.4332118 -3.5672364 -1.0678741
-3.4591224 -3.5502965 -1.0691839
-3.5260816 -3.5748494 -1.0835927
-3.5431223 -3.5483139 -1.0820644
-3.5058436 -3.4681838 -1.0635078
-3.4837744 -3.4043305 -1.0499723
-3.4877422 -3.3666284 -1.0447328
-3.4751313 -3.3135214 -1.0344721
-3.4506321 -3.2499943 -1.0207183
-3.4733672 -3.2314186 -1.0215915
-3.4938483 -3.2107058 -1.0218099
-3.522156 -3.1970761 -1.0244297
-3.3941743 -3.0431952 -0.98011202
-3.4135139 -3.0229585 -0.98033035
-3.638448 -3.1824453 -1.0416764
-3.6719406 -3.1721783 -1.0458244
-3.83093 -3.2686379 -1.0868673
-3.8262827 -3.224324 -1.079663
-3.7882264 -3.1527312 -1.0628529
-3.7863865 -3.1120825 -1.05674
-3.66521 -2.9750473 -1.0163521
-3.8075361 -3.0519598 -1.0519372
-3.819303 -3.0230901 -1.0499723
-3.7255023 -2.911885 -1.0180986
-3.7680254 -2.9080446 -1.0250846
-3.8424711 -2.9280341 -1.0410215
-3.7371316 -2.8117318 -1.0065279
-3.8005426 -2.82307 -1.0194085
-3.8020513 -2.7881591 -1.0150422
-3.8119719 -2.759629 -1.0130774
-3.82248 -2.7316496 -1.0113308
-3.8519304 -2.7171409 -1.0148239
-3.8853512 -2.7051606 -1.0194085
-3.9123342 -2.688452 -1.0222465
-3.9441047 -2.674799 -1.0263945
-4.0074887 -2.6820176 -1.0390567
-4.0450459 -2.6713548 -1.0447328
-3.9615967 -2.5815096 -1.0180986
-3.9937818 -2.5677042 -1.0224649
-4.0160556 -2.5473306 -1.0242114
-4.0158892 -2.5128093 -1.0200634
-4.0420294 -2.4947815 -1.0229014
-4.0589285 -2.4709475 -1.0233381
-4.0840549 -2.4520214 -1.0259578
-4.0897851 -2.4214492 -1.0235564
-4.073379 -2.3781121 -1.0154788
-4.0904317 -2.3545334 -1.0161338
-4.1353607 -2.3467224 -1.023993
-4.1897163 -2.3436863 -1.0342537
-4.1741037 -2.3014503 -1.0266128
-4.1641345 -2.2627547 -1.0205001
-4.146965 -2.2205849 -1.0126407
-4.1553326 -2.1923668 -1.0113308
-4.1080866 -2.1353383 -0.99604893
-4.1350112 -2.117204 -0.99954194
-4.1339812 -2.084765 -0.99604893
-4.1816607 -2.076714 -1.0047815
-4.1873102 -2.0475891 -1.0030349
-4.2411265 -2.0417428 -1.0132957
-4.2615123 -2.0194404 -1.0152605
-4.3047814 -2.0076835 -1.0229014
-4.3374209 -1.9905891 -1.0279226
-4.3504429 -1.9643391 -1.028141
-4.3829293 -1.9467144 -1.0331622
-4.4082069 -1.9256411 -1.0364369
-4.4387712 -1.9066403 -1.0410215
-4.4719648 -1.8884749 -1.0462611
-4.5465665 -1.8871732 -1.061543
-4.5291429 -1.8474528 -1.054557
-4.6119614 -1.8482901 -1.0718037
-4.6613574 -1.8349613 -1.0809729
-4.7580981 -1.8393823 -1.1014943
-4.675312 -1.7745064 -1.0790081
-4.7062325 -1.7532762 -1.0838109
-4.7517338 -1.7370908 -1.0921068
-4.8063989 -1.7237048 -1.1025859
-4.8030748 -1.6893271 -1.0993112
-4.8659401 -1.677946 -1.1117551
-4.9510345 -1.6733506 -1.1294385
-5.3317971 -1.7655722 -1.216764
-5.3945169 -1.7496735 -1.2289895
-5.4051514 -1.7165405 -1.2289895
-5.5684228 -1.7308166 -1.2647929
-5.6069498 -1.7051294 -1.2713423
-5.7071085 -1.6973833 -1.2923005
-5.8467398 -1.6999067 -1.3224276
-6.2325721 -1.7706063 -1.4097531
-6.2517824 -1.7346774 -1.4117179
-6.3612165 -1.723057 -1.4346409
-6.5943418 -1.7428021 -1.4861629
-6.8440056 -1.7638867 -1.5413961
-6.8887744 -1.7304128 -1.5492555
-7.0348196 -1.7212564 -1.5804744
-7.3186641 -1.7431359 -1.6433486
-7.6011295 -1.7611543 -1.7057863
-7.7260399 -1.7401968 -1.7319839
-7.8995962 -1.7284026 -1.7693156
-8.1172047 -1.7238621 -1.8166896
-8.4057798 -1.7312728 -1.8802189
-8.6373186 -1.7237531 -1.9306493
-8.6611471 -1.6733129 -1.9337057
-8.7384024 -1.6326749 -1.9489876
-8.7444143 -1.5783335 -1.9481144
-8.7577801 -1.5253184 -1.9489876
-8.7746735 -1.4728442 -1.9507341
-8.6785345 -1.4020256 -1.9269379
-8.7284403 -1.3551813 -1.9363254
-8.7645836 -1.3057657 -1.9426565
-8.793685 -1.2549932 -1.9474595
-8.7577076 -1.1950806 -1.9376353
-8.7822952 -1.1435878 -1.9415649
-8.7775249 -1.0882398 -1.9389452
-8.7714367 -1.0328794 -1.9361072
-8.8037968 -0.98195678 -1.9420016
-8.7756872 -0.92434585 -1.9343606
-8.7637138 -0.86875129 -1.930431
-8.7290392 -0.81126446 -1.9214801
-8.8281603 -0.7658577 -1.9426565
-8.8044834 -0.70940554 -1.9363254
-8.8028316 -0.65493518 -1.9350156
-8.7784491 -0.59898686 -1.9286845
-8.8082581 -0.54674095 -1.9345789
-8.8250875 -0.49344513 -1.9376353
-8.8386707 -0.43981823 -1.9400368
-8.8256035 -0.3848986 -1.9365437
-8.8121958 -0.33015594 -1.9330508
-8.8238106 -0.27638334 -1.9352338
-8.818511 -0.2220652 -1.9337057
-8.8216591 -0.16798855 -1.9341424
-8.8683863 -0.11444258 -1.9444031
-8.830863 -0.059772402 -1.9358888
-8.8457012 -0.0055934675 -1.9391636
-8.8416662 0.048660848 -1.9382902
-8.8616934 0.10315258 -1.9428748
-8.8101559 0.15661636 -1.9315225
-8.803175 0.21053076 -1.9302126
-8.7968407 0.26439482 -1.9291211
-8.7901764 0.31818911 -1.9280295
-8.8134089 0.37319538 -1.9337057
-8.8021803 0.42683986 -1.9317409
-8.7964725 0.48068085 -1.9310859
-8.7485504 0.53191572 -1.9210435
-8.7460957 0.5856511 -1.9212618
-8.3630047 -0.20983218 -1.9299455
-8.3680277 -0.15858775 -1.9308622
-8.3746834 -0.10731462 -1.9322374
-8.3527966 -0.055775955 -1.9269658
-8.341301 -0.0045162262 -1.9242154
-8.3616123 0.046778504 -1.9290286
-8.3339157 0.09776511 -1.922611
-8.2990961 0.1482922 -1.914589
-8.2921915 0.19907181 -1.9132138
-8.2976246 0.25015298 -1.9148182
-8.3377609 0.3025775 -1.9246738
-8.3201876 0.35307178 -1.9210066
-8.2955027 0.4030315 -1.915735
-8.2802391 0.45323315 -1.9127554
-8.2986765 0.50533175 -1.9177978
-8.2711401 0.55461508 -1.9120678
-8.2821426 0.60642087 -1.9155058
-8.2578888 0.65561098 -1.9106926
-8.2488613 0.7058534 -1.9095466
-8.2705469 0.75885421 -1.915735
-8.2657347 0.80958706 -1.915735
-8.3090191 0.86532837 -1.9271951
-8.2687225 0.91245341 -1.9189438
-8.2823048 0.96542525 -1.9235278
-8.2375803 1.011483 -1.9143598
-8.2408724 1.0632539 -1.9166518
-8.2226181 1.1122338 -1.9139014
-8.2050371 1.1611661 -1.9113802
-8.2266464 1.2157571 -1.9182562
-8.1911325 1.2619152 -1.9116094
-8.1688185 1.3098403 -1.9081714
-8.2038345 1.3671367 -1.9184854
-8.1665173 1.4124734 -1.9116094
-8.1567383 1.4623839 -1.9113802
-8.1667528 1.5159572 -1.9159642
-8.155385 1.565672 -1.9155058
-8.1427603 1.615115 -1.9148182
-8.0955067 1.6574353 -1.9058794
-8.0823269 1.7064741 -1.9051918
-8.0850201 1.7589304 -1.9084005
-8.0702753 1.8076552 -1.9074838
-8.0609293 1.8575765 -1.9079422
-8.0607462 1.9096947 -1.9106926
-8.0072622 1.9489917 -1.9006078
-8.0272608 2.006109 -1.9084005
-8.0053711 2.0529082 -1.9061086
-7.9898 2.1012471 -1.905421
-8.0143499 2.1603639 -1.914589
-7.9493389 2.19525 -1.901983
-7.9300995 2.2423961 -1.9006078
-7.9451766 2.2993991 -1.9077129
-7.8823843 2.3337398 -1.8957945
-7.9014549 2.3922136 -1.9040458
-7.8615212 2.4328825 -1.8978573
-7.8603668 2.4854753 -1.9012954
-7.8440418 2.5333598 -1.9010662
-7.8265009 2.5808327 -1.9006078
-7.7892995 2.6216662 -1.8953362
-7.7675428 2.6675143 -1.893961
-7.7776704 2.7244556 -1.9006078
-7.7626405 2.7727821 -1.9010662
-7.745481 2.8203604 -1.9010662
-7.7207289 2.865124 -1.8992325
-7.6902566 2.9076247 -1.8960238
-7.6913466 2.9621019 -1.9008369
-7.6413097 2.9968023 -1.892815
-7.6327219 3.0476019 -1.8953362
-7.6165838 3.0954773 -1.8960238
-7.5938487 3.1406658 -1.8951069
-7.5690517 3.1849368 -1.8937317
-7.5717387 3.2408941 -1.8994617
-7.529398 3.2775807 -1.8937317
-7.5207167 3.3288398 -1.8967113
-7.5028129 3.3761213 -1.8973989
-7.5067415 3.4334292 -1.9038166
-7.4590521 3.4671178 -1.8969406
-7.4570017 3.5219648 -1.901983
-7.45017 3.5748117 -1.9058794
-7.4105954 3.6119292 -1.9012954
-7.3656116 3.6461053 -1.8953362
-7.3317947 3.6855485 -1.8923565
-7.3281169 3.7402003 -1.8973989
-7.2937942 3.7792733 -1.8944193
-7.26616 3.8216908 -1.8932734
-7.2348452 3.862078 -1.8912106
-7.1981735 3.8994434 -1.8877726
-7.1732583 3.9430685 -1.8875433
-7.1565804 3.9912751 -1.8896061
-7.132803 4.0355911 -1.8898354
-7.0986199 4.0739522 -1.8873142
-7.0877905 4.1257558 -1.8912106
-7.0531211 4.1637249 -1.8886894
-7.0232644 4.2044244 -1.8875433
-7.0206332 4.26158 -1.893961
-6.9918656 4.3030472 -1.8932734
-6.9521174 4.3376241 -1.8896061
-6.9508739 4.3963284 -1.8967113
-6.9090176 4.4294395 -1.8925858
-6.8841577 4.4733405 -1.8932734
-6.8630838 4.5197792 -1.8951069
-6.8044548 4.5412736 -1.8863974
-6.7796874 4.5851207 -1.8873142
-6.7723031 4.6409388 -1.8932734
-6.7197123 4.6657519 -1.8863974
-6.663888 4.6878552 -1.8786045
-6.6682916 4.7523808 -1.8882309
-6.6358495 4.7909284 -1.8873142
-6.6126137 4.8361516 -1.8891478
-6.5757756 4.8714204 -1.887085
-6.5403109 4.9075875 -1.8854805
-6.5031004 4.9423256 -1.8834177
-6.475738 4.9845095 -1.8843346
-6.4611535 5.0367165 -1.8891478
-6.4026222 5.0545549 -1.8808966
-6.3935366 5.111371 -1.8875433
-6.3696194 5.1566291 -1.8898354
-6.3416228 5.1987004 -1.8909813
-6.3320746 5.2561641 -1.8978573
-6.2892718 5.2861505 -1.8946486
-6.2893362 5.352397 -1.9047334
-6.2040186 5.345777 -1.8884602
-6.1652327 5.3786249 -1.8866266
-6.1306548 5.4150639 -1.8861681
-6.0806241 5.4376564 -1.8808966
-6.0442586 5.4722509 -1.8799797
-5.9911928 5.4914775 -1.8737913
-5.9823589 5.5513077 -1.8818133
-5.9517312 5.5912423 -1.8829594
-5.9144907 5.6249733 -1.8820425
-5.8777614 5.6591325 -1.8813549
-5.8512921 5.7032437 -1.8841053
-5.8161874 5.7390394 -1.8841053
-5.7664013 5.7601733 -1.8792921
-5.7186289 5.7829895 -1.8751665
-5.6884789 5.8235393 -1.8770001
-5.6688614 5.875144 -1.8825009
-5.6300187 5.9069986 -1.8815842
-5.5950027 5.9428501 -1.8820425
-5.557107 5.9756432 -1.8815842
-5.5190196 6.0081944 -1.8811257
-5.4728923 6.0318537 -1.8779169
-5.4260335 6.0544486 -1.8744789
-5.4062028 6.107306 -1.8806673
-5.3718309 6.1440268 -1.8818133
-5.3461189 6.1908689 -1.8861681
-5.3092952 6.2250366 -1.8866266
-5.2716265 6.2582412 -1.8868557
-5.2331271 6.2904696 -1.8868557
-5.1981387 6.3269734 -1.8882309
-5.1610594 6.3610172 -1.8889185
-5.1182795 6.3880072 -1.8875433
-5.0971074 6.4421916 -1.8944193
-5.0502911 6.4641418 -1.8916689
-5.0283704 6.5181279 -1.8985449
-4.9812031 6.539567 -1.8957945
-4.9474192 6.5785651 -1.8983158
-4.9116035 6.6150498 -1.9001493
-4.8962436 6.6796041 -1.9102342
-4.8106537 6.6480141 -1.8923565
-4.804287 6.7257209 -1.9063377
-4.7494655 6.735981 -1.9008369
-4.7074885 6.7641973 -1.9006078
-4.6609354 6.7857337 -1.8985449
-4.6208496 6.8166223 -1.8992325
-4.5881381 6.8586001 -1.903129
-4.5588388 6.9061189 -1.9086298
-4.5073462 6.9200964 -1.9047334
-4.431119 6.8952165 -1.8900646
-4.4200015 6.9715991 -1.9038166
-4.355978 6.9647536 -1.8944193
-4.3254275 7.0112319 -1.8999202
-4.3116751 7.0858679 -1.9132138
-4.2505841 7.0829792 -1.9051918
-4.2239003 7.1374073 -1.9129846
-4.1687422 7.1438546 -1.9077129
-4.1316261 7.1811104 -1.9109218
-4.0970912 7.2232594 -1.9155058
-4.0607696 7.2627053 -1.9194022
-4.01613 7.2874851 -1.9194022
