# .PCD v0.7 - Point Cloud Data file format
VERSION 0.7
FIELDS x y z
SIZE 4 4 4
TYPE F F F
COUNT 1 1 1
WIDTH 1552
HEIGHT 1
VIEWPOINT 0 0 0 1 0 0 0
POINTS 1552
DATA ascii
-9.8862925 6.5953765 -1.8797286
-9.8709917 6.6730523 -1.8846688
-9.8771009 6.765851 -1.893912
-9.8402662 6.8297057 -1.8948681
-9.8086739 6.8973374 -1.8969399
-9.7645597 6.9562469 -1.8966212
-9.721693 7.0160303 -1.8966212
-9.7238884 7.1087575 -1.905705
-9.6554918 7.1500769 -1.9007647
-9.676199 7.2577586 -1.9138325
-9.6126175 7.3026619 -1.9100078
-9.5668459 7.3609042 -1.9098485
-9.4864569 7.3921623 -1.9026771
-9.4633951 7.4679656 -1.9072986
-9.4328194 7.5382171 -1.9104859
-9.4117136 7.616447 -1.9157449
-9.3693848 7.6778069 -1.9167011
-9.3494492 7.7578454 -1.9224381
-9.2608547 7.7807751 -1.9138325
-9.2422647 7.8623986 -1.9200478
-9.2140446 7.9363546 -1.9243506
-9.167407 7.994688 -1.9248286
-9.0330725 7.9756484 -1.9065018
-9.1054115 8.1394806 -1.9327968
-9.0677414 8.2064581 -1.9355061
-9.0164881 8.2612753 -1.9353467
-8.9562187 8.3077164 -1.933275
-8.8798866 8.3388615 -1.9276972
-8.8471565 8.4108753 -1.9318407
-8.808897 8.4780092 -1.9348686
-8.7468119 8.5222549 -1.9326375
-8.7168474 8.5979471 -1.9377372
-8.6681185 8.6554565 -1.9386934
-8.6433134 8.7372541 -1.9452273
-8.6012697 8.8021269 -1.9479365
-8.5532694 8.8611307 -1.9493707
-8.4885187 8.9027281 -1.9469802
-8.4310255 8.9517708 -1.9463428
-8.3961134 9.0250177 -1.9511237
-8.3546066 9.09163 -1.9544704
-8.304636 9.1493006 -1.9559047
-8.2529545 9.2052298 -1.9570203
-8.2054796 9.2660427 -1.9592514
-8.1582193 9.3273621 -1.9616418
-8.1085787 9.3862085 -1.9635541
-8.039299 9.4222679 -1.9606856
-7.9717913 9.4600945 -1.9582951
-7.9079113 9.5020018 -1.9568609
-7.885191 9.5938158 -1.9659446
-7.8547959 9.6772766 -1.9732754
-7.7927995 9.722209 -1.9726379
-7.7348366 9.7721643 -1.973116
-7.6741223 9.8186626 -1.9729567
-7.6227794 9.8772879 -1.9753472
-7.5590382 9.9199486 -1.9745504
-7.496841 9.9645653 -1.9742316
-7.4432116 10.020679 -1.9763033
-7.3891754 10.076511 -1.9783751
-7.332418 10.128858 -1.9798093
-7.2695565 10.172854 -1.97965
-7.2052932 10.214848 -1.9791719
-7.1469932 10.265347 -1.9804468
-7.0855489 10.311449 -1.9809248
-7.0265789 10.361267 -1.9821998
-6.9645181 10.406648 -1.9826779
-6.9037971 10.454127 -1.9836341
-6.8476071 10.508698 -1.9860245
-6.7744555 10.53723 -1.9834747
-6.7170758 10.59027 -1.9857059
-6.6493502 10.627102 -1.9849091
-6.5850554 10.669381 -1.9852277
-6.5204921 10.711272 -1.9855465
-6.4566789 10.754465 -1.9861839
-6.3935871 10.798977 -1.9871401
-6.3247166 10.833741 -1.9863433
-6.2586155 10.8732 -1.9865026
-6.1912937 10.91054 -1.9863433
-6.1247134 10.949184 -1.9865026
-6.0588455 10.989153 -1.9869808
-5.9974308 11.037398 -1.9890524
-5.9123502 11.04179 -1.983156
-5.8546233 11.097068 -1.986662
-5.7932525 11.145922 -1.9890524
-5.7180042 11.168077 -1.986662
-5.6635957 11.23116 -1.9917617
-5.5958934 11.268352 -1.9922397
-5.5292487 11.307796 -1.9931959
-5.4644718 11.351295 -1.994949
-5.3735805 11.340005 -1.9869808
-5.3214245 11.41034 -1.993674
-5.2525473 11.445469 -1.9941522
-5.1846576 11.482882 -1.9951084
-5.110095 11.505455 -1.9935147
-5.0575824 11.578208 -2.0008454
-5.00281 11.64712 -2.0075388
-4.9201121 11.651223 -2.0029171
-4.8632898 11.716753 -2.0091324
-4.8065939 11.783851 -2.0156662
-4.7209773 11.780132 -2.0099292
-4.6576481 11.831842 -2.0139134
-4.5739255 11.831655 -2.0089731
-4.4959869 11.845652 -2.0065825
-4.4359713 11.907245 -2.0124791
-4.3648605 11.939802 -2.0134351
-4.3001828 11.99052 -2.0175786
-4.2373395 12.047413 -2.0228376
-4.1681662 12.087185 -2.0252283
-4.100245 12.131237 -2.0284154
-4.0291462 12.166476 -2.0301685
-3.9559412 12.195664 -2.0309653
-3.8840244 12.229117 -2.0325589
-3.817121 12.279115 -2.0370212
-3.7549217 12.345752 -2.0443518
-3.6872623 12.396 -2.0489736
-3.6147163 12.430715 -2.0510452
-3.5372953 12.448861 -2.0504076
-3.4595239 12.465575 -2.0496109
-3.3847787 12.493237 -2.0507264
-3.309572 12.519498 -2.0516827
-3.2390997 12.564425 -2.0558262
-3.1650729 12.596509 -2.0578978
-3.0903046 12.626241 -2.0596509
-3.0125444 12.644005 -2.0594914
-2.9411478 12.689179 -2.0639536
-2.8549857 12.67039 -2.0578978
-2.780566 12.7031 -2.0604477
-2.7187798 12.796208 -2.0730374
-2.6378212 12.801047 -2.071125
-2.5563259 12.80247 -2.0687346
-2.4810963 12.835361 -2.0716033
-2.4035635 12.857136 -2.0727186
-2.3355083 12.931875 -2.0825994
-2.2527254 12.926511 -2.079412
-2.1732039 12.939116 -2.0792527
-2.090461 12.931742 -2.075906
-2.0012207 12.880917 -2.0655472
-1.9180703 12.865614 -2.0610852
-1.8453746 12.921119 -2.0682566
-1.7648549 12.923395 -2.0668223
-1.6874393 12.948666 -2.0692127
-1.6144005 13.010699 -2.0776591
-1.5281811 12.966436 -2.0688939
-1.4584523 13.06387 -2.0832367
-1.3772311 13.062756 -2.0816431
-1.2974436 13.07489 -2.0822806
-1.2158209 13.06786 -2.07989
-1.1342479 13.059338 -2.0773404
-1.0570344 13.102461 -2.0832367
-0.97544527 13.092948 -2.080687
-0.89502275 13.097702 -2.0805275
-0.81414962 13.095064 -2.0792527
-0.73643613 13.147125 -2.0869021
-0.65683526 13.173089 -2.0904081
-0.57642579 13.186734 -2.0920019
-0.49531719 13.18509 -2.0912049
-0.41459191 13.193801 -2.0921612
-0.33302891 13.172411 -2.0883365
-0.25210363 13.169271 -2.0875397
-0.17097203 13.145892 -2.0835555
-0.090354815 13.153604 -2.084671
-0.0096591972 13.173655 -2.0878584
0.071178317 13.174454 -2.0880177
0.15158218 13.136257 -2.0819619
0.23261733 13.159756 -2.0859461
0.31335971 13.158081 -2.0859461
0.3933225 13.130255 -2.0818026
0.47235075 13.085171 -2.0749497
0.5521313 13.07019 -2.0730374
0.63446403 13.110929 -2.0802088
0.71280348 13.068345 -2.0739937
0.79291618 13.06274 -2.0738342
0.87357932 13.065509 -2.0751092
0.9541626 13.06581 -2.0760653
1.0348604 13.066599 -2.0771809
1.1135049 13.042297 -2.0743124
1.1925201 13.024405 -2.0725594
1.2714537 13.007018 -2.0709658
1.3498108 12.985225 -2.0687346
1.4223291 12.911933 -2.0582166
1.5074607 12.953954 -2.0665035
1.5879972 12.953279 -2.0679379
1.6674471 12.943292 -2.0679379
1.7490802 12.949449 -2.070647
1.831404 12.959001 -2.0739937
1.9131902 12.963145 -2.0765436
1.9907433 12.938478 -2.0744717
2.0638514 12.887027 -2.0680971
2.1432099 12.876069 -2.0684159
2.2257044 12.883105 -2.0717626
2.2998397 12.841996 -2.0673003
2.380933 12.840261 -2.0693722
2.458559 12.819593 -2.0684159
2.5352538 12.794583 -2.0668223
2.6089652 12.755573 -2.0629976
2.6776075 12.693924 -2.0555074
2.7560744 12.68015 -2.0559855
2.8422337 12.700573 -2.0622008
2.9052706 12.618436 -2.0515232
2.9737737 12.562905 -2.0453081
3.0696964 12.622123 -2.0582166
3.1470866 12.60305 -2.0582166
3.2138226 12.54238 -2.0513639
3.2829435 12.492826 -2.0464237
3.3623602 12.482932 -2.0481765
3.4333766 12.442081 -2.0448301
3.5093868 12.41983 -2.0446706
3.5792198 12.376251 -2.0410051
3.6525712 12.345536 -2.039571
3.7222505 12.303049 -2.0362244
3.8002954 12.288466 -2.0376587
3.878896 12.275271 -2.0394115
3.9486852 12.234329 -2.0365431
4.0171909 12.19018 -2.0331964
4.0897102 12.158751 -2.0320809
4.1603923 12.122223 -2.0301685
4.2284975 12.078763 -2.0271406
4.2816238 11.994016 -2.0171006
4.3635764 11.99071 -2.0210848
4.4532013 12.007215 -2.0285747
4.5131841 11.943648 -2.0223596
4.5917025 11.929551 -2.02475
4.6658955 11.90391 -2.0252283
4.7366533 11.869555 -2.024272
4.8075366 11.835694 -2.0234752
4.8717728 11.785901 -2.0199692
4.9336653 11.731215 -2.0156662
5.0051656 11.699815 -2.015507
5.0654392 11.642631 -2.0108855
5.1295929 11.595079 -2.0080168
5.2087402 11.581394 -2.011204
5.2784734 11.546522 -2.010726
5.3479743 11.51123 -2.0102479
5.4201908 11.481771 -2.0108855
5.4755988 11.417141 -2.0053077
5.5425239 11.377116 -2.0041921
5.5964684 11.311039 -1.9984549
5.6896987 11.324123 -2.0070605
5.720047 11.21249 -1.9931959
5.7773881 11.155265 -1.9892118
5.8553734 11.137957 -1.9925585
5.9050159 11.066978 -1.9861839
5.9629397 11.012307 -1.9828373
6.0251689 10.965994 -1.9810842
6.0928221 10.92968 -1.9812436
6.1622005 10.896386 -1.9820404
6.2210841 10.844669 -1.9794906
6.2845297 10.801173 -1.9785345
6.3461714 10.754756 -1.9771001
6.4252205 10.73764 -1.9812436
6.4817672 10.682821 -1.9783751
6.5420213 10.63444 -1.9767814
6.5852094 10.558916 -1.9700881
6.6598969 10.534166 -1.973116
6.7212119 10.488116 -1.9721599
6.7789865 10.436744 -1.9702475
6.8255281 10.368565 -1.9651479
6.8775153 10.309242 -1.9618012
6.9367723 10.261123 -1.9606856
7.0029497 10.223253 -1.9616418
7.0604811 10.172792 -1.9602076
7.109139 10.109897 -1.9563828
7.1584373 10.048396 -1.9528768
7.2164922 9.9994802 -1.9519206
7.2817903 9.9605913 -1.9530362
7.3251457 9.891922 -1.9482552
7.3886652 9.8507385 -1.949052
7.4424005 9.7965698 -1.947299
7.4987588 9.7460251 -1.9463428
7.5456762 9.6834764 -1.9429961
7.6129007 9.6470699 -1.9450679
7.6694856 9.5970917 -1.9444305
7.7015247 9.5168524 -1.9375778
7.7622766 9.4724712 -1.9382153
7.8070145 9.4087105 -1.9348686
7.853168 9.347024 -1.932
7.9122915 9.3009176 -1.9324782
7.9659905 9.2484541 -1.9316813
8.0141535 9.1897287 -1.9296095
8.053401 9.1211405 -1.9254661
8.0888205 9.0487366 -1.9205258
8.1402159 8.9945421 -1.9195696
8.1905842 8.9393301 -1.9184541
8.237896 8.8809433 -1.9167011
8.2800694 8.817275 -1.9138325
8.31565 8.7469854 -1.9095297
8.3691635 8.695797 -1.9095297
8.407896 8.6294317 -1.906183
8.4440489 8.5608101 -1.9023583
8.4887447 8.501153 -1.9006053
8.5337296 8.4419632 -1.8990116
8.5754833 8.3797827 -1.8967805
8.6224775 8.3228931 -1.8958243
8.6669531 8.2636986 -1.8943901
8.6779699 8.1731348 -1.885625
8.7416887 8.1325111 -1.8886529
8.776886 8.0653601 -1.8854656
8.829133 8.0140085 -1.8861032
8.8627043 7.9458427 -1.8827565
8.9009457 7.8821497 -1.8805254
8.9350233 7.8150368 -1.8774974
8.9895306 7.7658739 -1.8789318
9.0039692 7.6823735 -1.8719198
9.0524473 7.6282539 -1.8722384
9.083148 7.5593033 -1.8688918
9.1255474 7.5002937 -1.8680949
9.159132 7.4342046 -1.8655452
9.1930208 7.3686032 -1.8631546
9.2218056 7.29919 -1.859808
9.2734194 7.2479401 -1.8612423
9.3013058 7.1782365 -1.8578956
9.3208332 7.1024799 -1.8529553
9.3808041 7.0576191 -1.856302
9.408083 6.988153 -1.8531147
9.4547644 6.9332137 -1.8539115
9.4939289 6.8727541 -1.8532741
9.5535908 6.8269992 -1.8567801
9.5347986 6.7255707 -1.8448278
9.5718355 6.6641192 -1.844031
9.6117315 6.6047029 -1.8438716
9.6643324 6.5539141 -1.8462621
9.6854944 6.4818621 -1.8425967
9.7226124 6.4206791 -1.8421186
9.7519007 6.3544335 -1.8402063
9.7790823 6.2870026 -1.8379751
9.8183079 6.2274098 -1.8381345
9.8303909 6.1508145 -1.8331941
9.8645859 6.0883069 -1.8325567
9.9219952 6.0399847 -1.8363814
9.9766426 5.9896626 -1.8397281
10.021702 5.9333639 -1.8413217
10.09799 5.895155 -1.8488119
10.10317 5.8153534 -1.8430748
10.128359 5.7474051 -1.8411624
10.19445 5.7025013 -1.8468995
10.261235 5.6574793 -1.852796
10.265396 5.5779133 -1.8472183
10.30552 5.5180831 -1.8483338
10.328707 5.4492178 -1.8464215
10.397862 5.4044075 -1.8529553
10.435221 5.3427553 -1.8537521
10.461637 5.2755136 -1.8526366
10.4832 5.2059536 -1.8507242
10.540665 5.1541085 -1.8553458
10.590771 5.0983286 -1.8586925
10.628098 5.0362082 -1.859808
10.612276 4.9492016 -1.8515211
10.602966 4.8658738 -1.844509
10.64072 4.8043799 -1.8459433
10.748492 4.7738647 -1.859808
10.72873 4.686482 -1.8512024
10.769075 4.6256289 -1.8532741
10.761787 4.5444851 -1.8470589
10.817735 4.4900999 -1.8519992
10.883473 4.4393001 -1.8586925
10.870188 4.356277 -1.8516804
10.87191 4.2797322 -1.8473777
10.91454 4.2193508 -1.8502462
10.934686 4.1501989 -1.84929
10.991399 4.0947456 -1.8547083
10.970884 4.0106163 -1.8468995
11.019447 3.9518905 -1.851043
11.041625 3.8835468 -1.8507242
11.090445 3.8244138 -1.8550271
11.181039 3.7790537 -1.8665013
11.170279 3.699203 -1.8607643
11.161778 3.6205411 -1.8555052
11.149911 3.5412264 -1.849768
11.208196 3.4841754 -1.8559833
11.20575 3.4081552 -1.8519992
11.242537 3.3441193 -1.8547083
11.232511 3.2662516 -1.8496087
11.291275 3.208333 -1.8561426
11.31931 3.141367 -1.857577
11.33742 3.0715957 -1.8574176
11.389458 3.0108047 -1.8629953
11.417276 2.9433281 -1.864589
11.403525 2.8652778 -1.8593299
11.446783 2.8015907 -1.8636328
11.480083 2.7351921 -1.8663419
11.483186 2.6615789 -1.8641108
11.497375 2.5906353 -1.8637922
11.54295 2.5265849 -1.8687325
11.553407 2.454685 -1.8679357
11.584688 2.387136 -1.8706448
11.559425 2.3080821 -1.8641108
11.585001 2.2393599 -1.8660232
11.647043 2.1773057 -1.8739915
11.640754 2.1022902 -1.8708042
11.660242 2.0320108 -1.8719198
11.682227 1.9620621 -1.8735133
11.703792 1.8919201 -1.875107
11.753224 1.8259834 -1.8813221
6.0980206 0.90891081 -0.95653117
0 0 -0
0 0 -0
0 0 -0
5.9009953 0.73199022 -0.92115229
5.9034147 0.69553745 -0.92083353
0 0 -0
0 0 -0
0 0 -0
0 0 -0
0 0 -0
0 0 -0
0 0 -0
0 0 -0
0 0 -0
0 0 -0
0 0 -0
0 0 -0
0 0 -0
0 0 -0
0 0 -0
0 0 -0
0 0 -0
0 0 -0
0 0 -0
0 -0 -0
0 -0 -0
0 -0 -0
0 -0 -0
0 -0 -0
0 -0 -0
0 -0 -0
0 -0 -0
0 -0 -0
0 -0 -0
5.9487209 -0.39795867 -0.92370212
5.9638901 -0.43574554 -0.92657065
5.9788189 -0.47373351 -0.92943925
5.984652 -0.5111655 -0.93087351
0 -0 -0
6.0752001 -0.5940733 -0.94665056
10.358556 -1.0768507 -1.6424351
10.289932 -1.1335813 -1.6323951
10.370057 -1.2068511 -1.6465786
10.347758 -1.2686565 -1.6441882
10.363278 -1.3351518 -1.6480129
10.380328 -1.4021496 -1.6521564
10.351979 -1.4630533 -1.6489691
10.318391 -1.5229416 -1.644985
10.302022 -1.5851747 -1.6438694
10.291126 -1.6482008 -1.64371
10.28082 -1.7113149 -1.64371
10.249697 -1.7708359 -1.6403633
10.214344 -1.8293436 -1.6363792
10.190309 -1.8896437 -1.6343075
10.18337 -1.9530642 -1.6351043
10.16732 -2.014744 -1.6344669
10.148964 -2.0759048 -1.6335107
10.118648 -2.1344714 -1.6306422
10.099572 -2.1952603 -1.629686
8.3007364 -1.8577459 -1.334384
10.075721 -2.3199182 -1.6303234
10.068021 -2.3832896 -1.631439
10.059922 -2.4466538 -1.6325545
10.0361 -2.506182 -1.6311202
10.018621 -2.567225 -1.6308016
7.4619308 -1.9610597 -1.2067331
9.9749241 -2.6868949 -1.6288892
9.9839449 -2.7551389 -1.6331919
9.9925022 -2.8235943 -1.6374948
9.9863691 -2.888145 -1.6394072
9.966567 -2.9488058 -1.6390885
7.9875579 -2.4167583 -1.3084075
7.9376817 -2.4549325 -1.3025111
7.9215279 -2.5032935 -1.3023517
7.9116559 -2.5536711 -1.3033079
8.7096996 -2.8703427 -1.4416361
9.7857761 -3.2916198 -1.6279329
9.7822027 -3.3573701 -1.6308016
9.755827 -3.4153726 -1.6298454
9.7430553 -3.4781556 -1.6312796
9.7308073 -3.5412483 -1.6328733
7.6373529 -2.8326747 -1.2762159
9.6108913 -3.6317811 -1.6198053
9.56355 -3.6811101 -1.6155026
9.525157 -3.7335975 -1.6127933
9.4222975 -3.7601416 -1.5989287
9.4246588 -3.8282869 -1.6033908
9.4329233 -3.8992417 -1.6089686
9.4898138 -3.9911067 -1.623152
9.5041752 -4.0659556 -1.6300046
9.4944372 -4.1308904 -1.6327139
9.5032196 -4.2042456 -1.6387697
9.4727421 -4.2604527 -1.637973
9.4140997 -4.303721 -1.6322358
9.3230515 -4.3314571 -1.6207615
9.2980843 -4.3894238 -1.6210803
9.2478323 -4.4352942 -1.6169368
9.2053556 -4.4846044 -1.6142277
9.1635075 -4.533999 -1.6116778
9.1143436 -4.5795031 -1.6078531
9.0913496 -4.6380329 -1.6088092
9.0478163 -4.6860113 -1.6061001
9.0206413 -4.7423582 -1.6064187
8.9948568 -4.7994776 -1.6070563
8.9513483 -4.8470578 -1.6045064
8.8833685 -4.8809752 -1.5974944
8.8635998 -4.9411588 -1.5994067
8.8339739 -4.9959373 -1.5995661
8.807435 -5.0525036 -1.6003629
8.7984533 -5.1193576 -1.6045064
8.7269144 -5.1496687 -1.5970163
8.6587248 -5.1813231 -1.5901636
8.57022 -5.2000456 -1.5794863
8.5314245 -5.2483954 -1.5782113
8.5803156 -5.3513169 -1.5936697
8.4989204 -5.3732677 -1.5844265
8.4965448 -5.4450221 -1.590323
8.4008808 -5.4567242 -1.5783707
8.3589945 -5.5027404 -1.576777
8.3102903 -5.5440655 -1.5739084
8.2442188 -5.57339 -1.5676932
8.2180109 -5.6294494 -1.5692869
8.1938581 -5.6870856 -1.5713587
8.1499252 -5.731009 -1.5696056
8.1001339 -5.7705979 -1.5667371
8.0597706 -5.8167248 -1.5657809
8.0342884 -5.8736429 -1.5678526
7.997304 -5.9222422 -1.5676932
7.9497585 -5.9629087 -1.5654621
7.8957262 -5.9984374 -1.5619562
7.8564248 -6.0449657 -1.561478
7.8191857 -6.0930581 -1.561478
7.8118768 -6.1647711 -1.5676932
7.735342 -6.1817737 -1.559725
7.6788473 -6.2142162 -1.5559003
7.6230102 -6.2468247 -1.5522349
7.5792184 -6.2890682 -1.5511193
7.550313 -6.3437104 -1.5531911
7.5112467 -6.3899188 -1.5531911
7.4689054 -6.4333096 -1.5525537
7.420362 -6.471231 -1.5506413
7.3708949 -6.5081458 -1.5485696
7.3227262 -6.5460129 -1.5468166
7.2699795 -6.5795603 -1.5441073
7.182157 -6.5806956 -1.5337486
7.2017188 -6.6803627 -1.5469759
7.1462002 -6.7109103 -1.5437886
7.0998797 -6.7498713 -1.5426731
7.0611749 -6.7960463 -1.5433105
6.9712586 -6.7923989 -1.5324738
6.9189072 -6.8246474 -1.5300833
6.8573408 -6.8474417 -1.5256211
6.8200564 -6.8943009 -1.5267366
6.7769356 -6.9353123 -1.5265772
6.723969 -6.9661102 -1.5241868
6.7015376 -7.0286708 -1.5289677
6.6562533 -7.0675025 -1.5284896
6.5946064 -7.0886965 -1.5241868
6.5322828 -7.1086736 -1.5197246
6.3936563 -7.0440917 -1.4969355
2.1996992 -2.4539533 -0.49325913
2.1852551 -2.4681432 -0.49341848
2.1713698 -2.4829912 -0.49373722
6.1840086 -7.1585383 -1.4883299
6.1111321 -7.1625533 -1.4811585
6.0823369 -7.2180338 -1.4849832
6.0625634 -7.284811 -1.4911984
6.0704074 -7.3859358 -1.504585
6.0392838 -7.4406734 -1.5082504
6.0348849 -7.5291991 -1.5189278
5.9640641 -7.5351243 -1.5125532
2.0206749 -2.5858328 -0.49102804
1.9957229 -2.5864599 -0.48863757
1.9726346 -2.5892341 -0.48672518
1.9501812 -2.5926118 -0.48497218
1.9153985 -2.5791693 -0.47987252
1.838236 -2.5072839 -0.46313927
1.823396 -2.5193155 -0.46329865
1.8440657 -2.5810575 -0.4733386
5.6181698 -7.9649568 -1.5347048
5.543807 -7.9628215 -1.5275334
5.4819841 -7.9779744 -1.5238681
5.4262795 -8.0016565 -1.5219557
5.4012403 -8.0709 -1.5289677
5.3255019 -8.0643473 -1.5213182
5.2769976 -8.098527 -1.521637
5.192503 -8.0767775 -1.5112783
5.1491928 -8.1184902 -1.5131906
1.778155 -2.8424292 -0.50250226
1.766903 -2.8633671 -0.50441462
1.7457069 -2.868252 -0.50329906
1.7301074 -2.8822949 -0.50393653
4.8851624 -8.2513828 -1.5092065
4.8394184 -8.2897282 -1.5108002
4.7914171 -8.3243999 -1.5117564
4.7309918 -8.3373299 -1.5087285
4.6802278 -8.3670626 -1.5088879
4.6297536 -8.3973513 -1.5092065
4.5993528 -8.4646349 -1.5163779
4.5338135 -8.4674587 -1.5117564
4.4831548 -8.4977369 -1.5122344
4.4172692 -8.498807 -1.5074536
4.368638 -8.5327806 -1.5087285
4.3046417 -8.5365076 -1.504585
4.2675509 -8.5937061 -1.5101627
4.1960921 -8.5815945 -1.5033101
4.1407881 -8.6018419 -1.5023539
4.073133 -8.5958643 -1.4967761
4.0244861 -8.6296415 -1.4983698
3.961165 -8.6317415 -1.4943857
3.9121897 -8.6648817 -1.4959793
3.869369 -8.7121811 -1.5001228
3.8110967 -8.7249031 -1.4982104
3.7613864 -8.7571945 -1.499804
3.7164164 -8.8010263 -1.5034695
3.6543961 -8.8045168 -1.5001228
3.5917273 -8.8057499 -1.4964575
3.5401995 -8.8340368 -1.497573
3.4938843 -8.875802 -1.501079
3.4439857 -8.9090433 -1.5031507
3.3840008 -8.9161625 -1.5007602
3.3240585 -8.9228821 -1.4983698
3.2695851 -8.9440374 -1.4985292
3.2199767 -8.9787989 -1.501079
3.1625302 -8.991869 -1.4999634
3.1050444 -9.004571 -1.4988478
3.0468898 -9.0150366 -1.4974136
2.990586 -9.0307512 -1.4969355
2.9323764 -9.0404797 -1.4955013
2.878643 -9.0639477 -1.4964575
2.8165257 -9.0607004 -1.4929514
2.764612 -9.0900898 -1.4950231
2.7054064 -9.0955276 -1.4931108
2.645411 -9.0977373 -1.4907203
2.6011426 -9.1546316 -1.497573
2.5417535 -9.1590042 -1.4956605
2.4720814 -9.1248789 -1.4873736
2.4241204 -9.1704168 -1.4924734
2.3626301 -9.1650438 -1.4891267
2.3094778 -9.1918144 -1.4911984
2.2527997 -9.204854 -1.491039
2.193989 -9.2088995 -1.4894453
2.1387806 -9.2279587 -1.4904016
2.0832038 -9.2457237 -1.4911984
2.0236893 -9.2457952 -1.4891267
1.9677409 -9.2619009 -1.4897641
1.9003124 -9.2225542 -1.4813178
0.52861452 -2.6490023 -0.39732182
0.50860274 -2.6328104 -0.39413452
0.49280143 -2.6378224 -0.39445326
0.47871259 -2.6524546 -0.39636564
0.46039417 -2.6436713 -0.39445326
0.44400072 -2.6454728 -0.3942939
0.42933574 -2.6578929 -0.39588755
0.41938591 -2.7014487 -0.40258083
0.40629664 -2.7274053 -0.4064056
0.39122924 -2.7415745 -0.40831795
0.38375244 -2.8123932 -0.41947347
0.3561528 -2.7354009 -0.40656495
0.33960518 -2.7394941 -0.40688369
0.97454935 -8.270174 -1.305539
0.92553914 -8.2916965 -1.3080888
0.8730917 -8.2824926 -1.3056984
0.82040209 -8.2690287 -1.3026705
0.73817801 -7.9357643 -1.2478491
0.67887515 -7.8181887 -1.2280879
0.63081145 -7.8212228 -1.2279285
0.58457047 -7.8485737 -1.2317533
0.53835422 -7.8805757 -1.2363749
0.58578521 -9.4237785 -1.4854612
0.20113632 -3.5959542 -0.54266208
0.17764156 -3.5685267 -0.53804052
0.156001 -3.5754673 -0.5389967
0.35389256 -9.4234781 -1.4835489
0.25658643 -8.1703491 -1.2808375
0.23904972 -9.4596796 -1.4888079
0.1808314 -9.4520845 -1.4873736
0.12274101 -9.446106 -1.4862581
0.064744428 -9.4417458 -1.4854612
0.0068044709 -9.4350548 -1.4843457
-0.051088065 -9.4349184 -1.4843457
-0.10909228 -9.4442987 -1.4859394
-0.16730063 -9.4582577 -1.4883299
-0.22540268 -9.4600143 -1.4888079
-0.28385741 -9.4722681 -1.491039
-0.34200838 -9.4713345 -1.4911984
-0.40036678 -9.4749756 -1.4921546
-0.45916423 -9.486146 -1.4943857
-0.51789886 -9.4930077 -1.4959793
-0.57547945 -9.4788113 -1.4942263
-0.6335637 -9.4741173 -1.494067
-0.69218695 -9.476943 -1.4951825
-0.75079083 -9.4784222 -1.4961387
-0.80784386 -9.4608498 -1.494067
-0.86443961 -9.4399853 -1.4915171
-0.92445832 -9.4561195 -1.4950231
-0.98062581 -9.4325943 -1.4921546
-1.0415105 -9.4538755 -1.4966167
-1.1014382 -9.4639778 -1.499326
-1.1611687 -9.4707594 -1.5015571
-1.2185017 -9.4575815 -1.5006009
-1.2736028 -9.4284029 -1.4970949
-1.3307399 -9.4155235 -1.4962981
-1.3929548 -9.4374571 -1.5012383
-1.4509858 -9.4297085 -1.5013977
-1.5049161 -9.3962574 -1.4974136
-0.49374345 -2.9644578 -0.44640604
-0.51427621 -2.9749918 -0.44863713
-0.54435277 -3.0378604 -0.45947391
-0.55902338 -3.0131083 -0.45596787
-0.58084732 -3.0270734 -0.45883644
-1.8791007 -9.4826632 -1.5217963
-1.9152944 -9.363596 -1.5041069
-1.9757682 -9.3661566 -1.5064974
-2.0294271 -9.3364925 -1.5036288
-0.654028 -2.9211257 -0.44449365
-0.66928166 -2.905513 -0.4425813
-0.7071057 -2.9858916 -0.45660535
-2.2574782 -9.2819576 -1.5033101
-2.3218021 -9.2976236 -1.5082504
-2.3790526 -9.2841587 -1.5084097
-0.76185596 -2.8979378 -0.44497174
-0.78219038 -2.9027412 -0.44656539
-0.79263437 -2.8712406 -0.44210318
-0.80379516 -2.8435223 -0.43827844
-0.81930792 -2.8318982 -0.43716291
-2.7673333 -9.3531275 -1.5358204
-2.7717881 -9.1611595 -1.506338
-2.8308642 -9.1534119 -1.5079316
-1.0131816 -3.2053642 -0.50393653
-1.0331334 -3.2000265 -0.50409591
-3.0211139 -9.167263 -1.5194058
-3.069124 -9.1242247 -1.5152624
-3.1288967 -9.1164265 -1.5171747
-1.1305984 -3.2286837 -0.51349843
-1.129148 -3.1621807 -0.50329906
-3.2765908 -9.0034819 -1.5079316
-3.3832624 -9.1220512 -1.5318363
-1.1582007 -3.0642107 -0.49007183
-1.1876184 -3.0846865 -0.49485278
-1.18635 -3.0258691 -0.48592836
-1.2085527 -3.0277021 -0.48752201
-3.6247098 -8.9234266 -1.5160593
-3.6760008 -8.8928061 -1.514625
-3.72667 -8.8609829 -1.5130312
-3.7844641 -8.8461189 -1.5144656
-3.8335519 -8.8109627 -1.5123938
-3.8967285 -8.8080397 -1.5160593
-3.9547491 -8.7929678 -1.5176529
-1.3207734 -2.8884358 -0.47397605
-1.3259939 -2.8534176 -0.46919513
-1.3481127 -2.8550482 -0.47094813
-4.1791668 -8.7137384 -1.5213182
-4.2390394 -8.7012444 -1.5237087
-4.2949762 -8.6803799 -1.5246649
-4.3357477 -8.6291628 -1.5202026
-4.3908567 -8.6067934 -1.5209996
-4.4553876 -8.6024828 -1.525143
-4.5108438 -8.5802259 -1.5260992
-4.5615473 -8.5489025 -1.5254617
-4.6195569 -8.5311699 -1.527374
-4.6613584 -8.4836292 -1.5238681
-4.66574 -8.3694992 -1.508091
-4.6640387 -8.2470455 -1.4907203
-4.693923 -8.1823063 -1.484027
-4.729147 -8.1277514 -1.479246
-4.76438 -8.0739241 -1.4746245
-4.773787 -7.977613 -1.4620347
-4.8042121 -7.9177861 -1.4562976
-4.8356352 -7.8604102 -1.4510386
-4.874372 -7.8155131 -1.4481701
-4.9174876 -7.7779474 -1.4467357
-4.938488 -7.7060676 -1.4387676
-4.9921312 -7.6855555 -1.4406799
-5.0467939 -7.6663241 -1.442911
-5.1090779 -7.6582088 -1.4473732
-5.167582 -7.6438913 -1.4507198
-5.2322392 -7.638103 -1.4558195
-5.3139048 -7.6561394 -1.4657001
-5.3851991 -7.6581154 -1.4725528
-5.4836369 -7.6972942 -1.4868956
-5.5417395 -7.6787128 -1.4899235
-5.6038985 -7.6652865 -1.494067
-5.666101 -7.6513853 -1.4982104
-5.7236042 -7.6306906 -1.501079
-5.7977877 -7.6315894 -1.5084097
-5.9221611 -7.6968064 -1.5289677
-6.0760684 -7.7973809 -1.5570159
-1.7580054 -2.2272482 -0.41931409
-1.7697896 -2.2141058 -0.418836
-6.1632938 -7.6159177 -1.5428324
-6.3012609 -7.6894441 -1.5660996
-6.3483238 -7.6506357 -1.5660996
-6.3894324 -7.6047359 -1.5646653
-6.4065499 -7.530798 -1.5573345
-6.4552145 -7.494338 -1.5579721
-6.5211911 -7.4776545 -1.5629123
-6.5728307 -7.4441609 -1.5643466
-6.6328578 -7.4198837 -1.5678526
-6.6875343 -7.3892932 -1.5700837
-6.7527552 -7.3699574 -1.5748646
-6.8065767 -7.3377943 -1.5769364
-6.8609333 -7.3059669 -1.5791675
-6.9049525 -7.2630162 -1.5790081
-6.9028378 -7.1721411 -1.5681714
-6.9735827 -7.1572285 -1.5743866
-7.0340052 -7.1311736 -1.5782113
-7.0825114 -7.0927696 -1.5793269
-7.1420403 -7.0651479 -1.5829922
-3.499639 -3.4194431 -0.75111055
-3.4452651 -3.325227 -0.73421794
-3.3691497 -3.2120528 -0.71270376
-3.4153848 -3.2163639 -0.71860027
-7.3814211 -6.866951 -1.5887294
-3.4982107 -3.2142901 -0.72816211
-3.526639 -3.2007275 -0.73007447
-3.4925544 -3.1309185 -0.71844089
-3.3661044 -2.9804902 -0.68704611
-3.3954749 -2.9695296 -0.68943661
-3.4151258 -2.9499304 -0.68975532
-4.8450136 -4.1336236 -0.98936021
-3.7605789 -3.168633 -0.75509471
-3.8429303 -3.1979165 -0.76832193
-4.9294314 -4.0512652 -0.99127257
-4.86835 -3.9512587 -0.97342378
-4.8817191 -3.912668 -0.97119266
-4.8793168 -3.8618081 -0.9657743
-4.8951426 -3.825717 -0.96418065
-5.0185595 -3.8728158 -0.98457927
-5.0210276 -3.8257935 -0.98027647
-5.0160084 -3.7735455 -0.97453934
-5.1238647 -3.8056867 -0.99159127
-5.2545915 -3.8529911 -1.0131055
-5.2565436 -3.8050461 -1.0088027
-5.2195525 -3.7296705 -0.99685031
-5.2423387 -3.6975739 -0.99685031
-5.0226846 -3.4966705 -0.94920039
-5.3149824 -3.651974 -1.0022687
-5.3675208 -3.6397955 -1.0081652
-5.2552037 -3.5167408 -0.98202944
-5.2651501 -3.4768126 -0.97979832
-5.2185621 -3.4002438 -0.96673048
-5.2509527 -3.375634 -0.9689616
-5.3049126 -3.3645029 -0.97533613
-5.4618683 -3.4172478 -1.0013125
-5.2735538 -3.2545569 -0.96163082
-5.5472407 -3.3766599 -1.0095994
-5.585629 -3.3532307 -1.0129461
-5.4132667 -3.2047193 -0.9767704
-5.3893485 -3.1460583 -0.96864283
-5.3469486 -3.0774696 -0.95716864
-5.3906302 -3.0587339 -0.9617902
-5.3998194 -3.0202982 -0.96003717
-5.7467637 -3.1682477 -1.0205956
-5.431272 -2.9509785 -0.95908099
-5.6268167 -3.0126688 -0.99159127
-5.6722636 -2.992368 -0.99653161
-5.6756263 -2.9497669 -0.9938224
-5.625957 -2.8802409 -0.98155135
-5.4927926 -2.7696505 -0.95430005
-5.6555734 -2.8083503 -0.98059517
-5.6904359 -2.7822692 -0.98378247
-5.6202292 -2.7053337 -0.96816474
-5.7973037 -2.7468967 -0.99685031
-5.7818403 -2.6962509 -0.99111319
-5.7390575 -2.6335452 -0.98059517
-5.7686048 -2.6043756 -0.98298562
-5.7709432 -2.5629199 -0.98059517
-5.9349251 -2.5922759 -1.0067309
-5.948905 -2.5550315 -1.0064121
-6.0181274 -2.5411422 -1.0158147
-6.0345182 -2.5045464 -1.015974
-6.0634837 -2.4730654 -1.0183645
-5.9603333 -2.3884361 -0.99780649
-6.1236892 -2.4104052 -1.0236236
-5.9275012 -2.2912617 -0.98712909
-5.9340649 -2.2520454 -0.98585421
-6.1559181 -2.2931435 -1.0217111
-6.1661639 -2.2539725 -1.0210737
-6.1194763 -2.1944311 -1.010715
-6.1970844 -2.1794448 -1.0217111
-6.1786089 -2.1304357 -1.0162928
-6.0017123 -2.0283093 -0.98394179
-6.2867575 -2.0817685 -1.0303168
-6.3698406 -2.0660019 -1.0422691
-6.3861613 -2.0280738 -1.0429066
-6.4003706 -1.9894371 -1.0432253
-6.4540143 -1.9627687 -1.0502374
-6.421463 -1.9099004 -1.0427473
-6.4122066 -1.864398 -1.0392412
-6.514689 -1.8509252 -1.0545402
-6.5059471 -1.8053724 -1.0511936
-6.6245751 -1.7945939 -1.0692017
-6.6946363 -1.7695575 -1.0790823
-6.8114791 -1.7558055 -1.0967717
-6.9178696 -1.7380385 -1.1127082
-7.1729255 -1.7554139 -1.1533461
-7.3948345 -1.761713 -1.1884062
-8.0873623 -1.8743718 -1.3013955
-8.1198988 -1.8294882 -1.3049015
-8.2833433 -1.8129884 -1.3300811
-9.0378685 -1.9201341 -1.4527916
-9.0262747 -1.8598601 -1.4489669
-9.5583553 -1.9084558 -1.5347048
-10.037075 -1.9400941 -1.6115184
-10.48353 -1.9597571 -1.6829137
-10.578907 -1.9104861 -1.696619
-10.796612 -1.8814774 -1.7304043
-11.011432 -1.8493769 -1.7637113
-11.616081 -1.8777386 -1.8607643
-11.992226 -1.8631228 -1.9203664
-12.039559 -1.7948921 -1.926263
-12.029822 -1.7180531 -1.9229163
-12.110563 -1.653827 -1.9343905
-12.1058 -1.5775727 -1.932
-12.059408 -1.4963324 -1.9229163
-12.071303 -1.4226558 -1.9233943
-12.097466 -1.350533 -1.926263
-12.106506 -1.2763826 -1.9264224
-12.112145 -1.2018794 -1.9261036
-12.11536 -1.127172 -1.9254661
-12.099427 -1.0508469 -1.9218007
-12.094824 -0.9757129 -1.9200478
-12.136024 -0.90412366 -1.9257848
-12.130509 -0.82890069 -1.9240319
-12.124529 -0.75377953 -1.9222789
-12.139768 -0.67997831 -1.9240319
-12.119061 -0.60424745 -1.9200478
-12.116624 -0.52961606 -1.9190916
-12.199553 -0.45826417 -1.932
-12.11629 -0.38070035 -1.9181354
-11.250027 0.82696098 -1.9257587
-11.229029 0.89472067 -1.9230133
-11.213511 0.96276009 -1.9212976
-11.21328 1.0320891 -1.922327
-11.165557 1.0968237 -1.9151205
-11.176253 1.1671574 -1.918209
-11.148319 1.2334344 -1.9146056
-11.16011 1.3041048 -1.9180374
-11.12941 1.3697872 -1.9140909
-11.136428 1.4400733 -1.9168363
-11.11762 1.5070536 -1.9151205
-11.076951 1.5708122 -1.9096297
-11.042741 1.6351393 -1.9053401
-11.056841 1.7066251 -1.9096297
-11.030598 1.7719349 -1.9068843
-11.015631 1.8389347 -1.906198
-11.016759 1.9086783 -1.9084285
-11.013567 1.977808 -1.9099729
-10.973136 2.0401237 -1.9049969
-10.925584 2.1007149 -1.8988198
-10.937612 2.1727068 -1.9032811
-10.921179 2.2391839 -1.9027663
-10.901451 2.3049295 -1.9017367
-10.889991 2.3724055 -1.9022515
-10.866577 2.4372392 -1.9007072
-10.856218 2.5049775 -1.9015652
-10.824348 2.5676756 -1.8986483
-10.82466 2.6380112 -1.9015652
-10.789157 2.6995959 -1.8981335
-10.793382 2.7711382 -1.9019084
-10.765696 2.8345525 -1.900021
-10.743344 2.8992724 -1.899163
-10.73105 2.9667134 -1.9001925
-10.712645 3.0325019 -1.9001925
-10.683428 3.0951598 -1.8983051
-10.67368 3.1634543 -1.900021
-10.666325 3.2326031 -1.9022515
-10.63782 3.2953649 -1.9007072
-10.619278 3.3611701 -1.9010504
-10.620952 3.4335408 -1.9051685
-10.586587 3.4943209 -1.9027663
-10.566813 3.5598423 -1.9031094
-10.53173 3.6201272 -1.9007072
-10.498162 3.680768 -1.8986483
-10.518051 3.7603748 -1.9065411
-10.472566 3.8167429 -1.9024231
-10.461879 3.8857331 -1.9048253
-10.417569 3.9421799 -1.9010504
-10.380316 4.0010648 -1.8986483
-10.330811 4.0549607 -1.8940154
-10.321287 4.1244893 -1.8969324
-10.251071 4.1695495 -1.8885248
-10.265345 4.2489524 -1.8960744
-10.255423 4.3187437 -1.899163
-10.247746 4.3897367 -1.9027663
-10.200749 4.4438744 -1.8989915
-10.167886 4.5039868 -1.8979619
-10.105926 4.5509157 -1.8914417
-10.110058 4.6276031 -1.8976188
-10.070755 4.6845632 -1.8955597
-10.046274 4.748373 -1.8964176
-10.001853 4.8026757 -1.8935007
-9.9713106 4.8635235 -1.8933291
-9.9262743 4.9171786 -1.8904122
-9.8906364 4.9753356 -1.8893826
-9.8388662 5.0251732 -1.8852646
-9.8506994 5.1076741 -1.8936722
-9.7860479 5.1505809 -1.8871521
-9.7525225 5.2096014 -1.8868089
-9.7151775 5.2665262 -1.8857794
-9.6619644 5.314641 -1.8816613
-9.6446562 5.3824687 -1.8847499
-9.6114483 5.441546 -1.8847499
-9.5565224 5.4881506 -1.8804603
-9.5354357 5.5541239 -1.883034
-9.5037212 5.6140313 -1.8835487
-9.4167004 5.6408458 -1.8729105
-9.3894892 5.7031231 -1.8744547
-9.4071636 5.7931795 -1.8852646
-9.3889885 5.8617496 -1.8888679
-9.3295374 5.9044952 -1.8840635
-9.286499 5.9573727 -1.8826908
-9.2481184 6.0131669 -1.8823477
-9.1978874 6.0611248 -1.8796023
-9.1760893 6.1278448 -1.8828624
-9.1570816 6.196734 -1.8868089
-9.0945129 6.2360873 -1.8816613
-9.1078548 6.3277531 -1.8926427
-9.0753012 6.3880558 -1.8940154
-9.0407467 6.4470534 -1.8950449
-9.0050106 6.5052896 -1.8959029
-8.9585657 6.5557661 -1.8945302
-8.9419127 6.6282134 -1.8996778
-8.8868952 6.672307 -1.8965893
-8.8504915 6.7302885 -1.8976188
-8.8222961 6.7946882 -1.9005357
-8.7555828 6.8293014 -1.8950449
-8.7258825 6.8926678 -1.8977903
-8.7149649 6.9713135 -1.9048253
-8.6735573 7.0258965 -1.9051685
-8.6523714 7.0971055 -1.9101444
-8.6177549 7.1576161 -1.9122034
-8.5714121 7.2084565 -1.9116887
-8.5217705 7.2564425 -1.9104877
-8.4994678 7.3278956 -1.9156352
-8.4610243 7.3857408 -1.9171795
-8.4280949 7.4486098 -1.9200964
-8.3572721 7.4778457 -1.9142625
-8.3345938 7.5501518 -1.9197532
-8.2692347 7.5838351 -1.915292
-8.2391491 7.6498504 -1.9192384
-8.2250719 7.7313023 -1.9271314
-8.1475077 7.753098 -1.9199249
-8.1111326 7.8138814 -1.9226701
-8.065856 7.8662548 -1.9233565
-8.0321579 7.9301348 -1.9269598
-7.9854388 7.9813595 -1.9274746
-7.9259291 8.0196953 -1.9249008
-7.8841414 8.0759325 -1.9267882
-7.8487997 8.1390495 -1.9303916
-7.8089032 8.1977568 -1.9329653
-7.7652059 8.2526932 -1.9346812
-7.7258224 8.3124523 -1.9375981
-7.6966567 8.3836517 -1.9432604
-7.6417623 8.4270706 -1.9424025
-7.5945115 8.4789381 -1.9436036
-7.547564 8.5312805 -1.9449762
-7.4963713 8.5789156 -1.9453194
-7.4480963 8.6299715 -1.9465206
-7.4001155 8.6815081 -1.9478933
-7.347342 8.7275047 -1.9480648
-7.2993207 8.7792416 -1.949609
-7.2546911 8.8352861 -1.9521829
-7.2046852 8.8849907 -1.9533839
-7.1488008 8.9274921 -1.9530407
-7.0932775 8.9704151 -1.9528692
-7.0465899 9.024642 -1.9552714
-7.0007062 9.0801935 -1.9580168
-6.9496326 9.1292496 -1.9593894
-6.8846083 9.1599064 -1.9568156
-6.8323832 9.2075148 -1.9580168
-6.7844901 9.2611866 -1.9605905
-6.7454309 9.3273897 -1.9659096
-6.7115378 9.4014807 -1.9729446
-6.659966 9.4513435 -1.9748321
-6.5883498 9.4726181 -1.9707141
-6.5044594 9.4755011 -1.9628211
-6.4467492 9.5160484 -1.9629927
-6.3603182 9.5136547 -1.9542419
-6.3441324 9.6166487 -1.9676255
-6.2919922 9.6661282 -1.9698561
-6.2479997 9.7285948 -1.9748321
-6.1913514 9.7717419 -1.9758615
-6.138586 9.8212433 -1.9782637
-6.0725222 9.8494987 -1.9763763
-6.0186253 9.8975172 -1.9786069
-5.9593019 9.9367952 -1.9791217
-5.8992214 9.9748697 -1.9794649
-5.8364172 10.008327 -1.9789501
-5.777843 10.049074 -1.9799796
-5.7257891 10.10148 -1.9834113
-5.6560125 10.122661 -1.980666
-5.5971208 10.163216 -1.9818671
-5.5379438 10.203429 -1.9830682
-5.4766264 10.239823 -1.983583
-5.411397 10.268877 -1.982725
-5.3564553 10.317626 -1.9858135
-5.2925982 10.349422 -1.985642
-5.2383003 10.40018 -1.9892453
-5.1599445 10.402999 -1.983583
-5.1076865 10.458366 -1.9882157
-5.0348825 10.471752 -1.984784
-4.9776974 10.517587 -1.9877009
-4.9467554 10.620272 -2.0015993
-4.8622088 10.60833 -1.9935349
-4.786499 10.614614 -1.9890736
-4.7312632 10.666298 -1.9933633
-4.6688776 10.702352 -1.994736
-4.6038976 10.732609 -1.9950792
-4.5299196 10.741591 -1.9914758
-4.4669423 10.776465 -1.9928485
-4.4107671 10.828306 -1.9974813
-4.3490005 10.867058 -1.999712
-4.275393 10.876117 -1.9964519
-4.2224112 10.93799 -2.0031435
-4.1520762 10.955401 -2.0015993
-4.0913014 10.998216 -2.0048594
-4.0338721 11.050877 -2.0100071
-3.9722979 11.093043 -2.0132673
-3.9067683 11.124644 -2.0146399
-3.8442063 11.165174 -2.0177283
-3.7831836 11.210956 -2.0218465
-3.7084489 11.216185 -2.0185864
-3.6462333 11.259349 -2.0223613
-3.5898786 11.321892 -2.0297394
-3.5136273 11.322064 -2.0257928
-3.445807 11.349067 -2.0268223
-3.3833942 11.394551 -2.0312836
-3.3142385 11.417935 -2.0317984
-3.2476103 11.450377 -2.034029
-3.1841266 11.494775 -2.0384903
-3.1127648 11.511243 -2.0379755
-3.0453405 11.542509 -2.040206
-2.974705 11.561932 -2.0403776
-2.9063411 11.590479 -2.0422652
-2.8351686 11.608093 -2.0422652
-2.7666225 11.636773 -2.0443242
-2.6925061 11.642011 -2.0422652
-2.6242611 11.67273 -2.0448389
-2.551749 11.684763 -2.0441525
-2.481638 11.707911 -2.0455253
-2.4057875 11.703617 -2.0420935
-2.3391235 11.744246 -2.0467262
-2.2655268 11.750639 -2.0453537
-2.1868865 11.729452 -2.0391765
-2.1110351 11.721319 -2.0354016
-2.0443006 11.764141 -2.0407207
-1.9706151 11.767718 -2.0391765
-1.9077718 11.837947 -2.0494716
-1.8313326 11.82509 -2.045182
-1.7607666 11.849748 -2.0475843
-1.687886 11.859353 -2.0474126
-1.6152194 11.870462 -2.0475843
-1.5426066 11.882104 -2.0479274
-1.4706364 11.899167 -2.0493
-1.4018422 11.94417 -2.0556488
-1.3263531 11.932963 -2.052217
-1.2539306 11.948716 -2.0535898
-1.1809779 11.960107 -2.054276
-1.106935 11.960261 -2.0530748
-1.0248905 11.866713 -2.0355732
-0.95677751 11.931699 -2.0458684
-0.88420159 11.946188 -2.0474126
-0.81348169 11.989721 -2.0541046
-0.73862702 11.973838 -2.0505011
-0.66399795 11.957488 -2.0468979
-0.59119755 11.973145 -2.0489569
-0.51801777 11.983437 -2.050158
-0.4421851 11.924366 -2.0393481
-0.36888874 11.922916 -2.0386617
-0.29718384 11.984047 -2.0489569
-0.22348094 11.97678 -2.0474126
-0.15003756 11.981867 -2.048099
-0.076397665 11.963843 -2.0448389
-0.0029883683 11.969998 -2.0458684
0.070617363 11.99639 -2.0505011
0.14433196 12.004597 -2.0520453
0.21771832 11.98871 -2.0494716
0.29089114 11.971391 -2.0467262
0.36364913 11.946733 -2.0427799
0.43716273 11.950183 -2.0438094
0.51022655 11.94137 -2.0427799
0.58319867 11.932111 -2.0417504
0.65618485 11.924373 -2.041064
0.7281338 11.900455 -2.0376322
0.80067587 11.888884 -2.0364311
0.87476683 11.899467 -2.0391765
0.9491744 11.911552 -2.0422652
1.0224975 11.908448 -2.0427799
1.0940105 11.885273 -2.0398629
1.1669165 11.878337 -2.0398629
1.2381399 11.855276 -2.0371175
1.3087988 11.828851 -2.0338573
1.3759757 11.774609 -2.0257928
1.4563879 11.832433 -2.0374608
1.52871 11.82132 -2.0371175
1.5979046 11.787312 -2.0328279
1.6719996 11.789966 -2.0350585
1.7473425 11.79995 -2.0386617
1.8197126 11.789005 -2.0386617
1.8888874 11.758164 -2.0352302
1.9579145 11.727891 -2.03197
2.0258 11.69236 -2.0278518
2.0980275 11.682619 -2.0283666
2.1732748 11.688896 -2.0317984
2.2430944 11.665668 -2.0300825
2.3140552 11.648786 -2.0295677
2.3850913 11.632438 -2.0292246
2.4545865 11.608909 -2.0276804
2.5247223 11.588817 -2.0268223
2.5992336 11.588488 -2.0295677
2.669404 11.56848 -2.0288815
2.7316923 11.515459 -2.0223613
2.7978644 11.480295 -2.0191011
2.8754303 11.491583 -2.0242486
2.9449069 11.469906 -2.0235622
3.0071995 11.421135 -2.0180717
3.0797894 11.41198 -2.0197873
3.1439767 11.371978 -2.0160124
3.2150366 11.357212 -2.0168705
3.2923415 11.363766 -2.0216749
3.3561254 11.323515 -2.0180717
3.4161093 11.271597 -2.0124092
3.4814153 11.238191 -2.0101786
3.5437636 11.195955 -2.0064037
3.6242166 11.210558 -2.0130956
3.6932437 11.189044 -2.0132673
3.7577388 11.154036 -2.0110366
3.8084891 11.079529 -2.0015993
3.8790085 11.063389 -2.0029721
3.9511321 11.051439 -2.0052028
4.0165062 11.020508 -2.0040016
4.0946875 11.024284 -2.0093207
4.1566739 10.98421 -2.0065753
4.2161961 10.938276 -2.0028005
4.2821527 10.909449 -2.0022857
4.3416977 10.864673 -1.998854
4.4097652 10.841478 -1.9995403
4.4739432 10.808755 -1.9985108
4.5355911 10.770205 -1.9964519
4.591114 10.717723 -1.991819
4.6516743 10.677609 -1.9895884
4.7067266 10.625448 -1.9851272
4.7892327 10.634993 -1.9925053
4.8375831 10.568681 -1.9854704
4.9015088 10.537012 -1.9851272
4.9702816 10.515645 -1.9868431
5.0406823 10.497383 -1.9892453
5.1037021 10.4636 -1.9887304
5.1629977 10.422378 -1.9868431
5.2326078 10.401942 -1.9890736
5.2806473 10.338934 -1.9830682
5.3421721 10.302839 -1.9823818
5.4140081 10.286429 -1.985642
5.4644876 10.229556 -1.9810091
5.5064898 10.157727 -1.9734594
5.5653882 10.117707 -1.9722583
5.6360083 10.098852 -1.9753468
5.6886439 10.047792 -1.9720867
5.7521515 10.016115 -1.9727731
5.8095336 9.9738226 -1.9714004
5.870121 9.9371395 -1.9712288
5.9173126 9.8781166 -1.966596
5.9670701 9.8239422 -1.9629927
6.0349865 9.7997255 -1.9655665
6.0913501 9.7566624 -1.9643654
6.1468859 9.7124434 -1.9629927
6.1999798 9.6645937 -1.9609337
6.2543302 9.6189365 -1.9593894
6.2996788 9.5598154 -1.9550998
6.3505573 9.5095129 -1.9526976
6.4038172 9.4630241 -1.9511533
6.4606462 9.4219284 -1.9508102
6.5194607 9.3837271 -1.9511533
6.5746469 9.3403263 -1.950467
6.6158161 9.2773514 -1.9456626
6.6558838 9.2134256 -1.9406866
6.7140365 9.1747971 -1.9412013
6.760231 9.1199741 -1.9382844
6.808372 9.0680819 -1.9360539
6.8674631 9.0308409 -1.9370834
6.9197402 8.9846306 -1.9362254
6.9717083 8.9381189 -1.9353675
7.0221453 8.8897619 -1.9341664
7.0673275 8.8349686 -1.9315926
7.1027994 8.7684736 -1.926445
7.1470947 8.7133026 -1.9238713
7.190352 8.6571598 -1.9211259
7.2293839 8.5962915 -1.917351
7.2736897 8.5420208 -1.9151205
7.3253222 8.4964838 -1.9149488
7.3825011 8.4573135 -1.9163215
7.429688 8.4066887 -1.9151205
7.4614205 8.3389196 -1.9099729
7.5005403 8.2798395 -1.9068843
7.549871 8.2322092 -1.9065411
7.5995708 8.1850071 -1.9063696
7.6402025 8.1281738 -1.9039674
7.6933279 8.0847101 -1.9048253
7.7359543 8.0302582 -1.9031094
7.7692595 7.9664197 -1.899163
7.807611 7.9080834 -1.8965893
7.8538976 7.8579378 -1.8960744
7.9026661 7.8102918 -1.8962461
7.9433899 7.7547736 -1.8945302
7.9886951 7.7038364 -1.8940154
8.0286808 7.6478796 -1.8922997
8.0725861 7.5957727 -1.8916132
8.0973902 7.5259786 -1.8864657
8.1296263 7.4634948 -1.8832055
8.1555624 7.3956056 -1.8785728
8.1831732 7.3296518 -1.8744547
8.2302074 7.281261 -1.8749695
8.2613745 7.2189569 -1.871881
8.3122263 7.173923 -1.8734252
8.3658361 7.1310921 -1.8756558
8.3777781 7.0529814 -1.8684492
8.4065018 6.9894781 -1.8651891
8.4629364 6.949017 -1.8682777
8.4847536 6.8802071 -1.8636448
8.5206575 6.8230906 -1.8622721
8.5600443 6.7688475 -1.8617574
8.5851078 6.7034659 -1.8581542
8.6260777 6.6506624 -1.8581542
8.6722107 6.6017852 -1.8593552
8.7204313 6.5543675 -1.8610711
8.7470331 6.4907579 -1.8581542
8.7596722 6.4171729 -1.8523202
8.7964878 6.3615718 -1.8518054
8.840167 6.3109117 -1.8528349
8.866643 6.2480397 -1.8502612
8.9096661 6.1968923 -1.8512907
8.9588938 6.1499114 -1.8536929
8.9899349 6.090405 -1.8523202
9.0361452 6.041151 -1.8542076
9.0705757 5.9839654 -1.8536929
9.0972137 5.9217486 -1.8516339
9.1416674 5.8711405 -1.8533498
9.1800165 5.8165193 -1.8538646
9.2088499 5.7559056 -1.8524919
9.2507029 5.7034283 -1.8538646
9.2897339 5.6491189 -1.8547224
9.3529482 5.6092362 -1.8605564
9.3770142 5.5457253 -1.8584973
9.387886 5.4746871 -1.8538646
9.4418001 5.4287643 -1.8579825
9.485218 5.3765569 -1.8600416
9.5223293 5.3206577 -1.8608994
9.563427 5.2668815 -1.8626153
9.579978 5.1996446 -1.8595269
9.607358 5.1384425 -1.8586689
9.6552668 5.0881209 -1.8619291
9.6941748 5.032866 -1.8634733
9.6941719 4.9575925 -1.8574678
9.7437668 4.9077644 -1.8612427
9.7728148 4.8474479 -1.8610711
9.7970619 4.7847981 -1.8600416
9.8404436 4.7314234 -1.8627869
9.825654 4.6503086 -1.8543793
9.8968716 4.6098938 -1.8626153
9.9258661 4.5494914 -1.8627869
9.9814367 4.5010533 -1.8681061
10.009768 4.4401231 -1.8682777
10.063913 4.3904357 -1.8734252
10.068027 4.3188949 -1.8691356
10.086168 4.253593 -1.8675914
10.166685 4.2142539 -1.8778864
10.129395 4.1261559 -1.866047
10.121593 4.0507512 -1.85987
10.181101 4.0022626 -1.8663902
10.215576 3.9436188 -1.8682777
10.225762 3.875627 -1.8657039
10.229959 3.8055987 -1.8621006
10.267925 3.7481608 -1.864846
10.273108 3.6787789 -1.8615859
10.315936 3.6228545 -1.8653607
10.376164 3.5726345 -1.8723958
10.359618 3.4959893 -1.8653607
10.391163 3.4357588 -1.8672482
10.430795 3.3780038 -1.8706799
10.480438 3.3231659 -1.875999
10.49969 3.2585046 -1.8758274
10.511003 3.1914432 -1.8742832
10.502997 3.1187592 -1.8693072
10.525721 3.0553534 -1.8699936
10.561331 2.9955482 -1.873082
10.604198 2.9375243 -1.8775432
10.619169 2.8716316 -1.8770285
10.623253 2.8029022 -1.8746263
10.612582 2.7305505 -1.8696504
10.675006 2.6768785 -1.8778864
10.709414 2.615767 -1.8811466
10.709927 2.5463617 -1.8784012
10.700393 2.4748297 -1.87394
10.718261 2.4097745 -1.8744547
10.73477 2.3443835 -1.8747979
10.792322 2.2876604 -1.8825192
10.807121 2.221595 -1.8826908
10.826346 2.1563962 -1.8837203
10.882906 2.098315 -1.8914417
10.859741 2.0248218 -1.885093
10.87487 1.958673 -1.8856077
10.871153 1.889212 -1.8828624
10.938896 1.8319039 -1.8928144
10.924643 1.7606767 -1.8883531
6.2708278 0.97170448 -1.0662884
6.0233064 0.89558625 -1.0216762
5.9282265 0.8443228 -1.0040029
5.9167004 0.80567557 -1.001086
5.9029698 0.7669481 -0.99782586
5.88801 0.72829884 -0.99439412
5.8874755 0.69158328 -0.99353617
5.8739834 0.6534881 -0.99044764
5.8788624 0.61753643 -0.99061924
5.8717566 0.58038896 -0.9887318
5.865397 0.54344261 -0.98701596
5.8470278 0.50558019 -0.98324108
5.8510017 0.46977261 -0.98341268
5.8478794 0.43342695 -0.98238319
5.8533773 0.39773667 -0.98289794
0 0 -0
0 0 -0
5.8419952 0.2890549 -0.9798094
0 0 -0
0 0 -0
5.8394332 0.18126132 -0.97860831
5.8414202 0.14545214 -0.97877985
5.8392477 0.10955228 -0.97826511
0 0 -0
0 0 -0
0 0 -0
0 -0 -0
0 -0 -0
0 -0 -0
0 -0 -0
0 -0 -0
0 -0 -0
0 -0 -0
0 -0 -0
0 -0 -0
0 -0 -0
0 -0 -0
0 -0 -0
0 -0 -0
0 -0 -0
0 -0 -0
0 -0 -0
9.8064508 -1.0239633 -1.6783328
9.7226286 -1.0755486 -1.6647776
9.7285662 -1.1366731 -1.6670082
9.7693195 -1.2022469 -1.6754159
9.7949781 -1.2664667 -1.6812497
9.7811651 -1.3257492 -1.6802202
9.763092 -1.3843561 -1.6785045
9.7475929 -1.4432244 -1.6773033
9.728817 -1.5015035 -1.6755874
9.6805143 -1.554916 -1.6687241
9.6426115 -1.609578 -1.663748
9.6131401 -1.6653481 -1.6603163
9.595953 -1.7230823 -1.6591153
9.5580807 -1.7768846 -1.6543109
9.5199099 -1.8302871 -1.6495064
9.476613 -1.882328 -1.6438442
9.4436531 -1.9360846 -1.6400694
9.443162 -1.9964401 -1.6421283
8.33918 -1.8164283 -1.4475507
9.4217968 -2.1130347 -1.6428146
9.3990545 -2.1685898 -1.6410989
9.3961153 -2.228723 -1.6429863
9.3966208 -2.289835 -1.64556
9.3986397 -2.3515153 -1.648477
7.4260249 -1.9062151 -1.2963841
7.4065676 -1.949737 -1.2950114
9.3908577 -2.5341296 -1.6551688
9.3751316 -2.5917032 -1.6551688
9.3808546 -2.6553531 -1.6591153
9.3747931 -2.7158794 -1.6610028
9.349452 -2.7708306 -1.6594584
7.9652262 -2.4136841 -1.4106599
7.9323864 -2.4569716 -1.4073998
7.9181008 -2.5058951 -1.4075713
7.8969517 -2.5526135 -1.4065418
8.7576971 -2.8904471 -1.5673171
9.1888494 -3.0954616 -1.6498497
9.1650248 -3.1501834 -1.6489917
9.1538897 -3.2092941 -1.6505361
9.142374 -3.2683866 -1.6520803
9.1221476 -3.3244216 -1.6520803
9.0794144 -3.372097 -1.6479622
7.5963426 -2.8742452 -1.3756565
9.0336733 -3.4818437 -1.6472759
8.9937983 -3.5300069 -1.6438442
8.9527588 -3.5774462 -1.6402409
8.9078264 -3.6230299 -1.6359513
8.8426466 -3.6599064 -1.6278868
8.789155 -3.7010918 -1.6220529
8.7418299 -3.7444749 -1.6174201
8.6943054 -3.7874172 -1.6127872
8.677207 -3.8434868 -1.6139884
8.6947803 -3.9152691 -1.6218812
8.7341909 -3.9976637 -1.6340638
8.7407598 -4.0657268 -1.6400694
8.7379141 -4.1298094 -1.644359
8.7568121 -4.2046733 -1.6529382
8.6803799 -4.2337022 -1.6431578
8.6507072 -4.2851348 -1.6424716
8.5784893 -4.3151078 -1.6335491
8.5079851 -4.345253 -1.6249698
8.4846611 -4.3991895 -1.6256561
8.4758148 -4.4608054 -1.6292595
8.4309063 -4.5034428 -1.6258278
8.393589 -4.5499234 -1.6239403
8.3025026 -4.5666718 -1.6114146
8.3001328 -4.6319346 -1.6165621
8.2715549 -4.6827765 -1.6165621
8.2426662 -4.7334414 -1.6165621
8.2049551 -4.7789688 -1.6148463
8.162755 -4.8217063 -1.6122725
8.144002 -4.878284 -1.6145031
8.0962353 -4.9174209 -1.6108998
8.0784922 -4.9747558 -1.6134737
8.0302668 -5.0132728 -1.6098703
8.0126734 -5.0708823 -1.6126157
7.9499006 -5.0997343 -1.6060954
7.91433 -5.1457324 -1.6052375
7.8776722 -5.1909437 -1.604208
7.8579612 -5.2473907 -1.6067818
7.7791123 -5.2640309 -1.5970014
7.7621031 -5.3222508 -1.6002616
7.717165 -5.3613448 -1.5976877
7.6672068 -5.3966856 -1.5940845
7.5842218 -5.4081602 -1.5834461
7.5636716 -5.4638262 -1.5861915
7.5347733 -5.5136242 -1.587221
7.526125 -5.5785289 -1.5927118
7.4783621 -5.6145463 -1.5897949
7.4171109 -5.640049 -1.583961
7.371438 -5.6770363 -1.5815587
7.3318052 -5.718524 -1.5805292
7.2958059 -5.7627926 -1.5803577
7.2549243 -5.8031421 -1.5791565
7.2199454 -5.8481684 -1.5793282
7.1923041 -5.8992324 -1.5812156
7.1567297 -5.9438825 -1.5813872
7.1140924 -5.9826097 -1.5800145
7.0840001 -6.0318975 -1.5815587
7.0304418 -6.0610962 -1.5777839
7.0005407 -6.1105995 -1.5794997
6.9304376 -6.1247301 -1.57195
6.885385 -6.1605692 -1.5702342
6.8408842 -6.1967478 -1.5686898
6.7736936 -6.2119679 -1.5618265
6.7296748 -6.2480502 -1.5604538
6.6976709 -6.2952986 -1.561998
6.6560631 -6.3335595 -1.5613117
6.6227512 -6.3797493 -1.5626844
6.5975857 -6.4340239 -1.5661161
6.5727038 -6.4889216 -1.5697194
