# .PCD v0.7 - Point Cloud Data file format
VERSION 0.7
FIELDS x y z
SIZE 4 4 4
TYPE F F F
COUNT 1 1 1
WIDTH 1518
HEIGHT 1
VIEWPOINT 0 0 0 1 0 0 0
POINTS 1518
DATA ascii
0.10702626 -8.5202484 -1.4451485
0.056913342 -8.8655472 -1.5052034
0.002516703 -8.8814926 -1.5079488
-0.052008629 -8.8862667 -1.5088066
-0.10644919 -8.8788843 -1.5076056
-0.16099893 -8.8820038 -1.5082918
-0.21587928 -8.8966074 -1.5110372
-0.27049384 -8.8961 -1.5112088
-0.32431585 -8.8735981 -1.5076056
-0.37909433 -8.8793154 -1.5089782
-0.43400335 -8.8856773 -1.5105225
-0.48981813 -8.906456 -1.5146406
-0.54560286 -8.9219656 -1.5179006
-0.59934235 -8.9037056 -1.5153269
-0.65381849 -8.8978958 -1.5149837
-0.70808923 -8.8897886 -1.5142974
-0.76540703 -8.9176674 -1.5199597
-0.81920642 -8.9029932 -1.5182438
-0.8755542 -8.9154463 -1.5213324
-0.93034428 -8.9108868 -1.5215039
-0.98717171 -8.9245939 -1.5249356
-1.0427145 -8.9252186 -1.5261368
-1.0933639 -8.8854074 -1.5203029
-1.1490011 -8.8873253 -1.5218471
-1.2036434 -8.8810835 -1.5220187
-1.2576989 -8.8706045 -1.5215039
-1.3110933 -8.8558989 -1.5203029
-1.3657082 -8.8496351 -1.520646
-1.4206083 -8.8449793 -1.5213324
-1.4769634 -8.8487282 -1.5235629
-1.5324084 -8.8462944 -1.5247641
-1.5918863 -8.8658142 -1.5299116
-0.55492163 -2.9893548 -0.49061993
-0.57362574 -2.9878285 -0.4909631
-0.59444457 -2.996814 -0.49319369
-0.61539513 -3.0056562 -0.4954243
-1.8726772 -8.8581114 -1.5379761
-1.919861 -8.8137264 -1.5321422
-0.66759533 -2.9803617 -0.49302211
-0.68476194 -2.9714098 -0.49216419
-0.70025146 -2.9556496 -0.49010515
-0.71814042 -2.9503403 -0.48993358
-2.189317 -8.7506876 -1.5321422
-2.2392926 -8.7227774 -1.5295684
-2.2709405 -8.6259899 -1.5146406
-0.78493673 -2.9118543 -0.4863303
-0.79858691 -2.8917906 -0.48358491
-0.81363124 -2.8773572 -0.48186907
-0.82989985 -2.8675797 -0.48101115
-2.5691981 -8.6693916 -1.535917
-2.6123397 -8.6204662 -1.5299116
-2.6611023 -8.5911007 -1.5275095
-1.007974 -3.1872838 -0.54329658
-1.0411532 -3.2232206 -0.55101794
-1.0639998 -3.2261264 -0.55273378
-2.8852949 -8.565218 -1.5352308
-1.1095958 -3.2305276 -0.55599391
-1.1297231 -3.2245882 -0.55616546
-1.1398667 -3.1906941 -0.55118948
-3.0892279 -8.4770203 -1.5324854
-3.1404974 -8.4560585 -1.5321422
-1.1652707 -3.0816426 -0.53488892
-1.1823852 -3.0698385 -0.53403097
-1.2019192 -3.0643597 -0.53437418
-1.2378857 -3.0999224 -0.54243863
-3.4095459 -8.3831205 -1.5372897
-3.4594121 -8.3584013 -1.5366035
-3.5121629 -8.3406496 -1.5372897
-3.56405 -8.3207531 -1.5376329
-3.6162188 -8.3014374 -1.5381477
-3.665092 -8.2745886 -1.5372897
-3.7283378 -8.2797899 -1.5426089
-1.3228819 -2.8921287 -0.51498502
-1.3468368 -2.8973556 -0.51755881
-3.8649514 -8.1776972 -1.5364318
-3.9176152 -8.1591568 -1.5374614
-3.9710608 -8.1420488 -1.5388341
-4.0275059 -8.1307707 -1.5414078
-4.0857329 -8.1226263 -1.544668
-4.1296687 -8.0859985 -1.5424373
-4.1710415 -8.0447655 -1.5393488
-4.2290444 -8.0355844 -1.5426089
-4.2778058 -8.0086145 -1.5424373
-4.3198214 -7.9692254 -1.5398636
-4.3681636 -7.9417062 -1.5396919
-4.4374585 -7.9517436 -1.5470701
-4.4924769 -7.9355106 -1.5493008
-4.5504074 -7.924027 -1.5525608
-4.6048937 -7.9061718 -1.5546199
-4.6643438 -7.8964276 -1.5583948
-4.7035933 -7.8524475 -1.5553062
-4.6974649 -7.7341909 -1.5371182
-4.6993647 -7.6314073 -1.5220187
-4.736187 -7.5865521 -1.5187585
-4.7958217 -7.5781589 -1.5230482
-4.8640432 -7.5825849 -1.5300832
-4.9233685 -7.5724177 -1.5342013
-4.9876308 -7.5692105 -1.5398636
-5.0493021 -7.5614028 -1.544668
-5.1193485 -7.5653601 -1.5520461
-5.1812744 -7.5565543 -1.5568504
-5.2612748 -7.5731611 -1.5671456
-5.2571678 -7.4690423 -1.5518745
-5.319488 -7.4599037 -1.5568504
-5.3778548 -7.4446912 -1.5606253
-5.4321618 -7.4234776 -1.5631992
-5.4875836 -7.4034605 -1.5661161
-5.5364566 -7.3743763 -1.5671456
-5.5923362 -7.3543811 -1.5702342
-5.6451721 -7.3300743 -1.5724647
-5.6888304 -7.2937446 -1.5721216
-5.7408061 -7.2679777 -1.5741806
-5.7988338 -7.2495394 -1.5779555
-5.8270822 -7.1939201 -1.5734942
-5.8611155 -7.145844 -1.5707489
-5.9312916 -7.1415734 -1.5779555
-5.968658 -7.0975065 -1.5762396
-6.0280647 -7.0795002 -1.5805292
-6.0726771 -7.0438714 -1.5808724
-6.1300378 -7.0228043 -1.5846473
-6.1795382 -6.9924397 -1.5863632
-6.2348099 -6.9683394 -1.5896232
-6.2681885 -6.9197311 -1.587221
-6.3198524 -6.891304 -1.5896232
-6.3707328 -6.8617811 -1.5918539
-6.4167652 -6.8268681 -1.5928833
-6.4626083 -6.7916489 -1.5939128
-4.1683974 -4.3277493 -1.0076061
-4.2051921 -4.3126693 -1.01018
-4.2308826 -4.2860847 -1.0100083
-4.3037682 -4.3067241 -1.0215046
-4.3167982 -4.2670794 -1.0182445
-3.493361 -3.4113193 -0.81148428
-3.4844394 -3.3611012 -0.80427772
-3.3987002 -3.2384236 -0.7787115
-3.4220946 -3.2208838 -0.77956945
-4.5373125 -4.217823 -1.0400358
-3.5172477 -3.2299426 -0.79278147
-3.5370002 -3.2083004 -0.79278147
-3.5683618 -3.1970527 -0.79552686
-3.4905052 -3.0889406 -0.77287763
-3.4240723 -2.9929261 -0.75314534
-3.4237251 -2.9557703 -0.74885565
-4.6692452 -3.980768 -1.0297407
-3.7657504 -3.1710989 -0.81851929
-3.8177137 -3.1750128 -0.82589746
-4.5612631 -3.7459991 -0.98907501
-4.5703874 -3.7067735 -0.98598647
-4.6045818 -3.687896 -0.98856026
-4.6394887 -3.6693492 -0.99130559
-4.6790004 -3.6541498 -0.99508047
-4.737226 -3.6530378 -1.0029734
-4.7658229 -3.6286752 -1.004346
-4.8053255 -3.6123846 -1.0081209
-4.8819933 -3.6233337 -1.0199603
-4.7181525 -3.457094 -0.9798094
-4.8039422 -3.4748347 -0.99370778
-4.8476253 -3.461318 -0.99851215
-4.7866244 -3.3736343 -0.9810105
-4.8153229 -3.3498251 -0.98272634
-4.8772125 -3.3486464 -0.99147719
-4.9033775 -3.3225248 -0.99267828
-4.8049088 -3.2129946 -0.96779841
-4.9108849 -3.2404058 -0.98581487
-4.881958 -3.1785078 -0.97569132
-4.8151536 -3.0931349 -0.95784646
-4.9164343 -3.1157234 -0.97483343
-5.0039673 -3.1283081 -0.9889034
-5.080935 -3.133214 -1.0007428
-5.0840702 -3.0922551 -0.99748266
-5.0319738 -3.0184467 -0.98306948
-4.9961267 -2.9554238 -0.97208804
-5.1197009 -2.9862413 -0.99336463
-5.0525165 -2.9056745 -0.97620612
-5.2048163 -2.950876 -1.003145
-5.2555075 -2.9371414 -1.0096653
-5.2578964 -2.896286 -1.0065767
-5.2175531 -2.8324888 -0.99508047
-5.2044277 -2.7841625 -0.98907501
-5.2109537 -2.746666 -0.98701596
-5.2994103 -2.7518554 -1.001086
-5.3223357 -2.7224264 -1.002287
-5.292305 -2.6662347 -0.99319303
-5.3906479 -2.6744149 -1.0091505
-5.4007592 -2.6382625 -1.0079494
-5.3653469 -2.5803196 -0.9979974
-5.4817066 -2.5949624 -1.0173866
-5.3001537 -2.4693694 -0.9794662
-5.3761082 -2.4647083 -0.99113399
-5.5240521 -2.4915981 -1.0165286
-5.4257622 -2.4073358 -0.99490887
-5.486485 -2.3940842 -1.0036597
-5.4992609 -2.3595982 -1.0033165
-5.5090966 -2.3238971 -1.0024587
-5.5177913 -2.2877874 -1.0014291
-5.5426741 -2.2583463 -1.0034882
-5.5674028 -2.2286861 -1.0055472
-5.583724 -2.1955643 -1.0060619
-5.6917577 -2.1977956 -1.0237352
-5.726325 -2.1708586 -1.0276817
-5.7386141 -2.1353383 -1.02751
-5.7691922 -2.1065032 -1.0307702
-5.7708788 -2.06708 -1.0287112
-5.7499895 -2.0198836 -1.0225341
-5.7063832 -1.9653265 -1.012239
-5.7248688 -1.9324802 -1.0134401
-5.7618747 -1.9056643 -1.0180728
-5.7753334 -1.8708811 -1.018416
-5.814878 -1.8443393 -1.0235636
-5.9079461 -1.8340206 -1.0384915
-6.0406971 -1.8346455 -1.060626
-6.1538405 -1.827822 -1.0791572
-6.3532228 -1.8446605 -1.1133027
-6.2630057 -1.7768898 -1.094943
-6.3810778 -1.7681352 -1.1143322
-6.4374566 -1.7412878 -1.1225682
-6.5118437 -1.718588 -1.1340646
-6.8819699 -1.7711086 -1.1987522
-6.9834905 -1.7516029 -1.2150527
-7.159678 -1.7491423 -1.2447369
-7.4300227 -1.7669061 -1.2912365
-7.8064289 -1.8058242 -1.3566105
-7.8808017 -1.7721467 -1.3679352
-7.9463897 -1.7357332 -1.3777155
-8.0118256 -1.698581 -1.3874959
-7.990252 -1.6428466 -1.3818336
-9.7036104 -1.9328917 -1.6843383
-9.8410463 -1.8975488 -1.7066444
-9.9890623 -1.8625762 -1.7308379
-10.180646 -1.8337115 -1.7627528
-10.447954 -1.8157134 -1.8080512
-11.038006 -1.8484908 -1.910316
-11.216433 -1.807672 -1.9398288
-11.200053 -1.7345961 -1.9350243
-11.215358 -1.6665648 -1.9358822
-11.218545 -1.5967462 -1.9346812
-11.30525 -1.5383664 -1.9482363
-11.234365 -1.4585769 -1.9341664
-11.239191 -1.3891338 -1.93348
-11.272943 -1.3231286 -1.9379413
-11.276934 -1.2534993 -1.9372549
-11.278534 -1.1836653 -1.9362254
-11.242446 -1.1101838 -1.9286757
-11.280437 -1.0440829 -1.9341664
-11.29841 -0.97586387 -1.9362254
-11.308113 -0.90683436 -1.9369117
-11.324272 -0.83823085 -1.9387991
-11.299715 -0.76673281 -1.9336517
-11.289457 -0.69647622 -1.9310778
-11.308273 -0.62801021 -1.9336517
-11.301089 -0.55807871 -1.9317642
-11.301349 -0.4885987 -1.9312495
-11.325792 -0.42004678 -1.9350243
-11.311417 -0.35002881 -1.9321073
-11.293654 -0.28013012 -1.9286757
-11.302055 -0.21095629 -1.9298768
-11.313973 -0.14173885 -1.9317642
-11.334332 -0.072438851 -1.9351959
-11.299098 -0.0028859107 -1.9290189
-11.335354 0.0666622 -1.9353675
-11.295327 0.13573579 -1.9285041
-11.280492 0.20478831 -1.9261019
-11.267204 0.27371192 -1.9240428
-11.256451 0.34257042 -1.9224986
-11.232477 0.4108378 -1.9187237
-11.252383 0.48072073 -1.9226701
-11.225606 0.54859847 -1.9185522
-11.228914 0.61784673 -1.9197532
-11.217045 0.68625236 -1.9183805
-11.203776 0.75446928 -1.9168363
-10.514655 -0.26758757 -1.9216765
-10.555414 -0.2038265 -1.9290071
-10.561381 -0.13912079 -1.9299234
-10.595459 -0.074551195 -1.9361545
-10.52592 -0.0094717983 -1.9231426
-10.55822 0.055282831 -1.9291904
-10.513447 0.11956444 -1.9209434
-10.52726 0.18432908 -1.9236923
-10.533792 0.24910529 -1.9251585
-10.531083 0.3137055 -1.9249753
-10.455277 0.37567243 -1.9112303
-10.475367 0.44076741 -1.9154454
-10.4597 0.50441962 -1.913063
-10.47015 0.56933641 -1.9156288
-10.471366 0.63386613 -1.916545
-10.449624 0.69692844 -1.9132463
-10.434365 0.76024759 -1.9112303
-10.439304 0.82503152 -1.913063
-10.460492 0.89132285 -1.9180112
-10.444057 0.95450664 -1.9159952
-10.425285 1.0173315 -1.9136128
-10.457959 1.0853384 -1.9209434
-10.459897 1.1504537 -1.9225928
-10.412605 1.209962 -1.915079
-10.396203 1.272755 -1.9134295
-10.391123 1.3368971 -1.9139793
-10.399286 1.4028643 -1.9170948
-10.355439 1.4617016 -1.9104973
-10.381288 1.5303739 -1.9170948
-10.346439 1.5901617 -1.9123299
-10.349107 1.6556346 -1.9147124
-10.324206 1.7166862 -1.9119635
-10.300885 1.7778291 -1.9095809
-10.296556 1.8422123 -1.9108639
-10.231894 1.8955094 -1.9007843
-10.210417 1.9564058 -1.8989516
-10.196291 2.0186372 -1.8985851
-10.220314 2.0886407 -1.9055492
-10.198648 2.1494877 -1.9038998
-10.191031 2.2132764 -1.9049994
-10.216594 2.28456 -1.9125133
-10.167893 2.3392713 -1.9059157
-10.144739 2.39958 -1.9042664
-10.131735 2.4622462 -1.9046328
-10.107852 2.5222251 -1.9029834
-10.059805 2.5759084 -1.8967525
-10.075188 2.6458244 -1.9028002
-10.054967 2.706573 -1.9020671
-10.041961 2.7692633 -1.9028002
-10.047486 2.8372383 -1.9071985
-9.990222 2.8873725 -1.8995014
-10.036423 2.9675691 -1.9119635
-9.9737988 3.0157247 -1.90335
-9.9241114 3.0672877 -1.8973023
-9.9163532 3.1316752 -1.8995014
-9.9035006 3.1945744 -1.9007843
-9.8585014 3.2469785 -1.8958361
-9.8570299 3.3136723 -1.8995014
-9.8132648 3.3661184 -1.8949198
-9.8304701 3.4395778 -1.9024336
-9.7804775 3.4895918 -1.8967525
-9.7524147 3.5471861 -1.8954695
-9.7203264 3.6032009 -1.8934537
-9.7145882 3.6690273 -1.8967525
-9.6680374 3.7193894 -1.8919876
-9.6688318 3.7879641 -1.8967525
-9.6280584 3.8403003 -1.8932704
-9.626174 3.908179 -1.8976687
-9.5683956 3.9532826 -1.890888
-9.5358019 4.0084906 -1.8892386
-9.5426636 4.080452 -1.8956529
-9.5291662 4.1440244 -1.8980353
-9.5125513 4.2063913 -1.8998679
-9.4211073 4.2352581 -1.8864896
-9.4280262 4.3081007 -1.8932704
-9.3978481 4.364213 -1.8925374
-9.3966761 4.43396 -1.8978521
-9.3533363 4.4838848 -1.8945533
-9.2964802 4.5269895 -1.8885055
-9.2156563 4.5577998 -1.8775096
-9.2217789 4.6314659 -1.8846569
-9.220336 4.7018056 -1.8903382
-9.1782179 4.7515135 -1.8875892
-9.1323557 4.7990522 -1.8841071
-9.1495781 4.8799772 -1.8940035
-9.1064939 4.9290075 -1.8912544
-9.0321331 4.9606576 -1.8819079
-9.0298643 5.0317745 -1.8879557
-8.9988194 5.0870857 -1.8879557
-8.9589081 5.1373158 -1.8861231
-8.9263678 5.1916957 -1.8859398
-8.9036589 5.251863 -1.8879557
-8.852705 5.2952948 -1.8839239
-8.7839031 5.3275938 -1.8760434
-8.7569103 5.384995 -1.8773264
-8.7620792 5.4625473 -1.8857565
-8.7358761 5.5209341 -1.8874059
-8.6687231 5.5532227 -1.8800753
-8.6575727 5.6212969 -1.8852067
-8.5900698 5.6526985 -1.8778762
-8.5413189 5.6960282 -1.8747606
-8.5127239 5.7527328 -1.8762268
-8.4894333 5.8131881 -1.8789757
-8.4608736 5.8702121 -1.8806251
-8.377244 5.8886638 -1.8698125
-8.3865986 5.9724579 -1.8802586
-8.3266735 6.0071259 -1.8749439
-8.3341064 6.0905848 -1.8852067
-8.2752447 6.1258159 -1.8802586
-8.2327824 6.1729383 -1.879159
-8.2323303 6.2518744 -1.8879557
-8.1774502 6.2896838 -1.8841071
-8.0937214 6.3047042 -1.8734778
-8.1228056 6.407825 -1.889605
-8.0641327 6.4422059 -1.8850235
-8.0664902 6.5255694 -1.8951031
-8.0589991 6.601728 -1.9029834
-7.996397 6.6328526 -1.8976687
-7.9510312 6.6779995 -1.8965691
-7.885941 6.7062817 -1.8907046
-7.8692279 6.7757092 -1.8967525
-7.8230586 6.8199906 -1.8956529
-7.7766423 6.8639607 -1.8945533
-7.7145872 6.8938627 -1.889605
-7.7355666 6.998445 -1.9055492
-7.7149534 7.066361 -1.9112303
-7.6454983 7.0895038 -1.9046328
-7.6011372 7.1356091 -1.9044496
-7.5408206 7.1665392 -1.9002345
-7.4981227 7.2140369 -1.900601
-7.4389277 7.2455053 -1.8967525
-7.3782291 7.2751384 -1.8925374
-7.4016376 7.3883324 -1.9104973
-7.3527069 7.4301152 -1.9095809
-7.29667 7.4645462 -1.906832
-7.298533 7.5586791 -1.9196606
-7.2621942 7.6139898 -1.9224095
-7.1762381 7.6169081 -1.9117801
-7.1581655 7.6917405 -1.9196606
-7.1035166 7.7275567 -1.9176446
-7.0242457 7.736064 -1.9088479
-7.0298138 7.8382959 -1.9236923
-6.9796309 7.8790751 -1.9231426
-6.9227386 7.9121351 -1.9207602
-6.8804884 7.9619012 -1.9225928
-6.8321438 8.0047169 -1.9227761
-6.8006411 8.0675325 -1.9279075
-6.7522697 8.1106195 -1.928274
-6.704874 8.1549358 -1.9290071
-6.6733007 8.2188168 -1.934505
-6.6270504 8.2649775 -1.9357879
-6.5694995 8.2970066 -1.933772
-6.5275497 8.3487768 -1.9365209
-6.474998 8.3871155 -1.9361545
-6.4257979 8.4298153 -1.9368875
-6.3733611 8.4682989 -1.9367043
-6.3406305 8.5332842 -1.942752
-6.2625656 8.5371532 -1.9346883
-6.2285171 8.6008968 -1.9405528
-6.1693363 8.6301556 -1.9385369
-6.1179671 8.6702566 -1.9390867
-6.0713949 8.7173128 -1.9412858
-6.0200195 8.7576427 -1.9420189
-5.9750013 8.8074322 -1.9449512
-5.9181128 8.8398438 -1.9440348
-5.8561745 8.8645067 -1.9414691
-5.8156309 8.9216843 -1.946234
-5.7639699 8.962162 -1.9473336
-5.7025499 8.9873991 -1.9451344
-5.6545997 9.033886 -1.9477001
-5.607326 9.0817957 -1.9506323
-5.559166 9.128624 -1.9533813
-5.5091233 9.1726751 -1.9555805
-5.4367051 9.1792402 -1.9497161
-5.3797841 9.2115774 -1.9495327
-5.3270864 9.2512293 -1.9509989
-5.2745895 9.2914352 -1.9526483
-5.2150788 9.319335 -1.9517319
-5.1706185 9.3744001 -1.9566801
-5.1383557 9.452589 -1.9665765
-5.0825801 9.4882727 -1.9674927
-5.0228887 9.5166712 -1.9669429
-4.9594121 9.5377188 -1.9649271
-4.8981071 9.5627193 -1.9638275
-4.8335824 9.5811834 -1.961445
-4.770328 9.6018581 -1.9596124
-4.7121863 9.6327133 -1.9599789
-4.6700563 9.6968727 -1.9673095
-4.6184711 9.7422228 -1.9707916
-4.5685835 9.7917585 -1.9751899
-4.5063653 9.8151388 -1.9742736
-4.4630547 9.8802319 -1.9819707
-4.3963585 9.8939562 -1.9792217
-4.3206067 9.8865156 -1.9722576
-4.2524877 9.8956795 -1.9687756
-4.211585 9.9686747 -1.9783053
-4.1556177 10.007039 -1.9808711
-4.1056533 10.060564 -1.9865524
-4.0416503 10.080092 -1.9854528
-3.9829664 10.112933 -1.9871022
-3.9197757 10.134432 -1.9865524
-3.8456511 10.127046 -1.9803213
-3.8006096 10.196508 -1.9894845
-3.7352717 10.212251 -1.9880184
-3.6771889 10.247931 -1.9905841
-3.6175032 10.279574 -1.9924169
-3.5533988 10.29879 -1.9918671
-3.4920294 10.325987 -1.9929667
-3.4286046 10.347219 -1.9929667
-3.3781018 10.408268 -2.0008471
-3.3183432 10.441916 -2.0034127
-3.2612185 10.48461 -2.0078111
-3.187665 10.474327 -2.0019467
-3.1188481 10.478614 -1.9990144
-3.0641079 10.53059 -2.0054286
-2.9956713 10.535955 -2.0028629
-2.9325459 10.559821 -2.0039625
-2.8700123 10.586156 -2.0056119
-2.8047514 10.602616 -2.0054286
-2.7420981 10.629145 -2.0072613
-2.6789851 10.65435 -2.0089107
-2.6187067 10.691594 -2.0129426
-2.5478101 10.685467 -2.0087273
-2.4924173 10.74495 -2.0171576
-2.4251428 10.754287 -2.016058
-2.3584788 10.766084 -2.0155082
-2.2964652 10.799584 -2.0191736
-2.2259862 10.793253 -2.0153248
-2.1581767 10.798996 -2.0138588
-2.0909407 10.807209 -2.0129426
-2.0298343 10.847857 -2.0182571
-1.9481921 10.776914 -2.0024965
-1.8909853 10.839992 -2.0122094
-1.8210131 10.831033 -2.0083609
-1.7537354 10.83715 -2.0074446
-1.6866025 10.843821 -2.0067115
-1.6210504 10.860772 -2.0079944
-1.5645403 10.941554 -2.0213728
-1.4975079 10.951922 -2.0215559
-1.4307889 10.964804 -2.022289
-1.3602093 10.947037 -2.0173409
-1.2922071 10.948342 -2.016058
-1.223366 10.941411 -2.013309
-1.155588 10.942845 -2.0122094
-1.0892978 10.958534 -2.0138588
-1.0168345 10.909219 -2.0034127
-0.95797765 11.008292 -2.020823
-0.89049327 11.014943 -2.0210061
-0.82420838 11.037846 -2.0243049
-0.75377703 11.003465 -2.0169742
-0.68557364 10.997089 -2.0149584
-0.61874604 11.012867 -2.0171576
-0.5517506 11.028238 -2.0193567
-0.48152739 10.973472 -2.0085442
-0.41463163 10.988008 -2.0107434
-0.34782422 11.009996 -2.0144086
-0.27973562 10.991286 -2.01056
-0.21246023 11.001641 -2.0122094
-0.14504233 11.009619 -2.0134923
-0.07745108 11.005386 -2.0125759
-0.0099467449 11.032197 -2.0175242
0.05773551 11.030085 -2.0171576
0.12457813 10.955797 -2.0034127
0.19265795 11.003972 -2.0125759
0.26089275 11.03305 -2.0182571
0.32814685 11.016501 -2.0155082
0.39573663 11.014281 -2.0155082
0.4623206 10.988072 -2.0111098
0.5295915 10.982083 -2.01056
0.59648627 10.969792 -2.0089107
0.66265655 10.947282 -2.0054286
0.7285077 10.923392 -2.0017633
0.79644686 10.931462 -2.0041459
0.8628093 10.91755 -2.0024965
0.93103331 10.926743 -2.0052454
0.99618286 10.900266 -2.0013969
1.0626651 10.890035 -2.0006638
1.1368703 10.954689 -2.0140421
1.2036359 10.943599 -2.013309
1.2659978 10.894995 -2.0056119
1.331033 10.872385 -2.0028629
1.3932049 10.828912 -1.9962654
1.459361 10.818211 -1.9958988
1.529971 10.839229 -2.00158
1.6021838 10.86854 -2.0089107
1.6598839 10.800204 -1.9979148
1.7261214 10.789816 -1.9979148
1.7985811 10.816842 -2.0050621
1.8635809 10.797853 -2.0035961
1.9249535 10.759119 -1.9984646
2.0097325 10.8486 -2.0177073
2.0549898 10.725032 -1.9966319
2.1375563 10.797084 -2.0127592
2.1819215 10.676853 -1.9924169
2.2544868 10.696933 -1.998831
2.3167419 10.667527 -1.9958988
2.3851559 10.666542 -1.9984646
2.4604766 10.694818 -2.0067115
2.5104413 10.613509 -1.9940662
2.58898 10.653311 -2.0046957
2.6328814 10.55138 -1.9882017
2.7073267 10.573121 -1.9955323
2.7631633 10.52208 -1.9889348
2.8238413 10.490688 -1.9861858
2.8962584 10.502542 -1.9918671
2.9464891 10.434432 -1.982154
3.02001 10.44921 -1.9885682
3.0754285 10.401258 -1.982887
3.1408985 10.387838 -1.9839866
3.2153172 10.403123 -1.9907675
3.2915215 10.42257 -1.9984646
3.3424358 10.361947 -1.9905841
3.4127173 10.361785 -1.994616
3.4687147 10.318286 -1.9902176
3.5399344 10.320056 -1.9947993
3.6057875 10.305564 -1.9962654
3.6557407 10.246209 -1.9889348
3.7148457 10.213423 -1.9869188
3.7723191 10.176609 -1.9841698
3.8291337 10.138556 -1.9812376
3.8933885 10.120376 -1.9823372
3.9303131 10.032222 -1.9695086
3.9990792 10.026179 -1.973174
4.0571957 9.9932556 -1.9715246
4.1128063 9.9545441 -1.9687756
4.1696186 9.9191523 -1.9667597
4.2311759 9.8951883 -1.9671263
4.2965164 9.879859 -1.9693254
4.3658028 9.8730898 -1.9733572
4.4101791 9.8102503 -1.9660267
4.4702907 9.7830057 -1.9660267
4.5256796 9.7455845 -1.9640107
4.5912647 9.7300787 -1.9665765
4.6406827 9.6804485 -1.9621781
4.676754 9.604063 -1.9522817
4.742568 9.5892859 -1.955214
4.7792587 9.5160799 -1.9460508
4.8482757 9.5075941 -1.9504491
4.9038105 9.4724283 -1.9493495
4.9462929 9.4125729 -1.9431185
5.0127435 9.3985271 -1.9466006
5.0679779 9.3632698 -1.9456842
5.1272273 9.3354435 -1.9464172
5.1810627 9.2977962 -1.9451344
5.2254376 9.2435799 -1.9403695
5.2786341 9.2053738 -1.9390867
5.3394656 9.180459 -1.9407361
5.3892031 9.1365166 -1.9383537
5.4461713 9.1049643 -1.9387201
5.500916 9.0696945 -1.9383537
5.5585227 9.0391207 -1.9390867
5.5987997 8.9806509 -1.933772
5.6606259 8.9569321 -1.9361545
5.6910868 8.8839512 -1.9277242
5.7353191 8.8331985 -1.9242421
5.8056216 8.8224773 -1.9297402
5.8498292 8.7719669 -1.9264414
5.8886819 8.7139149 -1.9214932
5.9420385 8.677619 -1.9214932
6.0007753 8.6490726 -1.9233259
6.0514708 8.6088734 -1.9225928
6.0842218 8.5435524 -1.9161786
6.1405559 8.5116405 -1.9174614
6.2147069 8.5039644 -1.9244255
6.2655993 8.4640913 -1.9240589
6.2985458 8.4003172 -1.9181944
6.3202443 8.3223658 -1.9090312
6.3849745 8.3013515 -1.9132463
6.4448519 8.2736511 -1.9159952
6.4723611 8.2046213 -1.9090312
6.5311718 8.1755066 -1.9115969
6.5663743 8.1169338 -1.9071985
6.6129408 8.0726881 -1.9062822
6.652308 8.0198536 -1.90335
6.6963339 7.9728622 -1.9018838
6.7444916 7.9308753 -1.9017006
6.7769923 7.870718 -1.8971189
6.8245125 7.8282461 -1.8969357
6.8776212 7.7921205 -1.8984019
6.9115481 7.7343798 -1.8945533
6.9641514 7.6976576 -1.8960193
7.0039482 7.6468072 -1.8940035
7.0300159 7.5813408 -1.8883222
7.0817847 7.5437965 -1.8897884
7.1171041 7.4887996 -1.8868561
7.1588311 7.4407382 -1.8857565
7.208467 7.400898 -1.8868561
7.2413192 7.3439279 -1.8835573
7.2716603 7.2847462 -1.8797088
7.2952595 7.2192459 -1.8742108
7.3499632 7.1846552 -1.8769598
7.393909 7.1394215 -1.8769598
7.4567828 7.1122389 -1.8819079
7.4952741 7.0616322 -1.8806251
7.4988832 6.978673 -1.8705455
7.5241933 6.9165616 -1.8661472
7.5548463 6.8596897 -1.863215
7.576303 6.794826 -1.8580835
7.6296263 6.7586412 -1.8610158
7.6465387 6.6903362 -1.854968
7.6986027 6.6529346 -1.8577169
7.7415223 6.6074862 -1.8582667
7.7849259 6.5623951 -1.8589998
7.8265567 6.5157623 -1.8593663
7.8322191 6.4395204 -1.8511194
7.8692942 6.3894825 -1.8505696
7.9290586 6.3576822 -1.8555177
7.9594417 6.3021975 -1.8535019
8.008029 6.2611127 -1.8558843
8.0307331 6.1998429 -1.852219
8.0709686 6.1522384 -1.8527688
8.1242752 6.1144238 -1.8564341
8.1198196 6.0333824 -1.8467211
8.1606503 5.9863544 -1.8476374
8.2250948 5.9563503 -1.8540517
8.2550898 5.9011965 -1.8525856
8.2871275 5.847599 -1.8516692
8.3212385 5.795516 -1.8513027
8.360693 5.7471337 -1.852219
8.4104424 5.7056599 -1.8555177
8.4412088 5.6512122 -1.8546015
8.4945898 5.6117754 -1.8588165
8.5478048 5.5718956 -1.8630316
8.5843124 5.5209379 -1.8635814
8.612216 5.4644747 -1.8622986
8.6222525 5.3969231 -1.8571671
8.6384754 5.3335867 -1.8535019
8.6785955 5.2850838 -1.8551513
8.7353001 5.2464128 -1.860466
8.7521029 5.1836967 -1.8571671
8.8092108 5.1447716 -1.8626652
8.8440199 5.0925851 -1.8633982
8.863987 5.0319138 -1.8610158
8.8946953 4.9774303 -1.8610158
8.9379807 4.929882 -1.8637648
8.9447422 4.8622694 -1.8588165
8.9830742 4.8119364 -1.8606492
9.0219936 4.7617745 -1.8626652
9.0301094 4.6954417 -1.8582667
9.0657492 4.6435313 -1.8597329
9.1467314 4.6143866 -1.8707287
9.1202888 4.5310559 -1.8593663
9.1726446 4.4871063 -1.8644978
9.1991186 4.4303126 -1.8643146
9.2669907 4.3931575 -1.8727447
9.2510109 4.3162603 -1.863948
9.2978687 4.2688508 -1.8681631
9.3292627 4.2141485 -1.8692627
9.3522491 4.1556282 -1.8687129
9.3928852 4.1048584 -1.8718284
9.4106693 4.0440421 -1.8703623
9.4860172 4.0076499 -1.8806251
9.4877319 3.9399428 -1.8760434
9.4889736 3.8723662 -1.8714619
9.5381041 3.8243148 -1.8765932
9.5074253 3.7444618 -1.8657806
9.5641451 3.6991773 -1.8725615
9.601367 3.6460075 -1.8754936
9.6382961 3.59252 -1.878426
9.6666203 3.535677 -1.8797088
9.701087 3.4809461 -1.8822745
9.7064991 3.4158075 -1.879159
9.6808109 3.3401515 -1.8699957
9.6936731 3.2781687 -1.8685296
9.7089396 3.2170813 -1.8676133
9.7836637 3.1753552 -1.878426
9.7926569 3.1119885 -1.87641
9.7749586 3.0404546 -1.8692627
9.7943716 2.9807057 -1.8694459
9.8492222 2.9314909 -1.8765932
9.8962851 2.8795173 -1.8822745
9.9326782 2.8241186 -1.8859398
9.9280348 2.7570686 -1.8817247
9.9314814 2.6924977 -1.879159
9.9478149 2.6315086 -1.879159
9.9970903 2.5790167 -1.8855733
9.9745922 2.5080366 -1.8782426
9.9811993 2.4446814 -1.8765932
10.038087 2.3934257 -1.8846569
10.066948 2.3351207 -1.8874059
10.046564 2.2655206 -1.8808084
10.125575 2.2181408 -1.8932704
10.141879 2.1565831 -1.8938202
10.136628 2.0905397 -1.8903382
10.15312 2.029074 -1.8910712
10.16731 1.967111 -1.8914378
10.182087 1.905231 -1.8919876
10.210031 1.8456926 -1.8951031
10.2047 1.7801377 -1.8919876
10.226095 1.7192826 -1.8940035
10.207338 1.6517918 -1.8885055
6.0675521 0.94354212 -1.105597
0 0 -0
0 0 -0
0 0 -0
0 0 -0
0 0 -0
0 0 -0
0 0 -0
0 0 -0
0 0 -0
0 0 -0
0 0 -0
0 0 -0
0 0 -0
0 0 -0
0 0 -0
0 0 -0
0 0 -0
0 0 -0
0 0 -0
0 0 -0
0 0 -0
0 0 -0
0 0 -0
0 0 -0
0 0 -0
0 -0 -0
0 -0 -0
0 -0 -0
0 -0 -0
0 -0 -0
0 -0 -0
0 -0 -0
0 -0 -0
0 -0 -0
0 -0 -0
5.9355822 -0.39604276 -1.0698603
5.9457865 -0.43338355 -1.0722429
5.9684954 -0.47187078 -1.0770077
0 -0 -0
0 -0 -0
6.0038061 -0.58604151 -1.0854379
9.44592 -0.98034698 -1.7312641
9.3459177 -1.0279735 -1.7136706
9.1636648 -1.0648817 -1.6806829
9.0505981 -1.1080719 -1.660707
9.1762333 -1.1806399 -1.685631
9.1931725 -1.2402066 -1.6902127
9.2223797 -1.3018112 -1.6971767
9.2297792 -1.3606676 -1.700109
9.2193127 -1.4169762 -1.6997424
9.1696739 -1.4669974 -1.6920453
9.1314077 -1.5183975 -1.6865474
9.1025438 -1.5710551 -1.6828821
9.0627346 -1.6215116 -1.6772009
9.0216818 -1.6713599 -1.6713364
8.9764986 -1.7200258 -1.6647388
8.9493818 -1.7718272 -1.6616234
8.9489365 -1.828871 -1.6636392
8.3834696 -1.7669902 -1.5580785
8.8595333 -1.9241571 -1.6509939
8.8792191 -1.9855602 -1.6570417
8.8687849 -2.0404453 -1.6574082
8.8532286 -2.094146 -1.6568584
8.8574066 -2.152607 -1.6601572
8.8459396 -2.2073905 -1.6605238
7.3732319 -1.8880969 -1.3797616
8.8143826 -2.314779 -1.6597906
8.8313398 -2.3772504 -1.6658385
8.7786789 -2.4209416 -1.6585078
8.7466297 -2.4699528 -1.6552091
8.7265873 -2.5222101 -1.6542927
8.7043476 -2.5737569 -1.6530099
7.9835825 -2.4140377 -1.5157443
7.9132051 -2.4458535 -1.5049317
7.8961735 -2.4937699 -1.5045651
7.8713675 -2.5391555 -1.5027325
7.9023261 -2.6027801 -1.5118958
8.6298084 -2.901166 -1.6581413
8.6202135 -2.956933 -1.6597906
8.5879889 -3.0049007 -1.6570417
8.5527229 -3.0515933 -1.6537429
8.5199804 -3.0989745 -1.6509939
8.5026484 -3.1518772 -1.6513605
8.4371653 -3.1866241 -1.6421973
7.6054463 -2.9259822 -1.4800076
8.416647 -3.2974508 -1.6460458
8.3926039 -3.3475757 -1.6453128
8.354599 -3.391983 -1.6418307
8.3172741 -3.4364257 -1.6385319
8.2969379 -3.4877758 -1.6387151
8.2672462 -3.535141 -1.6370658
8.2282705 -3.5783532 -1.6335838
8.1917734 -3.6224129 -1.6306515
8.1308374 -3.6552777 -1.6227711
8.1019964 -3.702239 -1.6214882
8.0809107 -3.7527101 -1.6218548
8.0292826 -3.7887998 -1.6159903
7.9003921 -3.7874289 -1.5941818
7.9812994 -3.8866158 -1.6158071
8.0251541 -3.9690695 -1.6299185
8.0410604 -4.0385299 -1.6383487
8.0397758 -4.0998502 -1.6432968
8.0057373 -4.1445847 -1.6414641
7.9714537 -4.1890564 -1.6396315
7.9594789 -4.2452912 -1.6425637
7.9246345 -4.2893705 -1.6407311
7.8947196 -4.3360214 -1.6399981
7.8473558 -4.3728971 -1.6355997
7.7878556 -4.4025831 -1.6286356
7.7700763 -4.4556646 -1.6306515
7.7204957 -4.4904075 -1.6258867
7.6851768 -4.5332003 -1.6242373
7.6437182 -4.5721965 -1.621305
7.5659266 -4.5889349 -1.6104923
7.6222067 -4.6872787 -1.6290021
7.6083188 -4.7433205 -1.6323009
7.5358572 -4.7626066 -1.6227711
7.5040092 -4.8071656 -1.6222214
7.4463377 -4.834918 -1.6159903
7.4428101 -4.8978086 -1.6218548
7.3995314 -4.9346585 -1.6189226
7.3332739 -4.9557505 -1.6108589
7.2710934 -4.9789929 -1.6037116
7.2549448 -5.0336003 -1.6070104
7.2456379 -5.0932841 -1.6119585
7.1654019 -5.1028628 -1.6007793
7.1682391 -5.1714635 -1.6086597
7.1228795 -5.2054896 -1.6055442
7.086854 -5.2461724 -1.6046278
7.070262 -5.301352 -1.6082932
7.0211592 -5.3321495 -1.6044446
6.9805169 -5.3691368 -1.602612
6.9451146 -5.4100552 -1.6020622
6.9032979 -5.4458709 -1.6000463
6.8835783 -5.4991698 -1.603345
6.8130198 -5.5116267 -1.5945483
6.7676649 -5.543983 -1.5917994
6.7645435 -5.6111355 -1.5993131
6.704392 -5.631041 -1.5930822
6.6435027 -5.6497831 -1.5866679
6.615416 -5.6962132 -1.5883173
6.5810809 -5.7373433 -1.5885005
6.5545983 -5.7854223 -1.5906998
6.5094466 -5.8170166 -1.5883173
6.4648833 -5.8489342 -1.5861181
6.427423 -5.8871636 -1.5857515
6.3861332 -5.9218121 -1.5844687
6.3310413 -5.9433923 -1.5797038
6.3030057 -5.9902534 -1.581903
6.259047 -6.0219994 -1.5800704
6.2247963 -6.0630345 -1.5808034
6.2084775 -6.1218209 -1.5863013
6.1582742 -6.1472993 -1.5830026
6.1218219 -6.1863675 -1.5833691
6.0631318 -6.2027249 -1.5778712
6.0181293 -6.2327394 -1.5760385
5.9641666 -6.2531877 -1.5718235
5.9277081 -6.2918119 -1.5723733
5.8615308 -6.2985606 -1.5648594
2.2353609 -2.4321437 -0.57669401
2.2197344 -2.4450862 -0.57651073
2.2092848 -2.4637828 -0.5777936
5.6908493 -6.4243245 -1.5608275
5.6862807 -6.4990726 -1.5707239
5.6424394 -6.5293779 -1.5696243
5.6041846 -6.5661192 -1.5701741
5.5523844 -6.5868535 -1.5668752
5.5074606 -6.6155095 -1.5655924
5.4586487 -6.639307 -1.56321
5.421526 -6.6772547 -1.5643096
5.4228878 -6.7633133 -1.5769548
5.3941026 -6.812645 -1.5808034
2.0217376 -2.5862663 -0.57284546
2.0022259 -2.5939541 -0.57174587
1.9731601 -2.5889909 -0.56771404
1.953099 -2.5955513 -0.56643116
1.9377226 -2.6082754 -0.56661445
1.7966599 -2.4496989 -0.52721244
1.7804418 -2.4590845 -0.52684593
1.766463 -2.4715624 -0.52721244
4.8715525 -6.904006 -1.5360868
4.8274131 -6.9313474 -1.5355369
4.810967 -6.9989119 -1.5441504
4.7353678 -6.9803033 -1.5333377
4.6929955 -7.0100441 -1.5335211
4.681325 -7.0862803 -1.5441504
4.6527882 -7.1379299 -1.5492818
4.644002 -7.2209134 -1.5613773
4.5917068 -7.2368217 -1.5586283
4.5300031 -7.2373619 -1.5525806
4.4777627 -7.2524748 -1.5498316
4.4244852 -7.2655396 -1.5467161
1.7380342 -2.8943577 -0.59025562
1.7217451 -2.907505 -0.59080541
1.7048641 -2.9197125 -0.59117192
4.210506 -7.3123007 -1.5338875
4.2131238 -7.4217782 -1.5518476
4.1684656 -7.4492054 -1.552214
4.106061 -7.4445148 -1.5457997
4.0495057 -7.4497042 -1.5415847
4.0176458 -7.5004077 -1.5470827
3.9669592 -7.5162244 -1.5452499
3.9076128 -7.5151305 -1.5399354
3.8654611 -7.5468402 -1.5415847
3.8164248 -7.5651503 -1.5404851
3.7725587 -7.5937071 -1.5415847
3.7431741 -7.6520343 -1.5489153
3.6906061 -7.6633439 -1.5465329
3.637198 -7.6725206 -1.5437839
3.5846479 -7.6831126 -1.5414014
3.5448215 -7.7210436 -1.5447001
3.4880707 -7.7220435 -1.5404851
3.4338367 -7.7280288 -1.5373696
3.3875349 -7.7516551 -1.5379194
3.3399079 -7.772295 -1.5379194
3.2971292 -7.8044138 -1.5403018
3.2359831 -7.7927222 -1.5338875
3.1925647 -7.8233533 -1.5360868
3.1423061 -7.8373203 -1.5349871
3.0919964 -7.8509655 -1.5338875
3.0437655 -7.8697901 -1.5338875
3.0027497 -7.9076176 -1.5377362
2.9538295 -7.9249721 -1.5375528
2.8973796 -7.9217129 -1.5333377
2.8414133 -7.9189854 -1.5293059
2.8028872 -7.9650173 -1.5349871
2.7606962 -8.0015812 -1.5388358
2.7121773 -8.0202322 -1.5392022
2.6511638 -8.0012627 -1.5322381
2.6020191 -8.0173788 -1.5322381
2.5420566 -7.9994664 -1.5256406
2.4873767 -7.9970784 -1.5221586
2.4625919 -8.0921297 -1.5377362
2.4128933 -8.1070871 -1.5377362
2.3565111 -8.0990858 -1.5333377
2.3008561 -8.0925903 -1.5293059
2.2377403 -8.0582485 -1.5199594
2.193399 -8.0908031 -1.5236247
2.1547768 -8.1459255 -1.5316883
2.1049995 -8.1599455 -1.5318717
2.05633 -8.1784277 -1.5329713
2.0063431 -8.1918459 -1.5331545
1.9480598 -8.1705341 -1.5267402
1.9016665 -8.1986132 -1.5298557
1.8437549 -8.1765633 -1.5234414
1.7975473 -8.2059679 -1.5269235
1.7389823 -8.17838 -1.5195929
1.6840016 -8.1657896 -1.5151945
1.6302044 -8.1576529 -1.5117124
1.5847887 -8.1916313 -1.5162941
1.5381129 -8.2205267 -1.5199594
1.4822214 -8.1998205 -1.5142782
0.45064262 -2.5850739 -0.45005783
0.44227177 -2.6323853 -0.45848802
1.3233415 -8.1781635 -1.5052983
1.2401921 -7.9743686 -1.4653465
1.1810778 -7.9137678 -1.4525179
1.1035464 -7.7184486 -1.4143987
1.05923 -7.7474766 -1.4186138
1.0177798 -7.8006201 -1.4274105
0.97086692 -7.8145227 -1.4288766
0.90987474 -7.7100129 -1.4081677
0.86495388 -7.7369437 -1.4121995
0.81663835 -7.7342844 -1.4107335
0.7681936 -7.7293673 -1.4089007
0.71947485 -7.720232 -1.4063351
0.67439294 -7.7509441 -1.4112833
0.62602884 -7.7451372 -1.4094505
0.57197553 -7.6615834 -1.39314
0.52562642 -7.6747565 -1.3949726
0.47821909 -7.6729312 -1.3940563
0.4283708 -7.6266456 -1.3848931
0.38092747 -7.6163664 -1.3825105
0.33345389 -7.6018643 -1.3793951
0.28747135 -7.6214499 -1.3826939
0.24237977 -7.6761293 -1.3925902
0.19858164 -7.8071942 -1.4167812
0.15190996 -7.8721528 -1.4286934
0.10521472 -7.9948258 -1.4514183
0.057854231 -8.2351828 -1.496135
0.0074595013 -8.3808756 -1.5232582
-0.043790996 -8.3473406 -1.5170271
-0.095064193 -8.3518295 -1.5179435
-0.14675476 -8.3766441 -1.5227084
-0.19777887 -8.3598614 -1.5197761
-0.24769631 -8.3123074 -1.5111626
-0.29809555 -8.2939301 -1.5080472
-0.35038438 -8.3253393 -1.5142782
-0.40027821 -8.2984848 -1.5096966
-0.45278943 -8.3253202 -1.5151945
-0.50166774 -8.2860785 -1.5084137
-0.55230457 -8.2799015 -1.5078639
-0.60359848 -8.2832203 -1.5091468
-0.65681183 -8.309741 -1.514828
-0.70920527 -8.3222065 -1.5179435
-0.75971943 -8.3118238 -1.5168439
-0.8104192 -8.3040705 -1.5162941
-0.86440003 -8.3282766 -1.5217921
-0.91645205 -8.3316107 -1.5234414
-0.96642226 -8.3160648 -1.5216088
-1.024357 -8.3665743 -1.5322381
-1.0745454 -8.3513565 -1.5305887
-1.125374 -8.3416834 -1.530039
-1.1765363 -8.3346205 -1.530039
-1.2319545 -8.3564215 -1.5355369
-1.2854447 -8.3632803 -1.538286
-1.3372024 -8.3581476 -1.5388358
-1.387817 -8.3459063 -1.5381026
-1.429974 -8.2849207 -1.5282063
-1.4799168 -8.2711525 -1.52729
-1.5311769 -8.2648163 -1.5278398
-1.5813051 -8.2523689 -1.52729
-1.6233213 -8.1991148 -1.5190431
-0.61444801 -3.0052495 -0.53271037
-0.63348442 -3.0043085 -0.53326017
-0.65128082 -2.997483 -0.53271037
-0.66901726 -2.9905522 -0.53216058
-0.68735439 -2.9863908 -0.53216058
-0.70204562 -2.9668102 -0.52922833
-0.71977216 -2.9605362 -0.52886182
-0.73649633 -2.9503412 -0.52776223
-2.1072896 -8.229393 -1.5445169
-2.1604908 -8.2267666 -1.5465329
-0.79016668 -2.9343863 -0.52739573
-0.80528253 -2.9190578 -0.52537978
-0.82424682 -2.9178462 -0.52611285
-0.84377235 -2.9184003 -0.52721244
-1.0525774 -3.5589368 -0.652749
-2.4743485 -8.183075 -1.5545965
-2.5070972 -8.1113844 -1.5436006
-2.5464602 -8.0630379 -1.5371864
-1.0532982 -3.2644506 -0.60033518
-1.0699263 -3.2476552 -0.59831929
-2.6935031 -8.0120039 -1.5366366
-1.1116129 -3.2398603 -0.59941888
-1.1223818 -3.2069969 -0.59428746
-2.8319335 -7.9369946 -1.5318717
-2.9198916 -8.0275612 -1.5533136
-1.1501316 -3.1019118 -0.57761031
-1.1677537 -3.0911176 -0.5768773
-1.1895219 -3.0912344 -0.57834339
-1.2540045 -3.2001257 -0.60161805
-1.2601421 -3.1585855 -0.59483725
-3.1997037 -7.8809462 -1.5465329
-3.2615128 -7.8938737 -1.5531304
-3.306459 -7.8655562 -1.551481
-3.359683 -7.8568711 -1.5538634
-3.4090047 -7.8388133 -1.5544132
-1.3095561 -2.9608123 -0.56441522
-1.3276987 -2.9527214 -0.56441522
-1.34334 -2.9391541 -0.56331563
-3.5701287 -7.6877022 -1.5410349
-3.6537271 -7.743001 -1.5569789
-3.6969192 -7.7115712 -1.5551463
-3.7420151 -7.6843228 -1.55423
-3.7934525 -7.6700296 -1.5560626
-3.8395612 -7.6448522 -1.5556961
-3.8881831 -7.6246524 -1.5564291
-3.9357977 -7.6023974 -1.5567957
-3.9928882 -7.5981202 -1.5610108
-4.0412846 -7.5769472 -1.5617439
-4.0844245 -7.5459557 -1.560461
-4.1368003 -7.5319538 -1.5628434
-4.1843734 -7.5090055 -1.5633932
-4.2226291 -7.4694963 -1.560461
-4.247355 -7.406775 -1.5525806
-4.2986526 -7.3907719 -1.5547798
-4.3554072 -7.3837318 -1.5589949
-4.3854928 -7.3315582 -1.553497
-4.4441595 -7.3272066 -1.5584451
-4.495214 -7.3098488 -1.5606443
-4.5509028 -7.2996483 -1.5644928
-4.6019087 -7.2815595 -1.566692
-4.6677108 -7.2862978 -1.5740227
-4.7262492 -7.2789578 -1.5787874
-4.7746053 -7.2555699 -1.5800704
-4.8228526 -7.2318621 -1.5813532
-4.8814464 -7.2233114 -1.5861181
-4.9156785 -7.1786227 -1.5828193
-4.9052787 -7.0699768 -1.5650426
-4.9762669 -7.0791545 -1.5740227
-5.0401382 -7.0773158 -1.5806202
-5.0817432 -7.0438647 -1.5800704
-5.121388 -7.0077891 -1.5789708
-5.1736484 -6.9888754 -1.581903
-5.2370739 -6.9845281 -1.5883173
-5.2899384 -6.9655719 -1.5914328
-5.3140001 -6.9088254 -1.5857515
-5.3381691 -6.8528228 -1.5802536
-5.3953376 -6.8392353 -1.5848353
-5.4359736 -6.8044653 -1.5844687
-5.459075 -6.7480531 -1.5789708
-5.5377536 -6.7600598 -1.5899667
-3.3907208 -4.0874577 -0.9509213
-5.6544328 -6.7322454 -1.5998629
-3.5947373 -4.2267761 -0.99527144
-3.6180391 -4.2016597 -0.99453843
-3.6321244 -4.1660423 -0.99123961
-3.7018528 -4.1937976 -1.0037017
-3.7360308 -4.1805339 -1.0060841
-3.8506446 -4.2559495 -1.0308249
-3.7133515 -4.0539017 -0.98574167
-3.9246387 -4.2321644 -1.0368726
-3.8919985 -4.1456456 -1.0209286
-3.9410644 -4.1466284 -1.0273429
-4.0318627 -4.1903791 -1.0449363
-4.0307488 -4.1380954 -1.037789
-4.0256953 -4.0824842 -1.0297253
-4.0610862 -4.0681429 -1.0324743
-4.1956725 -4.1517148 -1.0612469
-3.4801435 -3.4015751 -0.8680855
-3.4868064 -3.3664997 -0.86442018
-3.4149225 -3.2568328 -0.84059572
-3.4241092 -3.2257056 -0.83784676
-4.1706514 -3.8810818 -1.0229445
-3.5213327 -3.2366693 -0.85250795
-3.5229318 -3.1984801 -0.84792632
-3.5483456 -3.1820548 -0.84939247
-3.4125419 -3.0226746 -0.81072354
-3.4280651 -2.9990892 -0.80999047
-3.7290397 -3.2222657 -0.87963122
-3.7173371 -3.1725183 -0.87193406
-3.770556 -3.1781628 -0.88018101
-4.2742534 -3.5581622 -0.9976539
-4.3924408 -3.6111627 -1.0209286
-4.4168053 -3.5860023 -1.0214784
-4.3827386 -3.5139391 -1.0081
-4.4450645 -3.5193257 -1.0178131
-4.4185605 -3.4544418 -1.0064507
-4.4560142 -3.4398811 -1.0102992
-4.4958 -3.4267786 -1.0146976
-4.5175271 -3.3997195 -1.0148808
-4.4775453 -3.3267875 -1.0007694
-4.5589066 -3.3440266 -1.0148808
-4.4487643 -3.2214243 -0.98482537
-4.621192 -3.3032665 -1.019829
-4.4686842 -3.1529851 -0.98042697
-4.4968195 -3.1316872 -0.98244292
-4.5945306 -3.1580565 -1.0002196
-4.613008 -3.1292536 -1.0000364
-4.5700393 -3.0593233 -0.98610818
-4.5501752 -3.0057549 -0.97749478
-4.6327672 -3.0196543 -0.9917894
-4.5693545 -2.9385233 -0.97364616
-4.618011 -2.9299192 -0.98042697
-4.7900562 -2.9980268 -1.014331
-4.744791 -2.9293261 -1.0004029
-4.6770363 -2.8479998 -0.98170984
-4.7997642 -2.8825219 -1.0046179
-4.8368144 -2.8645399 -1.0088331
-4.8593931 -2.8377826 -1.0099326
-4.8613796 -2.799082 -1.0066339
-4.8887215 -2.7750247 -1.0088331
-4.9022255 -2.7430553 -1.0081
-4.8277206 -2.6625929 -0.98867393
-4.7947373 -2.6061568 -0.97822779
-4.9362879 -2.6440008 -1.0048013
-4.915904 -2.5943887 -0.99710411
-4.9073091 -2.5514767 -0.99197268
-4.9123731 -2.5159397 -0.98977351
-4.9215741 -2.4826508 -0.98849064
-5.0027437 -2.4852128 -1.0022355
-5.0337934 -2.4622462 -1.0055343
-5.0107222 -2.4129696 -0.9976539
-5.0591884 -2.3981826 -1.0046179
-5.0889525 -2.3741615 -1.0077335
-5.1472001 -2.362992 -1.0167135
-5.1284547 -2.3163903 -1.0099326
-5.1344862 -2.281286 -1.0082833
-5.1267681 -2.2402897 -1.0038849
-5.1512561 -2.2134483 -1.0060841
-5.2471457 -2.2166171 -1.0227612
-5.2261481 -2.1700516 -1.0157971
-5.2630296 -2.1476021 -1.0205621
-5.2642465 -2.1105118 -1.0181797
-5.2002649 -2.0479078 -1.0027853
-5.4061904 -2.0907943 -1.0414543
-5.5181713 -2.095278 -1.0612469
-5.3945947 -2.0105593 -1.0341237
-5.3754396 -1.9659382 -1.0278927
-5.3642693 -1.9246168 -1.023311
-5.4177065 -1.9063526 -1.0315579
-5.4590387 -1.8833358 -1.0374224
-5.5235729 -1.8677573 -1.0478685
-5.4145517 -1.7939377 -1.0242274
-5.6330357 -1.8280607 -1.0649122
-5.8437018 -1.8568877 -1.1039476
-5.7705035 -1.7947149 -1.0874538
-5.8368945 -1.7761629 -1.0982665
-5.8175325 -1.7313397 -1.092402
-6.1480308 -1.7887307 -1.1545289
-6.2496653 -1.7767869 -1.1721222
-6.2149839 -1.7257782 -1.1633255
-6.399087 -1.7346913 -1.1968631
-6.4067597 -1.6946403 -1.1963133
-6.8472905 -1.7663106 -1.2791491
-7.1602206 -1.8002669 -1.3372442
-7.0527329 -1.7272944 -1.3145193
-7.8052473 -1.8609477 -1.456733
-7.8260951 -1.8152423 -1.4585656
-8.0250454 -1.809581 -1.4944856
-8.3797789 -1.8356301 -1.5600945
-9.0899363 -1.9328538 -1.6933281
-9.0968103 -1.8760496 -1.6924119
-9.1650267 -1.8315661 -1.7032245
-9.340169 -1.8070474 -1.7343795
-9.5201807 -1.7813512 -1.766451
-10.078467 -1.8219043 -1.8701789
-10.441966 -1.8215365 -1.9368875
-10.430649 -1.7536819 -1.9326724
-10.47906 -1.6957737 -1.9398197
-10.435842 -1.6231318 -1.9297402
-10.524361 -1.5708259 -1.9445846
-10.530881 -1.5058025 -1.9440348
-10.485378 -1.4336978 -1.933772
-10.487155 -1.3684431 -1.9324892
-10.478769 -1.302008 -1.9293736
-10.470941 -1.2358428 -1.9264414
-10.541829 -1.1786737 -1.9383537
-10.523445 -1.1112829 -1.9335887
-10.494849 -1.0431895 -1.9269912
-10.487349 -0.97749686 -1.9244255
-10.55191 -0.91824508 -1.9354213
-10.552447 -0.85308623 -1.934505
-10.556502 -0.78824836 -1.9343218
-10.542506 -0.72218281 -1.9308398
-10.541833 -0.6571756 -1.9299234
-10.581983 -0.59452146 -1.9367043
-10.565795 -0.5285973 -1.9330389
-10.530537 -0.4620747 -1.9258916
-10.507632 -0.39648709 -1.9211267
-10.521658 -0.33237892 -1.9233259
-9.8756351 0.72579074 -1.9303683
-9.8436203 0.78418881 -1.9249058
-9.8014908 0.84138137 -1.9174924
-9.8566961 0.90708596 -1.929588
-9.8323994 0.96572471 -1.9258813
-9.7823925 1.0214483 -1.9171021
-9.8081102 1.0850152 -1.9235401
-9.7642498 1.1408467 -1.9161267
-9.8125515 1.2075723 -1.9272468
-9.7670231 1.262849 -1.9196383
-9.7289619 1.3186673 -1.9135906
-9.7682695 1.3850908 -1.9231499
-9.7450342 1.4428452 -1.9202236
-9.7117653 1.4988697 -1.9153464
-9.7236891 1.5618563 -1.9196383
-9.7168245 1.6219751 -1.9202236
-9.7124882 1.6825711 -1.9213941
-9.678813 1.7379711 -1.9167119
-9.6371117 1.7915864 -1.9104691
-9.5797071 1.841791 -1.9011047
-9.5980463 1.9064634 -1.9071525
-9.6149912 1.9712329 -1.9130052
-9.6238251 2.034658 -1.9172972
-9.5910358 2.0892839 -1.9132004
-9.5254011 2.1362832 -1.9024704
-9.5254936 2.1977782 -1.9052017
-9.5423651 2.2634313 -1.9114445
-9.5559311 2.3286769 -1.9171021
-9.5110168 2.3796461 -1.9108592
-9.4544392 2.4272237 -1.9022753
-9.4336767 2.4836905 -1.9011047
-9.4135256 2.5402493 -1.9001293
-9.4043789 2.599792 -1.901495
-9.3854189 2.6566455 -1.9009097
-9.4188681 2.7286537 -1.9112494
-9.3803205 2.779983 -1.9067624
-9.379981 2.8426094 -1.910274
-9.3230152 2.887917 -1.9020802
-9.3387814 2.9557257 -1.9091034
-9.2812748 3.0002966 -1.9009097
-9.2794552 3.0627241 -1.9044213
-9.2530527 3.1170983 -1.9028605
-9.2049999 3.163929 -1.8968128
-9.1854134 3.2203503 -1.8968128
-9.135005 3.2657511 -1.8903748
-9.1415167 3.3314831 -1.8960325
-9.1852598 3.4114225 -1.9096887
-9.1091185 3.4468849 -1.8979833
-9.096034 3.505888 -1.8997391
-9.0734377 3.5612757 -1.899544
-9.0286474 3.6077812 -1.8946668
-8.999073 3.6601551 -1.893106
-9.0181293 3.7325623 -1.9020802
-8.9462481 3.767266 -1.8915453
-8.9364872 3.8278825 -1.8944716
-8.9029408 3.8783338 -1.8923256
-8.9291916 3.955138 -1.9032507
-8.8993902 4.0074353 -1.9020802
-8.8452053 4.048492 -1.8956422
-8.8121948 4.0989647 -1.8938864
-8.782445 4.1508622 -1.892911
-8.7559261 4.2042475 -1.8927158
-8.7326088 4.2591839 -1.8933011
-8.7370691 4.3279271 -1.9001293
-8.666543 4.3594131 -1.8903748
-8.6396303 4.412508 -1.8903748
-8.6115227 4.4649854 -1.8901796
-8.5952463 4.5236802 -1.8927158
-8.5491619 4.566628 -1.8886189
-8.5425348 4.6306863 -1.8934963
-8.5131016 4.6825423 -1.8933011
-8.4679384 4.7256064 -1.8895944
-8.4575586 4.7881083 -1.8938864
-8.4016562 4.8247685 -1.8878386
-8.3879957 4.8856106 -1.8915453
-8.3561707 4.9359884 -1.8911551
-8.3147898 4.9806147 -1.8886189
-8.3092194 5.0468168 -1.8944716
-8.241353 5.0750737 -1.8858877
-8.1692944 5.100091 -1.8763282
-8.1469631 5.1558909 -1.8784742
-8.1126976 5.2041941 -1.877889
-8.0756788 5.2506661 -1.8767184
-8.0588684 5.3103743 -1.8804252
-8.0302105 5.3624463 -1.8814006
-7.9898462 5.4066701 -1.8796448
-8.0010071 5.4861035 -1.8903748
-7.9599457 5.5300565 -1.8886189
-7.904211 5.5635486 -1.8833516
-7.8715219 5.6130824 -1.8837417
-7.8663464 5.682529 -1.8909601
-7.7949252 5.704042 -1.8819859
-7.7487488 5.7435851 -1.8792546
-7.6890488 5.7727652 -1.8732069
-7.6472378 5.8150854 -1.8716462
-7.662694 5.901402 -1.8845221
-7.6240196 5.9464984 -1.8839368
-7.5758452 5.984046 -1.8810104
-7.5527701 6.0414472 -1.8845221
-7.5147963 6.087059 -1.8843269
-7.4712396 6.1280775 -1.8827662
-7.4470773 6.1850858 -1.8862779
-7.4059834 6.2281384 -1.8854976
-7.4019761 6.3027167 -1.8944716
-7.3601928 6.3454537 -1.8936913
-7.3521495 6.4175878 -1.9018852
-7.3045502 6.4554338 -1.8997391
-7.2662649 6.50144 -1.9001293
-7.2509475 6.5682931 -1.9067624
-7.2321916 6.6325502 -1.9126151
-7.1654863 6.6527743 -1.9055918
-7.0973773 6.6710873 -1.8981783
-7.0186577 6.6786723 -1.8878386
-7.0142722 6.757 -1.8979833
-7.0077839 6.8341541 -1.9077379
-6.9594378 6.870822 -1.905982
-6.9261651 6.9224095 -1.9085182
-6.8752875 6.9564052 -1.906177
-6.7995911 6.9647703 -1.8968128
-6.773066 7.0233064 -1.901495
-6.7474308 7.0831985 -1.9065672
-6.697794 7.1180377 -1.9048115
-6.6519895 7.1568451 -1.9042262
-6.6165724 7.2069197 -1.9067624
-6.574203 7.2495623 -1.9073477
-6.5354857 7.29634 -1.9091034
-6.485395 7.3304267 -1.9075427
-6.4467468 7.3774681 -1.9094937
-6.4116101 7.4287667 -1.9126151
-6.3849921 7.4903622 -1.9184678
-6.365438 7.5609145 -1.9266616
-6.2963548 7.5726771 -1.9196383
-6.2684407 7.6339102 -1.9254911
-6.2159233 7.6653724 -1.9237353
-6.174902 7.7110248 -1.9256861
-6.1250386 7.7456903 -1.9249058
-6.0786037 7.7846732 -1.9252959
-6.0325198 7.8241549 -1.9258813
-5.9838042 7.8602419 -1.9256861
-5.9319267 7.8921056 -1.9245156
-5.8904028 7.9378066 -1.9268566
-5.8369503 7.9674702 -1.9252959
-5.7948484 8.0126724 -1.927637
-5.7415862 8.04249 -1.9262714
-5.6915655 8.076766 -1.9260763
-5.6782961 8.1638775 -1.9387572
-5.6158872 8.1807747 -1.9344652
-5.5677853 8.2183275 -1.9352455
-5.5194335 8.2555981 -1.9360259
-5.4751544 8.2991343 -1.938367
-5.4396429 8.3564119 -1.9440246
-5.3903861 8.3929329 -1.944805
-5.3293395 8.4109354 -1.9412934
-5.2641172 8.4218521 -1.936221
-5.2159452 8.4598379 -1.9375867
-5.1542578 8.4757605 -1.93388
-5.1198068 8.5366678 -1.940708
-5.0573468 8.5510359 -1.9368063
-5.0126872 8.5954638 -1.9399277
-4.9549642 8.6175556 -1.9379768
-4.9044123 8.6520634 -1.9389523
-4.8689294 8.7136745 -1.9461706
-4.8243599 8.7597094 -1.9498774
-4.7798758 8.8063869 -1.9537791
-4.7289882 8.8416042 -1.9551448
-4.6915627 8.9025602 -1.9623631
-4.6287165 8.9155102 -1.9588515
-4.5721388 8.9402514 -1.9580711
-4.5211663 8.9760208 -1.9598269
-4.4873562 9.046649 -1.9693863
-4.4162707 9.042284 -1.9623631
-4.3581557 9.0639076 -1.9611926
-4.3087506 9.1037769 -1.964119
-4.2511539 9.1264868 -1.9633386
-4.1795492 9.1185169 -1.9559251
-4.1360159 9.1717091 -1.961973
-4.0991435 9.2408466 -1.9715323
-4.0447183 9.2712183 -1.9727029
-3.995486 9.3138905 -1.9766047
-3.9355948 9.3319044 -1.975239
-3.8797631 9.3595009 -1.9760194
-3.8377972 9.4212818 -1.9842132
-3.7737236 9.4291725 -1.9808967
-3.7157962 9.4521503 -1.9808967
-3.6541977 9.4656219 -1.9789457
-3.602999 9.5062084 -1.9828476
-3.5398159 9.5152674 -1.9801164
-3.4843907 9.5451002 -1.9818721
-3.4284019 9.5736876 -1.9834329
-3.3741429 9.6074991 -1.9861641
-3.3103406 9.6141109 -1.9832377
-3.2541089 9.6426058 -1.9849936
-3.1994987 9.6763601 -1.9879199
-3.1458049 9.7135382 -1.9916266
-3.0852554 9.7298527 -1.9910414
-3.024915 9.746727 -1.9906512
-2.9604955 9.7500877 -1.9875298
-2.8997772 9.7652493 -1.9869444
-2.8436306 9.7960453 -1.9896758
-2.7821319 9.8085909 -1.9887003
-2.7287002 9.8500528 -1.9937726
-2.6620679 9.8438873 -1.9890904
-2.606369 9.8780546 -1.9927973
-2.5537708 9.9252071 -1.9992352
-2.4930613 9.9416409 -1.9994303
-2.4294548 9.94627 -1.9972843
-2.3649786 9.9466763 -1.9943579
-2.299705 9.9428444 -1.9906512
-2.2371483 9.9500694 -1.9892856
-2.1798186 9.9808569 -1.9927973
-2.119756 9.9998016 -1.9939678
-2.0583584 10.01262 -1.9939678
-1.9968834 10.025061 -1.9939678
-1.9351475 10.036162 -1.9937726
-1.8767645 10.065202 -1.9972843
-1.8177502 10.091972 -2.0004058
-1.7549537 10.098104 -1.9994303
-1.6869699 10.072891 -1.9922119
-1.6223248 10.065623 -1.9887003
-1.5734336 10.158744 -2.0054781
-1.5018513 10.106117 -1.9929923
-1.4440943 10.145244 -1.9990401
-1.3781171 10.126701 -1.9935776
-1.320371 10.169009 -2.0004058
