# .PCD v0.7 - Point Cloud Data file format
VERSION 0.7
FIELDS x y z
SIZE 4 4 4
TYPE F F F
COUNT 1 1 1
WIDTH 1500
HEIGHT 1
VIEWPOINT 0 0 0 1 0 0 0
POINTS 1500
DATA ascii
11.948553 14.7653 -1.1611691
12.029439 14.680127 -1.1602246
12.091248 14.572245 -1.1574541
17.464495 20.787411 -1.6757166
17.582016 20.668457 -1.6747721
17.715017 20.567749 -1.6754018
17.962887 20.598572 -1.6871133
18.162258 20.571011 -1.6941024
18.355978 20.53508 -1.7005248
19.050846 21.051056 -1.7540448
19.157406 20.909483 -1.751967
19.271091 20.776175 -1.7506447
19.379763 20.637896 -1.7489446
19.519094 20.532339 -1.7501409
15.685519 16.298199 -1.3899199
19.794661 20.316998 -1.7524077
19.902832 20.178814 -1.7509595
20.048132 20.078207 -1.7529114
20.207846 19.991314 -1.7561855
20.346546 19.882988 -1.7576338
16.322891 15.756256 -1.3941385
16.440931 15.676466 -1.3960274
17.141981 16.145296 -1.448477
20.788916 19.340961 -1.7542337
20.902054 19.208311 -1.7537929
17.261124 15.668055 -1.4335544
21.191183 18.999666 -1.7584523
21.253569 18.821642 -1.7539189
21.342365 18.667881 -1.7517151
21.444424 18.526136 -1.7507076
21.59869 18.429188 -1.7541077
21.570942 18.177977 -1.7425222
21.755714 18.106567 -1.7485669
21.915749 18.013294 -1.7525966
22.04446 17.893579 -1.7541077
21.805754 17.478956 -1.7259625
21.936068 17.363413 -1.7278514
0 0 -0
0 0 -0
21.932056 16.712917 -1.7024766
21.968 16.528229 -1.6972506
22.047369 16.377056 -1.6955506
22.095131 16.203104 -1.6914579
22.171499 16.050838 -1.6896949
22.257389 15.90579 -1.6887504
22.383924 15.789633 -1.6910172
22.511511 15.67366 -1.6934098
22.642628 15.559543 -1.6961173
22.925995 15.548038 -1.7104732
23.068239 15.438715 -1.7140622
23.199179 15.32108 -1.7168326
23.292749 15.178445 -1.7168326
23.814415 15.311045 -1.7490076
23.968594 15.203124 -1.753541
24.041122 15.043063 -1.7520299
23.881588 14.740105 -1.7333924
24.211979 14.739644 -1.7511483
24.450844 14.680195 -1.7621043
24.959539 14.778027 -1.7928311
25.161789 14.690016 -1.8010164
25.44693 14.647875 -1.8152465
25.762005 14.619531 -1.8316172
26.480949 14.813463 -1.8771408
26.647381 14.692625 -1.8826187
27.338587 14.855738 -1.9258125
27.696688 14.830936 -1.9449538
27.908978 14.724984 -1.9536428
0 0 -0
28.12755 14.401857 -1.9564763
28.349054 14.29641 -1.965921
28.271774 14.040511 -1.9543355
28.475739 13.924647 -1.9626468
28.321447 13.634504 -1.9458982
28.373009 13.445512 -1.9436945
28.47216 13.279181 -1.9448907
28.109558 12.900661 -1.914101
28.404667 12.825692 -1.9290867
28.395267 12.61227 -1.9230421
28.152941 12.298367 -1.9010674
28.197613 12.112393 -1.8989896
0 0 -0
28.144106 11.682423 -1.8853261
28.161661 11.48765 -1.8816742
28.064869 11.247805 -1.8703406
28.177002 11.092573 -1.8733
28.167273 10.889603 -1.8680738
28.215832 10.709837 -1.8668776
28.142603 10.484938 -1.8575587
28.205471 10.311718 -1.8574958
28.130116 10.088928 -1.84824
28.050272 9.8664598 -1.8387953
28.023481 9.6642256 -1.8330026
27.967852 9.4534245 -1.8253838
27.978909 9.266263 -1.8222985
27.918472 9.0565338 -1.8145539
27.847961 8.8451777 -1.8062425
27.752085 8.6276207 -1.796357
27.75676 8.4426537 -1.7932088
27.733427 8.2499857 -1.7882975
27.686737 8.0515127 -1.7819381
27.680899 7.8659277 -1.7783492
27.68729 7.6844554 -1.7756417
27.650114 7.4917169 -1.7701638
27.689774 7.3203874 -1.769786
27.65299 7.1294179 -1.7644969
27.640076 6.9454999 -1.7608449
27.70059 6.7802815 -1.7620413
27.771769 6.6173577 -1.7639931
27.806015 6.4454765 -1.7636154
27.913193 6.2900996 -1.7680229
28.022432 6.1342897 -1.7726194
28.094688 5.9696999 -1.7748861
28.092667 5.7893448 -1.7724304
28.141363 5.6195989 -1.773312
28.166494 5.445116 -1.7727453
28.140514 5.2611818 -1.7689674
28.22039 5.0971084 -1.7720526
28.298328 4.9320812 -1.775075
28.331011 4.7588491 -1.7752639
28.488741 4.6057916 -1.7835122
28.526327 4.4324336 -1.7841419
28.570755 4.2599654 -1.7852752
28.608212 4.0862718 -1.7860309
28.646589 3.9125493 -1.7869123
28.679953 3.7379935 -1.787542
28.737015 3.5662487 -1.7897458
28.770248 3.3912566 -1.7905014
28.81432 3.21732 -1.7920125
28.894062 3.0468433 -1.7958534
7.6184049 0.75581956 -0.44582704
7.5881186 0.70582271 -0.44362327
7.5197248 0.65294343 -0.43902686
7.4290857 0.59916395 -0.43304521
7.4037595 0.55141753 -0.43121925
7.3850985 0.50448096 -0.42983401
7.3810821 0.45872363 -0.42939326
7.3648252 0.41236445 -0.42819694
7.3592429 0.36676911 -0.42769322
7.348393 0.32103977 -0.42687467
7.3542137 0.27609479 -0.42712653
7.3537741 0.23090224 -0.42700061
7.3600411 0.18590227 -0.42731541
7.3490691 0.14050882 -0.42655984
7.3547826 0.09547817 -0.42687467
7.3931537 0.050609935 -0.42926732
7.4222674 0.0052675437 -0.43109331
7.416172 -0.040242564 -0.43071553
7.4596953 -0.086251929 -0.43348595
7.5198951 -0.13309625 -0.43732682
7.5259213 -0.17940105 -0.43776757
7.6453848 -0.22918798 -0.44538629
7.680737 -0.27742586 -0.447716
25.067801 -1.0585855 -1.5457575
25.018967 -1.210354 -1.543113
24.998114 -1.3631384 -1.5422945
20.292271 -1.2315313 -1.2454158
24.975519 -1.6695349 -1.5420426
25.023533 -1.8270373 -1.5457575
25.037718 -1.9825922 -1.5473946
25.051931 -2.1384749 -1.5490947
25.073124 -2.2953343 -1.5512984
19.896467 -1.9446942 -1.2240708
19.919897 -2.0704536 -1.2263376
25.168484 -2.7720819 -1.5603024
10.583414 -1.231673 -0.63503599
10.588535 -1.2981668 -0.63585454
10.558594 -1.3603077 -0.63446933
10.546092 -1.4245341 -0.63421744
10.58261 -1.4956397 -0.63711381
10.575209 -1.5608366 -0.63723975
13.854133 -2.1315994 -0.84716409
13.859516 -2.2195647 -0.84836042
24.74379 -4.1182079 -1.5453798
14.399671 -2.4876609 -0.884754
13.618853 -2.4389405 -0.83570451
24.429266 -4.5294819 -1.5303311
24.332403 -4.6661358 -1.5259236
24.212269 -4.7973108 -1.5200679
24.127621 -4.9345865 -1.5165418
24.016813 -5.0656495 -1.5113788
23.928715 -5.2006259 -1.5077268
23.856422 -5.3384171 -1.5051453
23.739574 -5.4654417 -1.4997303
23.707535 -5.6114616 -1.4998562
23.597017 -5.7384295 -1.494945
23.424833 -5.8490219 -1.4860669
23.444576 -6.0070105 -1.4897189
23.438166 -6.1588664 -1.4917338
8.1988878 -2.2085667 -0.49852851
7.8263311 -2.1598201 -0.47504267
7.8282981 -2.2121425 -0.47605011
8.0072832 -2.3158586 -0.48870602
8.0130205 -2.370892 -0.49002826
8.0021429 -2.4211705 -0.49028012
7.9861832 -2.4699302 -0.49021718
8.2563705 -2.6090901 -0.50910658
22.265629 -7.1859879 -1.4389064
7.8531094 -2.5880888 -0.48448738
22.125633 -7.4418187 -1.4355693
22.062563 -7.5716081 -1.434436
22.005329 -7.7032118 -1.4337434
18.915087 -6.7520633 -1.2299266
21.881006 -7.9624329 -1.4318544
21.818636 -8.0916843 -1.4309728
18.319866 -6.9223576 -1.1983812
18.483822 -7.1142159 -1.2123594
18.467697 -7.2384219 -1.2142483
18.641695 -7.4388914 -1.229108
21.325294 -8.661768 -1.4149798
21.25791 -8.7867365 -1.4140353
21.171396 -8.9034662 -1.4118316
21.129213 -9.0386992 -1.4127131
21.077932 -9.170166 -1.4130279
20.993887 -9.2872133 -1.411139
20.969273 -9.4305906 -1.4134057
21.094366 -9.64289 -1.4261246
21.098158 -9.8015738 -1.4305321
21.024984 -9.924881 -1.4296505
20.778315 -9.9648027 -1.4166799
20.671919 -10.070255 -1.4135317
20.585587 -10.184957 -1.4118316
20.521814 -10.310628 -1.4117687
20.467054 -10.440888 -1.4123982
20.41501 -10.572701 -1.4132798
20.328552 -10.686621 -1.4117687
20.224735 -10.790953 -1.4090612
12.974731 -7.0254717 -0.893695
19.934219 -10.952309 -1.3977904
19.84049 -11.059838 -1.3959016
19.757486 -11.173018 -1.3948311
12.481562 -7.1600242 -0.87064993
12.610785 -7.3373528 -0.88330585
12.5767 -7.421186 -0.8841244
19.382275 -11.597647 -1.3878421
18.495886 -11.221976 -1.3277107
12.365714 -7.6069784 -0.87877238
18.868275 -11.76708 -1.3657414
18.772942 -11.868234 -1.3640413
18.670355 -11.964353 -1.3618376
18.579851 -12.067815 -1.3605783
18.487949 -12.170068 -1.359256
18.373905 -12.257249 -1.3562967
18.238819 -12.329516 -1.3517632
18.120831 -12.412432 -1.3485521
18.009892 -12.499487 -1.3459076
17.883873 -12.575315 -1.3421297
17.764921 -12.655281 -1.3389184
17.643232 -12.73251 -1.3355184
17.447144 -12.754537 -1.3263255
17.305191 -12.814432 -1.3213513
17.170349 -12.878456 -1.3169438
17.020275 -12.929839 -1.3113399
16.900278 -13.002994 -1.3081287
16.787111 -13.080684 -1.3054842
16.713585 -13.189005 -1.3060509
16.648716 -13.304393 -1.3073732
16.45117 -13.312756 -1.2979914
16.311277 -13.366007 -1.293269
16.179035 -13.424417 -1.2891763
16.034464 -13.471437 -1.2840762
15.918055 -13.541117 -1.2813058
15.813495 -13.620296 -1.2795427
15.695776 -13.687553 -1.2767093
15.523961 -13.706321 -1.2693424
15.393435 -13.760079 -1.2654387
15.307975 -13.853603 -1.2653757
15.236664 -13.96008 -1.266572
15.115598 -14.02073 -1.2635497
15.001637 -14.087254 -1.261157
14.892493 -14.157721 -1.2592051
14.783051 -14.227379 -1.2572532
14.6726 -14.295532 -1.2552384
14.537711 -14.339038 -1.2510827
14.404255 -14.382839 -1.2470529
14.308012 -14.463147 -1.2463603
14.182726 -14.513551 -1.2430862
14.046966 -14.552193 -1.2388675
13.925729 -14.604884 -1.2359712
13.81943 -14.67262 -1.23446
13.723022 -14.750562 -1.2338933
6.9520655 -7.5654588 -0.61104643
6.9014888 -7.6035395 -0.61066866
13.008134 -14.508746 -1.1922107
6.7395101 -7.610703 -0.60418326
6.6815143 -7.639142 -0.60311288
6.6077652 -7.6490316 -0.60053134
13.221463 -15.495502 -1.2479345
12.517729 -14.854387 -1.1883699
12.981154 -15.597516 -1.2430862
6.4991751 -7.907578 -0.60859084
12.783739 -15.749442 -1.2425824
12.696225 -15.839266 -1.2435269
12.550484 -15.855833 -1.2386156
2.0045636 -2.5652204 -0.16821565
1.9832979 -2.5703611 -0.16764897
1.9620448 -2.5753379 -0.16708229
1.9504062 -2.5929108 -0.16752304
1.9380305 -2.6096363 -0.16790083
1.9278836 -2.6295266 -0.16853048
1.9064455 -2.6340308 -0.1679638
11.482304 -16.067678 -1.2087704
11.243128 -15.938843 -1.1934071
11.136562 -15.995244 -1.1924626
10.051868 -14.627975 -1.0825891
10.952882 -16.150526 -1.1939737
10.850802 -16.21328 -1.1936588
10.670815 -16.157967 -1.184466
10.557849 -16.202234 -1.182892
10.480365 -16.30113 -1.1854734
10.387095 -16.376085 -1.1862921
10.214949 -16.325296 -1.1777917
10.317451 -16.716333 -1.2021592
9.8176699 -16.127188 -1.1539911
10.11308 -16.844252 -1.202348
9.6480083 -16.295401 -1.1575801
9.5483437 -16.355156 -1.1576431
9.4433298 -16.405651 -1.1570764
9.6035576 -16.923317 -1.1904477
9.7378016 -17.407839 -1.2212374
8.9431419 -16.220116 -1.1313868
8.897296 -16.373774 -1.1385018
8.7797003 -16.396385 -1.1362351
8.6314249 -16.359913 -1.1298127
8.4217882 -16.202698 -1.11489
8.4131832 -16.431734 -1.127483
8.5072412 -16.869789 -1.1548096
8.0111418 -16.131508 -1.0991489
7.9334931 -16.224291 -1.1022341
7.8957009 -16.401255 -1.1112381
7.8761215 -16.620747 -1.1232014
6.9184709 -14.834486 -0.99550897
7.4892287 -16.318861 -1.0956228
7.5930862 -16.81657 -1.1269163
7.5278411 -16.94858 -1.1328349
7.4444804 -17.042007 -1.1361091
7.3539534 -17.120378 -1.1383759
7.2868176 -17.255278 -1.1445464
7.1746817 -17.284916 -1.143539
7.2973061 -17.889534 -1.1817585
7.2133908 -17.998819 -1.186166
7.096601 -18.026955 -1.1850957
6.8876057 -17.816032 -1.1679063
6.7292833 -17.729197 -1.1592172
6.6301284 -17.796339 -1.1609802
6.5557623 -17.932293 -1.1674026
6.4638033 -18.022909 -1.1708027
6.18718 -17.590555 -1.1392573
5.989974 -17.369675 -1.122005
5.8829637 -17.405155 -1.121942
6.0995669 -18.4177 -1.1868587
5.9479475 -18.336115 -1.1789881
5.7670455 -18.157297 -1.1647581
5.6324148 -18.118006 -1.1598468
5.5109735 -18.118807 -1.1576431
5.3928652 -18.129322 -1.1561319
5.264245 -18.102655 -1.1522281
5.214726 -18.351576 -1.1664581
5.1468668 -18.544786 -1.1770362
4.0273008 -14.864501 -0.93443316
3.9375489 -14.894722 -0.93481094
4.6543956 -18.053637 -1.1390685
4.5559378 -18.13122 -1.1422796
4.4400926 -18.140415 -1.1410834
4.3071866 -18.07703 -1.1352277
4.193933 -18.093395 -1.134598
4.1028013 -18.207386 -1.1403278
4.0616517 -18.554918 -1.1611691
3.5672688 -16.789106 -1.0456918
3.6591911 -17.756872 -1.1066417
0.47729415 -2.3920231 -0.11671052
0.46677572 -2.4164639 -0.11809575
3.4093144 -18.236187 -1.1332757
3.2812114 -18.167389 -1.127546
0.49299467 -2.8307045 -0.14410017
0.47098705 -2.8061178 -0.14233716
0.44961852 -2.7833393 -0.14070007
0.43053958 -2.7732253 -0.13988154
0.40954107 -2.7491632 -0.13818149
0.3980279 -2.7891676 -0.14057414
0.37928557 -2.7796915 -0.13981856
0.3586106 -2.7542562 -0.13805556
0.24336478 -1.9640715 -0.087683797
0.23095834 -1.9625543 -0.087494902
0.21857971 -1.9609591 -0.087306008
0.20570599 -1.9543232 -0.086802289
0.19134466 -1.9317133 -0.085291132
0.18355766 -1.9765748 -0.088061579
0.16676131 -1.9239733 -0.084661491
0.15350778 -1.9070542 -0.083528124
0.14128417 -1.9009935 -0.08308737
0.13009372 -1.9087944 -0.083528124
0.11868893 -1.9145372 -0.083842948
0.10733025 -1.9222046 -0.084283702
0.096080847 -1.9337915 -0.084976308
0.083908215 -1.9273652 -0.084535562
0.071968064 -1.9248518 -0.084346667
0.059842281 -1.9152819 -0.083717018
0.047483101 -1.8916683 -0.082205862
0.035932545 -1.8949176 -0.082394756
0.024265844 -1.8921086 -0.082205862
0.012311339 -1.8423223 -0.079057626
0.0010068306 -1.8423631 -0.079057626
-0.010581884 -1.8952287 -0.082394756
-0.04546807 -3.9159763 -0.20989829
-0.046674885 -2.6223965 -0.12829603
-0.045180287 -1.88274 -0.081639186
-0.056910824 -1.8884128 -0.082016967
-0.070115604 -1.9329096 -0.084850386
-0.78069627 -18.484764 -1.1300645
-0.89448768 -18.4876 -1.1305683
-0.95037866 -17.426432 -1.0638887
-1.1269124 -18.567877 -1.1364239
-1.1525099 -17.239193 -1.0528698
-0.24976504 -3.4160979 -0.17891966
-0.23882142 -3.0115654 -0.15341894
-0.28046444 -3.2815146 -0.17060831
-0.35417417 -3.8651164 -0.20769453
-0.36875936 -3.7695017 -0.20177585
-0.30399182 -2.9214132 -0.14812991
-0.42460284 -3.8519902 -0.20731674
-0.45042148 -3.8681476 -0.20851307
-0.43274623 -3.5275154 -0.1870421
-0.46419904 -3.6010115 -0.19189039
-0.47573456 -3.5199614 -0.18691617
-0.3630048 -2.5663271 -0.12634413
-0.42084777 -2.8493884 -0.14454092
-0.46927848 -3.0479805 -0.15738572
-0.48623604 -3.0342038 -0.15669312
-0.64295661 -3.8610768 -0.20977236
-0.53549463 -3.0978336 -0.16116361
-0.54991907 -3.0689473 -0.15952653
-3.6700566 -19.793634 -1.2328858
-3.2133198 -16.755772 -1.0392065
-3.3187861 -16.749447 -1.0400879
-0.53388786 -2.60866 -0.13081461
-0.54020435 -2.559438 -0.12785527
-0.86957401 -3.9994476 -0.22104305
-4.049839 -18.097557 -1.1328349
-3.8995221 -16.93737 -1.0593551
-4.1868014 -17.688129 -1.109601
-4.1023598 -16.868847 -1.0580958
-0.6956926 -2.7847345 -0.14391127
-0.71326166 -2.782347 -0.1440372
-0.73767549 -2.8059106 -0.14586319
-1.0992891 -4.0801311 -0.22941735
-0.61517245 -2.2280655 -0.10865104
-0.93599695 -3.311444 -0.1799271
-0.95019877 -3.2845464 -0.17854187
-0.75715077 -2.5580199 -0.13112944
-0.76445186 -2.5256233 -0.12930347
-0.78966391 -2.5523498 -0.1313813
-1.0473574 -3.3135302 -0.18206789
-6.0252209 -18.668806 -1.200459
-1.3487409 -4.0919099 -0.23464341
-1.3747776 -4.0863953 -0.23483232
-0.73509204 -2.1408386 -0.10562874
-0.74194926 -2.1183903 -0.1044324
-1.2008179 -3.362968 -0.1881125
-1.5033149 -4.1302056 -0.24012135
-1.5338342 -4.1349397 -0.24106582
-1.568701 -4.1506577 -0.24276587
-1.5923471 -4.1362972 -0.24245104
-1.1770415 -3.0021186 -0.16626374
-1.1976593 -3.0004017 -0.16664153
-1.3692726 -3.3702576 -0.19233114
-1.399838 -3.3857732 -0.19396822
-1.2279241 -2.9189696 -0.1626118
-1.2568017 -2.9370728 -0.16437481
-1.2939099 -2.9732337 -0.16739711
-1.3097066 -2.9597623 -0.16701932
-1.7637824 -3.9210439 -0.23407674
-1.5587778 -3.4091077 -0.19932023
-1.4686617 -3.1605279 -0.18269753
-1.85781 -3.9348452 -0.2373509
-7.3539405 -15.333979 -1.0357434
-1.9356769 -3.9727619 -0.24163251
-0.884601 -1.7871104 -0.088628262
-0.89554983 -1.781649 -0.088628262
-0.91100001 -1.7850107 -0.089257911
-0.92009968 -1.7758424 -0.089006051
-1.6642307 -3.165046 -0.18842733
-0.93759459 -1.7564929 -0.088439368
-0.95120573 -1.7559726 -0.088817157
-0.96772897 -1.7605995 -0.089572735
-1.9275099 -3.4571247 -0.2125428
-1.5109762 -2.6711888 -0.15644126
-10.149921 -17.693974 -1.2497604
-10.312502 -17.724527 -1.2565606
-10.398241 -17.622238 -1.2537272
-10.489263 -17.52984 -1.2516494
-5.0942683 -8.3958721 -0.58239752
-1.5402944 -2.5032556 -0.14825584
-1.5883677 -2.5462615 -0.15215966
-0 -0 -0
-5.1695495 -8.0666533 -0.56728595
-1.3245691 -2.0386796 -0.11620681
-1.3683308 -2.0780306 -0.11979579
-1.3400719 -2.0081575 -0.11513641
-1.3836678 -2.0461996 -0.11866243
-1.428344 -2.084604 -0.12225142
-1.388189 -1.9995492 -0.1163957
-1.3602488 -1.9338456 -0.11198817
-1.357034 -1.9043285 -0.11035109
-1.4089904 -1.9518074 -0.11469565
-1.4303635 -1.9560164 -0.11570309
-1.5023229 -2.0282118 -0.12206253
-1.512943 -2.0165603 -0.12187363
-1.464314 -1.9269725 -0.1155142
-1.435336 -1.8649544 -0.11129556
-1.5326295 -1.9663273 -0.12011062
-1.5675403 -1.9858748 -0.12244032
-1.6289148 -2.0378125 -0.12741452
-1.6432713 -2.0301068 -0.12760341
-2.9834094 -3.6403294 -0.25976634
-1.6731583 -2.015933 -0.12810713
-1.6803606 -1.9995157 -0.12760341
-1.6932443 -1.9899278 -0.12766638
-1.7112842 -1.9863065 -0.12823306
-1.7240956 -1.9765211 -0.12829603
-1.7361909 -1.9659051 -0.12829603
-2.2058153 -2.4671471 -0.17161575
-2.1767144 -2.4047265 -0.16746008
-2.2440152 -2.4487231 -0.17237133
-2.2637489 -2.4400301 -0.17281207
-2.3012226 -2.4501028 -0.17488991
-2.3657215 -2.4880168 -0.17942338
-2.4190056 -2.5130048 -0.18288644
-3.0465546 -3.1264615 -0.2382324
-16.138739 -16.362419 -1.4127761
-3.2116213 -3.2159638 -0.24956606
-2.4806588 -2.4535844 -0.18294939
-2.5206492 -2.4627309 -0.18515316
-2.5493557 -2.4603879 -0.1863495
-2.55357 -2.4343681 -0.18540502
-3.5041866 -3.3000057 -0.26650357
-2.5803285 -2.4001293 -0.18515316
-3.0991066 -2.8475161 -0.22834694
-3.1882002 -2.8935134 -0.23445453
-3.3351889 -2.9898229 -0.24541038
-2.6877651 -2.3797524 -0.18930884
-2.6489818 -2.3165636 -0.18483834
-3.6343441 -3.1393216 -0.26581094
-17.355536 -14.808592 -1.402198
-3.3604631 -2.8314431 -0.24005839
-3.4322367 -2.8560998 -0.24452887
-3.425025 -2.814707 -0.24251401
-3.4391317 -2.7911227 -0.24226215
-4.1219916 -3.3036711 -0.29609698
-4.1351418 -3.272742 -0.29553029
-4.1480684 -3.2417762 -0.2949636
-3.8147206 -2.9436936 -0.26681837
-18.260748 -13.915182 -1.4112649
-3.0977237 -2.3302276 -0.2073797
-11.315838 -8.4052992 -0.85213828
-3.0206575 -2.2147219 -0.19913132
-3.0075128 -2.1768324 -0.19705349
-3.0354285 -2.1687827 -0.19818686
-3.0796688 -2.1719778 -0.20057951
-3.0921187 -2.1524701 -0.20051655
-3.0970426 -2.1278045 -0.1998869
-3.0943468 -2.0981178 -0.19869058
-19.74402 -13.213869 -1.4616996
-19.797245 -13.074324 -1.4596218
-19.86957 -12.9477 -1.4590551
-3.6796496 -2.3653617 -0.2387991
-5.7142119 -3.6241269 -0.38972551
-5.7295732 -3.5847619 -0.38922179
-3.6834986 -2.2731175 -0.23590271
-3.7033441 -2.254106 -0.23634347
-3.7265172 -2.2369914 -0.23703608
-3.7479019 -2.2186601 -0.23760276
-3.7709255 -2.2011569 -0.23829538
-3.7981997 -2.1859438 -0.23930281
-3.8913956 -2.2079151 -0.24509557
-3.8595781 -2.1586595 -0.24182139
-3.891104 -2.1450567 -0.24314366
-3.8498247 -2.0915966 -0.23923984
-3.8731437 -2.0735886 -0.23999542
-3.8769672 -2.0451272 -0.23936577
-3.9000692 -2.0268238 -0.24012135
-3.9346404 -2.0142267 -0.24169546
-4.3149533 -2.1756485 -0.2676999
-4.352356 -2.1611173 -0.26939994
-4.3924308 -2.1475239 -0.27128887
-4.4226108 -2.1287575 -0.2724852
-17.705696 -8.3902779 -1.1989479
-5.722806 -2.6687169 -0.36120248
-5.7490506 -2.6381314 -0.36189508
-22.448713 -10.13628 -1.5167937
-22.511396 -9.9987526 -1.5168567
-5.8633986 -2.561029 -0.36649153
-5.7854695 -2.4848247 -0.36006913
-5.7840581 -2.4422901 -0.35893574
-22.761059 -9.447875 -1.5176123
-22.799196 -9.3001213 -1.5162901
-9.6058121 -3.8495226 -0.61570585
-9.6171789 -3.7857573 -0.6148873
-22.803617 -8.8159065 -1.5052712
-22.813427 -8.659174 -1.5023118
-22.867065 -8.5193787 -1.5023749
-22.904848 -8.3737679 -1.5014304
-23.20944 -8.3240423 -1.5184308
-13.454684 -4.7323575 -0.86265343
-14.095789 -4.8608871 -0.90351748
-7.7888656 -2.6324127 -0.48152804
-7.7916074 -2.5801785 -0.48064652
-7.8072925 -2.5323217 -0.48064652
-14.496191 -4.604135 -0.92240691
-14.503201 -4.5085831 -0.9210217
-14.589791 -4.4375153 -0.92492551
-14.529696 -4.3220143 -0.91919571
-14.570316 -4.2369609 -0.92014021
-14.65076 -4.1630297 -0.92372918
-9.7003984 -2.6920226 -0.5979498
-9.7013216 -2.6282754 -0.59694237
-9.7105112 -2.5669138 -0.59650159
-12.893005 -3.3238187 -0.80283695
-13.252897 -3.3300223 -0.82493752
-13.089865 -3.2037928 -0.81303722
-13.087918 -3.1183252 -0.811652
-13.154446 -3.0490041 -0.81473726
-13.365679 -3.0116758 -0.82720429
-11.504248 -2.5181119 -0.70580834
-15.196895 -3.2289245 -0.94299638
-15.189052 -3.1299767 -0.94123334
-15.05921 -3.0070109 -0.93166274
-15.097955 -2.9185312 -0.93298501
-15.248997 -2.8507829 -0.94154817
-15.244595 -2.7532601 -0.94016296
-15.217941 -2.6521289 -0.93739253
-15.380577 -2.5833387 -0.94677424
-15.558701 -2.5152004 -0.95716345
-15.457471 -2.4016035 -0.94973361
-15.391961 -2.2947903 -0.94463348
-15.272373 -2.1812508 -0.93613321
-15.600907 -2.1305871 -0.95621896
-15.951156 -2.0788102 -0.97768992
-16.31818 -2.0249035 -1.0002313
-16.696032 -1.9678546 -1.0234653
-27.272985 -3.0451977 -1.6941653
-27.317953 -2.8806226 -1.6958654
-27.502954 -2.7296088 -1.7065064
-27.814322 -2.5882707 -1.725207
-0 -0 -0
-30.771629 -2.4830267 -1.9105121
-30.738514 -2.2906084 -1.9074898
-30.775887 -2.103591 -1.9090009
-30.779249 -1.9141564 -1.9084343
-30.785433 -1.7249832 -1.9081194
-30.790455 -1.5358062 -1.9078046
-30.81226 -1.3474176 -1.9086231
-30.822939 -1.1584443 -1.908812
-0 -0 -0
-25.546324 1.8882844 -1.8976997
-25.539227 2.0453966 -1.8980763
-25.520235 2.2015493 -1.8976244
-25.506247 2.3580971 -1.8976244
-0 0 -0
-25.480347 2.6714404 -1.898001
-25.446629 2.8258629 -1.8967204
-25.427818 2.9818311 -1.8966451
-25.402117 3.1369412 -1.8961178
-25.367558 3.2908218 -1.8949879
-25.318233 3.4425149 -1.8928034
-25.2838 3.595974 -1.8918242
-25.22378 3.7454774 -1.8889618
-25.165833 3.8948376 -1.8863254
-25.100115 4.0425177 -1.8831617
-25.043365 4.1911845 -1.8807511
-24.972967 4.3370891 -1.8773614
-24.931166 4.4875879 -1.8762316
-24.887476 4.6375551 -1.8750263
-24.862469 4.7909293 -1.8753276
-24.839449 4.9447556 -1.875855
-24.839897 5.1034975 -1.8782654
-24.842258 5.263051 -1.8809018
-24.852362 5.4247398 -1.8842162
-24.858498 5.5860944 -1.8873045
-24.894674 5.7549167 -1.8928034
-24.903521 5.9181662 -1.8962685
-24.931641 6.0867081 -1.9013153
-24.943153 6.2519379 -1.9051571
-25.003792 6.4304547 -1.9129157
-25.023643 6.5995226 -1.917586
-25.046211 6.7701163 -1.9225576
-25.069546 6.9417677 -1.9276798
-25.036074 7.0981808 -1.9284331
-25.00737 7.2561126 -1.9296383
-25.041719 7.4329724 -1.9358904
-25.09201 7.6157403 -1.9434984
-25.134331 7.7973351 -1.9505792
-0 0 -0
-25.236923 8.1699963 -1.9664731
-25.251644 8.3462887 -1.9716706
-25.303888 8.5361385 -1.9799565
-25.333065 8.7194767 -1.98651
-25.197231 8.8460131 -1.9799565
-25.318035 9.0633078 -1.9940426
-25.367798 9.2571173 -2.0025547
-25.360054 9.4310198 -2.006547
-25.324087 9.5949287 -2.0083547
-25.327066 9.7741909 -2.0134017
-25.300026 9.9425421 -2.0161135
-25.326494 10.132785 -2.0232694
-25.341417 10.319589 -2.029597
-25.311705 10.489013 -2.0323839
-25.342426 10.684417 -2.0402181
-25.315796 10.856615 -2.043457
-25.306286 11.036861 -2.0482028
-25.341093 11.237613 -2.0567145
-25.264391 11.389612 -2.0561121
-25.378956 11.629164 -2.0714786
-25.291756 11.777511 -2.0701981
-25.260477 11.952096 -2.073663
-25.288218 12.155686 -2.082175
-25.220324 12.314124 -2.0827777
-25.117491 12.45535 -2.0805178
-24.971127 12.57425 -2.0746424
-24.843784 12.701811 -2.0704241
-24.698118 12.819096 -2.0646992
-24.578415 12.949018 -2.0612342
-24.443102 13.06996 -2.0564885
-24.259027 13.16357 -2.0476
-24.171686 13.308806 -2.0470726
-24.049526 13.434499 -2.0436077
-23.936279 13.564603 -2.0409713
-23.829256 13.6978 -2.0389376
-23.710302 13.823664 -2.0359244
-23.607012 13.958229 -2.0343425
-23.489279 14.083842 -2.0315554
-23.391342 14.22097 -2.0305762
-23.272238 14.344868 -2.0277891
-23.161795 14.473654 -2.0258305
-23.0397 14.594687 -2.022893
-22.914473 14.713152 -2.0197291
-22.773621 14.820839 -2.0152094
-22.623154 14.921313 -2.0098612
-22.495525 15.036016 -2.0066223
-22.392109 15.166493 -2.0056429
-22.224636 15.252817 -1.9988636
-22.108524 15.373527 -1.9968297
-21.952641 15.465817 -1.9911803
-21.793215 15.554459 -1.9852295
-21.623024 15.634131 -1.9782994
-21.490488 15.739998 -1.9749097
-21.379089 15.86087 -1.9735538
-21.250278 15.968388 -1.970616
-21.140791 16.090021 -1.9695615
-21.013235 16.197519 -1.9668497
-20.904808 16.319399 -1.9660211
-20.787071 16.433754 -1.9643639
-20.664827 16.544165 -1.9623301
-20.538914 16.651182 -1.9599949
-20.414007 16.758545 -1.9578105
-20.270155 16.849701 -1.9538182
-20.145788 16.956421 -1.9517844
-19.994314 17.039612 -1.9471141
-19.872776 17.14764 -1.9454569
-19.743908 17.248917 -1.9431218
-19.63023 17.363132 -1.9423685
-19.508465 17.469948 -1.9408619
-19.390562 17.579945 -1.9398074
-19.268372 17.68578 -1.9383762
-19.144152 17.789419 -1.9367943
-19.009945 17.88332 -1.9342332
-18.881084 17.981745 -1.9322747
-18.742399 18.070265 -1.9293369
-18.604769 18.159155 -1.9265499
-18.485193 18.265261 -1.9257213
-18.363607 18.369171 -1.924742
-18.240742 18.471569 -1.9236875
-18.124969 18.581003 -1.9234614
-18.000933 18.681812 -1.9224069
-17.874966 18.780355 -1.9212017
-17.744368 18.873695 -1.9195445
-17.608551 18.961027 -1.9173599
-17.473677 19.048874 -1.9153261
-17.330357 19.126911 -1.9123884
-17.186735 19.203909 -1.9094507
-17.044806 19.282106 -1.9067389
-16.909121 19.366798 -1.9047804
-16.771738 19.449039 -1.9026712
-16.639154 19.5364 -1.9011648
-16.508057 19.625156 -1.8998842
-16.379683 19.716873 -1.8989803
-16.23942 19.793877 -1.8967204
-16.101341 19.873003 -1.8947619
-15.965396 19.954294 -1.8931048
-15.822259 20.02606 -1.8906189
-15.684977 20.104683 -1.8888865
-15.547935 20.183167 -1.8872293
-15.403277 20.251202 -1.8846681
-15.26376 20.325399 -1.882785
-12.487813 16.842821 -1.5465261
-14.986685 20.474968 -1.8793952
-14.865442 20.573006 -1.8799978
-14.742982 20.669514 -1.8805252
-14.615878 20.759586 -1.8805252
-14.488793 20.849695 -1.8806005
-14.359462 20.93656 -1.8804499
-14.21396 20.999498 -1.87819
-14.069888 21.063931 -1.8761562
-13.932695 21.138208 -1.8751017
-13.794578 21.21076 -1.8739717
-13.654479 21.279896 -1.8726158
-11.470399 18.119431 -1.5826076
-11.449842 18.334949 -1.5955639
-11.424978 18.547499 -1.6082188
-11.449705 18.84565 -1.6284064
-11.434813 19.084061 -1.6432457
-11.432637 19.348749 -1.660345
-12.64685 21.706987 -1.860413
-12.510937 21.779856 -1.8600363
-9.6079407 16.96579 -1.4354944
-12.252442 21.949158 -1.8615428
-12.116573 22.022177 -1.8613921
-11.965535 22.067181 -1.8589064
-11.165961 20.89744 -1.7524697
-11.250258 21.369686 -1.7869693
-11.344321 21.872952 -1.8239547
-10.51904 20.589712 -1.709232
-10.643924 21.153593 -1.7514904
-10.499318 21.189018 -1.7490046
-10.607816 21.742371 -1.790133
-10.804016 22.49379 -1.8476827
-10.641928 22.509172 -1.8434644
-9.2964239 19.979273 -1.6272764
-10.173142 22.219191 -1.8086634
-9.9616785 22.114811 -1.7948786
-9.7833872 22.079792 -1.7869693
-9.7994795 22.487698 -1.8156688
-9.7952213 22.859957 -1.8413552
-9.6423845 22.890221 -1.8389448
-9.5219669 22.997786 -1.8429371
-9.3851843 23.066862 -1.8438411
-9.2464333 23.131422 -1.8444437
-9.113801 23.211855 -1.8464022
-8.9625959 23.245008 -1.8445942
-8.8307409 23.328476 -1.8469294
-8.6836138 23.371939 -1.8461008
-8.5448236 23.437897 -1.8471555
-8.3874207 23.452328 -1.8441423
-8.2912092 23.639791 -1.8550647
-8.0464725 23.400724 -1.8319393
-7.8960505 23.429811 -1.8303576
-7.7258806 23.398281 -1.82403
-7.5404425 23.31621 -1.8137857
-7.3692455 23.273628 -1.8067802
-7.2003322 23.234587 -1.8001515
-7.026969 23.177177 -1.7921668
-6.8738542 23.183529 -1.7893044
-6.724535 23.201324 -1.7874212
-6.5779729 23.227758 -1.7862914
-6.4241638 23.227316 -1.7831277
-6.2677503 23.215273 -1.7791353
-6.1173134 23.223402 -1.7768002
-5.9737101 23.256638 -1.7764989
-5.8308973 23.292852 -1.7764989
-5.6866846 23.323349 -1.7761222
-5.5393243 23.340338 -1.7747663
-5.3917456 23.355427 -1.7733351
-5.2452822 23.374449 -1.7722806
-5.0934801 23.368195 -1.7693428
-4.9438095 23.369741 -1.767083
-4.7911067 23.354702 -1.763618
-4.6385808 23.337692 -1.7600776
-4.4871974 23.323608 -1.7568386
-2.7340515 14.694228 -1.0917028
-2.6299095 14.633193 -1.085752
-2.4837086 14.323843 -1.0608189
-2.3826323 14.26013 -1.0547928
-2.2865455 14.221316 -1.0507251
-2.1981769 14.22818 -1.0501978
-2.1090796 14.229564 -1.0492939
-2.0367157 14.347875 -1.0573539
-1.8941008 13.957939 -1.0266958
-1.8091885 13.975232 -1.0271478
-1.7816572 14.459139 -1.063154
-1.6707875 14.28063 -1.0487666
-1.5841191 14.299533 -1.0494446
-1.4990435 14.334769 -1.051403
-1.4152532 14.38637 -1.0546421
-1.3452439 14.593374 -1.0697074
-1.2669426 14.732495 -1.0796506
-1.1811191 14.797644 -1.0840195
-1.0913976 14.81953 -1.0851494
-1.0174786 15.078652 -1.1042825
-0.93054605 15.176179 -1.1112125
-0.83927393 15.215455 -1.1137736
-0.70744777 14.4345 -1.0543407
-0.6218068 14.50731 -1.0595384
-0.54647005 14.884536 -1.0877858
-0.46123874 15.087945 -1.1029266
-0.35301858 14.448511 -1.0544161
-0.26482967 14.476327 -1.0563745
-0.17755288 14.606303 -1.0660918
-0.086742416 14.40769 -1.0510263
0.0016600053 14.391996 -1.0498211
0.094608568 15.124612 -1.1051863
0.17839614 14.400863 -1.0505744
0.27013096 14.580949 -1.064284
0.35673147 14.463382 -1.055546
0.45575204 14.793813 -1.0807052
0.54002249 14.615358 -1.0674477
0.63506699 14.736299 -1.0768635
0.72930688 14.809809 -1.082739
0.82110339 14.82198 -1.0840195
0.93031383 15.113254 -1.1064669
1.0198594 15.060502 -1.1029266
1.1104845 15.030094 -1.1011187
1.2009342 15.00113 -1.0994616
1.2865257 14.918968 -1.093812
1.3677561 14.799586 -1.0853754
1.458343 14.788931 -1.0852247
1.550203 14.790613 -1.0860534
1.6451113 14.818483 -1.0889158
1.7299633 14.756611 -1.0849988
1.8152186 14.703164 -1.0817597
1.9091228 14.720427 -1.0839442
2.0031726 14.736101 -1.0860534
2.0934136 14.722545 -1.085978
2.1785822 14.674901 -1.0833416
2.2762125 14.710528 -1.0871079
2.3502545 14.595869 -1.0794246
2.4532692 14.661819 -1.0856014
2.5672505 14.785014 -1.0962225
2.6577446 14.768003 -1.0961472
2.7548871 14.786707 -1.098859
2.8587754 14.838064 -1.1041318
2.9524925 14.833935 -1.1051863
2.9970887 14.589911 -1.0877858
3.0898616 14.586855 -1.0889912
3.2148271 14.730314 -1.1015707
3.3036194 14.703501 -1.1010433
3.3630011 14.549854 -1.0907236
3.4646661 14.581332 -1.0947913
3.5495758 14.541394 -1.0933601
3.6317015 14.491291 -1.0911756
3.727257 14.494809 -1.0932094
3.8148537 14.466845 -1.0928328
3.9017272 14.436427 -1.0923055
3.9700069 14.33918 -1.0865806
4.0590038 14.318388 -1.086882
4.1537313 14.317154 -1.0887651
4.298543 14.483538 -1.1039058
4.4041309 14.512232 -1.1082748
4.4836373 14.454459 -1.1058643
4.5644093 14.401962 -1.1039058
4.6628284 14.40499 -1.1063915
4.7611432 14.406405 -1.1088021
4.8606067 14.409989 -1.1114385
4.9836626 14.48078 -1.1194985
5.0829926 14.480035 -1.1219089
5.1777945 14.465472 -1.1232648
5.2640624 14.426872 -1.1227375
5.3462281 14.377479 -1.1213816
5.452013 14.391026 -1.1251479
5.5567284 14.400096 -1.128613
5.6825514 14.461318 -1.1363716
5.7945151 14.484504 -1.1411172
5.9227738 14.545645 -1.1490265
6.0199299 14.528374 -1.1506084
6.1155472 14.506783 -1.151889
6.1989412 14.456156 -1.1508344
6.2360978 14.299942 -1.1411172
6.311595 14.234063 -1.1388575
6.4865236 14.389601 -1.1549774
6.5792642 14.359501 -1.1558059
6.652935 14.288127 -1.1532449
6.7788668 14.328157 -1.1600243
6.8765922 14.306963 -1.1617568
6.9677486 14.271668 -1.1623594
7.1149969 14.349246 -1.1725285
7.2491045 14.397051 -1.1802872
7.332767 14.343422 -1.179534
7.4284487 14.313205 -1.1808145
7.524035 14.282352 -1.1820951
7.6402121 14.289556 -1.18669
7.766748 14.314274 -1.1928668
7.8659763 14.287312 -1.1946746
8.0045586 14.330183 -1.2025839
8.1498613 14.382298 -1.2113972
8.3060427 14.450455 -1.2217169
8.3423157 14.30963 -1.2138829
8.5081244 14.390355 -1.2254833
8.5803642 14.311368 -1.2231481
8.6794128 14.277195 -1.2248054
8.7788877 14.243194 -1.2265378
8.9205494 14.276156 -1.2342966
9.0410643 14.273378 -1.2389668
9.2060614 14.338459 -1.2498138
9.3433657 14.357754 -1.2566686
9.4378757 14.310143 -1.2575725
10.306307 15.420022 -1.363708
9.6284304 14.216364 -1.2596817
10.85703 15.820198 -1.4120678
13.867106 19.942356 -1.797515
13.994952 19.865044 -1.7982683
10.590239 14.83853 -1.339754
14.279742 19.749989 -1.8036919
14.401835 19.663607 -1.8038425
14.510335 19.558851 -1.802336
14.616294 19.451115 -1.8006034
14.730537 19.354717 -1.8000008
14.830754 19.240276 -1.7977411
11.862546 15.19619 -1.4189225
11.914128 15.070708 -1.4138756
0 0 -0
0 0 -0
0 0 -0
12.11593 14.57595 -1.3944412
15.687529 18.638363 -1.8029386
15.80289 18.543272 -1.8030893
15.913766 18.44294 -1.8027879
16.021381 18.33894 -1.8021853
16.132284 18.238796 -1.8020346
16.249878 18.146151 -1.8027126
16.355556 18.040194 -1.80211
16.469313 17.943171 -1.8024867
16.579779 17.842508 -1.8025619
15.506872 16.484011 -1.6722466
15.941958 16.739471 -1.7088554
16.278313 16.883961 -1.7343159
16.428272 16.83157 -1.7393627
16.478672 16.677256 -1.7337133
16.432592 16.42779 -1.7178946
16.332279 16.128376 -1.6965771
16.378824 15.977033 -1.6910783
16.31785 15.723333 -1.6744311
16.43569 15.643536 -1.6766908
16.587311 15.594984 -1.6824911
16.852211 15.650331 -1.6999668
17.052271 15.642344 -1.7106632
17.202614 15.586963 -1.7162374
17.323195 15.503725 -1.7187985
17.441906 15.418272 -1.7212089
17.556465 15.328667 -1.7232428
17.686438 15.251909 -1.7268585
17.811573 15.170255 -1.7300222
17.937136 15.088279 -1.7332612
18.143667 15.072871 -1.744485
18.346056 15.051699 -1.7552567
18.525618 15.009776 -1.7637687
18.689781 14.953755 -1.770774
18.825001 14.873411 -1.7749923
18.955219 14.78829 -1.7787586
19.051132 14.675963 -1.7792859
19.156696 14.570865 -1.7807925
19.364552 14.542261 -1.7920161
19.572773 14.511652 -1.8032398
19.823185 14.509657 -1.8183806
0 0 -0
0 0 -0
0 0 -0
0 0 -0
21.175043 14.523011 -1.9022946
21.539574 14.579485 -1.9274538
21.797787 14.560027 -1.9428204
22.204767 14.635619 -1.9715953
22.412022 14.575747 -1.9822164
22.580765 14.48911 -1.9893724
22.687778 14.362018 -1.9910296
22.765326 14.2162 -1.9901257
22.865711 14.084614 -1.9913309
22.907387 13.917126 -1.9874139
22.852921 13.692774 -1.9751357
22.887571 13.523382 -1.970842
22.876202 13.32798 -1.9626313
22.844278 13.122304 -1.9527636
22.872301 12.952407 -1.948244
22.886042 12.775372 -1.9425944
22.910706 12.605386 -1.9379995
22.9359 12.43653 -1.9335552
22.975718 12.276299 -1.9304669
23.008257 12.112797 -1.9268512
22.984774 11.920897 -1.9185653
23.003317 11.751969 -1.9139702
23.00284 11.574302 -1.9078689
23.009987 11.40151 -1.9025207
23.040976 11.241309 -1.8992815
23.052887 11.072525 -1.894536
23.048273 10.896773 -1.8885099
23.051413 10.725703 -1.883237
23.063297 10.559571 -1.8787926
23.069468 10.391651 -1.8739717
23.093592 10.232535 -1.8707327
23.101093 10.066745 -1.8662131
23.123014 9.9079237 -1.862974
23.135588 9.7457304 -1.8590571
23.129536 9.5765085 -1.8537089
23.112122 9.4035969 -1.847532
23.09531 9.2319994 -1.8415059
23.111609 9.0744467 -1.8382668
23.139872 8.9220638 -1.8360823
23.133562 8.7569695 -1.8311862
23.117687 8.5891628 -1.8256119
23.095943 8.4201756 -1.8196611
23.136845 8.2746096 -1.8188325
23.142015 8.1166496 -1.8152169
23.154606 7.9618564 -1.8122791
23.1605 7.8053041 -1.8088894
23.156824 7.6461663 -1.8048217
23.155865 7.4885955 -1.8010554
23.137684 7.3262081 -1.7960085
23.139339 7.1708198 -1.7926188
23.114195 7.0078769 -1.7871953
23.12521 6.8565664 -1.7847095
23.166845 6.7145433 -1.7847095
23.224878 6.577158 -1.7860653
23.240772 6.4278846 -1.7841822
23.283625 6.2862005 -1.7844836
23.347794 6.1500731 -1.7865174
23.392817 6.0086823 -1.78712
23.430212 5.8652759 -1.7871953
23.471573 5.7228169 -1.7876472
23.517889 5.5814533 -1.7885511
23.563353 5.4397359 -1.7894551
23.573908 5.290031 -1.7877226
23.656586 5.1563249 -1.7916396
23.706316 5.0149941 -1.7930708
23.747387 4.871644 -1.7938993
23.791502 4.7287564 -1.7950293
23.835735 4.5856991 -1.7962345
23.875189 4.4415474 -1.7971385
23.9069 4.2958498 -1.797515
23.954424 4.1528254 -1.7991723
23.985355 4.0067511 -1.7996242
24.01638 3.8606117 -1.8001515
24.038631 3.7130251 -1.8000761
24.060961 3.5654569 -1.8000761
24.12385 3.4236372 -1.8032398
24.174047 3.2795718 -1.8054997
24.202616 3.1323323 -1.8061776
24.2194 2.983525 -1.8060269
24.236259 2.8347456 -1.8059516
7.1893473 0.79702765 -0.50905001
7.0572395 0.73859853 -0.49865493
7.0427837 0.69342887 -0.49722373
7.0548496 0.65093374 -0.49782634
7.014997 0.60387796 -0.49451196
7.0066419 0.55987227 -0.49360803
6.9960227 0.51584554 -0.49255347
6.9851279 0.47197023 -0.49149889
6.9779391 0.42849192 -0.4907456
6.9734674 0.3852841 -0.49021834
6.9796844 0.3426834 -0.49051964
6.9826517 0.29989302 -0.49059495
6.9863534 0.25711566 -0.4907456
6.985806 0.21418257 -0.49059495
6.9869885 0.17131443 -0.49059495
6.9769416 0.12824011 -0.48976636
6.9825826 0.085488193 -0.490143
6.9909525 0.042689644 -0.4907456
6.9940743 -0.00020742674 -0.4909716
6.9989271 -0.04315383 -0.49134824
7.0324316 -0.086520329 -0.49390933
7.0596838 -0.1301883 -0.4960185
7.0796862 -0.17402126 -0.49760035
7.0874553 -0.21773517 -0.49827829
7.0849891 -0.26118198 -0.49820298
7.1519933 -0.30761757 -0.5034005
7.1678982 -0.3523798 -0.50475639
21.214907 -1.1757604 -1.567693
21.173454 -1.3038249 -1.5651319
21.061588 -1.4267037 -1.5572978
19.41857 -1.4350643 -1.4335359
20.124065 -1.6114566 -1.4876959
21.06057 -1.8166237 -1.5594823
19.930006 -1.8423078 -1.474589
19.883595 -1.9611337 -1.4719526
19.887054 -2.0847645 -1.4731578
20.96703 -2.3281944 -1.5562433
10.606972 -1.2431581 -0.7693795
10.595186 -1.3077289 -0.76907814
10.585974 -1.3725867 -0.76900285
10.563519 -1.4356338 -0.76794827
10.585115 -1.5047773 -0.7702834
10.585546 -1.5711631 -0.77103668
13.85617 -2.1439459 -1.0217996
13.842753 -2.2289255 -1.0217996
21.283546 -3.5617747 -1.5927768
14.492246 -2.5163913 -1.0737751
21.1136 -3.8002484 -1.5832102
13.528031 -2.5202844 -1.0021393
20.821569 -4.0120664 -1.564454
20.775045 -4.1354656 -1.5627967
20.732676 -4.2594485 -1.5615162
20.642742 -4.3731451 -1.5566199
20.578501 -4.491642 -1.5537575
20.503855 -4.6073284 -1.5501418
20.434395 -4.7236166 -1.5469781
20.376892 -4.8422236 -1.5447936
20.291582 -4.9536796 -1.5404999
20.242426 -5.0734863 -1.5390688
20.145247 -5.1807041 -1.5339465
8.1987152 -2.1614487 -0.6031332
8.1785603 -2.2098927 -0.60260594
7.7698817 -2.1506486 -0.57164663
7.7632546 -2.2001874 -0.57217389
19.639757 -5.698391 -1.5074315
7.9985495 -2.3733304 -0.59288877
7.98002 -2.4212053 -0.59258747
7.9716802 -2.4721928 -0.59311473
8.191144 -2.5954893 -0.61172044
19.321955 -6.2548451 -1.4968104
7.8481364 -2.5931554 -0.5870133
7.8008976 -2.6307421 -0.58452749
19.010265 -6.5429025 -1.4813684
18.83522 -6.612184 -1.4705967
18.507019 -6.6247787 -1.4475467
18.236525 -6.6544523 -1.4290917
18.148621 -6.7488437 -1.4253253
18.108734 -6.8607812 -1.425476
18.081181 -6.97751 -1.4266812
18.047308 -7.0919704 -1.4274344
18.021042 -7.2096114 -1.4288657
18.009712 -7.333591 -1.4315774
18.003063 -7.4599929 -1.4347411
18.022188 -7.5978241 -1.4400893
18.00547 -7.7212338 -1.4425751
17.987917 -7.8447242 -1.445061
17.946737 -7.9581823 -1.4456636
17.893023 -8.066103 -1.4452869
17.842287 -8.1753244 -1.4452115
17.78998 -8.2838068 -1.445061
17.735212 -8.3911028 -1.4447596
17.677999 -8.4971733 -1.4443077
17.612087 -8.5989208 -1.4431777
17.509861 -8.682457 -1.4390348
17.457148 -8.7901812 -1.43911
17.394894 -8.8930445 -1.4384322
17.319643 -8.9890442 -1.4366996
17.258867 -9.0923576 -1.4362477
17.189564 -9.1910315 -1.4351177
12.968966 -7.0366764 -1.0772401
17.038795 -9.3810797 -1.431954
16.965244 -9.4766979 -1.4305981
16.891161 -9.5717659 -1.4292423
12.449171 -7.1555295 -1.0473354
12.619525 -7.3568487 -1.0660918
12.602471 -7.450891 -1.0685775
17.011206 -10.199306 -1.4609549
16.938932 -10.297794 -1.4601263
16.863543 -10.39421 -1.4590718
12.306738 -7.6897554 -1.0588604
16.721243 -10.59183 -1.4578664
16.649225 -10.68992 -1.4572638
16.540697 -10.764136 -1.4534222
16.441875 -10.844012 -1.4504844
16.236586 -10.852149 -1.4379048
16.0021 -10.838047 -1.4226135
15.900767 -10.91233 -1.4194498
15.843335 -11.016521 -1.4203538
15.744465 -11.091702 -1.4174913
15.632284 -11.156816 -1.4134237
15.516666 -11.218636 -1.4090548
15.401686 -11.280046 -1.4047611
15.31056 -11.358294 -1.4027272
15.149704 -11.383731 -1.39414
15.035136 -11.442653 -1.3899217
14.938581 -11.5146 -1.3874359
14.824418 -11.572295 -1.3832929
14.738271 -11.651287 -1.3818617
14.628362 -11.710961 -1.3781707
14.53764 -11.785427 -1.3763629
14.447326 -11.859854 -1.3746303
14.359715 -11.936166 -1.3731991
14.273999 -12.013776 -1.3719939
14.170418 -12.075908 -1.3690562
14.02962 -12.105299 -1.3624274
13.909274 -12.151134 -1.3578324
13.809807 -12.214449 -1.3553467
13.683347 -12.253052 -1.3501492
13.551764 -12.285876 -1.3444242
13.428375 -12.324966 -1.3395281
13.345923 -12.40102 -1.3388501
13.27176 -12.484726 -1.3390762
13.190574 -12.561798 -1.3386241
13.093866 -12.62381 -1.3365903
12.970493 -12.659336 -1.3317693
12.855691 -12.702237 -1.3278524
12.695734 -12.699072 -1.3191144
12.56643 -12.724935 -1.3136157
12.490203 -12.803943 -1.3138416
12.418324 -12.887522 -1.3145949
12.343825 -12.968533 -1.3151221
12.267434 -13.047662 -1.3154988
12.183752 -13.119034 -1.3151221
6.9130135 -7.5351572 -0.73510575
11.956902 -13.195878 -1.3078154
11.861744 -13.253391 -1.3062336
6.7421064 -7.6260109 -0.73156542
6.6860061 -7.6567197 -0.73051083
6.5809455 -7.6303887 -0.72380674
11.531624 -13.538983 -1.306083
11.434213 -13.592697 -1.3044257
11.313002 -13.617344 -1.2999815
11.200142 -13.65104 -1.2965164
6.4335485 -7.9394641 -0.73457849
10.95765 -13.694797 -1.2875526
10.826436 -13.702308 -1.2818277
2.0089605 -2.5733919 -0.20924935
1.9852222 -2.5754006 -0.2082701
1.9645534 -2.5811837 -0.20766748
1.9516723 -2.5971761 -0.20804411
1.9404504 -2.6155109 -0.20864673
1.9267211 -2.6305866 -0.20894805
1.9152156 -2.6488254 -0.20955065
1.8983477 -2.6597154 -0.20947532
1.9118409 -2.7137127 -0.21339232
1.9036889 -2.7376757 -0.21452223
1.8750118 -2.7320354 -0.21294037
9.7097321 -14.344358 -1.2711313
9.6259651 -14.4103 -1.2717339
9.534071 -14.464097 -1.271282
9.4397058 -14.513966 -1.2705287
9.3585491 -14.584202 -1.2716587
9.2795515 -14.658202 -1.2731651
9.1899643 -14.71571 -1.2732404
9.097929 -14.769275 -1.2730145
9.0045462 -14.82056 -1.2726378
8.8980656 -14.849869 -1.2703781
8.7996798 -14.892168 -1.2693235
8.7046242 -14.93985 -1.2687962
8.6038513 -14.977415 -1.2674403
8.5117893 -15.029925 -1.2674403
8.4194078 -15.08187 -1.2674403
8.3310337 -15.141109 -1.2681183
8.2422504 -15.199832 -1.2687962
8.1507111 -15.253637 -1.2690974
8.0639296 -15.316598 -1.2702274
7.9652066 -15.356936 -1.2694741
7.8599415 -15.384209 -1.2676663
7.7304416 -15.362667 -1.2617908
7.5984039 -15.333862 -1.255388
7.4573946 -15.284303 -1.247328
7.377717 -15.359435 -1.2498138
7.3447018 -15.534232 -1.2606609
6.8963442 -14.820463 -1.1974617
7.1157489 -15.540687 -1.2538061
7.0206685 -15.584965 -1.2538815
6.9273324 -15.633219 -1.2543335
6.8376513 -15.690057 -1.2555387
6.7451768 -15.740882 -1.256292
6.7618747 -16.051231 -1.2783628
6.6007066 -15.941322 -1.2660091
6.4843564 -15.936264 -1.2623181
6.4116168 -16.038715 -1.2674403
6.2259946 -15.855916 -1.2494372
6.1310983 -15.900332 -1.2499645
6.0591874 -16.005732 -1.2554634
5.9803095 -16.094955 -1.2596817
5.8940759 -16.16601 -1.2624687
5.7998085 -16.215956 -1.2635987
5.718679 -16.303932 -1.2678169
5.6383085 -16.396236 -1.2724118
5.5309105 -16.410679 -1.27083
5.4254231 -16.430103 -1.2697002
5.2778759 -16.318869 -1.2582505
5.1764421 -16.347143 -1.2579491
5.1023064 -16.463367 -1.2646532
5.0090032 -16.52013 -1.266687
4.9038591 -16.538126 -1.2657079
4.8006253 -16.562159 -1.2652558
4.6856003 -16.544291 -1.2615649
4.726449 -17.087873 -1.30194
4.5014534 -16.671783 -1.267139
3.9300227 -14.918066 -1.1280104
4.2446876 -16.523912 -1.2513957
4.1507239 -16.579632 -1.2537308
4.0571809 -16.638697 -1.2563673
3.9377456 -16.590511 -1.2507178
3.8345284 -16.60853 -1.2502658
3.7338579 -16.637585 -1.2507178
3.6310644 -16.657259 -1.2504917
3.5306458 -16.688005 -1.2511697
3.4365981 -16.750381 -1.2543335
3.321317 -16.708557 -1.2495126
3.2223113 -16.747227 -1.2509438
3.1238673 -16.790213 -1.2527516
3.0262513 -16.839489 -1.2550867
0.48390207 -2.7852237 -0.17618088
0.44857123 -2.6789677 -0.1678196
0.44209242 -2.743695 -0.17256519
0.41566241 -2.6842706 -0.1678196
0.39962256 -2.6897297 -0.16804558
0.28030363 -1.9674729 -0.11275571
0.26809219 -1.9681677 -0.11268038
0.34978986 -2.6946521 -0.16789493
0.24318832 -1.9653713 -0.11222842
0.23112446 -1.9668264 -0.11222842
0.21608959 -1.9414477 -0.11019459
0.20261857 -1.9278607 -0.10906469
0.19049299 -1.9260906 -0.10883871
0.17857967 -1.9262302 -0.10876339
0.1667572 -1.9272896 -0.10876339
0.15500769 -1.9292706 -0.10883871
0.14382543 -1.9391357 -0.10951666
0.13212559 -1.9429663 -0.10974263
0.1212984 -1.9616557 -0.11109852
0.11024679 -1.9802848 -0.1124544
0.096388273 -1.9460651 -0.10981796
0.08393418 -1.934665 -0.10891404
0.071952194 -1.9321541 -0.10868806
0.058879688 -1.8926914 -0.10567499
0.046415593 -1.8581268 -0.10303855
0.035140578 -1.8653555 -0.10356583
0.023646148 -1.8615477 -0.10326453
0.012223461 -1.8616577 -0.10326453
0.00078993611 -1.9145471 -0.10725685
-0.015112289 -2.5706334 -0.15682189
-0.042037021 -3.4648743 -0.22439003
-0.062572844 -3.4256687 -0.22145228
-0.41373748 -16.767111 -1.2296263
-0.51701093 -16.777214 -1.2306055
-0.61964905 -16.765753 -1.2300029
-0.14774242 -3.4490032 -0.22341079
-0.17047429 -3.479902 -0.22582124
-0.18906166 -3.4290092 -0.2220549
-1.0295651 -16.7236 -1.2283458
-1.1339134 -16.742836 -1.2303042
-1.2382423 -16.757441 -1.2319614
-1.3459791 -16.811153 -1.2366316
-0.36429924 -4.2342505 -0.28367224
-0.27308187 -2.9649694 -0.18755522
-0.29244462 -2.9751461 -0.18845914
-0.309342 -2.9604032 -0.1874799
-0.33212522 -3.0000739 -0.19064362
-0.44602919 -3.8120615 -0.25256225
-1.8723127 -15.165324 -1.1169374
-0.49534202 -3.8260784 -0.25406879
-0.53130758 -3.9148567 -0.26107419
-0.55489731 -3.9085612 -0.26084819
-0.47880489 -3.2314146 -0.2094
-0.41670057 -2.6992452 -0.1689495
-0.44340539 -2.7596433 -0.17377043
-2.7667394 -16.534353 -1.2290237
-0.52229369 -3.0133598 -0.1936567
-0.5564993 -3.0974412 -0.20036079
-3.1113589 -16.699226 -1.2458215
-3.2152746 -16.687654 -1.2464241
-3.3604476 -16.882763 -1.2629961
-3.4625702 -16.854988 -1.2624687
-0.55698901 -2.6340861 -0.16601177
-0.56909972 -2.6121089 -0.16458055
-0.86851263 -3.8694296 -0.26220408
-3.9459295 -17.070967 -1.2861967
-4.0651278 -17.107552 -1.2909423
-4.1061554 -16.820738 -1.270604
-4.2466302 -16.94418 -1.2822044
-0.6971519 -2.7149358 -0.17437303
-0.7163406 -2.7202489 -0.1751263
-0.62033337 -2.2989962 -0.1425098
-0.91787112 -3.3185964 -0.22273284
-0.94311297 -3.3301699 -0.22408873
-0.9543575 -3.2927182 -0.22160295
-4.954659 -16.693634 -1.2780614
-0.81192493 -2.6786809 -0.17407173
-0.87030625 -2.8088849 -0.18476814
-1.0366855 -3.2740085 -0.2220549
-5.5078292 -17.014786 -1.3136157
-5.591157 -16.917236 -1.3085687
-1.398658 -4.1491265 -0.29338938
-1.4468104 -4.2064667 -0.29866228
-1.4412102 -4.1081295 -0.29150623
-1.2045549 -3.3678813 -0.23282664
-1.2234877 -3.3557434 -0.23245001
-1.5284021 -4.1126819 -0.29406732
-1.556435 -4.1106863 -0.29466996
-1.1837952 -3.0703177 -0.21120784
-1.1920341 -3.036083 -0.20902337
-1.3321463 -3.3323724 -0.23373055
-1.3755115 -3.3804696 -0.23832549
-1.3710304 -3.3111682 -0.23335393
-7.0926256 -16.824047 -1.3418632
-1.2873558 -3.0045037 -0.20955065
-1.2993881 -2.9819241 -0.20834543
-1.4421753 -3.2546473 -0.23154607
-1.8563982 -4.1202288 -0.30401048
-1.8754131 -4.0951633 -0.30288056
-1.4791055 -3.1787376 -0.22747843
-1.8798885 -3.9753976 -0.29482061
-1.9003574 -3.9556997 -0.29414266
-1.8287706 -3.7477331 -0.27764609
-1.4144557 -2.8547211 -0.20329852
-1.4225266 -2.8272858 -0.20171666
-0.90326107 -1.7690892 -0.11268038
-0.9177742 -1.7705939 -0.11328299
-1.9781978 -3.7569189 -0.28337091
-1.9184521 -3.5899491 -0.27011341
-1.9085772 -3.5193901 -0.2650665
-1.9267689 -3.5014985 -0.26453921
-1.4609089 -2.6173501 -0.18906176
-1.4843161 -2.6213498 -0.19019167
-1.4685657 -2.5568657 -0.18537074
-1.4847289 -2.5486681 -0.18544607
-1.4993242 -2.5377934 -0.18529542
-1.5440978 -2.5772917 -0.18958905
-1.4946086 -2.4604132 -0.18009788
-1.481421 -2.4053593 -0.17603022
