# .PCD v0.7 - Point Cloud Data file format
VERSION 0.7
FIELDS x y z
SIZE 4 4 4
TYPE F F F
COUNT 1 1 1
WIDTH 1483
HEIGHT 1
VIEWPOINT 0 0 0 1 0 0 0
POINTS 1483
DATA ascii
6.8112521 0.67689741 -0.5624814
6.8370986 0.63712633 -0.5644027
6.8230157 0.59360749 -0.56283075
6.7927694 0.54900056 -0.55986154
6.8128982 0.50857222 -0.56134611
6.8089337 0.46628267 -0.56073481
6.8086839 0.42430902 -0.56047285
6.8032022 0.38207638 -0.55977422
6.8054185 0.34032553 -0.55977422
6.8083739 0.29860556 -0.55986154
6.8080869 0.25674933 -0.5596869
6.8135171 0.21509683 -0.56003618
6.8137126 0.17326045 -0.55994886
6.8156438 0.13146831 -0.56003618
6.7944078 0.089356326 -0.55811495
6.8296938 0.047911584 -0.56117147
6.8388247 0.0060128802 -0.56195742
6.8546715 -0.036032319 -0.56335473
6.8553176 -0.078102402 -0.56344205
6.8806057 -0.12061682 -0.56571263
6.8886995 -0.16304478 -0.56649858
6.8925481 -0.20545809 -0.56693524
6.9021087 -0.24813916 -0.56789583
6.9123998 -0.2909871 -0.5689438
6.9184442 -0.33377889 -0.56964242
6.9620228 -0.37870976 -0.5736596
18.590616 -1.1250381 -1.595154
18.450171 -1.2302089 -1.5834519
18.377695 -1.338691 -1.5777755
18.322458 -1.4477422 -1.573671
18.248713 -1.5546445 -1.5679946
18.15649 -1.6590651 -1.5607462
14.254435 -1.390843 -1.2179775
18.083239 -1.876403 -1.556205
18.067425 -1.9868888 -1.5558558
10.584964 -1.2299837 -0.89660454
10.571285 -1.2941825 -0.89608055
10.561169 -1.3587682 -0.89590585
10.552632 -1.4235448 -0.89590585
10.549618 -1.4891028 -0.89642984
10.560979 -1.5568563 -0.89826375
13.83298 -2.1258767 -1.1893333
13.835414 -2.2132316 -1.1907307
13.86776 -2.3057604 -1.1948352
18.158968 -3.1337433 -1.5778627
14.561133 -2.6050413 -1.259197
18.049599 -3.3434649 -1.5716624
13.461626 -2.5792356 -1.1640078
18.112749 -3.5855997 -1.581094
18.105047 -3.6996613 -1.5824039
18.068359 -3.8078063 -1.5811813
17.987219 -3.9061284 -1.5760288
17.936665 -4.0105538 -1.573671
17.870943 -4.1111565 -1.5700032
17.726141 -4.1925335 -1.5592616
17.68169 -4.296751 -1.5576023
17.632761 -4.3996167 -1.5555937
8.2106333 -2.1024868 -0.70543998
8.1917973 -2.1513088 -0.704916
17.483379 -4.7058277 -1.5496553
7.7047763 -2.1248369 -0.6630851
7.6685848 -2.1655762 -0.66098922
17.30958 -5.0025053 -1.5419704
8.0273762 -2.3736181 -0.69627041
7.9783325 -2.4124506 -0.6931265
7.9633799 -2.4613593 -0.6931265
7.9965744 -2.5254731 -0.69758034
16.941301 -5.4644585 -1.5229325
16.875282 -5.5577111 -1.5199633
7.8033175 -2.6233573 -0.68413156
16.77754 -5.7546825 -1.5173434
16.702423 -5.8437033 -1.5136756
16.657808 -5.9430647 -1.5128896
16.600431 -6.037673 -1.5109683
16.471533 -6.1054888 -1.5024101
16.379707 -6.186029 -1.4973449
16.31262 -6.2753296 -1.4946377
16.208879 -6.3498697 -1.4885246
16.129824 -6.4333377 -1.4847695
16.034664 -6.5097051 -1.4795296
16.00639 -6.6129141 -1.480665
15.950818 -6.7048268 -1.4792677
15.905714 -6.8010063 -1.4789183
15.855462 -6.8948989 -1.4781324
15.795547 -6.9844027 -1.4764731
15.731496 -7.0717969 -1.4744645
15.665156 -7.1578407 -1.4722813
15.599257 -7.2437568 -1.4701854
15.531993 -7.3287086 -1.4680022
15.466071 -7.4139695 -1.4659935
15.414915 -7.5061111 -1.4654696
15.363211 -7.5979047 -1.4649456
15.295826 -7.681746 -1.462937
15.22888 -7.7654996 -1.4610158
15.150866 -7.843226 -1.4580466
15.079527 -7.9239945 -1.455776
13.073108 -6.9724178 -1.2612929
14.967134 -8.1008606 -1.4543787
14.915401 -8.1915855 -1.4542041
14.864857 -8.2829504 -1.4542041
14.813754 -8.3740034 -1.4542041
12.459867 -7.1446929 -1.221558
12.617301 -7.3381996 -1.2419931
12.584908 -7.4230709 -1.2433031
13.067472 -7.8161569 -1.2972728
14.398295 -8.732522 -1.4386594
14.330017 -8.8118334 -1.4371748
14.245245 -8.8806229 -1.4340309
12.267914 -7.752933 -1.2346574
14.097445 -9.0305862 -1.4301012
14.034249 -9.1120348 -1.4293151
13.988894 -9.2050943 -1.4304504
13.941266 -9.296834 -1.431411
13.89634 -9.3905678 -1.432721
13.839281 -9.4762201 -1.4328083
13.793971 -9.5700426 -1.4342055
13.743956 -9.6608019 -1.4351662
13.701461 -9.7570858 -1.4370002
13.903904 -10.030384 -1.4653822
13.775339 -10.066725 -1.4581339
13.610022 -10.074604 -1.4468684
13.512082 -10.131033 -1.4429386
13.413963 -10.186641 -1.4390087
13.333045 -10.254787 -1.4370002
13.236077 -10.310082 -1.4332449
13.108432 -10.340513 -1.4260839
12.990253 -10.377228 -1.4199709
12.841139 -10.387824 -1.4103646
12.75404 -10.447482 -1.4077448
12.680493 -10.517912 -1.4066968
12.611141 -10.591676 -1.4061728
12.549709 -10.672084 -1.4066094
12.47644 -10.742387 -1.4057361
12.404284 -10.813501 -1.4050375
12.341435 -10.892705 -1.4054742
12.267681 -10.962252 -1.4046882
12.172114 -11.011923 -1.4013697
12.070524 -11.055453 -1.3973525
11.972512 -11.101538 -1.393772
11.863495 -11.136611 -1.3888816
11.786273 -11.20096 -1.3878336
11.710862 -11.266852 -1.3870476
11.628664 -11.325986 -1.3854756
11.524191 -11.362854 -1.3811965
11.392207 -11.371422 -1.3735116
11.323621 -11.442525 -1.3736862
11.26225 -11.52105 -1.3748214
11.203802 -11.602837 -1.3763934
11.150963 -11.690825 -1.3787513
11.07492 -11.754677 -1.3782274
6.9386196 -7.4558477 -0.85529763
10.91568 -11.874297 -1.3763934
10.840606 -11.938838 -1.3761314
10.703293 -11.933938 -1.3677478
6.7357183 -7.6037517 -0.85293972
6.687624 -7.6434388 -0.85276502
6.5669923 -7.5991607 -0.84289682
10.272672 -12.035417 -1.3495831
10.183221 -12.079943 -1.3474873
10.102533 -12.134542 -1.346614
10.029153 -12.197841 -1.3467886
9.9547472 -12.259922 -1.346876
9.8861895 -12.329322 -1.3478366
9.8091154 -12.388188 -1.347662
2.0541084 -2.6276655 -0.25481921
1.9922873 -2.5810816 -0.24826948
1.9764125 -2.5932574 -0.24826948
1.9532746 -2.5957847 -0.24722153
1.9390929 -2.6101196 -0.24748352
1.920684 -2.6187556 -0.24713419
1.894646 -2.6167755 -0.24564959
0 -0 -0
9.0977573 -12.892814 -1.3457407
1.8877226 -2.7108791 -0.25202465
1.8879837 -2.7470381 -0.25464454
1.8705333 -2.7577465 -0.25455722
1.8452635 -2.7567554 -0.25324726
8.6732798 -13.128416 -1.3418108
8.5844021 -13.16887 -1.340501
8.4818821 -13.187781 -1.3370078
8.367712 -13.187427 -1.3315933
8.2882233 -13.241055 -1.3318553
8.211009 -13.298443 -1.3325539
8.1157837 -13.326453 -1.3302834
8.0241156 -13.359775 -1.3286241
7.9445291 -13.413043 -1.3290608
7.8686104 -13.47272 -1.330196
7.7922578 -13.53197 -1.3313313
7.7253108 -13.608115 -1.3342131
7.6397214 -13.651784 -1.3338639
7.5548496 -13.696658 -1.3336892
7.478755 -13.757635 -1.3351738
7.4026666 -13.819071 -1.3367457
7.3126197 -13.854542 -1.3357852
7.1985168 -13.84347 -1.3302834
7.1079893 -13.876739 -1.3292354
7.0186706 -13.912087 -1.3284495
6.9314027 -13.951323 -1.3281001
6.8325348 -13.966745 -1.3254802
6.7263908 -13.966224 -1.3213757
6.6290464 -13.982929 -1.3190179
6.5313292 -13.998064 -1.3165725
6.4365864 -14.018865 -1.3147386
6.3397837 -14.034492 -1.3124682
6.2486959 -14.062203 -1.3114202
6.1798482 -14.140443 -1.3152627
6.1110616 -14.220197 -1.3192798
6.0267949 -14.264767 -1.3199785
5.9383903 -14.299638 -1.3198038
5.8490319 -14.332117 -1.3194544
5.8025074 -14.471292 -1.3292354
5.708858 -14.494575 -1.3281001
5.6244855 -14.541409 -1.3292354
5.5429363 -14.596134 -1.3311566
5.4466605 -14.612135 -1.3294973
5.3555303 -14.641538 -1.3291481
5.2655907 -14.674123 -1.3291481
5.1777682 -14.712733 -1.3297594
5.0906444 -14.753644 -1.3306327
4.996192 -14.773277 -1.3295847
4.8966765 -14.777179 -1.3271395
4.8000693 -14.788943 -1.3254802
4.7071238 -14.811472 -1.3248689
4.6182251 -14.846734 -1.3254802
4.5226893 -14.860496 -1.3241702
4.3890734 -14.745706 -1.3111582
4.2818117 -14.714969 -1.3059183
4.1985264 -14.765878 -1.3081889
4.1640968 -14.993888 -1.3266155
4.0688891 -15.007619 -1.3255676
3.9354508 -14.876289 -1.3114202
3.8560438 -14.946457 -1.315612
3.7290325 -14.829752 -1.3029492
3.6431832 -14.87364 -1.3048705
3.5677967 -14.962576 -1.3108962
3.4804235 -15.003593 -1.3126428
3.3992565 -15.073256 -1.3170092
3.3090501 -15.104533 -1.3179699
3.219002 -15.137219 -1.3191051
3.1312938 -15.182053 -1.3213757
3.0433517 -15.227355 -1.3237337
2.9483469 -15.237918 -1.323035
2.8590083 -15.278243 -1.3250436
2.7664497 -15.30236 -1.3256549
2.676271 -15.340636 -1.3275762
2.5850661 -15.374452 -1.3291481
0.43654341 -2.6994984 -0.20215945
0.41997138 -2.7021263 -0.20215945
0.4019126 -2.6947997 -0.20128615
0.38804993 -2.7159517 -0.20294541
0.38622701 -2.8268507 -0.21255167
0.25334975 -1.9440981 -0.13430434
0.24104761 -1.9426503 -0.13404235
0.2299408 -1.9510179 -0.13465366
0.21575066 -1.9325919 -0.13290706
0.20043488 -1.9011874 -0.13002519
0.18984994 -1.9132856 -0.13098581
0.1801414 -1.9362358 -0.13290706
0.1680847 -1.9353198 -0.13273241
0.15628694 -1.9373077 -0.13281974
0.14461955 -1.9412104 -0.13308172
0.13454498 -1.9688951 -0.13543962
0.14472644 -2.3266182 -0.16679096
0.11014982 -1.9664195 -0.13509031
0.097832948 -1.9620837 -0.13465366
0.087409183 -1.9994701 -0.13788486
0.07461261 -1.9860322 -0.13666224
0.06223619 -1.9804786 -0.13613826
0.090439945 -3.5642343 -0.27499235
0.037696734 -1.9691414 -0.13509031
0.025218828 -1.9394528 -0.13247041
0.013050311 -1.9017172 -0.1291519
0.0022411162 -2.8182461 -0.20949514
-0.013917393 -2.6000464 -0.19036995
-0.029769104 -2.5909472 -0.18958399
-0.058683012 -3.3357441 -0.25490654
-0.07818561 -3.2944894 -0.25132602
-0.099761426 -3.3397515 -0.25534317
-0.12110946 -3.3629694 -0.25743908
-0.1337086 -3.1710653 -0.24067181
-0.14884816 -3.0806332 -0.23281214
-0.16191024 -2.9722328 -0.22338055
-0.17882109 -2.9493074 -0.2214593
-0.20095581 -3.0087872 -0.2267864
-1.1700397 -16.061733 -1.3742101
-1.2658249 -16.019493 -1.3711536
-1.3618124 -15.984625 -1.3687958
-1.4586884 -15.963071 -1.3676604
-1.5552545 -15.939939 -1.3664378
-0.30765855 -2.961699 -0.22346787
-0.32549879 -2.9567847 -0.22320588
-1.7639079 -15.181311 -1.3022505
-1.853879 -15.144493 -1.2999799
-0.48000768 -3.7288685 -0.2920216
-0.50088143 -3.7110443 -0.29071167
-0.43372223 -3.0706825 -0.23429674
-0.45095772 -3.0571225 -0.23333612
-0.4697074 -3.0542979 -0.23333612
-0.48702341 -3.0425053 -0.23255016
-0.51156372 -3.0748367 -0.23569402
-0.48265353 -2.7948081 -0.21106707
-0.47769165 -2.6682365 -0.20006354
-0.49441749 -2.6672144 -0.2002382
-0.52689278 -2.7482717 -0.20774855
-3.1590903 -15.957979 -1.3885322
-3.2549529 -15.928535 -1.387659
-3.3538597 -15.914112 -1.3881829
-0.56352949 -2.5933568 -0.19508575
-0.57421499 -2.5665181 -0.19298984
-0.59330171 -2.5775087 -0.19429979
-0.60635465 -2.5621865 -0.19325183
-0.61430258 -2.5264733 -0.19036995
-3.9112976 -15.675494 -1.3787513
-3.9997478 -15.621284 -1.376044
-0.64172852 -2.4424741 -0.18382023
-0.6569621 -2.4394524 -0.18390755
-4.2656884 -15.469148 -1.369145
-0.92613006 -3.2786975 -0.26110694
-0.93793356 -3.2442427 -0.25848705
-4.5460305 -15.37559 -1.3680097
-0.81479591 -2.6937296 -0.20914581
-0.83719152 -2.7077148 -0.21089241
-4.7823806 -15.143966 -1.3546484
-5.0446167 -15.639577 -1.403029
-5.1557527 -15.654694 -1.4073081
-5.2631369 -15.656756 -1.4104519
-5.368155 -15.650553 -1.4128971
-5.4686894 -15.630484 -1.4141197
-5.5514393 -15.560042 -1.4107139
-1.1995449 -3.2971747 -0.27001455
-5.7977071 -15.641133 -1.4247739
-1.1839582 -3.1340277 -0.25612915
-1.1731235 -3.0486038 -0.24879345
-1.1998008 -3.0617545 -0.25071472
-1.3292741 -3.3319266 -0.27691358
-1.3658055 -3.3633976 -0.28066877
-1.2681259 -3.068614 -0.25350925
-1.2614547 -3.0001636 -0.2477455
-1.2731819 -2.9767954 -0.2462609
-6.683567 -15.369454 -1.431673
-6.8067508 -15.393754 -1.4379607
-1.3910646 -3.0936899 -0.25979698
-1.4170588 -3.1004999 -0.26128158
-7.000423 -15.075212 -1.4195342
-7.08599 -15.017559 -1.418137
-1.9277376 -4.0207095 -0.35332701
-7.2645116 -14.918725 -1.417089
-1.4081676 -2.8466206 -0.24084647
-1.3478194 -2.6830263 -0.22565112
-1.3597317 -2.6658311 -0.22477782
-1.3756053 -2.656553 -0.22469048
-1.3904897 -2.645417 -0.2244285
-2.0535998 -3.8498442 -0.34494337
-8.1881056 -15.128337 -1.4704474
-1.4447018 -2.6298525 -0.22547646
-1.4666295 -2.631381 -0.22652441
-1.4989245 -2.6509507 -0.22940628
-1.5136756 -2.639111 -0.2291443
-8.6227694 -14.826131 -1.4659935
-8.720664 -14.784956 -1.4672161
-5.0416436 -8.4286127 -0.82342231
-8.8895597 -14.657236 -1.4652076
-9.0142879 -14.65927 -1.4710587
-1.3668474 -2.1918907 -0.18888535
-1.3818674 -2.1859891 -0.18914734
-5.2360253 -8.1735277 -0.81337941
-5.2519035 -8.0886078 -0.8078776
-1.4087284 -2.1402106 -0.18705143
-1.3776203 -2.0652215 -0.18006505
-9.6688824 -14.308217 -1.4762985
-9.7559309 -14.247799 -1.4762112
-9.9283457 -14.310444 -1.4893106
-1.6518705 -2.3494556 -0.21421093
-1.6916801 -2.3749804 -0.21805343
-1.6992272 -2.3548608 -0.21700548
-1.5543646 -2.1264203 -0.19333915
-1.6983634 -2.2937965 -0.212639
-1.7070277 -2.276159 -0.21185304
-1.6661385 -2.1934462 -0.20390604
-1.607296 -2.0892131 -0.19351381
-1.6353885 -2.0989594 -0.19569705
-1.6562572 -2.0990531 -0.19683234
-10.915657 -13.664294 -1.4955983
-10.996788 -13.593962 -1.495249
-11.07368 -13.518524 -1.4943757
-1.6462191 -1.9841652 -0.1884487
-1.6340178 -1.9450388 -0.18513018
-1.6439856 -1.9326993 -0.18486819
-1.6577634 -1.9248403 -0.18513018
-1.6701974 -1.9153832 -0.1852175
-1.6832368 -1.9065928 -0.18539216
-1.69955 -1.9014286 -0.18600348
-1.7171997 -1.8976133 -0.18678944
-1.743613 -1.903203 -0.18871069
-1.8446637 -1.9888934 -0.2002382
-2.2952204 -2.4445617 -0.25639114
-3.1919811 -3.3583622 -0.3686097
-3.4065993 -3.5404432 -0.39314932
-2.3544238 -2.4168868 -0.25822505
-2.3769026 -2.4101977 -0.25918567
-3.4177055 -3.4235539 -0.38651225
-3.2375596 -3.2035103 -0.36171064
-3.4395149 -3.3618572 -0.38406703
-3.3927174 -3.2756422 -0.37585804
-3.4322152 -3.2733278 -0.37821594
-12.964045 -12.214409 -1.5238931
-3.5282753 -3.2832215 -0.38494033
-2.594974 -2.3850534 -0.27141184
-3.511513 -3.1881111 -0.37821594
-3.4761312 -3.1172841 -0.37175354
-3.4183905 -3.0278559 -0.36275861
-3.4863846 -3.0501199 -0.36852235
-3.4349396 -2.9680917 -0.36040071
-3.3742874 -2.8796976 -0.35131842
-13.552197 -11.424374 -1.5162954
-13.603666 -11.325706 -1.5141995
-3.3643949 -2.7658522 -0.34424472
-4.0409541 -3.2808051 -0.41873688
-3.814646 -3.0583935 -0.39105341
-13.618231 -10.783129 -1.4852061
-13.659811 -10.680344 -1.4824989
-13.736915 -10.605459 -1.4838088
-3.2959657 -2.5121083 -0.32573086
-11.257792 -8.4729395 -1.1976297
-11.262394 -8.3686476 -1.1924772
-11.36815 -8.3394547 -1.1984156
-4.0569367 -2.9376519 -0.40153295
-14.217641 -10.163917 -1.4945503
-3.0809748 -2.1737013 -0.29298225
-3.1032462 -2.1610188 -0.29394287
-3.0819693 -2.1182346 -0.29027504
-3.1138687 -2.112148 -0.29228359
-3.1615365 -2.1162794 -0.29595146
-3.1495275 -2.0803666 -0.29333156
-3.2173109 -2.0969079 -0.2990953
-3.2477114 -2.0884442 -0.30092925
-5.7333732 -3.6376815 -0.55767828
-3.4554822 -2.1626041 -0.31979242
-3.4390202 -2.1230426 -0.31673589
-15.171854 -9.2396946 -1.5197012
-3.5775385 -2.1483886 -0.3282634
-3.587225 -2.124366 -0.32791409
-3.6010525 -2.1028178 -0.32800141
-15.571872 -8.9669857 -1.5376912
-15.598877 -8.8555317 -1.5348966
-15.667698 -8.7679224 -1.5363812
-3.8155608 -2.1042683 -0.34441939
-3.8949163 -2.1169775 -0.35105643
-3.9289072 -2.1043289 -0.35315233
-3.9452691 -2.0820422 -0.35350168
-16.099855 -8.3718977 -1.5532359
-3.8836331 -1.9889615 -0.34494337
-3.879755 -1.9570174 -0.34337142
-7.6653905 -3.8081751 -0.71277571
-7.6832438 -3.7584429 -0.71225172
-7.6792355 -3.6982601 -0.7096318
-16.613125 -7.8760571 -1.5741949
-9.9989386 -4.6652579 -0.9297024
-5.7362304 -2.6334565 -0.51576006
-5.7586355 -2.6010809 -0.51637137
-5.7763081 -2.5665069 -0.51654607
-5.7974238 -2.5334094 -0.51707
-10.120865 -4.349267 -0.92813051
-10.193242 -4.3064709 -0.93249696
-10.287554 -4.2721195 -0.93895936
-10.354156 -4.2254786 -0.94280189
-10.200513 -4.0899386 -0.92585993
-9.6350012 -3.7947128 -0.87023097
-10.471059 -4.0499897 -0.94664437
-10.474292 -3.9775298 -0.94463581
-10.363153 -3.8627312 -0.93197298
-10.387595 -3.7994134 -0.9320603
-10.542918 -3.7830489 -0.94437379
-10.407126 -3.6623955 -0.92961508
-10.397385 -3.5874212 -0.92664587
-7.8061891 -2.6397839 -0.68483019
-7.7985992 -2.584002 -0.68264699
-10.462604 -3.3957391 -0.9267332
-10.496533 -3.3357024 -0.92795587
-10.527267 -3.2744889 -0.92891645
-10.538584 -3.2072227 -0.92813051
-10.463542 -3.1143613 -0.91948485
-10.901402 -3.1720183 -0.95773524
-10.880415 -3.0936246 -0.95406741
-10.865598 -3.0174747 -0.95101088
-9.7080402 -2.631912 -0.84420675
-11.0193 -2.914995 -0.96166509
-11.025404 -2.8443403 -0.96061713
-11.093852 -2.7895129 -0.9652456
-11.155268 -2.7322929 -0.96926272
-11.224149 -2.6762726 -0.97397852
-10.982231 -2.5474665 -0.95074886
-11.428149 -2.5771277 -0.98943591
-11.470993 -2.5129273 -0.99188113
-11.309833 -2.4049859 -0.97607446
-11.356572 -2.342186 -0.97895634
-11.49186 -2.2966719 -0.98978519
-11.497911 -2.2246017 -0.98908657
-11.55345 -2.16189 -0.99284172
-11.589044 -2.0950356 -0.99485034
-11.992259 -2.0920362 -1.0296075
-11.77401 -1.9795907 -1.0090851
-12.072098 -1.953629 -1.034498
-13.214863 -2.0554736 -1.1348397
-13.338561 -1.9909717 -1.1447079
-14.202555 -2.0309541 -1.2201607
-15.155351 -2.0724185 -1.3033859
-15.901717 -2.0751858 -1.3682717
-15.761911 -1.9586536 -1.354823
-19.704153 -2.3259592 -1.7017835
-20.174448 -2.2560596 -1.7420424
-0 -0 -0
-22.199055 -2.2070405 -1.9180989
-22.322279 -2.0810544 -1.9277925
-22.320734 -1.9428388 -1.9265699
-22.365002 -1.8084949 -1.9294518
-22.384617 -1.6718998 -1.9302378
-22.385509 -1.5339059 -1.9294518
-22.366661 -1.3947855 -1.9270066
-22.349934 -1.256122 -1.9248233
-22.346275 -1.1184138 -1.9238627
-22.322861 -0.97996736 -1.9212428
-22.290627 -0.84154963 -1.9179243
-22.265499 -0.70381629 -1.9153044
-19.375231 1.4284617 -1.9082445
-19.3542 1.5463673 -1.9070485
-19.336416 1.6644102 -1.9062511
-19.31296 1.7818357 -1.9049555
-19.296711 1.8998165 -1.9044571
-19.272816 2.0169396 -1.9032611
-19.249199 2.1339507 -1.9021648
-19.219931 2.2501693 -1.9005702
-19.187986 2.3658655 -1.8987761
-19.164227 2.4824052 -1.8978791
-19.143705 2.5992785 -1.8973807
-19.122471 2.7159932 -1.8968824
-19.108398 2.8337133 -1.8971814
-19.092617 2.951211 -1.8973807
-19.073168 3.0681474 -1.8972811
-19.043188 3.1833153 -1.8961848
-19.013493 3.2984006 -1.8951881
-18.970371 3.4109519 -1.8928957
-18.924631 3.5227339 -1.8904041
-18.886049 3.6355884 -1.8887097
-18.852652 3.7492671 -1.8876134
-18.81662 3.8622727 -1.8863177
-18.775045 3.9739468 -1.8845237
-18.740587 4.0869527 -1.883527
-18.718069 4.2025199 -1.883826
-18.686113 4.315949 -1.8832281
-18.655407 4.4296036 -1.8828293
-18.61821 4.5416293 -1.8818327
-18.589027 4.6555409 -1.8817331
-18.547585 4.7662935 -1.8804374
-18.509331 4.877727 -1.8795403
-18.455999 4.9849777 -1.8771484
-18.423145 5.0975971 -1.876949
-18.389606 5.210001 -1.8767496
-18.361115 5.3238478 -1.8771484
-18.340504 5.4400883 -1.878444
-18.323917 5.5577207 -1.8802381
-18.311329 5.6768274 -1.8825303
-18.29797 5.795989 -1.8848227
-18.294249 5.9185696 -1.8882114
-18.287823 6.0406981 -1.8914007
-18.265499 6.1578832 -1.8929954
-18.284765 6.2895885 -1.8990752
-18.297468 6.4197845 -1.9045568
-18.280216 6.5399804 -1.9069488
-18.286482 6.6690717 -1.9119321
-18.275063 6.7922444 -1.9151216
-18.248861 6.9102411 -1.9168159
-18.220043 7.0274558 -1.9183109
-18.193251 7.1456685 -1.9201049
-18.207266 7.2804432 -1.9263839
-18.199116 7.4070301 -1.9303706
-18.200207 7.5379786 -1.9354535
-18.195791 7.6672873 -1.9400383
-18.171267 7.7885914 -1.9425299
-18.172388 7.9214149 -1.947912
-18.167103 8.052125 -1.952696
-18.167248 8.1859293 -1.9581777
-18.1402 8.3080215 -1.9607691
-18.109629 8.4288292 -1.9630613
-18.076458 8.5487242 -1.9651544
-18.034426 8.664649 -1.9663504
-17.997911 8.7834358 -1.9682441
-18.038176 8.9405479 -1.9788088
-17.942095 9.0304804 -1.9742241
-17.9147 9.154892 -1.9774134
-17.959759 9.3173418 -1.9888752
-17.941868 9.4482317 -1.9933602
-17.907249 9.5708075 -1.9960512
-17.871801 9.6933146 -1.9987422
-17.846855 9.8219833 -2.0027289
-17.807972 9.9434328 -2.0052207
-17.761343 10.060851 -2.0069149
-17.71653 10.179559 -2.0089083
-17.679525 10.303105 -2.0118983
-17.635675 10.423036 -2.0141907
-17.597845 10.546908 -2.0172803
-17.573614 10.679494 -2.0220642
-17.535709 10.804349 -2.0253532
-17.507904 10.935993 -2.029938
-17.49007 11.074622 -2.0358183
-17.466167 11.210218 -2.0411007
-17.445429 11.34865 -2.0468814
-17.406202 11.475746 -2.0505691
-17.380135 11.612185 -2.0559511
-17.343161 11.74204 -2.060137
-17.300323 11.8685 -2.0637252
-17.254135 11.993172 -2.0670142
-17.216017 12.124026 -2.0713995
-17.176128 12.254285 -2.0756853
-17.124001 12.376348 -2.0785756
-17.075838 12.50176 -2.0820639
-16.99481 12.603337 -2.0815656
-16.9275 12.715147 -2.0828612
-16.829367 12.80371 -2.0803695
-16.726055 12.887904 -2.0772798
-16.608225 12.960294 -2.072396
-16.508873 13.046532 -2.0699046
-16.404428 13.128307 -2.0668149
-16.303469 13.212426 -2.0642235
-16.233629 13.321683 -2.0657184
-16.128626 13.401961 -2.0627284
-16.002691 13.464155 -2.0570474
-15.893268 13.539507 -2.0535591
-15.802357 13.630272 -2.0525625
-15.683952 13.696868 -2.0479777
-15.585452 13.780321 -2.0460839
-15.468727 13.847154 -2.0417984
-15.384946 13.943144 -2.0419977
-15.286639 14.025845 -2.0403035
-15.187169 14.107187 -2.0385094
-15.080752 14.181704 -2.0358183
-14.982642 14.263679 -2.0343232
-14.873347 14.334625 -2.0313332
-14.759475 14.400599 -2.0277452
-14.638274 14.458725 -2.0231607
-14.547874 14.546865 -2.0229614
-14.449951 14.627359 -2.0217652
-14.351589 14.707201 -2.0205693
-14.256934 14.790686 -2.0199714
-14.141899 14.852663 -2.0164828
-14.040274 14.928284 -2.0149879
-13.921323 14.984991 -2.0110013
-13.812297 15.0518 -2.0085096
-13.700303 15.114886 -2.0056193
-13.593366 15.183096 -2.0035262
-13.484129 15.248328 -2.0011342
-13.366751 15.303798 -1.9975462
-13.266747 15.378745 -1.9966491
-13.160521 15.446225 -1.9948552
-13.043716 15.500799 -1.9914665
-12.938821 15.569063 -1.9899715
-12.832316 15.635085 -1.9882772
-12.726743 15.701933 -1.9867821
-12.615236 15.761083 -1.9843901
-12.512738 15.831165 -1.9834931
-12.403121 15.891955 -1.9814998
-12.290801 15.948844 -1.9791077
-12.186082 16.015247 -1.9780114
-12.10133 16.108017 -1.9803038
-11.96848 16.13641 -1.9746227
-11.858664 16.195093 -1.9728287
-11.739251 16.240133 -1.9694401
-11.639382 16.311857 -1.9694401
-11.531055 16.371578 -1.9680448
-11.426409 16.436304 -1.967347
-11.311832 16.486414 -1.9649551
-11.202093 16.543154 -1.9634601
-11.092636 16.599995 -1.9620647
-10.984548 16.658607 -1.9609684
-10.86639 16.701506 -1.958078
-10.751883 16.749443 -1.9558853
-10.635067 16.793243 -1.953294
-10.519175 16.837929 -1.950902
-10.407831 16.88945 -1.949407
-10.295218 16.938538 -1.9477127
-10.176258 16.976639 -1.9448223
-10.067849 17.031906 -1.9440249
-9.9366007 17.047798 -1.9387426
-9.7792625 17.016996 -1.9281778
-9.5393076 16.837729 -1.9006698
-9.4382391 16.900288 -1.9011681
-9.493165 17.24642 -1.934158
-9.3928566 17.31484 -1.9353539
-9.2991018 17.395842 -1.9380449
-9.1907969 17.449932 -1.9377459
-9.075305 17.490099 -1.9359519
-8.9537802 17.517988 -1.9328623
-8.8358345 17.552155 -1.9305699
-8.7208996 17.591776 -1.9289752
-8.6066847 17.632437 -1.9275799
-8.4866972 17.660698 -1.9248888
-8.3709421 17.697147 -1.9231945
-8.2579975 17.739157 -1.9221978
-8.1448536 17.780447 -1.9212012
-8.0298786 17.817387 -1.9198059
-7.9163699 17.857225 -1.9188092
-7.8018794 17.894518 -1.9176131
-7.6876221 17.931992 -1.9165168
-7.5739708 17.970573 -1.9156199
-7.4563289 17.999241 -1.9137262
-7.3374944 18.024378 -1.9115335
-7.217525 18.045963 -1.9090418
-7.1055698 18.087132 -1.9087428
-6.9912324 18.122034 -1.9078459
-6.8770871 18.157146 -1.9070485
-6.7638144 18.194338 -1.9065502
-6.6493211 18.22802 -1.9057528
-6.5346694 18.260981 -1.9049555
-6.4198637 18.293222 -1.9041581
-6.3058791 18.327564 -1.9036598
-6.1913977 18.360254 -1.9030617
-6.077064 18.393175 -1.9025635
-5.961947 18.423489 -1.9018657
-5.8484898 18.458776 -1.9017661
-5.7336459 18.489563 -1.9012678
-5.6183548 18.518682 -1.9006698
-5.5049038 18.553761 -1.9007695
-5.3917875 18.590055 -1.9010684
-5.2773485 18.621832 -1.9009688
-5.1632533 18.654821 -1.9010684
-5.0499897 18.690954 -1.9015667
-4.936223 18.725437 -1.9019655
-4.8224716 18.760191 -1.9024638
-4.7087207 18.795219 -1.9030617
-4.5942502 18.827625 -1.9034605
-4.4793291 18.858364 -1.9037595
-4.3621883 18.879677 -1.9031614
-3.2964842 14.6761 -1.468912
-3.1694784 14.526894 -1.4515699
-3.0139325 14.232616 -1.4194771
-2.9307477 14.27131 -1.4215701
-2.8458428 14.302687 -1.4229654
-2.7589703 14.324765 -1.4234638
-2.6899621 14.443158 -1.4338292
-2.555856 14.206729 -1.408115
-2.468637 14.222144 -1.408115
-2.3790281 14.223284 -1.4067197
-2.2898142 14.225824 -1.4055237
-2.1217632 13.717453 -1.3526005
-2.0327373 13.697734 -1.3493115
-1.9454328 13.68729 -1.3470191
-1.8577975 13.672348 -1.3443282
-1.7761717 13.701252 -1.3461221
-1.6956005 13.740531 -1.3490125
-1.6142669 13.776372 -1.3516039
-1.5295967 13.785028 -1.3515041
-1.4451917 13.796134 -1.3517035
-1.3634382 13.834449 -1.3546935
-1.3154635 14.242842 -1.394959
-1.2361544 14.344824 -1.4044274
-1.3137749 16.425123 -1.6127316
-1.1633538 15.760077 -1.5451573
-1.0195352 15.070004 -1.475191
-0.93064678 15.134572 -1.4810714
-0.84879988 15.339692 -1.5011045
-0.7126919 14.489923 -1.4153907
-0.62372732 14.49303 -1.4152911
-0.56180048 15.230412 -1.4888453
-0.4650133 15.125166 -1.4779817
-0.37219825 15.127735 -1.4779817
-0.27816185 15.064074 -1.4714036
-0.20074172 16.291271 -1.5941935
-0.093512736 15.104163 -1.475191
-0.00083290442 15.135298 -1.4782807
0.091631167 15.069348 -1.4717027
0.18378742 15.043629 -1.469211
0.27676839 15.079027 -1.4728986
0.36574244 14.932811 -1.458447
0.45394066 14.818895 -1.4472842
0.54566532 14.837707 -1.4494768
0.63575715 14.812209 -1.4472842
0.73683977 15.015738 -1.4681146
0.77775472 14.08499 -1.3752249
0.86251593 14.053137 -1.3725339
0.94617718 14.009855 -1.3687465
1.0341724 14.031571 -1.3715372
1.1215973 14.041823 -1.3732315
1.2062835 14.017824 -1.3715372
1.2919981 14.007186 -1.3712382
1.3805541 14.025731 -1.3739293
1.4663812 14.015017 -1.3737299
1.5392944 13.888069 -1.3618696
1.6261016 13.892199 -1.3632648
1.7087537 13.861221 -1.3611718
1.7935166 13.848502 -1.3609725
1.8864917 13.896395 -1.3669525
1.9678034 13.856975 -1.3641618
2.0542512 13.854482 -1.3651586
2.1419592 13.859316 -1.3669525
2.2301197 13.865561 -1.3689458
2.3171246 13.863392 -1.3701419
2.4052076 13.86656 -1.3719358
2.4907744 13.854479 -1.3722349
2.5735512 13.827197 -1.3710389
2.6628604 13.834595 -1.3734308
2.7577929 13.868742 -1.3786136
2.842838 13.85156 -1.3786136
2.9300432 13.844563 -1.37971
3.0236316 13.866183 -1.3837963
3.108438 13.846398 -1.3836966
3.2746458 14.178988 -1.4198757
3.3146791 13.961137 -1.3995436
3.4200933 14.021735 -1.4079157
3.5179124 14.047781 -1.4127994
3.5931427 13.983528 -1.408414
3.6951079 14.022796 -1.4147928
3.8008039 14.072864 -1.4223675
3.9006174 14.098185 -1.4274504
3.9761975 14.035692 -1.4234638
4.0647383 14.019631 -1.4243608
4.1818161 14.099359 -1.4353242
4.3011794 14.181981 -1.4466861
4.338903 13.99661 -1.4300418
4.4355216 14.003871 -1.4336299
4.5305543 14.004792 -1.4366199
4.6270137 14.008852 -1.4400085
4.7071605 13.963226 -1.4382145
4.821559 14.01782 -1.4470849
4.9321909 14.058389 -1.4545599
5.0391431 14.085945 -1.4607393
5.2345901 14.353889 -1.4926327
5.3121643 14.293519 -1.4896427
5.4071684 14.280196 -1.4917357
5.4635315 14.165984 -1.4830647
5.6001916 14.259072 -1.4967191
5.6897955 14.229985 -1.4973171
5.7623711 14.158864 -1.49343
5.8342886 14.087388 -1.4895431
6.1455202 14.58497 -1.5475492
6.263124 14.612834 -1.5547253
6.312108 14.481094 -1.5445592
6.3790684 14.39297 -1.5391773
6.4439592 14.30185 -1.5334963
6.5390511 14.278325 -1.5352902
6.6424952 14.272212 -1.5390776
6.7546186 14.283356 -1.5448583
6.877471 14.315183 -1.553031
6.9887462 14.321 -1.558413
7.0870929 14.299244 -1.560805
7.7567549 15.411776 -1.6904719
7.3163733 14.317518 -1.5727651
7.4063778 14.276772 -1.5732634
7.5652452 14.366638 -1.5886121
7.8938866 14.770116 -1.6397413
7.7428737 14.276217 -1.5890108
7.8370423 14.240644 -1.5904062
8.3021994 14.869034 -1.6680468
8.2863569 14.629081 -1.6463194
8.612443 14.989478 -1.6938605
8.4336882 14.472135 -1.6400404
8.6387806 14.617125 -1.6629637
8.7421198 14.586886 -1.6656548
8.9105272 14.663065 -1.6809038
8.8870573 14.424294 -1.6592761
9.2147369 14.752616 -1.704525
9.3013573 14.689914 -1.7038273
9.4047556 14.653499 -1.706319
9.4896069 14.58801 -1.7054219
9.5049944 14.417365 -1.6919669
9.5612154 14.310787 -1.6861862
10.092365 14.906859 -1.7654215
10.194338 14.860243 -1.7673153
10.300661 14.81947 -1.7700062
10.415462 14.790155 -1.7741922
10.503705 14.722729 -1.7737936
10.571694 14.627358 -1.7700062
10.657721 14.5574 -1.7694082
10.832198 14.606815 -1.7837603
10.962259 14.594172 -1.7905376
11.068472 14.548806 -1.7933283
11.201263 14.537364 -1.8005043
11.306169 14.488755 -1.8030957
11.41275 14.441748 -1.805986
11.447677 14.304641 -1.7974147
11.533979 14.232584 -1.7972153
11.64066 14.185389 -1.800305
11.773907 14.169559 -1.8075807
11.959287 14.214296 -1.8229295
12.084996 14.186091 -1.8289095
12.220558 14.16818 -1.8363845
12.366827 14.161126 -1.8454542
12.524672 14.165481 -1.8562182
12.703607 14.191409 -1.870072
12.862614 14.192817 -1.880836
13.050368 14.223597 -1.895786
13.194962 14.205217 -1.9042578
13.328911 14.174 -1.9111348
13.451995 14.130141 -1.9164171
13.614401 14.12614 -1.9273806
13.887753 14.233907 -1.954191
14.048952 14.223459 -1.9647557
14.228836 14.22986 -1.9779117
14.394459 14.219902 -1.9889748
14.593965 14.241103 -2.0047221
14.763461 14.230696 -2.0161839
14.888696 14.176204 -2.0214663
15.011642 14.118664 -2.0264497
15.084867 14.014099 -2.0246556
15.118518 13.873514 -2.0175793
15.196724 13.774473 -2.0166821
15.254267 13.657077 -2.0130942
15.299762 13.529607 -2.0080111
15.339771 13.398168 -2.0023303
15.390047 13.276496 -1.9981441
15.428047 13.145035 -1.9924631
15.469584 13.017451 -1.9873801
15.523911 12.901301 -1.9840912
15.572013 12.780557 -1.9801044
15.621537 12.661588 -1.9764167
15.667859 12.540628 -1.9724301
15.714066 12.420195 -1.9685431
15.74056 12.284976 -1.9622641
15.782539 12.162655 -1.958078
15.837073 12.050524 -1.9555863
15.884462 11.933401 -1.9522973
15.938204 11.821486 -1.9499053
15.990368 11.708774 -1.9474137
16.038525 11.593535 -1.9445233
16.081009 11.47468 -1.9410349
16.135656 11.364907 -1.9391413
16.169954 11.241266 -1.9348556
16.210728 11.122699 -1.9314669
16.253128 11.005729 -1.9283773
16.30546 10.895844 -1.9265832
16.354565 10.784089 -1.9244902
16.405413 10.67377 -1.9226962
16.451338 10.560546 -1.9204038
16.493128 10.445031 -1.9177128
16.526527 10.324656 -1.9141248
16.544668 10.195394 -1.9088424
16.573753 10.073532 -1.9049555
16.590017 9.9445372 -1.8996731
16.628452 9.8293924 -1.8970817
16.671257 9.7171574 -1.8950884
16.690018 9.591382 -1.8904041
16.723448 9.4745712 -1.8875138
16.762156 9.3611069 -1.885321
16.768719 9.2302542 -1.8795403
16.793552 9.1101112 -1.8759524
16.821053 8.9918871 -1.872763
16.838053 8.8685694 -1.8684773
16.858589 8.747673 -1.8646899
16.880936 8.6282187 -1.8612016
16.902452 8.5088196 -1.8577132
16.933838 8.394784 -1.8554209
16.964462 8.2806845 -1.8531286
16.993427 8.1660948 -1.8507366
17.023424 8.0523119 -1.8485439
17.048155 7.9363699 -1.8458529
17.07482 7.821671 -1.8434609
17.09709 7.7053089 -1.8406702
17.114937 7.5873556 -1.8374808
17.140192 7.4730525 -1.8351885
17.166517 7.359509 -1.8330954
17.187511 7.2439928 -1.8305042
17.208654 7.1288767 -1.8280125
17.179264 6.9935188 -1.8201388
17.225548 6.8894548 -1.8205374
17.253605 6.7781744 -1.8190424
17.30044 6.6743293 -1.8196404
17.341999 6.5684023 -1.8197401
17.381042 6.4615235 -1.8196404
17.411015 6.3513446 -1.8186438
17.449657 6.2443933 -1.8186438
17.496094 6.1401715 -1.8195407
17.544731 6.0365858 -1.8207368
17.597469 5.9342241 -1.8224311
17.640163 5.828321 -1.8231288
17.684113 5.7227297 -1.8240258
17.719843 5.6144147 -1.8241254
17.761562 5.5079393 -1.8249228
17.798832 5.4000082 -1.8253214
17.836401 5.29211 -1.8258198
17.874271 5.1842308 -1.8264178
17.902872 5.0736451 -1.8261188
17.937502 4.9647608 -1.8265175
17.97051 4.8553834 -1.8268164
18.00285 4.7457876 -1.8271154
18.034521 4.6359782 -1.8274145
18.074211 4.5281339 -1.8286104
18.107454 4.4185624 -1.8292085
18.138098 4.3082938 -1.8296071
18.169039 4.1980391 -1.8301054
18.193485 4.0862589 -1.8300058
18.245436 3.9804854 -1.8327965
18.241285 3.862483 -1.8299061
18.263668 3.7502837 -1.8298064
18.298046 3.6404786 -1.8310025
18.337627 3.5315213 -1.8327965
18.373625 3.4216688 -1.8342915
18.411901 3.3120358 -1.8360856
18.436779 3.1998506 -1.8365839
18.457047 3.0868285 -1.8366835
18.481533 2.9744685 -1.8372815
18.505337 2.8619239 -1.8378795
18.534361 2.7500751 -1.8390756
18.556795 2.6371384 -1.8396735
8.6576967 1.1768376 -0.8374213
8.7890882 1.1398002 -0.8499794
6.8553991 0.84655291 -0.65413356
6.7478018 0.79128122 -0.64277148
6.7100048 0.74514753 -0.63848585
6.6916895 0.70157933 -0.63619345
6.6829953 0.65923911 -0.63489783
6.6770062 0.61730629 -0.63390112
6.6747203 0.57581323 -0.63330317
6.6721764 0.5343715 -0.63270515
6.6713605 0.49312904 -0.63230646
6.668304 0.45178255 -0.63170844
6.6739302 0.41104108 -0.63200748
6.6723528 0.36986327 -0.63160878
6.6695275 0.32867151 -0.63111049
6.6684361 0.28761378 -0.63081145
6.6641092 0.24647199 -0.63021344
6.6545563 0.20524164 -0.62911713
6.6527061 0.164333 -0.62881809
6.6585631 0.12360113 -0.62931645
6.6671557 0.082840137 -0.63011378
6.672514 0.041960094 -0.63061213
6.6806059 0.0010173572 -0.63140947
6.6924262 -0.040047612 -0.63260549
6.7010093 -0.081220903 -0.63350248
6.7153072 -0.12261105 -0.63499749
6.7223864 -0.16400862 -0.63579482
6.7361717 -0.20571147 -0.63728982
6.7467151 -0.24747972 -0.63848585
6.7609749 -0.28955606 -0.64008051
6.7650342 -0.33132824 -0.64067852
6.7777762 -0.37365562 -0.64217353
6.8220339 -0.41810498 -0.64685786
6.8441586 -0.46163455 -0.64934951
16.455816 -1.2130487 -1.6150239
16.270521 -1.2998009 -1.5971835
16.239439 -1.3976464 -1.5948912
16.113642 -1.4864696 -1.5831305
16.112141 -1.5860934 -1.5839278
16.051634 -1.679641 -1.5788448
16.036081 -1.7775519 -1.5783464
10.584479 -1.2386495 -1.0296792
10.576679 -1.3035713 -1.0296792
10.565521 -1.3680605 -1.0293801
10.557915 -1.4329975 -1.0294797
10.5637 -1.4998523 -1.0309747
10.572015 -1.5672702 -1.0327688
13.865216 -2.1428716 -1.3675505
13.792864 -2.2184212 -1.3615705
13.817266 -2.3094113 -1.3654575
15.749847 -2.7320311 -1.5633963
15.74258 -2.8303804 -1.564393
14.661607 -2.728925 -1.4560549
15.729135 -3.0276804 -1.5666853
13.387625 -2.662082 -1.3294777
15.72491 -3.2274776 -1.5701737
15.729147 -3.3290555 -1.5726655
15.709396 -3.4257171 -1.5727651
15.631772 -3.509398 -1.5669844
15.723373 -3.6314528 -1.5786455
15.768562 -3.7439561 -1.5856221
15.739492 -3.8392246 -1.5850241
8.2353697 -2.0618446 -0.81260425
8.2158175 -2.1106031 -0.81190658
15.65365 -4.1249895 -1.5837284
15.58674 -4.2098017 -1.5794427
7.6682806 -2.1210723 -0.75918269
15.434344 -4.3725448 -1.5690774
15.387156 -4.4613452 -1.5669844
8.0200024 -2.3781791 -0.8001458
7.9709811 -2.416945 -0.79655784
7.9379435 -2.4602094 -0.79466414
7.9615893 -2.5211909 -0.79875052
8.4183683 -2.7228572 -0.8484844
15.056628 -4.9731774 -1.5505393
15.006973 -5.0591111 -1.548546
7.8022881 -2.6831238 -0.78868413
14.909021 -5.2306981 -1.5448583
14.865403 -5.3180571 -1.5436623
14.829688 -5.4081464 -1.5433633
14.77011 -5.4893298 -1.5405726
14.704513 -5.567872 -1.5371839
14.639437 -5.6461744 -1.5338949
14.573029 -5.7235241 -1.5305063
14.522854 -5.8069229 -1.5289116
14.470361 -5.8891716 -1.5271175
14.410052 -5.9679484 -1.5245262
14.35299 -6.0477533 -1.5223335
14.304638 -6.1310029 -1.5211375
14.183747 -6.1824727 -1.5120678
14.134629 -6.2645473 -1.5108718
14.021538 -6.3176346 -1.5026991
14.009649 -6.4159818 -1.5056891
13.961899 -6.4980431 -1.5047921
13.919966 -6.5827384 -1.5045928
13.883797 -6.6701808 -1.5050911
13.828301 -6.7482615 -1.5034964
13.751866 -6.8157477 -1.4996095
13.676013 -6.8829985 -1.4958221
13.62289 -6.9613495 -1.494626
13.220453 -6.8582931 -1.4540616
13.05663 -6.8752956 -1.4403075
12.907141 -6.8980541 -1.4281482
12.749122 -6.914494 -1.4149921
12.64195 -6.9570856 -1.4076167
12.447864 -6.95011 -1.3902746
12.360831 -7.0013437 -1.3851916
12.306424 -7.070612 -1.383896
12.298914 -7.1670337 -1.3880819
12.24614 -7.2373004 -1.3870853
12.193822 -7.3077011 -1.3861883
12.186166 -7.4051218 -1.3905736
12.191325 -7.511075 -1.3965536
12.182983 -7.6094618 -1.4010386
12.172211 -7.7069631 -1.4053243
12.159024 -7.8035426 -1.4094107
12.076718 -7.8557544 -1.4053243
12.057364 -7.9488788 -1.4088128
12.472487 -8.3328447 -1.464726
12.435954 -8.4192591 -1.46652
12.386521 -8.4970951 -1.4668189
12.343139 -8.5791855 -1.4679153
12.282944 -8.6496029 -1.4670182
12.21749 -8.7161379 -1.4655232
12.154908 -8.7845268 -1.464427
12.100779 -8.858943 -1.464427
11.962277 -8.8707867 -1.4539618
11.912395 -8.9476042 -1.4545599
11.852519 -9.0169134 -1.4539618
11.790664 -9.0846109 -1.4531646
11.722149 -9.1469908 -1.4515699
11.657217 -9.2119579 -1.4504735
11.597366 -9.2808247 -1.4500749
11.540202 -9.3518105 -1.4500749
11.484141 -9.4237061 -1.4502742
11.429163 -9.4965372 -1.4506729
11.366111 -9.5626431 -1.4500749
11.298133 -9.6244602 -1.4488789
11.230577 -9.6864538 -1.4477825
11.17243 -9.7564907 -1.4479818
11.114592 -9.8268366 -1.4482809
11.369894 -10.177584 -1.4907391
11.190009 -10.140908 -1.474892
11.06086 -10.148158 -1.4658223
10.944438 -10.16572 -1.458447
10.878232 -10.229274 -1.4579486
10.820307 -10.300632 -1.4586463
10.746153 -10.356472 -1.4571513
10.65107 -10.391639 -1.4527659
10.567995 -10.437916 -1.4500749
10.473496 -10.472309 -1.4457892
10.390862 -10.51797 -1.4431978
10.312927 -10.567998 -1.4413042
10.217506 -10.599555 -1.4369189
10.138555 -10.647635 -1.4349254
6.9803548 -7.42099 -0.98273593
9.9306059 -10.68887 -1.4236631
9.8668509 -10.751801 -1.4239621
9.8047028 -10.816565 -1.4245601
9.7328396 -10.87059 -1.4237628
6.7474556 -7.6293826 -0.98243695
6.6782618 -7.6451592 -0.97904825
6.5506382 -7.5925646 -0.96668953
9.6018639 -11.269019 -1.4451911
2.1206889 -2.5186565 -0.29204303
2.1051948 -2.5316212 -0.29204303
9.3991232 -11.451541 -1.4461879
9.3236685 -11.502812 -1.4453906
9.2678347 -11.57845 -1.4477825
2.064642 -2.6106267 -0.29563105
2.0253229 -2.5934374 -0.29184371
1.9966178 -2.5892642 -0.2897507
1.9740655 -2.5927556 -0.28865436
1.9539362 -2.5992506 -0.28795668
1.9409144 -2.6151869 -0.28845504
1.9236557 -2.6254411 -0.28825569
1.9057615 -2.6347756 -0.28795668
1.9022728 -2.6642396 -0.29014936
8.2940378 -11.775155 -1.4049257
8.2119761 -11.811934 -1.4032314
8.1303387 -11.848972 -1.4016367
1.8781551 -2.7719164 -0.29762441
1.8616644 -2.7842157 -0.29772407
1.831401 -2.7756491 -0.29533204
7.8533792 -12.069954 -1.4046267
7.7506857 -12.073533 -1.3993443
7.6737967 -12.11666 -1.398846
7.5950885 -12.156766 -1.3980486
7.5313144 -12.220929 -1.4001417
7.4484348 -12.254156 -1.3986467
7.3654318 -12.286826 -1.3971517
7.2838273 -12.321509 -1.3959557
7.2035775 -12.358232 -1.3950586
7.1320748 -12.409966 -1.3959557
7.0656033 -12.470808 -1.397949
6.9889507 -12.513927 -1.397949
6.9043589 -12.542627 -1.3963543
6.822999 -12.576884 -1.3954573
6.7410102 -12.609737 -1.3944607
6.6607294 -12.645579 -1.3938626
6.5784297 -12.677379 -1.392866
6.5036888 -12.723706 -1.3935636
6.4098377 -12.732265 -1.3900753
6.3311515 -12.770464 -1.3899757
6.2531104 -12.809965 -1.3900753
6.1830106 -12.86603 -1.3920686
6.105226 -12.906425 -1.3923676
6.0280185 -12.948153 -1.392866
5.9501138 -12.988515 -1.3932647
5.8641739 -13.011172 -1.3917696
5.804389 -13.092392 -1.396753
5.7307057 -13.143267 -1.3984474
5.6468163 -13.170866 -1.39765
5.5701451 -13.215353 -1.3987464
5.4885716 -13.248363 -1.3986467
5.3993006 -13.262437 -1.3965536
5.297133 -13.243578 -1.3909723
5.2048593 -13.248048 -1.3879822
5.1066427 -13.236102 -1.3832979
5.0129981 -13.234617 -1.3798096
4.9212976 -13.237147 -1.3768196
4.8335056 -13.249333 -1.3749259
4.7494369 -13.271247 -1.3741286
4.6662693 -13.295444 -1.3736303
4.5823364 -13.31724 -1.3729326
4.4932256 -13.32342 -1.3706403
4.4092054 -13.344125 -1.3699425
4.3401089 -13.41069 -1.3741286
4.2604451 -13.445605 -1.3750256
4.1781588 -13.472444 -1.3751253
4.0829959 -13.456883 -1.3708396
3.9893131 -13.444479 -1.3669525
3.9009249 -13.448635 -1.3648596
3.8283682 -13.507739 -1.3685472
3.7411683 -13.515632 -1.3669525
3.6537566 -13.522002 -1.3652582
3.5768042 -13.567259 -1.3676502
3.5029011 -13.625571 -1.3714375
3.4223728 -13.659356 -1.3727332
3.3380246 -13.678164 -1.3725339
3.2508156 -13.684835 -1.3711386
3.170593 -13.721005 -1.3728329
3.0922284 -13.766415 -1.3755239
3.0081251 -13.787073 -1.3757232
2.921618 -13.796511 -1.3748262
2.8361089 -13.810279 -1.3744276
2.7577226 -13.859626 -1.3777165
2.6762035 -13.894851 -1.3796103
2.5930812 -13.922749 -1.3808062
2.5118306 -13.961901 -1.3831983
2.4286659 -13.991755 -1.3846933
2.3401432 -13.990692 -1.3830986
2.2531476 -13.99791 -1.382401
2.1628072 -13.982955 -1.3795106
0.42799664 -2.8778248 -0.25367123
1.9864341 -13.975934 -1.3762215
0.26250887 -1.9244958 -0.15679482
0.25056762 -1.9250835 -0.15669514
0.23862903 -1.9255972 -0.15659547
0.22599927 -1.9201072 -0.15589781
0.21399415 -1.9194798 -0.15569848
0.20210883 -1.9197671 -0.1555988
0.19032556 -1.9209712 -0.1555988
0.17862655 -1.9230936 -0.15569848
0.16929841 -1.9529027 -0.15858881
0.15683685 -1.9479536 -0.15799081
0.14400336 -1.9369713 -0.15679482
0.13224979 -1.939804 -0.15699415
0.12058887 -1.9445515 -0.15739281
0.10903934 -1.9522094 -0.15809049
0.097205162 -1.9558232 -0.15838948
0.12196971 -2.8123064 -0.24420284
0.13157749 -3.5428529 -0.31735849
0.11127 -3.5903375 -0.32204282
0.087017849 -3.500433 -0.31297314
0.066909961 -3.575515 -0.32044816
0.045298848 -3.6027217 -0.32313916
0.017041566 -2.5969846 -0.22237575
0.0010846519 -3.5960412 -0.32244149
-0.021556204 -3.6895103 -0.33181021
-0.044120815 -3.6833389 -0.33121219
-0.060871094 -3.3656411 -0.29941842
-0.07873489 -3.251806 -0.28805634
-0.10241245 -3.3725972 -0.30021575
-0.52972448 -14.405167 -1.4061217
-0.1460145 -3.4227798 -0.30539843
-0.70660472 -14.400562 -1.4064207
-0.80154461 -14.515176 -1.4183807
-0.89242411 -14.539779 -1.4213707
-0.98544812 -14.590616 -1.4270518
-0.28147158 -3.8304889 -0.34695959
-0.30211467 -3.7929828 -0.3433716
-0.32512611 -3.7880838 -0.34307259
-0.27051976 -2.9428403 -0.2582559
-0.28798628 -2.9351838 -0.25765789
-1.5308357 -14.630554 -1.4357228
-0.32332566 -2.9254949 -0.2570599
-0.34127006 -2.923456 -0.2570599
-1.8159577 -14.730252 -1.4488789
-1.8935187 -14.620155 -1.4389122
-1.9892175 -14.652631 -1.4433972
-2.0821664 -14.661822 -1.4455899
-2.1735508 -14.658612 -1.4465865
-0.47601351 -3.0859139 -0.27499998
-0.49430701 -3.0790055 -0.27460131
-0.62971067 -3.7727039 -0.34536493
-0.65829188 -3.8001409 -0.34855428
-0.55952877 -3.1173713 -0.27948499
-0.56662416 -3.0493178 -0.27290696
-0.53339475 -2.7761121 -0.24539885
-2.9039805 -14.603593 -1.4536629
-2.9839258 -14.538714 -1.4488789
-0.56832767 -2.6898954 -0.23762481
-0.5771873 -2.6513598 -0.2340368
-0.85268432 -3.8020961 -0.35254097
-0.87577349 -3.7958231 -0.35244128
-0.61623538 -2.5996268 -0.22985078
-0.63476926 -2.6064298 -0.23094712
-3.6453366 -14.556438 -1.4653239
-0.67339456 -2.6244638 -0.23363814
-0.71636873 -2.722271 -0.24420284
-0.73539442 -2.7264695 -0.24509984
-3.9998791 -14.45684 -1.464726
-4.0974617 -14.463616 -1.468015
-0.9414928 -3.2504981 -0.3012124
-0.80717808 -2.7247715 -0.24689385
-0.8105942 -2.6759677 -0.24230917
-4.4688644 -14.415727 -1.473995
-4.5734615 -14.439257 -1.479377
-4.6628923 -14.413762 -1.479676
-4.7499971 -14.381101 -1.4792774
-4.8384666 -14.352628 -1.479377
-4.9047527 -14.259629 -1.4726993
-4.9905086 -14.224571 -1.472201
-5.0894279 -14.226473 -1.4756893
-1.1998334 -3.2927065 -0.31327212
-5.2639723 -14.163878 -1.475789
-1.1559211 -3.0553405 -0.28945169
-1.1678423 -3.0305521 -0.28755802
-1.1831411 -3.0149941 -0.28666103
-1.2984245 -3.249733 -0.31277379
-1.3292193 -3.2684309 -0.31566414
-1.2673775 -3.0625703 -0.29423571
-1.2892367 -3.0620713 -0.29503307
-5.9710464 -13.93151 -1.4804734
-1.3458033 -3.0898011 -0.29981709
-1.3651398 -3.0823948 -0.29991674
-1.3840274 -3.0739605 -0.29991674
-6.3811741 -13.93366 -1.4973171
-6.4753675 -13.913187 -1.49941
-6.5746551 -13.902876 -1.5026991
-6.6727662 -13.889178 -1.5056891
-1.3737937 -2.8172419 -0.27619597
-1.359235 -2.7445717 -0.26901993
-1.3635229 -2.7112944 -0.26622927
-1.3887373 -2.7197111 -0.26812294
-7.1048393 -13.695621 -1.5076824
-7.2109966 -13.694027 -1.5124664
-7.3141179 -13.685501 -1.5165528
-1.4735675 -2.7189209 -0.27200997
-1.4926217 -2.7141867 -0.27250829
-7.5245171 -13.476448 -1.5082805
-7.6207986 -13.454267 -1.5110711
-7.738904 -13.469368 -1.5182471
-7.8329291 -13.441401 -1.5205395
-5.0115385 -8.4806604 -0.9489488
-8.0162134 -13.375845 -1.5242271
-8.1353445 -13.387628 -1.5314032
-8.2455235 -13.383202 -1.5367852
-8.3338127 -13.342483 -1.5379813
-5.1112142 -8.0732737 -0.91934764
-5.2423544 -8.1690369 -0.93449706
-5.2880392 -8.1300449 -0.93369973
-5.3537087 -8.1215353 -0.93659008
-5.6251225 -8.4202862 -0.9765566
-8.8466015 -13.067069 -1.5428649
-8.9367456 -13.027309 -1.5446589
-9.019352 -12.976315 -1.5451573
-9.1102619 -12.936998 -1.5471506
-5.602777 -7.8541789 -0.9286167
-9.3983192 -13.004057 -1.5693763
-9.4726429 -12.93892 -1.5684794
-9.5162916 -12.832602 -1.5624994
-1.7244877 -2.2974606 -0.24998353
-1.7234894 -2.2670395 -0.24749185
-1.716717 -2.2296245 -0.24410318
-1.729141 -2.2174802 -0.24390385
-1.7316089 -2.1927772 -0.24210984
-10.00456 -12.501604 -1.5660874
-10.076694 -12.43457 -1.5653898
-10.151539 -12.370969 -1.5651903
-10.231071 -12.313039 -1.5657884
-1.6443028 -1.9559062 -0.21818973
-1.6614355 -1.9518392 -0.21898706
-10.45793 -12.124892 -1.5660874
-10.541947 -12.071736 -1.5675824
-1.6845574 -1.9067645 -0.21709339
-1.7128178 -1.9149257 -0.21958508
-1.7011472 -1.8785764 -0.21609673
-1.70726 -1.8622379 -0.21529938
-1.7653831 -1.9020277 -0.22217642
-10.968906 -11.664664 -1.5660874
-2.553618 -2.6837184 -0.33330521
-2.5306766 -2.6271644 -0.3276242
-3.2263753 -3.3080716 -0.4250986
-2.4179764 -2.4493811 -0.3069931
-3.4538856 -3.4553797 -0.45161003
-3.2711456 -3.2327406 -0.42290592
-3.3101487 -3.2313704 -0.42559692
-3.411587 -3.289716 -0.43695897
-3.3956752 -3.2344162 -0.43197563
-11.142381 -10.47998 -1.4944267
-11.208662 -10.413446 -1.4947257
-3.1313102 -2.8746998 -0.38802245
-3.5226893 -3.1942093 -0.43855366
-3.5311019 -3.1625793 -0.43705866
-3.4699352 -3.0696704 -0.4262946
-3.4602258 -3.0234499 -0.42250726
-3.4289844 -2.9592679 -0.41592923
-3.3630033 -2.8665473 -0.40486619
-11.776932 -9.9104967 -1.5039948
-11.87808 -9.8717518 -1.5092771
-3.4213507 -2.8092096 -0.40566352
-3.9881504 -3.2335956 -0.47652683
-10.948414 -8.7636108 -1.3669525
-10.996515 -8.6919489 -1.3662549
-11.057486 -8.630434 -1.3672515
-11.228459 -8.6535225 -1.3822016
-3.9405482 -2.9994845 -0.45828775
-3.9604695 -2.9764445 -0.45848706
-11.248374 -8.3434305 -1.3650589
-11.402121 -8.349493 -1.3778162
-11.47975 -8.2986078 -1.3811053
-11.567713 -8.2545967 -1.38569
-11.61489 -8.1811724 -1.3852913
-11.640359 -8.0927124 -1.3823012
-11.674207 -8.0104418 -1.3804076
-3.1039619 -2.1029694 -0.33779022
-3.1292171 -2.0921762 -0.33928522
-3.1270425 -2.0630777 -0.33749124
-3.1221273 -2.0324571 -0.33539823
-3.1370516 -2.0148742 -0.33569723
-3.1964324 -2.0253975 -0.34127858
-3.2315853 -2.0199795 -0.34396958
-3.437911 -2.1196413 -0.36679336
-3.5205781 -2.1408803 -0.37496606
-3.584856 -2.1499298 -0.38094607
-3.617682 -2.1395373 -0.38323843
-3.6015127 -2.100265 -0.37984973
-3.6755862 -2.1133237 -0.38692611
-3.6469276 -2.0671906 -0.3821421
-0 -0 -0
-3.9012825 -2.1484594 -0.40835452
-3.9686198 -2.1538944 -0.41453388
-3.9747407 -2.1257505 -0.41373655
-3.9621778 -2.0878766 -0.4108462
-14.276025 -7.4078197 -1.5732634
-8.7392521 -4.4674544 -0.94536078
-8.9869184 -4.5246911 -0.97007823
-7.6808066 -3.8083937 -0.82097626
-7.6870399 -3.7529018 -0.81908256
-9.1180086 -4.3822055 -0.97555989
-9.2391729 -4.3708434 -0.98602492
-9.0763788 -4.2258959 -0.96509486
-9.1645584 -4.1987138 -0.97197187
-5.7882414 -2.6094859 -0.59822035
-5.8105116 -2.5767431 -0.59891802
-5.8116188 -2.5346801 -0.5973233
-9.3389187 -4.004293 -0.9800449
-9.2532806 -3.9005477 -0.96808487
-9.3459864 -3.8722541 -0.97555989
-9.3446865 -3.8047075 -0.97286892
-9.3576927 -3.7432339 -0.97177255
-9.5638609 -3.7577727 -0.99150664
-9.3453655 -3.6059177 -0.96559322
-9.4036064 -3.5622506 -0.96948022
-9.4709883 -3.5214705 -0.97436392
-9.4858732 -3.4609048 -0.97366625
-9.3092527 -3.3319099 -0.95263648
-9.2271814 -3.2388182 -0.94177276
-9.2449989 -3.1814928 -0.94157344
