# .PCD v0.7 - Point Cloud Data file format
VERSION 0.7
FIELDS x y z
SIZE 4 4 4
TYPE F F F
COUNT 1 1 1
WIDTH 1508
HEIGHT 1
VIEWPOINT 0 0 0 1 0 0 0
POINTS 1508
DATA ascii
-0.18486407 -3.0183635 -0.11779089
-0.20533992 -3.0460682 -0.11927325
-0 -0 -0
-1.685572 -21.048956 -1.0438058
-0.28971386 -3.3701203 -0.13614148
-0.27340949 -2.9685113 -0.11559291
-0.28543946 -2.9041643 -0.11237261
-0.30585822 -2.9271894 -0.11365051
-0.40475377 -3.6538157 -0.15116955
-0.445667 -3.808974 -0.15929697
-0.47845832 -3.8824868 -0.16323289
-0.50085801 -3.8685837 -0.16267061
-0.3431462 -2.5314827 -0.093766436
-0.38539967 -2.7171896 -0.10347845
-0.45268753 -3.0555835 -0.12111342
-0.47280282 -3.0616307 -0.12157346
-0.49348587 -3.0705037 -0.12218685
-0.63631481 -3.8081276 -0.16062598
-0.54719609 -3.1567085 -0.12699175
-3.5770974 -19.874195 -0.99657476
-3.9419911 -21.155682 -1.0644567
-4.077774 -21.162476 -1.0660924
-0.86165434 -4.3333583 -0.18914863
-0.54043859 -2.6356175 -0.10071819
-0.85845363 -4.0567145 -0.17524512
-0.90143597 -4.1343064 -0.17958997
-0.96314162 -4.2904449 -0.1880752
-4.8406692 -20.940636 -1.0630765
-5.2672195 -22.164906 -1.1290671
-0.68683207 -2.8176789 -0.11145253
-0.70459378 -2.8153491 -0.11155476
-0.73031414 -2.8438578 -0.11329269
-0.75029719 -2.8489797 -0.11380386
-0.59938902 -2.2215259 -0.08078301
-0.61300874 -2.2178063 -0.08078301
-0.62633294 -2.2130423 -0.080731891
-0.72952688 -2.5179944 -0.0971912
-0.75633222 -2.5517664 -0.099235833
-0.74412644 -2.4553368 -0.094328709
-0.73224652 -2.3639259 -0.08967717
-0.78687668 -2.4860044 -0.096475579
-0.83011037 -2.5675914 -0.10112712
-0.87625462 -2.6544275 -0.10608536
-0.84782755 -2.5165212 -0.098929137
-0.71534562 -2.0816116 -0.07567142
-0.72942811 -2.0809524 -0.075875886
-0.63883621 -1.7877817 -0.060183316
-0.70628929 -1.9386252 -0.068617433
-0.75646734 -2.03722 -0.074240178
-0.77921587 -2.059623 -0.075722538
-0.77997178 -2.0240569 -0.074035712
-1.1913033 -3.0342233 -0.12985423
-1.2087854 -3.024075 -0.12970088
-1.3535112 -3.3264511 -0.1468247
-1.3685434 -3.3051672 -0.14610907
-1.1982809 -2.8448732 -0.12101119
-1.7735264 -4.1380396 -0.19344236
-1.271832 -2.9187481 -0.12596942
-1.3111763 -2.959275 -0.12867858
-1.7631919 -3.9135025 -0.18270804
-1.7584631 -3.8399651 -0.17918104
-1.8089757 -3.887044 -0.18245246
-1.480374 -3.1311243 -0.14028187
-0.879493 -1.8321592 -0.067032844
-0.89290947 -1.8312153 -0.067288421
-0.90457249 -1.8265967 -0.067339532
-0.92384881 -1.8370674 -0.068259619
-0.9310115 -1.8233614 -0.067799576
-0.94448245 -1.8220465 -0.06805516
-0.96402425 -1.8321208 -0.06897524
-0.98278308 -1.8402619 -0.069793098
-0.9840529 -1.815764 -0.068719663
-0.99373049 -1.8070673 -0.068566315
-0.98921305 -1.7730364 -0.066930607
-1.0000736 -1.7669333 -0.066930607
-1.4683254 -2.5564477 -0.11390609
-1.4719106 -2.5266843 -0.1126793
-1.482303 -2.5090089 -0.11216815
-1.4971565 -2.4990098 -0.11211703
-1.5109054 -2.4872165 -0.11196368
-1.1058334 -1.796087 -0.070968762
-0 -0 -0
-2.5836706 -4.0804682 -0.21020837
-5.1826959 -8.0730028 -0.45403102
-1.6747431 -2.5752969 -0.12024445
-5.3567104 -8.1230068 -0.46103391
-1.4198362 -2.1261299 -0.093868665
-1.4222134 -2.1016679 -0.092897467
-1.4017382 -2.0443211 -0.089881629
-1.3389897 -1.9274526 -0.083134338
-1.3375611 -1.9004232 -0.081958674
-1.3474561 -1.8897417 -0.081805326
-1.3572704 -1.8790104 -0.081651978
-1.3658235 -1.8666186 -0.081396401
-1.3778462 -1.859005 -0.081447512
-1.4318261 -1.9072002 -0.085076742
-1.7937244 -2.3584974 -0.11467282
-1.4764634 -1.9171692 -0.086865798
-1.5183136 -1.9466463 -0.089370474
-1.6274754 -2.0602887 -0.097395658
-1.6375897 -2.0471456 -0.0971912
-1.685971 -2.0812767 -0.1001048
-1.6873029 -2.0569987 -0.099184714
-1.7139384 -2.0635023 -0.10030927
-2.4809706 -2.9491668 -0.16026817
-2.4977241 -2.9323683 -0.16016594
-2.490876 -2.8882558 -0.15822354
-2.4986947 -2.8616366 -0.1574568
-2.117203 -2.3951907 -0.12663394
-2.1831629 -2.4394391 -0.13056986
-2.0994785 -2.3172393 -0.12305582
-2.1595814 -2.3543427 -0.12653171
-2.1168787 -2.2795961 -0.12223797
-2.1794138 -2.318208 -0.1258672
-2.4167621 -2.5390973 -0.14242874
-2.4523993 -2.5450692 -0.14391109
-2.4372747 -2.4985287 -0.141662
-2.500294 -2.5318317 -0.14513788
-3.2432926 -3.2436676 -0.19778721
-2.6157413 -2.5844605 -0.15122066
-2.6244006 -2.5613887 -0.15070951
-3.1902535 -3.0753236 -0.18981314
-2.6317618 -2.5062699 -0.14902268
-3.1629918 -2.9750626 -0.18526383
-3.1877732 -2.961715 -0.18572387
-2.7076235 -2.485081 -0.15111843
-3.2238781 -2.9223731 -0.18572387
-3.2767267 -2.9338379 -0.18812631
-2.8329737 -2.5055916 -0.15658782
-2.852056 -2.4914455 -0.15684341
-3.6493526 -3.148243 -0.20969722
-3.6199396 -3.0843506 -0.2064258
-3.3223794 -2.7959454 -0.18526383
-4.2114058 -3.4997938 -0.24328034
-3.3440857 -2.7448294 -0.18444598
-3.4780402 -2.8191869 -0.19216447
-3.4375648 -2.7516253 -0.1883819
-3.5695808 -2.8214877 -0.19589593
-11.054873 -8.6252947 -0.68067878
-22.557701 -17.376965 -1.4204276
-3.0326731 -2.3079283 -0.15807019
-3.028409 -2.2754843 -0.15689452
-3.0511391 -2.263402 -0.1574568
-3.0391808 -2.2257633 -0.15582108
-3.0883989 -2.2328076 -0.15807019
-3.0703309 -2.1911998 -0.15607667
-3.0837178 -2.1723194 -0.15607667
-3.0953486 -2.1522174 -0.15597443
-4.3011012 -2.9510586 -0.2299902
-4.5002565 -3.0472009 -0.24118458
-4.6019182 -3.0749986 -0.24629617
-4.608191 -3.0384603 -0.24552943
-4.5873981 -2.9845388 -0.24312699
-5.7622361 -3.6984119 -0.31346241
-5.7004352 -3.6095726 -0.30835083
-5.7267113 -3.5771723 -0.30860642
-23.763113 -14.637334 -1.3914959
-23.869551 -14.50162 -1.3925183
-3.8100193 -2.2839801 -0.19037542
-3.8368595 -2.2681792 -0.19114216
-3.9128363 -2.2807891 -0.19482249
-3.9397476 -2.2641985 -0.19558923
-3.8944712 -2.2065206 -0.19211335
-3.859102 -2.1553254 -0.18925087
-3.858254 -2.1239038 -0.18843301
-3.916867 -2.1249421 -0.19109103
-3.9263082 -2.0989861 -0.19088657
-3.9364622 -2.0734596 -0.19073322
-4.0173764 -2.0846686 -0.19466914
-4.0594416 -2.0749717 -0.19635597
-4.3754263 -2.2026329 -0.21373536
-4.3861742 -2.1744142 -0.21358201
-7.6217661 -3.7194014 -0.39708796
-4.3981233 -2.1135077 -0.21276416
-7.7571239 -3.6682723 -0.40219954
-5.7149615 -2.660109 -0.28565538
-5.7420726 -2.629981 -0.28626877
-26.552443 -11.960366 -1.4535506
-26.660942 -11.812995 -1.4555441
-5.8655005 -2.5569532 -0.2905114
-5.8572116 -2.5106893 -0.28918236
-5.7896719 -2.4398139 -0.28458196
-5.8239112 -2.4122653 -0.28565538
-5.8515539 -2.3817537 -0.28637099
-9.5662441 -3.8246965 -0.49032328
-9.6127729 -3.7750511 -0.4916012
-23.263969 -8.9699059 -1.2391707
-23.312965 -8.8248701 -1.2388639
-28.354652 -10.534627 -1.5112092
-28.413128 -10.358396 -1.5109025
-28.482733 -10.186215 -1.5112604
-28.542814 -10.010595 -1.5111581
-28.641478 -9.8482599 -1.5132028
-11.527821 -3.8856008 -0.58565438
-7.833919 -2.5874991 -0.38528019
-7.8154392 -2.528321 -0.38344002
-28.807892 -9.1212969 -1.5096247
-28.834698 -8.9354963 -1.5080912
-28.84693 -8.7456541 -1.5058421
-28.917284 -8.573597 -1.5067621
-29.51227 -8.5533323 -1.5356938
-9.7645006 -2.765955 -0.48245144
-9.6792555 -2.6777744 -0.47703317
-12.923591 -3.4896967 -0.64816904
-9.7065582 -2.5575218 -0.47677758
-9.7065916 -2.4939408 -0.47595972
-17.949821 -4.4936528 -0.91008675
-13.081021 -3.1899338 -0.65215611
-13.322871 -3.1624095 -0.66386163
-13.142536 -3.0345597 -0.6533829
-11.507234 -2.5828574 -0.56663924
-11.495543 -2.5062478 -0.56520802
-11.494095 -2.4321523 -0.56433904
-17.838589 -3.6597831 -0.89505869
-17.811731 -3.5405266 -0.8925029
-17.823313 -3.4292829 -0.89199173
-19.793985 -3.6825159 -0.9935078
-19.792618 -3.5567551 -0.99228102
-18.066442 -3.1323545 -0.90149927
-32.264149 -5.3893142 -1.637261
-32.337036 -5.1977406 -1.6393567
-20.205574 -3.1211562 -1.0094559
-25.891008 -3.8365514 -1.3026565
-32.088078 -4.5535245 -1.621824
-32.077805 -4.3514504 -1.6198816
-32.069237 -4.1500578 -1.6180925
-18.127012 -2.233315 -0.89781892
-24.017597 -2.8091807 -1.2006804
-32.296036 -3.5763166 -1.6261177
-32.662041 -3.4140999 -1.643855
-33.114723 -3.2561219 -1.6660904
-33.610435 -3.0967457 -1.6905749
-33.346218 -2.8661788 -1.6760579
-0 -0 -0
-0 -0 -0
-38.046661 -2.565536 -1.9147691
-38.102558 -2.3345406 -1.9168648
-0 -0 -0
-38.157265 -1.8682033 -1.9183471
-37.977432 -1.6258864 -1.908584
-37.88789 -1.3892109 -1.9035236
-0 -0 -0
-0 -0 -0
-37.995911 -0.69320202 -1.9080728
-0 -0 -0
-38.109413 -0.22752221 -1.9135933
-0 0 -0
-38.088364 0.24002324 -1.9125199
-38.086174 0.47372454 -1.9125199
-38.058586 0.70696211 -1.9112931
-0 0 -0
-0 0 -0
-0 0 -0
-0 0 -0
-0 0 -0
-0 0 -0
-0 0 -0
-0 0 -0
-30.876738 -0.78117281 -1.9114566
-30.857002 -0.59124285 -1.9099454
-30.858053 -0.4018707 -1.9098195
-30.800058 -0.21210854 -1.9060416
-30.843695 -0.023151716 -1.9087491
-30.827288 0.16601628 -1.9077417
-30.828682 0.35520029 -1.9079305
-30.80397 0.54396749 -1.9065453
-30.781096 0.73251593 -1.905349
-30.702202 0.91916233 -1.9006896
-30.638136 1.1054438 -1.8970376
-30.586903 1.291563 -1.8942672
-30.511614 1.4759864 -1.8900485
-30.443188 1.6599692 -1.8863336
-30.406528 1.8451624 -1.8846965
-30.372726 2.0302346 -1.8833113
-30.32486 2.2140169 -1.8811076
-30.299759 2.3991785 -1.880415
-30.292423 2.5857282 -1.8809186
-30.260086 2.7700949 -1.8799112
-30.23358 2.9548416 -1.8793446
-30.22282 3.1411209 -1.8798482
-30.210915 3.3273795 -1.880352
-30.156223 3.5087662 -1.8782111
-30.148987 3.6955564 -1.8791556
-0 0 -0
-30.075651 4.06178 -1.8775185
-30.069925 4.2490368 -1.8787779
-30.034403 4.4321513 -1.8782111
-29.956335 4.6086168 -1.875
-29.862452 4.7819242 -1.8708442
-29.861099 4.9698181 -1.8726703
-29.818241 5.1509104 -1.8719147
-29.868595 5.3485508 -1.8772037
-29.972595 5.5571899 -1.8860188
-29.98106 5.7492633 -1.8887893
-29.922703 5.9286547 -1.887341
-30.095984 6.1551361 -1.9008784
-30.086946 6.3458648 -1.9027674
-30.109859 6.5439196 -1.9067972
-30.291195 6.7782335 -1.9211531
-30.269459 6.9686708 -1.9224753
-30.275661 7.1659923 -1.9256866
-30.259245 7.3584638 -1.9275125
-30.469152 7.6078172 -1.9441352
-30.710001 7.8684421 -1.9628987
-30.518286 8.0191908 -1.9535799
-30.696899 8.267808 -1.9685025
-30.702353 8.4716663 -1.9722174
-30.820747 8.7081928 -1.9834251
-30.823301 8.9134979 -1.9871401
-30.855118 9.1282215 -1.9928699
-30.93704 9.3592758 -2.0019999
-30.85424 9.5412598 -2.0003626
-30.927393 9.772193 -2.0091147
-30.873499 9.9639215 -2.0095556
-30.813675 10.153794 -2.0096815
-30.902145 10.393576 -2.0197558
-30.901035 10.604696 -2.0239744
-31.361948 10.978421 -2.0591717
-31.341932 11.187758 -2.0623829
-31.300831 11.390097 -2.0642719
-31.366972 11.632604 -2.0734646
-31.328615 11.837548 -2.0757315
-31.120337 11.977576 -2.0666015
-31.104795 12.191244 -2.0705683
-30.875534 12.320472 -2.0601163
-30.660656 12.453356 -2.0506716
-30.550463 12.627527 -2.0484047
-30.410769 12.788823 -2.0441861
-30.228037 12.930826 -2.0370712
-30.102367 13.096151 -2.0339229
-29.922873 13.237006 -2.0271227
-29.771912 13.389251 -2.0223374
-29.634737 13.546781 -2.0185595
-29.479553 13.695144 -2.0135853
-29.34984 13.854468 -2.010437
-29.196787 14.001928 -2.0057147
-29.095966 14.17382 -2.0047073
-0 0 -0
-28.808367 14.473801 -1.9968367
-28.636335 14.608117 -1.990981
-28.500965 14.760145 -1.9877697
-0 0 -0
-28.206743 15.049591 -1.9798362
-28.061211 15.19387 -1.9760584
-27.949087 15.355673 -1.9747361
-0 0 -0
-27.451012 15.523589 -1.9524466
-27.328407 15.67634 -1.9504946
-27.242918 15.850253 -1.9513131
-27.072948 15.974512 -1.9460242
-26.929031 16.113169 -1.942687
-0 0 -0
-0 0 -0
-26.579609 16.576014 -1.939098
-26.440281 16.715324 -1.9363276
-26.330498 16.872938 -1.9358239
-26.191319 17.011349 -1.9331794
-26.010586 17.121801 -1.9274496
-25.880962 17.265017 -1.9256235
-25.736506 17.397783 -1.9227272
-25.602098 17.53676 -1.9206494
-25.448097 17.661657 -1.9171233
-25.327002 17.808861 -1.9161789
-25.183113 17.93961 -1.9135344
-25.045048 18.073935 -1.9113935
-24.878889 18.187218 -1.907112
-24.758003 18.332996 -1.9064194
-24.590755 18.443846 -1.9021378
-0 0 -0
-24.285843 18.685192 -1.8960302
-24.129799 18.801958 -1.892756
-23.97167 18.916277 -1.8893559
-23.826303 19.039957 -1.8870262
-23.667133 19.151892 -1.8836261
-23.522156 19.274612 -1.8814224
-23.375027 19.394999 -1.8790927
-23.242592 19.527147 -1.8780223
-23.059242 19.615721 -1.8727962
-22.906687 19.729486 -1.8701516
-22.757368 19.845398 -1.8678221
-22.605991 19.9589 -1.8653663
-22.458546 20.075285 -1.8632885
-22.329763 20.208021 -1.8628478
-22.196518 20.336563 -1.8620923
-22.061073 20.462875 -1.8612107
-0 0 -0
-21.838682 20.760937 -1.8638552
-21.687872 20.8724 -1.8618404
-21.57798 21.02319 -1.8634775
-21.435787 21.142578 -1.862344
-21.282351 21.250439 -1.8602662
-21.116465 21.34515 -1.857118
-0 0 -0
-20.821051 21.569645 -1.8542216
-20.696575 21.705662 -1.8549773
-20.560265 21.829338 -1.8547254
-0 0 -0
-20.302317 22.092493 -1.8557957
-20.156988 22.206305 -1.8549142
-19.899096 22.194328 -1.8434546
-0 0 -0
-19.775053 22.60812 -1.8578106
-19.600727 22.688251 -1.8544105
-19.476692 22.826313 -1.8559216
-19.354918 22.967522 -1.8577477
-0 0 -0
-19.073515 23.20562 -1.8579365
-18.943348 23.337713 -1.8591958
-18.793552 23.445721 -1.8585662
-18.623941 23.528511 -1.8559846
-18.431282 23.581011 -1.8510734
-18.27405 23.677856 -1.8498141
-18.113298 23.769693 -1.84824
-17.963509 23.875603 -1.8478621
-12.55216 16.898317 -1.2908764
-17.655001 24.07493 -1.846351
-17.498755 24.171488 -1.8454695
-17.337925 24.261351 -1.8441472
-17.175503 24.34852 -1.8426991
-17.018936 24.443621 -1.8419435
-16.845459 24.513865 -1.8393619
-16.605658 24.485434 -1.8293506
-16.437897 24.561153 -1.8273987
-16.268734 24.634069 -1.8253208
-16.104198 24.713362 -1.8238096
-15.94416 24.799118 -1.8228652
-15.793835 24.899853 -1.823117
-11.419331 18.250023 -1.3210365
-11.34016 18.373251 -1.3250033
-11.452446 18.812456 -1.35233
-11.447253 19.066336 -1.3658674
-11.440388 19.322569 -1.3795307
-14.891798 25.507401 -1.8262653
-14.740982 25.608675 -1.8270209
-9.5951834 16.908562 -1.1893773
-0 0 -0
-14.270486 25.881788 -1.8274616
-14.113792 25.973248 -1.8277764
-11.188605 20.894863 -1.4581736
-10.88647 20.633881 -1.4346877
-10.947461 21.061584 -1.4603773
-10.807107 21.10704 -1.4588662
-10.980289 21.773561 -1.5013044
-10.860243 21.868235 -1.5032563
-0 0 -0
-10.565959 21.947704 -1.4996043
-10.417415 21.983263 -1.4975895
-9.3091154 19.960146 -1.35233
-10.132709 22.078606 -1.4954487
-9.9962244 22.138544 -1.4953228
-9.8285961 22.128321 -1.4904115
-9.7190027 22.248571 -1.4945672
-0 0 -0
-0 0 -0
-10.257516 24.711493 -1.6508456
-10.064607 24.673241 -1.6439824
-9.9917383 24.930923 -1.657331
-9.9716539 25.329788 -1.6802502
-10.238198 26.482403 -1.7541077
-10.132889 26.695881 -1.764308
-10.233014 27.466444 -1.8120352
-10.067718 27.53809 -1.8126649
-9.9689779 27.795683 -1.8258245
-9.8671217 28.052155 -1.8389212
-9.6717091 28.045183 -1.8344507
-9.5077543 28.12858 -1.8360878
-9.3158407 28.128597 -1.8322469
-8.4039583 25.906879 -1.6811316
-8.9702606 28.241751 -1.8323098
-8.7754707 28.227642 -1.8277764
-8.6099453 28.306736 -1.8294765
-8.3774748 28.161976 -1.8165058
-8.0938749 27.832399 -1.7915088
-7.5344591 26.514492 -1.7018471
-7.3673568 26.544838 -1.7008396
-7.2053862 26.593397 -1.7010914
-6.8027959 25.732065 -1.6420306
-6.6761742 25.89509 -1.6499641
-6.4677825 25.739079 -1.6371822
-6.2207432 25.414757 -1.6135705
-6.0542741 25.40876 -1.6107371
-5.8971276 25.440569 -1.6104223
-5.743988 25.489904 -1.6113038
-5.5911055 25.541243 -1.6123742
-5.4363565 25.584831 -1.6130038
-5.2816858 25.629436 -1.6137594
-5.1262817 25.671148 -1.6143891
-2.8558259 14.773618 -0.91214365
-2.7218344 14.559342 -0.89728397
-2.6111603 14.457915 -0.88972825
-2.5104029 14.404841 -0.88532072
-2.407089 14.331393 -0.87965387
-2.3082757 14.278898 -0.87537229
-2.216481 14.266166 -0.87367225
-2.1286092 14.277523 -0.8735463
-2.0172536 14.124333 -0.86296821
-1.9116406 13.998009 -0.85415316
-1.8297135 14.040154 -0.85610509
-1.7724174 14.283864 -0.87090176
-1.6884789 14.326187 -0.87291664
-1.599768 14.329335 -0.87247592
-1.5132802 14.352777 -0.87335742
-1.426762 14.377682 -0.87436485
-1.3413824 14.416971 -0.87631673
-1.2598071 14.504472 -0.88135391
-1.1809014 14.637271 -0.88928747
-1.0947014 14.693009 -0.89237273
-1.0118778 14.806984 -0.89917296
-1.2712009 20.442818 -1.2550495
-1.1284856 20.14233 -1.2355933
-0.72110564 14.461271 -0.87631673
-0.63318807 14.484367 -0.87751305
-0.56556183 15.053455 -0.91321409
-0.45884624 14.600775 -0.88443917
-0.36831453 14.566401 -0.88210952
-0.27938899 14.592335 -0.88362068
-0.18859798 14.497972 -0.87757605
-0.099244058 14.441971 -0.87398708
-0.01062487 14.438316 -0.87373519
0.078036875 14.451084 -0.87455374
0.16684341 14.462308 -0.87530929
0.25549129 14.456023 -0.87499452
0.34703463 14.573912 -0.88255024
0.43579522 14.549561 -0.88116503
0.52563697 14.562571 -0.88217247
0.62015861 14.681718 -0.88991714
0.71775293 14.833145 -0.89973962
0.81266522 14.900212 -0.90427309
1.5088227 24.862762 -1.5342979
1.6609501 24.847063 -1.5339202
1.8129416 24.830431 -1.5335424
1.9641614 24.804911 -1.5326608
2.1138632 24.763556 -1.5308349
2.2650421 24.742167 -1.5303311
2.4190469 24.750648 -1.5317794
2.5721064 24.747252 -1.532535
2.7236857 24.729019 -1.532409
2.8759456 24.716799 -1.5327238
3.0275509 24.698687 -1.5327238
3.1790421 24.679646 -1.5327238
3.3308146 24.662642 -1.5329127
2.2405369 15.85466 -0.97303057
2.3387969 15.847526 -0.97347128
3.7936168 24.658312 -1.5368165
2.3410633 14.618323 -0.89684325
4.0941243 24.599072 -1.5361239
4.2465134 24.582338 -1.5366906
4.3997302 24.569574 -1.5375721
4.5500398 24.540152 -1.5374461
4.6999655 24.508831 -1.5372573
4.8541398 24.499111 -1.5385165
5.0077715 24.485489 -1.539587
5.160183 24.465042 -1.5402796
5.3102002 24.432919 -1.5402796
5.4617615 24.407667 -1.5407833
5.6161227 24.394119 -1.5421056
5.7666159 24.363085 -1.5423574
5.9124594 24.312696 -1.5414129
6.0581436 24.262405 -1.5405314
6.2049193 24.217043 -1.5400277
6.3523808 24.174652 -1.5397758
4.2983899 15.958418 -1.0055203
4.4073768 15.97215 -1.0081649
6.7941103 24.045946 -1.5392722
5.9235182 20.483326 -1.3080658
4.3345604 14.650895 -0.92675149
7.2529049 23.974131 -1.5430501
7.4028192 23.938711 -1.5436797
7.5655012 23.943275 -1.5470169
7.7199349 23.920149 -1.5485909
7.8871751 23.934889 -1.5527467
8.052659 23.941854 -1.5564616
8.2285662 23.976952 -1.5621283
8.3887205 23.96369 -1.564647
8.5433178 23.933386 -1.5660951
8.6954699 23.895519 -1.5671026
8.8571949 23.882889 -1.569873
9.023325 23.880373 -1.5733991
9.1987181 23.900003 -1.5784992
9.3659506 23.896074 -1.5820881
9.5297823 23.881723 -1.5850475
9.7039289 23.891224 -1.5897069
9.8850307 23.915165 -1.5954367
10.048995 23.89546 -1.5982701
6.3225322 14.77949 -0.97699732
6.4071264 14.72669 -0.97605282
10.553343 23.856127 -1.6085963
10.714668 23.824602 -1.610926
10.883057 23.807425 -1.6143261
11.05416 23.794506 -1.618104
11.234034 23.798433 -1.6231412
11.404876 23.781248 -1.6267931
11.578115 23.767345 -1.6307598
11.803834 23.857765 -1.6421565
11.944176 23.773296 -1.641338
12.100705 23.720898 -1.6428491
12.262548 23.678106 -1.6451159
8.3949175 15.968992 -1.1010377
12.673397 23.753019 -1.6613607
12.843139 23.71957 -1.6645719
9.0074854 16.394314 -1.1429722
9.1035357 16.330891 -1.1424056
8.3620453 14.78658 -1.0345471
11.91178 20.765495 -1.4731592
9.3900452 16.13899 -1.1408315
9.4797659 16.065599 -1.1396981
14.247929 23.811668 -1.7134955
14.412402 23.754515 -1.7157623
14.585076 23.709837 -1.7190363
9.9577894 15.966997 -1.1500243
14.975726 23.688509 -1.7309368
15.142871 23.630625 -1.7335182
15.308782 23.569908 -1.735974
10.157329 15.430211 -1.1283015
10.296676 15.434846 -1.1334016
15.968072 23.621475 -1.7616636
16.12117 23.535404 -1.7626079
16.290882 23.472939 -1.7654414
10.524837 14.96769 -1.1172197
16.624027 23.336287 -1.7704786
16.737703 23.193378 -1.7673303
16.846128 23.044317 -1.7637414
16.993147 22.948538 -1.764371
17.122858 22.829468 -1.7632376
17.275293 22.740662 -1.7645599
17.400505 22.616043 -1.7631117
17.651814 22.653704 -1.7746972
11.882688 15.058107 -1.1730064
0 0 -0
11.971154 14.793229 -1.1634358
12.01236 14.659285 -1.1585245
12.093797 14.575316 -1.157706
17.456791 20.778242 -1.6749611
17.566496 20.650213 -1.673261
17.692873 20.542038 -1.673261
17.999619 20.640696 -1.6906393
18.184055 20.595701 -1.6961802
18.400541 20.584934 -1.7047434
19.031425 21.029596 -1.7522188
19.16617 20.919048 -1.7527854
19.283987 20.790077 -1.7518409
19.405041 20.664814 -1.7512743
19.557602 20.572845 -1.753667
15.674446 16.286694 -1.3889124
19.855251 20.379189 -1.7578856
19.979921 20.256975 -1.7578856
20.133457 20.163662 -1.7605301
20.286598 20.069225 -1.7631747
20.425062 19.959717 -1.7645599
16.285553 15.720212 -1.3908644
16.430819 15.666823 -1.3951459
17.205914 16.205511 -1.454018
20.842985 19.391268 -1.758893
20.941 19.244102 -1.75713
21.060163 19.11659 -1.7572559
21.220905 19.026316 -1.7609708
21.343225 18.901043 -1.7614746
21.478331 18.786812 -1.7631117
21.591688 18.653364 -1.7629857
21.716366 18.529598 -1.7638673
21.776232 18.350981 -1.7594597
21.832424 18.170412 -1.7548633
21.978199 18.064627 -1.7576967
22.097925 17.936979 -1.7584523
0 0 -0
22.006496 17.419161 -1.7335182
0 0 -0
0 0 -0
21.969364 16.74135 -1.705436
21.989532 16.54443 -1.6989506
22.025738 16.360987 -1.6938505
22.093521 16.201923 -1.6913319
22.171499 16.050838 -1.6896949
22.258202 15.906371 -1.6888133
22.371693 15.781003 -1.6900727
22.525434 15.683355 -1.6944802
22.697737 15.597414 -1.7003359
22.869001 15.509386 -1.7061286
23.070728 15.44038 -1.714251
23.249977 15.35463 -1.7206734
23.305292 15.186618 -1.7177771
23.773281 15.284597 -1.7459223
23.942467 15.186552 -1.7515892
24.082577 15.069004 -1.7551152
23.925751 14.767363 -1.7366666
24.177879 14.718884 -1.7486298
24.476513 14.695606 -1.7639931
24.850475 14.71345 -1.7848345
25.153172 14.684983 -1.8003868
25.447796 14.648373 -1.8153094
25.79846 14.64022 -1.8342618
26.444368 14.792999 -1.8744962
26.969873 14.870444 -1.9058527
27.338587 14.855738 -1.9258125
27.669415 14.816332 -1.9430019
28.009605 14.778077 -1.9608209
28.198933 14.657489 -1.9678729
28.305218 14.492829 -1.9690692
28.369551 14.306746 -1.9673692
0 0 -0
28.406704 13.890888 -1.9577986
28.374502 13.660048 -1.9496131
28.338737 13.429271 -1.9413018
28.380808 13.236573 -1.9385314
28.330877 13.002236 -1.9294645
28.360096 12.805567 -1.9260014
0 0 -0
28.259945 12.345112 -1.9084343
28.244379 12.132483 -1.9022007
28.197849 11.908086 -1.8939524
28.286057 11.741347 -1.8950227
28.083115 11.455607 -1.8763223
28.140833 11.278251 -1.8755037
28.02099 11.031154 -1.8627218
28.079771 10.855773 -1.8621552
28.047882 10.646086 -1.8555439
27.971458 10.421172 -1.8460362
28.062057 10.259285 -1.8478621
0 0 -0
28.069101 9.8730831 -1.8400545
27.946117 9.6375437 -1.8278394
27.932871 9.4415989 -1.8230541
27.970381 9.2634392 -1.8217318
0 0 -0
27.955444 8.8793182 -1.8133575
27.860729 8.6613979 -1.803535
27.908577 8.4888325 -1.8032202
27.745863 8.253685 -1.7891161
27.940689 8.1253672 -1.7986238
27.739458 7.8825693 -1.78219
27.635361 7.670042 -1.7722416
27.61351 7.4817982 -1.7677711
27.64539 7.3086529 -1.7668896
27.681982 7.1368928 -1.7663858
27.73106 6.9683642 -1.7667637
27.787836 6.8016381 -1.7677081
27.852346 6.6365595 -1.7692193
27.93824 6.4761286 -1.7721786
28.030998 6.316648 -1.7756417
28.056555 6.1417599 -1.7748231
28.111282 5.9732265 -1.7759565
28.144472 5.8000221 -1.7757676
28.165829 5.624485 -1.7748861
28.176294 5.4470105 -1.7733749
28.254313 5.2824588 -1.7762713
28.199766 5.0933828 -1.7707304
28.358303 4.9425349 -1.7789159
28.429434 4.775383 -1.7815603
28.430613 4.5963931 -1.7797973
28.413902 4.4149632 -1.7769639
28.495735 4.2487788 -1.7804899
28.515341 4.0730052 -1.7801121
28.61198 3.9078219 -1.7847086
28.694798 3.7399285 -1.7884865
28.732061 3.565634 -1.789431
28.798002 3.3945282 -1.7922643
28.848043 3.221086 -1.7941533
28.908949 3.0484133 -1.7967978
7.5826516 0.75227064 -0.44356033
7.5642695 0.70360309 -0.44211212
7.4729943 0.64888322 -0.43606752
7.4062057 0.59731746 -0.43159702
7.4047551 0.55149168 -0.43128219
7.3980427 0.50536585 -0.43065256
7.3810821 0.45872363 -0.42939326
7.3558574 0.41186184 -0.42763025
7.3333268 0.3654761 -0.42605612
7.3314428 0.32029831 -0.42580426
7.3183103 0.27474496 -0.42485979
7.3378139 0.23040023 -0.42599317
7.370018 0.1861548 -0.42794508
7.3700237 0.14091058 -0.42788211
7.3707495 0.095686316 -0.42788211
7.3791819 0.050513536 -0.42838582
7.3923273 0.0052446816 -0.42920437
7.4590864 -0.040473115 -0.43342301
7.466681 -0.086332329 -0.43392673
7.5647988 -0.13388862 -0.44016021
7.575808 -0.18058759 -0.44091579
7.6384015 -0.22897902 -0.44494554
7.6657767 -0.27688625 -0.44677153
25.09273 -1.0596379 -1.5473317
24.988064 -1.2088596 -1.5411611
24.9732 -1.3617804 -1.5407203
20.262386 -1.2297181 -1.2435269
24.931705 -1.6666068 -1.5392722
24.976749 -1.8236223 -1.5427982
25.020805 -1.9812533 -1.5463243
25.028065 -2.1364381 -1.5475835
19.952749 -1.8266686 -1.2269043
19.911367 -1.9461501 -1.2250153
19.907986 -2.0692158 -1.225582
25.169476 -2.772191 -1.5603653
10.591345 -1.2325957 -0.63553971
10.579619 -1.2970741 -0.63528788
10.556614 -1.3600527 -0.63434339
10.533235 -1.4227978 -0.63339889
10.55494 -1.4917301 -0.63535082
10.542627 -1.556029 -0.63516194
13.856106 -2.1319029 -0.84729004
13.847691 -2.2176712 -0.84760487
24.764463 -4.1216483 -1.546702
14.370168 -2.4825647 -0.88286507
13.632607 -2.4414032 -0.836586
13.665453 -2.5339196 -0.83967131
24.226545 -4.6458373 -1.5191234
24.174088 -4.7897463 -1.5176123
24.089487 -4.9267879 -1.5140862
23.993376 -5.0607066 -1.5098677
23.926764 -5.200202 -1.5076009
23.862265 -5.3397245 -1.5055231
23.770699 -5.4726062 -1.5017452
23.693939 -5.6082439 -1.4989747
23.585381 -5.7355995 -1.4941894
23.459692 -5.8577256 -1.4883337
23.374001 -5.9889288 -1.4851226
23.325232 -6.1291924 -1.4843669
8.1873236 -2.2054522 -0.49777293
0 -0 -0
7.835021 -2.2140419 -0.47649086
8.0187883 -2.3191855 -0.4894616
8.010149 -2.3700428 -0.48983938
7.9811273 -2.4148128 -0.48889491
7.9814157 -2.468456 -0.48990235
8.2420959 -2.6045799 -0.50816208
22.315968 -7.2022333 -1.4422436
7.8322558 -2.5812173 -0.48310214
22.171986 -7.457408 -1.4386545
22.09749 -7.5835938 -1.4367656
22.010981 -7.7051902 -1.4341211
18.969603 -6.7715225 -1.2335784
21.835989 -7.9460526 -1.4288321
21.781206 -8.0778036 -1.4284543
18.280657 -6.9075422 -1.1957368
18.514559 -7.1260457 -1.2144372
18.482565 -7.2442489 -1.2152557
18.662088 -7.4470286 -1.2304932
21.325294 -8.661768 -1.4149798
21.24592 -8.7817802 -1.4132168
21.183357 -8.9084959 -1.4126501
21.11545 -9.0328121 -1.4117687
21.056883 -9.1610098 -1.4115797
20.997538 -9.2888279 -1.4113908
20.965633 -9.4289532 -1.4131539
21.248671 -9.7134247 -1.4368286
21.119883 -9.8116655 -1.4320433
20.996105 -9.9112482 -1.4276357
20.796312 -9.9734335 -1.4179392
20.682686 -10.0755 -1.4142872
20.593637 -10.18894 -1.4123982
20.512005 -10.305699 -1.4110759
20.437716 -10.425922 -1.4103204
20.382221 -10.555719 -1.4109501
20.313536 -10.678726 -1.4106982
20.212408 -10.784375 -1.4081796
12.953669 -7.0140672 -0.89218384
19.971832 -10.972972 -1.4004979
19.872744 -11.077818 -1.3982311
19.765305 -11.17744 -1.3953978
12.493682 -7.166976 -0.87153143
12.589219 -7.3248057 -0.88173169
12.601627 -7.435894 -0.88595033
19.389982 -11.602258 -1.3884087
18.462608 -11.201787 -1.3252552
12.338512 -7.5902452 -0.8767575
18.929247 -11.805104 -1.3702749
18.729918 -11.841036 -1.3608302
18.626659 -11.936353 -1.3585634
18.534655 -12.03846 -1.3571782
18.451269 -12.145924 -1.3564856
18.35647 -12.245618 -1.3549745
18.199131 -12.302688 -1.3487409
18.049196 -12.363366 -1.3430741
17.939381 -12.450551 -1.3404926
17.834074 -12.540299 -1.3382888
17.712084 -12.617643 -1.3348258
17.592247 -12.695717 -1.3315516
17.431835 -12.743346 -1.3251292
17.254662 -12.777016 -1.3173845
17.157576 -12.868876 -1.3159363
17.025043 -12.933462 -1.3117177
16.905024 -13.006645 -1.3085065
16.794983 -13.086818 -1.3061138
16.713585 -13.189005 -1.3060509
16.599598 -13.265142 -1.3034064
16.443413 -13.306478 -1.2973617
16.311277 -13.366007 -1.293269
16.207453 -13.447995 -1.2915061
16.088718 -13.517016 -1.2885467
15.924896 -13.546936 -1.2818724
15.775684 -13.587731 -1.2763945
15.66268 -13.658692 -1.2739389
15.506005 -13.690468 -1.2678313
15.389714 -13.756754 -1.2651238
15.302055 -13.848246 -1.264872
15.227834 -13.951989 -1.2658165
15.1295 -14.033626 -1.2647461
15.020553 -14.105016 -1.2627941
14.907683 -14.17216 -1.2605274
14.798871 -14.242604 -1.2586385
14.689756 -14.312246 -1.2567495
14.527053 -14.328526 -1.2501382
14.389424 -14.368032 -1.2457306
14.300291 -14.455343 -1.2456677
14.191096 -14.522117 -1.2438418
14.048351 -14.553628 -1.2389934
13.918153 -14.596939 -1.2352785
13.811903 -14.664628 -1.2337674
13.720983 -14.74837 -1.2337044
6.9446368 -7.5573754 -0.61035383
13.080144 -14.410182 -1.1906365
12.987481 -14.48571 -1.1902587
6.7494349 -7.6219101 -0.60512775
6.6821713 -7.6398935 -0.60317588
6.605155 -7.6460109 -0.60027945
13.172231 -15.437802 -1.2431492
13.084975 -15.527493 -1.2439047
12.965194 -15.57834 -1.2415121
6.4922037 -7.899097 -0.60789818
12.788142 -15.754866 -1.2430232
12.675627 -15.813568 -1.2414491
12.556058 -15.862876 -1.2391824
2.0260749 -2.5927413 -0.17041942
1.9869566 -2.5751016 -0.16802676
1.968699 -2.5840697 -0.1677749
1.9510063 -2.5937083 -0.16758601
1.93565 -2.6064317 -0.16764897
1.9373268 -2.6424034 -0.16953792
1.9275147 -2.6631334 -0.17023052
11.410929 -15.967806 -1.2010257
11.274768 -15.983697 -1.1968701
11.149109 -16.013262 -1.1938478
10.048477 -14.62304 -1.0822114
10.970248 -16.17613 -1.1959256
10.824158 -16.17347 -1.1906365
10.660915 -16.142977 -1.1833327
10.562753 -16.209761 -1.1834586
10.46957 -16.28434 -1.1842141
10.384422 -16.371872 -1.1859772
10.248302 -16.378597 -1.1817585
9.9657145 -16.146475 -1.1599098
9.8410244 -16.165548 -1.1568245
9.7426767 -16.227339 -1.1569505
9.6586866 -16.313437 -1.1589024
9.5478401 -16.354294 -1.1575801
9.4264011 -16.376244 -1.1549356
9.6863117 -17.069138 -1.2010257
9.3972149 -16.799017 -1.1772251
8.919529 -16.17729 -1.1283015
8.906827 -16.391312 -1.1397611
8.7354136 -16.313683 -1.1303164
8.6034813 -16.306953 -1.1260347
8.478405 -16.311617 -1.1226346
8.5282631 -16.656483 -1.1434131
8.5238695 -16.90276 -1.1571393
8.0115862 -16.132401 -1.0992118
7.9203401 -16.197393 -1.1003451
7.858037 -16.323021 -1.1057601
8.0167341 -16.917463 -1.1439167
6.9176273 -14.832678 -0.99538302
7.5000525 -16.342445 -1.0972599
7.7729826 -17.214968 -1.1544949
7.5173078 -16.924866 -1.1311979
7.4444804 -17.042007 -1.1361091
7.3511958 -17.113958 -1.1379352
7.2646856 -17.202873 -1.1409574
7.1555505 -17.238829 -1.1403908
7.2927828 -17.878445 -1.181003
7.1899996 -17.940456 -1.1821992
7.0717406 -17.963806 -1.180814
6.9333119 -17.934252 -1.1759028
6.7225537 -17.711468 -1.1580209
6.6266441 -17.786985 -1.1603506
6.550622 -17.918234 -1.1664581
6.4614449 -18.016335 -1.1703619
6.179894 -17.569843 -1.1378721
5.9922519 -17.376278 -1.1224458
5.8704996 -17.368282 -1.1194865
6.0876431 -18.381699 -1.184466
5.8478594 -18.027588 -1.1585245
5.771275 -18.170614 -1.1656396
5.6267853 -18.099899 -1.1586505
5.4993563 -18.080614 -1.1551244
5.3883119 -18.114017 -1.1551244
5.2714911 -18.127571 -1.1538652
5.241189 -18.444696 -1.1725657
5.1476674 -18.547672 -1.1772251
4.0327821 -14.88473 -0.93575543
3.9383142 -14.897616 -0.93499988
4.664113 -18.091326 -1.1415241
4.5552082 -18.128315 -1.1420908
4.4339228 -18.11521 -1.1394463
4.313664 -18.104212 -1.1369907
4.2036247 -18.135201 -1.1373055
4.1172824 -18.271643 -1.1444834
4.0603714 -18.549068 -1.1607913
0.51325029 -2.4172246 -0.1187254
3.6749043 -17.833115 -1.111553
0.48139861 -2.4125755 -0.11803278
0.46753347 -2.4203832 -0.11834761
0.4541409 -2.4310546 -0.11885133
3.2636485 -18.07016 -1.1213124
0.49179506 -2.823822 -0.14365941
0.47627786 -2.8376131 -0.14435203
0.45519385 -2.817822 -0.14290385
0.43620974 -2.8097138 -0.14221123
0.4198446 -2.8182602 -0.14258902
0.39732224 -2.7842278 -0.14025933
0.38711956 -2.8370438 -0.14347053
0.36235157 -2.7829559 -0.13988154
0.34219575 -2.7603664 -0.13830742
0.33284691 -2.8268392 -0.14240013
0.31593853 -2.8327956 -0.14265199
0.29855087 -2.8346808 -0.14265199
0.19390778 -1.9575349 -0.086928219
0.18189292 -1.9586878 -0.086928219
0.17108062 -1.9736868 -0.087809727
0.62774503 -7.7832274 -0.45546064
0.145364 -1.9557325 -0.086550429
0.13349725 -1.9585789 -0.086676359
0.12116732 -1.9543808 -0.086361535
0.10794456 -1.9331656 -0.084976308
0.096080847 -1.9337915 -0.084976308
0.083908215 -1.9273652 -0.084535562
0.071930565 -1.9238545 -0.084283702
0.060218789 -1.9272522 -0.084472597
0.055008899 -2.1889818 -0.10096934
0.036506508 -1.9248526 -0.084283702
0.024916304 -1.9420052 -0.085354097
0.013158288 -1.9650753 -0.086802289
0.0010441719 -1.8912659 -0.082142897
-0.010555075 -1.8902388 -0.082079932
-0.021957915 -1.8731732 -0.081009537
-0.033046085 -1.8500525 -0.079561345
-0.04465821 -1.8607899 -0.080253959
-0.055627178 -1.8455173 -0.079309486
-0.12482997 -3.4499052 -0.1806197
-0.077007577 -1.8147819 -0.077420548
-0.090069786 -1.8541492 -0.079939134
-0.93848151 -17.208191 -1.0500994
-1.1187532 -18.433392 -1.1279237
-1.1525766 -17.240189 -1.0529327
-0.24613211 -3.3663294 -0.17577142
-0.23953031 -3.0205195 -0.15398563
-0.25984159 -3.0398753 -0.15530789
-0.35208189 -3.8422575 -0.20624633
-0.37487441 -3.8320787 -0.20574261
-0.30584866 -2.9392812 -0.14926328
-0.42755246 -3.8787749 -0.20901679
-0.45192081 -3.8810351 -0.2093316
-0.45314336 -3.6939368 -0.19762017
-0.45795217 -3.5525093 -0.18880512
-0.48321384 -3.5753474 -0.19044219
-0.53711671 -3.7986131 -0.20486112
-0.39914063 -2.7022769 -0.13515918
-0.46548498 -3.0233204 -0.15581161
-0.48560485 -3.030262 -0.15644126
-0.63755012 -3.828589 -0.20769453
-0.53243697 -3.0801313 -0.16003025
-0.54903954 -3.0640354 -0.1592117
-3.6660542 -19.772045 -1.2315006
-3.2099366 -16.738129 -1.0380731
-3.3193679 -16.752382 -1.0402769
-0.5408864 -2.6428823 -0.13301839
-0.55276757 -2.6190066 -0.13169612
-0.86024851 -3.9565365 -0.2182726
-4.020637 -17.967051 -1.1243978
-4.6665854 -20.269419 -1.2750722
-4.2470241 -17.942579 -1.1260978
-4.1209888 -16.945457 -1.0630701
-0.69496733 -2.7818296 -0.14372239
-0.72193104 -2.8161848 -0.14624096
-0.6022408 -2.2904661 -0.11224003
-1.0966936 -4.0704942 -0.22878771
-0.63003755 -2.2819412 -0.11217707
-0.92622846 -3.2768688 -0.17766036
-0.95158499 -3.28934 -0.17885669
-0.74441069 -2.5149541 -0.12829603
-0.77976775 -2.5762522 -0.1326406
-0.72745371 -2.3511672 -0.11809575
-1.0602868 -3.3544507 -0.18477537
-6.0362554 -18.702999 -1.2027258
-1.3499904 -4.0957017 -0.23489527
-1.3725505 -4.0797734 -0.23439156
-1.4001492 -4.0788269 -0.23489527
-0.73337626 -2.093899 -0.10279533
-0.74520391 -2.08654 -0.10260643
-1.4981959 -4.116138 -0.23917688
-1.5286291 -4.1209035 -0.24012135
-1.5489472 -4.0983763 -0.23923984
-1.5858947 -4.1195316 -0.24131767
-1.1770415 -3.0021186 -0.16626374
-1.1676996 -2.925319 -0.1615414
-1.3707747 -3.3739562 -0.19258299
-1.3861141 -3.3525691 -0.19170149
-1.240304 -2.9484091 -0.16462667
-1.2454189 -2.9104626 -0.16254883
-1.3034651 -2.9951978 -0.16890827
-1.3169739 -2.976191 -0.16815269
-1.764601 -3.9228642 -0.23420267
-1.5654163 -3.4236305 -0.20032765
-1.4993562 -3.2266014 -0.18729396
-0.86646688 -1.8346785 -0.090832032
-1.8473951 -3.8513806 -0.23231372
-1.9313064 -3.9637897 -0.24100286
-1.7635212 -3.5636404 -0.21367617
-0.90988708 -1.8101864 -0.090643138
-0.92324454 -1.8090144 -0.090957962
-0.93524498 -1.8050879 -0.091083892
-0.94630319 -1.7993155 -0.091083892
-1.3928204 -2.6097267 -0.14945216
-0.96688676 -1.7849344 -0.090894997
-0.97830123 -1.7798429 -0.090957962
-0.9906615 -1.7764218 -0.091146857
-1.5031161 -2.657289 -0.15543382
-10.065006 -17.545938 -1.2389934
-10.257295 -17.629637 -1.2496345
-10.389112 -17.606766 -1.2525939
-10.444681 -17.455334 -1.2461715
-5.1004806 -8.4061117 -0.58315307
-1.5455234 -2.5117562 -0.14888549
-1.5397819 -2.4683521 -0.14636689
-5.0815587 -8.0374832 -0.56275249
-5.2018566 -8.1170712 -0.57106388
-1.3522929 -2.0813656 -0.119418
-1.351869 -2.0530217 -0.11790685
-1.3843786 -2.0745769 -0.12017358
-1.3819911 -2.0437191 -0.11847354
-1.3922492 -2.0319073 -0.11822168
-1.4394009 -2.0733409 -0.12206253
-1.3849326 -1.9689509 -0.11469565
-1.3691939 -1.9213986 -0.11167335
-1.3879658 -1.9226727 -0.11242893
-1.4244738 -1.9479594 -0.11507344
-1.4696581 -1.9840981 -0.11859947
-1.5327039 -2.0429077 -0.12395146
-1.4788028 -1.9460458 -0.11702535
-1.4456817 -1.8784014 -0.11236596
-1.4737421 -1.8907512 -0.114066
-1.574959 -1.9952765 -0.12319589
-1.6133392 -2.018321 -0.12584041
-1.63511 -2.0200212 -0.12678488
-1.6632874 -2.0292492 -0.12835899
-1.6808056 -2.0251498 -0.12886271
-1.691274 -2.012506 -0.12867382
-1.7094105 -2.0089324 -0.1292405
-1.7230076 -1.9999182 -0.12936643
-1.7299989 -1.9832909 -0.12886271
-1.7427962 -1.9733866 -0.12892568
-2.2969353 -2.5690873 -0.18024191
-2.1720266 -2.3995466 -0.16701932
-2.2183959 -2.4207602 -0.16997866
-2.2542472 -2.429786 -0.17193057
-3.0110352 -3.2060177 -0.24031024
-2.3423424 -2.4634235 -0.17728257
-2.4293864 -2.5237913 -0.1838309
-3.0444653 -3.1243169 -0.23804352
-16.138739 -16.362419 -1.4127761
-3.2370074 -3.2413886 -0.25183278
-2.4650502 -2.4381425 -0.18156417
-2.486388 -2.4292493 -0.18213086
-2.5594084 -2.4700918 -0.18723099
-2.5766833 -2.4564073 -0.18741989
-3.4867508 -3.2835829 -0.26499242
-2.6044409 -2.4225631 -0.18723099
-3.0976367 -2.8461654 -0.22822101
-2.6731389 -2.4259722 -0.19056812
-3.3240428 -2.9798293 -0.24446592
-3.6224434 -3.2075043 -0.26807767
-2.6121736 -2.2843668 -0.18175307
-3.6418962 -3.1458459 -0.2664406
-17.328205 -14.785271 -1.3999313
-3.340621 -2.8147216 -0.23842131
-3.4429758 -2.8650379 -0.24541038
-3.4327347 -2.8210442 -0.24314366
-3.4213097 -2.7766559 -0.24081396
-4.1188765 -3.3011744 -0.29584512
-4.1429672 -3.2789364 -0.29615995
-4.1567178 -3.2485371 -0.29565623
-3.8242013 -2.9510109 -0.26757395
-18.222647 -13.886147 -1.4082426
-11.25448 -8.4673738 -0.85138273
-11.315036 -8.4047041 -0.85207534
-3.0399728 -2.2288866 -0.20064248
-2.9986203 -2.1703947 -0.19636087
-3.0232489 -2.1600785 -0.19724238
-3.0853775 -2.1760049 -0.20102027
-3.0642715 -2.133081 -0.19837575
-3.0797696 -2.1159344 -0.19856465
-3.0951726 -2.0986781 -0.19875354
-3.1137974 -2.0835326 -0.1991943
-3.1273561 -2.0649374 -0.19925725
-19.867062 -12.946065 -1.4588662
-3.6653786 -2.3561862 -0.23772869
-5.7142119 -3.6241269 -0.38972551
-5.7321115 -3.58635 -0.38941067
-3.6979361 -2.2820289 -0.23697312
-3.7101638 -2.2582579 -0.23684719
-3.7230947 -2.2349365 -0.23678422
-3.7633598 -2.2278128 -0.23873612
-3.7442074 -2.1855578 -0.23634347
-3.8276079 -2.2028725 -0.2414436
-3.8939993 -2.2093928 -0.24528445
-3.8674171 -2.1630447 -0.24238808
-3.9015915 -2.1508393 -0.24389923
-3.8656089 -2.100174 -0.24037321
-3.8696244 -2.0717041 -0.23974356
-3.9122746 -2.0637562 -0.24188437
-3.9222074 -2.0383313 -0.24169546
-3.9373055 -2.0155911 -0.24188437
-4.32832 -2.1823893 -0.26864436
-4.4086685 -2.1890845 -0.27336672
-7.6218286 -3.7267511 -0.49808776
-7.6454511 -3.6803472 -0.49815071
-4.4157481 -2.0921781 -0.27109998
-5.7128568 -2.6640766 -0.36050987
-5.7427011 -2.6352174 -0.36145434
-22.449621 -10.136691 -1.5168567
-22.527815 -10.006044 -1.5179901
-5.862484 -2.5606294 -0.36642855
-5.7515407 -2.4702499 -0.35773942
-5.8162365 -2.4558797 -0.36113951
-22.725111 -9.4329519 -1.5151566
-22.728043 -9.2710953 -1.5114417
-9.587285 -3.8420968 -0.61444652
-9.6171789 -3.7857573 -0.6148873
-22.756144 -8.7975521 -1.5020601
-22.7957 -8.6524448 -1.5011156
-22.840879 -8.5096226 -1.5006118
-22.92547 -8.3813076 -1.5028156
-23.208502 -8.3237057 -1.5183679
-13.376542 -4.7048707 -0.85742736
-14.222216 -4.9044886 -0.91195476
-7.7926474 -2.6336911 -0.4817799
-7.7887654 -2.5792372 -0.48045763
-7.8110895 -2.5335534 -0.48089838
-14.436266 -4.5851007 -0.91844016
-14.47747 -4.5005832 -0.91932166
-14.544915 -4.4238648 -0.92196614
-14.501955 -4.3137617 -0.91736972
-14.544442 -4.2294359 -0.91844016
-14.69684 -4.1761246 -0.92675149
-9.69559 -2.6906881 -0.59763497
-9.7013216 -2.6282754 -0.59694237
-9.7076168 -2.5661488 -0.5963127
-12.898804 -3.3253136 -0.80321473
-13.256769 -3.3309953 -0.82518941
-13.09762 -3.2056913 -0.81354094
-13.085977 -3.1178625 -0.81152606
-13.17389 -3.0535116 -0.81599659
-13.377361 -3.0143087 -0.82795984
-11.498398 -2.5168314 -0.70543051
-15.220325 -3.2339032 -0.94450754
-15.210556 -3.1344087 -0.94261861
-15.091507 -3.0134609 -0.93374056
-15.150867 -2.928761 -0.9363851
-15.255863 -2.8520668 -0.94198895
-15.291737 -2.7617755 -0.94318527
-15.140268 -2.6385903 -0.93241829
-15.498684 -2.6031792 -0.95433003
-15.455252 -2.4984744 -0.95055217
-15.43183 -2.397619 -0.94809651
-15.411703 -2.2977343 -0.94589275
-15.289169 -2.18365 -0.93720365
-15.694847 -2.1434186 -0.96220058
-15.914538 -2.0740373 -0.97536021
-16.293419 -2.0218303 -0.99865717
-16.690086 -1.9671535 -1.0230875
-27.128174 -3.0290265 -1.6849725
-27.287186 -2.8773777 -1.6939135
-27.320217 -2.7114699 -1.6949209
-27.503286 -2.5593226 -1.7054989
-30.900978 -2.6844037 -1.9197049
-0 -0 -0
-30.887802 -2.3017352 -1.9169345
-30.901344 -2.1121678 -1.9169345
-30.888821 -1.920972 -1.9153603
-30.871128 -1.729786 -1.9135344
-0 -0 -0
-30.813257 -1.3474612 -1.908686
-30.733181 -1.1550696 -1.9031452
-30.755651 -0.96697468 -1.9041526
-25.516491 1.8860779 -1.8954399
-25.499468 2.0422103 -1.8950633
-25.482483 2.1982908 -1.8947619
-25.43277 2.3513007 -1.8920501
-25.402979 2.5058398 -1.8909203
-25.387125 2.6616626 -1.8909203
-25.352476 2.815403 -1.8895644
-25.330763 2.9704452 -1.889263
-25.310081 3.1255713 -1.8891125
-25.299326 3.2819672 -1.8897904
-25.251047 3.4333761 -1.8876812
-25.242338 3.590075 -1.8886604
-25.191231 3.7406428 -1.886476
-25.158936 3.8937697 -1.8857981
-25.082394 4.0396628 -1.8818058
-25.034515 4.189703 -1.8800732
-24.985739 4.3393078 -1.8783407
-24.92724 4.4868813 -1.8759302
-24.872772 4.6348143 -1.8738965
-24.847782 4.7880983 -1.8741977
-24.840427 4.9449501 -1.8759302
-24.807665 5.0968738 -1.8757796
-24.809092 5.2560229 -1.8783407
-24.874769 5.4296322 -1.8859487
-24.897413 5.5948415 -1.8903177
-24.908276 5.7580614 -1.8938581
-24.946207 5.9283123 -1.8995829
-24.963608 6.0945139 -1.9038012
-24.960564 6.2563024 -1.906513
-24.990273 6.4269772 -1.9118612
-25.006289 6.5949445 -1.9162301
-25.014444 6.7615285 -1.9200717
-24.998432 6.9220729 -1.9221056
-25.079243 7.1104226 -1.9318228
-25.046635 7.2675071 -1.9327266
-25.090471 7.4474459 -1.9397321
-24.986097 7.5835891 -1.9351372
-25.192425 7.8153605 -1.9551741
-25.171562 7.9785299 -1.9573585
-25.254948 8.1758318 -1.9679043
-25.266792 8.3512964 -1.9728758
-25.309559 8.5380507 -1.9804085
-25.355694 8.7272663 -1.9883178
-25.11632 8.8176031 -1.9734784
-25.411917 9.0969191 -2.0015755
-25.393089 9.2663479 -2.0045884
-25.411457 9.450139 -2.01069
-25.37071 9.6125965 -2.0121212
-25.369858 9.7907076 -2.0168667
-25.363132 9.9673452 -2.0212357
-25.344084 10.139824 -2.0247006
-25.334953 10.316956 -2.0290697
-25.343945 10.502375 -2.0350204
-25.357126 10.690615 -2.0414233
-25.356119 10.873909 -2.0467715
-25.374836 11.066761 -2.0538521
-25.359324 11.245698 -2.0582211
-25.335295 11.42158 -2.0619874
-25.310062 11.597591 -2.0657537
-25.311644 11.786772 -2.0718553
-25.29653 11.969156 -2.0766761
-25.215424 12.120691 -2.0760736
-25.193443 12.300998 -2.0805178
-25.088011 12.44073 -2.078032
-24.944408 12.560795 -2.0723825
-24.803833 12.681382 -2.0670342
-24.663601 12.801179 -2.0617614
-24.544893 12.931354 -2.0583718
-24.422878 13.059144 -2.0547562
-24.31249 13.192583 -2.0521951
-24.183916 13.31554 -2.0481274
-24.043434 13.431095 -2.0430803
-23.926735 13.559195 -2.0401428
-23.811102 13.687363 -2.0373557
-23.703411 13.819646 -2.0353217
-23.595852 13.951631 -2.0333633
-23.483292 14.080253 -2.031028
-23.370893 14.208536 -2.0287683
-23.242529 14.326553 -2.0251527
-23.128817 14.453043 -2.022893
-23.005163 14.572807 -2.0198045
-22.83812 14.664121 -2.0128744
-22.713448 14.781675 -2.0097859
-22.582367 14.894409 -2.0061703
-22.445786 15.002768 -2.0021026
-22.327713 15.122873 -1.9997675
-22.216413 15.247174 -1.9981103
-22.092152 15.362141 -1.9953232
-21.981173 15.485919 -1.9938167
-21.863012 15.60428 -1.9917076
-21.735342 15.715348 -1.9887698
-21.592651 15.814832 -1.9844762
-21.466379 15.925633 -1.9817644
-21.307673 16.01152 -1.9760395
-21.172529 16.11418 -1.9725746
-21.034557 16.213957 -1.9688835
-20.903236 16.318171 -1.9658705
-20.765951 16.417057 -1.9623301
-20.637585 16.522352 -1.9596937
-20.509481 16.627319 -1.9571326
-20.389345 16.738297 -1.9554
-20.260187 16.841413 -1.9528389
-20.154943 16.964127 -1.9526882
-20.026188 17.066778 -1.9502778
-19.905237 17.175653 -1.9486959
-19.784456 17.284346 -1.9471895
-19.663839 17.392862 -1.9457582
-19.541149 17.49922 -1.9441763
-19.425283 17.611425 -1.9433477
-19.30657 17.720844 -1.9422932
-19.181404 17.824039 -1.9406359
-19.058605 17.9291 -1.93928
-18.929462 18.027822 -1.9373215
-18.793365 18.119408 -1.9346851
-18.654716 18.207912 -1.9318228
-0 0 -0
-18.372772 18.37834 -1.9257213
-18.230232 18.460926 -1.9225576
-18.093639 18.54888 -1.9200717
-17.97049 18.650215 -1.9190925
-17.836468 18.739904 -1.9169834
-17.706121 18.833012 -1.9153261
-17.572588 18.9223 -1.9133676
-17.433235 19.004782 -1.9108065
-17.300898 19.094397 -1.9090741
-17.174767 19.190533 -1.9080948
-17.036221 19.272394 -1.9057597
-16.905842 19.363041 -1.9044038
-16.773041 19.45055 -1.9028219
-16.642387 19.540195 -1.9015414
-16.50613 19.622866 -1.8996582
-16.365028 19.69923 -1.8972477
-16.228037 19.780001 -1.8953645
-16.084394 19.852083 -1.8927281
-15.941101 19.923927 -1.890167
-15.800624 19.998674 -1.8879825
-15.666577 20.081097 -1.8866266
-15.526638 20.155518 -1.8845928
-15.388186 20.231359 -1.882785
-15.246395 20.302275 -1.8806005
-12.49672 16.854836 -1.5476561
-14.979617 20.465311 -1.8784914
-14.837996 20.535017 -1.8764576
-14.715189 20.630545 -1.8769095
-14.599232 20.735939 -1.8783407
-14.464896 20.815302 -1.8774368
-14.329572 20.892975 -1.8764576
-14.211724 20.996197 -1.8778888
-14.08595 21.087978 -1.8783407
-13.935439 21.142372 -1.8754783
-13.814692 21.241692 -1.8767588
-13.675479 21.312628 -1.8755536
-11.480532 18.135439 -1.5840389
-11.423965 18.293505 -1.5918728
-11.450079 18.588253 -1.6118344
-11.441422 18.832014 -1.6272011
-11.469661 19.142227 -1.648368
-11.446839 19.372787 -1.6624541
-12.706079 21.808659 -1.8693014
-12.570534 21.883617 -1.8690755
-9.5819006 16.919802 -1.4315021
-12.317566 22.065834 -1.8716366
-12.171846 22.12265 -1.8700547
-12.02637 22.179386 -1.8685483
-11.256179 21.066305 -1.7669324
-11.236324 21.343216 -1.7847095
-11.242869 21.67732 -1.8073075
-10.556236 20.662529 -1.7154088
-10.635408 21.136667 -1.7500591
-10.501532 21.193485 -1.7493812
-10.573714 21.672466 -1.7842575
-10.763437 22.409294 -1.8406019
-10.589084 22.397387 -1.8341238
-9.284646 19.953959 -1.6251673
-10.243289 22.372417 -1.8213936
-9.9579935 22.106628 -1.7942007
-9.8136797 22.148169 -1.7926188
-9.7779703 22.438334 -1.8116012
-9.812892 22.901203 -1.8447449
-9.6474161 22.902168 -1.839924
-9.5520983 23.07057 -1.8488879
-9.3994637 23.101961 -1.8467034
-9.2638264 23.17494 -1.847984
-9.1148949 23.21464 -1.8466281
-8.95327 23.220818 -1.8426358
-8.8017969 23.252003 -1.8407526
-8.657918 23.302767 -1.8405267
-8.5123816 23.348894 -1.8399993
-8.3773489 23.42416 -1.8418826
-8.2466621 23.51276 -1.8448956
-8.0610619 23.443159 -1.8353291
-7.8693042 23.350435 -1.82403
-7.7089996 23.347149 -1.8199624
-7.5422835 23.321903 -1.8142376
-7.38309 23.317358 -1.8102453
-7.2035785 23.245066 -1.8009801
-7.0313077 23.191492 -1.7932967
-6.8758383 23.19022 -1.7898318
-6.7187066 23.181211 -1.7858394
-6.5698233 23.198975 -1.7840315
-6.4177856 23.20425 -1.7813197
-6.2609935 23.190243 -1.7771769
-6.1135039 23.208939 -1.7756703
-5.9694934 23.240217 -1.7752182
-5.8277502 23.280277 -1.7755196
-5.6864486 23.32238 -1.7760469
-5.54531 23.365564 -1.7767248
-5.3973522 23.379717 -1.7752182
-5.2459369 23.377367 -1.7725066
-5.0953908 23.376965 -1.7700207
-4.9431906 23.366814 -1.766857
-4.7923088 23.360563 -1.7640699
-4.6403298 23.346495 -1.7607555
-4.4924712 23.351027 -1.7589477
-2.7273054 14.657955 -1.0889158
-2.6249728 14.605712 -1.083643
-2.4946067 14.386724 -1.0656399
-2.3788545 14.237508 -1.0530602
-2.288444 14.23313 -1.0516291
-2.1984811 14.230151 -1.0503484
-2.1090796 14.229564 -1.0492939
-2.011364 14.169178 -1.0437196
-1.9046872 14.036 -1.0326467
-1.8194236 14.054345 -1.0331739
-1.7711765 14.374026 -1.0566759
-1.6698611 14.272707 -1.048164
