# .PCD v0.7 - Point Cloud Data file format
VERSION 0.7
FIELDS x y z
SIZE 4 4 4
TYPE F F F
COUNT 1 1 1
WIDTH 1506
HEIGHT 1
VIEWPOINT 0 0 0 1 0 0 0
POINTS 1506
DATA ascii
-13.501582 -2.4266257 -0.99890023
-13.649839 -2.3668942 -1.0091447
-13.63755 -2.2786613 -1.0071108
-13.655213 -2.1955726 -1.0074122
-13.769932 -2.127418 -1.0151708
-13.991842 -2.0738647 -1.0311401
-14.470297 -2.0540838 -1.0666944
-14.508319 -1.9687412 -1.0686529
-15.975812 -2.0680089 -1.179534
-16.621597 -2.04794 -1.227743
-22.667446 -2.6513283 -1.6866339
-22.700136 -2.5140588 -1.6879145
-23.090021 -2.4138987 -1.7163881
-23.903259 -2.3506982 -1.7770262
-25.870378 -2.3838742 -1.925194
-0 -0 -0
-25.806236 -2.0589333 -1.9182639
-25.839268 -1.9020869 -1.9198458
-25.868361 -1.7447113 -1.9212017
-25.888533 -1.5865626 -1.9219549
-25.902758 -1.427958 -1.9223316
-25.911032 -1.2689948 -1.9223316
-25.909365 -1.1096002 -1.9216536
-25.903727 -0.95016438 -1.9207497
-25.90608 -0.79111302 -1.9205238
-25.878546 -0.63136458 -1.9181132
-25.862989 -0.47221991 -1.916682
-25.857424 -0.31342235 -1.9160794
-25.850883 -0.1547109 -1.9154768
-25.833397 0.0039065192 -1.9141209
-25.818928 0.16232879 -1.9130664
-25.813457 0.32069796 -1.912765
-25.801033 0.47889483 -1.9120117
-25.783653 0.63685262 -1.9109572
-25.768297 0.79470754 -1.9101286
-25.740017 0.9519552 -1.9083961
-25.726717 1.109574 -1.9078689
-25.689547 1.2659355 -1.905609
-25.642466 1.4213856 -1.9026712
-25.611364 1.5773486 -1.9010141
-25.572353 1.7325113 -1.8988296
-22.266411 -0.56710839 -1.9150424
-22.260508 -0.43030015 -1.9142565
-22.252768 -0.29357255 -1.9133831
-22.237217 -0.1569068 -1.9118986
-22.234772 -0.020456046 -1.9116366
-22.228502 0.11594327 -1.9111125
-22.214422 0.25218582 -1.9099773
-22.203493 0.3883296 -1.9091914
-22.188742 0.52427822 -1.9081434
-22.179132 0.66023815 -1.9076194
-22.163712 0.79592127 -1.9066588
-22.143482 0.93127263 -1.9053488
-22.11944 1.0662619 -1.9037769
-22.104525 1.2015318 -1.9030783
-22.082813 1.3362978 -1.9018557
-22.058296 1.4707102 -1.9004583
-22.034946 1.6050167 -1.8992357
-22.022697 1.7400335 -1.8990611
-0 0 -0
-21.963972 2.0068922 -1.8959173
-21.92745 2.1393018 -1.8938214
-21.906975 2.2730863 -1.8932101
-21.852016 2.4029984 -1.8896295
-21.81608 2.5346208 -1.8877956
-21.777374 2.6656506 -1.885787
-21.756657 2.7987156 -1.8854377
-21.73315 2.9313605 -1.8849137
-21.723633 3.0659101 -1.8856996
-21.712296 3.2003081 -1.8863983
-21.700127 3.3346822 -1.887097
-21.675323 3.4671397 -1.8867476
-21.651676 3.599745 -1.886573
-21.615437 3.7301579 -1.8853503
-21.575472 3.8597355 -1.8838657
-21.533752 3.9887819 -1.8822938
-21.481476 4.1155877 -1.8798486
-21.424549 4.241128 -1.8770541
-21.375673 4.3679204 -1.8750454
-21.332874 4.4957104 -1.8736482
-21.296125 4.624619 -1.8728622
-21.26832 4.7554202 -1.8729496
-21.243595 4.8869472 -1.8733861
-21.23163 5.0215592 -1.8750454
-21.177185 5.1460948 -1.8729496
-21.191607 5.2875133 -1.8771414
-21.115335 5.4063249 -1.8732115
-21.175228 5.5603242 -1.8816825
-21.239792 5.7168145 -1.8906775
-21.174543 5.8388233 -1.8879702
-21.182419 5.9810891 -1.8919874
-21.140535 6.1095667 -1.8915508
-21.138952 6.2498999 -1.8948693
-21.140255 6.3915963 -1.8985372
-21.172974 6.5435438 -1.9051741
-21.165672 6.6838341 -1.9082307
-21.182096 6.832231 -1.9135578
-21.19087 6.9788995 -1.9182736
-21.197695 7.1256151 -1.9229021
-21.206343 7.2736459 -1.9277925
-21.193283 7.414813 -1.9307617
-21.187733 7.5591059 -1.9345169
-21.206486 7.7128024 -1.94063
-21.186785 7.8531642 -1.9432499
-21.197844 8.0055399 -1.9488389
-21.210617 8.1594191 -1.9546901
-21.203749 8.306489 -1.9587946
-21.208824 8.4589472 -1.9641217
-21.215595 8.6129036 -1.9697107
-21.193653 8.7558498 -1.97268
-21.178101 8.9019384 -1.9763478
-21.147812 9.0422916 -1.9787058
-21.13578 9.1909494 -1.9828975
-21.122721 9.3397999 -1.9870894
-21.084097 9.477807 -1.9889233
-21.124308 9.6521235 -1.9984422
-21.077335 9.7874308 -1.9996648
-21.073643 9.9433546 -2.0051665
-21.036489 10.084099 -2.0075245
-21.02527 10.237844 -2.0125022
-20.987059 10.379025 -2.0149474
-20.979065 10.535769 -2.0204492
-20.975258 10.695518 -2.026475
-20.95347 10.846916 -2.0308416
-20.923559 10.994741 -2.0345094
-20.895258 11.144014 -2.0384393
-20.876423 11.299042 -2.043417
-20.880047 11.467205 -2.0507526
-20.855413 11.620805 -2.0553811
-20.830547 11.775023 -2.060097
-20.805435 11.929869 -2.0648999
-20.799013 12.096367 -2.0717118
-20.806772 12.272343 -2.0800953
-20.697737 12.379838 -2.0766895
-20.636719 12.515903 -2.0782614
-20.53747 12.628724 -2.0759909
-20.433388 12.738166 -2.0732837
-20.352318 12.861707 -2.0730217
-20.207586 12.944432 -2.06621
-20.096867 13.048109 -2.0629787
-19.961502 13.135036 -2.057215
-19.85401 13.239585 -2.0544205
-19.724525 13.328808 -2.0493553
-19.62182 13.435514 -2.0471721
-19.500544 13.528971 -2.0430677
-19.368263 13.613998 -2.037828
-19.267324 13.720449 -2.0359938
-19.13026 13.800531 -2.0303175
-19.025114 13.902959 -2.0281343
-18.933044 14.014691 -2.0274355
-0 0 -0
-18.745356 14.235129 -2.0258636
-18.650551 14.344415 -2.0250778
-18.564541 14.460419 -2.0253396
-18.444962 14.549995 -2.0219338
-18.341328 14.651707 -2.0203619
-18.203836 14.725754 -2.0150349
-18.090788 14.818868 -2.0125022
-17.972685 14.907332 -2.0094457
-17.87096 15.009002 -2.0083106
-17.751209 15.095141 -2.0051665
-17.644665 15.192078 -2.0035946
-17.527836 15.279765 -2.0008874
-17.410599 15.366591 -1.9981803
-17.295183 15.454546 -1.9957349
-17.180084 15.542333 -1.9933771
-17.063826 15.628615 -1.9909319
-16.949347 15.71609 -1.9887487
-16.827173 15.795931 -1.985692
-16.695995 15.866631 -1.9815875
-16.568172 15.93977 -1.9779197
-16.448647 16.020279 -1.9752998
-16.322374 16.093628 -1.971894
-16.202166 16.172365 -1.9692742
-16.080906 16.249525 -1.9665669
-15.960704 16.327232 -1.9640343
-15.834618 16.398342 -1.9608032
-15.711699 16.472126 -1.9580086
-15.583006 16.539221 -1.9545155
-15.46562 16.617752 -1.9525068
-15.347183 16.694735 -1.950411
-15.234412 16.777525 -1.949101
-15.107235 16.84399 -1.9459571
-15.01747 16.952028 -1.947791
-14.898084 17.026611 -1.9457824
-14.775091 17.0966 -1.9433372
-14.649861 17.163448 -1.94063
-14.524367 17.229403 -1.9379228
-14.396705 17.29217 -1.9349536
-14.278943 17.366331 -1.9333817
-14.162069 17.441244 -1.9319844
-14.04606 17.516932 -1.9307617
-13.934603 17.598101 -1.9302378
-13.823293 17.679348 -1.9298011
-13.703596 17.74964 -1.9282292
-13.588388 17.825466 -1.9273559
-13.473367 17.901344 -1.9265699
-12.472012 16.784306 -1.7955755
-13.238533 18.046059 -1.924474
-13.121712 18.118881 -1.9236007
-12.997543 18.181225 -1.9216795
-12.877126 18.248425 -1.9203695
-12.754095 18.311563 -1.9187102
-12.627953 18.369774 -1.9166144
-12.513882 18.445263 -1.9164397
-12.39936 18.520044 -1.916265
-12.289333 18.601595 -1.9168763
-12.182037 18.6875 -1.9180117
-12.070916 18.767759 -1.918623
-11.415384 17.990253 -1.8302454
-11.352354 18.135952 -1.8381051
-11.220972 18.173059 -1.8347865
-11.551252 18.967306 -1.9092786
-11.434653 19.037827 -1.9092786
-11.299855 19.077631 -1.9062221
-11.172033 19.128542 -1.9043882
-11.043018 19.176878 -1.9023796
-9.610487 16.92865 -1.6689476
-10.788857 19.278784 -1.8991485
-10.661219 19.328047 -1.8974892
-10.536239 19.381721 -1.8963538
-10.41053 19.433712 -1.8951312
-10.286906 19.489296 -1.8943453
-10.161613 19.541441 -1.8932973
-10.038339 19.597218 -1.892686
-9.9089289 19.640656 -1.8909395
-9.7731581 19.670753 -1.8879702
-9.6465855 19.718718 -1.886835
-9.5141726 19.754202 -1.8845644
-9.3838224 19.793304 -1.8827305
-9.2516651 19.827942 -1.8805473
-9.1194372 19.861702 -1.878364
-8.9924746 19.906391 -1.877316
-8.8653078 19.950268 -1.876268
-8.7367439 19.990597 -1.8749582
-8.6080189 20.0301 -1.8736482
-8.4721603 20.052259 -1.8707663
-8.3374996 20.076267 -1.8681464
-8.1994762 20.091076 -1.8647406
-8.0715961 20.129913 -1.8636926
-7.9406276 20.160524 -1.861946
-7.8081498 20.186569 -1.8598502
-7.6714077 20.200573 -1.8567063
-7.53966 20.226727 -1.854785
-7.4106178 20.259512 -1.8535624
-7.2831402 20.296162 -1.8527764
-7.1574759 20.33765 -1.8525144
-7.0289774 20.370825 -1.8515538
-6.8993835 20.40036 -1.8503312
-6.764678 20.41394 -1.8477113
-6.6352949 20.442747 -1.846576
-6.5030975 20.462189 -1.8446548
-6.3797889 20.509315 -1.8453534
-6.2457037 20.521391 -1.8429081
-6.1316066 20.599428 -1.846576
-5.9936829 20.597446 -1.8429955
-5.8628268 20.618504 -1.8415983
-5.7346039 20.648331 -1.8410742
-5.6067576 20.679283 -1.8407249
-5.4795117 20.712334 -1.8406376
-5.3530664 20.748459 -1.8408996
-5.2263846 20.783812 -1.8411616
-5.1008921 20.824198 -1.8419476
-4.9732523 20.856073 -1.8420348
-4.8442879 20.882315 -1.8416855
-4.7156267 20.909702 -1.8415109
-4.589797 20.949919 -1.8425589
-4.4634438 20.988405 -1.8435194
-3.069912 14.884483 -1.2947402
-2.9509928 14.765303 -1.2824267
-2.8262718 14.607085 -1.2667074
-2.7215638 14.543859 -1.2595464
-2.6289055 14.541659 -1.2578871
-2.5269589 14.484897 -1.2514247
-2.4256434 14.42645 -1.244875
-2.3291202 14.391892 -1.2405086
-2.2478135 14.451193 -1.2445257
-2.1323292 14.285396 -1.2286317
-2.0062709 14.02998 -1.2048781
-1.9085375 13.957144 -1.1973677
-1.8125474 13.889568 -1.1903813
-1.7322034 13.939971 -1.1938745
-1.6573825 14.041353 -1.2019088
-1.5653266 13.998789 -1.1972804
-1.4836929 14.048747 -1.2008609
-1.4101794 14.185463 -1.2121264
-1.3115515 14.069864 -1.2012101
-1.2733208 14.630427 -1.2498528
-1.1895494 14.712436 -1.2564025
-1.133986 15.184374 -1.2972728
-1.0436561 15.232787 -1.3009406
-0.94905347 15.221008 -1.2993686
-0.86251909 15.348882 -1.3101102
-0.7216984 14.422627 -1.2283697
-0.63327664 14.428775 -1.2285444
-0.572631 15.171027 -1.2933429
-0.48312259 15.287763 -1.3032985
-0.38603529 15.161974 -1.292033
-0.2951735 15.276605 -1.3019012
-0.19039196 14.442407 -1.2286317
-0.10170097 14.433341 -1.2277584
-0.013158298 14.455609 -1.2296796
0.078491323 15.023232 -1.2794576
0.16714813 14.71168 -1.2522107
0.25617862 14.63966 -1.2460103
0.34529567 14.607935 -1.2433904
0.45186642 15.175104 -1.2933429
0.53164232 14.800711 -1.260769
0.62165278 14.778259 -1.2591097
0.71083242 14.74332 -1.2564025
0.76717603 14.111018 -1.2012975
0.85398579 14.110023 -1.2016468
0.94054717 14.104517 -1.2016468
1.0236002 14.05079 -1.197455
1.1046176 13.978702 -1.1916913
1.194849 14.024267 -1.1963197
1.2796997 14.003776 -1.1951845
1.3652142 13.991693 -1.1948352
1.4482645 13.9563 -1.1924772
1.5304965 13.916454 -1.18977
1.6135585 13.887011 -1.1880234
1.7074504 13.948043 -1.1943111
1.7858852 13.881973 -1.1894207
1.8732933 13.887537 -1.1909053
1.9584703 13.875781 -1.1909053
2.0470595 13.887156 -1.1930012
2.1343491 13.888119 -1.1942238
2.2234581 13.899353 -1.1964071
2.3131118 13.911982 -1.1987649
2.399955 13.906362 -1.1995509
2.4876933 13.905103 -1.2007736
2.6420882 14.262774 -1.2340461
2.6639533 13.903857 -1.2034807
2.746314 13.872592 -1.2021708
2.8521228 13.956985 -1.211253
2.9362698 13.932399 -1.2106417
3.0377672 13.988106 -1.2172788
3.1257129 13.978925 -1.2181522
3.2187965 13.99152 -1.221034
3.3142154 14.012222 -1.2247019
3.4057755 14.014855 -1.2267978
3.4960456 14.011092 -1.2283697
3.6227169 14.148611 -1.2427791
3.7109809 14.131897 -1.2433031
3.7976227 14.108861 -1.2433031
3.8854456 14.090096 -1.2437397
3.9674966 14.05065 -1.2423425
4.0516992 14.019342 -1.2417312
4.1382089 13.996128 -1.2419058
4.2398653 14.022919 -1.2467089
4.3378873 14.035662 -1.2502894
4.4542232 14.104726 -1.2591097
4.5354857 14.061012 -1.2576251
4.622612 14.035757 -1.2578871
4.7115035 14.015627 -1.2586731
4.8200359 14.052415 -1.2647861
4.9456444 14.13541 -1.2752657
5.0172219 14.062577 -1.2713358
5.1544847 14.171956 -1.2844353
5.2444611 14.148468 -1.2852212
5.3399739 14.139321 -1.2874045
5.4391484 14.138831 -1.2904611
5.5737619 14.227628 -1.3019886
5.6609564 14.19316 -1.3019886
5.7333241 14.12216 -1.2985827
5.8198681 14.086715 -1.2985827
5.9625487 14.18482 -1.3113328
6.0330248 14.109497 -1.307665
6.1198826 14.073127 -1.3077524
6.2178006 14.061732 -1.3102849
6.3697209 14.169601 -1.324345
6.4288068 14.069544 -1.3184938
6.5376697 14.078623 -1.3232096
6.6528368 14.099507 -1.3291481
6.7775478 14.13837 -1.3369204
6.8803072 14.129657 -1.3401515
6.9893966 14.132714 -1.3446054
7.0858169 14.109148 -1.3465266
7.2401328 14.198525 -1.3596261
7.3358178 14.170642 -1.3612853
7.4203124 14.120955 -1.3608487
7.5283809 14.115592 -1.3648659
7.6176953 14.074389 -1.3653898
7.7686467 14.145262 -1.3771794
7.8538394 14.094717 -1.3769174
8.0063524 14.163337 -1.3887068
8.1208553 14.162339 -1.3935974
8.2040949 14.106215 -1.3929861
8.293025 14.059901 -1.3934226
8.474247 14.167768 -1.4096659
8.588398 14.160649 -1.4142945
8.7022572 14.151813 -1.4188355
8.8052645 14.124356 -1.4215428
9.0221443 14.276383 -1.4429386
9.1724386 14.3189 -1.4531561
9.2948427 14.315824 -1.4587452
9.3622475 14.227732 -1.455514
9.4692678 14.199855 -1.4586579
9.5935869 14.196788 -1.464509
9.745801 14.233004 -1.4746392
11.76074 16.951738 -1.7711232
11.844483 16.850733 -1.7680666
11.936098 16.761509 -1.7663201
10.59745 14.689999 -1.550354
12.105036 16.564709 -1.760993
12.106878 16.355606 -1.7463216
12.030723 16.045883 -1.7205594
12.05003 15.867832 -1.7091192
12.173281 15.827551 -1.7128744
12.229766 15.700688 -1.7071106
11.900175 15.085677 -1.6468532
11.933449 14.938434 -1.6385568
11.955969 14.779734 -1.6289506
12.031281 14.687599 -1.6268547
12.097645 14.585131 -1.6236235
12.896117 15.355096 -1.7202973
12.999771 15.287061 -1.7216073
13.116725 15.234185 -1.7247512
13.234173 15.1812 -1.7279824
13.391674 15.172907 -1.7365407
13.523019 15.133535 -1.7416058
13.653047 15.091645 -1.7464963
13.819401 15.088397 -1.7561026
13.943555 15.037652 -1.7602071
14.030107 14.946002 -1.7595084
14.105081 14.842302 -1.7574124
14.191051 14.750451 -1.7568011
14.287547 14.669521 -1.7575872
14.404565 14.609243 -1.760993
14.51012 14.5368 -1.7630016
14.589839 14.438385 -1.7618663
14.715911 14.385499 -1.7664948
14.833999 14.323997 -1.7701626
14.995856 14.303529 -1.7791575
15.229072 14.348559 -1.7967108
15.422563 14.353254 -1.8093736
15.621081 14.360157 -1.8225603
15.792974 14.340382 -1.832516
15.960017 14.314379 -1.8418602
16.152685 14.309323 -1.8541737
16.365381 14.319494 -1.8687577
16.59614 14.342571 -1.8853503
16.766418 14.310966 -1.8948693
17.032139 14.358068 -1.9153044
17.273796 14.381408 -1.9328576
17.507912 14.395358 -1.9494503
17.70727 14.378086 -1.9620258
17.934273 14.380719 -1.9776578
18.193209 14.40584 -1.9967829
18.366013 14.360209 -2.0062146
18.516859 14.295949 -2.013201
18.597099 14.176627 -2.0124149
18.647123 14.034694 -2.0083978
18.714497 13.906347 -2.0063891
18.740034 13.74765 -1.9999268
18.75223 13.5804 -1.9921545
18.776047 13.422791 -1.9857794
18.818985 13.27976 -1.9815875
18.859241 13.135571 -1.9772211
18.897619 12.990824 -1.9727674
18.915972 12.833239 -1.9663049
18.968697 12.699749 -1.9635977
19.000551 12.552918 -1.9587946
19.04467 12.41488 -1.9553887
19.085299 12.275157 -1.9517208
19.089603 12.112986 -1.9443852
19.117971 11.967083 -1.9396694
19.155441 11.82757 -1.9360015
19.197023 11.691158 -1.9328576
19.235094 11.553143 -1.9294518
19.273907 11.416117 -1.9262207
19.316067 11.281562 -1.923426
19.345215 11.139959 -1.9194089
19.37682 11.000393 -1.9157411
19.404833 10.8594 -1.9118112
19.43272 10.718958 -1.9079688
19.455238 10.576205 -1.9036896
19.472349 10.431229 -1.8989738
19.497225 10.291091 -1.8951312
19.518463 10.149663 -1.8910267
19.544907 10.011542 -1.8875335
19.559721 9.8680944 -1.8829925
19.578865 9.7275019 -1.8789753
19.591652 9.5844212 -1.8744341
19.608807 9.4441433 -1.870417
19.609676 9.2967615 -1.8649153
19.615799 9.1526747 -1.8600248
19.578342 8.9893265 -1.8510299
19.596817 8.852622 -1.8475367
19.607071 8.7127934 -1.8433448
19.597179 8.5647945 -1.837319
19.610924 8.4278669 -1.8336512
19.625561 8.2918692 -1.830158
19.641109 8.1567736 -1.8268396
19.655741 8.0218 -1.823521
19.665758 7.8854713 -1.8198532
19.660015 7.7434812 -1.814788
19.665348 7.6065311 -1.8108582
19.68185 7.4744058 -1.8080636
19.682537 7.3367972 -1.8038719
19.69631 7.204596 -1.80099
19.726082 7.0785584 -1.79968
19.749411 6.9504433 -1.7978461
19.768145 6.8210087 -1.7956629
19.814342 6.7011809 -1.7960995
19.859816 6.5810432 -1.7965361
19.905508 6.460907 -1.7970601
19.951422 6.3407598 -1.7976714
19.998514 6.2208838 -1.7984574
20.042025 6.0997987 -1.7989814
20.089579 5.9798346 -1.799942
20.138327 5.8600736 -1.8010772
20.188276 5.7404838 -1.8023872
20.233679 5.6194353 -1.8033478
20.291813 5.5016956 -1.8055311
20.333857 5.3793769 -1.8063171
20.431108 5.2711844 -1.8121681
20.377085 5.1240993 -1.8043958
20.412981 5.0001564 -1.8048325
20.433586 4.8724995 -1.8039591
20.480566 4.7510819 -1.8055311
20.515163 4.6266413 -1.8060551
20.562628 4.50494 -1.8078016
20.607422 4.3824153 -1.8093736
20.646606 4.2585044 -1.8105088
20.684071 4.1340823 -1.8115568
20.713936 4.0080357 -1.8119935
20.75087 3.883244 -1.8131287
20.780188 3.7569096 -1.8136528
20.809717 3.6305327 -1.8142641
20.840445 3.5042651 -1.81505
20.883188 3.3798263 -1.8169713
20.91436 3.2533104 -1.8179319
20.948708 3.1271276 -1.8192419
20.98525 3.0010686 -1.8208138
21.028933 2.8757589 -1.8230844
21.063963 2.7489944 -1.8246562
21.104158 2.6226456 -1.8267522
6.8965697 0.81383586 -0.57121438
6.9350939 0.77526879 -0.57418358
6.8327279 0.72139871 -0.56475198
6.8102608 0.67679882 -0.56239408
6.8311477 0.63657141 -0.56387872
6.8220234 0.59352112 -0.56274343
6.8265295 0.55173111 -0.56283075
6.8009772 0.50768167 -0.5602982
6.8099275 0.46635079 -0.56082213
6.8007298 0.42381284 -0.55977422
6.8022079 0.38202047 -0.5596869
6.8034286 0.34022591 -0.55959952
6.8073788 0.29856184 -0.55977422
6.816051 0.25705016 -0.56038553
6.8194909 0.21528578 -0.56056017
6.7997708 0.1729051 -0.55872625
6.8206234 0.13156466 -0.56047285
6.8163218 0.089645825 -0.56003618
6.8157477 0.047812928 -0.55994886
6.8268704 0.0060016657 -0.56090951
6.8377366 -0.035944294 -0.5618701
6.8463526 -0.078000791 -0.5626561
6.8616815 -0.12028619 -0.56405336
6.8747568 -0.1627156 -0.56527597
6.8855777 -0.20525073 -0.56632394
6.890162 -0.24771038 -0.56684792
6.900456 -0.29048502 -0.56789583
6.9005337 -0.33291587 -0.56807053
6.9938536 -0.3804394 -0.57645416
18.590616 -1.1250381 -1.595154
18.462099 -1.2310039 -1.5844998
18.375708 -1.3385463 -1.5776008
18.327425 -1.4481344 -1.5741076
18.247721 -1.5545599 -1.5679072
18.171371 -1.6604245 -1.5620562
14.232622 -1.3887154 -1.2160562
18.079275 -1.8759918 -1.5558558
18.068415 -1.9869977 -1.555943
10.583975 -1.2298688 -0.89651716
10.578206 -1.2950296 -0.89669186
10.568085 -1.3596578 -0.89651716
10.5319 -1.4207488 -0.89407194
10.561455 -1.4907732 -0.89747781
10.560979 -1.5568563 -0.89826375
13.836918 -2.126482 -1.1896827
13.818691 -2.210557 -1.1892461
18.160166 -3.0193224 -1.5762908
18.152096 -3.1325574 -1.5772514
14.549366 -2.6029365 -1.2581491
17.926178 -3.3206055 -1.5606588
13.466517 -2.5801728 -1.1644444
17.961281 -3.5556183 -1.5675579
18.080648 -3.6946757 -1.5802207
18.054712 -3.8049307 -1.5799587
18.029079 -3.9152179 -1.579784
17.985273 -4.0214214 -1.5780375
17.823374 -4.100214 -1.565724
17.766857 -4.2021627 -1.5629294
17.702019 -4.3016906 -1.5594362
17.638561 -4.4010634 -1.5561178
8.2415152 -2.110393 -0.70823455
8.2062502 -2.1551037 -0.70622593
17.466064 -4.7011676 -1.5480834
7.7316656 -2.1322513 -0.66553038
7.7404871 -2.1858773 -0.66753894
17.292355 -4.9975271 -1.5403984
8.0120907 -2.3690994 -0.69487309
7.9869146 -2.415045 -0.69391251
7.9652834 -2.4619474 -0.6933012
8.0260229 -2.5347719 -0.70028752
16.88726 -5.4470286 -1.5179547
16.858252 -5.5521026 -1.5183914
7.8212585 -2.6293876 -0.68579084
16.737965 -5.7411089 -1.5136756
16.674213 -5.8338342 -1.5110556
16.63529 -5.9350314 -1.5107937
16.585453 -6.0322251 -1.5095711
16.449116 -6.0971799 -1.5003141
16.408598 -6.196939 -1.5000521
16.295883 -6.2688918 -1.4930657
16.213516 -6.351686 -1.4889612
16.142778 -6.4385037 -1.4859921
16.060509 -6.5201964 -1.4819748
16.020201 -6.6186194 -1.4819748
15.976532 -6.7156348 -1.4817129
15.929529 -6.8111887 -1.4811889
15.865512 -6.8992686 -1.479093
15.799191 -6.9860139 -1.4768225
15.726045 -7.0693464 -1.4739406
15.652471 -7.1520448 -1.4710587
15.585704 -7.2374635 -1.4688754
15.526587 -7.326158 -1.4674782
15.483139 -7.4221506 -1.4676528
15.430141 -7.513525 -1.4669542
15.364103 -7.5983462 -1.4650329
15.291375 -7.6795111 -1.4625003
15.212018 -7.7569017 -1.4593565
15.140249 -7.8377304 -1.4569986
15.0857 -7.927238 -1.4563873
13.052011 -6.9611673 -1.259197
14.968011 -8.1013346 -1.4544661
14.904049 -8.1853514 -1.4530687
14.844842 -8.2717981 -1.4521955
14.778198 -8.3539057 -1.4506235
12.434806 -7.1303229 -1.2190254
12.606967 -7.33219 -1.2409452
12.582334 -7.4215527 -1.243041
12.989673 -7.7696252 -1.2893257
14.405109 -8.7366543 -1.439358
14.348685 -8.8233128 -1.4390961
14.284132 -8.9048643 -1.4380481
12.248546 -7.7406936 -1.2326488
14.115061 -9.0418701 -1.4319351
14.038427 -9.114747 -1.4297518
13.968089 -9.1914043 -1.4282671
13.890708 -9.2631216 -1.4260839
13.879006 -9.3788548 -1.4308871
13.840925 -9.4773455 -1.4329829
13.807068 -9.5791283 -1.4356029
13.771666 -9.6802788 -1.4381354
13.706329 -9.7605534 -1.4375241
13.718085 -9.8963394 -1.4452964
13.72708 -10.03146 -1.4528941
13.61963 -10.081717 -1.4479164
13.533603 -10.147168 -1.4452964
13.442525 -10.208329 -1.4421526
13.325149 -10.248714 -1.4361268
13.235291 -10.30947 -1.4331577
13.116253 -10.346683 -1.4269572
12.966125 -10.357954 -1.4172636
12.850433 -10.395342 -1.4114126
12.769452 -10.460108 -1.4094913
12.694296 -10.529359 -1.4082687
12.618007 -10.597442 -1.4069587
12.553504 -10.67531 -1.4070461
12.4855 -10.750186 -1.4067841
12.406537 -10.815465 -1.4052995
12.333966 -10.886113 -1.4046009
12.266195 -10.960924 -1.4045135
12.187628 -11.025957 -1.4032036
12.100644 -11.083038 -1.400933
11.983469 -11.111698 -1.3950819
11.872211 -11.144793 -1.3899295
11.79205 -11.20645 -1.3885322
11.707991 -11.26409 -1.3866982
11.621528 -11.319036 -1.3846024
11.504329 -11.343271 -1.3787513
11.387977 -11.367199 -1.3729875
11.33273 -11.45173 -1.3748214
11.279659 -11.538859 -1.3770047
11.205878 -11.604986 -1.3766553
11.156463 -11.696592 -1.37945
11.09883 -11.780053 -1.3812839
6.9392982 -7.4565768 -0.85538495
10.95748 -11.919765 -1.3818078
10.853331 -11.95285 -1.3777907
10.715265 -11.947287 -1.3693197
6.7416635 -7.6104627 -0.85372567
6.6863117 -7.6419392 -0.85259038
6.5735059 -7.6066976 -0.84377009
10.277199 -12.04072 -1.3501945
10.1768 -12.072326 -1.346614
10.104445 -12.136839 -1.346876
10.031051 -12.20015 -1.3470507
9.9409323 -12.242909 -1.3449547
9.8936682 -12.338648 -1.3488846
9.7924185 -12.367102 -1.345304
2.0215867 -2.5860732 -0.25019073
1.9892434 -2.5771391 -0.24783283
1.972185 -2.5877118 -0.24765818
1.9532746 -2.5957847 -0.24722153
1.9390929 -2.6101196 -0.24748352
1.9395403 -2.6444585 -0.24992874
1.931458 -2.6676049 -0.25115135
0 -0 -0
9.1115417 -12.912348 -1.3478366
1.9008181 -2.7296801 -0.25403324
1.8891124 -2.7486799 -0.25481921
1.8722112 -2.7602196 -0.25481921
0 -0 -0
8.6683378 -13.120935 -1.3410249
8.5805941 -13.163028 -1.3398896
8.4878101 -13.196998 -1.3379683
8.3853254 -13.215184 -1.3344752
8.2866373 -13.238523 -1.3315933
8.2141485 -13.303528 -1.3330779
8.1173382 -13.329005 -1.3305453
8.0287323 -13.36746 -1.3294101
7.943006 -13.410472 -1.3287988
7.8741369 -13.482183 -1.3311566
7.7997146 -13.544919 -1.3326412
7.7243271 -13.606382 -1.3340385
7.6397214 -13.651784 -1.3338639
7.5615859 -13.70887 -1.3349118
7.4858918 -13.770763 -1.3364837
7.4021959 -13.818192 -1.3366584
7.3121543 -13.853661 -1.3356978
7.2040319 -13.854075 -1.3313313
7.1093516 -13.879399 -1.3294973
7.0240555 -13.92276 -1.3294973
6.9398246 -13.968273 -1.3297594
6.8500462 -14.002539 -1.3289734
6.7259583 -13.965326 -1.3212883
6.6196575 -13.963126 -1.3170966
6.5266957 -13.988134 -1.315612
6.4386649 -14.023392 -1.3151753
6.349627 -14.056279 -1.314564
6.257596 -14.082231 -1.3133414
6.1814442 -14.144094 -1.315612
6.1083083 -14.21379 -1.3186685
6.0298967 -14.272108 -1.320677
5.9433575 -14.311598 -1.3209391
5.8573132 -14.352407 -1.3213757
5.7854519 -14.428761 -1.3252182
5.7041116 -14.482525 -1.3269649
5.620532 -14.531188 -1.3282747
5.5393991 -14.586822 -1.3302834
5.4550114 -14.634537 -1.3315933
5.3613486 -14.657442 -1.3306327
5.2639084 -14.669435 -1.3287114
5.1718149 -14.695819 -1.3281875
5.0844703 -14.735751 -1.3289734
4.9930005 -14.763841 -1.3287114
4.8979301 -14.780961 -1.3274888
4.8016071 -14.79368 -1.3259169
4.7077274 -14.813371 -1.3250436
4.6149702 -14.83627 -1.3245196
4.5209489 -14.854777 -1.3236463
4.3865156 -14.737112 -1.3103722
4.2806983 -14.711143 -1.3055691
4.196619 -14.75917 -1.3075776
4.1454353 -14.926699 -1.3205024
4.0621109 -14.982621 -1.323297
3.9349413 -14.874363 -1.3112454
3.8734655 -15.013978 -1.321725
3.7372932 -14.862599 -1.3059183
3.6453166 -14.882348 -1.3056564
3.5617883 -14.937382 -1.3086256
3.4774969 -14.990978 -1.3115075
3.3915854 -15.039244 -1.3139527
3.3054254 -15.087991 -1.3164853
3.2231467 -15.156708 -1.3208518
3.1375327 -15.212297 -1.324083
3.0435469 -15.228333 -1.3238209
2.9492931 -15.242808 -1.3234717
2.8595581 -15.28118 -1.3253056
2.7694628 -15.319025 -1.3271395
2.6788394 -15.355356 -1.328886
0.45144695 -2.6869452 -0.20128615
0.43399662 -2.6837642 -0.20076217
0.4201245 -2.7031105 -0.20224679
0.40382481 -2.707608 -0.20242144
0.38508797 -2.6952426 -0.2011115
0.38730696 -2.8347466 -0.21325031
0.25296295 -1.9411347 -0.13404235
0.24141622 -1.945616 -0.13430434
0.22818877 -1.9361783 -0.13334371
0.2155292 -1.930612 -0.13273241
0.20294656 -1.9249634 -0.1321211
0.1914271 -1.9291463 -0.13238309
0.18356347 -1.9729352 -0.13613826
0.16817109 -1.9363122 -0.13281974
0.1566885 -1.9422723 -0.13325639
0.14684601 -1.9710127 -0.13570161
0.15811403 -2.3127663 -0.16565567
0.1242601 -1.9985168 -0.13797219
0.10947881 -1.9544842 -0.13404235
0.098082021 -1.9670583 -0.13509031
0.085704572 -1.9606565 -0.134479
0.073935799 -1.9681138 -0.13509031
0.061763816 -1.9655434 -0.13482831
0.048661653 -1.9250553 -0.1312478
0.036270697 -1.8954378 -0.12862791
0.024481919 -1.8836716 -0.12757996
0.019977465 -2.8809371 -0.2149969
0.0021224308 -2.6917315 -0.19840428
-0.01400024 -2.6159852 -0.19176723
-0.029994909 -2.6108694 -0.19133058
-0.058108747 -3.3028753 -0.25202465
-0.078232631 -3.2964811 -0.25150067
-0.099968791 -3.3467216 -0.25595447
-0.11778632 -3.2703846 -0.24931744
-0.13705583 -3.2506895 -0.24765818
-0.15651964 -3.2398369 -0.24678488
-0.16245075 -2.9821799 -0.22425383
-0.1800843 -2.9701891 -0.22329322
-0.20314218 -3.0415883 -0.22966827
-1.1670732 -16.020996 -1.3706297
-1.2650405 -16.009562 -1.3702803
-1.3627423 -15.995543 -1.3697563
-1.4601384 -15.978944 -1.3690577
-0.35234329 -3.6079888 -0.28023213
-0.30724737 -2.9577355 -0.22311856
-0.32571653 -2.9587653 -0.22338055
-1.7633331 -15.176363 -1.3018138
-1.8552102 -15.15537 -1.3009406
-0.48585337 -3.7743182 -0.29603878
-0.50953555 -3.7752151 -0.29638809
-0.43233028 -3.0608184 -0.23342344
-0.44834331 -3.0393829 -0.23176418
-0.46879965 -3.0483902 -0.23281214
-0.48482081 -3.0287337 -0.23132753
-0.49963835 -3.0030999 -0.22931896
-0.48671886 -2.8183682 -0.21316297
-0.47470972 -2.651566 -0.19857894
-0.49677598 -2.6799481 -0.20137349
-0.52295679 -2.7277257 -0.20591462
-3.1780462 -16.053747 -1.3970906
-3.2525597 -15.916822 -1.386611
-0.557055 -2.6416054 -0.19910291
-0.56585473 -2.6040652 -0.19604638
-0.5787794 -2.5869339 -0.19482376
-0.59419501 -2.581392 -0.1946491
-0.60681319 -2.5641255 -0.19342649
-0.61641949 -2.5351856 -0.19115591
-3.9178085 -15.701591 -1.3811092
-3.9826999 -15.554694 -1.3700184
-0.63945162 -2.4338024 -0.18303426
-0.69035959 -2.5635438 -0.19517308
-4.2593331 -15.446099 -1.3670491
-0.91855103 -3.2518539 -0.25866172
-0.92272294 -3.1916065 -0.25368392
-4.5463128 -15.376546 -1.3680971
-0.80412954 -2.6584482 -0.20591462
-0.80866122 -2.6153934 -0.20242144
-4.7739816 -15.117368 -1.3522031
-4.9984431 -15.496416 -1.3898422
-5.160738 -15.669832 -1.4087054
-5.263772 -15.658646 -1.4106266
-5.3675089 -15.648668 -1.4127225
-5.4755979 -15.650229 -1.4159538
-5.5618157 -15.589128 -1.4134212
-1.197502 -3.2915576 -0.26949057
-5.7990918 -15.64487 -1.4251233
-5.8717499 -15.547484 -1.4193596
-1.1770575 -3.0588312 -0.24975409
-1.2048877 -3.0747402 -0.25193733
-1.2894187 -3.2319934 -0.26748198
-1.3609344 -3.3513982 -0.27953348
-1.2913277 -3.1247771 -0.25883636
-1.2653147 -3.0093472 -0.2486188
-1.2673075 -2.9630558 -0.24495095
-6.7224965 -15.458982 -1.4402313
-6.8212528 -15.426554 -1.4411047
-1.3886141 -3.0882385 -0.25927302
-1.4207847 -3.1086545 -0.26206756
-7.0096531 -15.09509 -1.4214555
-7.0838647 -15.013055 -1.4177003
-1.9199868 -4.00454 -0.35175508
-7.2793393 -14.949177 -1.4200583
-1.4064013 -2.8430488 -0.24049714
-1.3576547 -2.7026114 -0.22757237
-1.3592792 -2.6649437 -0.22469048
-1.3733156 -2.6521297 -0.22425383
-1.3904897 -2.645417 -0.2244285
-1.4123207 -2.6473832 -0.22547646
-1.944894 -3.5927393 -0.3205784
-1.966902 -3.5807381 -0.3205784
-1.4792362 -2.6540067 -0.22879498
-1.5165718 -2.6821709 -0.23255016
-1.5235859 -2.656395 -0.23089088
-8.6407986 -14.857132 -1.4691374
-8.7348337 -14.808982 -1.4696614
-5.0564723 -8.4534054 -0.82595485
-8.9019575 -14.677679 -1.4673035
-8.9902859 -14.620235 -1.4670415
-1.3557807 -2.1741378 -0.18705143
-1.3621773 -2.1548305 -0.18591614
-5.2392492 -8.1785603 -0.81390339
-5.2877059 -8.1437521 -0.81364137
-1.3884681 -2.1094196 -0.18382023
-1.3693303 -2.0527894 -0.17875512
-9.6382065 -14.26282 -1.4714954
-1.4090508 -2.0572021 -0.18102568
-9.8738337 -14.231868 -1.4809269
-5.5477824 -7.8922634 -0.80813962
-1.6714559 -2.3465788 -0.2149969
-1.6724182 -2.317697 -0.21298832
-1.6642735 -2.2768276 -0.2096698
-1.7036974 -2.3010027 -0.21342497
-1.7046374 -2.2729709 -0.21150371
-1.6378232 -2.1561582 -0.19980155
-1.587862 -2.0639443 -0.19071928
-1.6506921 -2.118607 -0.1978803
-1.6945083 -2.1475458 -0.20224679
-10.906331 -13.652618 -1.4942883
-10.991776 -13.587766 -1.4945503
-11.07873 -13.524689 -1.4950743
-1.6328639 -1.9680632 -0.18661478
-1.6308146 -1.9412246 -0.18469353
-1.638823 -1.9266281 -0.18416955
-1.6603632 -1.9278601 -0.18547949
-1.6584147 -1.9018666 -0.18364558
-1.6753266 -1.8976301 -0.1843442
-1.6816287 -1.8813721 -0.18364558
-1.7078435 -1.8872708 -0.18556683
-1.736212 -1.8951221 -0.18775006
-2.2761137 -2.454216 -0.25586715
-2.2938569 -2.443109 -0.25621647
-2.3369398 -2.4585953 -0.25979698
-3.424556 -3.5591085 -0.39541987
-2.3683245 -2.4311597 -0.25997165
-12.450428 -12.627262 -1.5169941
-12.531896 -12.554861 -1.517518
-3.2446401 -3.2105176 -0.36258394
-3.393925 -3.3172891 -0.37847793
-3.3855515 -3.2687221 -0.37498474
-3.4235651 -3.2650769 -0.377168
-12.937943 -12.189816 -1.5207492
-3.5260875 -3.2811854 -0.38467833
-2.5656393 -2.3580854 -0.26791865
-3.489388 -3.1680205 -0.37559605
-3.4954123 -3.1345778 -0.37402412
-3.4258471 -3.0344617 -0.3636319
-2.6512253 -2.319339 -0.27123716
-3.5404582 -3.0592854 -0.37262684
-3.3591335 -2.8667626 -0.34957182
-13.554482 -11.4263 -1.5165575
-13.622806 -11.341641 -1.5163827
-3.3643949 -2.7658522 -0.34424472
-3.9218612 -3.1840994 -0.40528813
-3.8263035 -3.0677416 -0.39236334
-3.8083487 -3.0151403 -0.38825884
-13.721022 -10.728206 -1.4893106
-3.3120298 -2.5566363 -0.32922402
-13.994242 -10.667729 -1.5050299
-11.253813 -8.469944 -1.197193
-11.267192 -8.3722124 -1.1930012
-4.0524902 -2.9725068 -0.40301755
-4.0658116 -2.9440794 -0.40249357
-14.169018 -10.129155 -1.4893106
-3.0850446 -2.176573 -0.29341888
-3.1032462 -2.1610188 -0.29394287
-3.0696557 -2.1097696 -0.28896508
-3.1658032 -2.1473835 -0.29778537
-3.1391866 -2.1013153 -0.29359356
-3.136229 -2.0715804 -0.29193428
-3.1664057 -2.0637224 -0.2937682
-3.2544141 -2.0927553 -0.30162787
-5.7131863 -3.6248717 -0.5555824
-3.4385946 -2.1520326 -0.31804585
-3.4364774 -2.1214724 -0.3164739
-15.153136 -9.2282953 -1.5177801
-3.5843701 -2.1524923 -0.32896203
-3.587225 -2.124366 -0.32791409
-3.5941708 -2.0987983 -0.32730278
-15.50799 -8.9301977 -1.5312288
-15.612738 -8.8634005 -1.5362939
-15.666828 -8.767436 -1.5362939
-3.8234112 -2.1085987 -0.34520534
-3.8914156 -2.1150744 -0.35070711
-3.9543724 -2.1179712 -0.35568491
-3.9250066 -2.0713465 -0.35149309
-3.9111276 -2.0334361 -0.3488732
-3.9235311 -2.0093994 -0.3488732
-3.8850913 -1.9597098 -0.34389541
-7.6653905 -3.8081751 -0.71277571
-7.67519 -3.7545028 -0.71146572
-7.6469254 -3.682698 -0.70648795
-16.537514 -7.840209 -1.5668592
-10.038659 -4.6837921 -0.93354493
-5.8014121 -2.6633861 -0.52204782
-5.7577276 -2.6006708 -0.51628405
-5.7817698 -2.568934 -0.51707
-5.8102031 -2.5389948 -0.51829267
-10.143745 -4.3591003 -0.93031377
-10.205172 -4.311511 -0.93363225
-10.287554 -4.2721195 -0.93895936
-10.301583 -4.2040219 -0.93782407
-10.191267 -4.0862308 -0.92498666
-9.6238785 -3.7903318 -0.869183
-10.432965 -4.035255 -0.94306386
-10.449147 -3.9679801 -0.94227791
-10.337951 -3.8533361 -0.92961508
-10.381982 -3.7973602 -0.93153638
-10.531667 -3.7790112 -0.94332588
-10.399609 -3.6597497 -0.92891645
-10.390793 -3.5851467 -0.92603457
-7.7967525 -2.6365921 -0.68395692
-7.8080554 -2.5871356 -0.68352026
-10.460709 -3.395124 -0.92655855
-10.484192 -3.3317797 -0.92682058
-10.507292 -3.2682748 -0.92708254
-10.531913 -3.2051921 -0.9275192
-10.519874 -3.13113 -0.92463732
-10.831576 -3.1516984 -0.95136017
-10.850712 -3.0851779 -0.95136017
-10.832004 -3.0081439 -0.9479543
-9.7099628 -2.6324332 -0.84438139
-11.058785 -2.9254415 -0.9652456
-11.056271 -2.8523045 -0.96341169
-11.068733 -2.783196 -0.96297503
-11.121403 -2.7239971 -0.96620619
-11.18442 -2.6667981 -0.97039801
-11.00358 -2.5524194 -0.9526701
-11.413572 -2.5738401 -0.98812592
-11.478778 -2.5146329 -0.99257976
-11.309833 -2.4049859 -0.97607446
-11.278522 -2.3260858 -0.97196996
-11.505536 -2.2994053 -0.9910078
-11.450966 -2.215517 -0.98489475
-11.571075 -2.1651888 -0.99441367
-11.583162 -2.093972 -0.99432635
-11.921602 -2.0797079 -1.0233197
-11.644335 -1.9577837 -0.99755752
-11.953109 -1.934369 -1.023931
-12.49728 -1.9438368 -1.0711764
-13.465659 -2.0099468 -1.1559734
-14.190721 -2.0292616 -1.2191128
-15.201739 -2.078763 -1.3074903
-15.872084 -2.0713179 -1.3656518
-15.745105 -1.9565648 -1.3533384
-19.664581 -2.3212872 -1.6982903
-20.132868 -2.2514088 -1.7383746
-21.190466 -2.2381382 -1.83042
-22.328915 -2.2199538 -1.9295391
-22.349058 -2.0835516 -1.9301504
-22.314779 -1.9423203 -1.9260459
-22.352093 -1.8074509 -1.9283165
-22.374683 -1.6711576 -1.9293644
-22.359671 -1.5321348 -1.9271812
-22.364674 -1.3946614 -1.926832
-22.355902 -1.2564576 -1.9253473
-22.350256 -1.1186131 -1.924212
-22.338785 -0.9806667 -1.9226401
-22.324472 -0.84282804 -1.9208935
-22.312296 -0.7052964 -1.9194089
-19.390116 1.4295599 -1.9097395
-19.36511 1.5472397 -1.9081448
-19.342365 1.6649225 -1.9068491
-19.317913 1.7822931 -1.9054538
-19.302652 1.9004018 -1.9050552
-19.285681 2.0182867 -1.9045568
-19.270956 2.136364 -1.9043574
-19.250566 2.253758 -1.9036598
-19.229464 2.3709819 -1.9029621
-19.200737 2.4871368 -1.9015667
-19.179199 2.6041 -1.9009688
-19.152023 2.7201924 -1.8998724
-19.129066 2.8367798 -1.8992745
-19.102451 2.9527316 -1.8983774
-19.077097 3.0687797 -1.8976798
-19.046131 3.1838076 -1.8964838
-19.008591 3.2975502 -1.8946898
-18.97331 3.4114804 -1.8931948
-18.932457 3.5241911 -1.8912014
-18.899729 3.6382227 -1.890105
-18.866314 3.7519851 -1.8890088
-18.834164 3.8658748 -1.8881117
-18.798409 3.978893 -1.8869157
-18.763918 4.0920424 -1.8859191
-18.723894 4.2038283 -1.8844241
-18.682236 4.315053 -1.8828293
-18.647663 4.4277644 -1.882032
-18.61821 4.5416293 -1.8818327
-18.590958 4.6560245 -1.8819324
-18.565895 4.7709999 -1.882331
-18.53627 4.8848281 -1.882331
-18.500185 4.9969153 -1.8817331
-18.455751 5.1066208 -1.8803377
-18.412582 5.2165117 -1.8791417
-18.367804 5.325788 -1.877846
-18.33955 5.4398055 -1.8783443
-18.304874 5.5519433 -1.8782446
-18.309429 5.6762381 -1.882331
-18.299866 5.7965899 -1.885022
-18.342529 5.9341927 -1.8932945
-18.334118 6.0559931 -1.8962845
-18.326784 6.1785488 -1.8994738
-18.305466 6.2967105 -1.9012678
-18.282446 6.4145131 -1.9029621
-18.255859 6.5312648 -1.9043574
-18.242548 6.6530457 -1.9072478
-18.230295 6.7756023 -1.9103374
-18.243279 6.9081268 -1.9162178
-18.245108 7.0371251 -1.9210019
-18.246965 7.1667695 -1.9258856
-18.239603 7.2933755 -1.9298723
-18.233215 7.4209104 -1.9340582
-18.225027 7.5482602 -1.9381446
-18.215046 7.6754022 -1.9421313
-18.198702 7.8003531 -1.9455199
-18.179684 7.9245963 -1.9487092
-18.161646 8.0497055 -1.952098
-18.139126 8.1732569 -1.955088
-18.097681 8.2885456 -1.9560847
-18.098803 8.42379 -1.9618653
-18.085453 8.5529785 -1.966151
-18.058641 8.6762848 -1.9690413
-18.027418 8.7978392 -1.9715331
-18.023912 8.9334774 -1.9772141
-17.951872 9.0354013 -1.9753205
-17.93685 9.1662121 -1.9799051
-17.939444 9.3068018 -1.9865828
-17.926901 9.4403486 -1.9916658
-17.909004 9.5717459 -1.9962505
-17.867428 9.6909418 -1.9982438
-17.830294 9.8128672 -2.0008352
-17.804497 9.9414921 -2.0048218
-17.752686 10.055946 -2.0059183
-17.714806 10.178567 -2.008709
-17.66749 10.29609 -2.0105028
-17.62454 10.416454 -2.0128949
-17.596992 10.546397 -2.0171807
-17.569363 10.67691 -2.0215659
-17.549263 10.812701 -2.026948
-17.549253 10.961825 -2.0348217
-17.511086 11.087932 -2.0383101
-17.479565 11.218819 -2.0426953
-17.442093 11.346479 -2.0464828
-17.399557 11.471364 -2.0497718
-17.352007 11.593389 -2.0525625
-17.310205 11.719725 -2.0561504
-17.269966 11.847672 -2.0600374
-17.233711 11.978973 -2.0645225
-17.203814 12.115432 -2.0699046
-17.1656 12.246772 -2.0743895
-17.147387 12.393252 -2.081466
-17.084669 12.508227 -2.0831602
-17.026779 12.627048 -2.0855522
-16.956936 12.73726 -2.0865488
-16.869751 12.834438 -2.0854526
-16.776497 12.926775 -2.0836585
-16.69451 13.027634 -2.0833595
-16.618944 13.133527 -2.0839574
-16.468906 13.179914 -2.0750871
-16.410143 13.298886 -2.0779774
-16.254396 13.338727 -2.0684094
-16.129391 13.402596 -2.0628281
-16.004976 13.466077 -2.0573463
-15.896297 13.542089 -2.0539577
-15.788042 13.617923 -2.0506687
-15.669713 13.684431 -2.0460839
-15.569798 13.766479 -2.0439911
-15.475399 13.853127 -2.0426953
-15.362828 13.923097 -2.0390077
-15.287373 14.026518 -2.0404031
-15.189356 14.10922 -2.0388083
-15.0938 14.193974 -2.0376124
-14.988407 14.269167 -2.0351207
-14.882661 14.343602 -2.032629
-14.775854 14.416583 -2.0300376
-14.655971 14.476207 -2.0256524
-14.56476 14.56375 -2.0253532
-14.464636 14.642225 -2.0238583
-14.356453 14.712187 -2.0212669
-14.246577 14.779939 -2.0184762
-14.137782 14.848339 -2.0158849
-14.015734 14.902189 -2.0114
-13.903039 14.965307 -2.0083103
-13.794806 15.032738 -2.0059183
-13.686939 15.100141 -2.0036259
-13.573456 15.160855 -2.0005362
-13.475561 15.238637 -1.9998385
-13.368714 15.306046 -1.9978452
-13.270647 15.383265 -1.9972472
-13.168264 15.455315 -1.9960512
-13.071262 15.533538 -1.9957522
-12.968073 15.604266 -1.9945562
-12.855041 15.662775 -1.9918652
-12.743658 15.722805 -1.9894731
-12.637618 15.789049 -1.9879781
-12.539884 15.865515 -1.9878784
-12.396387 15.883327 -1.9804034
-12.301126 15.962243 -1.9808021
-12.202349 16.036629 -1.9807024
-12.084597 16.085741 -1.9775131
-11.986855 16.161186 -1.9777124
-11.883939 16.229614 -1.9771144
-11.766646 16.278034 -1.9741244
-11.660188 16.341017 -1.9730281
-11.540222 16.384596 -1.9696394
-11.43436 16.447742 -1.9687424
-11.309581 16.483133 -1.9645563
-11.195956 16.53409 -1.9623637
-11.086003 16.590065 -1.9608687
-10.980713 16.652792 -1.9602706
-10.86639 16.701506 -1.958078
-10.752957 16.751118 -1.9560847
-10.634003 16.791561 -1.9530946
-10.520228 16.839617 -1.9511013
-10.407831 16.88945 -1.949407
-10.296252 16.940239 -1.947912
-10.184954 16.991148 -1.9465166
-10.070888 17.037046 -1.944623
-9.9315901 17.039202 -1.9377459
-9.7465448 16.960054 -1.9215999
-9.5270462 16.816084 -1.8981781
-9.4241705 16.875093 -1.8982778
-9.4850092 17.231602 -1.9324635
-9.39855 17.325336 -1.9365499
-9.290659 17.380047 -1.9362509
-9.187088 17.442888 -1.9369485
-9.0720978 17.483915 -1.9352542
-8.9555912 17.521532 -1.9332609
-8.8358345 17.552155 -1.9305699
-8.7173643 17.584644 -1.9281778
-8.6001387 17.619022 -1.9260849
-8.4849739 17.65711 -1.9244902
-8.3705168 17.696249 -1.9230949
-8.2575779 17.738255 -1.9220982
-8.1444387 17.779541 -1.9211016
-8.0294695 17.816481 -1.9197062
-7.9179826 17.860865 -1.9192078
-7.8014817 17.893606 -1.9175135
-7.6907578 17.939308 -1.9173142
-7.5797668 17.984327 -1.9171149
-7.468132 18.027739 -1.9168159
-7.3562503 18.070459 -1.9165168
-7.2426472 18.108788 -1.9158192
-7.1273961 18.1427 -1.9147228
-7.0105691 18.172165 -1.9132278
-6.8964682 18.208326 -1.9125302
-6.7814941 18.241905 -1.9116331
-6.6636405 18.267281 -1.9099388
-6.5484123 18.299393 -1.9090418
-6.4320526 18.327961 -1.9078459
-6.3149419 18.35391 -1.9064505
-6.1980729 18.380054 -1.9051548
-6.0826817 18.410181 -1.9043574
-5.9668479 18.438637 -1.9034605
-5.8451848 18.448341 -1.9006698
-5.7262793 18.465803 -1.8987761
-5.6148891 18.507256 -1.8994738
-5.503489 18.548992 -1.9002711
-5.3934503 18.595791 -1.9016664
-5.2827735 18.64098 -1.9029621
-5.1701527 18.679756 -1.9036598
-5.0562167 18.714008 -1.9039588
-4.941041 18.743719 -1.9038591
-4.8239574 18.765974 -1.9030617
-4.7070284 18.788464 -1.9023641
-4.5900054 18.810225 -1.9016664
-4.4735818 18.834162 -1.9012678
-4.3572617 18.858349 -1.9009688
-3.2984462 14.684837 -1.4698089
-3.1749911 14.55217 -1.4541613
-3.0159931 14.242351 -1.4204738
-2.9313481 14.274235 -1.4218692
-2.8452606 14.299759 -1.4226664
-2.7629204 14.345284 -1.4255568
-2.7147288 14.576196 -1.4473839
-2.5588496 14.223377 -1.4098094
-2.4739096 14.252536 -1.4112047
-2.3809969 14.235061 -1.4079157
-2.2852309 14.197335 -1.4026333
-2.1270838 13.75187 -1.3560889
-2.0372627 13.728246 -1.3524011
-1.9462724 13.693201 -1.3476171
-1.858467 13.677279 -1.3448265
-1.7768108 13.706186 -1.3466204
-1.6985232 13.764233 -1.3514044
-1.6200528 13.825786 -1.3565872
-1.5304738 13.79294 -1.3523015
-1.444363 13.788217 -1.3509061
-1.3610981 13.810683 -1.3523015
-1.3207664 14.300308 -1.4007397
-1.2391417 14.379521 -1.4079157
-1.3147261 16.437025 -1.6139276
-1.1621097 15.743208 -1.543463
-1.0197364 15.072983 -1.47549
-0.9429065 15.334195 -1.5011045
-0.85258794 15.408244 -1.5079814
-0.71264309 14.48893 -1.4152911
-0.62334299 14.484082 -1.414394
-0.56117821 15.213509 -1.487151
-0.46461678 15.112237 -1.476686
-0.37229586 15.131714 -1.4783803
-0.27805209 15.058105 -1.4708056
-0.19986413 16.219635 -1.5870174
-0.093616158 15.121078 -1.4768853
-0.00083307805 15.127337 -1.4774834
0.091655679 15.073328 -1.4721013
0.18312688 14.989902 -1.4638289
0.27630997 15.054155 -1.470407
0.36442265 14.879095 -1.4530649
0.45507079 14.855694 -1.4509718
0.5461784 14.851627 -1.4508722
0.63481671 14.790339 -1.4450915
0.79012972 16.099997 -1.5768514
0.7783041 14.094924 -1.3762215
0.86300421 14.061082 -1.3733312
0.94436467 13.983051 -1.3660555
1.035051 14.043479 -1.3727332
1.1238179 14.069595 -1.3760222
1.2044048 13.996015 -1.3693446
1.2916322 14.003222 -1.3708396
1.3806517 14.026721 -1.3740289
1.4664848 14.016006 -1.3738296
1.5396235 13.891036 -1.3621686
1.6286484 13.91394 -1.3654575
1.7086319 13.860234 -1.3610722
1.7922379 13.838634 -1.3599758
1.8889024 13.914143 -1.3687465
1.970603 13.876677 -1.3661551
2.0579019 13.879088 -1.3676502
2.1422634 13.861283 -1.3671519
2.2286971 13.856719 -1.3680489
2.3135142 13.841802 -1.3679492
2.4058881 13.870481 -1.3723346
2.4898937 13.849583 -1.3717365
2.5748262 13.834044 -1.3717365
2.6617315 13.828732 -1.3728329
2.760705 13.883381 -1.3801086
2.842838 13.85156 -1.3786136
2.9356079 13.870847 -1.382401
3.034023 13.913818 -1.38868
3.1195576 13.895911 -1.3887796
3.2661343 14.142147 -1.4160885
3.3114603 13.947583 -1.3981483
3.4163196 14.006269 -1.406321
3.5280678 14.088319 -1.4169854
3.5948765 13.990273 -1.4091117
3.7019556 14.048774 -1.4174838
3.8083298 14.10072 -1.4252578
3.9051292 14.114487 -1.4291447
3.9867775 14.073028 -1.4273508
4.0700045 14.037788 -1.4262545
4.2050228 14.17758 -1.4434968
4.3615513 14.380984 -1.4675167
4.338903 13.99661 -1.4300418
4.4361229 14.005768 -1.4338292
4.5277972 13.996272 -1.4357228
4.6182737 13.982398 -1.4372178
4.704299 13.954741 -1.4373175
4.8095818 13.983007 -1.4433972
4.9638209 14.148521 -1.4641279
5.0160122 14.021302 -1.4538622
5.2383409 14.364171 -1.4937291
5.317018 14.306577 -1.4910381
5.4092827 14.285779 -1.4923338
5.4936137 14.243964 -1.4914367
5.603466 14.267408 -1.4976161
5.6872087 14.223518 -1.4966195
5.7725 14.183746 -1.496121
5.8320036 14.081873 -1.488945
5.9449625 14.109091 -1.4958221
6.2862549 14.666791 -1.5606056
6.3013711 14.456468 -1.5418683
6.3774552 14.389332 -1.5387785
6.4599032 14.337229 -1.5373832
6.5494103 14.300941 -1.537782
6.6391358 14.264996 -1.5382802
6.7410045 14.254572 -1.5416689
6.8610945 14.281102 -1.5492437
6.9791441 14.301328 -1.5562203
7.0985832 14.322423 -1.5633963
7.7567549 15.411776 -1.6904719
7.3186378 14.321949 -1.5732634
7.3940043 14.252926 -1.5705724
7.6760635 14.577049 -1.6124326
8.0294476 15.023719 -1.6685451
7.7329106 14.257851 -1.5869178
7.8221688 14.21362 -1.5873165
8.2895851 14.846447 -1.6654555
8.2559481 14.575404 -1.6401401
8.5668325 14.910108 -1.6846912
8.5799942 14.723155 -1.6691431
8.6524515 14.640252 -1.6656548
8.7472353 14.595421 -1.6666515
8.8934727 14.635006 -1.6776148
8.9068928 14.456484 -1.6630634
9.1862688 14.707047 -1.6991429
9.2731428 14.64536 -1.698545
9.3902426 14.63089 -1.7036279
9.4830952 14.578002 -1.7042259
9.4989691 14.408227 -1.6908705
9.5639791 14.314924 -1.6866845
10.089576 14.90274 -1.7649232
10.187583 14.850397 -1.7661192
10.300661 14.81947 -1.7700062
10.39942 14.767377 -1.7714015
10.495614 14.711389 -1.7723982
10.55654 14.606392 -1.7674149
10.671828 14.576667 -1.7718003
10.821528 14.592429 -1.7819663
10.984372 14.623607 -1.7942253
11.096188 14.585232 -1.797913
11.214018 14.553915 -1.8025974
11.312291 14.496599 -1.8040924
11.402878 14.429257 -1.8043914
11.482495 14.348144 -1.802996
11.538992 14.238768 -1.7980127
11.666542 14.216924 -1.8043914
11.799345 14.20017 -1.8115674
11.945833 14.198308 -1.8208364
12.084996 14.186091 -1.8289095
12.216009 14.162906 -1.8356868
12.399554 14.198597 -1.8504375
12.545105 14.188587 -1.8593079
12.70958 14.198081 -1.8709689
12.849249 14.178072 -1.8788427
13.012694 14.182541 -1.8902047
13.199702 14.21032 -1.9049555
13.342545 14.188497 -1.9131281
13.4863 14.166173 -1.9214005
13.646165 14.159094 -1.9319652
13.873855 14.219664 -1.9521977
14.048253 14.222752 -1.964656
14.209135 14.21016 -1.9751211
14.354108 14.180045 -1.9832938
14.555507 14.203579 -1.9993402
14.750566 14.218266 -2.01439
14.856987 14.146015 -2.017081
14.981923 14.090716 -2.0223632
15.065184 13.995814 -2.0219646
15.129515 13.883604 -2.0190742
15.193037 13.771132 -2.0161839
15.257233 13.659732 -2.0134928
15.281872 13.513789 -2.0056193
15.319536 13.380496 -1.9996392
15.365183 13.25505 -1.9948552
15.409869 13.129548 -1.9900712
15.455117 13.00528 -1.9854865
15.501718 12.882859 -1.9812008
15.555091 12.76667 -1.9779117
15.609169 12.651565 -1.974822
15.663198 12.536898 -1.971832
15.720311 12.425131 -1.9693404
15.792332 12.325377 -1.968842
15.827465 12.197272 -1.9637591
15.881419 12.084263 -1.9611677
15.919467 11.959697 -1.9566827
15.962979 11.839861 -1.9529949
16.002411 11.717591 -1.9489087
16.049007 11.601112 -1.9458189
16.093969 11.483927 -1.9426296
16.141352 11.368917 -1.9398389
16.183844 11.250921 -1.9365499
16.223856 11.131705 -1.9330616
16.265488 11.014097 -1.9298723
16.301323 10.893081 -1.9260849
16.33795 10.773135 -1.9224969
16.373718 10.653152 -1.9189088
16.403606 10.52991 -1.9147228
16.437645 10.409898 -1.9111348
16.476736 10.293555 -1.9082445
16.509935 10.173993 -1.9047561
16.534637 10.049762 -1.9003707
16.578068 9.937376 -1.8982778
16.617315 9.8228111 -1.895786
16.658361 9.7096415 -1.8935934
16.697783 9.5958433 -1.891301
16.732105 9.479475 -1.8885103
16.761286 9.3606224 -1.8852214
16.783539 9.23841 -1.8812346
16.80842 9.1181755 -1.8776467
16.841236 9.0026751 -1.8750553
16.859182 8.8796968 -1.8708693
16.888618 8.7632532 -1.8680786
16.893339 8.6345577 -1.862597
16.909561 8.5123978 -1.8585106
16.937405 8.3965511 -1.8558196
16.967144 8.2819939 -1.8534275
16.98984 8.1643705 -1.8503379
17.01263 8.0472069 -1.8473479
17.019289 7.9229341 -1.8426635
17.050394 7.8104839 -1.8407699
17.066246 7.6914105 -1.8372815
17.094925 7.578485 -1.8352882
17.121037 7.4647026 -1.8330954
17.153713 7.3540211 -1.8317002
17.176508 7.239356 -1.8293082
17.20038 7.1254501 -1.8271154
17.220737 7.0103984 -1.8246238
17.233864 6.8927798 -1.8214345
17.249901 6.7767196 -1.8186438
17.26609 6.6610804 -1.8159528
