# .PCD v0.7 - Point Cloud Data file format
VERSION 0.7
FIELDS x y z
SIZE 4 4 4
TYPE F F F
COUNT 1 1 1
WIDTH 1511
HEIGHT 1
VIEWPOINT 0 0 0 1 0 0 0
POINTS 1511
DATA ascii
-2.1004775 6.4722738 -1.8989362
-2.043247 6.4300494 -1.8824885
-2.0094678 6.4608312 -1.887971
-1.9829484 6.5162802 -1.9008551
-1.9440255 6.5320115 -1.9019516
-1.89746 6.5216556 -1.8953725
-1.8574082 6.5331755 -1.8953725
-1.8232058 6.5657616 -1.9016775
-1.7869115 6.5916758 -1.9060634
-1.7397908 6.577414 -1.8986621
-1.7015622 6.5963459 -1.9011291
-1.657303 6.5917401 -1.8967432
-1.6159104 6.5980487 -1.8956467
-1.5774028 6.6162586 -1.8981137
-1.5374286 6.628623 -1.8989362
-1.4910142 6.6126022 -1.8915347
-1.4541169 6.638536 -1.896469
-1.4167573 6.6633244 -1.9011291
-1.3731252 6.6587062 -1.8972914
-1.3318653 6.6651201 -1.8967432
-1.2960598 6.6996036 -1.9044187
-1.2522737 6.6932507 -1.9003068
-1.2134055 6.7131109 -1.9038705
-1.1726878 6.7232723 -1.9046929
-1.1293391 6.7180123 -1.9011291
-1.0888653 6.7295618 -1.9024998
-1.044744 6.7180614 -1.8972914
-1.0037872 6.7262478 -1.8978397
-0.9642669 6.7446561 -1.9014033
-0.92221272 6.7456818 -1.9000326
-0.88092911 6.7521667 -1.9003068
-0.84019369 6.7631712 -1.9019516
-0.7982288 6.764379 -1.9008551
-0.757029 6.7720165 -1.9016775
-0.71536142 6.775578 -1.9014033
-0.67339313 6.7760119 -1.9003068
-0.63171434 6.7790585 -1.9000326
-0.58935624 6.7741847 -1.8975655
-0.54785705 6.7786317 -1.8978397
-0.50632548 6.782825 -1.8981137
-0.46489462 6.788682 -1.8989362
-0.42418924 6.8067641 -1.9033222
-0.38209185 6.8034778 -1.9016775
-0.3404355 6.8076153 -1.9022257
-0.29861614 6.8086152 -1.9019516
-0.25672475 6.807436 -1.9011291
-0.21507189 6.8127279 -1.9022257
-0.17316771 6.8100739 -1.9011291
-0.13121119 6.8023548 -1.8986621
-0.089508362 6.8059168 -1.8994844
-0.047732756 6.8044143 -1.8989362
-0.0059690257 6.7920771 -1.8953725
0.035771471 6.8044877 -1.8989362
0.077576846 6.808948 -1.9003068
0.1193039 6.8054595 -1.8994844
0.16105917 6.8045993 -1.8994844
0.20349473 6.8265533 -1.9060634
0.24448095 6.8001885 -1.8989362
0.28640348 6.8033643 -1.9003068
0.33004051 6.8408628 -1.911546
0.37049583 6.8108611 -1.9035963
0.40879524 6.7508631 -1.8871487
0.4522568 6.7789335 -1.8959208
0.4953098 6.7961731 -1.9016775
0.53518349 6.7699971 -1.8950984
0.57255113 6.7177167 -1.8811179
0.61778402 6.7581315 -1.8937278
0.65961295 6.7580423 -1.8948243
0.70037246 6.7471719 -1.8929054
0.74175912 6.7427473 -1.8929054
0.78311789 6.7380691 -1.8929054
0.82690054 6.7531829 -1.8986621
0.8675856 6.742259 -1.8970172
0.9106099 6.7491984 -1.9005809
0.95039254 6.7320571 -1.8972914
0.98859704 6.7051678 -1.8912606
1.0320574 6.7141843 -1.8956467
1.0735391 6.7096243 -1.8961949
1.1161078 6.7114491 -1.8986621
1.1559592 6.6968927 -1.896469
1.1970289 6.6896739 -1.896469
1.2380534 6.6822033 -1.896469
1.2781266 6.6697583 -1.8950984
1.3175336 6.654243 -1.8929054
1.3577609 6.6432071 -1.892083
1.3977041 6.6309867 -1.8909864
1.4379567 6.6204062 -1.8904382
1.4777123 6.6077042 -1.8893417
1.515426 6.586329 -1.8857781
1.5575811 6.5843935 -1.887971
1.5988611 6.5784507 -1.8890676
1.6415236 6.577847 -1.8918089
1.6863855 6.5853524 -1.8970172
1.7318895 6.5944147 -1.902774
1.7693202 6.5725198 -1.8994844
1.8119159 6.5698838 -1.9019516
1.8435706 6.5281005 -1.8929054
1.8934699 6.5508494 -1.903048
1.9235415 6.5049853 -1.8929054
1.958688 6.4774113 -1.8882452
1.9861863 6.4257617 -1.8764577
2.0244184 6.4097853 -1.8753612
2.0666618 6.4063959 -1.8781025
2.1062326 6.3945079 -1.8783766
2.1405265 6.3668785 -1.8739907
2.1848564 6.3690891 -1.8786508
2.227071 6.3646407 -1.881392
2.2605886 6.3354578 -1.8767319
2.2994196 6.3214679 -1.8767319
2.3415065 6.316257 -1.8794731
2.3720641 6.280179 -1.872894
2.4019222 6.2430663 -1.8660409
2.4387808 6.2246294 -1.8649445
2.4769285 6.209548 -1.8649445
2.5088334 6.1790848 -1.8602842
2.5566144 6.187573 -1.8676857
2.5986316 6.1815219 -1.8707011
2.6365118 6.1654606 -1.8707011
2.6719918 6.1438756 -1.8690563
2.7065284 6.1203284 -1.8668633
2.741271 6.097466 -1.8649445
2.7798319 6.0831552 -1.8657668
2.8215601 6.0755787 -1.8687822
2.855093 6.050324 -1.866315
2.8925791 6.0335588 -1.8665892
2.9232306 6.002727 -1.8624773
2.9574499 5.9795051 -1.8608325
2.9802732 5.9337449 -1.8520604
3.0306048 5.9427624 -1.8608325
3.0714328 5.9325957 -1.8635738
3.1180654 5.9332185 -1.8698786
3.1507919 5.907186 -1.8676857
3.1860628 5.8860507 -1.8671374
3.2304516 5.8815632 -1.8720717
3.2720964 5.8717122 -1.8753612
3.3042772 5.8448267 -1.8731682
3.335773 5.8169336 -1.8707011
3.3617327 5.7797294 -1.8652185
3.4005532 5.764792 -1.8671374
3.4353676 5.7429929 -1.8668633
3.4750295 5.7292061 -1.8693304
3.5131402 5.7126913 -1.8709753
3.5511789 5.6959243 -1.87262
3.5922265 5.6837831 -1.8759094
3.6234028 5.6559658 -1.8739907
3.6538496 5.6271739 -1.8717976
3.6909516 5.608665 -1.8731682
3.7290311 5.5915132 -1.8750871
3.761116 5.5653396 -1.8739907
3.7919335 5.537396 -1.8723458
3.8274834 5.5163956 -1.8731682
3.8618124 5.4935932 -1.8734423
3.901026 5.4776282 -1.8761836
3.9188092 5.4317503 -1.8685081
3.9668164 5.4277911 -1.8756354
3.9983296 5.4010301 -1.874813
4.0302405 5.374856 -1.8742647
4.0660524 5.3538551 -1.8756354
4.0958948 5.3249941 -1.8742647
4.1314464 5.3035555 -1.8756354
4.1639104 5.2781057 -1.8756354
4.1878147 5.2419376 -1.8717976
4.2186904 5.2146473 -1.8712493
4.2560916 5.1953597 -1.8737165
4.2866621 5.1676664 -1.8731682
4.3189077 5.1420031 -1.8734423
4.3491316 5.1139407 -1.872894
4.3772907 5.0835147 -1.8715235
4.4223027 5.0725088 -1.8775543
4.4488893 5.0402312 -1.8756354
4.4829354 5.0164242 -1.8770061
4.5142765 4.9895363 -1.8772801
4.557148 4.9752183 -1.8824885
4.5653577 4.9231853 -1.8731682
4.6112766 4.9119086 -1.8797473
4.6426535 4.8849158 -1.8802955
4.6745396 4.8584166 -1.8811179
4.6700425 4.7945065 -1.8671374
4.7223296 4.7890449 -1.8764577
4.764534 4.7729115 -1.8816662
4.8060341 4.7557635 -1.8866005
4.8179321 4.7093782 -1.8797473
4.852272 4.6850715 -1.8819402
4.875361 4.6499 -1.8797473
4.9059 4.6218762 -1.8805697
4.9292393 4.587101 -1.8786508
4.9565845 4.5561185 -1.8783766
4.9915667 4.5320849 -1.8811179
5.0142694 4.4968772 -1.879199
5.0410476 4.4653878 -1.8789248
5.0683517 4.4343724 -1.8789248
5.1041965 4.4107361 -1.8822144
5.1267757 4.3755879 -1.8805697
5.1572037 4.3471475 -1.8819402
5.1889534 4.3197293 -1.8838592
5.2198181 4.2914739 -1.8855039
5.2408261 4.2551212 -1.8835851
5.2743387 4.2289004 -1.8863263
5.2956638 4.1928759 -1.8846816
5.332655 4.169189 -1.8887935
5.3665099 4.1428547 -1.8918089
5.3704143 4.0935235 -1.8841333
5.4015775 4.0651212 -1.8863263
5.4264188 4.0319009 -1.8863263
5.4479547 3.9962537 -1.8852298
5.4848347 3.971776 -1.8896159
5.5200543 3.9458771 -1.8934536
5.541019 3.9097145 -1.8923571
5.5664825 3.8767412 -1.8929054
5.5901647 3.8425128 -1.8929054
5.6072702 3.8038204 -1.8907124
5.6217141 3.7634578 -1.887697
5.6543293 3.7352543 -1.8909864
5.6642518 3.6920867 -1.8866005
5.6908436 3.659863 -1.887971
5.7261848 3.6331201 -1.8923571
5.7336969 3.5887315 -1.8874228
5.755609 3.5534828 -1.8874228
5.7814112 3.5206013 -1.8887935
5.8127971 3.491003 -1.892083
5.8084579 3.4400771 -1.8835851
5.8527083 3.4179533 -1.8912606
5.8552361 3.371419 -1.8852298
5.9017377 3.3501472 -1.8937278
5.9305749 3.3185685 -1.896469
5.9398789 3.2760782 -1.8929054
5.9674726 3.2437041 -1.8953725
5.9804816 3.2033942 -1.8931795
6.0051279 3.1693318 -1.8948243
6.0287275 3.1346438 -1.8961949
6.0504155 3.0989087 -1.8970172
6.0856295 3.0699563 -1.9022257
6.086266 3.0235715 -1.896469
6.0986567 2.9832118 -1.8945501
6.1116476 2.9432309 -1.8929054
6.1469717 2.9139149 -1.8983879
6.1560206 2.8720765 -1.8956467
6.1735272 2.8342497 -1.8956467
6.1986895 2.7998798 -1.8981137
6.2078428 2.7582777 -1.8956467
6.234344 2.7243717 -1.8986621
6.2641964 2.6917632 -1.902774
6.2885675 2.6566448 -1.9052411
6.3020854 2.6169024 -1.9044187
6.3162432 2.5774574 -1.9038705
6.3337245 2.5393691 -1.9044187
6.3491864 2.5004582 -1.9044187
6.3724818 2.4645758 -1.9068859
6.3820901 2.4233799 -1.9052411
6.3995428 2.3851824 -1.9060634
6.4077353 2.3435578 -1.9041445
6.4256153 2.305496 -1.9052411
6.4432693 2.2673028 -1.9063376
6.4716053 2.2327442 -1.9107237
6.49156 2.1951499 -1.9126425
6.5076456 2.1561847 -1.9134649
6.5125208 2.1135418 -1.9109977
6.517118 2.0709202 -1.9085306
6.5425582 2.0348923 -1.9123684
6.5420408 1.9907893 -1.9085306
6.5458374 1.9481412 -1.9060634
6.5521274 1.9063277 -1.9044187
6.5822015 1.8713496 -1.9099013
6.5935597 1.8309268 -1.9099013
6.6139522 1.7929517 -1.9126425
6.6080942 1.747908 -1.9077083
6.6466308 1.7145365 -1.9159321
6.6570258 1.6737213 -1.9159321
6.6662359 1.6326143 -1.9156579
6.6910954 1.5952497 -1.9200439
6.700758 1.5541638 -1.9200439
6.7148585 1.5140774 -1.9214146
6.7071128 1.4691424 -1.9164803
6.7056541 1.42576 -1.9134649
6.7189851 1.3855594 -1.9148356
6.7311325 1.3450605 -1.9159321
6.7307615 1.3020893 -1.9134649
6.7490225 1.2627116 -1.9164803
6.7538042 1.2207633 -1.9156579
6.7545357 1.1781427 -1.9137391
6.7559471 1.1357186 -1.9120942
6.7191191 1.0871749 -1.8994844
6.6116319 1.0281864 -1.8665892
6.5978422 0.98461688 -1.8608325
6.0306525 0.86214441 -1.6958081
6.066319 0.82929504 -1.7045801
6.5366526 0.85279876 -1.8383541
6.7288146 0.83592349 -1.892083
6.7739296 0.7993564 -1.9035963
6.7806182 0.75799108 -1.9041445
6.7889671 0.71677583 -1.9052411
6.8028073 0.67605764 -1.9079823
6.8058696 0.6342144 -1.9077083
6.8125072 0.59269261 -1.9085306
6.8188915 0.55111331 -1.909353
6.8231034 0.50933462 -1.9096271
6.8280191 0.46759081 -1.9101753
6.8269205 0.42544657 -1.9090788
6.825562 0.38333344 -1.9079823
6.8239436 0.34125301 -1.9068859
6.8249483 0.29933345 -1.9066117
6.8266563 0.25745073 -1.9066117
6.8290687 0.2155887 -1.9068859
6.8321857 0.17373128 -1.9074341
6.8340845 0.1318251 -1.9077083
6.8357263 0.089902177 -1.9079823
6.837111 0.047964055 -1.9082565
6.845932 0.0060195476 -1.9107237
6.8516102 -0.036016405 -1.9123684
6.8551068 -0.078100011 -1.9134649
6.8660369 -0.12036228 -1.9167545
6.8642077 -0.16246653 -1.9164803
6.8611588 -0.20452426 -1.9159321
6.8713078 -0.24703364 -1.9192215
6.8725452 -0.28931171 -1.9200439
6.8764043 -0.33175313 -1.9216887
6.8655968 -0.3734701 -1.9192215
6.8458967 -0.41454428 -1.9142873
6.7511063 -0.45040193 -1.887971
6.577486 -0.47938475 -1.8391764
6.6300259 -0.52412677 -1.8550758
6.6123118 -0.56357384 -1.850964
6.5656328 -0.60019857 -1.8386282
6.610641 -0.64523482 -1.8526087
6.848567 -0.71089143 -1.9219629
6.945405 -0.76404101 -1.9510204
6.9119282 -0.80331385 -1.9427965
6.9345517 -0.84909749 -1.9507462
6.9187188 -0.89028162 -1.9477308
6.913126 -0.93271732 -1.9477308
6.9139385 -0.97605854 -1.9496497
6.8707142 -1.0129948 -1.9389588
6.8634186 -1.0549875 -1.9386846
6.6583447 -1.0653375 -1.881392
6.5871725 -1.0954484 -1.8627514
6.4343829 -1.1106632 -1.8205358
6.2826071 -1.1242145 -1.7785944
6.1848121 -1.1459291 -1.7522782
6.1285491 -1.1744479 -1.7380235
6.071228 -1.2021331 -1.7234949
5.9874172 -1.2237689 -1.7012906
5.9487414 -1.2539402 -1.6922444
5.9775877 -1.298376 -1.7029353
5.9779549 -1.3369178 -1.7054025
5.9668279 -1.3729259 -1.7045801
5.9582911 -1.4095118 -1.7045801
5.948596 -1.4458176 -1.704306
5.9452109 -1.483687 -1.7059507
5.9266791 -1.5177531 -1.7032094
5.9079533 -1.5516477 -1.7004682
5.912251 -1.5916179 -1.7045801
5.8819776 -1.6222411 -1.6985493
5.8089781 -1.6405326 -1.6799086
5.7904878 -1.6737421 -1.6774415
5.7773418 -1.7084224 -1.6766192
5.763989 -1.7430044 -1.6757967
5.7807503 -1.7868571 -1.6840205
5.7614236 -1.8196874 -1.6815534
5.7501497 -1.8550045 -1.6815534
5.7249579 -1.8857397 -1.6774415
5.7078099 -1.9189935 -1.6757967
5.6904697 -1.9521078 -1.674152
5.666584 -1.9828587 -1.6705884
5.6570282 -2.0185604 -1.6714107
5.658093 -2.0581634 -1.6755226
5.6137967 -2.0811443 -1.6659281
5.579329 -2.1073966 -1.6593491
5.5887327 -2.1502228 -1.6662023
5.5691657 -2.1820188 -1.6642834
5.5288739 -2.2054617 -1.6560596
5.5072179 -2.2360892 -1.6535925
5.4862833 -2.2669013 -1.6513994
5.4687243 -2.2990313 -1.6503029
5.4943066 -2.3495564 -1.6626387
5.4806681 -2.3836081 -1.6629127
5.4501076 -2.410192 -1.6579784
5.4518824 -2.4510791 -1.6631869
5.4341159 -2.4832861 -1.6623645
5.4117985 -2.5133424 -1.6601715
5.4093213 -2.5526567 -1.6642834
5.3831501 -2.5808113 -1.6609938
5.3862352 -2.6230552 -1.6670246
5.3657289 -2.6539237 -1.6656541
5.3622351 -2.6932709 -1.6697659
5.3430381 -2.7248118 -1.6689435
5.3040133 -2.7460501 -1.6618162
5.2870636 -2.7785432 -1.6618162
5.2945237 -2.8240557 -1.6697659
5.2863994 -2.8615241 -1.6727813
5.2881298 -2.9045544 -1.6790862
5.2282038 -2.9135427 -1.6653799
5.2278094 -2.9555054 -1.6711366
5.1953936 -2.9793949 -1.6664764
5.16787 -3.005899 -1.663461
5.1435304 -3.0341318 -1.6615422
5.1322446 -3.0700777 -1.6640092
5.1355119 -3.1149752 -1.6714107
5.1138444 -3.1449163 -1.6705884
5.0740485 -3.1635165 -1.6637352
5.0610461 -3.1987007 -1.6659281
5.0218887 -3.2172451 -1.6593491
4.9770484 -3.2317643 -1.6508511
4.9426641 -3.2527268 -1.6459169
4.9314141 -3.2888622 -1.6489323
4.9215002 -3.3260586 -1.652496
4.8938575 -3.3513038 -1.6500288
4.8739924 -3.3818171 -1.6503029
4.8460693 -3.4066825 -1.6478357
4.842309 -3.4486256 -1.6538665
4.8194976 -3.4771473 -1.6533183
4.7840953 -3.4964404 -1.648384
4.7447729 -3.5125697 -1.6420791
4.7208223 -3.5398865 -1.6412567
4.7173948 -3.5827446 -1.6478357
4.6998968 -3.6151402 -1.6494806
4.6715565 -3.6391826 -1.6472875
4.6272421 -3.6505058 -1.6393378
4.6280489 -3.6974361 -1.6478357
4.6277061 -3.7439082 -1.6560596
4.5994387 -3.767967 -1.6541407
4.5614281 -3.7838387 -1.6486582
4.5337062 -3.8080451 -1.6470134
4.5190468 -3.8432674 -1.6503029
4.4953799 -3.8709235 -1.6503029
4.4700937 -3.8971698 -1.6497546
4.42735 -3.907979 -1.6426274
4.3746033 -3.90944 -1.6316622
4.3419747 -3.9284666 -1.6283728
4.3192067 -3.9563336 -1.628921
4.2715783 -3.9611835 -1.6198748
4.2948728 -4.0320754 -1.6385155
4.2651715 -4.0537152 -1.6365966
4.2471485 -4.0864768 -1.6393378
2.3439345 -2.2833741 -0.89206743
2.3305647 -2.2983885 -0.89234155
2.3273089 -2.3235154 -0.89672762
4.1564059 -4.2004128 -1.6437238
4.1473613 -4.2430291 -1.6505771
4.118576 -4.2656298 -1.6494806
4.1182127 -4.3179598 -1.6601715
4.0804291 -4.3312488 -1.6555114
4.0590177 -4.361836 -1.6577044
4.034781 -4.3894916 -1.6588008
4.0226412 -4.4305406 -1.6651058
4.0030856 -4.4637308 -1.6683953
3.9711573 -4.4831705 -1.6664764
3.9416745 -4.5052814 -1.6656541
3.9026375 -4.5162849 -1.6607198
3.8698575 -4.5342946 -1.6585268
3.8401034 -4.5557485 -1.6577044
3.8083854 -4.5747905 -1.6560596
3.7796326 -4.5973296 -1.6557854
3.7501404 -4.6189413 -1.6552372
3.714509 -4.6328616 -1.6519477
3.6794453 -4.6472726 -1.6489323
2.007612 -2.5682011 -0.88850379
1.9900529 -2.5781875 -0.88768142
1.9660335 -2.5796425 -0.8838436
1.9466981 -2.5870471 -0.88219887
1.9284933 -2.5958555 -0.88110238
1.908547 -2.6022117 -0.87918347
1.6860877 -2.3288023 -0.77885294
1.6706481 -2.3375397 -0.7783047
1.6568283 -2.3485322 -0.77857882
3.4348171 -4.9320188 -1.6725072
3.3892357 -4.9308119 -1.6648316
3.3432589 -4.9284363 -1.6568819
3.3070703 -4.9400673 -1.6538665
3.270865 -4.9514399 -1.6508511
3.2330692 -4.9601374 -1.6470134
3.2010128 -4.9774551 -1.646191
3.1647437 -4.9880705 -1.6431756
3.1335676 -5.0065799 -1.6429015
3.1058202 -5.0306225 -1.6445463
3.0768955 -5.0528703 -1.6456428
3.046824 -5.0733032 -1.646191
3.0112264 -5.084456 -1.6437238
2.9843373 -5.1103106 -1.646191
2.9519651 -5.1268592 -1.6456428
2.9214013 -5.1465483 -1.646191
2.8883586 -5.161859 -1.6453686
2.8501287 -5.1676955 -1.6415309
2.8156106 -5.180017 -1.6398861
2.7874067 -5.2039771 -1.6420791
2.7527297 -5.2158794 -1.6404344
2.7166805 -5.2249928 -1.6379672
1.5375737 -3.0024567 -0.92085075
1.5269195 -3.0272894 -0.92578506
1.4993294 -3.0185153 -0.92002839
2.58848 -5.2918177 -1.6385155
2.5592997 -5.3145323 -1.6407084
2.5184023 -5.3127561 -1.6352259
2.4873831 -5.3315945 -1.6363224
2.4522145 -5.3415127 -1.6346776
2.4213731 -5.3608408 -1.6360483
2.3845286 -5.3668089 -1.633307
2.3527091 -5.3839827 -1.6341294
2.3188696 -5.3965502 -1.6335812
2.2883334 -5.4168777 -1.6355001
2.2561598 -5.4334812 -1.6363224
2.2220511 -5.4454417 -1.6357741
2.1885967 -5.4589734 -1.6357741
2.148011 -5.4544044 -1.6302916
2.1117275 -5.4603062 -1.6280986
2.0788667 -5.4749584 -1.6286469
2.048929 -5.4975233 -1.6316622
2.0082202 -5.4910254 -1.6259056
1.9741652 -5.5023394 -1.6256315
1.952818 -5.5497279 -1.6363224
1.9165329 -5.5552421 -1.6344036
1.8845673 -5.5732741 -1.6363224
1.8488222 -5.5801682 -1.6349518
1.8097975 -5.5767717 -1.6305658
1.7746711 -5.585022 -1.6297433
1.737512 -5.5866232 -1.6270021
1.7032005 -5.5971794 -1.6270021
1.6707454 -5.6139765 -1.628921
1.6384169 -5.6315093 -1.631114
1.6027796 -5.6377563 -1.6300175
1.5678995 -5.6465583 -1.6297433
1.5339783 -5.6588569 -1.6305658
1.4962757 -5.6570063 -1.6272762
1.4598548 -5.6595626 -1.6253574
1.4246318 -5.6665483 -1.6248091
1.3900646 -5.6761169 -1.6250832
1.3554335 -5.6854749 -1.6253574
1.322044 -5.700242 -1.6272762
1.2878894 -5.7119994 -1.6283728
1.2544637 -5.7273092 -1.6305658
1.2174973 -5.7264328 -1.6280986
0.76617992 -3.7163229 -1.0409185
0.74656707 -3.7369857 -1.0455786
0.71485317 -3.6961758 -1.0324205
0.70082921 -3.7468112 -1.0458528
0.6665327 -3.6885819 -1.0277604
0.6402508 -3.6717598 -1.0217296
0.6236102 -3.7107091 -1.0318723
0.59852505 -3.7002256 -1.0277604
0.5758096 -3.7038283 -1.0277604
0.55619651 -3.7282171 -1.0337912
0.52337027 -3.6620634 -1.0137799
0.50558186 -3.6995075 -1.0236484
0.4849886 -3.7187512 -1.0283086
0.45848453 -3.6920722 -1.0198107
0.43638557 -3.6995912 -1.0211813
0.41463915 -3.7108006 -1.0236484
0.39408496 -3.7343152 -1.0296792
0.37154487 -3.7404909 -1.0307758
0.34939024 -3.7513182 -1.0332428
0.32569873 -3.7457268 -1.0310498
0.30294183 -3.7505305 -1.0318723
0.27892026 -3.7388923 -1.0280344
0.25623664 -3.7443712 -1.0291309
0.23463385 -3.7679489 -1.0354359
0.21113186 -3.7625964 -1.033517
0.18712734 -3.7455719 -1.0283086
0.16393045 -3.7418456 -1.026938
0.14085892 -3.739898 -1.0261155
0.11742227 -3.7253125 -1.0217296
0.094586469 -3.7269242 -1.0220037
0.072070181 -3.7457032 -1.0272121
0.048768036 -3.7220347 -1.0203589
0.025643416 -3.6818738 -1.0088456
0.0030820547 -3.7146592 -1.0181659
-0.019795703 -3.7309568 -1.0228261
-0.042753447 -3.7365348 -1.0244708
-0.066116378 -3.7612026 -1.0315981
-0.089216135 -3.7616875 -1.0318723
-0.11272471 -3.7754881 -1.0359842
-0.13668194 -3.7968302 -1.042289
-0.15957236 -3.7863116 -1.0395478
-0.18178342 -3.7641284 -1.033517
-0.20602421 -3.7840683 -1.0395478
-0.22581275 -3.7260966 -1.0233743
-0.24783991 -3.7121665 -1.0198107
-0.26984435 -3.7000253 -1.0167953
-0.29216355 -3.6935062 -1.0154246
-0.31645322 -3.7108085 -1.0209072
-0.34079117 -3.7260358 -1.0258415
-0.36355391 -3.7229173 -1.0255673
-0.38777977 -3.7340083 -1.0294051
-0.41162983 -3.7401621 -1.0318723
-0.44855312 -3.8579299 -1.0664122
-0.46006656 -3.7558298 -1.0379031
-0.48334861 -3.7548437 -1.0384513
-0.5116486 -3.7908831 -1.0496905
-0.53409308 -3.7819586 -1.0480458
-0.55953217 -3.793833 -1.0524318
-0.58469886 -3.8026855 -1.0559955
-0.60923576 -3.8066232 -1.0581884
-0.6302157 -3.7885833 -1.0540766
-0.65050668 -3.7675865 -1.0491422
-0.67225724 -3.7559509 -1.0469493
-0.69213814 -3.7347343 -1.042015
-0.71395534 -3.72475 -1.0403702
-0.73754346 -3.7240727 -1.0414667
-0.77212363 -3.776953 -1.0581884
-0.7996465 -3.7928467 -1.0642192
-0.8180064 -3.7653139 -1.0576402
-0.83794707 -3.7461457 -1.0535283
-0.84970695 -3.6921985 -1.0392736
-0.8774364 -3.7084403 -1.0455786
-0.90062863 -3.7048557 -1.0461268
-0.92194742 -3.6936612 -1.0444821
-0.76427424 -2.9836109 -0.83724201
-0.78452075 -2.9863064 -0.83943504
-0.80157995 -2.9767933 -0.83806443
-0.82008576 -2.9727459 -0.83833855
-0.83935601 -2.97136 -0.83943504
-0.85997498 -2.9744689 -0.8419022
-1.1200484 -3.7871587 -1.0850528
-1.1307414 -3.7387905 -1.0727172
-1.1462783 -3.7078927 -1.0655899
-1.1701661 -3.7044575 -1.0666864
-1.1822472 -3.6642582 -1.0568178
-1.1854566 -3.5984752 -1.0392736
-1.0659536 -3.169986 -0.91262698
-1.0847602 -3.1615665 -0.91207874
-1.1466933 -3.276489 -0.94881177
-1.1751775 -3.2929416 -0.95593905
-1.1197624 -3.0777993 -0.8928898
-1.1386265 -3.0708706 -0.8928898
-1.1988974 -3.1735873 -0.92633331
-1.1824398 -3.072823 -0.89782411
-1.2033767 -3.0708826 -0.8994689
-1.2246903 -3.069694 -0.90138775
-1.4612639 -3.5985458 -1.0664122
-1.4715666 -3.5610693 -1.0576402
-1.4881723 -3.539561 -1.0538024
-1.5023012 -3.5126779 -1.0483198
-1.5280447 -3.5130949 -1.0513352
-1.5511274 -3.5071712 -1.0524318
-1.575772 -3.5046048 -1.0546248
-1.6012428 -3.5036173 -1.057366
-1.6312158 -3.5120435 -1.0631227
-1.6527346 -3.5019684 -1.0631227
-1.6679558 -3.4787533 -1.0590109
-1.6943216 -3.4788291 -1.0623003
-1.7075357 -3.4519887 -1.057092
-1.7312741 -3.4466028 -1.0587367
-1.7493316 -3.4299178 -1.0568178
-1.7438184 -3.3678765 -1.0403702
-1.7778703 -3.3826528 -1.048594
-1.7913518 -3.3581033 -1.0442079
-1.811923 -3.3470485 -1.0442079
-1.825945 -3.3240666 -1.0403702
-1.864094 -3.3447237 -1.050787
-1.8623399 -3.2938743 -1.0379031
-1.8753402 -3.269871 -1.0337912
-1.9016536 -3.26911 -1.0373548
-1.9114169 -3.2399848 -1.0315981
-1.9539683 -3.266161 -1.0442079
-1.9505339 -3.2154624 -1.031324
-1.9389958 -3.1526423 -1.0143281
-1.983232 -3.1806748 -1.0277604
-2.0160682 -3.1895833 -1.0348877
-2.0376761 -3.1803923 -1.0359842
-2.0581996 -3.1694427 -1.0365324
-2.0828943 -3.1647878 -1.0392736
-2.0974722 -3.1447468 -1.0368066
-2.1280355 -3.1485512 -1.0425632
-2.1636143 -3.15924 -1.050787
-2.1862471 -3.1506457 -1.0524318
-2.205538 -3.1371717 -1.0524318
-2.2208409 -3.1180961 -1.0505129
-2.2388062 -3.1028509 -1.0499647
-2.2612073 -3.0937142 -1.0516094
-2.2646992 -3.0589111 -1.0442079
-2.2949634 -3.0603466 -1.0496905
-2.332891 -3.0714819 -1.0587367
-2.3593149 -3.0670199 -1.0623003
-2.3869536 -3.0638661 -1.0664122
-2.3806932 -3.0174499 -1.054899
-2.3589485 -2.9524419 -1.0365324
-2.4120994 -2.9812787 -1.0524318
-2.4504569 -2.9909732 -1.061478
-2.480428 -2.9899452 -1.0666864
-2.5018196 -2.9783516 -1.0680571
-2.5094566 -2.95049 -1.0633968
-2.5074341 -2.9117153 -1.0546248
-2.5050311 -2.8730774 -1.0458528
-2.5226128 -2.8576529 -1.0458528
-2.5599637 -2.8643513 -1.0543506
-2.5923297 -2.8649926 -1.0606556
-2.6170049 -2.8568337 -1.063671
-2.5906756 -2.7934737 -1.0453044
-2.5761745 -2.7438686 -1.0321463
-2.5903122 -2.7252212 -1.0310498
-2.6136525 -2.7162066 -1.0337912
-2.6342955 -2.704252 -1.0354359
-2.6420615 -2.6791348 -1.0318723
-2.6611681 -2.6655955 -1.0329688
-2.6979802 -2.6695111 -1.0411925
-2.7218738 -2.6603014 -1.0442079
-4.1597853 -4.0163665 -1.6075391
-2.7452683 -2.6180704 -1.0406443
-2.7731798 -2.6123879 -1.0453044
-2.786341 -2.5927019 -1.0442079
-2.7958252 -2.5696988 -1.0417408
-2.8158116 -2.5563745 -1.0433856
-2.8235693 -2.5319855 -1.0403702
-2.839772 -2.5152507 -1.0406443
-2.8537042 -2.4965122 -1.040096
-2.8602374 -2.4714091 -1.0368066
-2.8687649 -2.4481933 -1.0343394
-2.8785856 -2.4262059 -1.0324205
-2.8882449 -2.4041901 -1.0305016
-2.9163134 -2.3974171 -1.0354359
-2.9369411 -2.3843277 -1.0376289
-2.949265 -2.3644571 -1.0368066
-2.9674873 -2.3493013 -1.0381771
-2.9879072 -2.3357878 -1.0403702
-2.9960933 -2.3127086 -1.0381771
-3.0102274 -2.2942815 -1.0381771
-3.0595932 -2.302371 -1.050787
-3.1076264 -2.3087931 -1.0628486
-3.1225097 -2.2902503 -1.0631227
-3.2011509 -2.3178673 -1.0858753
-3.2880695 -2.3501966 -1.1113691
-3.1397786 -2.215198 -1.0546248
-3.1493661 -2.1931427 -1.0532541
-3.1461213 -2.1623363 -1.0474975
-3.1760421 -2.15433 -1.0532541
-3.1556382 -2.11233 -1.0417408
-3.2102637 -2.1204941 -1.0559955
-3.2506056 -2.118613 -1.0653157
-3.240088 -2.0835407 -1.057366
-3.2625554 -2.069804 -1.0606556
-3.2809 -2.0533183 -1.0625745
-3.3482614 -2.0670009 -1.080941
-3.3740227 -2.0544212 -1.085327
-3.3832674 -2.0316992 -1.0842305
-4.5979266 -2.7230387 -1.4825372
-3.3697453 -1.9677169 -1.0716207
-3.3809221 -1.9465237 -1.0713465
-3.3693855 -1.9124476 -1.063671
-3.4204993 -1.9138116 -1.076555
-3.4035473 -1.8769946 -1.0672346
-3.4462619 -1.8730706 -1.0773773
-3.4771874 -1.8623346 -1.0836823
-3.485147 -1.8391682 -1.0825858
-3.4997792 -1.8195239 -1.0836823
-3.5690808 -1.8278303 -1.1023229
-3.6145732 -1.8232242 -1.113288
-3.6274147 -1.8018671 -1.1138363
-3.6617265 -1.7909867 -1.1212376
-3.6743796 -1.7693197 -1.1217859
-3.6955945 -1.7516847 -1.1250755
-3.7219598 -1.7362957 -1.1300098
-3.7727458 -1.7318852 -1.1426196
-3.8367627 -1.7328551 -1.1593413
-3.9879348 -1.7717673 -1.2032017
-3.9643641 -1.7322439 -1.1925107
-5.2702026 -2.2645686 -1.594381
-4.1013708 -1.7324979 -1.2284213
-4.1705418 -1.7316443 -1.2465137
-4.2665658 -1.7409083 -1.2728299
-4.3093009 -1.7275819 -1.2826985
-4.3493481 -1.7127388 -1.2917447
-4.3804045 -1.6939992 -1.2980497
-4.4095964 -1.6742599 -1.3038063
-4.4278965 -1.6501949 -1.3062735
-4.5661874 -1.669909 -1.3451995
-4.6424255 -1.6655729 -1.3652108
-4.7432728 -1.6689835 -1.3926234
-4.822515 -1.6636893 -1.4134572
-4.9720149 -1.6812096 -1.4553986
-5.1912847 -1.7199478 -1.5181737
-5.2282672 -1.6966728 -1.5261234
-5.3788061 -1.7091293 -1.5680648
-5.6683507 -1.7629365 -1.6513994
-5.714942 -1.739044 -1.6620904
-5.7964773 -1.7250721 -1.6831982
-5.867897 -1.7072084 -1.7012906
-5.9689136 -1.6969501 -1.728155
-6.038517 -1.676765 -1.7456992
-6.1025262 -1.6542789 -1.7615985
-6.1934457 -1.6382031 -1.7854476
-6.3737903 -1.6441387 -1.8356128
-6.5609622 -1.649563 -1.887697
-6.66717 -1.632843 -1.9159321
-6.7088695 -1.5994883 -1.9252523
-6.7438512 -1.5641614 -1.9326538
-6.7570744 -1.5235989 -1.9337503
-6.7775683 -1.4845796 -1.9370399
-6.7921939 -1.4441656 -1.9386846
-6.8028111 -1.4028509 -1.9392328
-6.8009176 -1.3590096 -1.9362174
-6.7959099 -1.3146964 -1.9323797
-6.8000674 -1.2722651 -1.9312831
-6.826673 -1.2339389 -1.9367657
-6.8265367 -1.1907057 -1.9345727
-6.8261271 -1.1475205 -1.9323797
-6.8472795 -1.1079195 -1.9364916
-6.8606009 -1.0669193 -1.9384105
-6.8717737 -1.0255134 -1.9397811
-6.8807931 -0.98373824 -1.9406035
-6.872407 -0.93954515 -1.9364916
-6.8913932 -0.89910179 -1.9403293
-6.8967805 -0.85680002 -1.9403293
-6.9009528 -0.81435329 -1.9400553
-6.8981738 -0.77113938 -1.9378622
-6.9199901 -0.73061699 -1.9427965
-6.911902 -0.68690592 -1.9392328
-6.9217319 -0.64501804 -1.9408776
-6.9418468 -0.60395294 -1.9455378
-6.9482975 -0.56157976 -1.9463601
-6.9516125 -0.51893526 -1.9463601
-6.9719357 -0.47745487 -1.9512944
-6.9747338 -0.4346669 -1.9512944
-6.9628673 -0.39105281 -1.9471825
-6.9660959 -0.34837019 -1.9474567
-6.9412007 -0.30443904 -1.9397811
-6.9554315 -0.26231477 -1.9433447
-6.9415307 -0.21914569 -1.9389588
-6.6215048 0.48625135 -1.9333584
-6.6174412 0.52679479 -1.9330734
-6.6121745 0.5672245 -1.9325033
-6.603797 0.60734564 -1.9310782
-6.6066236 0.64851099 -1.9330734
-6.6015668 0.68893659 -1.9327884
-6.6000733 0.72974658 -1.9336435
-6.5878553 0.76933932 -1.9313632
-6.5763512 0.80892688 -1.9293681
-6.5665112 0.84864825 -1.927943
-6.5573807 0.88840824 -1.926803
-6.5565515 0.92930025 -1.928228
-6.5621037 0.97119898 -1.9316483
-6.5626521 1.0124692 -1.9336435
-6.5354962 1.0493711 -1.9273731
-6.5308251 1.0897682 -1.927943
-6.4852934 1.1231073 -1.9162573
-6.5037522 1.1674562 -1.9239528
-6.5021205 1.2083923 -1.9256629
-6.4861126 1.246636 -1.9230977
-6.4585981 1.2824867 -1.9171124
-6.461875 1.3244032 -1.9205326
-6.4573784 1.3648211 -1.9216726
-6.4516916 1.4050295 -1.9225277
-6.4438844 1.4447998 -1.9228127
-6.4479737 1.48733 -1.926803
-6.4443216 1.528194 -1.9285131
-6.4161987 1.5631659 -1.9228127
-6.3971882 1.6001779 -1.9199625
-6.4048886 1.6439309 -1.9253778
-6.4030232 1.685397 -1.927943
-6.3916359 1.7244036 -1.927658
-6.364306 1.7589904 -1.9225277
-6.3626156 1.8006196 -1.9253778
-6.3376379 1.8356236 -1.9211025
-6.3069568 1.8687541 -1.9151171
-6.3128004 1.9127017 -1.9205326
-6.2991142 1.950833 -1.9199625
-6.2989049 1.9932083 -1.9236678
-6.278348 2.0291655 -1.9211025
-6.2575874 2.0649459 -1.9185374
-6.234808 2.0999355 -1.9154022
-6.2136474 2.1353469 -1.912837
-6.1950016 2.1715295 -1.9111269
-6.1896834 2.2124057 -1.9136921
-6.1759915 2.2503431 -1.9136921
-6.1414018 2.2805178 -1.9071367
-6.1344647 2.3208725 -1.9094168
-6.1210032 2.358814 -1.9097018
-6.1206899 2.4019325 -1.9142621
-6.144999 2.4550974 -1.926803
-6.112062 2.4855313 -1.9211025
-6.0869541 2.518954 -1.9179673
-6.0581336 2.550674 -1.9136921
-6.0370827 2.5855329 -1.9119819
-6.0263767 2.6248245 -1.9136921
-6.0189209 2.6656353 -1.9165423
-6.0041995 2.7033038 -1.9171124
-5.9709406 2.7325127 -1.9116969
-5.9340734 2.7597978 -1.9051415
-5.9066291 2.7912405 -1.9017212
-5.9118562 2.8382201 -1.9091318
-5.9132819 2.8836877 -1.9154022
-5.8937588 2.9190655 -1.9148321
-5.8688869 2.9517272 -1.912552
-5.8310328 2.9776528 -1.9059966
-5.8466878 3.0310276 -1.9173973
-5.7770901 3.0400538 -1.9002962
-5.7701635 3.0817683 -1.9042864
-5.7570438 3.1203134 -1.9062816
-5.73527 3.1541932 -1.9054265
-5.7417541 3.2038078 -1.9142621
-5.7161493 3.235672 -1.912267
-5.6812272 3.2620909 -1.9071367
-5.6884351 3.3128123 -1.9165423
-5.6481957 3.3359511 -1.9097018
-5.6284423 3.3710377 -1.9099869
-5.6027369 3.4025235 -1.9082767
-5.5793056 3.4353292 -1.9074216
-5.5573092 3.4689908 -1.9071367
-5.5480671 3.5107148 -1.9114119
-5.522388 3.5421026 -1.9099869
-5.4989429 3.5748756 -1.9094168
-5.480906 3.6111867 -1.9108418
-5.4442978 3.6351657 -1.9057115
-5.4155402 3.6642044 -1.9034314
-5.3961167 3.6995332 -1.9045714
-5.3756766 3.7342145 -1.9054265
-5.3573656 3.7704396 -1.9071367
-5.3473959 3.8127029 -1.9119819
-5.3324471 3.8516173 -1.9151171
-5.2909236 3.871243 -1.9085617
-5.2686105 3.9047763 -1.9091318
-5.2506838 3.9416351 -1.9114119
-5.2195334 3.9685559 -1.9088467
-5.1867318 3.9940734 -1.9057115
-5.1802645 4.0399737 -1.912552
-5.15237 4.0693064 -1.9114119
-5.1205683 4.0954547 -1.9088467
-5.0886397 4.121366 -1.9062816
-5.0639968 4.1531196 -1.9065666
-5.0502148 4.1939135 -1.9111269
-5.0148506 4.2168012 -1.9074216
-4.9918013 4.2499781 -1.9085617
-4.9707112 4.2849092 -1.9105569
-4.9421601 4.313437 -1.9097018
-4.9120092 4.3405061 -1.9082767
-4.8824272 4.3680072 -1.9071367
-4.8427477 4.3862982 -1.9020063
-4.7987905 4.4003797 -1.8951658
-4.759057 4.4180007 -1.8900355
-4.7514129 4.4655023 -1.898016
-4.739893 4.5097713 -1.9045714
-4.7155833 4.5420957 -1.9059966
-4.6903696 4.5736213 -1.9071367
-4.6649461 4.6050091 -1.9082767
-4.6352468 4.6321902 -1.9077066
-4.601347 4.6550899 -1.9054265
-4.5653329 4.6756902 -1.9022913
-4.5259128 4.692574 -1.8977309
-4.4990177 4.7223387 -1.898586
-4.4758682 4.7561383 -1.9011512
-4.4492106 4.7863212 -1.9022913
-4.4255919 4.8198862 -1.9048564
-4.3946466 4.84553 -1.9042864
-4.3597169 4.8666916 -1.9020063
-4.3246932 4.8876066 -1.8997262
-4.2769642 4.8938389 -1.8917456
-4.2637625 4.9395838 -1.8994411
-4.2408342 4.9744072 -1.9028614
-4.1960359 4.9834681 -1.8963059
-4.1770205 5.0231256 -1.9017212
-4.147337 5.0501428 -1.9022913
-4.107821 5.0650711 -1.898301
-4.0718727 5.0841947 -1.8960209
-4.0405998 5.1090837 -1.8960209
-4.0144835 5.1405802 -1.898586
-3.9623845 5.138545 -1.8886104
-3.9360051 5.1696258 -1.8911755
-3.9151514 5.2082386 -1.8965909
-3.8894026 5.2406316 -1.8997262
-3.8435805 5.2458386 -1.8928857
-3.8062658 5.2623329 -1.8903205
-3.7722344 5.2832479 -1.8894655
-3.7276011 5.2890558 -1.883195
-3.6961725 5.3134022 -1.8837651
-3.6765177 5.3549485 -1.8906054
-3.6403658 5.3726449 -1.8888954
-3.6158538 5.4076309 -1.8934557
-3.5752168 5.4185133 -1.8894655
-3.5502672 5.4532027 -1.8940257
-3.5001678 5.4490738 -1.8849051
-3.4620507 5.46316 -1.88234
-3.440655 5.503809 -1.8891804
-3.4128549 5.5346084 -1.8926007
-3.3743496 5.5480738 -1.8900355
-3.3461585 5.5785389 -1.8934557
-3.3084512 5.5931897 -1.8914605
-3.2687593 5.6042762 -1.8883253
-3.2376544 5.6300445 -1.8903205
-3.1978498 5.6406312 -1.8871853
-3.1528952 5.6417365 -1.8809148
-3.121455 5.6668539 -1.88291
-3.0934825 5.6985373 -1.8871853
-3.0607185 5.7216377 -1.8886104
-3.0251067 5.7394624 -1.8883253
-2.9898331 5.757916 -1.8883253
-2.9452839 5.7582302 -1.88234
-2.921536 5.7993088 -1.8900355
-2.8871746 5.8197021 -1.8908905
-2.8572991 5.8493667 -1.8948808
-2.8147101 5.8529663 -1.8903205
-2.7836633 5.8805237 -1.8937408
-2.754812 5.9131341 -1.8988711
-2.7053013 5.9011698 -1.8894655
-2.6643143 5.9071722 -1.8860452
-2.6427839 5.956706 -1.896876
-2.5992873 5.9569945 -1.8917456
-2.5589089 5.9640222 -1.8888954
-2.524873 5.9857936 -1.8908905
-2.488831 6.0029445 -1.8914605
-2.4472513 6.0065622 -1.8877553
-2.4035847 6.0045562 -1.88234
-2.3670468 6.0200834 -1.882625
-2.3369658 6.0523787 -1.8883253
-2.2950306 6.0540552 -1.884335
-2.2578404 6.0680237 -1.884335
-2.2192509 6.0781612 -1.883195
-2.1977439 6.1358838 -1.897161
-2.1571958 6.1411133 -1.8945957
-2.11885 6.1524215 -1.8940257
-2.0737064 6.1435089 -1.8871853
-2.0335648 6.1488366 -1.8849051
-1.9975694 6.1666703 -1.8866153
-1.9608523 6.182466 -1.8877553
-1.9217445 6.1907191 -1.8866153
-1.8837228 6.202394 -1.8866153
-1.8489032 6.2248626 -1.8900355
-1.812543 6.2425337 -1.8920306
-1.7749898 6.2563043 -1.8928857
-1.7368243 6.2680016 -1.8931707
-1.6953304 6.2674365 -1.8897505
-1.6463314 6.2378674 -1.8774946
-1.6075481 6.245995 -1.8769246
-1.5684941 6.2529521 -1.8760695
-1.5344164 6.2801504 -1.8814849
-1.4947453 6.2847848 -1.8800598
-1.4539955 6.2844992 -1.8772095
-1.4170884 6.3007836 -1.8794898
-1.380445 6.3187251 -1.88234
-1.3418467 6.3280139 -1.882625
-1.3161111 6.3999743 -1.9020063
-1.2713897 6.3806672 -1.8937408
-1.2271364 6.3619943 -1.8857602
-1.1864965 6.3609233 -1.883195
-1.1474442 6.368084 -1.883195
-1.1154015 6.4156132 -1.8954508
-1.0806034 6.4497519 -1.9037164
-1.035826 6.4240861 -1.8940257
-1.0026931 6.4710522 -1.9062816
-0.95930797 6.4524317 -1.8988711
-0.92590714 6.5018492 -1.9119819
-0.88108766 6.4713163 -1.9011512
-0.8467896 6.518425 -1.9136921
-0.80513263 6.51018 -1.9097018
-0.76115274 6.4807258 -1.8994411
-0.72602844 6.5271912 -1.9119819
-0.68006772 6.4752789 -1.8951658
-0.64427549 6.5193934 -1.9071367
-0.60064316 6.4840913 -1.8954508
-0.56216437 6.502934 -1.9000112
-0.52294123 6.5148602 -1.9025763
-0.48288628 6.5169907 -1.9022913
-0.4445743 6.5446954 -1.9097018
-0.40594044 6.5721745 -1.9171124
-0.36481091 6.5601859 -1.912837
-0.32374948 6.5460253 -1.9079916
-0.28262776 6.5258632 -1.9014362
-0.24243878 6.523643 -1.9002962
-0.20320371 6.5508757 -1.9079916
-0.16208135 6.5146284 -1.896876
-0.12173171 6.4953747 -1.8908905
-0.081946 6.50175 -1.8926007
-0.042014305 6.4963794 -1.8908905
-0.0021561375 6.5204778 -1.898016
0.037944563 6.5357046 -1.9025763
0.078069411 6.5372653 -1.9031464
0.11868726 6.564456 -1.9114119
0.15903389 6.5664787 -1.912267
0.19935131 6.5663376 -1.912552
0.23921624 6.5534964 -1.9091318
0.28028446 6.5720153 -1.9151171
0.32069808 6.5720868 -1.9156872
0.3565858 6.4896016 -1.8917456
0.39933011 6.5351276 -1.9059966
0.43329382 6.4417014 -1.8789197
0.47773692 6.505837 -1.8988711
0.51627481 6.4855843 -1.8937408
0.55548525 6.4756093 -1.8917456
0.59520841 6.4720793 -1.8917456
0.63181353 6.4368258 -1.88234
0.67538321 6.4719143 -1.8940257
0.71856308 6.4990873 -1.9034314
0.7517463 6.4374342 -1.8863302
0.79228616 6.4412622 -1.8888954
0.83425456 6.4552913 -1.8945957
0.87449205 6.4548001 -1.8960209
0.90963709 6.4179955 -1.8866153
0.95026451 6.4208269 -1.8891804
0.98759568 6.4016132 -1.8851901
1.0282258 6.4039502 -1.8877553
1.0640259 6.3767214 -1.8814849
1.108372 6.4002943 -1.8906054
1.1452492 6.3801651 -1.8866153
1.1791166 6.3447475 -1.8780646
1.2207413 6.351512 -1.88234
1.2535242 6.3128777 -1.8729343
1.2928135 6.3078842 -1.8737894
1.3346677 6.3148375 -1.8783497
1.3811466 6.3421173 -1.8891804
1.4225535 6.3447466 -1.8926007
1.4603794 6.3312287 -1.8911755
1.5040689 6.3426666 -1.8974459
1.5443207 6.3389058 -1.8991561
1.5820227 6.3246613 -1.8977309
1.5993388 6.2312803 -1.8720793
1.6309509 6.1963234 -1.8643837
1.6671913 6.1797218 -1.8623886
1.7053335 6.1702995 -1.8626736
1.7405499 6.150497 -1.8598235
1.7833256 6.1571937 -1.8652388
1.824069 6.1562443 -1.868374
1.8637555 6.1513572 -1.8703692
1.9040179 6.1480455 -1.8729343
1.9518327 6.1682301 -1.88291
1.9866941 6.147018 -1.8800598
2.0261772 6.140173 -1.8817699
2.059835 6.1158166 -1.8780646
2.0938938 6.093092 -1.8749294
2.1420269 6.1108828 -1.8846201
2.1727037 6.078671 -1.8786347
2.2083194 6.0607224 -1.8772095
2.2377877 6.0263925 -1.8706541
2.2804916 6.0277877 -1.8754995
2.3101928 5.9949002 -1.8695141
2.3532391 5.9966722 -1.8746444
2.3921244 5.9874606 -1.8763546
2.429179 5.9735579 -1.8766396
2.4610195 5.9470272 -1.8729343
2.5030448 5.945065 -1.8772095
2.5394759 5.9295945 -1.8772095
2.573514 5.9086285 -1.8754995
2.6081672 5.8892212 -1.8743594
2.647403 5.8800988 -1.8766396
2.6806395 5.8576431 -1.8746444
2.7112741 5.8297873 -1.8709391
2.7498617 5.8191071 -1.8729343
2.7867603 5.8047171 -1.8737894
2.8193829 5.7814779 -1.8717942
2.856081 5.7666464 -1.8726493
2.8931341 5.7524381 -1.8737894
2.9248874 5.7277493 -1.8715092
2.9635077 5.7165017 -1.8737894
3.0029929 5.7066922 -1.8766396
3.0370483 5.6864681 -1.8760695
3.0695982 5.6635127 -1.8746444
3.1079876 5.6512899 -1.8769246
3.1426048 5.6321135 -1.8769246
3.178993 5.6160607 -1.8780646
3.2124376 5.5947871 -1.8774946
3.2486362 5.5782833 -1.8786347
3.2832904 5.5590701 -1.8789197
3.3188164 5.5412865 -1.8797748
3.348773 5.5142646 -1.8774946
3.3780205 5.486268 -1.8749294
3.4085739 5.4605598 -1.8732194
3.4430404 5.4411621 -1.8737894
3.4846442 5.4328413 -1.8783497
3.5173914 5.4105539 -1.8780646
3.5463037 5.3824673 -1.8757845
3.5813928 5.3637943 -1.8769246
3.6147742 5.3425121 -1.8772095
3.6539929 5.3297176 -1.8806298
3.6817038 5.3001127 -1.8780646
3.7125001 5.2750711 -1.8772095
3.7397878 5.2451692 -1.8746444
3.7842517 5.2392159 -1.8809148
3.8112323 5.2089362 -1.8783497
3.8459764 5.1893029 -1.8797748
3.8794718 5.1679058 -1.8806298
3.9151704 5.1493449 -1.882625
3.9385033 5.1145945 -1.8786347
3.9786556 5.1016679 -1.88291
4.010478 5.0779114 -1.883195
4.0385661 5.0494657 -1.8817699
4.0700765 5.0253353 -1.8820549
4.0947547 4.992857 -1.8792048
4.1253133 4.967638 -1.8792048
4.1588016 4.9458995 -1.8806298
4.1847205 4.9151802 -1.8786347
4.2285719 4.9053807 -1.8849051
4.2459826 4.8649015 -1.8792048
4.2801971 4.8437843 -1.8811998
4.313673 4.8217158 -1.88291
4.3418899 4.793736 -1.88234
4.371222 4.7670045 -1.88234
4.3906054 4.729558 -1.8780646
4.4339871 4.7178922 -1.884335
4.4602089 4.68782 -1.883195
4.4835682 4.6548424 -1.8809148
4.5100374 4.6251855 -1.8800598
4.5457406 4.604928 -1.883195
4.5759435 4.5789828 -1.88405
4.605999 4.5528402 -1.8849051
4.6400213 4.5305181 -1.8874702
4.6594524 4.4939785 -1.88405
4.6869392 4.4653044 -1.88405
4.7177401 4.4397454 -1.8854752
4.7469997 4.412672 -1.8863302
4.7662182 4.3763318 -1.883195
4.7887206 4.343142 -1.8814849
4.8045688 4.3040853 -1.8772095
4.8545804 4.2954807 -1.8866153
4.8750706 4.2605677 -1.884335
4.8996701 4.229322 -1.8837651
4.9313645 4.2041526 -1.8860452
4.9409347 4.1602359 -1.8797748
4.9906931 4.1500607 -1.8891804
5.031621 4.1321321 -1.8951658
5.041245 4.0885048 -1.8891804
5.0639915 4.0556979 -1.8883253
5.0910373 4.0263329 -1.8891804
5.1111135 3.9914801 -1.8874702
5.1560059 3.9758437 -1.8951658
5.1597099 3.9284585 -1.8874702
5.2044072 3.9122722 -1.8951658
5.2021413 3.8608472 -1.8854752
5.2257328 3.8288548 -1.8854752
5.2638865 3.807389 -1.8908905
5.2894893 3.7766893 -1.8917456
5.3211827 3.7502348 -1.8948808
5.3377976 3.7131364 -1.8926007
5.3596907 3.6797719 -1.8923156
5.3924851 3.6538041 -1.8960209
5.4076309 3.6158538 -1.8934557
5.4585214 3.601604 -1.9037164
5.4588261 3.5539272 -1.8960209
5.4853692 3.5234728 -1.8977309
5.5036469 3.4876971 -1.8965909
5.5119376 3.4457345 -1.8920306
5.546032 3.4198964 -1.8965909
5.5734639 3.3897855 -1.8988711
5.5867596 3.3510876 -1.8963059
5.6014404 3.3133297 -1.8943107
5.6200094 3.2779322 -1.8937408
5.6450024 3.2462528 -1.8954508
5.6789918 3.2195885 -1.9002962
5.6919451 3.1809425 -1.898016
5.7172337 3.1491938 -1.9000112
5.7381339 3.1149685 -1.9005812
5.7588296 3.0806053 -1.9011512
5.7682953 3.0402973 -1.898016
5.7817369 3.002197 -1.8963059
5.8205318 2.9771364 -1.9031464
5.8326969 2.9383488 -1.9011512
5.8583455 2.906337 -1.9037164
5.8398919 2.8526731 -1.8917456
5.8546939 2.8155406 -1.8908905
5.8926539 2.7894027 -1.8977309
5.8983622 2.7479334 -1.8940257
5.9334116 2.7200751 -1.9000112
5.9561067 2.6863747 -1.9020063
5.9978886 2.6610465 -1.9102719
6.0097108 2.6222782 -1.9088467
6.0318542 2.5879984 -1.9108418
6.0467367 2.5505667 -1.9105569
6.0711279 2.517086 -1.9134071
6.0908971 2.4815943 -1.9148321
6.1193581 2.4495153 -1.9191074
6.1253519 2.4084158 -1.9162573
6.1257067 2.3652642 -1.9116969
6.1625128 2.3361235 -1.9188224
6.1776295 2.2986012 -1.9191074
6.1736083 2.2540808 -1.9134071
6.1737862 2.2113121 -1.9091318
6.1971869 2.1768813 -1.912267
6.2167716 2.1409988 -1.9142621
6.2370572 2.1052642 -1.9165423
6.2407565 2.0639467 -1.9136921
6.2697177 2.0309293 -1.9188224
6.277493 1.9909726 -1.9173973
6.2758589 1.9481571 -1.9131221
6.3014526 1.9137882 -1.9173973
6.299293 1.870996 -1.9131221
6.3069725 1.8312405 -1.9119819
6.3282342 1.7953832 -1.9151171
6.34375 1.7577991 -1.9165423
6.3627439 1.7210926 -1.9191074
6.3676238 1.6805525 -1.9173973
6.3787436 1.6416886 -1.9176823
6.3682423 1.5973915 -1.9114119
6.405859 1.5651066 -1.9199625
6.3724442 1.5155772 -1.9068516
6.4404588 1.4900492 -1.9248078
6.4261007 1.4452493 -1.9176823
6.4563861 1.4104939 -1.9242377
6.4396014 1.3654877 -1.9165423
6.4581866 1.3280714 -1.9196775
6.4756145 1.2902911 -1.9225277
6.4871745 1.2512586 -1.9236678
6.5022683 1.2128352 -1.9259479
6.5124178 1.1734246 -1.926803
6.504385 1.1308188 -1.9222426
6.5187645 1.0921532 -1.9245228
6.5130405 1.0501529 -1.9208175
6.51652 1.00973 -1.9199625
6.5453477 0.97310531 -1.926803
6.5198793 0.92847151 -1.9173973
6.5567966 0.89271057 -1.926803
6.5583487 0.85196877 -1.9256629
6.5444269 0.80936188 -1.9199625
6.5692616 0.77153522 -1.9259479
6.5738721 0.73121244 -1.9259479
6.552496 0.68816358 -1.9182523
6.5632725 0.64860392 -1.9202476
6.5604472 0.60770255 -1.9182523
6.576467 0.56850797 -1.9219576
6.5836535 0.52845091 -1.9230977
6.6001549 0.48903364 -1.927088
6.6011186 0.44839707 -1.926518
6.6018324 0.40776709 -1.9259479
6.6022959 0.36714521 -1.9253778
6.605382 0.32667455 -1.9256629
6.6120501 0.28634506 -1.927088
6.6251769 0.24619402 -1.9305083
6.6169825 0.20524257 -1.927658
6.634407 0.16504005 -1.9325033
6.6228361 0.12409773 -1.9287981
6.6282649 0.083517976 -1.9302232
6.6372795 0.042900383 -1.9327884
6.6326251 0.0021732643 -1.9313632
6.6267624 -0.03848939 -1.9296532
6.6350274 -0.079254262 -1.9322183
6.6353745 -0.11998203 -1.9325033
6.6440959 -0.16092743 -1.9353535
6.6487317 -0.20186734 -1.9370637
6.6464105 -0.24262427 -1.9367787
6.6582036 -0.28397545 -1.940769
6.6620798 -0.3251054 -1.942479
6.6666594 -0.36634636 -1.9444741
6.6537619 -0.40660036 -1.9413389
6.6454034 -0.44703242 -1.9396288
6.6348882 -0.4872365 -1.9373487
6.621263 -0.52709967 -1.9342134
6.6599245 -0.57132918 -1.9467543
6.6763372 -0.61402988 -1.9527397
6.6772137 -0.65545261 -1.9541649
6.6644864 -0.69551396 -1.9515996
6.6572351 -0.73607689 -1.9507446
6.6583056 -0.77757913 -1.9524547
6.653409 -0.8184191 -1.9524547
6.6463609 -0.85898221 -1.9518846
6.637166 -0.89923191 -1.9507446
6.6115942 -0.93711162 -1.9447591
6.6019268 -0.97709996 -1.9436191
6.6109638 -1.0199312 -1.9481794
6.57619 -1.0559124 -1.9396288
6.5412245 -1.0915054 -1.9310782
6.4267387 -1.1129563 -1.898586
6.2273326 -1.1177874 -1.8404421
6.0535598 -1.1249477 -1.7899938
0 -0 -0
5.9095607 -1.1733636 -1.750661
5.8496675 -1.1988151 -1.7347
5.7699938 -1.2194103 -1.7127535
0 -0 -0
0 -0 -0
0 -0 -0
5.7476563 -1.3628591 -1.7156037
5.7252169 -1.3946947 -1.7113284
5.7109723 -1.4284011 -1.7096183
5.7169547 -1.4672315 -1.7141786
5.6967216 -1.4993526 -1.7107583
5.6503987 -1.5242854 -1.6993576
5.6298537 -1.5558608 -1.6959374
5.6340346 -1.5942932 -1.7002126
5.6287494 -1.6301671 -1.7016377
5.6085324 -1.6616766 -1.6985025
5.5679603 -1.6868812 -1.6890969
5.5565891 -1.7207301 -1.6888119
5.5632887 -1.7602898 -1.6942272
5.555119 -1.7952771 -1.6950823
5.5048609 -1.816406 -1.6828265
5.4999704 -1.8522918 -1.6848216
5.4866886 -1.8853807 -1.6842515
5.452404 -1.9110801 -1.677126
5.4432831 -1.9454678 -1.6779811
5.4231386 -1.9758757 -1.675416
5.4198976 -2.0124526 -1.6782662
5.4065509 -2.0453312 -1.6779811
5.3965826 -2.0795012 -1.6788362
5.3676615 -2.1062694 -1.6737058
5.3475161 -2.1363187 -1.6714257
5.3209896 -2.1636717 -1.6671504
5.3022995 -2.1940799 -1.6654403
5.2719536 -2.2195029 -1.6600249
5.262641 -2.2536969 -1.66145
5.2487135 -2.2859454 -1.66145
5.2635078 -2.3309216 -1.6708556
5.2499804 -2.3635678 -1.6711407
5.2423511 -2.3989289 -1.6734208
5.2231879 -2.4290283 -1.6719958
5.2125177 -2.4630799 -1.6734208
5.1990347 -2.495847 -1.6739908
5.1905141 -2.5310628 -1.6762711
5.1783218 -2.5645659 -1.6774111
5.1727633 -2.6014612 -1.6808313
5.168654 -2.6392567 -1.6848216
5.1447043 -2.6669497 -1.6822565
5.1282434 -2.6984668 -1.6822565
5.116662 -2.7325926 -1.6839665
5.0922151 -2.7598243 -1.6814014
5.0793843 -2.7933278 -1.6828265
5.0546165 -2.8202369 -1.6802613
5.0280418 -2.8460028 -1.677126
5.0104847 -2.8768008 -1.677126
4.9753461 -2.8973572 -1.6711407
4.9483972 -2.9224675 -1.6680055
4.9303718 -2.9527752 -1.6680055
4.9252682 -2.9909348 -1.6725658
4.9109039 -3.023613 -1.6739908
4.879251 -3.0455654 -1.6694306
4.849133 -3.068269 -1.6654403
4.8334422 -3.1000357 -1.6665803
4.8079014 -3.1254539 -1.6643002
4.7830315 -3.1512034 -1.6623051
4.7572293 -3.1762331 -1.6600249
4.7590828 -3.2198696 -1.6677204
4.7218466 -3.237083 -1.66145
4.6971722 -3.262713 -1.6597399
4.6911721 -3.3014052 -1.6648703
4.6536589 -3.3178823 -1.6585999
4.6262207 -3.3413217 -1.6560347
4.5839744 -3.3537929 -1.6480541
4.5810194 -3.3949866 -1.6546096
4.558569 -3.4218802 -1.6540395
4.5474048 -3.4573302 -1.6577448
4.5283833 -3.4869223 -1.6585999
4.4970779 -3.5069776 -1.6548946
4.4732189 -3.5327225 -1.6540395
4.4649301 -3.5708821 -1.6591699
4.4496384 -3.6036417 -1.6617351
4.421515 -3.6260126 -1.6594549
4.3962336 -3.6506243 -1.6583148
4.3854876 -3.6874025 -1.6628752
4.3591309 -3.7111344 -1.66145
4.3297443 -3.732178 -1.6588849
4.2829351 -3.7378709 -1.6494793
4.27141 -3.7742374 -1.6540395
4.2538853 -3.8054891 -1.6563196
4.211987 -3.8147852 -1.6489092
4.1969771 -3.8483331 -1.6523294
4.1767969 -3.877274 -1.6537545
4.1550226 -3.9047992 -1.6546096
4.1400113 -3.9388113 -1.6583148
2.3432298 -2.2562108 -0.92638534
2.330714 -2.2718847 -0.9269554
2.3208222 -2.290184 -0.92866552
3.9648225 -3.961971 -1.6258227
3.9411116 -3.9869061 -1.6261076
3.9179132 -4.0123849 -1.6266776
3.9311416 -4.0756817 -1.6429237
3.8849061 -4.0775146 -1.6338031
3.8873985 -4.1305971 -1.645774
3.8515406 -4.1431375 -1.6412137
3.8610468 -4.2048244 -1.6566046
3.8371053 -4.2305665 -1.6574597
3.7976465 -4.2390356 -1.6514744
3.7842658 -4.2766175 -1.6571747
3.7623682 -4.3048096 -1.6591699
3.7390144 -4.3314424 -1.6605949
3.721071 -4.3645167 -1.6645852
3.6966898 -4.3901997 -1.6657254
3.6776478 -4.4223819 -1.6694306
3.6534843 -4.4485688 -1.6708556
3.6025779 -4.441864 -1.6597399
3.5962222 -4.4900746 -1.6697155
3.569793 -4.5135598 -1.6702856
2.0096571 -2.5724413 -0.92980558
1.9885684 -2.5778913 -0.92724037
1.9680693 -2.5839427 -0.92496026
1.9492984 -2.5921383 -0.92353517
1.9322144 -2.6025107 -0.92296511
1.9173421 -2.615864 -0.92353517
1.6957029 -2.343287 -0.8192181
1.6712697 -2.3396041 -0.81408775
1.6574347 -2.3505986 -0.81437278
3.2764499 -4.7098031 -1.6651553
3.2539983 -4.7393017 -1.6685755
3.2178693 -4.7488618 -1.6648703
3.17855 -4.7533755 -1.6594549
3.1493239 -4.7727895 -1.6594549
3.1137054 -4.782383 -1.6560347
3.0760164 -4.7884932 -1.6514744
3.0732493 -4.8493834 -1.6662953
3.0510554 -4.880342 -1.6705706
3.0155203 -4.8899956 -1.6674354
2.9854591 -4.9084063 -1.6674354
2.9557784 -4.9274545 -1.6677204
2.9196341 -4.9355969 -1.6643002
2.8786738 -4.9352012 -1.6580298
2.8316188 -4.923686 -1.6480541
2.8065526 -4.950141 -1.6511893
2.7681797 -4.953043 -1.6463439
2.74051 -4.9749727 -1.6480541
2.7099326 -4.9916945 -1.6480541
2.681061 -5.0116096 -1.6491942
2.6475792 -5.0228777 -1.6474841
2.6096444 -5.0254164 -1.6429237
2.573524 -5.0310926 -1.6395035
1.5381587 -3.0520546 -0.97540867
1.5202543 -3.0631526 -0.97597867
1.5026921 -3.075007 -0.97683376
2.4679666 -5.1316104 -1.6523294
2.4335632 -5.1405921 -1.6503342
2.3950968 -5.1406555 -1.645489
2.359117 -5.1456695 -1.6423538
2.3274994 -5.1600475 -1.6423538
2.2954056 -5.1733556 -1.6420687
2.2624698 -5.1847067 -1.6412137
2.2309921 -5.1993723 -1.6414987
2.189738 -5.1908827 -1.6343732
2.1585801 -5.2059922 -1.6349432
2.1114128 -5.1818538 -1.6229724
2.0795779 -5.1947117 -1.6229724
2.0480151 -5.2082663 -1.6232574
