# .PCD v0.7 - Point Cloud Data file format
VERSION 0.7
FIELDS x y z
SIZE 4 4 4
TYPE F F F
COUNT 1 1 1
WIDTH 1675
HEIGHT 1
VIEWPOINT 0 0 0 1 0 0 0
POINTS 1675
DATA ascii
2.0006084 -2.5953755 0.029918961
1.9767762 -2.597255 0.029943919
1.9608026 -2.6093352 0.029943919
1.9459462 -2.6229241 0.02994008
1.9239095 -2.6267452 0.029959278
1.9089272 -2.6401217 0.029955437
1.9170792 -2.6859791 0.029874803
0 -0 -0
10.144247 -14.597182 0.0020828962
10.05053 -14.653379 0.0020963352
24.92012 -36.818192 -0.049144756
24.969774 -37.383698 -0.050098926
24.302441 -36.872406 -0.048572637
24.673233 -37.93964 -0.050676804
24.428635 -38.072643 -0.050636485
24.22719 -38.273357 -0.050753597
23.117464 -37.020878 -0.047583908
22.859457 -37.112644 -0.047472555
22.705551 -37.374424 -0.047747094
23.403961 -39.062275 -0.051214363
23.400366 -39.605492 -0.052107099
23.2299 -39.873619 -0.052385479
22.992771 -40.029278 -0.052416198
22.75313 -40.18092 -0.052441157
22.514929 -40.335491 -0.052475713
22.139278 -40.240696 -0.05196695
21.852388 -40.302818 -0.051807601
0 -0 -0
21.836872 -41.481148 -0.0537889
21.632118 -41.711121 -0.053998165
21.308905 -41.712158 -0.053715944
20.880878 -41.500877 -0.052982558
20.691545 -41.760834 -0.053266697
20.388441 -41.79174 -0.053063191
20.196133 -42.050369 -0.053349249
6.9215484 -14.639093 0.0051220362
6.8088155 -14.632327 0.0052257087
6.7343063 -14.707472 0.0051546739
6.6303844 -14.718428 0.005218029
19.322056 -43.610092 -0.055365104
19.038527 -43.692078 -0.05529023
18.898462 -44.107727 -0.055916104
18.595249 -44.146366 -0.055756755
18.396696 -44.435184 -0.056121528
18.208111 -44.754715 -0.056551579
17.922024 -44.837738 -0.056493983
17.739752 -45.184223 -0.056983545
17.562172 -45.551613 -0.057517268
17.3365 -45.801609 -0.057811007
17.034943 -45.852753 -0.057699654
16.788893 -46.054123 -0.057899322
16.691181 -46.674156 -0.058955245
16.536186 -47.151268 -0.05971935
0 -0 -0
15.971331 -47.395184 -0.059809584
15.710314 -47.58345 -0.059993889
15.381747 -47.566673 -0.059767347
15.184063 -47.958561 -0.060368262
4.6423893 -14.979022 0.0061030854
4.5260243 -14.926837 0.0062643536
14.682425 -49.524246 -0.062960073
4.2551126 -14.679663 0.0068671899
4.2314329 -14.940266 0.0063987439
4.0693197 -14.711497 0.0069055869
3.9419692 -14.599096 0.0071782074
3.8622489 -14.660723 0.0071033328
13.083191 -50.940594 -0.064762823
3.7344911 -14.916552 0.0066886428
3.6284478 -14.879921 0.0068057543
3.5513916 -14.96223 0.0066867229
0 -0 -0
0.51271909 -2.280015 0.03172363
0.49765494 -2.2782328 0.03173323
0.49090874 -2.3154857 0.031666033
0.47187006 -2.2949438 0.031712111
0.45134807 -2.2654288 0.031775467
0.43177289 -2.2386956 0.031833064
0.41108021 -2.2039435 0.031906016
0.40002468 -2.2202036 0.031879138
0.38502809 -2.2147341 0.031894498
0.3730787 -2.2269182 0.031875297
0.39304432 -2.4384797 0.031468287
0.38662046 -2.4961894 0.031360775
0.37671867 -2.535115 0.031289741
0 -0 -0
0 -0 -0
0 -0 -0
0 -0 -0
0 -0 -0
0.31737122 -2.8563745 0.030692665
0.29266796 -2.7896419 0.030825134
0.30723971 -3.1138306 0.0302031
0.29390574 -3.1783915 0.030082149
0.16979291 -1.9626228 0.03242822
0.15663446 -1.9496719 0.032455098
0.14422834 -1.9446125 0.032466616
0.13047802 -1.918522 0.032518454
0.11693112 -1.8903408 0.032574128
0.10346004 -1.8570741 0.032639403
0.092356525 -1.8636669 0.032627884
0.08117599 -1.870193 0.032616366
0.069699176 -1.8706559 0.032616366
0.058158778 -1.8690493 0.032620206
0.046762448 -1.87237 0.032614447
0.034981556 -1.8566244 0.032645162
0.023407735 -1.8418052 0.032673962
0.012064613 -1.8349143 0.0326874
0.00080615329 -1.8319538 0.032693159
-0.010282545 -1.8079247 0.032739237
-0.021425441 -1.8118273 0.032731555
-0.034290884 -1.9056454 0.032551091
-0.046626233 -1.931391 0.032501172
-0.058630504 -1.9360662 0.032491576
-0.070989922 -1.9486611 0.032466616
-0.083376691 -1.9581795 0.032447416
-0.095488809 -1.9596286 0.032443579
-0.10867428 -1.9799736 0.03240326
-0.12069809 -1.9772732 0.032407101
-0.13418093 -1.9964496 0.032368705
-0.30884844 -4.1915865 0.028141169
-0.33528063 -4.1985836 0.028123891
-0.20212169 -2.3552961 0.031671792
-0.25331932 -2.7513149 0.03090577
-0.27078557 -2.7556798 0.03089425
-0.38334745 -3.6659617 0.029133737
-0.41809046 -3.7738616 0.028920634
-0.45988071 -3.930135 0.028613456
-0.47454631 -3.8508203 0.028761284
-0.49070138 -3.7903185 0.028872637
-0.42621058 -3.1421771 0.030122466
-0.44069362 -3.1058419 0.030187741
-0.57272726 -3.8637323 0.028711367
-0.56307191 -3.6447122 0.029129898
-0.61532652 -3.8267953 0.028768964
-0.64424425 -3.8554947 0.028705608
-0.64409846 -3.7145205 0.028972469
-0.45069766 -2.5098066 0.031314701
-0.79755682 -4.2853637 0.02784167
-0.81380546 -4.2283473 0.027943423
-0.84774137 -4.2634845 0.027864709
-0.43707204 -2.1326261 0.03203081
-0.44745442 -2.1171865 0.032055765
-0.45702398 -2.0987692 0.032086484
-0.47515619 -2.1193414 0.032040406
-0.47914031 -2.0774143 0.032117203
-0.46967816 -1.9810374 0.032301508
-0.4858574 -1.994633 0.032268871
-0.51340681 -2.0527232 0.032147918
-0.50780684 -1.9788358 0.032288071
-0.52146953 -1.9814843 0.032276548
-0.53570575 -1.98597 0.032261193
-0.55055034 -1.9922829 0.032241993
-0.57258558 -2.0235016 0.032172877
-1.1959181 -4.1250901 0.027964542
-0.60391963 -2.0383716 0.032128721
-0.61496311 -2.0298433 0.032138322
-0.54769152 -1.7691149 0.032654762
-0.55702531 -1.7609547 0.032664362
-0.57151628 -1.7689202 0.032641325
-0.58235943 -1.7653801 0.032641325
-0.59477907 -1.7665112 0.032631725
-0.60039902 -1.7476999 0.032662444
-0.61177403 -1.74587 0.032658603
-0.75932705 -2.1243227 0.031879138
-0.63006687 -1.7297766 0.032675881
-0.63683408 -1.7155681 0.032697
-0.64734864 -1.7116283 0.032697
-0.65567833 -1.7020265 0.032708518
-0.67488849 -1.7203079 0.032662444
-0.68543142 -1.7161344 0.032662444
-0.70386946 -1.7313453 0.032622125
-0.72137111 -1.7436223 0.032587569
-0.72078896 -1.7124416 0.032643244
-0.73128271 -1.7079866 0.032643244
-0.76373816 -1.7538804 0.03253765
-0.79191846 -1.7884686 0.032455098
-1.1234741 -2.4946423 0.030957606
-0.83755273 -1.8304337 0.032345664
-0.86607754 -1.8624271 0.032266952
-1.162786 -2.4599817 0.030986404
-1.1687596 -2.4338741 0.031026721
-1.5395318 -3.1554108 0.029469714
-1.8316625 -3.6959736 0.028290918
-1.865101 -3.7061005 0.028244842
-0.93768352 -1.83641 0.032251593
-0.9401803 -1.8137586 0.032288071
-1.9577081 -3.7180314 0.028143089
-1.3254753 -2.4810913 0.030809777
-1.3268418 -2.4474232 0.030865453
-1.3587164 -2.4698949 0.030798256
-1.5347936 -2.7496006 0.030164704
-1.3258108 -2.3416767 0.031043999
-1.3386589 -2.3308969 0.031049758
-2.3160238 -3.9743631 0.027378986
-1.3656348 -2.3117115 0.031055519
-1.3797935 -2.3032887 0.031055519
-1.4016931 -2.307596 0.031026721
-1.4084792 -2.2870343 0.031053599
-1.4293753 -2.2893732 0.031028641
-2.4725132 -3.9050081 0.027336748
-1.7361751 -2.705847 0.030037992
-2.4618802 -3.784694 0.027542172
-2.2587512 -3.4264333 0.028331235
-2.5070274 -3.7525351 0.027546013
-2.5367353 -3.7470169 0.027522974
-2.542136 -3.7058225 0.027582491
-1.6507503 -2.3757513 0.030656187
-2.3489702 -3.3359149 0.028377313
-2.4077389 -3.3751578 0.028250601
-2.6141512 -3.6171987 0.027642006
-2.6871157 -3.6704693 0.027476897
-2.5087831 -3.3832712 0.028123891
-2.4898443 -3.3150525 0.028250601
-2.5192232 -3.3116484 0.028221803
-1.8440938 -2.3940573 0.030408526
-1.8932103 -2.4268374 0.030301014
-1.9942747 -2.5242116 0.030034153
-2.0478511 -2.5595448 0.029917041
-2.0433643 -2.5220747 0.029978476
-3.163542 -3.8550813 0.026635999
-2.6974525 -3.2465618 0.028106611
-2.0327711 -2.4167123 0.030147424
-2.0209663 -2.3729901 0.030226139
-2.0119691 -2.3332901 0.030295253
-3.2684639 -3.742671 0.026670557
-2.0722537 -2.3443766 0.0302031
-2.0992751 -2.3457711 0.030166622
-0 -0 -0
-2.6303468 -2.8671882 0.028740166
-2.658782 -2.862715 0.028709449
-2.134969 -2.2709675 0.030226139
-2.1447251 -2.2534802 0.030237658
-1.7392685 -1.8054795 0.031397253
-1.7447258 -1.7890489 0.031412613
-2.5337732 -2.565711 0.029287327
-3.640039 -3.6402583 0.0263269
-3.1286302 -3.0908947 0.027766796
-3.1432414 -3.06745 0.027778316
-1.9003229 -1.8325177 0.031141913
-1.9202238 -1.8290958 0.031118874
-3.1139247 -2.9289358 0.02800294
-2.9713573 -2.7607541 0.028423389
-1.9712529 -1.8096637 0.031072797
-1.9889895 -1.8035769 0.031055519
-2.005235 -1.7960067 0.03104208
-3.4877739 -3.0843623 0.027271472
-4.5778465 -3.9980927 0.02454143
-3.3526886 -2.8924406 0.027709201
-3.3665664 -2.8685725 0.027718801
-3.3733902 -2.83885 0.027745679
-3.365361 -2.7970119 0.027809033
-3.2146897 -2.6386795 0.028225644
-2.7661676 -2.2424731 0.02937372
-2.7814367 -2.2267075 0.029369881
-2.7974012 -2.2114587 0.02936412
-2.8172257 -2.1991732 0.029348763
-2.8766155 -2.2172387 0.02923741
-2.9363315 -2.2346568 0.029126057
-2.9283972 -2.2003856 0.029177895
-2.9643364 -2.1990509 0.029124139
-3.7564919 -2.7507498 0.027271472
-3.668736 -2.6521013 0.027519135
-4.0309529 -2.876318 0.026703194
-4.0068235 -2.8221724 0.026801107
-3.9674008 -2.7581613 0.026933577
-4.7355504 -3.2489991 0.025184583
-3.2365632 -2.1919279 0.028705608
-3.2582676 -2.1775815 0.02868641
-3.2724025 -2.1580985 0.028684489
-4.3578072 -2.8352375 0.026228989
-3.3196809 -2.1312788 0.028636493
-3.3234012 -2.1049862 0.028657611
-3.330317 -2.080847 0.02867105
-3.3600512 -2.0708621 0.028632654
-3.3880785 -2.0595515 0.028598096
-3.4057987 -2.0418074 0.028586578
-3.465616 -2.0488477 0.028480984
-3.4694815 -2.0225108 0.028500184
-3.4549446 -1.9857447 0.0285597
-3.519275 -1.9940717 0.028444508
-3.5620058 -1.9894985 0.028377313
-3.5837839 -1.9729072 0.028356194
-3.9632874 -2.15011 0.027553692
-4.2648234 -2.2798409 0.026925897
-3.9867194 -2.099915 0.027559452
-4.3244376 -2.2439065 0.026856782
-4.1617985 -2.1272583 0.027236914
-4.28197 -2.1556141 0.027006531
-4.192966 -2.0786901 0.027225396
-4.2083383 -2.0542386 0.027219636
-4.2262721 -2.0309756 0.027208118
-4.2278056 -1.999877 0.027231155
-4.2889576 -1.9966763 0.027127484
-5.7741098 -2.6446476 0.024017308
-4.3104014 -1.9426619 0.027133243
-0 -0 -0
-5.7035494 -2.4863889 0.024264971
-5.8823142 -2.5214441 0.023923235
-5.7833977 -2.4371712 0.024161298
-5.8167219 -2.4092891 0.024122901
-5.8462162 -2.3795822 0.024092183
-5.8690643 -2.3470058 0.024074905
-9.5946016 -3.7679174 0.016420418
-5.9702024 -2.3028641 0.023925155
-6.0487523 -2.2906129 0.023792684
-6.0805044 -2.2600718 0.023756208
-11.566989 -4.2176404 0.012573017
-11.60395 -4.1506276 0.012549979
-11.637691 -4.0823274 0.0125327
-7.9403667 -2.7311549 0.020089272
-7.9029593 -2.6641812 0.020198705
-7.8118544 -2.5802147 0.020415649
-11.291927 -3.6524317 0.013425435
-12.549685 -3.9742334 0.010937295
-7.7768321 -2.41083 0.020578837
-8.076663 -2.4495156 0.020006718
-9.7444391 -2.889905 0.016696878
-9.6227179 -2.7897019 0.016975258
-11.940209 -3.3819904 0.01238487
-12.278799 -3.3966155 0.011751316
-12.824611 -3.4629788 0.010706912
-9.7492046 -2.568753 0.016854307
-9.7279768 -2.4994326 0.016927261
-13.287792 -3.3268478 0.0099120894
-11.879779 -2.8971093 0.012734285
-11.93917 -2.834089 0.012651731
-11.937821 -2.7565053 0.012688208
-11.969147 -2.6864879 0.01265941
-13.605384 -2.9660144 0.0094762808
-11.378978 -2.4078054 0.013880442
-11.33672 -2.326287 0.013991794
-11.446901 -2.2757823 0.013803648
-13.118264 -2.5243247 0.010562922
-12.396152 -2.3066502 0.012002818
-11.374648 -2.0445404 0.014022511
-12.53585 -2.1738241 0.011783954
-12.564734 -2.0995002 0.011753236
-12.381887 -1.9909494 0.012133368
-14.990097 -2.3158257 0.0070898938
-15.940801 -2.3625743 0.0052717854
-13.460976 -1.9108911 0.010107915
-13.535867 -1.8368608 0.0099850437
-32.174606 -4.1636896 -0.026075706
-24.049124 -2.9625576 -0.010309806
-24.047977 -2.8127327 -0.010273329
-24.112492 -2.6704054 -0.010365482
-43.943504 -4.5929246 -0.048614874
-0 -0 -0
-56.272579 -5.1839652 -0.072282918
-0 -0 -0
-0 -0 -0
-0 -0 -0
-0 -0 -0
-0 -0 -0
-0 -0 -0
-0 -0 -0
-0 -0 -0
-0 -0 -0
-0 -0 -0
-0 -0 -0
-0 -0 -0
-0 -0 -0
-0 -0 -0
-0 0 -0
-62.254601 0.39305249 -0.083312519
-0 0 -0
-0 0 -0
-0 0 -0
-0 0 -0
-0 0 -0
-0 0 -0
-0 0 -0
-0 0 -0
-0 0 -0
-0 0 -0
-0 -0 -0
-0 -0 -0
-0 -0 -0
-0 -0 -0
-0 -0 -0
-0 0 -0
-0 0 -0
-0 0 -0
-0 0 -0
-0 0 -0
-0 0 -0
-0 0 -0
-0 0 -0
-0 0 -0
-0 0 -0
-0 0 -0
-0 0 -0
-0 0 -0
-0 0 -0
-0 0 -0
-107.94904 10.530215 -1.4781049
-0 0 -0
-0 0 -0
-0 0 -0
-0 0 -0
-0 0 -0
-0 0 -0
-0 0 -0
-0 0 -0
-0 0 -0
-0 0 -0
-0 0 -0
-0 0 -0
-0 0 -0
-63.316776 11.727622 -0.8627637
-61.567272 11.794769 -0.83893031
-61.314243 12.136787 -0.83637524
-61.163185 12.497363 -0.83530015
-59.623596 12.564395 -0.81444061
-0 0 -0
-0 0 -0
-55.31485 12.724149 -0.75616246
-72.621422 17.174919 -1.0056248
-0 0 -0
-0 0 -0
-50.41869 12.908515 -0.6903308
-0 0 -0
-47.863865 12.882318 -0.65573251
-0 0 -0
-43.992577 12.421337 -0.60190833
-0 0 -0
-42.27866 12.499603 -0.57921976
-42.160969 12.746632 -0.57863337
-42.076233 13.003315 -0.57854956
-41.926048 13.239266 -0.57753032
-41.978203 13.539547 -0.57949901
-42.005455 13.833459 -0.58113259
-0 0 -0
-0 0 -0
-0 0 -0
-0 0 -0
-0 0 -0
-49.475639 18.338232 -0.70038354
-0 0 -0
-67.307854 25.891422 -0.97059363
-66.960579 26.230623 -0.96778727
-0 0 -0
-55.768898 22.639812 -0.80405277
-56.090084 23.172087 -0.8110199
-43.714718 18.374449 -0.62574178
-53.856068 23.026873 -0.7814759
-53.720181 23.359684 -0.78157365
-49.256653 21.779148 -0.71563029
-48.876762 21.970695 -0.71187443
-48.76104 22.279325 -0.71218163
-47.782722 22.187731 -0.69923866
-47.578762 22.448929 -0.69820547
-50.797028 24.349546 -0.75018668
-49.101288 23.908316 -0.72618568
-48.68388 24.075729 -0.72198308
-46.635532 23.419996 -0.69229949
-46.189865 23.552185 -0.68758023
-45.919277 23.770346 -0.68561161
-45.160038 23.729803 -0.67594975
-44.589211 23.780132 -0.66923392
-44.204147 23.924301 -0.66545022
-43.667381 23.981379 -0.65925097
-43.285324 24.118435 -0.65550911
-42.650803 24.10902 -0.64771825
-42.240105 24.220062 -0.64350164
-41.465767 24.115349 -0.633407
-41.627068 24.552195 -0.6384334
-41.40527 24.765064 -0.63728845
-41.17046 24.96888 -0.63594812
-40.953445 25.18227 -0.63491493
-37.411659 23.322018 -0.57919186
-36.933971 23.340143 -0.57367676
-36.541679 23.407225 -0.56955796
-36.308472 23.573284 -0.56807792
-36.127228 23.77199 -0.56747758
-35.967373 23.984339 -0.56725419
-35.810417 24.198421 -0.56710058
-35.674465 24.426733 -0.56732398
-33.051849 22.930174 -0.52531177
-35.453014 24.919598 -0.56870627
-35.566597 25.326902 -0.57328582
-35.701649 25.754665 -0.57829827
-35.45253 25.907169 -0.57673448
-33.61721 24.883873 -0.54762334
-35.261543 26.437443 -0.57899636
-35.037342 26.606745 -0.57792127
-34.434326 26.483521 -0.57018626
-34.254612 26.681404 -0.56989306
-34.249622 27.016794 -0.57272738
-32.994148 26.356489 -0.55326408
-37.520325 30.351023 -0.63747001
-37.414608 30.647202 -0.63893604
-38.101692 31.602627 -0.65482497
-36.656681 30.785719 -0.63202477
-36.409966 30.961479 -0.63097757
-35.475952 30.5443 -0.61728066
-35.562225 31.000563 -0.62236291
-33.749023 29.786379 -0.59214872
-35.557148 31.772413 -0.62944174
-35.44754 32.067802 -0.63106132
-35.256748 32.290779 -0.63118702
-35.174534 32.614597 -0.633407
-35.109352 32.957096 -0.63600397
-35.002872 33.263512 -0.63786095
-34.864403 33.541439 -0.63914543
-34.737453 33.832169 -0.64069527
-36.305702 35.796211 -0.67553091
-36.093163 36.026077 -0.67568445
-34.36063 34.720272 -0.64569372
-25.832584 26.425457 -0.47961357
-25.579659 26.48996 -0.47779849
-25.255833 26.477833 -0.4745453
-34.598751 36.721104 -0.66810298
-24.560467 26.389786 -0.46699175
-24.324318 26.459753 -0.4654699
-24.103697 26.544844 -0.46426913
-23.839554 26.579844 -0.46216086
-0 0 -0
-23.200796 26.515211 -0.4555707
-22.948746 26.554184 -0.45367184
-22.678917 26.569769 -0.45138204
-22.487104 26.674788 -0.4507677
-22.207846 26.673946 -0.44825453
-21.838001 26.559471 -0.44373077
-21.640589 26.651051 -0.4429768
-21.413475 26.704544 -0.44156665
-0 0 -0
-26.407475 33.773335 -0.56224173
-0 0 -0
-0 0 -0
-0 0 -0
-38.921566 52.377567 -0.87479913
-12.400787 16.904133 -0.25634435
-19.2715 26.610384 -0.42238259
-19.067734 26.672005 -0.4214192
-18.857019 26.722326 -0.42028826
-18.621834 26.735786 -0.41855696
-18.370203 26.722652 -0.41640678
-18.151436 26.754604 -0.41505244
-17.946878 26.805655 -0.41404718
-17.728598 26.834347 -0.41269284
-18.504469 28.38586 -0.43674967
-31.230604 48.555904 -0.76974767
-30.95137 48.777012 -0.77025032
-30.643539 48.953293 -0.77004087
-12.242106 19.82678 -0.28897396
-30.014494 49.282951 -0.76934278
-0 0 -0
-0 0 -0
-0 0 -0
-0 0 -0
-9.6444025 16.988388 -0.23637843
-9.5399818 17.047245 -0.23637843
-0 0 -0
-0 0 -0
-17.134033 31.984167 -0.47025892
-0 0 -0
-11.005501 21.164221 -0.29669505
-10.957034 21.39065 -0.29919428
-28.58145 56.650093 -0.84961134
-28.216406 56.790371 -0.8490808
-24.355602 49.784222 -0.73749506
-10.581079 21.969307 -0.304095
-10.447364 22.036528 -0.3041369
-11.088655 23.764742 -0.32978541
-10.954728 23.858686 -0.33019033
-10.605181 23.476217 -0.32330698
-9.7824087 22.013987 -0.29997617
-0 0 -0
-10.699922 24.897524 -0.34200233
-9.8978138 23.426382 -0.3187134
-9.7335596 23.437731 -0.31797341
-11.144374 27.30654 -0.37542778
-0 0 -0
-29.017355 73.669479 -1.0692085
-0 0 -0
-0 0 -0
-0 0 -0
-0 0 -0
-10.941384 30.49011 -0.41593206
-0 0 -0
-30.681349 88.914101 -1.2769938
-11.930449 35.27549 -0.48357883
-18.987556 57.296917 -0.80645424
-18.529743 57.086132 -0.80166525
-18.182755 57.21019 -0.8018328
-11.209958 36.035995 -0.49057388
-15.161161 49.812767 -0.6906659
-14.808445 49.747688 -0.68837607
-14.447321 49.646561 -0.6855976
-7.2109113 25.359135 -0.33174011
-6.9395757 24.9867 -0.32570845
-6.7628403 24.942921 -0.32446584
-6.583324 24.884382 -0.32302773
-6.3690586 24.686134 -0.31959301
-6.207469 24.68499 -0.31902057
-6.0413752 24.663372 -0.31816888
-5.8883066 24.693169 -0.31807116
-5.7213149 24.6626 -0.31712171
-5.5679002 24.688461 -0.31699607
-5.4073215 24.681139 -0.31640965
-5.2580671 24.724611 -0.31656322
-5.1092911 24.771097 -0.31677267
-4.9697456 24.864733 -0.31766623
-4.8281035 24.951696 -0.31847605
-4.6975369 25.101742 -0.32019341
-4.5647764 25.248165 -0.32186887
-4.4338322 25.413603 -0.32382357
-4.3275604 25.736147 -0.32801223
-4.7138968 29.125114 -0.37558138
-4.4952893 28.897593 -0.37196517
-4.3559842 29.179779 -0.37556741
-4.1622767 29.104006 -0.3741293
-1.9073986 13.948816 -0.16018681
-1.8348453 14.060398 -0.161597
-4.1279368 33.21521 -0.43096933
-3.9227648 33.228989 -0.43081576
-3.7202466 33.26535 -0.43099725
-3.5141735 33.269653 -0.43074593
-3.3091769 33.282631 -0.43063426
-2.885251 30.946758 -0.39759973
-2.6979127 30.993763 -0.3980186
-2.693332 33.305012 -0.43017349
-2.4884784 33.31493 -0.43008971
-1.9270386 28.1213 -0.35719317
-1.7776729 28.504835 -0.36240107
-1.1340252 20.178185 -0.24580291
-0.72319418 14.452503 -0.16565999
-0.63529134 14.474649 -0.1659113
-0.99679029 26.40061 -0.33250806
-0.83294708 26.348265 -0.33169824
-0.67019147 26.310896 -0.33111182
-0.50777107 26.264528 -0.33041373
-0.34675074 26.278147 -0.3305673
-0.18549745 26.27878 -0.33055332
-0.024284162 26.31542 -0.33105597
0.13758487 26.392065 -0.33213106
0.30018955 26.449715 -0.33295482
0.46677318 26.693314 -0.33638954
0.63642818 26.938852 -0.3398661
0.8458057 28.416641 -0.36057204
0.93575782 26.05966 -0.327719
1.0871979 25.852623 -0.32491261
1.236999 25.662697 -0.32235754
1.3927573 25.623671 -0.32192472
1.544219 25.519827 -0.3205983
1.6967865 25.450008 -0.31976056
1.8508068 25.410198 -0.31935567
2.0108593 25.451193 -0.32009566
2.1691933 25.464279 -0.32045868
2.331584 25.518202 -0.32140812
2.4954944 25.579048 -0.32246923
2.6645727 25.680614 -0.32411677
2.8519289 25.93512 -0.32792845
3.0179327 25.976725 -0.32876617
3.176173 25.948786 -0.32864052
3.3288264 25.878231 -0.32792845
3.4851441 25.839481 -0.32767713
2.2489839 15.934501 -0.18830664
2.1603963 14.656181 -0.17046298
3.9547074 25.735374 -0.32717448
2.2819743 14.26522 -0.1653249
2.4275072 14.600123 -0.17026751
4.5331545 26.269133 -0.33583105
6.1503 34.380817 -0.45129827
4.8254933 26.051268 -0.33355519
4.9822402 26.005457 -0.33333182
5.1339469 25.935162 -0.33277333
5.281776 25.84831 -0.33199143
5.4396601 25.812481 -0.33194956
5.5966673 25.772755 -0.33186579
5.753828 25.734026 -0.33180994
5.9230523 25.747934 -0.332522
6.0972657 25.780193 -0.33351332
6.304914 25.946339 -0.33644539
6.6213293 26.537771 -0.34552079
4.149837 16.207529 -0.19721451
4.2116246 16.038626 -0.19514811
7.1505189 26.566851 -0.34776869
4.4328437 16.075382 -0.1964466
4.1398883 14.66123 -0.17632709
4.6095152 15.94965 -0.19542736
7.7734179 26.292273 -0.34644231
4.4171543 14.609344 -0.17671804
8.1143732 26.256042 -0.34733588
8.2988091 26.280132 -0.34842494
8.498271 26.34767 -0.3501702
8.6719751 26.332069 -0.35071471
8.8604612 26.358925 -0.3519015
9.0388985 26.353245 -0.35262755
9.2182589 26.348253 -0.35338151
9.396554 26.338284 -0.3540796
9.5819082 26.345909 -0.35505697
9.765276 26.345688 -0.35593659
9.9867992 26.444296 -0.35831016
10.196256 26.505707 -0.36015317
10.371465 26.475231 -0.36064184
10.598169 26.572699 -0.36307126
10.779822 26.553493 -0.36376935
10.972327 26.558933 -0.36485842
11.214509 26.680075 -0.36772066
6.2686028 14.660486 -0.18624024
11.954947 27.492256 -0.38221341
6.403964 14.482776 -0.18471837
12.249604 27.250456 -0.38078925
12.621023 27.62224 -0.38765866
12.668993 27.283091 -0.38363755
12.80288 27.134306 -0.38254851
12.930234 26.974089 -0.3812919
13.02809 26.755796 -0.37914172
13.18581 26.662806 -0.37894624
13.359034 26.601055 -0.37925342
8.1896515 16.060728 -0.21533743
13.856836 26.76811 -0.38448924
8.4051933 15.995311 -0.21590987
8.4805956 15.901088 -0.21523969
14.327213 26.471582 -0.38390282
14.537021 26.469942 -0.38528508
15.036435 26.985558 -0.39496088
8.263072 14.617503 -0.1980662
8.48242 14.792926 -0.20171034
11.974152 20.588863 -0.29617846
8.5810213 14.548195 -0.19944847
16.035233 26.809389 -0.39980575
16.204615 26.719044 -0.39994538
16.382919 26.642962 -0.40033633
16.58153 26.598787 -0.40127179
16.789293 26.567547 -0.4024446
17.055004 26.624847 -0.40511137
17.898113 27.567179 -0.42255014
10.210093 15.516261 -0.22296077
10.3101 15.460809 -0.22308643
18.988644 28.100491 -0.43716854
19.138111 27.950449 -0.43661007
19.302412 27.822634 -0.43644252
22.322392 31.757904 -0.50563908
22.228577 31.21553 -0.49869987
22.433733 31.098013 -0.49903497
22.151579 30.313112 -0.48785126
22.262203 30.075357 -0.48609203
22.419333 29.902191 -0.48546374
22.650158 29.826977 -0.48656675
22.923574 29.805534 -0.4886471
23.729673 30.464994 -0.5028187
0 0 -0
0 0 -0
0 0 -0
0 0 -0
12.070048 14.551858 -0.22759622
25.251623 30.067099 -0.51186621
25.524376 30.015951 -0.51377904
18.039776 20.952208 -0.34966755
26.271219 30.136877 -0.5218631
26.556873 30.089813 -0.52399933
26.854927 30.053797 -0.52638686
30.769808 34.012722 -0.6040445
31.022499 33.871948 -0.60496604
31.365719 33.827606 -0.60775846
31.9436 34.029648 -0.61532599
32.387367 34.080894 -0.62010103
32.736599 34.027809 -0.62293535
33.096161 33.981739 -0.62596518
33.659267 34.138309 -0.63303
32.152321 32.212132 -0.59911585
34.465839 34.108829 -0.64069527
16.268087 15.902885 -0.28126684
16.315729 15.754841 -0.28030345
35.81715 34.164318 -0.65476912
36.154915 34.065277 -0.65724045
35.197269 32.757607 -0.63499868
37.268795 34.261238 -0.67049056
37.571587 34.116611 -0.67224979
23.738625 21.291197 -0.40886721
23.865824 21.142487 -0.40881136
39.417507 34.490559 -0.69496626
39.835682 34.427197 -0.69879186
40.133636 34.256775 -0.70039755
40.738316 34.343071 -0.70761597
41.391659 34.461617 -0.71567214
0 0 -0
40.432869 32.831657 -0.69087535
43.520615 34.898037 -0.74254936
43.743332 34.637794 -0.74271691
0 0 -0
0 0 -0
45.32056 34.548737 -0.75934583
0 0 -0
47.081406 34.985958 -0.78266269
45.071651 33.06517 -0.74415499
29.812445 21.590523 -0.47758907
22.744852 16.260151 -0.35400981
22.833574 16.112791 -0.35382828
50.568462 35.222054 -0.82411641
48.998894 33.684177 -0.79387432
56.922169 38.618912 -0.92409956
55.804577 37.362713 -0.90135521
0 0 -0
56.981747 37.146339 -0.91340458
57.524803 36.99939 -0.91865432
0 0 -0
54.176685 33.913303 -0.85608983
0 0 -0
35.918907 21.875343 -0.5508486
26.41452 15.865485 -0.39385787
26.457172 15.671006 -0.39297825
26.473396 15.461978 -0.39169371
26.483721 15.250847 -0.3903394
28.798473 16.349375 -0.42601275
28.858984 16.150389 -0.42538446
29.013571 16.00392 -0.42627805
57.168083 31.078451 -0.87220216
41.756168 22.369068 -0.62505758
41.939503 22.137175 -0.62579763
42.041721 21.862352 -0.62528098
59.424679 30.440189 -0.89590997
59.632652 30.086254 -0.89625901
0 0 -0
61.031166 29.857971 -0.91232949
0 0 -0
34.905979 16.548941 -0.50301421
37.023865 17.275623 -0.53409398
57.172108 26.251223 -0.84205782
0 0 -0
38.865181 17.270952 -0.55746669
0 0 -0
0 0 -0
53.915295 22.780167 -0.78088951
38.94397 16.173502 -0.55242634
42.602043 17.387035 -0.60611093
84.238922 33.779099 -1.2309185
40.92828 16.120871 -0.57783753
44.671814 17.279549 -0.63241565
42.82896 16.265291 -0.60331851
44.762447 16.686049 -0.63065642
44.974796 16.451612 -0.63230395
45.051365 16.166899 -0.63195491
47.321884 16.654665 -0.66410983
0 0 -0
0 0 -0
0 0 -0
71.922562 23.34565 -1.0194752
0 0 -0
55.416866 17.239124 -0.77399218
0 0 -0
0 0 -0
61.264427 17.828259 -0.85455394
0 0 -0
0 0 -0
66.334145 17.986044 -0.92330372
0 0 -0
0 0 -0
0 0 -0
0 0 -0
0 0 -0
0 0 -0
0 0 -0
0 0 -0
0 0 -0
0 0 -0
0 0 -0
0 0 -0
89.328209 16.717918 -1.232594
0 0 -0
0 0 -0
0 0 -0
89.397697 14.469853 -1.2281539
0 0 -0
0 0 -0
0 0 -0
0 0 -0
0 0 -0
0 0 -0
0 0 -0
0 0 -0
0 0 -0
0 0 -0
0 0 -0
0 0 -0
61.322781 4.9594312 -0.82267833
61.766861 4.6140571 -0.82848656
0 0 -0
0 0 -0
0 0 -0
59.727375 2.9899833 -0.79864937
59.648697 2.6192353 -0.79730904
0 0 -0
60.329956 1.9077293 -0.80644029
0 0 -0
70.491936 1.3634962 -0.94810057
70.489975 0.93082124 -0.94797492
70.481361 0.49819341 -0.94779342
0 0 -0
41.185425 -0.2144786 -0.53870153
51.891602 -0.58855343 -0.68823647
38.510357 -0.67323387 -0.50142252
36.634205 -0.86533511 -0.47528529
32.271557 -0.96049058 -0.41442415
30.948034 -1.1112154 -0.39602199
30.923651 -1.3003742 -0.39578465
28.787766 -1.3875853 -0.36604521
30.90836 -1.6799197 -0.39582652
25.7414 -1.557623 -0.32369789
25.680475 -1.7121483 -0.32298583
25.756248 -1.8760067 -0.32420054
27.857462 -2.2009366 -0.35380036
27.649157 -2.3552787 -0.35107774
19.966862 -1.8244491 -0.24356896
19.985146 -1.9498413 -0.24398781
19.984741 -2.0736692 -0.24415536
0 -0 -0
10.60758 -1.2326108 -0.1127154
10.601803 -1.2979175 -0.11274333
10.580747 -1.3612863 -0.11256181
10.547421 -1.4228419 -0.11221276
10.569185 -1.4918641 -0.11264559
10.567746 -1.5578536 -0.11275729
13.918222 -2.1389744 -0.1602287
0 -0 -0
0 -0 -0
36.586643 -6.3134437 -0.48202902
36.662376 -6.5584154 -0.48366261
0 -0 -0
0 -0 -0
0 -0 -0
0 -0 -0
30.820992 -6.4950619 -0.40342197
30.610537 -6.6471357 -0.40099254
30.729208 -6.8706121 -0.40328234
0 -0 -0
0 -0 -0
0 -0 -0
0 -0 -0
53.946552 -13.811712 -0.74118108
0 -0 -0
24.694658 -6.6466446 -0.32069603
24.482796 -6.7509995 -0.31822473
24.4361 -6.8997374 -0.31815493
8.0400877 -2.3238268 -0.080462761
8.0141716 -2.3697145 -0.08029522
8.0205364 -2.4252098 -0.080602385
8.0083704 -2.4752629 -0.080644272
0 -0 -0
0 -0 -0
0 -0 -0
0 -0 -0
0 -0 -0
0 -0 -0
0 -0 -0
0 -0 -0
49.935989 -18.508858 -0.70723897
18.676533 -7.0533972 -0.24236821
18.416391 -7.0845771 -0.23912898
18.480572 -7.2397504 -0.2407486
18.546326 -7.3970876 -0.24241009
0 -0 -0
0 -0 -0
0 -0 -0
0 -0 -0
31.496637 -13.69618 -0.44318625
0 -0 -0
0 -0 -0
0 -0 -0
0 -0 -0
44.892082 -21.181307 -0.65672386
41.939953 -20.103989 -0.61303616
28.341629 -13.800246 -0.40377101
0 -0 -0
0 -0 -0
0 -0 -0
0 -0 -0
0 -0 -0
40.475151 -21.586081 -0.6041283
0 -0 -0
0 -0 -0
25.126822 -14.000772 -0.36524937
12.748616 -7.2066755 -0.1680894
12.631293 -7.2429852 -0.16691658
12.616002 -7.3374438 -0.1673913
12.57591 -7.4177642 -0.16747507
0 -0 -0
37.323132 -22.635614 -0.57311827
37.15884 -22.84901 -0.57271338
0 -0 -0
21.839937 -13.801777 -0.32435414
21.740526 -13.926356 -0.32411677
0 -0 -0
33.323132 -21.926912 -0.52060652
33.13306 -22.094355 -0.51968503
33.020065 -22.312914 -0.52007598
0 -0 -0
0 -0 -0
0 -0 -0
0 -0 -0
0 -0 -0
19.002522 -13.886449 -0.29224113
18.919369 -14.004569 -0.292283
18.826681 -14.115594 -0.2921713
33.427967 -25.384636 -0.54970372
33.203415 -25.536844 -0.54850298
31.441587 -24.490341 -0.52010387
31.303286 -24.692709 -0.52032727
0 -0 -0
0 -0 -0
0 -0 -0
0 -0 -0
0 -0 -0
0 -0 -0
0 -0 -0
0 -0 -0
0 -0 -0
25.998421 -23.231272 -0.45044658
0 -0 -0
0 -0 -0
0 -0 -0
0 -0 -0
0 -0 -0
29.659634 -28.53425 -0.53829664
30.183834 -29.397293 -0.55193764
29.737303 -29.320091 -0.5467298
29.635393 -29.580412 -0.54827958
0 -0 -0
28.723562 -29.382721 -0.53736115
28.102369 -29.102388 -0.52850914
28.162064 -29.524614 -0.53334004
27.603239 -29.296595 -0.52566087
26.706995 -28.69614 -0.51098657
26.329432 -28.640846 -0.50683981
26.204958 -28.858862 -0.5079149
26.206984 -29.219341 -0.51167077
6.7270384 -7.5939536 -0.1052596
6.6882172 -7.6441169 -0.10542714
6.6523027 -7.6978722 -0.1056645
6.6068921 -7.7408266 -0.10570639
0 -0 -0
0 -0 -0
0 -0 -0
24.606174 -30.303173 -0.5086689
24.637459 -30.72505 -0.51352769
0 -0 -0
2.0210998 -2.5854509 -0.0094231898
1.9850327 -2.5716853 -0.0089624375
1.9673971 -2.5814314 -0.0089205513
1.9515207 -2.5934544 -0.0089205513
1.9302033 -2.5981567 -0.0087948916
1.9384748 -2.6430061 -0.0093673412
1.9245671 -2.6580899 -0.0094231898
0 -0 -0
22.532326 -31.930475 -0.50929719
10.155706 -14.581097 -0.21172123
10.064915 -14.641488 -0.2116933
0 -0 -0
22.120764 -33.03965 -0.51880544
22.021795 -33.332436 -0.52144426
21.389839 -32.811901 -0.51052582
21.293043 -33.105679 -0.5132345
21.347198 -33.6418 -0.51995033
21.143028 -33.776386 -0.52002013
0 -0 -0
20.751913 -34.074295 -0.52069032
20.552229 -34.21727 -0.52095556
20.902945 -35.289928 -0.53632796
20.660801 -35.374352 -0.53562987
0 -0 -0
0 -0 -0
19.932438 -35.616901 -0.53352153
19.776789 -35.853226 -0.53535062
0 -0 -0
19.785784 -36.934067 -0.54867053
19.588194 -37.110485 -0.54955012
19.365656 -37.240623 -0.54971766
0 -0 -0
0 -0 -0
0 -0 -0
0 -0 -0
7.0244265 -14.585003 -0.18964702
6.9575052 -14.675715 -0.19038701
6.8525276 -14.686416 -0.18989833
6.7631187 -14.730002 -0.18992625
6.6474991 -14.715638 -0.18907456
0 -0 -0
0 -0 -0
0 -0 -0
0 -0 -0
0 -0 -0
17.198872 -42.141014 -0.59915775
16.965652 -42.309788 -0.60012114
0 -0 -0
0 -0 -0
7.8296361 -20.617201 -0.27154917
0 -0 -0
0 -0 -0
0 -0 -0
0 -0 -0
0 -0 -0
0 -0 -0
0 -0 -0
0 -0 -0
13.658776 -42.97628 -0.59327966
13.369576 -42.978127 -0.59209287
13.108817 -43.069874 -0.59224647
4.4245753 -14.864967 -0.18016669
4.335238 -14.898557 -0.18026443
4.2177582 -14.833508 -0.17893802
4.1528859 -14.953525 -0.18030632
3.9833376 -14.692103 -0.17615955
3.9102485 -14.781034 -0.17709501
3.8189807 -14.802812 -0.17706709
3.7093027 -14.751298 -0.175992
3.6696336 -14.981614 -0.1789799
3.5460942 -14.871572 -0.17708105
0.54240084 -2.3397145 0.0028635291
0.52693439 -2.3381214 0.0029333399
0.51792818 -2.3657291 0.0025842853
0 -0 -0
0.48623201 -2.3591759 0.0027657938
0.47625503 -2.3846667 0.0024446636
0.45990428 -2.3787088 0.0025703232
0.44769141 -2.3942628 0.0023888149
0.43601653 -2.4136918 0.0021514578
0.408308 -2.3424451 0.0031986213
0.38911849 -2.3163106 0.0036035245
0.38911796 -2.4065027 0.0023608906
0.39494166 -2.5412393 0.00048995839
0 -0 -0
0 -0 -0
0.38414106 -2.811599 -0.0032239815
0.36959991 -2.8347244 -0.0035171874
0.3509661 -2.8270164 -0.0033775656
0 -0 -0
0.29724225 -2.6611865 -0.00099003268
0.29277796 -2.7753241 -0.002567759
0.19688734 -1.9840569 0.0085600987
0.18517387 -1.9902056 0.0084902877
0.17191803 -1.9793508 0.0086578336
0.231996 -2.8733649 -0.0038522796
0.14202844 -1.9065272 0.0097049978
0.12690888 -1.8574846 0.010403106
0.1170032 -1.8821795 0.010068014
0.1070237 -1.910815 0.009677073
0.094697148 -1.899452 0.0098446188
0.082645707 -1.8910068 0.0099702785
0.071494043 -1.9034686 0.0098027326
0.060192548 -1.9158642 0.0096351868
0.0481047 -1.903203 0.009816695
0.036213189 -1.8924655 0.0099702785
0.024838306 -1.9106487 0.0097189592
0.01294456 -1.8867681 0.010054052
0.0013429356 -1.8608146 0.010417068
-0.010225554 -1.8897846 0.010012166
-0.021820862 -1.8896862 0.010012166
-0.033520151 -1.8955153 0.0099283922
-0.045338992 -1.903271 0.009816695
-0.057848945 -1.9309418 0.0094257537
-0.069911093 -1.936546 0.0093419803
-0.17426936 -4.1359229 -0.021402741
-0.093910858 -1.940536 0.0092721703
-0.1051107 -1.9269437 0.0094536785
-0.1181398 -1.946224 0.0091744345
-0.13007937 -1.9454625 0.0091744345
-0.19669834 -2.6955659 -0.0013390873
-0.21299809 -2.6913178 -0.0012972007
-0.22993198 -2.6949418 -0.0013670116
-0.35280263 -3.8575189 -0.0176888
-0.23997919 -2.4560597 0.0019420251
-0.43282136 -4.1681762 -0.022114811
-0.46232271 -4.2012229 -0.02261745
-0.46801686 -4.025486 -0.02018803
-0.50679821 -4.1376681 -0.021807645
-0.53651381 -4.1681995 -0.022282358
-0.52546251 -3.8933139 -0.01845672
-0.43770862 -3.098932 -0.007300938
-0.4600682 -3.1189399 -0.0076220683
-0.48147482 -3.1308827 -0.0078315008
-0.66175133 -4.1349702 -0.022072924
-0.68186343 -4.0992684 -0.021626135
-0.71040368 -4.1147141 -0.021905379
-0.44249168 -2.471452 0.0013416514
-0.46529609 -2.509984 0.0007552398
-0.81085479 -4.2305708 -0.023748387
-0.83330309 -4.20786 -0.023497067
-0.43935809 -2.1483157 0.0057816249
-0.44820198 -2.1250327 0.0060748304
-0.46250555 -2.1281054 0.0059910575
-0.47402748 -2.1183968 0.0060887928
-0.4879134 -2.1193461 0.0060329442
-0.95931298 -4.0546508 -0.02177972
-0.97779936 -4.0224543 -0.021402741
-0.54208988 -2.1711266 0.0051533268
-0.53357792 -2.0825174 0.0063819983
-0.5524404 -2.1024151 0.0060469061
-0.55649483 -2.0661571 0.0065216203
-0.57793289 -2.0945134 0.0060608685
-0.94152826 -3.3332353 -0.011964306
-1.1687685 -4.0430408 -0.022366131
-0.60533237 -2.0461247 0.0066053933
-0.59414834 -1.963888 0.0077502923
-0.5530467 -1.7882469 0.010263485
-0.55407304 -1.7533544 0.010724236
-0.56574178 -1.7527766 0.01068235
-0.59431326 -1.8034068 0.009886506
-0.59007567 -1.7542322 0.01055669
-0.59790879 -1.7420661 0.01068235
-0.61585081 -1.7591286 0.010375182
-1.2381052 -3.4693341 -0.015035986
-0.62816453 -1.7260671 0.010752161
-0.63770115 -1.7193675 0.010794047
-0.6574235 -1.7397432 0.010431031
-0.66234225 -1.7207448 0.010654425
-0.67507631 -1.7222345 0.010570653
-0.68526059 -1.7171311 0.010584615
-0.69992095 -1.7230853 0.010431031
-0.71849775 -1.7381654 0.010137825
-0.72798711 -1.7309587 0.010179712
-0.74213219 -1.7347338 0.010054052
-0.75914192 -1.7448189 0.0098306574
-0.82522881 -1.8654146 0.0079178382
-0.85141736 -1.8931481 0.0074151997
-1.7805209 -3.895997 -0.023413295
-1.8233427 -3.9258094 -0.024041593
-1.8576366 -3.9362507 -0.024376685
-0.89070582 -1.8572564 0.0076385946
-0.90033406 -1.8481601 0.0076944432
-0.90367889 -1.8264678 0.0079457629
-0.9184587 -1.8280369 0.0078340657
-0.92557019 -1.8143499 0.0079597253
-0.9380644 -1.8113005 0.0079178382
-0.94450969 -1.796659 0.0080574602
-0.95975071 -1.7987703 0.0079318006
-0.97124559 -1.7937269 0.0079178382
-0.98560262 -1.7938688 0.0078201033
-1.0326056 -1.852424 0.0067869015
-2.0595102 -3.6426911 -0.022031039
-1.1418016 -1.9905454 0.0043574823
-1.2882091 -2.2142863 0.00062958017
-2.3619106 -4.0037899 -0.02850949
-2.4095292 -4.0278378 -0.029137788
-2.4430127 -4.0275116 -0.029375145
-1.7491081 -2.8438256 -0.010219034
-1.4248189 -2.2848866 -0.0011994655
-1.4585755 -2.3073761 -0.0017160662
-1.4613799 -2.2807016 -0.0014228603
-1.4666348 -2.2582734 -0.0011994655
-2.6621487 -4.0451212 -0.031218152
-1.5857682 -2.3773704 -0.0035032253
-1.6215992 -2.3990781 -0.0040337881
-2.7322009 -3.9896593 -0.031120418
-2.7110331 -3.907095 -0.030003443
-2.6222584 -3.7300501 -0.027266856
-2.773855 -3.8947093 -0.03036646
-0 -0 -0
-0 -0 -0
-1.7885535 -2.4156427 -0.005569628
-1.8729197 -2.4974253 -0.0071892408
-1.960773 -2.5814457 -0.0088647027
-1.9936438 -2.5915587 -0.0092556439
-2.0242541 -2.5982096 -0.0095907357
-2.7126753 -3.4383168 -0.024753664
-2.0428803 -2.556767 -0.0092975302
-2.0962608 -2.5908282 -0.01013526
-2.0360856 -2.4850934 -0.008459799
-2.0532105 -2.4748623 -0.0085016862
-2.1120849 -2.5142848 -0.0094511136
-2.0503917 -2.4106314 -0.0077896146
-2.0573156 -2.388912 -0.0076220683
-2.052881 -2.3543854 -0.0072171651
-2.0573637 -2.3304996 -0.0070077325
-2.0809522 -2.3282707 -0.0072032032
-2.5748196 -2.8456368 -0.017186161
-2.5996604 -2.8378956 -0.017339746
-2.6455779 -2.8526862 -0.017926158
-2.1217244 -2.2597325 -0.0068820729
-3.0358031 -3.1940148 -0.025130643
-3.1267467 -3.2495475 -0.026568746
-3.1605792 -3.2446272 -0.02684799
-3.1853426 -3.2301574 -0.026945725
-2.2889352 -2.2926636 -0.0088367779
-2.187115 -2.1639292 -0.0065609426
-3.169184 -3.0975854 -0.025479697
-1.9444939 -1.8771546 -0.0013390873
-1.9574223 -1.8665683 -0.0013670116
-2.0998335 -1.9779487 -0.0038802042
-4.1840644 -3.8935654 -0.043407138
-2.972683 -2.7322869 -0.019978598
-1.9811734 -1.7984751 -0.00096210837
-3.3811455 -3.0320892 -0.027015537
-3.597275 -3.186332 -0.030701552
-4.6409054 -4.060348 -0.049704079
-4.7133927 -4.0729861 -0.050583698
-3.3769655 -2.8819835 -0.025591394
-3.3433647 -2.8180282 -0.024655929
-3.197686 -2.6618266 -0.021695945
-3.4502945 -2.836483 -0.025968373
-3.4047599 -2.7642043 -0.024837436
-4.2500958 -3.4075747 -0.039665271
-3.8272378 -3.0300977 -0.031762678
-3.4267061 -2.6788926 -0.024334798
-2.8684814 -2.2141824 -0.014198256
-2.888375 -2.2013896 -0.014309953
-2.9010291 -2.1830242 -0.014295991
-3.6310644 -2.697763 -0.026764218
-3.9418175 -2.8913147 -0.031860415
-4.7207227 -3.4183846 -0.044984862
-3.8932202 -2.7828283 -0.030422309
-4.7239189 -3.3331001 -0.044328641
-4.5686975 -3.181752 -0.041340735
-4.3038616 -2.9582338 -0.036523782
-4.3128304 -2.925595 -0.036370199
-4.4727783 -2.9942036 -0.03875773
-4.389286 -2.8994579 -0.037054345
-4.3249063 -2.8189573 -0.03568605
-3.299324 -2.1216414 -0.018372947
-3.3038373 -2.0959997 -0.018233325
-3.3030753 -2.0671995 -0.018009931
-3.2893231 -2.0306079 -0.017577102
-3.3307562 -2.0280704 -0.018051818
-4.3100166 -2.5883539 -0.033801157
-3.3665769 -1.9936689 -0.018233325
-3.3934245 -1.9815475 -0.018470682
-5.0847845 -2.9277353 -0.045529388
-3.5053091 -1.989616 -0.019880863
-3.5357749 -1.9783251 -0.020174069
-4.0031238 -2.2077312 -0.027434403
-3.5905325 -1.951502 -0.020662745
-4.4582715 -2.3879189 -0.034220021
-4.4967151 -2.373121 -0.034597002
-4.338203 -2.2555263 -0.031874377
-4.3047943 -2.2047038 -0.03113438
-4.2905669 -2.1642861 -0.030701552
-4.2957067 -2.1339147 -0.030575892
-4.3356647 -2.1206989 -0.030994758
-4.5927267 -2.211642 -0.034778509
-4.2863722 -2.03178 -0.029835897
-4.241673 -1.9788041 -0.028956279
-4.3227954 -1.9844508 -0.030017406
-8.2267599 -3.7160811 -0.089649878
-4.3203235 -1.9194783 -0.029612502
-0 -0 -0
-5.8988347 -2.5347397 -0.053250473
-5.8332233 -2.4642503 -0.052021801
-5.8205309 -2.4169066 -0.051602937
-5.8213649 -2.3754792 -0.051393505
-9.4441547 -3.7866416 -0.10567846
-9.6235075 -3.7901857 -0.10802411
-23.311441 -9.0169153 -0.31261194
-23.298092 -8.8477936 -0.3115927
-23.427832 -8.7329626 -0.31272364
-46.277252 -16.928059 -0.6516695
-0 -0 -0
-0 -0 -0
-7.9247651 -2.7341893 -0.080658235
-11.625027 -3.9313908 -0.13495715
-7.8134518 -2.5889239 -0.078535981
-12.679561 -4.1153636 -0.1497431
-7.7969871 -2.4777024 -0.077837877
-7.9514394 -2.4731789 -0.079876348
-12.133303 -3.6926095 -0.14069562
-12.198857 -3.630929 -0.14132391
-9.7621536 -2.8404837 -0.10556676
-9.6139746 -2.7334893 -0.10316527
-14.801303 -4.1106067 -0.17810029
-12.780329 -3.4649611 -0.14850047
-9.7129259 -2.5693631 -0.1038913
-9.7498083 -2.5152133 -0.10419847
-13.340372 -3.3544772 -0.15567704
-11.80195 -2.8907108 -0.13326773
-13.045949 -3.1107275 -0.15087403
-12.98979 -3.0132205 -0.14979894
-13.027542 -2.9378598 -0.15007819
-11.431761 -2.5043311 -0.12701267
-13.323747 -2.8333089 -0.15380609
-11.343139 -2.3394148 -0.12532325
-15.119482 -3.0217891 -0.17889613
-11.387681 -2.2032704 -0.12556061
-12.259986 -2.2941227 -0.13776354
-12.291543 -2.2220562 -0.13801487
-12.556126 -2.1904213 -0.14157523
-12.595953 -2.1178145 -0.1419522
-12.729132 -2.059979 -0.1436556
-15.681871 -2.4392745 -0.18520704
-15.90521 -2.3741593 -0.18815306
-15.958082 -2.2820435 -0.18869759
-0 -0 -0
-32.173969 -4.199142 -0.41667205
-24.05261 -2.9891107 -0.30204257
-24.06752 -2.8411188 -0.30200067
-38.370022 -4.2911921 -0.50272101
-41.168926 -4.3486457 -0.5416615
-41.202793 -4.0967479 -0.5417732
-41.197289 -3.8410699 -0.54135436
-41.237015 -3.5896902 -0.5415917
-41.217403 -3.333292 -0.54101926
-55.899784 -4.1757412 -0.74633312
-0 -0 -0
-0 -0 -0
-0 -0 -0
-0 -0 -0
-0 -0 -0
-0 -0 -0
-0 -0 -0
-0 0 -0
-0 0 -0
-0 0 -0
-0 0 -0
-0 0 -0
-0 0 -0
-0 0 -0
-0 0 -0
-0 0 -0
-0 0 -0
-0 0 -0
-0 0 -0
-0 0 -0
-0 0 -0
-0 0 -0
-0 0 -0
-63.390079 10.999466 -1.6706072
-63.076412 11.34415 -1.6640023
-0 0 -0
-0 0 -0
-0 0 -0
-0 0 -0
-59.676826 12.633853 -1.5820372
-61.261471 13.36262 -1.6272109
-61.111027 13.723148 -1.6253805
-55.359962 12.788884 -1.4710795
-0 0 -0
-0 0 -0
-0 0 -0
-50.419949 12.958806 -1.3447896
-0 0 -0
-0 0 -0
-0 0 -0
-43.714966 12.38665 -1.1690556
-43.518127 12.619842 -1.1657399
-42.070381 12.480321 -1.1278344
-41.927006 12.718201 -1.1260041
-41.822399 12.967227 -1.1252879
-41.78207 13.236281 -1.126402
-41.740963 13.505635 -1.1275426
-41.710464 13.77906 -1.1290281
-41.748272 14.076255 -1.1324764
-0 0 -0
-0 0 -0
-60.763638 21.741837 -1.6758858
-49.622589 18.099455 -1.3650024
-58.518932 21.752308 -1.6200223
-0 0 -0
-57.462292 22.165846 -1.5976875
-56.951172 22.371078 -1.5870241
-55.855888 22.337389 -1.5596759
-55.493713 22.588484 -1.5532566
-54.267979 22.478661 -1.5220622
-43.669018 18.402885 -1.2208607
-52.710938 22.595436 -1.4851912
-51.943604 22.644779 -1.467021
-51.013176 22.612644 -1.4440761
-50.526234 22.768747 -1.4339697
-48.986874 22.437651 -1.3931464
-47.733566 22.218904 -1.3605195
-47.616215 22.520777 -1.3611031
-47.542908 22.844128 -1.3630395
-47.290451 23.081043 -1.3597503
-47.336021 23.464014 -1.3653207
-45.75716 23.032167 -1.3227202
-44.844128 22.918514 -1.2997487
-44.495914 23.08597 -1.2935681
-44.015553 23.180609 -1.2834352
-43.625641 23.318296 -1.276008
-43.103027 23.380102 -1.2645754
-42.800247 23.55689 -1.2597742
-42.493435 23.728895 -1.2548668
-42.106979 23.853186 -1.2475457
-41.860153 24.053823 -1.2444953
-41.376675 24.114908 -1.2342032
-41.459419 24.505169 -1.2413387
-41.26112 24.730831 -1.2398797
-40.978752 24.904621 -1.2358478
-40.763893 25.117834 -1.233938
-40.514896 25.308695 -1.2309936
-37.12846 23.511097 -1.129532
-38.856117 24.94051 -1.1885787
-36.299206 23.614964 -1.1125025
-36.136932 23.826241 -1.1119719
-35.969276 24.033638 -1.1113087
-35.797127 24.237637 -1.1105396
-35.696369 24.490194 -1.1121045
-33.056759 22.97871 -1.031678
-35.550068 25.036919 -1.1171975
-35.617111 25.41251 -1.1244125
-37.885319 27.383303 -1.2038045
-0 0 -0
-33.58165 24.905537 -1.0728197
-34.643848 26.024364 -1.1131656
-0 0 -0
-34.279915 26.415197 -1.1117597
-0 0 -0
-34.393936 27.182236 -1.1266673
-33.076122 26.472017 -1.087568
-0 0 -0
-34.39082 28.223566 -1.1439356
-34.157795 28.384855 -1.1418931
-34.01664 28.622229 -1.1430602
-33.781025 28.779846 -1.1409912
-33.57201 28.959156 -1.1398771
-33.370346 29.144218 -1.1390548
-33.311459 29.455042 -1.1433254
-33.199364 29.720892 -1.1457924
-32.99934 29.9086 -1.1451824
-32.810783 30.106462 -1.1450231
-30.940958 28.74235 -1.0840136
-30.711586 28.882349 -1.0821037
-30.280397 28.828989 -1.0728197
-29.92732 28.844969 -1.0663474
-29.595228 28.877258 -1.0606178
-29.212667 28.85598 -1.0529783
-28.844919 28.844534 -1.0458429
-28.568338 28.9207 -1.0421027
-25.794756 26.435242 -0.94347942
-27.921314 28.968239 -1.0310149
-25.286442 26.558655 -0.93647659
-34.179153 36.34333 -1.287255
-24.544971 26.421652 -0.92034882
-24.302641 26.484844 -0.9172188
-24.132292 26.625317 -0.91692698
-23.813782 26.600092 -0.91077298
-0 0 -0
-0 0 -0
-22.905518 26.553251 -0.89392906
-0 0 -0
-0 0 -0
-22.046799 26.529819 -0.8787297
-21.822086 26.58964 -0.87615669
-21.644049 26.705173 -0.87554663
-21.381716 26.714943 -0.87138206
-21.1957 26.818184 -0.87045366
-26.341869 33.753613 -1.0995313
-0 0 -0
-0 0 -0
-20.025038 26.656492 -0.84809232
-19.681864 26.537178 -0.84010804
-12.410403 16.948683 -0.52081585
-19.195454 26.556335 -0.83289295
-18.965376 26.580034 -0.82984251
-18.724798 26.586384 -0.82628804
-18.496841 26.608023 -0.82329059
-18.261974 26.617153 -0.81994832
-18.0333 26.632685 -0.81687135
-17.811789 26.656391 -0.81411266
-17.606073 26.701752 -0.81209666
-17.410831 26.761515 -0.81058472
-30.96244 48.237797 -1.4843954
-30.700636 48.48177 -1.4861196
-30.404699 48.672623 -1.4862257
-12.242249 19.866667 -0.58262116
-29.826406 49.077095 -1.4873133
-29.541159 49.286621 -1.4881622
-0 0 -0
-0 0 -0
-0 0 -0
-9.6023512 16.949022 -0.4803108
-9.505971 17.021587 -0.48073521
-27.278063 49.561115 -1.4645541
-26.952477 49.688892 -1.4633869
-17.08667 31.966124 -0.92520308
-11.047298 20.975246 -0.5924623
-10.976394 21.15444 -0.59580457
-11.037445 21.595253 -0.6069454
-16.798605 33.372322 -0.95480597
-16.577093 33.441628 -0.95382452
-16.269869 33.334293 -0.94767052
-16.086674 33.478546 -0.94899678
-10.450597 22.094458 -0.6119588
-15.585622 33.482208 -0.94339985
-15.364901 33.544491 -0.94244492
-10.588343 23.49523 -0.64723825
-9.7606115 22.018013 -0.60248905
-14.630207 33.558628 -0.93483198
-0 0 -0
-9.874239 23.42927 -0.63806027
-9.7268505 23.481104 -0.63782156
-13.658272 33.553875 -0.92469907
-13.443224 33.614769 -0.92406249
-13.190666 33.579388 -0.92072022
-12.976464 33.639172 -0.92013663
-12.762733 33.699463 -0.91960615
-12.509745 33.653454 -0.91610467
-18.262857 50.070549 -1.3776553
-10.919889 30.517694 -0.82347625
-0 0 -0
-12.133049 35.267101 -0.95305526
-11.903971 35.30394 -0.95202076
-0 0 -0
-15.987794 49.411514 -1.3414739
-15.593444 49.221836 -1.3334897
-11.172523 36.032299 -0.96443486
-14.789481 48.754208 -1.3153194
-14.4295 48.639904 -1.3096694
-7.3394718 25.306881 -0.66259676
-7.0745068 24.9648 -0.65193331
-6.8769374 24.847805 -0.64753002
-6.6860242 24.747671 -0.64363074
-6.4999123 24.658699 -0.64007628
-6.3278351 24.617758 -0.6378746
-6.1506767 24.552364 -0.63503635
-5.9864063 24.534285 -0.63352436
-5.8253608 24.526789 -0.63233072
-5.6686831 24.535772 -0.63161451
-5.5016026 24.496941 -0.62962508
-5.3460765 24.506796 -0.62898844
-5.1982961 24.551851 -0.62933326
-5.0539832 24.61462 -0.63018209
-4.9159207 24.710857 -0.63195932
-4.7802687 24.823994 -0.63421404
-4.6472545 24.957031 -0.63702577
-4.5111947 25.080511 -0.63959879
-4.3801169 25.2397 -0.64315325
-4.2765946 25.573723 -0.65142936
-4.1921592 26.050522 -0.66355169
-4.5078135 29.152115 -0.7461533
-2.2291622 15.022122 -0.36638209
-2.121763 14.928629 -0.36351731
-1.8976285 13.965669 -0.33738929
-1.8129286 13.98498 -0.33760151
-1.8379296 14.894713 -0.36163396
-1.7484791 14.922588 -0.3620849
-1.667789 15.031399 -0.36471096
-1.5782323 15.067199 -0.36540064
-3.2800047 33.298027 -0.85124892
-2.8563724 30.941462 -0.78793156
-2.8683102 33.302906 -0.85037357
-2.6624799 33.301941 -0.84989607
-2.4594898 33.336594 -0.85040009
-1.9072529 28.206604 -0.71357954
-1.2384717 20.146828 -0.49901158
-1.1150504 20.158041 -0.49911767
-0.71075118 14.450401 -0.34730998
-0.6219002 14.450496 -0.34720388
-0.97261626 26.390751 -0.66416174
-0.80984002 26.369244 -0.66344559
-0.64724177 26.341738 -0.66259676
-0.48618785 26.377195 -0.66344559
-0.3231557 26.283724 -0.6608991
-0.16172902 26.261221 -0.66026247
-0.00059020717 26.25972 -0.66020942
0.16156438 26.426167 -0.66463923
0.32866174 26.827505 -0.67532915
0.49236333 26.776011 -0.67402941
0.7970506 32.486748 -0.82570446
0.86822659 28.308681 -0.71493232
1.0418354 28.300823 -0.71487927
1.109736 25.835037 -0.64957255
1.2582743 25.625057 -0.64418775
1.4116192 25.546986 -0.64233094
1.5620298 25.435074 -0.63959879
1.7148299 25.377136 -0.63832557
1.8699204 25.358162 -0.63811332
2.0265157 25.359165 -0.63845819
2.1827648 25.354221 -0.63867038
2.3406837 25.36623 -0.63936007
2.5000079 25.389194 -0.64036804
2.7218537 26.004702 -0.65721196
2.8870952 26.039177 -0.65859133
3.040534 25.967358 -0.65715891
3.2054393 25.993849 -0.65837914
3.3653882 25.977657 -0.65848523
3.5088432 25.839634 -0.65535516
2.2621479 15.928468 -0.39030844
2.1705971 14.638702 -0.35609004
2.4586666 15.907412 -0.39052066
2.3152905 14.394822 -0.35028088
2.4390204 14.592325 -0.35598394
4.5609593 26.288855 -0.67140335
4.7085528 26.184616 -0.66936088
4.8674827 26.146389 -0.6691221
5.0280113 26.117012 -0.66914862
