# .PCD v0.7 - Point Cloud Data file format
VERSION 0.7
FIELDS x y z
SIZE 4 4 4
TYPE F F F
COUNT 1 1 1
WIDTH 1530
HEIGHT 1
VIEWPOINT 0 0 0 1 0 0 0
POINTS 1530
DATA ascii
-4.1536064 -2.1914563 -1.0108942
-4.1210766 -2.1420863 -0.99932361
-4.153255 -2.1265395 -1.0041265
-4.1906257 -2.1133132 -1.0102392
-4.1930242 -2.0823541 -1.0076195
-4.2136135 -2.0604432 -1.0095843
-4.2226591 -2.0328579 -1.0087111
-4.2394629 -2.0089982 -1.0098027
-4.3012433 -2.0060344 -1.0220282
-4.3391953 -1.9914027 -1.0283593
-4.3362107 -1.9579171 -1.024648
-4.4150395 -1.9609673 -1.0410215
-4.3867421 -1.9162706 -1.0311974
-4.4064884 -1.8927824 -1.0331622
-4.4297075 -1.8706417 -1.0360003
-4.6051583 -1.9114771 -1.0757333
-4.5426979 -1.8529782 -1.0578316
-4.6101494 -1.8475645 -1.071367
-4.6577249 -1.8335323 -1.0800996
-4.7681112 -1.8432506 -1.1038958
-4.6698375 -1.7724299 -1.0776982
-4.7217798 -1.7590643 -1.0875223
-4.7544837 -1.7380954 -1.0927618
-4.8036427 -1.7227172 -1.101931
-4.7782168 -1.6805904 -1.0934168
-4.8788571 -1.682397 -1.1148115
-5.024076 -1.698019 -1.1466852
-5.3382826 -1.7677183 -1.2182921
-5.3713088 -1.7421513 -1.2235316
-5.4014306 -1.7153597 -1.2281163
-5.5637631 -1.7293693 -1.2637013
-5.5938773 -1.7011569 -1.2682859
-5.6930771 -1.693213 -1.2890257
-5.8926587 -1.713248 -1.333125
-6.2156739 -1.7658091 -1.4058235
-6.2310939 -1.7289408 -1.4069151
-6.4224453 -1.7396305 -1.4488312
-6.6509533 -1.7577536 -1.4992616
-6.8175449 -1.7570716 -1.5352834
-6.8859348 -1.7297001 -1.5486006
-6.9987974 -1.7124487 -1.5721784
-7.2370191 -1.7237033 -1.6245737
-7.6077847 -1.7626952 -1.7073145
-7.7488894 -1.7453399 -1.7372235
-7.8824358 -1.7246505 -1.7653859
-8.1114769 -1.7226465 -1.8153797
-8.4908495 -1.748782 -1.8996488
-8.6650724 -1.7292881 -1.9369804
-8.6793528 -1.6768277 -1.9378536
-8.6990709 -1.6253316 -1.9400368
-8.7444143 -1.5783335 -1.9481144
-8.7597027 -1.525653 -1.9494243
-8.7717867 -1.47236 -1.9500792
-8.7777653 -1.4180431 -1.9494243
-8.7650852 -1.360866 -1.9446213
-8.75107 -1.3037543 -1.9396001
-8.7424812 -1.2476925 -1.9358888
-8.7480383 -1.1937624 -1.9354522
-8.7706823 -1.1420772 -1.9389452
-8.7804298 -1.0885996 -1.9396001
-8.7694988 -1.0326514 -1.9356705
-8.7747002 -0.9787153 -1.9354522
-8.8067446 -0.92761296 -1.9413466
-8.7870207 -0.87105864 -1.9356705
-8.8116341 -0.81892973 -1.9400368
-8.8398266 -0.76686829 -1.9452763
-8.8297749 -0.71143997 -1.9420016
-8.8320274 -0.65710354 -1.9415649
-8.8378401 -0.60303152 -1.9420016
-8.7751417 -0.54468971 -1.9271562
-8.7997541 -0.49203196 -1.9319592
-8.8484173 -0.44030195 -1.9422199
-8.8246288 -0.38485622 -1.9363254
-8.8395014 -0.33117539 -1.9391636
-8.8667278 -0.27772203 -1.9448397
-8.8477783 -0.22279836 -1.940255
-8.8099508 -0.16776712 -1.9315225
-8.8215475 -0.11384425 -1.933924
-8.8015871 -0.059578076 -1.9293394
-8.8144732 -0.0055777975 -1.9321774
-8.8045835 0.048451919 -1.9299943
-8.8129025 0.10257828 -1.9319592
-8.8238153 0.15686099 -1.9345789
-8.8217115 0.21097648 -1.9343606
-8.778307 0.26383537 -1.9249731
-8.7979784 0.31847253 -1.9297761
-8.7480841 0.37042066 -1.9190787
-8.7934074 0.4264133 -1.9297761
-8.7886772 0.48025385 -1.9293394
-8.7651091 0.53292471 -1.9247549
-8.7665424 0.58702302 -1.9258463
-8.3484087 -0.20946527 -1.9265074
-8.3514833 -0.15827343 -1.9269658
-8.3454847 -0.10693908 -1.9253614
-8.3527966 -0.055775955 -1.9269658
-8.3208609 -0.0045041856 -1.9194022
-8.3440924 0.046681318 -1.924903
-8.3232088 0.097640023 -1.9200898
-8.3253727 0.14876047 -1.9207774
-8.355443 0.20058727 -1.9281118
-8.3365421 0.25132439 -1.9239862
-8.314415 0.30173138 -1.919173
-8.3211594 0.353113 -1.9212358
-8.3227253 0.40435278 -1.9221526
-8.322032 0.45551875 -1.922611
-8.3491993 0.5084058 -1.9297162
-8.2925062 0.55604672 -1.9171102
-8.3209743 0.60926229 -1.9246738
-8.2986431 0.65884453 -1.920319
-8.3148108 0.71149343 -1.9251322
-8.281209 0.75983202 -1.9182562
-8.2889843 0.81186312 -1.9212358
-8.2548027 0.85968471 -1.9143598
-8.2600155 0.91149294 -1.916881
-8.2968073 0.96711504 -1.9269658
-8.260767 1.014329 -1.9198606
-8.246665 1.064001 -1.918027
-8.2303352 1.1132772 -1.915735
-8.2088928 1.1617115 -1.912297
-8.2256832 1.2156148 -1.918027
-8.1843977 1.2608781 -1.910005
-8.2034187 1.3153867 -1.9164226
-8.1798306 1.3631378 -1.9127554
-8.1895361 1.4164537 -1.9171102
-8.1797333 1.4665053 -1.916881
-8.1447401 1.5118723 -1.9106926
-8.1544294 1.5654886 -1.9152766
-8.1188908 1.6103816 -1.9090881
-8.0688057 1.6519699 -1.8994617
-8.0775652 1.7054689 -1.9040458
-8.0907269 1.7601717 -1.9097757
-8.0940218 1.8129729 -1.9132138
-8.0761061 1.8610731 -1.9116094
-8.078742 1.9139574 -1.9150474
-8.0659008 1.9632614 -1.9148182
-8.0291491 2.0065811 -1.908859
-7.9799132 2.046381 -1.8999202
-7.9926243 2.1019895 -1.9061086
-7.992734 2.1545382 -1.9093174
-7.9240055 2.1882555 -1.8957945
-7.887013 2.2302146 -1.8900646
-7.9143209 2.2904708 -1.9001493
-7.9215846 2.3453438 -1.905421
-7.884686 2.3871374 -1.8999202
-7.8605914 2.4325948 -1.8976282
-7.8380923 2.4784334 -1.8957945
-7.8847985 2.5465205 -1.9111509
-7.8348207 2.5835757 -1.9026706
-7.8105183 2.6288066 -1.9006078
-7.794241 2.6766815 -1.9006078
-7.795125 2.7305689 -1.9049625
-7.7690573 2.7750738 -1.9026706
-7.7482247 2.8213594 -1.9017538
-7.7234669 2.8661397 -1.8999202
-7.7002721 2.9114108 -1.8985449
-7.6831713 2.9589539 -1.8987741
-7.6811824 3.0124373 -1.9028997
-7.623682 3.043993 -1.8930441
-7.6292086 3.1006074 -1.8992325
-7.5938487 3.1406658 -1.8951069
-7.5977626 3.197016 -1.9010662
-7.5914259 3.2493196 -1.9045042
-7.5606356 3.2911768 -1.9017538
-7.5260572 3.3312032 -1.8980865
-7.5116897 3.3801153 -1.899691
-7.4970045 3.4289763 -1.9012954
-7.4749408 3.4745021 -1.9010662
-7.4455595 3.5165613 -1.8990034
-7.413311 3.5571275 -1.896253
-7.4009705 3.6072385 -1.8987741
-7.383059 3.654741 -1.8999202
-7.3413615 3.690357 -1.8948778
-7.3402548 3.7463946 -1.9006078
-7.3179936 3.791811 -1.9008369
-7.2790823 3.8284867 -1.8967113
-7.2726288 3.8822451 -1.9012954
-7.2315531 3.9175241 -1.8967113
-7.189466 3.9519765 -1.8918982
-7.1557302 3.9908011 -1.889377
-7.1344972 4.0365496 -1.8902937
-7.1399879 4.0976911 -1.8985449
-7.1071396 4.1370173 -1.8964821
-7.0732388 4.1756001 -1.8941902
-7.0332866 4.2104235 -1.8902937
-7.0322828 4.2686505 -1.8971697
-7.0142484 4.3168211 -1.8994617
-6.9868031 4.3592629 -1.8992325
-6.9508739 4.3963284 -1.8967113
-6.913115 4.4320664 -1.8937317
-6.8719144 4.4653854 -1.8898354
-6.8362565 4.5021133 -1.8875433
-6.8157902 4.5488377 -1.8896061
-6.7829127 4.5873017 -1.8882309
-6.7441993 4.6216817 -1.8852513
-6.7365031 4.6774092 -1.8912106
-6.7068801 4.7180958 -1.8909813
-6.6651211 4.7501216 -1.8873142
-6.6397953 4.793777 -1.8884602
-6.6000423 4.8269587 -1.8854805
-6.5937653 4.8847461 -1.8923565
-6.5737906 4.9327068 -1.8953362
-6.5263505 4.9599934 -1.8902937
-6.5127635 5.0130062 -1.8953362
-6.4765081 5.0486846 -1.8937317
-6.4370036 5.0816941 -1.8912106
-6.3935366 5.111371 -1.8875433
-6.3696194 5.1566291 -1.8898354
-6.3348475 5.1931472 -1.8889185
-6.296123 5.2263241 -1.8868557
-6.2684073 5.2686157 -1.8882309
-6.2248421 5.2975163 -1.8847929
-6.2195048 5.3591194 -1.8932734
-6.1835704 5.3946214 -1.8923565
-6.1306548 5.4150639 -1.8861681
-6.1096487 5.4636087 -1.8900646
-6.0565262 5.483356 -1.8838761
-6.004827 5.5039735 -1.8781462
-5.9787912 5.5479975 -1.8806673
-5.9566975 5.5959072 -1.8845637
-5.9278927 5.6377177 -1.8863974
-5.8861761 5.6672335 -1.8841053
-5.8241057 5.6767483 -1.8751665
-5.8057938 5.7287846 -1.8806673
-5.7636466 5.757422 -1.8783753
-5.7432694 5.8079047 -1.8834177
-5.7061639 5.8416429 -1.8829594
-5.6762962 5.8828492 -1.8850222
-5.6441226 5.9217949 -1.8863974
-5.6250296 5.9747405 -1.8923565
-5.5690393 5.9884725 -1.8857098
-5.5209951 6.010345 -1.8818133
-5.4827042 6.0426664 -1.8813549
-5.4474726 6.0783687 -1.8820425
-5.4171715 6.1196961 -1.8845637
-5.3788791 6.1520872 -1.8843346
-5.3499365 6.1952891 -1.8875433
-5.3231921 6.2413292 -1.8916689
-5.2948303 6.2857852 -1.8953362
-5.2430882 6.3024416 -1.890523
-5.1962848 6.324717 -1.8875433
-5.1598325 6.3595052 -1.8884602
-5.1377573 6.4123144 -1.8948778
-5.0934834 6.4376121 -1.8930441
-5.0484934 6.4618406 -1.8909813
-5.0164785 6.5027146 -1.893961
-4.9694061 6.5240812 -1.8912106
-4.9322071 6.5583396 -1.8923565
-4.9023185 6.6025462 -1.8964821
-4.8703461 6.6442776 -1.8999202
-4.8192139 6.6598425 -1.8957945
-4.7759957 6.6861191 -1.8948778
-4.743856 6.7280259 -1.8985449
-4.6891389 6.737833 -1.8930441
-4.6471567 6.765676 -1.892815
-4.6623621 6.8778539 -1.9166518
-4.5924683 6.8650723 -1.9049625
-4.551331 6.8947463 -1.905421
-4.4919386 6.8964438 -1.8980865
-4.4511175 6.9263325 -1.8987741
-4.4137468 6.9617343 -1.9010662
-4.366818 6.9820838 -1.8992325
-4.3330941 7.0236578 -1.9033582
-4.2985187 7.0642486 -1.9072546
-4.2616043 7.1013403 -1.9102342
-4.2144804 7.1214919 -1.9086298
-4.1751204 7.1547837 -1.9106926
-4.1461902 7.2064209 -1.9177978
-4.0850844 7.2020936 -1.9097757
-4.0512681 7.2457142 -1.9148182
-4.0184793 7.2917476 -1.9205482
-3.9736621 7.316267 -1.9205482
-3.9259396 7.3353624 -1.919173
-3.8776782 7.3532867 -1.9175686
-3.8410132 7.3933525 -1.9219234
-3.7889237 7.4037838 -1.9184854
-3.7460527 7.4321079 -1.9198606
-3.7068717 7.4680314 -1.9232986
-3.6481555 7.4644008 -1.9164226
-3.6048186 7.4919076 -1.9177978
-3.5646148 7.5262008 -1.9210066
-3.5220695 7.555871 -1.9230694
-3.4792941 7.5853024 -1.9251322
-3.4290822 7.5985231 -1.9230694
-3.3748894 7.6025176 -1.9187146
-3.3422 7.6551962 -1.9269658
-3.2932456 7.6710873 -1.9258198
-3.2529283 7.7072916 -1.9299455
-3.2156477 7.7513809 -1.9361339
-3.158838 7.7484322 -1.9304038
-3.110873 7.7667651 -1.9301746
-3.0781279 7.8237495 -1.939801
-3.0177846 7.8107109 -1.931779
-2.9615157 7.8072391 -1.9262782
-2.9132159 7.8243513 -1.926049
-2.8681583 7.8503075 -1.9281118
-2.8255198 7.8833351 -1.9320083
-2.7622449 7.8582826 -1.921465
-2.7203193 7.8934884 -1.926049
-2.6849194 7.9487629 -1.9356754
-2.6367078 7.9669356 -1.9361339
-2.5853724 7.9755569 -1.9343002
-2.5363865 7.9912705 -1.9343002
-2.4907711 8.0178375 -1.9370506
-2.4406784 8.0301752 -1.936363
-2.3921924 8.0477991 -1.9370506
-2.3468418 8.0763464 -1.9404886
-2.2913918 8.0699949 -1.9354463
-2.2452145 8.096096 -1.9384258
-2.195241 8.1087809 -1.9381967
-2.1469369 8.1277437 -1.9395719
-2.103097 8.1643295 -1.9453019
-2.042294 8.1345968 -1.9349878
-1.9904925 8.139411 -1.9331542
-1.9466001 8.1770382 -1.9393426
-1.8893613 8.1584835 -1.9320083
-1.8424735 8.1841669 -1.9354463
-1.7918057 8.1934156 -1.9349878
-1.7421046 8.2071123 -1.9356754
-1.6928918 8.2233677 -1.9370506
-1.63726 8.2078266 -1.9308622
-1.5896358 8.2320538 -1.9343002
-1.5421333 8.2579193 -1.9381967
-1.4900519 8.2595625 -1.936363
-1.4433515 8.2915649 -1.9418639
-1.3909985 8.291625 -1.939801
-1.3368367 8.2798252 -1.9349878
-1.2904863 8.3167276 -1.9418639
-1.2385713 8.3187122 -1.9404886
-1.1864054 8.3184471 -1.938655
-1.1384996 8.3487167 -1.9441558
-1.0858693 8.3449278 -1.9416347
-1.0321313 8.3311472 -1.9368215
-0.98201698 8.3460245 -1.9388843
-0.92949396 8.3402834 -1.9361339
-0.88054371 8.3671265 -1.9411763
-0.82889944 8.3694658 -1.9404886
-0.7788803 8.3889332 -1.9439267
-0.72705573 8.3896751 -1.9430099
-0.6750952 8.3881569 -1.9416347
-0.62462419 8.4057312 -1.9448434
-0.5719763 8.3938675 -1.9411763
-0.52094382 8.4049911 -1.9430099
-0.46925339 8.406086 -1.9425515
-0.4175691 8.4068623 -1.942093
-0.3653422 8.3946791 -1.938655
-0.31422693 8.4074631 -1.9411763
-0.26217732 8.394639 -1.9377382
-0.21061493 8.3941431 -1.9372798
-0.15919793 8.4001436 -1.9384258
-0.10750239 8.3892832 -1.9356754
-0.056194894 8.4150915 -1.9416347
-0.0045603756 8.4162512 -1.9418639
0.046940479 8.3908138 -1.9359046
0.098652095 8.4098339 -1.9404886
0.14978373 8.3827934 -1.9343002
0.20168306 8.4011784 -1.9388843
0.25299364 8.3919992 -1.9370506
0.30490428 8.4019623 -1.939801
0.35492676 8.3639498 -1.9313207
0.40713692 8.3800869 -1.9356754
0.45844218 8.3754873 -1.935217
0.50893784 8.3579435 -1.931779
0.55845457 8.3284407 -1.9255906
0.61331123 8.3763084 -1.9377382
0.66438782 8.3685064 -1.9368215
0.71547467 8.3613625 -1.9361339
0.76872116 8.3781404 -1.9411763
0.81565666 8.3277349 -1.9304038
0.86774713 8.3322544 -1.9326959
0.91939008 8.3316107 -1.9338418
0.97038198 8.3248463 -1.9336126
1.017175 8.2839546 -1.9253614
1.0722185 8.31038 -1.9331542
1.1261898 8.3258305 -1.9384258
1.1756188 8.3071985 -1.9356754
1.2244347 8.2853842 -1.9322374
1.272583 8.2603989 -1.9281118
1.3247845 8.2620459 -1.9304038
1.3738549 8.2441607 -1.9281118
1.4264045 8.2470856 -1.9308622
1.4702834 8.2008114 -1.9219234
1.5221734 8.2002487 -1.9239862
1.575763 8.2079611 -1.9281118
1.6245817 8.1905003 -1.9262782
1.673636 8.1746559 -1.924903
1.7253715 8.1718521 -1.9267366
1.7794112 8.179183 -1.9310914
1.819567 8.1234674 -1.920319
1.8761519 8.1415548 -1.9274242
1.9287643 8.1412554 -1.9301746
1.9844358 8.1529121 -1.9359046
2.038435 8.1566362 -1.939801
2.0848186 8.1298313 -1.936363
2.1242671 8.0773487 -1.9267366
2.1661897 8.0359669 -1.9198606
2.2115707 8.0084496 -1.9164226
2.2548423 7.9741225 -1.9113802
2.3148208 7.9984732 -1.9207774
2.3544612 7.9523854 -1.9129846
2.3947515 7.9098396 -1.9061086
2.4481316 7.9108052 -1.910005
2.4986792 7.9021316 -1.9116094
2.5528018 7.9042506 -1.9159642
2.6091778 7.9124732 -1.9219234
2.6465025 7.8631029 -1.9136722
2.704499 7.8752556 -1.9207774
2.7360387 7.8107424 -1.908859
2.7826035 7.7901406 -1.9079422
2.8386755 7.7957864 -1.9136722
2.8722346 7.7398934 -1.9040458
2.9072804 7.6893463 -1.8957945
2.9687476 7.7086053 -1.9051918
3.0170569 7.6929631 -1.9058794
3.0623989 7.669786 -1.9047334
3.1119671 7.6571636 -1.9063377
3.1428974 7.599246 -1.8964821
3.1989033 7.6022487 -1.9022121
3.2324684 7.5520515 -1.8944193
3.2872922 7.5517106 -1.8994617
3.3319912 7.5278378 -1.8985449
3.3781183 7.5072513 -1.8985449
3.4095447 7.4545145 -1.8902937
3.4667075 7.4581695 -1.8967113
3.4991038 7.4085922 -1.889377
3.5575485 7.4141884 -1.8964821
3.5918872 7.3694701 -1.890523
3.6443782 7.3621221 -1.8944193
3.6750574 7.3109221 -1.8868557
3.737103 7.3220477 -1.8957945
3.770318 7.2765083 -1.8898354
3.8085518 7.2411761 -1.8866266
3.8584113 7.2279754 -1.889377
3.8781178 7.1588025 -1.8772293
3.947288 7.1809359 -1.8896061
3.9870086 7.1489291 -1.8875433
4.0260057 7.1158586 -1.8852513
4.0618405 7.0775137 -1.8815842
4.1105766 7.0617113 -1.8841053
4.1483865 7.0271358 -1.8815842
4.1704292 6.9664712 -1.8719577
4.2332978 6.9740353 -1.8811257
4.2754998 6.9471002 -1.8808966
4.3082571 6.9050441 -1.8765417
4.3302541 6.846395 -1.8676029
4.3868899 6.8426414 -1.8740206
4.4139438 6.7927408 -1.8676029
4.4619641 6.7752848 -1.8703533
4.4991298 6.741302 -1.8685197
4.5284133 6.6958299 -1.8634773
4.5820675 6.6863861 -1.8687489
4.6174569 6.6501493 -1.8664569
4.6643348 6.6304498 -1.8689781
4.7060604 6.6032906 -1.8694365
4.7128739 6.5277267 -1.8559136
4.768352 6.5198998 -1.8621022
4.8065295 6.4881725 -1.8614146
4.8515072 6.4655657 -1.8634773
4.8916769 6.4364505 -1.8637065
4.8972383 6.3623466 -1.8506421
4.9589243 6.361351 -1.8593518
4.9978633 6.3308039 -1.8593518
5.0274978 6.2886138 -1.8559136
5.0812998 6.2765613 -1.8616437
5.1190996 6.2445121 -1.8614146
5.177834 6.2377014 -1.8689781
5.1709199 6.1521611 -1.8524756
5.2350659 6.1514521 -1.8621022
5.2447562 6.0867682 -1.8520173
5.2756066 6.0471373 -1.8497252
5.2958589 5.9956837 -1.8437661
5.3286552 5.9587226 -1.8423909
5.370996 5.9324088 -1.8444537
5.442152 5.9373736 -1.8566012
5.4625912 5.8867445 -1.8511004
5.5299311 5.8864608 -1.8618729
5.5666161 5.8531241 -1.8621022
5.5747471 5.7901073 -1.8527049
5.6033759 5.7488217 -1.8504128
5.6597371 5.7358112 -1.8575181
5.6686854 5.6748056 -1.8488085
5.7296982 5.665926 -1.8575181
5.7699261 5.6361041 -1.8593518
5.7966952 5.5931592 -1.8568305
5.8562698 5.5816636 -1.8650817
5.8918252 5.5469599 -1.8655401
5.9457068 5.5292649 -1.8719577
5.9465485 5.4623871 -1.8614146
6.0073452 5.4506531 -1.8701241
6.0327034 5.4065437 -1.8676029
6.0380688 5.3449078 -1.8588933
6.1051908 5.3378725 -1.8696657
6.1304617 5.2939491 -1.8673737
6.1731973 5.2650771 -1.8705825
6.2202754 5.2396426 -1.8751665
6.2410841 5.192039 -1.8717285
6.2141633 5.1054463 -1.8538508
6.3133988 5.1224198 -1.8744789
6.3378739 5.0781074 -1.8724161
6.3429608 5.0185871 -1.8646233
6.375936 4.9813709 -1.8653109
6.4048395 4.9409661 -1.8648525
6.4265189 4.8950853 -1.8623313
6.5046639 4.8918362 -1.8765417
6.5017347 4.8274593 -1.8669153
6.5767651 4.8208532 -1.880209
6.5841422 4.7644296 -1.8737913
6.6100841 4.7216773 -1.8728745
6.6540456 4.6916876 -1.8772293
6.6875014 4.6541071 -1.8786045
6.7223511 4.6173949 -1.8804381
6.7376657 4.5673213 -1.876771
6.7744622 4.5318475 -1.8792921
6.8078279 4.4939489 -1.8808966
6.8466926 4.4595304 -1.8841053
6.8829341 4.4232249 -1.8866266
6.885283 4.3652716 -1.8797505
6.9094625 4.3213935 -1.8790629
6.9283929 4.2743163 -1.8770001
6.9652987 4.2383022 -1.8799797
6.9861655 4.1924787 -1.8786045
6.9983563 4.1416011 -1.8749373
7.0421319 4.109376 -1.8799797
7.0849314 4.0762835 -1.8847929
7.0827169 4.0173655 -1.8774586
7.1335702 3.9885585 -1.8845637
7.1391549 3.934376 -1.8795214
7.1879663 3.9039705 -1.8861681
7.2092109 3.8584144 -1.8854805
7.2336111 3.8145611 -1.8857098
7.2577443 3.7705534 -1.885939
7.2798767 3.7255063 -1.8857098
7.31216 3.6855874 -1.8882309
7.3032498 3.6250701 -1.8799797
7.3463435 3.5904489 -1.8854805
7.4033198 3.5621884 -1.8946486
7.3880911 3.4991944 -1.8850222
7.4376535 3.4669571 -1.8923565
7.4472852 3.4159789 -1.889377
7.4725409 3.3722212 -1.890523
7.4664025 3.3144577 -1.883647
7.5044403 3.2763724 -1.8882309
7.5360298 3.2352569 -1.8912106
7.5629134 3.1919839 -1.8930441
7.5904479 3.148876 -1.8951069
7.5861917 3.0926876 -1.8891478
7.6122537 3.0489771 -1.8909813
7.6253839 3.0000732 -1.8896061
7.6436486 2.9532282 -1.8896061
7.680737 2.913523 -1.8944193
7.7066793 2.8693972 -1.8964821
7.7003698 2.8133698 -1.890523
7.7413106 2.7746081 -1.8964821
7.7490067 2.7238278 -1.8941902
7.7545309 2.6724234 -1.8914398
7.8104362 2.6381884 -1.9012954
7.8116918 2.5853207 -1.8976282
7.8320379 2.5388412 -1.8987741
7.8660235 2.4966273 -1.9033582
7.8709693 2.4451385 -1.9008369
7.8709235 2.3922672 -1.8971697
7.8957171 2.3469784 -1.899691
7.9286633 2.30392 -1.9042749
7.92486 2.250175 -1.8999202
7.9291382 2.198905 -1.8976282
7.946239 2.1512289 -1.8985449
7.9423499 2.0979557 -1.8944193
7.9701543 2.0530686 -1.8980865
8.0071478 2.0102899 -1.9040458
8.0023127 1.9569582 -1.8999202
7.9952316 1.9033108 -1.8953362
8.0323629 1.8601477 -1.9015245
8.0455246 1.8112546 -1.901983
8.0650454 1.7637261 -1.9040458
8.0623846 1.7113765 -1.9008369
8.0898943 1.665408 -1.9049625
8.0741882 1.6105957 -1.8987741
8.1068554 1.5654534 -1.9042749
8.0837765 1.5096043 -1.8964821
8.1015081 1.4615306 -1.8985449
8.110323 1.4117931 -1.8985449
8.1284323 1.3636134 -1.9008369
8.12992 1.3126262 -1.8992325
6.0149927 0.93322051 -1.3933873
0 0 -0
0 0 -0
0 0 -0
0 0 -0
0 0 -0
0 0 -0
0 0 -0
0 0 -0
0 0 -0
0 0 -0
0 0 -0
0 0 -0
0 0 -0
0 0 -0
0 0 -0
0 0 -0
0 0 -0
0 0 -0
0 0 -0
0 0 -0
0 0 -0
0 0 -0
0 0 -0
0 0 -0
0 0 -0
0 -0 -0
0 -0 -0
0 -0 -0
0 -0 -0
0 -0 -0
0 -0 -0
0 -0 -0
0 -0 -0
0 -0 -0
0 -0 -0
5.828568 -0.39094782 -1.3356287
5.8386798 -0.42762733 -1.3386084
5.8514714 -0.46467659 -1.3422756
5.8688765 -0.50231355 -1.3470888
0 -0 -0
5.9465518 -0.58254671 -1.3670293
6.1103549 -0.63645798 -1.4066809
8.1419783 -0.89847338 -1.8889185
8.2465324 -0.9612571 -1.9150474
8.2433767 -1.0121945 -1.915735
8.0699997 -1.0412159 -1.8760834
7.7412825 -1.0471493 -1.7995304
7.5564117 -1.0694051 -1.7571284
7.479414 -1.1053655 -1.7403967
7.3329954 -1.1297538 -1.7071626
7.2163587 -1.1571639 -1.6810338
7.1947207 -1.1990215 -1.6775957
7.3349366 -1.2686851 -1.7128927
7.350009 -1.317789 -1.7183934
7.3197727 -1.3587781 -1.7131219
7.3017383 -1.401831 -1.7108299
7.2929993 -1.4466074 -1.7108299
7.2744498 -1.4893771 -1.7085378
7.2832694 -1.537804 -1.7128927
7.2565761 -1.5787406 -1.7087671
7.2125578 -1.6155789 -1.7005159
7.1721563 -1.6528108 -1.6931814
7.1448307 -1.6927489 -1.6890558
7.1144481 -1.7317237 -1.6842426
7.0640259 -1.7654344 -1.6746162
7.0662608 -1.8121296 -1.677825
7.0248847 -1.8475324 -1.6704906
6.9871006 -1.8835092 -1.664073
6.9557085 -1.9209055 -1.6592598
6.9625244 -1.968845 -1.6638438
6.9390922 -2.0082824 -1.6610934
6.9173055 -2.0480592 -1.6588013
6.896224 -2.0879264 -1.6567385
6.8888621 -2.131928 -1.6581137
6.8682265 -2.1718097 -1.6562802
6.8455086 -2.2109203 -1.6539881
6.8216448 -2.2495294 -1.651467
6.815094 -2.2938275 -1.6533005
6.7769547 -2.3273821 -1.6473414
6.7432547 -2.362164 -1.6425282
6.7387171 -2.4070966 -1.6450493
6.7485161 -2.4573903 -1.6512377
6.7323985 -2.4984136 -1.6510085
6.6996422 -2.5331361 -1.6466538
6.6730728 -2.5699992 -1.6439034
6.6798329 -2.6197798 -1.6496333
6.6554966 -2.657469 -1.6475705
6.6318512 -2.6953249 -1.6457369
6.6250825 -2.7400579 -1.6482581
6.5991731 -2.7768824 -1.6459662
6.5820103 -2.8173218 -1.6459662
6.5717397 -2.8607628 -1.6477997
6.5433812 -2.8963053 -1.6450493
6.513947 -2.9312084 -1.6420697
6.4825606 -2.9650495 -1.6386317
6.4615974 -3.0035393 -1.6379441
6.4324846 -3.0381424 -1.6351937
6.404068 -3.0729227 -1.6326725
6.3518424 -3.0959554 -1.6239629
6.353663 -3.1452341 -1.6294637
6.3177204 -3.1758549 -1.625109
6.2634344 -3.1968615 -1.6159409
6.2333298 -3.2298598 -1.6131905
6.2133946 -3.2680459 -1.6131905
6.1872144 -3.3029008 -1.6115861
6.1693993 -3.3421934 -1.6122737
6.168395 -3.3907688 -1.6175452
6.1432233 -3.426183 -1.6163993
6.0992103 -3.4508722 -1.6102109
6.0922732 -3.4964671 -1.6141073
6.0572448 -3.5259485 -1.61044
6.0514226 -3.5724499 -1.6147949
6.0494328 -3.6215117 -1.6202956
6.0437398 -3.6686628 -1.6248797
6.0053649 -3.6959848 -1.6205249
6.018085 -3.7549176 -1.6303805
5.989996 -3.7886517 -1.6290053
5.9527059 -3.8164041 -1.625109
5.9332576 -3.855509 -1.6262549
5.894043 -3.881671 -1.6219001
5.8352995 -3.8945301 -1.6120445
5.9072456 -3.9951475 -1.6393193
5.8440785 -4.004909 -1.6283177
5.8433819 -4.0573459 -1.6351937
5.8024535 -4.0819235 -1.6306098
5.769371 -4.1118007 -1.6283177
5.7850723 -4.1767502 -1.6402361
5.768764 -4.2190628 -1.6429865
5.7505894 -4.2601738 -1.6452786
5.7360201 -4.304141 -1.6487166
5.7219024 -4.3486786 -1.6523838
5.700511 -4.3878613 -1.6539881
5.6673388 -4.4179692 -1.6521546
5.6340117 -4.4478354 -1.6503209
5.5815239 -4.4622645 -1.6427573
5.5502563 -4.4933658 -1.6416113
5.5120416 -4.5186982 -1.6384025
5.5269046 -4.5878696 -1.651467
5.4658623 -4.5941405 -1.6413821
5.4353466 -4.6256995 -1.6406945
5.3958001 -4.6494327 -1.6372565
5.3363624 -4.6555791 -1.6276301
5.3149915 -4.6946783 -1.6299222
5.3651767 -4.7979231 -1.654905
5.3320284 -4.8274865 -1.653759
5.2980013 -4.8561664 -1.6523838
5.2452712 -4.8673968 -1.6450493
5.1855092 -4.8714995 -1.6354229
5.1717443 -4.9186535 -1.6406945
5.1421676 -4.9509692 -1.6409237
5.0984478 -4.9695196 -1.6365689
5.0533085 -4.9863529 -1.6317557
5.0239954 -5.0186415 -1.6322141
5.0136404 -5.0701361 -1.6390902
2.291584 -2.3463321 -0.73237336
2.2764683 -2.3596485 -0.73214418
2.2518728 -2.3630035 -0.72870618
2.1979628 -2.3349643 -0.71518332
4.8146558 -5.1773515 -1.6248797
4.7781878 -5.2017789 -1.6232753
4.7487969 -5.2338824 -1.6241921
4.7120452 -5.2578483 -1.6225877
4.6855021 -5.293221 -1.6246505
4.6612644 -5.3313971 -1.6276301
4.6163759 -5.345901 -1.6232753
4.5708532 -5.3593144 -1.6186913
4.532866 -5.3813043 -1.6168576
4.4954038 -5.4037781 -1.6152533
4.4603086 -5.4290037 -1.6145657
4.4342728 -5.4653397 -1.6173161
4.3787422 -5.4650993 -1.6090648
4.3463345 -5.4933906 -1.6095233
2.0190034 -2.5846193 -0.73237336
1.9912148 -2.5815456 -0.72778934
1.9700286 -2.5867462 -0.72572654
1.9447582 -2.5863388 -0.72205937
1.9207278 -2.5872822 -0.71885055
1.7914438 -2.4443679 -0.67369807
1.7444543 -2.4111555 -0.66086286
1.7296269 -2.421814 -0.66086286
4.0280857 -5.7129812 -1.6060853
3.9935117 -5.7383881 -1.6063144
3.9609821 -5.7667956 -1.6074605
3.9298928 -5.7974367 -1.6092941
3.8926227 -5.8190136 -1.6086065
3.8579173 -5.8444138 -1.6090648
3.8225152 -5.8687906 -1.6092941
3.7827492 -5.8864031 -1.6076896
3.7548995 -5.9226556 -1.6113569
3.7040348 -5.9224772 -1.6049392
3.6768255 -5.9600043 -1.6090648
3.6275358 -5.9616647 -1.6033349
3.6064157 -6.0096831 -1.61044
3.5575745 -6.0115948 -1.6049392
3.5211117 -6.0341511 -1.6051685
3.4733403 -6.0370817 -1.600126
3.4333506 -6.0532002 -1.5987508
1.6502554 -2.9519727 -0.75643939
1.6316416 -2.9611905 -0.75621021
1.6148351 -2.9737124 -0.75689781
3.2851415 -6.1382103 -1.5994384
3.2560437 -6.1746106 -1.6037933
3.2122614 -6.1832442 -1.6008136
3.1733744 -6.2011051 -1.6003553
3.1374562 -6.2248058 -1.6015012
3.0905461 -6.2265024 -1.5969173
3.0450163 -6.2304821 -1.5930208
3.0122163 -6.2604508 -1.5960004
2.9674959 -6.2656207 -1.5925624
2.9302287 -6.2863574 -1.59325
2.8916013 -6.3042188 -1.59325
2.8600726 -6.3378119 -1.5973756
2.8144162 -6.3401179 -1.5934793
2.7758503 -6.3581595 -1.5937084
2.7413936 -6.3858051 -1.5964588
2.7044306 -6.4078865 -1.5978341
2.6654346 -6.4252591 -1.5980632
2.6145673 -6.4135513 -1.590958
2.5700977 -6.4168234 -1.5877492
2.533884 -6.4406242 -1.589812
2.4995804 -6.4696698 -1.59325
2.4525855 -6.4657736 -1.5884368
2.4050534 -6.4597201 -1.5831652
2.3566859 -6.4505854 -1.577206
2.316076 -6.4621754 -1.5765184
2.2776728 -6.479938 -1.5774353
2.2324774 -6.4781475 -1.5735388
2.1920631 -6.4898791 -1.5730804
2.1546476 -6.5106001 -1.574914
2.1140585 -6.5218463 -1.5744556
2.0734124 -6.5328393 -1.5739973
2.0332885 -6.5454388 -1.5739973
1.9964855 -6.5689669 -1.5767477
1.9541998 -6.5745625 -1.5751432
1.9146372 -6.5892334 -1.5758308
1.8701817 -6.5868125 -1.5723928
1.8281696 -6.5925355 -1.5710176
1.8001499 -6.6496668 -1.5822484
1.7615522 -6.6690569 -1.5843112
1.719627 -6.6759696 -1.5833944
1.6772093 -6.6807308 -1.5820192
1.6343353 -6.6833324 -1.5801857
1.5917182 -6.6866064 -1.5785812
1.5502206 -6.6943502 -1.5781229
1.512537 -6.7189302 -1.58179
1.4700339 -6.7223787 -1.5804148
1.4285563 -6.73032 -1.5801857
1.3878219 -6.7418189 -1.5808733
1.3464288 -6.7502079 -1.5808733
1.3055388 -6.7612095 -1.5815609
1.2624196 -6.7604814 -1.5794981
1.2210871 -6.7690578 -1.5797272
1.1803648 -6.7812176 -1.5808733
1.1393782 -6.7921724 -1.58179
1.0972152 -6.7961531 -1.5811024
1.0535532 -6.7902532 -1.5781229
1.0122994 -6.7994781 -1.5788105
0.97110945 -6.8094158 -1.5797272
0.92746747 -6.801744 -1.5765184
0.88533837 -6.8044109 -1.5758308
0.84404951 -6.8135796 -1.5767477
0.80097455 -6.8079963 -1.5742264
0.75810784 -6.8031092 -1.5719345
0.71696198 -6.8134408 -1.5733097
0.67725354 -6.8390217 -1.578352
0.63482714 -6.8382025 -1.577206
0.59327722 -6.8468175 -1.578352
0.55125475 -6.8503289 -1.578352
0.50848979 -6.8438754 -1.5760601
0.46648696 -6.8468666 -1.5760601
0.42500895 -6.8583436 -1.5781229
0.38329902 -6.8676257 -1.5797272
0.34062117 -6.8591542 -1.577206
0.2984007 -6.8581977 -1.5765184
0.25656876 -6.8667083 -1.5781229
0.21424802 -6.8623161 -1.5767477
0.17216207 -6.8644743 -1.5769768
0.13007618 -6.8673482 -1.5774353
0.087898917 -6.865097 -1.5767477
0.045721456 -6.8577204 -1.574914
0.003647001 -6.8656588 -1.5767477
-0.038501553 -6.8694453 -1.5776644
-0.080639586 -6.8681064 -1.5774353
-0.12274528 -6.8655357 -1.5769768
-0.16510226 -6.8743844 -1.5792688
-0.20686959 -6.859621 -1.5760601
-0.24884978 -6.8553042 -1.5753725
-0.29181534 -6.8750434 -1.5804148
-0.33385274 -6.8702068 -1.5797272
-0.37531027 -6.8553939 -1.5767477
-0.4173671 -6.852962 -1.5767477
-0.45947331 -6.851243 -1.5769768
-0.50100589 -6.8414993 -1.5753725
-0.54305208 -6.8392668 -1.5756016
-0.58567035 -6.843565 -1.5774353
-0.62809509 -6.8446889 -1.5785812
-0.66941762 -6.8339248 -1.5769768
-0.71163952 -6.8325934 -1.5776644
-0.75483078 -6.8397083 -1.5804148
-0.79734749 -6.8397822 -1.5815609
-0.83870769 -6.8299303 -1.5804148
-0.88022602 -6.8217592 -1.5797272
-0.92311043 -6.823947 -1.5815609
-0.96564573 -6.8229733 -1.5827068
-1.0086306 -6.8246231 -1.5845405
-1.0487088 -6.8067613 -1.58179
-1.0919951 -6.8098097 -1.584082
-1.136798 -6.8212237 -1.5884368
-1.1797917 -6.8208342 -1.5900413
-1.2250559 -6.8326287 -1.5946252
-1.259853 -6.7867017 -1.5854572
-1.2941327 -6.7406063 -1.5762892
-0.82577956 -4.1622505 -0.95928174
-1.3812423 -6.746151 -1.5815609
-1.4153725 -6.7032628 -1.5733097
-1.4542007 -6.6839895 -1.5707884
-1.5019922 -6.7053361 -1.5781229
-1.5503187 -6.7272954 -1.5856864
-1.5763117 -6.6532483 -1.5701008
-0.73284316 -3.009774 -0.68951291
-0.75153297 -3.006165 -0.68974209
-0.76633811 -2.9873538 -0.68630409
-1.7564427 -6.6784568 -1.5861448
-0.80142003 -2.9720857 -0.68492889
-0.81886417 -2.9642975 -0.68424129
-0.83624291 -2.9564073 -0.6835537
-1.94362 -6.7156219 -1.6063144
-1.9789877 -6.6839695 -1.6015012
-2.0103741 -6.6400251 -1.5937084
-2.0496402 -6.6229153 -1.5925624
-2.0867181 -6.5990772 -1.589812
-1.0835791 -3.354346 -0.79013187
-2.1751614 -6.5960836 -1.5955421
-1.0926837 -3.2457743 -0.76652426
-1.0977218 -3.1957395 -0.75575179
-1.1214925 -3.2008865 -0.75873142
-1.5051601 -4.2132845 -1.0136023
-1.1447039 -3.1429799 -0.74772978
-1.1375561 -3.0647154 -0.7298522
-1.1652886 -3.0813506 -0.73581135
-1.1960659 -3.1050267 -0.74360418
-1.6507502 -4.2086291 -1.0246038
-1.6729337 -4.1893811 -1.0223119
-2.6366944 -6.4875679 -1.6090648
-1.248845 -3.0189693 -0.72939378
-1.2703654 -3.0184274 -0.7312274
-1.2781388 -2.9855194 -0.72480977
-1.2983758 -2.9820831 -0.72595578
-1.8303329 -4.134757 -1.0248331
-1.8584645 -4.1296625 -1.0264375
-1.8659564 -4.0792322 -1.0163527
-1.8971046 -4.0809469 -1.0197906
-1.9237717 -4.0727501 -1.0207075
-1.891463 -3.9415157 -0.98953623
-1.9620924 -4.0252109 -1.0145191
-2.0109336 -4.0619488 -1.0273542
-2.0100288 -3.9982207 -1.0138315
-2.051337 -4.0187583 -1.022541
-2.1041665 -4.0605454 -1.0369807
-2.1263235 -4.0423889 -1.0356055
-2.1387119 -4.0060806 -1.029417
-2.2188847 -4.0955887 -1.0569211
-2.1895871 -3.9829457 -1.0303339
-2.196444 -3.9379809 -1.0218534
-2.1822236 -3.856653 -1.0035174
-2.235399 -3.8946898 -1.0174986
-2.2641506 -3.889313 -1.0197906
-2.2968786 -3.8904355 -1.0239162
-2.3202066 -3.8754337 -1.0236871
-2.3479826 -3.8677812 -1.0255207
-2.3645287 -3.8416955 -1.0223119
-2.379813 -3.8139012 -1.0186447
-2.4005685 -3.7951138 -1.0174986
-2.41593 -3.7680206 -1.0140606
-2.4289284 -3.7376177 -1.0097059
-2.4469984 -3.715327 -1.0076431
-2.4638059 -3.6913364 -1.0051218
-2.4973142 -3.6922758 -1.0097059
-2.537529 -3.7025778 -1.0170403
-2.5552037 -3.6797421 -1.0149775
-2.5760541 -3.6616058 -1.0142899
-2.6171141 -3.6718898 -1.0218534
-2.7318928 -3.7836156 -1.0589839
-2.7079422 -3.7023537 -1.0401895
-2.7410374 -3.6997473 -1.0443151
-2.7625186 -3.6813018 -1.0438567
-2.773865 -3.6495571 -1.0395019
-2.7457433 -3.5669019 -1.0200199
-2.7945058 -3.5845342 -1.0303339
-2.8254941 -3.5787804 -1.0337719
-2.8486152 -3.5628967 -1.0342302
-2.8667486 -3.5408115 -1.032855
-2.863121 -3.4922903 -1.0234579
-2.8975506 -3.4903855 -1.0282711
-2.90764 -3.4591279 -1.0241455
-2.9830601 -3.5049744 -1.0438567
-3.0203938 -3.5050404 -1.0495868
-3.0616794 -3.5091805 -1.0566919
-3.124392 -3.5370212 -1.0713607
-3.1551194 -3.5279419 -1.0745696
-3.2890673 -3.6326334 -1.113992
-3.5848863 -3.9109008 -1.2093394
-3.3287632 -3.5870032 -1.1123877
-3.3253856 -3.539551 -1.103678
-3.2102044 -3.3751862 -1.0569211
-3.3422427 -3.4711287 -1.0947392
-3.3607607 -3.4477675 -1.0938224
-3.4071472 -3.4527185 -1.1023028
-3.4406505 -3.444144 -1.1064284
-3.4686394 -3.4298124 -1.1087204
-3.4993668 -3.4179873 -1.1119292
-3.4642384 -3.3423786 -1.0935932
-3.5621846 -3.3949354 -1.1188053
-3.4440472 -3.2422307 -1.073882
-3.4581742 -3.215734 -1.0720483
-3.479991 -3.1964302 -1.0727359
-3.496655 -3.1724007 -1.0718192
-3.3993552 -3.046289 -1.034918
-3.425271 -3.0318255 -1.0372099
-3.6343269 -3.1773405 -1.096802
-3.7686758 -3.254231 -1.1325573
-4.4861865 -3.8260946 -1.348464
-3.7398391 -3.1500425 -1.1114708
-3.5159116 -2.9247067 -1.0369807
-3.5841796 -2.9444811 -1.0523372
-3.6172962 -2.9347 -1.0569211
-3.5775058 -2.8661902 -1.0395019
-3.5774689 -2.8302932 -1.0342302
-3.6476912 -2.8496411 -1.0500451
-3.668961 -2.8301785 -1.0511911
-3.6878061 -2.8087926 -1.0516496
-3.7150841 -2.7937179 -1.0546291
-3.7501302 -2.7842169 -1.0599008
-3.7192564 -2.7260489 -1.0459195
-3.7161994 -2.68891 -1.0401895
-3.6716418 -2.6224892 -1.022541
-3.7059603 -2.6128128 -1.0278127
-3.7466888 -2.6072619 -1.034918
-3.7714417 -2.5902863 -1.0374391
-3.7727621 -2.5572646 -1.0333135
-3.8401592 -2.5687077 -1.0479823
-3.8485372 -2.5402701 -1.0459195
-3.8102221 -2.4815428 -1.0307922
-3.8663189 -2.4844308 -1.0422523
-3.8009288 -2.4095793 -1.0197906
-3.8280208 -2.3939548 -1.0232286
-3.8492649 -2.3745103 -1.0250623
-3.8953598 -2.3700757 -1.0337719
-3.9382052 -2.3631604 -1.0415647
-3.9258261 -2.3230867 -1.0342302
-3.9509354 -2.3053327 -1.0372099
-3.9405396 -2.2669685 -1.0305631
-3.9662282 -2.2494709 -1.0337719
-4.0122399 -2.243145 -1.0424815
-3.9747796 -2.1902931 -1.0287294
-4.0215025 -2.1839828 -1.0376683
-4.008224 -2.1450264 -1.0305631
-4.0325027 -2.1262951 -1.0335426
-4.013515 -2.0849068 -1.0250623
-4.0418291 -2.0682237 -1.0291879
-4.0431437 -2.0376887 -1.0262083
-4.0555706 -2.0128419 -1.0262083
-4.0582256 -1.9832176 -1.0236871
-4.0957537 -1.9705198 -1.0303339
-4.1543908 -1.9674363 -1.0424815
-4.2087307 -1.9616501 -1.0534831
-4.1490254 -1.9029138 -1.034918
-4.2049832 -1.8974415 -1.0463779
-4.2005329 -1.8644949 -1.0422523
-4.2582808 -1.8589405 -1.0541707
-4.2991228 -1.8454502 -1.0617343
-4.3031912 -1.8160082 -1.0599008
-4.3511147 -1.8048642 -1.0692979
-4.4089766 -1.7972424 -1.0812163
-4.4669075 -1.7889777 -1.0931348
-4.5330529 -1.7832769 -1.107116
-4.5638843 -1.7631477 -1.1121584
-4.6064696 -1.7471955 -1.1201805
-4.6034207 -1.7138027 -1.1167424
-4.6458488 -1.6972171 -1.1247644
-4.7349758 -1.6969264 -1.1444757
-4.8463101 -1.7033528 -1.1696877
-5.0425606 -1.7376572 -1.2159863
-5.1388903 -1.7356571 -1.2373018
-5.2538633 -1.7386568 -1.2632015
-5.2783217 -1.7108899 -1.2666395
-5.3091307 -1.6849499 -1.2716819
-5.4076762 -1.6797793 -1.293456
-5.6218357 -1.708567 -1.3436508
-5.8785305 -1.7472697 -1.4041597
-6.1723561 -1.7934786 -1.4736074
-6.8630362 -1.9486268 -1.6400069
-6.8908091 -1.910902 -1.6439034
-6.9540796 -1.8825772 -1.6565094
-7.0050254 -1.850315 -1.6661358
-7.0162468 -1.8072982 -1.6661358
-7.1518211 -1.7955062 -1.6963903
-7.2194343 -1.7654659 -1.7101423
-7.3238745 -1.7434561 -1.732833
-7.3989167 -1.7134211 -1.7484187
-7.5099487 -1.6906557 -1.7727139
-7.8720131 -1.7215027 -1.8575181
-8.1118965 -1.7218888 -1.9127554
-8.2586422 -1.7001554 -1.945531
-8.250782 -1.6458306 -1.9411763
-8.2664595 -1.5962814 -1.9425515
-8.2789698 -1.5460654 -1.9432391
-8.2882996 -1.4952376 -1.9432391
-8.2973185 -1.4443533 -1.9432391
-8.273386 -1.3879378 -1.9354463
-8.2365828 -1.3298529 -1.9246738
-8.2561302 -1.2810807 -1.9274242
-8.2869415 -1.2338394 -1.932925
-8.2885742 -1.1821434 -1.9315498
-8.3024235 -1.1321845 -1.9331542
-8.2995615 -1.079964 -1.9308622
-8.3272839 -1.0316523 -1.9359046
-8.3015556 -0.97678256 -1.928341
-8.3731747 -0.93316114 -1.9439267
-8.3303413 -0.87667072 -1.9324666
-8.3278151 -0.82477242 -1.9306331
-8.3482265 -0.77509886 -1.9343002
-8.3382788 -0.72259927 -1.9308622
-8.3037462 -0.66829765 -1.9216942
-8.3348703 -0.6193552 -1.9281118
-8.3559933 -0.56939375 -1.9322374
-8.3389282 -0.51684612 -1.9274242
-8.3720703 -0.46735293 -1.9345294
-8.3407545 -0.41428238 -1.9265074
-8.3567533 -0.36368984 -1.9297162
-8.3520193 -0.31215212 -1.9281118
-8.3712893 -0.26144698 -1.9322374
-7.8850222 0.57787913 -1.923807
-7.9064813 0.62825221 -1.9300749
-7.9140811 0.67774904 -1.9329679
-7.9010758 0.72549623 -1.9307982
-7.9051681 0.77481598 -1.9329679
-7.8983345 0.8231051 -1.9324857
-7.8805952 0.87016636 -1.9293517
-7.8510089 0.91569012 -1.9233248
-7.8616176 0.96586001 -1.9274231
-7.8324432 1.0110943 -1.9216373
-7.811666 1.0571798 -1.9180212
-7.8598037 1.1128546 -1.9317625
-7.8317065 1.1579345 -1.9264588
-7.8407598 1.2084827 -1.9305571
-7.7977424 1.2508773 -1.9216373
-7.8004503 1.3004568 -1.9242891
-7.7923241 1.348295 -1.9242891
-7.7934566 1.3977971 -1.9266999
-7.7503834 1.4392067 -1.9180212
-7.7642798 1.4911314 -1.923807
-7.7559361 1.538933 -1.9240481
-7.7368402 1.584545 -1.9216373
-7.6567068 1.6171364 -1.9037977
-7.6902609 1.6735862 -1.9148872
-7.6552253 1.7152207 -1.9086193
-7.6265893 1.7580154 -1.9040389
-7.6184916 1.80545 -1.904762
-7.6638455 1.8659457 -1.9192266
-7.6494279 1.9122285 -1.9185034
-7.6394305 1.9596111 -1.9189855
-7.6544805 2.013613 -1.9259766
-7.6251149 2.0559919 -1.9216373
-7.601131 2.0996375 -1.9187444
-7.5806341 2.1441233 -1.9168159
-7.5449624 2.1841168 -1.9110301
-7.5211835 2.2273381 -1.9083782
-7.4572191 2.2582486 -1.8953601
-7.5118256 2.3252089 -1.9131997
-7.436348 2.3519323 -1.8972888
-7.4522514 2.407366 -1.9052442
-7.4520855 2.4579129 -1.9091015
-7.4699745 2.5147438 -1.9177802
-7.4360471 2.5542231 -1.9129586
-7.3955064 2.5911336 -1.9064496
-7.3977461 2.6429961 -1.9112711
-7.3740945 2.6856799 -1.9093425
-7.3583865 2.7312138 -1.9095836
-7.3523822 2.7804337 -1.9124765
-7.3442392 2.8289845 -1.9148872
-7.3050604 2.8654859 -1.9091015
-7.2972541 2.9142156 -1.9117533
-7.2630534 2.9523551 -1.907414
-7.2726007 3.0083692 -1.9148872
-7.2414823 3.0476639 -1.9115121
-7.2404885 3.0996811 -1.9163337
-7.1981988 3.1339734 -1.9100658
-7.1566491 3.1682568 -1.9040389
-7.1662779 3.2252579 -1.9119943
-7.1339984 3.2635145 -1.9086193
-7.1340795 3.3166397 -1.9141641
-7.0986776 3.3533018 -1.9100658
-7.0639701 3.3900747 -1.9062085
-7.0613546 3.4422879 -1.9112711
-7.0331426 3.482105 -1.9093425
-7.0003729 3.5195251 -1.9062085
-6.994204 3.5703571 -1.9105479
-6.9471784 3.6002519 -1.9035567
-6.9490047 3.6554661 -1.9103068
-6.9153156 3.6920917 -1.9071728
-6.8737597 3.7242796 -1.9018692
-6.8694873 3.7766752 -1.9071728
-6.814827 3.8012574 -1.8982531
-6.8031988 3.849694 -1.9016281
-6.7887073 3.8966811 -1.9042799
-6.7738953 3.943635 -1.9069318
-6.7512412 3.9861116 -1.907414
-6.6916871 4.0065174 -1.8972888
-6.6777611 4.0540504 -1.9004227
-6.6345792 4.0837536 -1.8951191
-6.6373882 4.1418586 -1.9033157
-6.5790453 4.1617489 -1.8936726
-6.5664558 4.210422 -1.8975298
-6.5697899 4.2696772 -1.9062085
-6.5442781 4.310442 -1.9064496
-6.5031786 4.3408155 -1.9021102
-6.45713 4.3675838 -1.8963245
-6.4446177 4.4169998 -1.9006639
-6.4405088 4.472517 -1.907655
-6.3994527 4.5024552 -1.9035567
-6.361433 4.5343122 -1.9004227
-6.3106756 4.5567803 -1.8934315
-6.2802472 4.5936971 -1.8927083
-6.2737746 4.6483259 -1.8994584
-6.2257314 4.6721673 -1.8934315
-6.2069893 4.717916 -1.8965656
-6.1809998 4.7582812 -1.8975298
-6.1570439 4.8002954 -1.8992174
-6.1152883 4.8283596 -1.8953601
-6.1037369 4.8803396 -1.9011459
-6.082727 4.9250293 -1.9040389
-6.0561447 4.9653368 -1.9052442
-5.9934592 4.9757419 -1.894878
-5.9457316 4.9980574 -1.8893332
-5.9208636 5.0394788 -1.8912619
-5.8913007 5.0769811 -1.891744
-5.8797798 5.1302643 -1.8982531
-5.8372817 5.1566057 -1.894637
-5.7939591 5.181972 -1.8907797
-5.7433519 5.2004862 -1.8845118
-5.6884446 5.2146397 -1.8767973
-5.7160869 5.3049097 -1.8970476
-5.6961584 5.3518467 -1.901387
-5.6069646 5.333179 -1.8821011
-5.6202683 5.4119186 -1.8980119
-5.5563827 5.4164896 -1.8874047
-5.538238 5.4654808 -1.8927083
-5.5094032 5.5041623 -1.8943958
-5.4639287 5.5261297 -1.8902975
-5.421782 5.551219 -1.8874047
-5.4004192 5.5976543 -1.8919851
-5.3632932 5.6278744 -1.8910208
-5.3366413 5.6691585 -1.8939137
-5.2806115 5.67905 -1.8861994
-5.2548552 5.7213526 -1.8895744
-5.2040033 5.7362347 -1.8837886
-5.1661181 5.7651663 -1.8828243
-5.135148 5.8018446 -1.8845118
-5.0988135 5.8325133 -1.8842707
-5.0819545 5.8857293 -1.891503
-5.0425963 5.9131079 -1.8902975
-5.0099697 5.9483919 -1.891744
-4.9640689 5.9678273 -1.8881279
-4.9538426 6.0304241 -1.8984941
-4.9210267 6.0659833 -1.9001817
-4.8636932 6.0710659 -1.8922262
-4.8293605 6.1046009 -1.8934315
-4.7834496 6.1234097 -1.8900565
-4.7487502 6.1564879 -1.8912619
-4.7291107 6.2094474 -1.8987352
-4.6815906 6.2259355 -1.894878
-4.6473494 6.2599993 -1.8965656
-4.6031156 6.2805681 -1.8941548
-4.5525479 6.2921805 -1.8890922
-4.5183654 6.3263149 -1.8910208
-4.481699 6.3570929 -1.8919851
-4.454247 6.4012032 -1.8970476
-4.4209285 6.4372144 -1.8996994
-4.3829803 6.46663 -1.9004227
-4.3459163 6.4974356 -1.9016281
-4.3075705 6.5264096 -1.9023514
-4.2775049 6.5681705 -1.9069318
-4.225059 6.5755124 -1.901387
-4.1877499 6.6062317 -1.9028335
-4.1512518 6.6383862 -1.904762
-4.1384573 6.7091675 -1.9180212
-4.0588851 6.6714158 -1.8996994
-4.060307 6.7669377 -1.9201909
-3.991534 6.7457814 -1.9069318
-3.9627805 6.7919431 -1.9131997
-3.9215152 6.8169713 -1.9134408
-3.8609464 6.8079786 -1.9040389
-3.8276229 6.8467903 -1.9083782
-3.7906902 6.879498 -1.9110301
-3.7460921 6.8983631 -1.9098246
-3.7242937 6.9597282 -1.920673
-3.6570837 6.9360871 -1.907655
-3.6166921 6.9627023 -1.9088603
-3.5924633 7.0210528 -1.9189855
-3.5191877 6.9831586 -1.9023514
-3.5103469 7.0733032 -1.9213963
-3.4719913 7.1051736 -1.9242891
-3.4295912 7.1289673 -1.9250124
-3.3845384 7.1472449 -1.9242891
-3.3426692 7.1722765 -1.9254946
-3.2998114 7.1952982 -1.9262178
-3.2476194 7.1977162 -1.9213963
-3.1974902 7.2042012 -1.9177802
-3.1508973 7.2183475 -1.9163337
-3.1088428 7.2428966 -1.9177802
-3.0620797 7.2564707 -1.9163337
-3.0360818 7.3199482 -1.9283874
-2.9874485 7.3294516 -1.9259766
-2.929075 7.3143072 -1.9170569
-2.9018965 7.3773017 -1.9291106
-2.8586729 7.4004006 -1.9305571
-2.8063309 7.399652 -1.9257356
-2.7571518 7.4067268 -1.9230838
-2.7193086 7.4444728 -1.9286286
-2.6637614 7.4336081 -1.9213963
-2.6203511 7.4562221 -1.9230838
-2.5894039 7.5152879 -1.9344143
-2.5438631 7.5328736 -1.9348965
-2.4951565 7.5409694 -1.9329679
-2.4440539 7.5413651 -1.9291106
-2.3845317 7.5145903 -1.9182622
-2.3467221 7.5559592 -1.9252535
-2.3008795 7.5720735 -1.9257356
-2.2637699 7.6176805 -1.9339322
-2.2061615 7.5941467 -1.9242891
-2.1592584 7.606607 -1.9240481
-2.1179867 7.6393533 -1.9291106
-2.0606828 7.6137948 -1.9192266
-2.0168986 7.6375561 -1.9221195
-1.9743515 7.6667056 -1.9264588
-1.9220777 7.6579661 -1.9211552
-1.8766655 7.6762147 -1.9228427
-1.8324488 7.6998596 -1.9259766
-1.7862628 7.7156858 -1.9271821
-1.7369699 7.7179794 -1.9250124
-1.6924806 7.741766 -1.9283874
-1.6493751 7.772892 -1.9336911
-1.5948085 7.7495942 -1.9252535
-1.5474174 7.7601857 -1.9254946
-1.4935234 7.7371345 -1.917298
-1.4533172 7.7852693 -1.9271821
-1.4065529 7.7997708 -1.9286286
-1.3621588 7.8283339 -1.9336911
-1.3126562 7.82793 -1.9315214
-1.2632098 7.8272138 -1.9293517
-1.2200631 7.866466 -1.9373072
-1.171487 7.8718843 -1.936825
-1.1217957 7.8693161 -1.9344143
-1.0713946 7.8606653 -1.9305571
-1.0226421 7.8632417 -1.9295928
-0.96841919 7.8212099 -1.9175391
-0.92437303 7.8607407 -1.9259766
-0.87773234 7.8807325 -1.9295928
-0.82956326 7.8879004 -1.9300749
-0.78000307 7.8812523 -1.9271821
-0.7343154 7.9148812 -1.9344143
-0.68573678 7.9192381 -1.9344143
-0.63720995 7.924264 -1.9346554
-0.58749992 7.9135065 -1.9310392
-0.5392614 7.921804 -1.9322447
-0.48795164 7.8813739 -1.9213963
-0.44136143 7.9161968 -1.9293517
-0.39373901 7.9381423 -1.9341732
-0.34468815 7.932652 -1.9322447
-0.29593575 7.9326782 -1.9317625
-0.24767742 7.9479251 -1.9351375
-0.19844663 7.9308615 -1.9305571
-0.15027094 7.9581289 -1.9370662
-0.10056982 7.8900003 -1.9199498
-0.052356519 7.9215245 -1.9276642
-0.0037426676 7.899375 -1.9221195
0.044975098 7.9419508 -1.9327267
0.093821071 7.95123 -1.9351375
0.14187019 7.90975 -1.9250124
0.19040082 7.9087305 -1.9250124
0.23945445 7.9248743 -1.9293517
0.28818226 7.9261656 -1.9300749
0.33445367 7.8689795 -1.9163337
0.38372388 7.8871355 -1.9213963
0.43477374 7.933085 -1.93345
0.484034 7.9399548 -1.9358608
0.52805358 7.8671165 -1.9185034
0.57645756 7.865664 -1.9189855
0.62748206 7.8968067 -1.9276642
0.6788274 7.9266515 -1.9361018
0.72549623 7.9010758 -1.9307982
0.77007544 7.8568749 -1.9209141
0.82058674 7.8742032 -1.9264588
0.86888647 7.86902 -1.9264588
0.91512722 7.846189 -1.9221195
0.96325332 7.8404264 -1.9221195
1.0165677 7.8747935 -1.9322447
1.0655189 7.8732162 -1.93345
1.1114926 7.8501949 -1.9293517
1.1617709 7.8576279 -1.9329679
1.2107024 7.8551469 -1.9341732
1.2556468 7.8274474 -1.9291106
1.3052489 7.8291683 -1.9315214
1.3509446 7.8076243 -1.9281464
1.3945391 7.7753072 -1.9221195
1.4411573 7.760879 -1.920673
1.4958941 7.7890596 -1.9300749
1.5423355 7.7730708 -1.9283874
1.5857142 7.7425447 -1.9230838
1.6368041 7.7497606 -1.9274231
1.6686299 7.6675024 -1.9091015
1.7262619 7.7044692 -1.9211552
1.7772114 7.7098083 -1.9252535
1.8179903 7.6713734 -1.9182622
1.8691618 7.6770468 -1.9226016
1.9136416 7.6550765 -1.9199498
1.9641954 7.6572914 -1.923566
2.0029902 7.6141233 -1.9156104
2.0618062 7.646666 -1.9271821
2.1045496 7.6189041 -1.9233248
2.1515231 7.606781 -1.923566
2.1997769 7.5990295 -1.9250124
2.2339551 7.5435157 -1.9141641
2.2849834 7.5454559 -1.9182622
2.3263574 7.5155334 -1.9141641
2.3744776 7.5075951 -1.9158516
2.4166186 7.4808788 -1.9127176
2.4673409 7.4806561 -1.9165747
2.5045211 7.4396229 -1.9098246
2.5545385 7.436965 -1.9131997
2.5869601 7.3836002 -1.9033157
2.6400561 7.3895211 -1.9091015
2.6763768 7.3485627 -1.9025924
2.7254703 7.3429198 -1.9054853
2.7557073 7.2870269 -1.8951191
2.8090923 7.2926207 -1.9011459
2.8435047 7.2490478 -1.8941548
2.9052138 7.2747231 -1.9057264
2.9468713 7.249568 -1.9037977
2.9890718 7.2259693 -1.9023514
3.0280807 7.1949706 -1.8989763
3.0687325 7.1682258 -1.8968066
3.1207967 7.1679468 -1.9018692
3.1478207 7.1105061 -1.891503
3.196172 7.1016765 -1.8943958
3.2267632 7.0536923 -1.8866814
3.2761223 7.0469604 -1.8902975
3.316812 7.021461 -1.8888512
3.3602524 7.001852 -1.8890922
3.3925169 6.9592943 -1.8830653
3.4467843 6.9618287 -1.8895744
3.4842036 6.9301443 -1.8866814
3.5315158 6.9181428 -1.8893332
3.5529046 6.8558478 -1.8780028
3.6071072 6.8571076 -1.8845118
3.6404266 6.8185806 -1.8799313
3.6946824 6.8191524 -1.8864404
3.7458081 6.8133616 -1.8912619
3.7700465 6.7588921 -1.8823421
3.8463476 6.797287 -1.8999406
3.8560874 6.7180104 -1.8840296
3.8947937 6.6900301 -1.8828243
3.9505761 6.6910753 -1.8900565
3.9945495 6.6717048 -1.891503
4.0303736 6.6387739 -1.8890922
4.0598378 6.5957379 -1.8837886
4.0570636 6.5015478 -1.8635383
4.1077781 6.4937539 -1.8686008
4.1491175 6.4708776 -1.8693241
4.190331 6.4477382 -1.8700473
4.2298145 6.4219055 -1.8700473
4.2675223 6.3934097 -1.8693241
4.3017764 6.35987 -1.8671544
4.3467555 6.3421602 -1.8698062
4.3684239 6.2906604 -1.8623328
4.4220219 6.2851667 -1.8688419
4.4740257 6.2768803 -1.8746277
4.5033636 6.2367225 -1.8707705
4.5375352 6.2034903 -1.8690829
4.570313 6.1685143 -1.8669133
4.6010842 6.1310415 -1.8640203
4.6350927 6.0980587 -1.862574
4.6730146 6.0702724 -1.862815
4.7095761 6.04072 -1.862574
4.7453494 6.0101857 -1.8620918
4.7639527 5.9582181 -1.8548596
4.8272982 5.9620585 -1.8654668
4.8748674 5.9458342 -1.8698062
4.9193192 5.9255166 -1.8729402
4.9630799 5.9041343 -1.875833
4.9853725 5.8573132 -1.8705294
5.0060105 5.8089714 -1.8647436
5.0517697 5.7898445 -1.8686008
5.093627 5.7660112 -1.8710116
5.1185575 5.7230759 -1.8671544
5.1555319 5.6937194 -1.8678776
5.204145 5.6769996 -1.8729402
5.2329378 5.6385593 -1.8707705
5.2647781 5.6035156 -1.8698062
5.2917027 5.5633721 -1.8671544
5.3331456 5.538487 -1.8698062
5.3568654 5.4952364 -1.8661901
5.4082093 5.4802213 -1.872458
5.4492798 5.4544854 -1.8751098
5.4778137 5.4161706 -1.8734224
5.5296926 5.4007635 -1.8799313
5.5410719 5.3458467 -1.872458
5.5793905 5.317102 -1.8743867
5.6182714 5.2887535 -1.8765563
5.6484842 5.2521987 -1.875833
5.6820345 5.2187543 -1.8763152
5.7240138 5.1929193 -1.8796903
5.7716722 5.171946 -1.8849939
5.7800398 5.1158547 -1.8772795
5.8025517 5.072629 -1.8743867
5.8372412 5.0401006 -1.875592
5.8665795 5.0029297 -1.8751098
5.8897424 4.960588 -1.8726991
5.9275312 4.9305611 -1.8751098
5.9621735 4.8977933 -1.8765563
6.0004048 4.8678422 -1.8792081
6.0316753 4.8321462 -1.8796903
6.0612116 4.7950454 -1.8796903
6.1012278 4.7661271 -1.8830653
6.1441913 4.7392683 -1.8874047
6.1376352 4.6744356 -1.8763152
6.1786137 4.646018 -1.8801724
6.1851835 4.5918245 -1.8734224
6.2257681 4.562964 -1.8772795
6.2630849 4.5315027 -1.8801724
6.2765546 4.4828372 -1.875833
6.318222 4.4543042 -1.8801724
6.3741155 4.4354038 -1.8888512
6.3948097 4.3918147 -1.8869225
6.423244 4.3535833 -1.8874047
6.453063 4.316247 -1.888369
6.4656549 4.2674842 -1.8842707
6.4827709 4.2219067 -1.8816189
6.501205 4.1773291 -1.8794492
6.5094991 4.1264505 -1.8743867
6.5667906 4.1064949 -1.8837886
6.5902119 4.0651054 -1.8833064
6.6341023 4.0361915 -1.8888512
6.6545815 3.9929132 -1.8876457
6.6781211 3.9515123 -1.8874047
6.696373 3.9070389 -1.8857172
