# .PCD v0.7 - Point Cloud Data file format
VERSION 0.7
FIELDS x y z
SIZE 4 4 4
TYPE F F F
COUNT 1 1 1
WIDTH 1537
HEIGHT 1
VIEWPOINT 0 0 0 1 0 0 0
POINTS 1537
DATA ascii
9.2671967 7.2430763 -1.8599674
9.3153725 7.1890936 -1.8607643
9.3428192 7.1192346 -1.8574176
9.3910599 7.0653353 -1.8583738
9.4072905 6.9875641 -1.8529553
9.3990383 6.8923464 -1.842756
9.4331551 6.8287559 -1.8411624
9.4764843 6.7718945 -1.8414811
9.5235043 6.7176042 -1.8425967
9.5750761 6.6663756 -1.8446684
9.631259 6.6181221 -1.8476963
9.668417 6.5566845 -1.8470589
9.6731882 6.4736257 -1.8402063
9.7102566 6.412518 -1.8397281
9.7403221 6.3468876 -1.8379751
9.7965202 6.2982144 -1.8413217
9.8724957 6.2617817 -1.8484931
9.912405 6.2021346 -1.8488119
9.9166708 6.1204553 -1.8424373
9.9312706 6.0456319 -1.8381345
9.9834137 5.9937282 -1.8410031
10.036992 5.9424176 -1.8441904
10.067298 5.8772359 -1.8430748
10.115149 5.8222485 -1.8453059
10.14639 5.757637 -1.844509
10.223743 5.7188888 -1.8523179
10.227519 5.6388888 -1.8465807
10.237638 5.5628295 -1.8421186
10.278542 5.5036359 -1.8433934
10.346169 5.4584312 -1.8496087
10.367204 5.3884711 -1.8473777
10.384255 5.316659 -1.844509
10.440481 5.2648449 -1.8488119
10.476127 5.2024407 -1.8494494
10.532682 5.1502056 -1.8539115
10.508936 5.0589304 -1.844031
10.585278 5.0159149 -1.8521585
10.597961 4.9425249 -1.8489712
10.658594 4.8914046 -1.8543897
10.684808 4.8242879 -1.8537521
10.691652 4.7486172 -1.849768
10.727825 4.6860867 -1.851043
10.759098 4.6213431 -1.8515211
10.809988 4.5648413 -1.8555052
10.834146 4.4969125 -1.8548677
10.85148 4.426249 -1.8531147
10.905926 4.3706002 -1.8578956
10.975712 4.3205976 -1.8653858
10.967026 4.2396426 -1.8593299
10.9513 4.1565051 -1.8521585
10.968271 4.0861292 -1.8507242
10.982011 4.0146842 -1.8488119
11.034315 3.9572232 -1.8535929
11.083533 3.898288 -1.8578956
11.122176 3.8353572 -1.8604455
11.129601 3.7616665 -1.8577362
11.149661 3.6923745 -1.8572582
11.164596 3.621455 -1.8559833
11.211069 3.5606525 -1.8601267
11.236477 3.4929681 -1.8607643
11.266198 3.4265423 -1.8621985
11.29458 3.3596015 -1.8634734
11.298867 3.2855494 -1.8607643
11.287477 3.2072537 -1.8555052
11.344043 3.1482317 -1.8617204
11.365052 3.0790832 -1.8620391
11.417136 3.0181224 -1.8676169
11.418233 2.9435747 -1.8647484
11.431292 2.8722553 -1.8639514
11.452537 2.802999 -1.864589
11.489686 2.7374804 -1.8679357
11.519731 2.6700509 -1.8701667
11.498338 2.5908523 -1.8639514
11.538128 2.5255291 -1.8679357
11.521541 2.4479134 -1.8626766
11.558582 2.3817556 -1.8663419
11.60299 2.3167822 -1.8712822
11.620864 2.2462935 -1.8719198
11.610168 2.1704109 -1.8679357
11.637839 2.1017637 -1.870326
11.67872 2.0352316 -1.8749477
11.703646 1.9656602 -1.8770194
11.715487 1.893811 -1.8770194
11.68689 1.8156753 -1.8704854
0 0 -0
0 0 -0
0 0 -0
5.9032454 0.76907748 -0.92226785
5.8960967 0.73138225 -0.92035544
5.8847866 0.69334137 -0.91780561
0 0 -0
0 0 -0
0 0 -0
0 0 -0
0 0 -0
0 0 -0
0 0 -0
0 0 -0
0 0 -0
0 0 -0
0 0 -0
0 0 -0
0 0 -0
0 0 -0
0 0 -0
0 0 -0
0 0 -0
0 0 -0
0 0 -0
0 -0 -0
0 -0 -0
0 -0 -0
0 -0 -0
0 -0 -0
0 -0 -0
0 -0 -0
0 -0 -0
0 -0 -0
0 -0 -0
5.9477363 -0.39789283 -0.92354274
5.9697976 -0.43617678 -0.92752683
5.9768505 -0.47357768 -0.92912048
5.9905539 -0.51166916 -0.93182969
0 -0 -0
6.0653749 -0.59311318 -0.94505692
10.343827 -1.07532 -1.6400447
10.283064 -1.1328248 -1.6312796
10.367115 -1.2065089 -1.6461005
10.359517 -1.2700976 -1.6461005
10.35055 -1.3335124 -1.6459411
10.383263 -1.4025458 -1.6526344
10.353934 -1.4633296 -1.6492878
10.337924 -1.5258238 -1.6481723
10.313731 -1.5869759 -1.6457818
10.294051 -1.648669 -1.6441882
10.274003 -1.7101805 -1.6425945
10.248724 -1.7706679 -1.6402041
10.233779 -1.8328235 -1.6395665
10.211663 -1.8936027 -1.6378136
10.186278 -1.953622 -1.6355824
10.181847 -2.0176218 -1.6368574
10.161537 -2.0784762 -1.6355824
10.124443 -2.1356938 -1.6315984
10.10536 -2.1965182 -1.6306422
8.3122978 -1.8603326 -1.3362963
10.072834 -2.3192537 -1.6298454
10.062257 -2.3819253 -1.6304828
10.056086 -2.4457207 -1.6319171
10.039932 -2.5071385 -1.6317577
10.018621 -2.567225 -1.6308016
7.4628854 -1.9613105 -1.2068925
9.9863634 -2.6899757 -1.6308016
9.9925098 -2.7575021 -1.6346263
9.9982023 -2.8252048 -1.638451
9.9901628 -2.8892419 -1.6400447
9.9703531 -2.9499259 -1.6397259
7.9875579 -2.4167583 -1.3084075
7.9405112 -2.4558074 -1.3029891
7.9243517 -2.5041859 -1.3028297
7.9154139 -2.554884 -1.3039453
8.7040739 -2.868489 -1.4406799
9.8072977 -3.2988582 -1.6315984
9.7775335 -3.355768 -1.6300046
9.7530317 -3.4143939 -1.6293672
9.7151623 -3.4681995 -1.6264987
9.6936989 -3.5277452 -1.6264987
7.6484604 -2.8367939 -1.2781283
9.6108913 -3.6317811 -1.6198053
9.5746059 -3.6853652 -1.617415
9.54354 -3.7408023 -1.6159806
9.4433861 -3.7685568 -1.602594
9.4502687 -3.8386886 -1.6078531
9.4739799 -3.9162111 -1.61614
9.4916334 -3.9918721 -1.6234708
9.535944 -4.0795445 -1.6355824
9.4799538 -4.1245894 -1.630164
9.4634953 -4.1866732 -1.6317577
9.4268236 -4.2398024 -1.6298454
9.3656149 -4.281558 -1.6236302
9.2550068 -4.2998471 -1.6086498
9.2748728 -4.3784671 -1.6169368
9.2344799 -4.4288907 -1.6145464
9.2009182 -4.4824429 -1.6134309
9.1449261 -4.5248055 -1.6083312
9.1134615 -4.5790601 -1.6076937
9.0851936 -4.6348929 -1.6076937
9.0574598 -4.6910052 -1.6078531
8.990057 -4.7262812 -1.600841
8.9574041 -4.7794952 -1.6002036
8.9166231 -4.8282561 -1.5981319
8.8781767 -4.8781228 -1.5965382
8.8230715 -4.9185677 -1.5919167
8.7867098 -4.9692106 -1.5908011
8.7346458 -5.0107512 -1.586817
8.6849632 -5.0533299 -1.583311
8.6478415 -5.1030126 -1.5821954
8.5951881 -5.1433067 -1.5782113
8.57866 -5.2051663 -1.5810798
8.5810356 -5.278913 -1.5876138
8.5141392 -5.3100476 -1.5810798
8.4930792 -5.369575 -1.583311
8.4732714 -5.4301085 -1.5858607
8.4083319 -5.4615636 -1.5798049
8.365592 -5.5070829 -1.5780519
8.3595667 -5.5769362 -1.5834703
8.2892027 -5.6037979 -1.5764583
8.2652502 -5.6618066 -1.5785301
8.1906137 -5.684834 -1.5707211
8.1668844 -5.7429333 -1.5729523
8.1162148 -5.7820535 -1.5699244
8.0741796 -5.8271232 -1.5686494
8.0366793 -5.8753905 -1.5683308
7.9925437 -5.9187174 -1.5667371
7.9623947 -5.9723859 -1.568012
7.8980846 -6.0002289 -1.5624342
7.8798981 -6.0630255 -1.566259
7.8511138 -6.1179357 -1.568012
7.789402 -6.1470366 -1.5630717
7.7237735 -6.1725292 -1.5573345
7.672708 -6.2092481 -1.5546254
7.5962839 -6.224925 -1.5466572
7.5571856 -6.2707872 -1.5464978
7.5253692 -6.3227549 -1.547932
7.5127506 -6.3911982 -1.5535098
7.4883542 -6.4500604 -1.5566971
7.4352431 -6.4842076 -1.5538286
7.3790355 -6.5153332 -1.5503225
7.3168383 -6.54075 -1.5455416
7.2604632 -6.5709486 -1.5420356
7.2498527 -6.6427174 -1.5485696
7.2610707 -6.7354136 -1.5600438
7.1735477 -6.7365899 -1.5498445
7.1327929 -6.7811594 -1.5500038
7.046237 -6.7816706 -1.5399638
6.9698443 -6.7910213 -1.532155
6.9013352 -6.8073163 -1.5260992
6.8405743 -6.8307009 -1.5217963
6.7867298 -6.8606143 -1.5190872
6.7445059 -6.9021277 -1.5190872
6.7033997 -6.9448018 -1.5194058
6.672924 -6.9986629 -1.5222744
6.6623454 -7.0739698 -1.5299239
6.5925894 -7.0865278 -1.5237087
6.5369587 -7.1137619 -1.5208402
6.4155531 -7.0682139 -1.5021945
2.1996992 -2.4539533 -0.49325913
2.1865642 -2.4696212 -0.49373722
2.1720197 -2.4837344 -0.49389657
6.1414127 -7.1092339 -1.4778118
6.1136956 -7.1655574 -1.4817959
6.0848818 -7.2210531 -1.4856206
6.0543532 -7.2749467 -1.4891267
6.0277805 -7.3340755 -1.4937482
6.0318179 -7.4314756 -1.506338
6.0330329 -7.5268884 -1.5184497
5.9897985 -7.5676346 -1.5192465
2.0152032 -2.5788324 -0.48959374
1.9939133 -2.5841153 -0.48815948
1.9744297 -2.5915897 -0.4872033
1.9549296 -2.5989227 -0.48624709
1.9389461 -2.6108689 -0.48624709
1.8213053 -2.4841971 -0.4585177
1.8257116 -2.5225141 -0.46393609
1.8331596 -2.5657969 -0.47031066
5.6050811 -7.946403 -1.5310395
5.5415506 -7.9595809 -1.526896
5.4942846 -7.9958739 -1.527374
5.439024 -8.0204487 -1.5256211
5.3644509 -8.0159311 -1.5182903
5.3222375 -8.0594053 -1.520362
5.2646012 -8.0795031 -1.5179716
5.2277408 -8.1315842 -1.5217963
5.1534233 -8.1251593 -1.5144656
1.7786787 -2.843266 -0.50266165
1.7627548 -2.8566465 -0.50313973
1.7498138 -2.8749979 -0.504574
1.7377301 -2.8949907 -0.50632697
4.8866711 -8.253932 -1.5096847
4.8404136 -8.2914333 -1.5111189
4.787477 -8.3175554 -1.5104815
4.7241702 -8.3253088 -1.5064974
4.6710701 -8.3506927 -1.5058599
4.6354737 -8.4077253 -1.5111189
4.5908685 -8.4490213 -1.5135094
4.5324154 -8.4648476 -1.5112783
4.4642663 -8.4619389 -1.5057006
4.4190907 -8.5023108 -1.508091
4.3677382 -8.531023 -1.5084097
4.3166442 -8.5603065 -1.5088879
4.2614031 -8.5813274 -1.5079316
4.2008624 -8.5913496 -1.5050631
4.137362 -8.5947266 -1.501079
4.0853934 -8.6217356 -1.5013977
4.0457678 -8.6752701 -1.5064974
3.988755 -8.6918564 -1.5050631
3.9207218 -8.6837769 -1.499326
3.8721743 -8.7184973 -1.5012383
3.820977 -8.7475195 -1.5021945
3.7730761 -8.7844067 -1.504585
3.7237136 -8.818305 -1.5064974
3.6668861 -8.8346052 -1.5053818
3.5995579 -8.8249454 -1.499804
3.5442395 -8.8441162 -1.499326
3.4812269 -8.8436508 -1.4955013
3.4268978 -8.8648453 -1.4955013
3.385052 -8.918932 -1.5012383
3.3044121 -8.8701515 -1.4892861
3.2587376 -8.9143677 -1.4934295
3.2099779 -8.9509211 -1.4962981
3.1612198 -8.9881439 -1.499326
3.1024694 -8.9971046 -1.497573
3.0541608 -9.0365477 -1.501079
2.9992769 -9.0569916 -1.5013977
2.926893 -9.0235767 -1.4926326
2.8735623 -9.0479527 -1.4937482
2.8241458 -9.0852108 -1.4970949
2.7689216 -9.1042576 -1.4974136
2.7056878 -9.0964737 -1.4932702
2.6487193 -9.1091127 -1.4926326
2.5938563 -9.1289911 -1.4932702
2.5433378 -9.164712 -1.4966167
2.4790523 -9.1506062 -1.4916764
2.422354 -9.1637363 -1.4913578
2.3643553 -9.1717358 -1.4902422
2.3099592 -9.1937294 -1.4915171
2.2537386 -9.2086887 -1.4916764
2.1992524 -9.2309875 -1.4931108
2.144577 -9.2529631 -1.494545
2.0853741 -9.2553549 -1.492792
2.0296009 -9.2727976 -1.4935888
1.9716398 -9.2802486 -1.492792
1.9292071 -9.3627548 -1.5044256
0.52088106 -2.6102781 -0.39094725
0.50466752 -2.6124558 -0.39078787
0.48899117 -2.617444 -0.39110661
0.47678226 -2.641768 -0.39461264
0.46107227 -2.6475616 -0.39509073
0.44318298 -2.640605 -0.39349708
0.43295991 -2.6803079 -0.39955291
0.42165974 -2.7160814 -0.4049713
0.40542305 -2.7215469 -0.40544939
0.39122924 -2.7415745 -0.40831795
1.2902805 -9.4490528 -1.5007602
0.35487679 -2.7256114 -0.4049713
0.33644372 -2.7140219 -0.40274021
1.1105878 -9.4241409 -1.4931108
0.92422438 -8.2799225 -1.3061764
0.87630147 -8.3129272 -1.3106387
0.82527781 -8.3181477 -1.3106387
0.75126034 -8.0763292 -1.2706382
0.6797297 -7.8280234 -1.2296816
0.63176447 -7.8330312 -1.229841
0.58354324 -7.8347912 -1.2295222
0.53828692 -7.879591 -1.2362155
0.58652067 -9.4356022 -1.4873736
0.1976008 -3.532871 -0.53246278
0.17547704 -3.5251431 -0.53102845
0.15440473 -3.538975 -0.53310019
0.35378128 -9.4205189 -1.4830709
0.2569899 -8.183177 -1.2829093
0.23879991 -9.44981 -1.4872143
0.18032041 -9.4254341 -1.4830709
0.12253512 -9.4303122 -1.4837083
0.064764865 -9.4447069 -1.4859394
0.0067961789 -9.4241953 -1.4825927
-0.051029723 -9.4240599 -1.4825927
-0.10912637 -9.4472609 -1.4864174
-0.1673703 -9.4622059 -1.4889673
-0.22554353 -9.4659357 -1.4897641
-0.28362116 -9.4643736 -1.4897641
-0.34172371 -9.4634418 -1.4899235
-0.40061659 -9.4808941 -1.4931108
-0.4588781 -9.4802294 -1.4934295
-0.51682413 -9.4732924 -1.492792
-0.57482183 -9.4679718 -1.4924734
-0.6335637 -9.4741173 -1.494067
-0.69110888 -9.4621744 -1.492792
-0.7485314 -9.4498825 -1.4915171
-0.80784386 -9.4608498 -1.494067
-0.86497951 -9.4458838 -1.4924734
-0.92244202 -9.4354858 -1.4916764
-0.98236054 -9.4492874 -1.4948637
-1.0409702 -9.4489689 -1.4958199
-1.0969889 -9.4257336 -1.4931108
-1.1555241 -9.4247046 -1.494067
-1.2152228 -9.4321241 -1.4964575
-1.2701679 -9.4029665 -1.4929514
-1.331983 -9.4243212 -1.4977323
-1.3964134 -9.4608965 -1.5050631
-1.4514362 -9.4326353 -1.5018758
-1.499297 -9.361165 -1.4916764
-0.49682263 -2.9829605 -0.44943395
-0.51578856 -2.9837472 -0.45007139
-0.53600073 -2.9912157 -0.4518244
-0.55632395 -2.998548 -0.45357743
-0.5754559 -2.9989562 -0.45421487
-1.8714263 -9.4439278 -1.5154217
-1.916679 -9.3703661 -1.5052224
-1.972916 -9.3526335 -1.5042663
-2.0290077 -9.3345633 -1.5033101
-0.64820772 -2.8951139 -0.44019082
-0.66440928 -2.8843477 -0.43907526
-0.67982107 -2.87061 -0.43748161
-2.2707741 -9.3366356 -1.5123938
-2.324672 -9.3091173 -1.5101627
-2.3788078 -9.2832022 -1.5082504
-0.76536828 -2.9113052 -0.44720283
-0.78296059 -2.9056008 -0.44704348
-0.79368466 -2.8750472 -0.44274065
-0.80647928 -2.8530226 -0.43987209
-0.82013059 -2.8347433 -0.43764099
-2.7645328 -9.3436613 -1.5342268
-2.7792203 -9.1857281 -1.5104815
-2.8457382 -9.2015123 -1.5160593
-1.0164533 -3.215719 -0.50568956
-1.037075 -3.2122402 -0.50616765
-3.0186422 -9.1597624 -1.518131
-3.0810826 -9.1597815 -1.5213182
-3.1125541 -9.0688038 -1.5090472
-1.1263584 -3.2165704 -0.51142669
-1.1394361 -3.1910033 -0.50823939
-3.2911065 -9.0433731 -1.5147843
-3.3235352 -8.9609928 -1.5041069
-1.1655284 -3.0836041 -0.49341848
-1.1727256 -3.0459902 -0.48815948
-1.1928343 -3.0424137 -0.48879692
-1.2111138 -3.0341206 -0.48863757
-3.6380835 -8.9563541 -1.5217963
-3.6699672 -8.8782082 -1.5120751
-3.7178681 -8.8400526 -1.5093659
-3.7898998 -8.8588257 -1.5166967
-3.8414285 -8.8290682 -1.5155811
-3.8843479 -8.7800522 -1.5111189
-3.9288354 -8.7353449 -1.5074536
-1.3129754 -2.8713765 -0.47094813
-1.3289053 -2.8596849 -0.47031066
-1.3451629 -2.8487988 -0.46983257
-4.1808739 -8.7172995 -1.5219557
-4.2368779 -8.6968069 -1.5229119
-4.2879715 -8.6662216 -1.5221151
-4.3446116 -8.6468058 -1.5233899
-4.4038658 -8.6322966 -1.5256211
-4.4549336 -8.6016054 -1.5249836
-4.5011973 -8.5618753 -1.5227525
-4.5587592 -8.5436764 -1.5245055
-4.6200271 -8.5320377 -1.5275334
-4.6575556 -8.4767075 -1.5225931
-4.6681433 -8.3738108 -1.5088879
-4.6708417 -8.2590761 -1.4929514
-4.693923 -8.1823063 -1.484027
-4.7276573 -8.1251917 -1.478768
-4.7573566 -8.0620203 -1.4723934
-4.7824039 -7.9920144 -1.464744
-4.7965312 -7.9051256 -1.4539071
-4.8449459 -7.875546 -1.4539071
-4.8790731 -7.8230524 -1.4496043
-4.9148498 -7.7737751 -1.4459389
-4.9411511 -7.7102237 -1.4395643
-4.9996591 -7.6971464 -1.442911
-5.0467939 -7.6663241 -1.442911
-5.1035995 -7.6499963 -1.4457796
-5.1626062 -7.6365304 -1.4492856
-5.2205238 -7.6209993 -1.4524729
-5.3110905 -7.6520844 -1.4649032
-5.4005303 -7.6799197 -1.4768556
-5.4813457 -7.694078 -1.4862581
-5.5457835 -7.6843166 -1.491039
-5.6073942 -7.6700683 -1.4950231
-5.6619883 -7.6458316 -1.4970949
-5.7401896 -7.6528044 -1.5055412
-5.8121195 -7.650456 -1.5122344
-5.9372106 -7.7163672 -1.5329518
-6.0439095 -7.7561078 -1.5485696
-1.7518899 -2.2194984 -0.41772044
-1.7673244 -2.2110209 -0.41819856
-6.1192026 -7.56143 -1.5315175
-6.2849927 -7.66959 -1.5619562
-6.3432808 -7.6445575 -1.5648247
-6.3818121 -7.5956655 -1.562753
-6.4155049 -7.5413251 -1.5595657
-6.461657 -7.5018187 -1.5595657
-6.5095119 -7.4642615 -1.5600438
-6.56499 -7.4352803 -1.5624342
-6.6183834 -7.4036908 -1.5643466
-6.677598 -7.3783135 -1.5676932
-6.732748 -7.3481202 -1.5700837
-6.8005347 -7.3312798 -1.5755022
-6.8487692 -7.2930131 -1.576299
-6.8899884 -7.2472749 -1.5755022
-6.9254279 -7.1956148 -1.5734304
-6.9797831 -7.1635923 -1.5758208
-7.0423236 -7.1396079 -1.5801237
-7.0880919 -7.0983586 -1.5806018
-7.1364255 -7.0595932 -1.5817174
-3.4939904 -3.4139233 -0.74983567
-3.4196949 -3.3005438 -0.72848082
-3.3648629 -3.2079651 -0.71174759
-3.4412556 -3.2407315 -0.72433734
-7.4074411 -6.8911591 -1.5944664
-3.4953032 -3.2116182 -0.72752464
-3.5200603 -3.1947558 -0.7286402
-3.4153762 -3.0617197 -0.70170766
-3.3904934 -3.0020893 -0.69230515
-3.3939888 -2.9682298 -0.68911785
-3.4098966 -2.9454126 -0.68863976
-4.8645391 -4.1502848 -0.99350369
-3.7870007 -3.1908994 -0.76067245
-3.8300309 -3.1871803 -0.76561272
-4.9309564 -4.0525188 -0.99159127
-4.8852129 -3.9649465 -0.97692978
-4.8855705 -3.9157553 -0.97198951
-4.8800907 -3.8624208 -0.96593362
-4.9285879 -3.8518593 -0.97103333
-4.9998026 -3.8583395 -0.98075455
-5.0524359 -3.8497283 -0.986651
-5.0309968 -3.7848227 -0.97756726
-5.1135621 -3.7980337 -0.9895196
-5.2522035 -3.8512397 -1.0126274
-5.2181602 -3.7772579 -1.0011531
-5.1994724 -3.7153203 -0.99286622
-5.2302384 -3.6890378 -0.99445987
-5.086689 -3.5412347 -0.9617902
-5.3060322 -3.6458237 -1.0005157
-5.3381071 -3.6198473 -1.0024281
-5.223207 -3.495326 -0.97581422
-5.2008953 -3.4343765 -0.96736795
-5.1987114 -3.3873081 -0.9629057
-5.221889 -3.3569472 -0.96338379
-5.3449278 -3.3898852 -0.98298562
-5.4560103 -3.4135821 -1.0001969
-5.3105173 -3.2773721 -0.96864283
-5.5345922 -3.3689594 -1.0072091
-5.5991712 -3.3613615 -1.0154959
-5.4005246 -3.1971745 -0.97437996
-5.374855 -3.1375966 -0.96593362
-5.3409595 -3.0740221 -0.95605308
-5.406085 -3.0675044 -0.96465874
-5.4153275 -3.0289738 -0.9629057
-5.7424412 -3.1658645 -1.0197988
-5.4165258 -2.9429653 -0.95637178
-5.651185 -3.025718 -0.99605352
-5.6574202 -2.9845362 -0.9938224
-5.6729984 -2.948401 -0.99334431
-5.5943232 -2.8640432 -0.97581422
-5.5130668 -2.7798748 -0.95796543
-5.5671554 -2.7644382 -0.96465874
-5.6611695 -2.7679574 -0.97852343
-5.6015496 -2.6963406 -0.96481812
-5.8320961 -2.7633848 -1.0030656
-5.819417 -2.7137771 -0.99780649
-5.7202158 -2.6248975 -0.97724849
-5.7506099 -2.5962501 -0.97979832
-5.7898898 -2.5713356 -0.98394179
-5.9104991 -2.5816052 -1.0024281
-5.9706745 -2.5643833 -1.010237
-6.0017576 -2.5342288 -1.0129461
-5.9962234 -2.4886498 -1.0092807
-6.0561709 -2.4700823 -1.0170896
-5.9585009 -2.3877015 -0.99748778
-6.1071544 -2.4038956 -1.0207549
-5.9670954 -2.3065698 -0.99398178
-5.9903655 -2.2734163 -0.99557543
-6.1105881 -2.2762547 -1.0139023
-6.1086779 -2.2329552 -1.0111932
-6.0888109 -2.1834323 -1.005456
-6.1495891 -2.1627378 -1.0135835
-6.1571436 -2.1230328 -1.0126274
-6.0615673 -2.048542 -0.99414116
-6.2876945 -2.0820789 -1.0304762
-6.3782921 -2.0687435 -1.0437034
-6.4002748 -2.0325568 -1.045297
-6.3890576 -1.9859201 -1.0413129
-6.5191846 -1.9825921 -1.0612335
-6.4498501 -1.9183452 -1.0475281
-6.4415927 -1.8729442 -1.0441815
-6.6058526 -1.876832 -1.0698391
-6.5240207 -1.8103889 -1.0542215
-6.6093292 -1.7904629 -1.0666519
-6.7347221 -1.7801555 -1.0857756
-6.8344221 -1.7617209 -1.1005964
-6.9140396 -1.7370762 -1.1120707
-7.178679 -1.7568222 -1.1543022
-7.4246044 -1.7688071 -1.1933465
-8.1142902 -1.8806142 -1.3058577
-8.1044893 -1.8260156 -1.3023517
-8.3007021 -1.8167887 -1.3329496
-9.0378685 -1.9201341 -1.4527916
-8.9992008 -1.8542805 -1.4445046
-9.5593243 -1.9086492 -1.5348642
-10.024474 -1.9376581 -1.6094466
-10.501968 -1.9632045 -1.6859416
-10.576963 -1.9101351 -1.6963003
-10.816063 -1.8848678 -1.7335914
-11.061084 -1.8577179 -1.7718389
-11.496209 -1.8583573 -1.8411624
-12.01954 -1.8673673 -1.9248286
-12.048347 -1.7962024 -1.9276972
-12.096279 -1.7275465 -1.933753
-12.019597 -1.6414014 -1.9195696
-12.195862 -1.5893123 -1.9466616
-12.079982 -1.4988859 -1.926263
-12.079147 -1.4235805 -1.9246693
-12.108258 -1.3517382 -1.9280159
-12.113379 -1.2771072 -1.9275378
-12.083656 -1.1990514 -1.921482
-12.108479 -1.1265316 -1.9243506
-12.115164 -1.0522141 -1.9243506
-12.178465 -0.98246324 -1.9335938
-12.171466 -0.90676522 -1.931522
-12.205363 -0.83401811 -1.9361435
-12.153103 -0.75555694 -1.9269004
-12.135825 -0.6797573 -1.9233943
-12.132866 -0.60493612 -1.9222789
-12.168896 -0.53190261 -1.9275378
-12.142335 -0.45611295 -1.9227569
-12.11629 -0.38070035 -1.9181354
-11.207779 0.82385105 -1.9183805
-11.231975 0.89495569 -1.9235281
-11.195844 0.96124136 -1.918209
-11.195621 1.030462 -1.9192384
-11.183205 1.0985591 -1.918209
-11.160577 1.1655185 -1.9154636
-11.133631 1.2318078 -1.9120319
-11.139563 1.3017015 -1.9144341
-11.128432 1.3696668 -1.9139193
-11.104186 1.4359007 -1.9111739
-11.08931 1.503213 -1.9101444
-11.081828 1.5715042 -1.9104877
-11.070027 1.6391827 -1.9101444
-11.076313 1.7096328 -1.9130614
-11.045188 1.7742802 -1.9094582
-11.010773 1.8381231 -1.9053401
-11.03132 1.9112025 -1.9110024
-11.017446 1.978505 -1.9106592
-11.000256 2.0451686 -1.9098012
-10.973955 2.1100209 -1.9073991
-10.951139 2.1753955 -1.9056833
-10.93662 2.2423515 -1.9055116
-10.871572 2.2986088 -1.8964176
-10.901542 2.3749232 -1.9043106
-10.866577 2.4372392 -1.9007072
-10.862937 2.5065286 -1.9027663
-10.835851 2.5704052 -1.9007072
-10.837103 2.6410451 -1.9037958
-10.799669 2.7022274 -1.900021
-10.79529 2.7716284 -1.9022515
-10.767601 2.8350544 -1.900364
-10.751904 2.9015834 -1.9007072
-10.726302 2.9654002 -1.8993345
-10.732551 3.0381391 -1.9037958
-10.711814 3.1033871 -1.9034526
-10.696349 3.1701753 -1.9041389
-10.682352 3.2374623 -1.9051685
-10.663227 3.3032386 -1.9053401
-10.64088 3.36801 -1.9049969
-10.560022 3.4138367 -1.8940154
-10.562263 3.4862897 -1.8983051
-10.554677 3.5557523 -1.9008789
-10.537319 3.6220493 -1.9017367
-10.50467 3.6830504 -1.8998493
-10.493933 3.7517493 -1.9020799
-10.454055 3.8099942 -1.8989915
-10.431403 3.8744106 -1.899163
-10.421255 3.9435749 -1.9017367
-10.396861 4.0074444 -1.9017367
-10.360155 4.0664821 -1.8995062
-10.321287 4.1244893 -1.8969324
-10.320423 4.1977663 -1.9015652
-10.278998 4.2546058 -1.8986483
-10.246344 4.314919 -1.8974471
-10.215147 4.3757682 -1.8965893
-10.189912 4.4391518 -1.8969324
-10.139964 4.4916153 -1.8926427
-10.101434 4.548893 -1.8905838
-10.063479 4.606277 -1.8886963
-10.054677 4.6770821 -1.8924712
-10.056962 4.7534261 -1.8984767
-10.031158 4.816751 -1.899163
-9.9881334 4.8717308 -1.8965893
-9.8883162 4.8983707 -1.883034
-9.9091167 4.9846349 -1.8929859
-9.8388662 5.0251732 -1.8852646
-9.807847 5.0854487 -1.8852646
-9.7764587 5.1455326 -1.8852646
-9.7447023 5.2054234 -1.8852646
-9.7073832 5.2623 -1.8842351
-9.6360693 5.3003936 -1.8765137
-9.6059465 5.3608603 -1.8770285
-9.5591555 5.4119329 -1.8742832
-9.589838 5.507288 -1.8871521
-9.5090475 5.5387502 -1.8777149
-9.4638577 5.590477 -1.8754842
-9.4741659 5.6752777 -1.8845782
-9.3777018 5.695962 -1.8720526
-9.3828382 5.7781959 -1.8802886
-9.3530569 5.8393116 -1.8814898
-9.3012352 5.886579 -1.8782296
-9.280695 5.9536486 -1.8814898
-9.2241688 5.997591 -1.8773717
-9.189662 6.0557032 -1.8778864
-9.1875582 6.1355057 -1.8852646
-9.1611605 6.1994948 -1.8876668
-9.1400099 6.2672915 -1.89127
-9.0779209 6.306952 -1.8862941
-9.0374403 6.3614001 -1.8859509
-9.0182886 6.431035 -1.8902406
-8.9866447 6.4920192 -1.8919564
-8.9577703 6.5551839 -1.8943586
-8.9173803 6.6100245 -1.8943586
-8.884531 6.6705322 -1.8960744
-8.8504915 6.7302885 -1.8976188
-8.830101 6.8007002 -1.9022515
-8.7975273 6.8620243 -1.9043106
-8.7629871 6.9219832 -1.9060264
-8.7288113 6.9823918 -1.9079138
-8.6674328 7.0209351 -1.9037958
-8.6310453 7.0796094 -1.9053401
-8.5760765 7.122992 -1.9027663
-8.5668888 7.2046514 -1.9106592
-8.5292711 7.2628303 -1.9122034
-8.5002136 7.3285389 -1.9158068
-8.4343081 7.3624153 -1.9110024
-8.4066887 7.429688 -1.9151205
-8.3345156 7.457479 -1.9089434
-8.3075819 7.5256767 -1.9134046
-8.2489071 7.5651879 -1.9104877
-8.2131605 7.6257162 -1.9130614
-8.1899014 7.6982365 -1.9187237
-8.1610661 7.7660031 -1.923185
-8.1118422 7.8145652 -1.9228418
-8.0588036 7.859376 -1.9216406
-8.0244474 7.9225202 -1.9250724
-7.9937997 7.9897175 -1.9295336
-7.9259291 8.0196953 -1.9249008
-7.8683147 8.0597172 -1.9228418
-7.8269186 8.1163549 -1.9249008
-7.8041472 8.1927633 -1.9317642
-7.7652059 8.2526932 -1.9346812
-7.7285051 8.3153391 -1.9382844
-7.6793361 8.3647814 -1.9387991
-7.6272044 8.4110136 -1.9386276
-7.5747948 8.4569206 -1.9384561
-7.5318995 8.5135708 -1.9408582
-7.4911861 8.5729799 -1.9439467
-7.450027 8.6322098 -1.9470353
-7.4007549 8.6822586 -1.9480648
-7.3448043 8.7244902 -1.9473784
-7.293653 8.7724228 -1.9480648
-7.2396889 8.8170109 -1.9480648
-7.1891751 8.865859 -1.9490943
-7.1488008 8.9274921 -1.9530407
-7.1073298 8.9881907 -1.9568156
-7.0617452 9.0440559 -1.959561
-6.9970975 9.0755119 -1.9569873
-6.9406829 9.1174908 -1.9568156
-6.8857918 9.1614809 -1.9571588
-6.8306222 9.205142 -1.957502
-6.764698 9.2341633 -1.9547566
-6.7234964 9.2970524 -1.9593894
-6.7092485 9.3982725 -1.9722583
-6.646349 9.4320145 -1.9707141
-6.5838504 9.4661474 -1.9693414
-6.5200686 9.4982443 -1.9676255
-6.4544835 9.5274687 -1.9653949
-6.373457 9.5333118 -1.95836
-6.3506413 9.6265173 -1.9696845
-6.2989779 9.6768627 -1.9720867
-6.2533226 9.7368841 -1.976548
-6.1918788 9.7725735 -1.9760332
-6.1354532 9.8162308 -1.9772342
-6.0818267 9.8645945 -1.9794649
-6.0237432 9.9059353 -1.9803228
-5.9593019 9.9367952 -1.9791217
-5.9002242 9.9765663 -1.9798081
-5.8453488 10.023645 -1.9820386
-5.7758794 10.045657 -1.9792933
-5.7146173 10.081766 -1.9794649
-5.6531296 10.1175 -1.9796364
-5.5904684 10.151134 -1.9794649
-5.5280766 10.185246 -1.9794649
-5.4631548 10.214629 -1.9786069
-5.4081821 10.262775 -1.9815239
-5.349648 10.30451 -1.9832398
-5.2943921 10.35293 -1.9863282
-5.225008 10.373782 -1.9840977
-5.1638837 10.410943 -1.9851272
-5.0955834 10.433578 -1.9834113
-5.0207982 10.442451 -1.9791217
-4.9709558 10.503339 -1.9849557
-4.9026723 10.525604 -1.9834113
-4.8400478 10.559966 -1.9842693
-4.7707081 10.579586 -1.9823818
-4.7216783 10.644683 -1.9892453
-4.6669083 10.697836 -1.993878
-4.6066155 10.738946 -1.9962802
-4.5383396 10.761563 -1.9952507
-4.4601541 10.760083 -1.98976
-4.4014783 10.805496 -1.9931917
-4.3391194 10.842361 -1.9950792
-4.2815189 10.891705 -1.9993688
-4.2231207 10.939829 -2.0034869
-4.1618495 10.981196 -2.0064037
-4.0967956 11.01299 -2.0076048
-4.0277929 11.034219 -2.0069184
-3.9676495 11.080058 -2.010865
-3.9061155 11.122786 -2.0142968
-3.840359 11.153996 -2.0156693
-3.7746811 11.185751 -2.0172136
-3.7106133 11.222733 -2.0197873
-3.643806 11.25185 -2.0209885
-3.582139 11.297475 -2.0252781
-3.511584 11.315477 -2.0245917
-3.445807 11.349067 -2.0268223
-3.3819926 11.389829 -2.0304258
-3.3161602 11.424559 -2.0329995
-3.2486854 11.454169 -2.0347154
-3.1749251 11.461544 -2.0324848
-3.1019678 11.471299 -2.0307689
-3.0340352 11.499642 -2.0324848
-2.965626 11.526629 -2.034029
-2.8969998 11.553209 -2.0355732
-2.8351686 11.608093 -2.0422652
-2.7654839 11.63198 -2.0434661
-2.6958344 11.656409 -2.0448389
-2.6249092 11.675614 -2.0453537
-2.5527995 11.689576 -2.0450103
-2.4808214 11.704056 -2.0448389
-2.407572 11.712302 -2.0436378
-2.3316221 11.706564 -2.0400345
-2.259748 11.72065 -2.0400345
-2.1879694 11.735264 -2.040206
-2.1143513 11.739741 -2.0386617
-2.0417721 11.749582 -2.038147
-1.9696395 11.761889 -2.038147
-1.8997825 11.788342 -2.0407207
-1.8296751 11.814381 -2.0432947
-1.7516502 11.788355 -2.0367744
-1.6705459 11.737433 -2.0259645
-1.6060607 11.803105 -2.0357449
-1.537537 11.843024 -2.041064
-1.4673762 11.872768 -2.0446672
-1.4035634 11.958847 -2.0582225
-1.3186327 11.863444 -2.0400345
-1.2485888 11.897766 -2.0446672
-1.1747882 11.89736 -2.0432947
-1.1027629 11.915135 -2.045182
-1.0217576 11.830396 -2.0292246
-0.95496851 11.909113 -2.0419219
-0.88333011 11.934398 -2.0453537
-0.81088448 11.951388 -2.0474126
-0.73632568 11.936472 -2.0439808
-0.66454321 11.967324 -2.0486138
-0.59071267 11.963305 -2.047241
-0.51759326 11.973594 -2.0484421
-0.44491598 11.998203 -2.052217
-0.3701643 11.964273 -2.0458684
-0.2972568 11.987002 -2.0494716
-0.22349922 11.977765 -2.0475843
-0.15013547 11.989747 -2.0494716
-0.076571137 11.991427 -2.0496433
-0.0029910763 11.987731 -2.0489569
0.070546634 11.984569 -2.0484421
0.14380664 11.961253 -2.0444956
0.21651343 11.922715 -2.0379755
0.29012227 11.939875 -2.0412357
0.36355892 11.943778 -2.0422652
0.43723494 11.952152 -2.0441525
0.51077449 11.954165 -2.0450103
0.58396971 11.947855 -2.0444956
0.65596789 11.920438 -2.0403776
0.73000193 11.930939 -2.0429513
0.80153769 11.901662 -2.0386617
0.87628561 11.920099 -2.0427799
0.94815582 11.898786 -2.0400345
1.0209788 11.89078 -2.0396912
1.095276 11.899008 -2.0422652
1.1671094 11.880298 -2.040206
1.2388568 11.862135 -2.0383186
1.3129195 11.86606 -2.0403776
1.384559 11.847996 -2.0386617
1.4543402 11.81581 -2.0345438
1.5285835 11.820343 -2.0369458
1.598037 11.788288 -2.0329995
1.6764292 11.821178 -2.0405493
1.7447431 11.782408 -2.0355732
1.8189608 11.784138 -2.0378039
1.8876365 11.750383 -2.0338573
1.9663551 11.778419 -2.0408924
2.0364015 11.753513 -2.0386617
2.096982 11.676801 -2.0273371
2.171653 11.68018 -2.0302541
2.2382553 11.640514 -2.0256214
2.317512 11.666179 -2.0326562
2.3846953 11.630507 -2.0288815
2.4609072 11.638788 -2.0329995
2.5234635 11.583041 -2.0257928
2.5966454 11.576952 -2.0275087
2.66608 11.554082 -2.0263076
2.7380617 11.542298 -2.0271657
2.8095326 11.528152 -2.0276804
2.8761482 11.49445 -2.0247633
2.945152 11.47086 -2.0237339
3.0154805 11.452574 -2.0237339
3.0728564 11.386299 -2.0151546
3.1439767 11.371978 -2.0160124
3.2166474 11.3629 -2.0179
3.2780809 11.314562 -2.0127525
3.3516448 11.308403 -2.0153263
3.4275429 11.309309 -2.0192726
3.4840398 11.24666 -2.0117228
3.5743942 11.292694 -2.0240769
3.636342 11.248053 -2.019959
3.6991127 11.206819 -2.0165274
3.7706385 11.192312 -2.0180717
3.8245063 11.126111 -2.0101786
3.8861818 11.083841 -2.006747
3.9332175 11.001347 -1.9959371
4.0090823 11.000146 -2.0002267
4.0761595 10.974416 -2.0000551
4.1549296 10.979604 -2.0057175
4.2098165 10.92173 -1.999712
4.2648702 10.865432 -1.9940497
4.3347502 10.847292 -1.9955939
4.4019685 10.822315 -1.9959371
4.4701748 10.799653 -1.9967949
4.534061 10.766574 -1.9957654
4.5988741 10.735834 -1.9952507
4.6658421 10.710123 -1.9957654
4.7210941 10.657873 -1.9913043
4.7811408 10.617027 -1.9890736
4.8453751 10.5857 -1.9887304
4.9135613 10.562916 -1.9901031
4.9728079 10.520989 -1.9878726
5.0406823 10.497383 -1.9892453
5.1075897 10.471569 -1.9902748
5.1638727 10.424143 -1.9871862
5.2330508 10.402822 -1.9892453
5.281992 10.341566 -1.983583
5.3389974 10.296718 -1.9811808
5.402535 10.264636 -1.9813523
5.4570589 10.215653 -1.9782637
5.5248041 10.191504 -1.9801512
5.5839095 10.15137 -1.9789501
5.637929 10.102293 -1.9760332
5.6871872 10.04522 -1.9715719
5.746263 10.005864 -1.9707141
5.7991185 9.955946 -1.967797
5.8520799 9.9066057 -1.9650518
5.9173126 9.8781166 -1.966596
5.9757657 9.8382549 -1.9659096
6.0210361 9.7770777 -1.9609337
6.0663028 9.7165518 -1.9561293
6.1152697 9.6624985 -1.9526976
6.170186 9.6181612 -1.9513249
6.2312346 9.5834236 -1.9520112
6.2790766 9.5285587 -1.9485795
6.3423491 9.4972239 -1.9501238
6.4038172 9.4630241 -1.9511533
6.45786 9.4178667 -1.9499522
6.5076547 9.3667383 -1.9475501
6.5581994 9.3169651 -1.945491
6.6089511 9.2677269 -1.9436036
6.6558838 9.2134256 -1.9406866
6.7000713 9.1557178 -1.9370834
6.7608175 9.1207657 -1.9384561
6.817246 9.0798979 -1.9386276
6.8698487 9.0339766 -1.9377697
6.9125257 8.9752645 -1.9341664
6.9801922 8.9489927 -1.9377697
7.0245881 8.8928537 -1.9348527
7.0716357 8.840353 -1.9327937
7.1027994 8.7684736 -1.926445
7.1445956 8.7102556 -1.923185
7.1865745 8.6526127 -1.9200964
7.2331891 8.6008148 -1.9183805
7.2794385 8.5487709 -1.9166647
7.3369031 8.5099134 -1.9180374
7.3837972 8.4587975 -1.9166647
7.4238157 8.4000454 -1.9135761
7.4633918 8.3411217 -1.9104877
7.5078163 8.2878695 -1.9087718
7.5551987 8.2380171 -1.9079138
7.5908556 8.175622 -1.9041389
7.6334543 8.1209965 -1.9022515
7.6777062 8.0682964 -1.9008789
7.7277517 8.0217447 -1.9010504
7.7754507 7.9727669 -1.9007072
7.8207631 7.9214025 -1.8998493
7.8622556 7.8662987 -1.8981335
7.9103742 7.8179088 -1.8981335
7.9476199 7.7589025 -1.8955597
7.9780569 7.6935797 -1.8914417
8.0115595 7.6315737 -1.8881816
8.0446014 7.5694461 -1.8849214
8.0894518 7.5186019 -1.8845782
8.130352 7.4641609 -1.8833772
8.1672401 7.4061933 -1.8813181
8.2110615 7.3546262 -1.880975
8.2457037 7.2949677 -1.8785728
8.2858582 7.2403464 -1.8775432
8.3301277 7.1893692 -1.8775432
8.3718348 7.1362042 -1.8770285
8.41471 7.0840669 -1.8768569
8.4496851 7.0253744 -1.8749695
8.4781656 6.9615188 -1.8717093
8.4939365 6.8876524 -1.8657039
8.5114279 6.815702 -1.8602132
8.5391779 6.7523508 -1.8571246
8.5944262 6.7107406 -1.8602132
8.6229572 6.6482568 -1.8574678
8.6620197 6.5940285 -1.8571246
8.7078295 6.544898 -1.8583257
8.7509899 6.4936929 -1.859012
8.7652359 6.4212475 -1.8535213
8.8012772 6.3650351 -1.8528349
8.8505917 6.3183522 -1.8550656
8.8827505 6.259388 -1.8536929
8.9104748 6.1974545 -1.8514624
8.9312763 6.1309576 -1.847859
9.0005388 6.0975871 -1.8545508
9.0197639 6.0302024 -1.850776
9.0738659 5.986135 -1.8543793
9.1203337 5.9367948 -1.8564383
9.1839457 5.8982873 -1.8621006
9.18501 5.8196826 -1.854894
9.2188749 5.7621708 -1.8545508
9.2741852 5.7179027 -1.8586689
9.2973099 5.6537247 -1.8562667
9.3267555 5.5935316 -1.8552372
9.3812542 5.5482321 -1.8593552
9.4193764 5.4930463 -1.8602132
9.4452162 5.430728 -1.8586689
9.4723616 5.3692713 -1.8574678
9.5068483 5.3120098 -1.857811
9.5228662 5.2445483 -1.8545508
9.5297556 5.1723928 -1.8495749
9.6229963 5.1468039 -1.8617574
9.6744423 5.0982232 -1.8657039
9.6976728 5.0346813 -1.8641596
9.7152243 4.9683557 -1.8615859
9.7560854 4.9139676 -1.8636448
9.7692842 4.8456974 -1.8603847
9.8023739 4.7873917 -1.8610711
9.8404436 4.7314234 -1.8627869
9.8710709 4.6717973 -1.8631301
9.9093742 4.615716 -1.8650175
9.9231796 4.5482602 -1.8622721
9.9356318 4.4804039 -1.8593552
9.9818487 4.4277425 -1.8629586
10.004313 4.3644428 -1.8621006
10.030906 4.3029752 -1.8621006
10.062566 4.2436419 -1.8631301
10.065661 4.1723909 -1.8588405
10.111147 4.1187248 -1.8626153
10.135314 4.0562406 -1.8624438
10.171931 3.9986591 -1.8646743
10.205466 3.9397171 -1.8663902
10.241425 3.881561 -1.8686209
10.271512 3.8210516 -1.8698219
10.297541 3.7589679 -1.8703367
10.337107 3.7016892 -1.8734252
10.356836 3.6372132 -1.8729105
10.406905 3.5832152 -1.8780581
10.421227 3.516773 -1.8766854
10.433256 3.4496717 -1.8749695
10.426108 3.3764865 -1.8698219
10.420334 3.3041148 -1.8650175
10.462994 3.2471204 -1.8691356
10.476122 3.1808567 -1.8679345
10.51622 3.1226838 -1.8717093
10.555998 3.0641384 -1.8754842
10.569861 2.9979668 -1.8746263
10.587108 2.9327919 -1.8744547
10.6011 2.8667474 -1.8737684
10.660404 2.8127003 -1.8813181
10.669829 2.7452734 -1.8799455
10.700807 2.6833456 -1.8825192
10.703671 2.6143651 -1.8801171
10.682131 2.5397561 -1.8734252
10.658159 2.4650662 -1.8663902
10.741329 2.4149585 -1.8785728
10.72322 2.3418622 -1.8727388
10.735459 2.2756133 -1.8723958
10.767555 2.2134662 -1.8756558
10.79736 2.1506257 -1.8785728
10.794875 2.0813513 -1.8758274
10.837466 2.0206707 -1.8811466
10.875839 1.9588475 -1.8857794
10.901243 1.8944378 -1.8881816
10.910719 1.8271881 -1.8878384
10.928533 1.7613034 -1.8890395
6.2299376 0.9653759 -1.0590818
6.0613112 0.90122968 -1.028368
5.9165225 0.84265816 -1.0019438
5.9108434 0.80487913 -1.0000564
5.9107857 0.76796204 -0.9991985
5.872366 0.72636694 -0.99164879
5.8845401 0.691239 -0.99302143
5.8769212 0.65381432 -0.99096245
5.8729835 0.61692005 -0.98958975
5.8766584 0.58087248 -0.98958975
5.8604922 0.54298913 -0.98615801
5.873529 0.50786638 -0.98787391
5.8657322 0.47095236 -0.98598647
5.851809 0.43371743 -0.98306948
5.8494458 0.3974703 -0.98221159
0 0 -0
0 0 -0
5.8370752 0.28881246 -0.97895145
0 0 -0
0 0 -0
5.8256474 0.18083614 -0.97620612
5.8384657 0.14537917 -0.97826511
5.8362927 0.10949742 -0.97775036
0 0 -0
0 0 -0
0 0 -0
0 -0 -0
0 -0 -0
0 -0 -0
0 -0 -0
0 -0 -0
0 -0 -0
0 -0 -0
0 -0 -0
0 -0 -0
0 -0 -0
0 -0 -0
0 -0 -0
0 -0 -0
0 -0 -0
0 -0 -0
0 -0 -0
9.7966528 -1.022939 -1.676617
9.7343788 -1.0768499 -1.6668366
9.7481365 -1.138962 -1.67044
9.7712755 -1.2024878 -1.6757591
9.7881384 -1.2655817 -1.6800487
9.7645693 -1.3234978 -1.6773033
9.7601662 -1.3839408 -1.6779896
9.7475929 -1.4432244 -1.6773033
9.7239494 -1.5007516 -1.6747296
9.6795416 -1.5547596 -1.6685525
9.6494131 -1.6107142 -1.6649492
9.6247883 -1.6673675 -1.6623755
9.5940142 -1.7227337 -1.6587721
9.5648603 -1.7781458 -1.655512
9.532486 -1.8327066 -1.6517371
9.4920731 -1.8854009 -1.6465895
9.4571648 -1.9388562 -1.6424716
9.4238853 -1.9923621 -1.6386967
8.3401423 -1.8166381 -1.4477223
9.3881521 -2.105485 -1.6368092
9.3980951 -2.1683683 -1.6409272
9.3980331 -2.229178 -1.6433294
9.4014063 -2.2910018 -1.646418
9.3938618 -2.3503191 -1.6476191
7.4231625 -1.9054798 -1.2958694
7.4113307 -1.9509916 -1.2958694
9.3984661 -2.5361838 -1.6565415
9.3960209 -2.5974805 -1.6589437
9.3950729 -2.6593795 -1.661689
9.3823633 -2.7180736 -1.6623755
9.3692865 -2.7767117 -1.6630617
7.9774823 -2.4173999 -1.4128904
7.9314456 -2.4566801 -1.4072282
7.9190402 -2.5061924 -1.407743
7.9016385 -2.5541294 -1.4073998
8.7286968 -2.8808718 -1.561998
9.1813803 -3.0929446 -1.648477
9.1445293 -3.1431358 -1.6452168
9.1473827 -3.2070117 -1.6493349
9.1256771 -3.2624152 -1.6489917
9.1165943 -3.3223972 -1.6510508
9.0960369 -3.378273 -1.6510508
7.6368828 -2.8895912 -1.3832062
9.035511 -3.4825525 -1.6476191
9.0020514 -3.5332472 -1.6453885
8.9518442 -3.5770805 -1.6400694
8.900526 -3.6200597 -1.6345786
8.832634 -3.6557608 -1.6259993
8.7700891 -3.6930604 -1.6184496
8.7237196 -3.7367148 -1.6139884
8.68437 -3.783088 -1.6108998
8.68081 -3.8450832 -1.6146747
8.6678324 -3.9031305 -1.6167337
8.6804457 -3.9730568 -1.6237687
8.749692 -4.0698829 -1.6417851
8.7539463 -4.1373887 -1.6474475
8.7239542 -4.1888914 -1.6465895
8.7051706 -4.2457976 -1.6479622
8.6568871 -4.2881966 -1.6436726
8.5960903 -4.3239641 -1.6369808
8.5483418 -4.3658705 -1.6328627
8.4881592 -4.4010038 -1.6263425
8.4670982 -4.4562159 -1.6275436
8.4300375 -4.5029783 -1.6256561
8.3866606 -4.5461664 -1.6225677
8.3422079 -4.5885172 -1.6193075
8.3087349 -4.6367369 -1.618278
8.286129 -4.6910291 -1.6194791
8.2401037 -4.7319694 -1.6160474
8.2287903 -4.7928553 -1.6196507
8.1771736 -4.8302259 -1.6151894
8.126255 -4.8676505 -1.6108998
8.1012869 -4.9204898 -1.6119293
8.0600386 -4.9633889 -1.6096988
8.0302668 -5.0132728 -1.6098703
7.9918637 -5.0577087 -1.6083261
7.9523883 -5.1013303 -1.6066102
7.9341512 -5.1586232 -1.6093556
7.9146876 -5.2153416 -1.6119293
7.8628764 -5.2506738 -1.6078113
7.8305111 -5.298821 -1.6078113
7.77104 -5.3283801 -1.602149
7.7422442 -5.3787727 -1.603007
7.6760678 -5.4029241 -1.5959719
7.6403651 -5.4482059 -1.5954572
7.5796423 -5.4753661 -1.5896232
7.5419283 -5.5188613 -1.5887654
7.4865561 -5.549192 -1.5841326
7.461031 -5.6015315 -1.58602
7.4398503 -5.6573448 -1.5889369
7.4003148 -5.6992812 -1.5879074
7.3737497 -5.7512474 -1.5897949
7.2958059 -5.7627926 -1.5803577
7.2510781 -5.8000646 -1.5782987
7.2031054 -5.8345242 -1.5755533
7.1626 -5.8748627 -1.5745238
7.1256599 -5.9180717 -1.5743521
7.082428 -5.9559751 -1.5728079
7.0329995 -5.9884605 -1.569891
7.0274577 -6.0585232 -1.5770975
6.9782772 -6.0911617 -1.5743521
6.9304376 -6.1247301 -1.57195
6.8721714 -6.1487432 -1.5671456
6.8299336 -6.1868253 -1.5661161
6.7700634 -6.2086382 -1.5609685
6.7325625 -6.2507319 -1.5611401
6.6897755 -6.2878757 -1.5601106
6.6503544 -6.3281255 -1.559939
6.6404867 -6.3968387 -1.566974
6.59547 -6.4319601 -1.5656013
6.5614877 -6.4778461 -1.566974
6.5097728 -6.506144 -1.5640571
6.4704218 -6.5466657 -1.5642287
6.4232488 -6.5791941 -1.5625128
6.3786559 -6.6142268 -1.5614833
6.3359137 -6.6511011 -1.5609685
6.3111849 -6.7070737 -1.5650866
6.2497935 -6.7240214 -1.559939
6.2503872 -6.8079677 -1.5707489
2.2177193 -2.4443979 -0.53591841
2.2007074 -2.4557579 -0.53540367
2.1875558 -2.4714286 -0.53591841
5.9744816 -6.8368931 -1.5424373
5.9433603 -6.8861027 -1.5453542
5.8709626 -6.8871999 -1.5372897
5.8317647 -6.9268622 -1.5381477
5.8162322 -6.9950914 -1.5455259
5.7657008 -7.0215101 -1.5434668
5.7634563 -7.1072636 -1.5547915
5.700036 -7.1178837 -1.5493008
5.6519771 -7.1473145 -1.5480996
2.0234022 -2.5900483 -0.53351623
1.9894283 -2.5790069 -0.52836865
1.9735664 -2.5911653 -0.52836865
1.9594057 -2.6055889 -0.5288834
1.9439682 -2.6183536 -0.529055
1.827741 -2.4935281 -0.49954236
1.8020165 -2.4903257 -0.49645382
1.7867022 -2.5013356 -0.49645382
5.2335439 -7.4266367 -1.5434668
5.1794395 -7.4464765 -1.5408931
5.1185999 -7.4561853 -1.5362602
5.0760679 -7.4923463 -1.5372897
5.0310955 -7.5249896 -1.5376329
5.0070672 -7.5894365 -1.544668
4.9501953 -7.6043277 -1.5414078
4.9194112 -7.6594281 -1.5465554
4.8659949 -7.679482 -1.5444963
4.7916355 -7.6657505 -1.535574
4.7532969 -7.7092643 -1.5384909
1.7483153 -2.8734872 -0.54689986
1.7281179 -2.879936 -0.54604197
1.7169329 -2.9015095 -0.54827255
4.5487766 -7.7997637 -1.5336865
4.5057425 -7.8360686 -1.5354023
4.4687481 -7.8832817 -1.5393488
4.408762 -7.8899112 -1.5352308
4.3422112 -7.8840199 -1.5287105
4.2979827 -7.9183083 -1.5302547
4.2460642 -7.9384494 -1.5290537
4.2023263 -7.9739413 -1.5309411
4.1487813 -7.9908319 -1.5292252
4.0969815 -8.0108747 -1.5281957
4.0508523 -8.0420218 -1.5293969
3.9996805 -8.0631962 -1.5287105
3.9522915 -8.0920124 -1.5295684
3.9012852 -8.1134472 -1.5290537
3.848479 -8.1309986 -1.5278525
3.797684 -8.1526728 -1.5275095
3.7451262 -8.1704473 -1.52648
3.6969473 -8.1977644 -1.5273378
3.644181 -8.2148905 -1.5263083
3.5952821 -8.2407084 -1.5269947
3.5454268 -8.2644243 -1.5273378
3.4904406 -8.2760372 -1.5254503
3.4369543 -8.2909279 -1.5242493
3.3908474 -8.3237219 -1.52648
3.3455656 -8.3590059 -1.5292252
3.2866457 -8.3601208 -1.525622
3.2324495 -8.3727779 -1.5242493
3.1733351 -8.3721857 -1.5204744
3.1339233 -8.4238186 -1.52648
3.0798128 -8.4364109 -1.5252788
3.0206852 -8.4347439 -1.5215039
2.9763794 -8.4744987 -1.5254503
2.9281723 -8.5037804 -1.5275095
2.8702707 -8.5047846 -1.5244209
2.8189597 -8.5250425 -1.5249356
2.7720597 -8.5590496 -1.5280242
2.7132392 -8.5561762 -1.5244209
2.6516395 -8.5434942 -1.5191017
2.5943034 -8.5435781 -1.5161848
2.5339828 -8.5328913 -1.5113804
2.4851472 -8.5605783 -1.513611
2.4409041 -8.6050482 -1.5189302
2.3828006 -8.6008739 -1.5154984
2.3279252 -8.6077242 -1.5141258
2.2755678 -8.6237516 -1.5144689
2.2213838 -8.632781 -1.513611
2.1638212 -8.6280928 -1.5103509
2.1080358 -8.6297226 -1.5082918
2.0593729 -8.6607056 -1.511552
2.0028646 -8.6587811 -1.5089782
1.9488336 -8.6670618 -1.5082918
1.8985581 -8.6923323 -1.510694
0.54839593 -2.5828695 -0.42095631
0.52658933 -2.5572355 -0.41580877
0.51704353 -2.5913372 -0.42129949
0.5000152 -2.5886567 -0.42026997
0.48791203 -2.6120145 -0.42387328
0.46821076 -2.5945978 -0.42026997
1.5151448 -8.7173042 -1.5021148
1.4486187 -8.6487045 -1.4883879
0.43086895 -2.667943 -0.43176618
0.41614813 -2.6812458 -0.43365362
0.40287197 -2.7051876 -0.4374285
1.1639363 -8.1754417 -1.3993353
1.0317214 -7.5791464 -1.2932956
0.3467997 -2.6642725 -0.42902082
0.33165297 -2.6761277 -0.43073669
0.94998443 -8.0909777 -1.3799461
0.90162605 -8.1084042 -1.3820051
0.85411686 -8.1353388 -1.38578
0.79876733 -8.0855236 -1.3761712
0.74342662 -8.02847 -1.3653613
0.67569178 -7.8189087 -1.3279558
0.6282537 -7.8297815 -1.3291569
0.57990873 -7.8295593 -1.3284706
0.53498644 -7.8791671 -1.3365351
0.50055987 -8.1084623 -1.3759997
0.4447999 -8.0031786 -1.3571253
0.17515135 -3.5306375 -0.5767557
0.33611196 -7.7659073 -1.3149153
0.2983225 -8.0346222 -1.3614149
0.25017142 -8.07372 -1.3679352
0.20125982 -8.1007099 -1.3723963
0.15392795 -8.2298422 -1.3947024
0.10662234 -8.4877405 -1.4394861
0.05677085 -8.8428888 -1.5012568
0.0025135435 -8.8608036 -1.5043454
-0.051949687 -8.8764153 -1.5070908
-0.10638949 -8.8739586 -1.5067476
-0.16090901 -8.877079 -1.5074339
-0.21585526 -8.8956223 -1.5108657
-0.27082461 -8.9069319 -1.5130962
-0.32525474 -8.8991947 -1.5120667
-0.37930509 -8.8842363 -1.5098361
-0.43381059 -8.8817415 -1.5098361
-0.48943853 -8.8995695 -1.5134394
-0.54445785 -8.9032822 -1.5146406
-0.59967381 -8.9086208 -1.5161848
-0.65345687 -8.8929834 -1.5141258
-0.7061305 -8.8652372 -1.5100077
-0.76253825 -8.8842945 -1.5141258
-0.82001996 -8.9118223 -1.519788
-0.87603629 -8.9203491 -1.5221902
-0.93157345 -8.9226446 -1.5235629
-0.98467761 -8.9020729 -1.5209892
-1.0409979 -8.9105406 -1.5235629
-1.0956523 -8.903986 -1.5235629
-1.1493804 -8.8902559 -1.5223619
-1.2043056 -8.8859644 -1.5228766
-1.2567298 -8.8637772 -1.5203029
-1.3158587 -8.8880587 -1.5259651
-1.3672121 -8.8593712 -1.5223619
-1.4213901 -8.849843 -1.5221902
-1.467549 -8.7923689 -1.513611
-1.5298842 -8.8317337 -1.5221902
-0.53378117 -2.9771893 -0.48787457
-0.55239916 -2.975795 -0.48821771
-0.57232296 -2.9810565 -0.48976198
-0.59463662 -2.9977803 -0.49336529
-0.61460328 -3.0017958 -0.49473795
-1.888377 -8.9323273 -1.5511882
-1.9263649 -8.8435669 -1.5374614
-0.66802675 -2.9822843 -0.49336529
-0.68298912 -2.9637303 -0.4907915
-0.69410932 -2.929769 -0.48547235
-0.71674025 -2.9445975 -0.48890406
-2.1828578 -8.724885 -1.5275095
-2.2407632 -8.7285023 -1.5305979
-2.2837386 -8.6745768 -1.5233914
-0.78262568 -2.9032941 -0.48478603
-0.79596078 -2.8822956 -0.48186907
-0.81121534 -2.8688264 -0.4803248
-0.83017409 -2.868526 -0.48118272
-2.531672 -8.5428247 -1.5129247
-2.6157699 -8.6317797 -1.5319706
-2.6765578 -8.640975 -1.5366035
-1.0160034 -3.2126424 -0.54792941
-1.0447909 -3.2344689 -0.55307692
-1.066162 -3.2326748 -0.55393487
-2.8717661 -8.525074 -1.5278525
-1.1054313 -3.2184165 -0.55376327
-1.1346139 -3.2385328 -0.55873924
-1.1375444 -3.1842008 -0.54998839
-3.069319 -8.422411 -1.5223619
-3.1243713 -8.4126539 -1.5240777
-1.1638756 -3.0779572 -0.53420258
-1.1774234 -3.0569696 -0.53162879
-1.2011992 -3.0625257 -0.53403097
-1.2462962 -3.1209626 -0.54638511
-3.3995214 -8.3584824 -1.532657
-3.4522514 -8.3411074 -1.5333433
-3.5014544 -8.3152275 -1.5324854
-3.5493057 -8.2863426 -1.5311127
-3.6166124 -8.3023405 -1.5383192
-3.6662893 -8.2772913 -1.5378045
-3.7291472 -8.2815866 -1.5429521
-1.3196009 -2.8849628 -0.51361233
-1.3335375 -2.8687725 -0.51206809
-3.8653724 -8.1785879 -1.5366035
-3.922307 -8.1689253 -1.5393488
-3.9719248 -8.1438198 -1.5391772
-4.0305676 -8.1369495 -1.5426089
-4.0844045 -8.1199856 -1.5441532
-4.134151 -8.0947714 -1.5441532
-4.177845 -8.0578833 -1.5419226
-4.2244549 -8.0268669 -1.5408931
-4.2731633 -7.9999256 -1.5407214
-4.3268652 -7.9822159 -1.5424373
-4.3838353 -7.97019 -1.5453542
-4.4312162 -7.9405608 -1.5448395
-4.4856806 -7.9235091 -1.5468985
-4.5567865 -7.935132 -1.5547915
-4.6004305 -7.8985105 -1.5530757
-4.6573277 -7.8845534 -1.5559926
-4.6863775 -7.8237147 -1.5494723
-4.7056494 -7.7476625 -1.5398636
-4.7246819 -7.6725087 -1.5304264
-4.7393179 -7.5915656 -1.519788
-4.7968755 -7.5798235 -1.5233914
-4.8560629 -7.5701475 -1.5275095
-4.9185343 -7.5649848 -1.532657
-4.9735341 -7.5478239 -1.5354023
-5.0503969 -7.5630412 -1.5450112
-5.1226621 -7.5702553 -1.5530757
-5.1924191 -7.5728035 -1.5602822
-5.2595882 -7.570734 -1.5666308
-5.2758837 -7.4956255 -1.5575368
-5.3126235 -7.4502792 -1.5547915
-5.3605452 -7.4207354 -1.5554779
-5.4112139 -7.3948588 -1.5570221
-5.4787827 -7.3915896 -1.5635424
-5.5340905 -7.3712254 -1.5664593
-5.5821972 -7.3410506 -1.5673171
-5.6343503 -7.3160262 -1.5693762
-5.6967082 -7.3038425 -1.5743521
-5.7463026 -7.2749348 -1.5757248
-5.7963719 -7.2464623 -1.5772691
-5.8432069 -7.2138219 -1.5779555
-5.8748627 -7.1626 -1.5745238
-5.9155536 -7.1226287 -1.5736659
-5.9711947 -7.100522 -1.576926
-6.0261483 -7.07725 -1.5800145
-6.0849013 -7.0580468 -1.5841326
-6.1391091 -7.0331936 -1.5870495
-6.1769285 -6.9894872 -1.5856768
-6.2085299 -6.9389749 -1.5827599
-6.258266 -6.9087801 -1.5846473
-6.3131928 -6.8840442 -1.5879074
-6.3579955 -6.8480649 -1.5885937
-6.4079924 -6.8175373 -1.5906528
-6.4483452 -6.7766633 -1.5903096
-4.1506243 -4.3093042 -1.003145
-4.2203259 -4.3281841 -1.0139549
-4.2391891 -4.2944965 -1.0120674
-4.3309321 -4.3338966 -1.0281965
-4.3364201 -4.2864676 -1.0230489
-3.501821 -3.4195769 -0.81354332
-3.4879856 -3.3645201 -0.80513561
-3.3915663 -3.2316294 -0.77699566
-3.4142015 -3.2134585 -0.77768201
-4.5481381 -4.2278819 -1.0426096
-3.5114415 -3.2246132 -0.79140884
-3.5311613 -3.2030067 -0.79140884
-3.5749669 -3.2029679 -0.7970711
-3.4986224 -3.0961204 -0.77476507
-3.4136853 -2.9838519 -0.75074309
-3.4214873 -2.9538393 -0.7483409
-4.6355033 -3.9520125 -1.0220194
-3.7619817 -3.167927 -0.81766135
-3.8245323 -3.1806805 -0.82744169
-4.5566945 -3.7422485 -0.98804545
-4.5497251 -3.6900225 -0.98135364
-4.6061196 -3.6891274 -0.9889034
-4.6356244 -3.6662943 -0.99044764
-4.6611395 -3.6402066 -0.99113399
-4.6966519 -3.6217625 -0.99405098
-4.769743 -3.6316583 -1.005204
-4.8045378 -3.6117928 -1.0079494
-4.842433 -3.5939844 -1.011381
-4.7555075 -3.4844537 -0.98787391
-4.8143206 -3.4823387 -0.99593842
-4.8155503 -3.4384251 -0.99164879
-4.7995105 -3.3827126 -0.98375583
-4.8444409 -3.3700728 -0.9889034
-4.8682775 -3.3425143 -0.98958975
-4.9115343 -3.3280494 -0.99439412
-4.8376708 -3.2348928 -0.97466183
-4.9166412 -3.2442026 -0.98701596
-4.8728752 -3.1725967 -0.97380388
-4.8035479 -3.0856829 -0.95544428
-4.9447308 -3.1336477 -0.98066729
