# .PCD v0.7 - Point Cloud Data file format
VERSION 0.7
FIELDS x y z
SIZE 4 4 4
TYPE F F F
COUNT 1 1 1
WIDTH 1585
HEIGHT 1
VIEWPOINT 0 0 0 1 0 0 0
POINTS 1585
DATA ascii
-5.7516747 -3.6478901 -0.22605053
-3.9357748 -2.4623072 -0.14237052
-3.3368771 -2.0591705 -0.11452861
-3.9153368 -2.3831661 -0.14009535
-3.9016149 -2.3421228 -0.13882281
-4.3079987 -2.5502923 -0.15640718
-4.3649874 -2.5479944 -0.15825815
-3.9354045 -2.2649248 -0.13843718
-4.6001563 -2.6101382 -0.16732028
-4.6780024 -2.6165006 -0.17005819
-3.808418 -2.0994644 -0.13103324
-4.6491771 -2.5259764 -0.16739741
-4.4619803 -2.3889067 -0.15852809
-4.4473896 -2.3460956 -0.15725555
-4.3916578 -2.2823536 -0.15420912
-4.3797855 -2.2421567 -0.15309082
-4.3747239 -2.2057915 -0.15228102
-4.4150252 -2.1922414 -0.15343788
-7.710279 -3.7700047 -0.29442134
-7.6468325 -3.6810124 -0.29071936
-7.8074327 -3.6994958 -0.29661939
-5.7570686 -2.6846974 -0.20835048
-5.7761579 -2.6505725 -0.20846616
-33.562721 -15.154812 -1.3843437
-33.725395 -14.979824 -1.387313
-5.8752465 -2.5662048 -0.21062565
-5.8394666 -2.5080202 -0.20846616
-5.8492222 -2.4698102 -0.20823479
-5.8190446 -2.4151015 -0.20634523
-34.674206 -14.144334 -1.408368
-9.4832411 -3.8003967 -0.35747054
-9.6263247 -3.7893577 -0.36244509
-23.348282 -9.0264845 -0.92923248
-23.282715 -8.837307 -0.92425793
-35.609577 -13.266981 -1.4296929
-23.605263 -8.6298456 -0.93312728
-35.782871 -12.83372 -1.4302328
-35.900536 -12.627846 -1.4318523
-11.449361 -3.9481957 -0.43058449
-7.8524861 -2.653918 -0.28308403
-7.8629308 -2.603801 -0.28285268
-7.808423 -2.5326884 -0.27999908
-29.241581 -9.2878456 -1.1472247
-29.297066 -9.1079512 -1.1471862
-36.733727 -11.173274 -1.444925
-29.778244 -8.8582964 -1.1621482
-9.7870522 -2.8458796 -0.35654506
-9.7293568 -2.764468 -0.3535372
-9.6113367 -2.6673026 -0.34813848
-12.900957 -3.495255 -0.47901866
-12.883518 -3.4058139 -0.47747615
-9.7091198 -2.5029106 -0.35014373
-15.436312 -3.8787112 -0.57742941
-13.124557 -3.212285 -0.48464873
-15.600365 -3.7170191 -0.58209544
-13.091927 -3.0345113 -0.4818337
-11.49894 -2.5909882 -0.41809034
-15.631974 -3.4217582 -0.58074576
-11.462427 -2.4353518 -0.41542956
-16.05154 -3.3077309 -0.59566933
-16.00098 -3.1950884 -0.59289289
-0 -0 -0
-19.793083 -3.7004161 -0.74027765
-19.806566 -3.5772996 -0.73993057
-0 -0 -0
-19.594728 -3.2912631 -0.72998154
-19.886812 -3.2149904 -0.74062467
-0 -0 -0
-25.899214 -3.8615947 -0.97373325
-26.083664 -3.7256408 -0.98001891
-26.203058 -3.5787776 -0.98379803
-32.154903 -4.190949 -1.2145928
-24.04652 -2.9840949 -0.89830559
-24.054453 -2.8353221 -0.89791995
-24.074377 -2.6880062 -0.89803565
-41.141094 -4.338448 -1.5596861
-41.156998 -4.0849423 -1.5593004
-41.207157 -3.8347385 -1.5603031
-41.206017 -3.5797482 -1.5593776
-41.250114 -3.3286943 -1.5602646
-0 -0 -0
-0 -0 -0
-0 -0 -0
-0 -0 -0
-0 -0 -0
-0 -0 -0
-0 -0 -0
-0 -0 -0
-0 0 -0
-0 0 -0
-0 0 -0
-0 0 -0
-0 0 -0
-37.033199 3.8832097 -1.8688669
-0 0 -0
-0 0 -0
-0 0 -0
-0 0 -0
-0 0 -0
-0 0 -0
-37.186947 5.5224466 -1.8872175
-37.27869 5.7700748 -1.8937603
-37.476261 6.0363498 -1.9058748
-0 0 -0
-0 0 -0
-0 0 -0
-0 0 -0
-37.985409 7.3203101 -1.9429849
-37.963284 7.5579271 -1.9442117
-0 0 -0
-37.969284 8.0447578 -1.9495277
-0 0 -0
-0 0 -0
-0 0 -0
-38.383232 9.1221848 -1.982293
-38.381836 9.3710308 -1.9852066
-0 0 -0
-0 0 -0
-38.676987 10.200996 -2.0103045
-38.660904 10.450893 -2.0128093
-0 0 -0
-0 0 -0
-38.659569 11.218082 -2.023339
-0 0 -0
-38.505615 11.687589 -2.0226235
-38.301548 11.882793 -2.0155694
-38.276466 12.132976 -2.0181763
-0 0 -0
-0 0 -0
-37.811028 12.755966 -2.0054486
-37.648003 12.958798 -2.0008993
-0 0 -0
-37.379898 13.381783 -1.9951231
-37.222031 13.583497 -1.9910339
-36.831898 13.697787 -1.974319
-0 0 -0
-36.623764 14.134356 -1.9722743
-36.405289 14.3073 -1.965067
-36.292709 14.520762 -1.963738
-36.079914 14.693076 -1.9569396
-35.995537 14.916859 -1.9572974
-35.793823 15.091268 -1.9512146
-35.581234 15.259435 -1.9445696
-0 0 -0
-35.265312 15.639048 -1.9375155
-0 0 -0
-34.895515 15.99033 -1.9276502
-34.719791 16.168304 -1.9233054
-34.594654 16.369076 -1.921874
-34.477364 16.573248 -1.920954
-34.343613 16.769148 -1.919165
-34.196232 16.957819 -1.9166603
-0 0 -0
-33.844177 17.30389 -1.9085329
-33.680637 17.481781 -1.9052614
-33.523258 17.662043 -1.9023989
-33.37022 17.843857 -1.8998432
-33.227627 18.030653 -1.8979518
-33.056881 18.201437 -1.8944761
-32.904469 18.381521 -1.8921247
-0 0 -0
-32.53183 18.700802 -1.8835883
-32.180943 18.76273 -1.8696337
-32.035984 18.942551 -1.8678957
-31.892599 19.122843 -1.8663112
-31.667143 19.252796 -1.8598706
-31.546715 19.445692 -1.8597683
-31.396315 19.619839 -1.8579282
-31.233156 19.785391 -1.8553723
-31.046461 19.93511 -1.8514365
-30.979637 20.161732 -1.8548613
-0 0 -0
-30.619463 20.466566 -1.8480628
-30.396564 20.588528 -1.8420823
-0 0 -0
-0 0 -0
-30.099802 21.206089 -1.8475516
-29.921972 21.356726 -1.844587
-29.895573 21.615997 -1.8512319
-0 0 -0
-0 0 -0
-29.027176 21.81282 -1.8214314
-0 0 -0
-28.800816 22.200922 -1.8242428
-0 0 -0
-28.59358 22.605949 -1.8286388
-0 0 -0
-0 0 -0
-0 0 -0
-28.070894 23.3347 -1.8313479
-27.859186 23.449261 -1.8267986
-0 0 -0
-27.508842 23.737173 -1.8227093
-27.364182 23.906832 -1.8228116
-27.163118 24.026644 -1.8191313
-26.564346 23.789099 -1.788155
-26.253632 23.802723 -1.7768073
-25.976864 23.843826 -1.7677598
-25.651571 23.836884 -1.7552875
-25.43791 23.930872 -1.7505848
-25.227678 24.026581 -1.7461377
-25.008606 24.112295 -1.7410773
-24.616486 24.027409 -1.7236468
-24.318707 24.029884 -1.7128613
-24.022535 24.030321 -1.702127
-23.702719 24.00316 -1.6896037
-23.472012 24.06307 -1.6835208
-23.226912 24.105951 -1.6763647
-22.925716 24.087412 -1.6650169
-22.646151 24.087919 -1.6552026
-22.397348 24.118109 -1.6476375
-22.198986 24.200621 -1.643855
-22.005819 24.287527 -1.6404812
-21.628614 24.167574 -1.6229997
-21.397903 24.207043 -1.6166613
-21.210875 24.294247 -1.6136966
-21.011845 24.366455 -1.6098118
-20.814022 24.438658 -1.6060292
-20.569824 24.454323 -1.5985663
-20.358126 24.506327 -1.5936592
-20.174438 24.59063 -1.5910012
-19.983566 24.665068 -1.5877808
-19.768211 24.707676 -1.582567
-19.641619 24.860636 -1.5846628
-19.500378 24.995649 -1.585634
-19.328358 25.091095 -1.5841005
-19.216963 25.265657 -1.5877297
-18.951233 25.236151 -1.5783244
-18.767481 25.31345 -1.5758709
-18.624784 25.445858 -1.5769954
-18.441982 25.52323 -1.5746952
-18.285606 25.636721 -1.5747463
-18.122784 25.741087 -1.5742862
-17.985584 25.882147 -1.5761775
-17.908337 26.111443 -1.5835893
-17.997997 26.590536 -1.6064382
-17.755737 26.582539 -1.5991796
-17.556025 26.63595 -1.595806
-17.386271 26.733961 -1.5952437
-17.992027 28.040459 -1.6682372
-17.855957 28.207708 -1.6717131
-17.829058 28.551392 -1.6858722
-12.259568 19.902546 -1.1594299
-17.816452 29.326248 -1.7193019
-17.64798 29.45472 -1.7204776
-17.497904 29.614902 -1.7235956
-17.373672 29.820948 -1.7294739
-17.217724 29.974621 -1.7322854
-9.5985947 16.949284 -0.95997584
-16.954216 30.372887 -1.7433776
-16.81856 30.569096 -1.7487957
-16.786804 30.959686 -1.7655618
-16.543344 30.962568 -1.7597857
-11.0624 21.012812 -1.178445
-10.91257 21.040398 -1.1761448
-11.036771 21.603231 -1.2046674
-0 0 -0
-0 0 -0
-12.207007 25.020567 -1.3879178
-12.063631 25.116602 -1.3891445
-10.419267 22.038157 -1.2106991
-9.2938604 19.973764 -1.0905769
-10.841023 23.678095 -1.2959093
-10.614328 23.563871 -1.2857883
-9.7717247 22.053469 -1.1976135
-0 0 -0
-0 0 -0
-9.8463821 23.374557 -1.2612016
-10.152007 24.519684 -1.3213139
-10.008141 24.598166 -1.3222339
-9.8800011 24.716608 -1.3254031
-9.8650141 25.125374 -1.3445716
-9.9129143 25.710058 -1.3733498
-9.9674377 26.331751 -1.4040704
-9.9416637 26.758463 -1.4240568
-10.094007 27.687824 -1.47139
-10.038595 28.069906 -1.4888206
-9.9715977 28.431608 -1.5051265
-10.062561 29.264805 -1.5469393
-10.100933 29.973341 -1.5819025
-10.272182 31.11113 -1.639919
-10.404332 32.173237 -1.6936929
-10.217577 32.270748 -1.695533
-10.171301 32.823166 -1.7218066
-10.198008 33.638084 -1.7620859
-10.073732 33.977703 -1.7769095
-0 0 -0
-7.0987701 25.067104 -1.2964716
-6.895319 24.931152 -1.2869639
-6.6643953 24.684702 -1.2716804
-6.4627023 24.534874 -1.2616105
-6.3170056 24.593412 -1.2626328
-6.1296134 24.486387 -1.2549654
-6.0140214 24.666168 -1.2624795
-5.8383498 24.600576 -1.2571124
-5.6870689 24.634964 -1.2570612
-5.5065093 24.538816 -1.2502117
-5.3630681 24.605318 -1.2519497
-5.2256303 24.70225 -1.2553233
-5.0695477 24.712324 -1.2541987
-5.5924525 28.138056 -1.4313663
-5.3981919 28.06004 -1.4255391
-2.7406247 14.729571 -0.7298522
-2.6440139 14.711706 -0.72806317
-2.5301595 14.591858 -0.72100919
-2.4300497 14.544065 -0.71773773
-2.3252344 14.46207 -0.71272838
-2.2358434 14.472116 -0.71252394
-2.1434898 14.461853 -0.71129715
-2.0349338 14.335313 -0.70408982
-1.8964725 13.975428 -0.68487024
-1.8129916 14.004628 -0.68579036
-1.7688919 14.355473 -0.70332307
-1.6906327 14.450371 -0.70766795
-1.5989681 14.433672 -0.7062878
-1.512762 14.466057 -0.70746344
-1.4262184 14.497926 -0.70863914
-1.3458437 14.599886 -0.71344399
-1.2642711 14.701402 -0.7182489
-1.1811063 14.797484 -0.72279823
-1.0987881 14.91999 -0.72872764
-1.0303231 15.269223 -0.74631155
-0.94082564 15.344038 -0.74983853
-1.1107491 20.143969 -0.99560356
-0.70824009 14.450694 -0.70352757
-0.62173599 14.505654 -0.70613444
-0.5473811 14.909404 -0.72663194
-0.45153567 14.769734 -0.71932232
-0.36053708 14.757252 -0.71855563
-0.26936316 14.725236 -0.71681768
-0.17966901 14.781535 -0.71962905
-0.088078059 14.632559 -0.71196169
0.0017033698 14.612849 -0.71093935
0.091283888 14.599582 -0.71027482
0.18103784 14.612727 -0.71099049
0.27110517 14.633308 -0.71211499
0.36113542 14.641354 -0.71262616
0.45223033 14.679789 -0.71472192
0.54709947 14.806479 -0.721367
0.64280784 14.91559 -0.72714305
0.74400836 15.107869 -0.7372129
1.4143343 25.515358 -1.2709647
1.5685323 25.468321 -1.2690223
1.7240304 25.447258 -1.26846
1.8792554 25.424248 -1.2678467
2.0326676 25.380383 -1.2662109
2.1877592 25.360468 -1.2658532
2.3378079 25.2869 -1.2627861
2.4941964 25.285 -1.2634507
2.648566 25.262266 -1.2630929
2.8059487 25.267376 -1.2642174
2.9619808 25.258612 -1.2646775
3.1171539 25.241943 -1.2647797
3.273262 25.232246 -1.2652909
3.4309838 25.233458 -1.2664154
3.5863113 25.215885 -1.2666199
2.3490601 15.822617 -0.78173482
3.89991 25.198597 -1.2681023
2.3452899 14.565054 -0.71809554
4.214448 25.182331 -1.2698401
4.3770895 25.203228 -1.2722937
4.5422692 25.234869 -1.2753607
4.7076354 25.263468 -1.2783254
4.8657737 25.250778 -1.2791944
5.0252986 25.243954 -1.2804211
5.1989951 25.3046 -1.2852261
5.3759022 25.374807 -1.2905933
5.5404449 25.382322 -1.2927401
5.6884179 25.313745 -1.290951
5.8659062 25.374695 -1.2960114
6.0286517 25.368345 -1.2975961
6.2067013 25.423044 -1.3024521
6.3701057 25.414513 -1.3040367
6.5366244 25.416538 -1.3062347
6.7026429 25.414577 -1.3082793
4.3190179 15.979929 -0.81025743
4.4129896 15.93869 -0.80949074
5.8361912 20.585655 -1.0581694
5.9440217 20.486155 -1.0547957
4.334425 14.604404 -0.74273342
7.6637111 25.250036 -1.3135953
7.8072519 25.166292 -1.3116529
7.9654455 25.130291 -1.3123175
8.1253376 25.098995 -1.3132887
8.2911005 25.084698 -1.3152311
8.4566736 25.068365 -1.3171223
8.6178083 25.037724 -1.318298
8.7944345 25.050335 -1.3218762
8.9712029 25.06078 -1.3254031
9.1333637 25.028715 -1.326681
9.3013878 25.011517 -1.3288279
9.481575 25.024948 -1.3327127
9.6504097 25.006363 -1.3349106
9.8208342 24.990364 -1.3373131
9.9851179 24.957451 -1.3388466
10.149744 24.924387 -1.3404312
10.320074 24.904079 -1.3427825
10.48821 24.877096 -1.3448272
10.668605 24.877439 -1.3484564
6.4002037 14.676176 -0.78250158
11.046776 24.910801 -1.3577595
11.225689 24.900818 -1.3610308
11.397405 24.873234 -1.3633822
11.574265 24.855341 -1.366347
11.776962 24.890375 -1.3723786
11.954994 24.87075 -1.3753945
12.149443 24.88308 -1.3803016
12.360464 24.926165 -1.3870488
12.559893 24.942617 -1.3923649
12.742708 24.923769 -1.3957385
12.924385 24.900955 -1.3989588
8.4108152 15.965371 -0.88662457
13.334007 24.936869 -1.4103577
13.542499 24.957281 -1.4163382
13.731027 24.938454 -1.4201208
13.909116 24.899069 -1.4227788
8.3746223 14.778874 -0.83244175
11.891134 20.686615 -1.1842722
14.614079 25.065887 -1.4480811
14.803189 25.035921 -1.4516593
14.970395 24.967745 -1.4530394
15.277928 25.129713 -1.468272
15.482144 25.117109 -1.4731791
15.710597 25.141054 -1.4803864
10.042648 15.854366 -0.9235813
16.128557 25.118639 -1.4908651
16.384796 25.176563 -1.5004749
10.195848 15.459246 -0.91085351
10.305498 15.418812 -0.91223359
10.656994 15.734814 -0.93569577
17.392769 25.342436 -1.5362049
10.548219 15.169935 -0.90870661
17.795635 25.259348 -1.5444857
17.994385 25.211458 -1.5483705
18.31669 25.332836 -1.5630407
18.550863 25.32793 -1.5698903
18.773764 25.305061 -1.5757174
18.985077 25.264439 -1.5805224
19.280676 25.332632 -1.5924324
19.468067 25.255772 -1.5951415
19.734522 25.279112 -1.6044446
11.919434 15.077418 -0.94673681
0 0 -0
0 0 -0
12.090377 14.728107 -0.9383027
12.165835 14.635982 -0.93712705
21.246508 25.242348 -1.6517267
17.909912 21.015434 -1.3762634
18.045048 20.912706 -1.3767745
21.821215 24.9771 -1.6605698
21.997881 24.869667 -1.66241
22.189375 24.778116 -1.6654258
22.390633 24.696247 -1.6692084
22.614008 24.637117 -1.6746778
22.803505 24.539597 -1.6775914
22.995392 24.443584 -1.6807095
23.180069 24.338909 -1.6833163
23.401068 24.270988 -1.6886324
15.788013 16.175657 -1.1199174
23.834734 24.121225 -1.6986511
24.086826 24.079018 -1.7062163
24.22488 23.921648 -1.7055517
16.306057 15.906057 -1.1289138
16.317762 15.723248 -1.122831
16.755392 15.947799 -1.1469576
25.320553 23.804924 -1.7417929
25.471264 23.653868 -1.7421508
17.009302 15.602932 -1.1444019
23.736143 21.506271 -1.6023999
23.671183 21.184404 -1.5889053
23.765553 21.007677 -1.5865029
24.064034 21.009895 -1.5980551
24.180393 20.85141 -1.5972372
26.215559 22.327271 -1.725487
26.363527 22.175638 -1.7262537
26.445322 21.968786 -1.7226756
26.654518 21.867548 -1.7276338
26.771122 21.689758 -1.7265093
26.927099 21.543802 -1.7280427
26.988253 21.322456 -1.7234423
19.899361 15.524805 -1.2548121
19.997408 15.404851 -1.2550166
0 0 -0
27.216703 20.438427 -1.7050917
27.406584 20.319218 -1.7092321
0 0 -0
27.740486 20.043949 -1.7147015
23.158434 16.518087 -1.4189452
22.762024 16.025566 -1.3878156
22.978848 15.968232 -1.3952274
28.396994 19.47574 -1.7254359
28.544909 19.320726 -1.7272249
0 0 -0
28.801535 18.983271 -1.7285539
0 0 -0
29.070986 18.65321 -1.7309053
29.206833 18.488369 -1.7322342
29.343445 18.323622 -1.7336655
29.470631 18.152657 -1.7345856
28.862774 17.534901 -1.6915461
26.447676 15.846428 -1.5410609
26.474762 15.642702 -1.5369205
26.498621 15.438236 -1.5326779
26.540888 15.245508 -1.529611
28.599716 16.195461 -1.6452351
28.725584 16.034761 -1.6468197
28.861933 15.879384 -1.6490687
29.380241 15.930473 -1.6736044
29.597235 15.813902 -1.6805562
29.759106 15.666424 -1.6843387
29.916733 15.515714 -1.6879168
30.551222 15.607624 -1.7189441
30.851606 15.523107 -1.7307007
31.000862 15.360559 -1.7338189
31.39522 15.316736 -1.7509427
31.299557 15.033017 -1.7402084
31.55102 14.91623 -1.7492559
31.978794 14.879069 -1.768271
32.60252 14.926591 -1.7982759
33.171555 14.941582 -1.8251117
34.019566 15.07312 -1.8674868
34.760544 15.146933 -1.903728
35.342117 15.142987 -1.9309727
35.612923 15.001053 -1.9408892
35.528053 14.709291 -1.9311261
35.921989 14.614832 -1.9479432
0 0 -0
35.578972 13.968904 -1.9193695
35.446892 13.66663 -1.9074594
0 0 -0
35.315166 13.120367 -1.8912557
0 0 -0
0 0 -0
35.345238 12.396061 -1.8801124
0 0 -0
0 0 -0
35.007893 11.55865 -1.8499541
35.020191 11.324885 -1.846836
0 0 -0
0 0 -0
34.944592 10.594051 -1.8319613
34.881588 10.341684 -1.8251629
34.684437 10.052132 -1.8113105
34.827141 9.8622494 -1.8156554
34.536625 9.5514803 -1.7970492
0 0 -0
34.196362 9.0071478 -1.7729737
34.523762 8.8672056 -1.7873883
0 0 -0
0 0 -0
0 0 -0
33.841557 7.8119965 -1.7406684
33.932701 7.6140394 -1.7429686
33.977806 7.4054766 -1.7429174
34.083183 7.2096653 -1.7460866
34.174721 7.010231 -1.7485913
34.246475 6.8062463 -1.7501248
34.345455 6.6071148 -1.7531407
34.458008 6.4097638 -1.7569232
34.378735 6.1770229 -1.7507893
34.405163 5.964087 -1.7502271
34.54454 5.7701411 -1.7555943
34.522106 5.5488811 -1.7526295
34.5634 5.338172 -1.7530384
0 0 -0
34.695518 4.9234438 -1.7566165
34.867584 4.7297897 -1.7639772
35.00985 4.5304928 -1.7698555
0 0 -0
35.11042 4.1060934 -1.7723091
35.19352 3.8970659 -1.7753249
35.269413 3.6865499 -1.7780341
35.255589 3.4665544 -1.7761939
35.258297 3.2485163 -1.7752738
35.304428 3.0344226 -1.7766539
35.398045 2.8237746 -1.7805388
35.398769 2.6053507 -1.7797209
35.420067 2.3885019 -1.7800276
35.434055 2.1711235 -1.7800276
35.454689 1.9541028 -1.7804365
35.437084 1.7351047 -1.7789541
35.445068 1.5175488 -1.7788519
35.455708 1.3001065 -1.7789541
0 0 -0
35.509926 0.86590946 -1.7810498
35.530548 0.64829928 -1.7818677
35.590778 0.43096316 -1.7847813
0 0 -0
0 -0 -0
31.179546 -0.19627415 -1.5589004
27.34407 -0.33978295 -1.3626666
27.3225 -0.50720364 -1.3616954
27.300901 -0.67439711 -1.3607752
27.286268 -0.8415913 -1.3602642
26.168808 -0.96783286 -1.303321
25.392105 -1.0951272 -1.2638596
27.315031 -1.3461105 -1.3627688
27.346144 -1.5158997 -1.3648134
25.641766 -1.5792222 -1.2779164
25.627607 -1.7362572 -1.277712
25.658302 -1.8965665 -1.2798588
19.606474 -1.5699799 -0.96973896
27.272844 -2.3528216 -1.3640978
19.965611 -1.8456012 -0.9892652
19.918131 -1.964542 -0.98742503
19.917622 -2.0879705 -0.98803842
30.539993 -3.3917189 -1.5357449
10.598466 -1.2421603 -0.50918502
10.576769 -1.3054537 -0.5084694
10.554694 -1.3685275 -0.50775379
10.530265 -1.4311106 -0.50693595
10.569734 -1.5025889 -0.5094406
10.577108 -1.5699097 -0.51030958
13.865616 -2.1454084 -0.68113881
13.910363 -2.2398176 -0.68415463
14.304142 -2.3933926 -0.7053166
13.716525 -2.381634 -0.67556715
13.758661 -2.4760163 -0.67853189
29.115007 -5.4255185 -1.478853
29.06646 -5.6012273 -1.4780862
28.94829 -5.7628932 -1.4737413
28.799885 -5.9172893 -1.467863
28.808954 -6.103621 -1.4702655
28.586552 -6.2400131 -1.4606045
28.410337 -6.3844194 -1.4533973
28.253866 -6.5316243 -1.4472634
28.126783 -6.6843095 -1.442714
28.068747 -6.8527389 -1.4418451
27.984514 -7.0143938 -1.4396471
27.913866 -7.1790056 -1.4382159
24.805244 -6.5419135 -1.2760252
8.1911173 -2.2132874 -0.39729244
8.1331091 -2.2512441 -0.39494109
7.9567657 -2.2550607 -0.3863025
7.9427791 -2.3038402 -0.3863025
7.9725337 -2.365607 -0.38865384
7.9884486 -2.423764 -0.39028955
8.0039492 -2.4822049 -0.39192525
8.1313677 -2.5765393 -0.39959264
7.9111271 -2.5602427 -0.38860273
26.462469 -8.7465544 -1.3895024
26.430069 -8.9161043 -1.390678
26.358809 -9.0725813 -1.3898091
26.632448 -9.349946 -1.4076997
26.614067 -9.5273218 -1.4098465
18.880926 -6.8896365 -0.99171877
25.828684 -9.60532 -1.3734521
18.23369 -6.9081316 -0.96099812
18.548733 -7.1579704 -0.98062664
18.471003 -7.2584972 -0.97878647
25.277342 -10.113118 -1.3564816
25.192614 -10.258986 -1.3552548
25.121811 -10.410313 -1.3548459
25.053782 -10.562709 -1.3546414
24.946278 -10.698129 -1.35229
24.821579 -10.825441 -1.3490187
24.69626 -10.951627 -1.3457472
24.56851 -11.075862 -1.3423736
24.474667 -11.214753 -1.3409424
24.377327 -11.351645 -1.3393577
24.272913 -11.484776 -1.3374153
24.150682 -11.608831 -1.3345017
24.028742 -11.732258 -1.3316393
23.907093 -11.85507 -1.3288279
23.807142 -11.988062 -1.3272943
23.712685 -12.123457 -1.3261187
23.627214 -12.263206 -1.3255054
23.53562 -12.39957 -1.3245853
23.441481 -12.534328 -1.323563
23.390463 -12.692217 -1.3250964
12.894666 -7.0991158 -0.71640873
23.272182 -13.000217 -1.3273966
23.200665 -13.147693 -1.3279078
12.515053 -7.1934042 -0.7018407
12.579385 -7.3334436 -0.70828134
12.604642 -7.4521747 -0.7124728
22.788792 -13.6638 -1.3230007
12.426908 -7.5544076 -0.70736122
22.453623 -13.840231 -1.3130331
21.963457 -13.724749 -1.2885997
21.850145 -13.841084 -1.2868618
21.742958 -13.960862 -1.2855327
21.606665 -14.061325 -1.2824658
21.516645 -14.191437 -1.2822614
21.517172 -14.382025 -1.2876796
21.474825 -14.545146 -1.2905421
21.404112 -14.689637 -1.2917178
21.322594 -14.826966 -1.2922801
21.230398 -14.956944 -1.2922289
21.094332 -15.055599 -1.2894686
20.926291 -15.130325 -1.2847149
20.545433 -15.04776 -1.2664665
20.419029 -15.148547 -1.2643197
19.03153 -14.30097 -1.1814609
18.974415 -14.441067 -1.1834544
19.840918 -15.293786 -1.2452023
19.693174 -15.373448 -1.2417264
19.150364 -15.139696 -1.2124882
19.043856 -15.246305 -1.2116193
18.914263 -15.333936 -1.2092679
18.757298 -15.398372 -1.2051275
18.595648 -15.45763 -1.2006804
18.40189 -15.488475 -1.1940864
18.268505 -15.568705 -1.1915307
18.065268 -15.587854 -1.1842722
17.897083 -15.635326 -1.1793652
17.669905 -15.62905 -1.1704198
17.490353 -15.662554 -1.1646949
17.301437 -15.685724 -1.1583054
17.118786 -15.712572 -1.1523248
16.843554 -15.651431 -1.1398525
16.755201 -15.762013 -1.1404148
16.813652 -16.012613 -1.1514047
16.7043 -16.10508 -1.150638
16.235689 -15.846611 -1.1242111
16.116129 -15.924172 -1.1226265
15.973636 -15.978261 -1.1194062
15.49287 -15.688674 -1.0915481
15.330766 -15.716237 -1.0867431
15.16406 -15.73737 -1.0815804
15.048621 -15.810586 -1.0802003
14.700282 -15.635579 -1.0614408
14.538829 -15.655229 -1.0565337
14.42832 -15.728686 -1.0554602
6.88591 -7.5986929 -0.48786974
14.485293 -16.185129 -1.0747309
6.7511368 -7.6362276 -0.48470053
6.68051 -7.6504245 -0.48286039
6.6138768 -7.6685805 -0.48132691
14.813479 -17.392637 -1.1323385
14.959118 -17.783571 -1.1524271
6.5481796 -7.8812079 -0.48746079
6.4996982 -7.9212384 -0.48746079
14.181638 -17.503397 -1.1160326
14.088322 -17.608021 -1.1172082
14.002303 -17.722345 -1.1190484
2.0095773 -2.5741825 -0.13016093
1.9931351 -2.5856733 -0.13010982
1.9687684 -2.5867255 -0.12939419
1.9528594 -2.598757 -0.12939419
1.9446089 -2.6211202 -0.13005869
1.936747 -2.6442854 -0.13077432
1.9280889 -2.6666429 -0.13143882
1.8960332 -2.6564701 -0.13005869
13.015416 -18.486156 -1.120173
12.91542 -18.585352 -1.1213998
10.048719 -14.650739 -0.87231213
12.876697 -19.023649 -1.1387792
12.733657 -19.063269 -1.1363766
12.576878 -19.081003 -1.1326963
12.431252 -19.114277 -1.1300383
12.221514 -19.046457 -1.1212975
12.313797 -19.45188 -1.1413349
11.936614 -19.114525 -1.1164415
11.816486 -19.183155 -1.1161859
11.702706 -19.262127 -1.1165948
11.509359 -19.20849 -1.1091319
11.466973 -19.406866 -1.1167482
11.356225 -19.491531 -1.1176171
11.262776 -19.606743 -1.1203263
11.444891 -20.209944 -1.1517625
11.081679 -19.851612 -1.1266646
10.891788 -19.795856 -1.1194574
10.76869 -19.85968 -1.1193039
10.652749 -19.936834 -1.1199684
10.532079 -20.005358 -1.120173
10.425682 -20.101521 -1.1220131
10.280337 -20.122423 -1.1195595
10.11583 -20.103939 -1.114908
9.9692297 -20.119095 -1.11225
9.8359604 -20.160139 -1.1111255
9.6999683 -20.194906 -1.1096941
9.5984936 -20.301897 -1.1124033
6.8993573 -14.826941 -0.80003428
9.3282661 -20.373661 -1.1098987
8.8893328 -19.73391 -1.0707951
9.1297321 -20.604389 -1.1164926
8.3708429 -19.208858 -1.0354739
8.2473154 -19.247007 -1.0347583
8.129838 -19.299091 -1.0348606
8.2973881 -20.039749 -1.0731463
8.014329 -19.697126 -1.0514221
7.8859053 -19.727383 -1.0503998
7.7971926 -19.858135 -1.054949
7.7804565 -20.178635 -1.069926
7.7307348 -20.422142 -1.0806603
7.5395513 -20.292253 -1.0709995
7.4083996 -20.320305 -1.0700283
7.3067794 -20.430265 -1.0735552
7.1449304 -20.371048 -1.0679325
7.0253215 -20.430561 -1.0688015
6.8944082 -20.457193 -1.0679325
6.7496576 -20.441263 -1.0648144
6.6397753 -20.530756 -1.0674213
6.5200062 -20.591105 -1.0684948
6.5238876 -21.051414 -1.0910369
6.2717557 -20.685812 -1.0693637
5.6621709 -19.096146 -0.98246682
6.0919318 -21.018293 -1.0830628
5.9677486 -21.072573 -1.0839829
5.8319492 -21.085691 -1.0827562
4.0138683 -14.865457 -0.75111639
3.9195278 -14.878216 -0.750503
5.236412 -20.385635 -1.0402788
5.0993485 -20.369911 -1.0377742
5.0028844 -20.518221 -1.0439591
4.8872681 -20.592258 -1.0462594
4.7695837 -20.659809 -1.0482529
0.53763473 -2.3910713 -0.088450387
0.52167743 -2.3884704 -0.088143691
0.50763214 -2.3945575 -0.088297039
0.49373245 -2.4015405 -0.088501506
0.47781974 -2.3986475 -0.08819481
0.46535647 -2.4133029 -0.088808194
0.44560954 -2.3896027 -0.087428071
0.43111542 -2.393275 -0.087479182
0.44507402 -2.5611911 -0.096066646
0.46998298 -2.8071814 -0.10869227
0.45686948 -2.8356493 -0.11002128
0.43976647 -2.8403733 -0.11012352
0.42189094 -2.8400545 -0.10997017
0.40263313 -2.8297353 -0.10930566
0.38727579 -2.846997 -0.1100724
0.36800575 -2.8354537 -0.10935678
0.35011256 -2.8336935 -0.10915231
0.34501177 -2.9409337 -0.1145706
0.21806578 -1.9592997 -0.063914776
0.20666239 -1.9665605 -0.064221472
0.19381036 -1.9598403 -0.063812539
0.18095702 -1.9520422 -0.063352495
0.16914707 -1.9551059 -0.063454732
0.15643315 -1.9471471 -0.062994689
0.14404309 -1.9420943 -0.062687993
0.1316538 -1.9359666 -0.062330183
0.11952827 -1.9327507 -0.062125716
0.10706268 -1.9224787 -0.061563443
0.095508598 -1.9280869 -0.061819024
0.084017769 -1.9366189 -0.06222795
0.071146116 -1.9101514 -0.060847823
0.059941765 -1.9275218 -0.061716791
0.048381031 -1.9388357 -0.062279064
0.036392715 -1.9341034 -0.062023487
0.023837207 -1.8773689 -0.059109882
0.012216598 -1.8605024 -0.058240913
0.00080720708 -1.8265868 -0.056502972
-0.010577605 -1.8545202 -0.057934217
-0.022429688 -1.8923677 -0.059876621
-0.033947721 -1.8872019 -0.05962104
-0.045156159 -1.8719823 -0.058854304
-0.057073206 -1.885645 -0.059569925
-0.098982342 -2.7046244 -0.10153605
-0.079820968 -1.8758228 -0.059109882
-0.097036429 -1.9910054 -0.065039322
-0.22984634 -4.1641803 -0.1764719
-0.18394254 -3.0034115 -0.11702415
-0.20135438 -2.9872804 -0.11625741
-1.5507879 -20.983208 -1.039921
-1.6755205 -20.923523 -1.0373652
-0.29727134 -3.4576797 -0.14063968
-0.26595876 -2.8879609 -0.11145253
-0.28318354 -2.8813055 -0.11119694
-0.3777428 -3.6125276 -0.14892045
-0.41666326 -3.7610149 -0.15669006
-0.44939056 -3.8407145 -0.16093268
-0.47343805 -3.8418493 -0.16113715
-0.32812098 -2.5375021 -0.093970902
-0.34758797 -2.5641389 -0.095453262
-0.54702777 -3.8532476 -0.16221057
-0.4494594 -3.0338507 -0.11998887
-0.46898305 -3.0369573 -0.12029557
-0.49062666 -3.0527561 -0.12126677
-0.6349957 -3.8002479 -0.16021706
-0.54907632 -3.167532 -0.12755401
-3.5648868 -19.806376 -0.99304777
-3.8603761 -20.717806 -1.041659
-0.82843363 -4.3042412 -0.18735957
-0.85736376 -4.31181 -0.18802409
-0.53581482 -2.6131179 -0.099542528
-0.88081312 -4.1622305 -0.18076563
-0.90995687 -4.1733346 -0.1816346
-4.6604033 -20.73999 -1.0510131
-4.8271704 -20.882256 -1.0600096
-4.0360422 -16.985186 -0.85656846
-0.67261779 -2.7594676 -0.10838557
-0.69099402 -2.761101 -0.10869227
-0.72658223 -2.8293498 -0.11252595
-0.58982223 -2.2406125 -0.08160086
-0.60668701 -2.2485201 -0.082214251
-0.61114287 -2.2110691 -0.080425195
-0.62932992 -2.2236114 -0.081294164
-0.75541288 -2.6071925 -0.10194498
-0.77310145 -2.6082528 -0.10225167
-0.68581778 -2.2632549 -0.084054425
-0.80800998 -2.6081076 -0.10276283
-0.82279062 -2.5992925 -0.10255837
-0.84087753 -2.6008461 -0.10291617
-0.86653739 -2.6250324 -0.10450077
-0.68723464 -2.0405402 -0.073217861
-0.62009996 -1.8049296 -0.060694475
-0.63414085 -1.8095715 -0.061154518
-1.2104409 -3.3843212 -0.14697805
-0.73950177 -2.0296271 -0.073575668
-0.75611919 -2.036284 -0.074189059
-1.5644842 -4.131928 -0.18914863
-7.8872542 -20.438225 -1.0842896
-1.1949564 -3.0435181 -0.13036539
-1.2136086 -3.0361288 -0.13036539
-1.3666956 -3.3588235 -0.14861375
-1.3995149 -3.3798974 -0.15024947
-1.2021611 -2.8540754 -0.12152235
-1.7751011 -4.1417108 -0.19364683
-1.2925946 -2.9663491 -0.12862745
-1.3164399 -2.9711432 -0.12934308
-1.7660652 -3.9198754 -0.18306585
-1.7584631 -3.8399651 -0.17918104
-0.84893245 -1.8256127 -0.066061638
-0.86268127 -1.8257858 -0.066368334
-0.86954081 -1.8114572 -0.065857172
-0.88502151 -1.8150618 -0.066368334
-0.89658558 -1.8104919 -0.066419452
-0.91531402 -1.82012 -0.067288421
-0.92555553 -1.8126911 -0.067186192
-0.92745835 -1.78925 -0.066163868
-0.9793871 -1.8612779 -0.070662066
-0.96347398 -1.8041543 -0.067697346
-0.96928608 -1.7885531 -0.067135073
-0.9744615 -1.772074 -0.066521682
-0.98775178 -1.7704208 -0.066777259
-1.459998 -2.5784419 -0.11467282
-1.4434381 -2.5131569 -0.11135029
-1.4563161 -2.4999392 -0.11109471
-1.4675614 -2.4840791 -0.11068579
-1.5074284 -2.51614 -0.11313935
-1.0870093 -1.7900385 -0.070202023
-1.5271864 -2.479599 -0.11206591
-1.5545455 -2.4896607 -0.11324158
-2.5772569 -4.0703444 -0.20959498
-5.202662 -8.1040955 -0.45592231
-1.6812804 -2.585341 -0.12085784
-1.4012648 -2.1264653 -0.093357511
-1.4276063 -2.1377537 -0.094584286
-1.4362158 -2.122339 -0.094175361
-1.33505 -1.9471598 -0.083849959
-1.3287262 -1.9126941 -0.082214251
-1.3295081 -1.8889935 -0.081243053
-1.3323705 -1.8686074 -0.080476314
-1.3420554 -1.857969 -0.080322966
-1.3587418 -1.8569505 -0.08078301
-1.391533 -1.8774519 -0.082623176
-1.938216 -2.5810282 -0.12821853
-1.7979585 -2.3640599 -0.11503063
-1.4965849 -1.9432707 -0.088552617
-1.6197197 -2.0765336 -0.097804591
-1.6311918 -2.0649891 -0.097702354
-1.6419591 -2.0526028 -0.097549006
-1.6740206 -2.0665374 -0.099133603
-1.6841344 -2.0531394 -0.098929137
-2.4347367 -2.9305434 -0.15801908
-2.4764686 -2.9438186 -0.15991037
-2.4750504 -2.9057653 -0.15837689
-2.5032728 -2.9026215 -0.15919474
-0 -0 -0
-2.1410241 -2.4221196 -0.1284741
-2.1804979 -2.4364631 -0.13036539
-2.0954535 -2.3128002 -0.12274913
-2.1852448 -2.3822999 -0.1284741
-2.0985227 -2.2598438 -0.12085784
-2.1725705 -2.3109343 -0.12535603
-2.9333479 -3.081471 -0.18076563
-2.4406147 -2.5328476 -0.14304213
-2.4630861 -2.5249712 -0.14355329
-2.5157373 -2.5474596 -0.14626242
-3.2454114 -3.2457857 -0.19794056
-2.6150305 -2.5837588 -0.15116955
-2.6322649 -2.5690594 -0.15127178
-2.645102 -2.5500879 -0.15106732
-2.6520181 -2.525548 -0.15045393
-3.1557152 -2.9682224 -0.18475267
-3.176796 -2.9515216 -0.18495713
-2.8562927 -2.621444 -0.16144383
-3.2542229 -2.9498651 -0.18781962
-3.2767267 -2.9338379 -0.18812631
-2.7993009 -2.4758284 -0.15428762
-2.8227153 -2.4658303 -0.15484989
-3.646327 -3.1456344 -0.20949274
-3.6556754 -3.114784 -0.20882824
-3.303272 -2.7798743 -0.18398593
-4.1983461 -3.4889455 -0.24241136
-3.3147449 -2.7207599 -0.18250357
-3.4726083 -2.8147864 -0.19180666
-3.4071512 -2.7272935 -0.18638837
-3.5703642 -2.8221066 -0.19594704
-11.035975 -8.6105518 -0.679452
-3.0382345 -2.3417287 -0.15934809
-2.9937222 -2.2783048 -0.15556552
-3.0300064 -2.2766836 -0.15699676
-3.0198505 -2.240206 -0.15546328
-3.0633578 -2.2434583 -0.15735456
-3.0471139 -2.2029793 -0.15546328
-3.0613868 -2.1848209 -0.15551439
-3.0771849 -2.1677201 -0.15566774
-3.0592625 -2.1271429 -0.15372534
-4.3332224 -2.9730871 -0.23198372
-4.5473995 -3.0791075 -0.24409819
-4.6077318 -3.0788813 -0.24665397
-4.6273704 -3.0511005 -0.2467051
-4.6133523 -3.0014164 -0.24471158
-5.771482 -3.7043443 -0.31402469
-5.6877775 -3.6015606 -0.30758408
-5.7258644 -3.5766432 -0.30855528
-23.814135 -14.668757 -1.3945628
-23.913935 -14.528584 -1.3951763
-3.7928851 -2.2737148 -0.18935309
-3.8506169 -2.2763071 -0.19196001
-3.9016182 -2.2742538 -0.19415799
-3.9423456 -2.2656908 -0.19574258
-3.8605783 -2.1873293 -0.19011983
-3.8442771 -2.1470509 -0.1883819
-3.8556287 -2.1224594 -0.18827966
-3.8852606 -2.107806 -0.18925087
-3.9245465 -2.0980449 -0.19078434
-3.9346948 -2.0725293 -0.19063099
-4.0182629 -2.0851285 -0.19472027
-4.048769 -2.06952 -0.19574258
-4.3700733 -2.1999397 -0.21342866
-4.3727508 -2.1677637 -0.21281527
-7.6092 -3.7132711 -0.39637235
-4.432333 -2.1299369 -0.21470657
-4.4308724 -2.0958714 -0.2138887
-5.7258272 -2.6651642 -0.28626877
-5.7266355 -2.6229141 -0.28539979
-26.507824 -11.940269 -1.4510459
-26.586981 -11.780228 -1.4514037
-5.8554296 -2.5525651 -0.28994912
-5.8553758 -2.5099027 -0.28908014
-5.7896719 -2.4398139 -0.28458196
-5.8054562 -2.4046252 -0.28463307
-5.8450785 -2.3791192 -0.28601319
-9.5476971 -3.8172836 -0.48930097
-9.6192799 -3.7776058 -0.49195901
-23.26956 -8.9720612 -1.2394774
-23.306427 -8.8223963 -1.2385062
-28.382738 -10.545061 -1.5127428
-28.441277 -10.368657 -1.512436
-28.508123 -10.195294 -1.5126405
-28.571087 -10.020511 -1.5126916
-28.645256 -9.8495588 -1.5134072
-11.508892 -3.8792226 -0.58463204
-7.8225389 -2.5837421 -0.3846668
-7.813539 -2.5277066 -0.3833378
-28.740292 -9.0998955 -1.5059955
-28.775553 -8.9171705 -1.504922
-28.826859 -8.7395697 -1.5047687
-29.066654 -8.617877 -1.5147363
-29.543924 -8.5625048 -1.5373806
-9.7404776 -2.7591531 -0.48117355
-9.6677046 -2.6745803 -0.47641978
-12.868632 -3.4748616 -0.64525545
-9.6833801 -2.5514176 -0.4755508
-9.7065916 -2.4939408 -0.47595972
-18.031202 -4.5140204 -0.91438049
-13.074229 -3.188278 -0.65179831
-13.312181 -3.1598732 -0.66329938
-13.126966 -3.030966 -0.65256506
-15.809517 -3.54808 -0.79231578
-11.497495 -2.5066731 -0.56531024
-11.516567 -2.4369051 -0.56551474
-15.893671 -3.2608917 -0.79344034
-17.83622 -3.5453928 -0.89378077
-17.867445 -3.4377713 -0.89429194
-19.77042 -3.6781332 -0.99228102
-19.804413 -3.5588739 -0.99289441
-18.101868 -3.1384943 -0.90333945
-32.190269 -5.3769765 -1.6334273
-32.203922 -5.1763487 -1.6324561
-20.20656 -3.1213086 -1.0095071
-25.891008 -3.8365514 -1.3026565
-32.045559 -4.5474925 -1.619626
-32.019417 -4.3435316 -1.6168658
-32.024666 -4.1442919 -1.6157923
-18.234062 -2.2464972 -0.90333945
-24.053307 -2.8133557 -1.2025206
-32.244419 -3.5706027 -1.6234597
-32.986843 -3.4480393 -1.6605698
-33.164417 -3.2610066 -1.6686461
-33.612423 -3.0969291 -1.690677
-33.525322 -2.8815668 -1.6852587
-0 -0 -0
-0 -0 -0
-38.095486 -2.5688269 -1.9172736
-38.149406 -2.3374097 -1.9192672
-38.102203 -2.0999348 -1.9161491
-0 -0 -0
-0 -0 -0
-0 -0 -0
-38.131283 -1.1638926 -1.9155868
-0 -0 -0
-37.897057 -0.69140154 -1.9030124
-37.795731 -0.45759034 -1.8976452
-0 -0 -0
-0 0 -0
-0 0 -0
-0 0 -0
-0 0 -0
-0 0 -0
-0 0 -0
-0 0 -0
-0 0 -0
-0 0 -0
-0 0 -0
-0 0 -0
-0 0 -0
-0 -0 -0
-30.931839 -0.59267777 -1.9146677
-30.907949 -0.40252116 -1.9129677
-30.898859 -0.21279024 -1.9122751
-0 -0 -0
-30.904135 0.16642913 -1.9125899
-30.891554 0.35592386 -1.9118973
-30.869829 0.5451296 -1.9107009
-30.820007 0.73344147 -1.9078046
-30.836874 0.92319238 -1.9091898
-30.750839 1.1095088 -1.9041526
-30.658695 1.2945936 -1.8988006
-30.554478 1.4780594 -1.892756
-30.483047 1.6621422 -1.8888522
-30.479248 1.8495744 -1.889293
-0 0 -0
-30.33979 2.2151067 -1.8820521
-30.324633 2.4011476 -1.881989
-30.318277 2.5879347 -1.8825557
-30.251141 2.7692761 -1.8793446
-30.239538 2.9554238 -1.8797224
-30.205946 3.1393671 -1.8787779
-30.153378 3.3210433 -1.8767
-30.127476 3.5054216 -1.8763852
-30.069738 3.6858437 -1.8741184
-30.032698 3.8684938 -1.873237
-0 0 -0
-29.979012 4.2361913 -1.8729851
-29.914936 4.4145236 -1.8705925
-29.896164 4.5993605 -1.8711591
-29.833874 4.7773485 -1.8690183
-29.83058 4.9647393 -1.8707184
-29.779886 5.1442852 -1.869459
-29.938345 5.3610396 -1.8816742
-0 0 -0
-30.066334 5.7656145 -1.8942672
-0 0 -0
-30.287628 6.1943283 -1.9132196
-30.292995 6.3893209 -1.9160529
-30.266874 6.5780425 -1.9169345
-30.340866 6.7893472 -1.9243643
-30.308363 6.9776268 -1.924994
-30.237785 7.1570277 -1.9232309
-30.276699 7.3627086 -1.9286458
-30.410088 7.5930696 -1.9402944
-0 0 -0
-30.713268 8.0704231 -1.9662988
-30.740265 8.2794876 -1.971336
-30.714859 8.4751167 -1.9730361
-30.665161 8.6642342 -1.9732249
-30.968071 8.9553604 -1.9966478
-30.703909 9.0834904 -1.9829215
-0 0 -0
-30.809427 9.5274029 -1.9974034
-30.913118 9.7676821 -2.0081704
-31.052057 10.021545 -2.0213928
-30.862017 10.169724 -2.0128927
-30.828362 10.36876 -2.0148447
-30.839678 10.58364 -2.0198817
-31.237608 10.934896 -2.0508604
-30.793011 10.991824 -2.0256116
-0 0 -0
-31.29492 11.605885 -2.0686164
-31.288469 11.82238 -2.073024
-31.261911 12.032063 -2.0761721
-0 0 -0
-30.934858 12.344144 -2.064146
-30.811377 12.51457 -2.0609348
-30.600269 12.648113 -2.0518048
-30.464127 12.811262 -2.047838
-30.302362 12.962619 -2.0421712
-30.101452 13.095754 -2.03386
-29.976723 13.260826 -2.0308375
-29.745516 13.377379 -2.0205114
-29.658337 13.557569 -2.0201967
-29.512136 13.710281 -2.015852
-0 0 -0
-29.187788 13.997613 -2.005085
-29.034956 14.1441 -2.0004256
-28.81076 14.254277 -1.990792
-28.667463 14.40301 -1.9868883
-28.536764 14.557325 -1.9839289
-28.372461 14.693598 -1.9786398
-28.280003 14.866483 -1.978514
-28.152149 15.020464 -1.9759324
-28.038393 15.181515 -1.9744213
-27.843248 15.297524 -1.9671173
-27.744501 15.465651 -1.9668025
-27.577847 15.595313 -1.9616394
-27.324944 15.674354 -1.9502428
-27.221352 15.837706 -1.9497391
-27.129679 16.007984 -1.9501798
-26.982985 16.145452 -1.9466538
-26.845867 16.287935 -1.9438833
-26.765823 16.464901 -1.9453945
-26.67276 16.634104 -1.9460242
-26.522953 16.767588 -1.9424981
-26.343943 16.881554 -1.9368314
-26.188808 17.009718 -1.9329904
-26.019756 17.127838 -1.9281422
-25.868509 17.256708 -1.9246792
-25.710873 17.380457 -1.9207753
-25.574102 17.517586 -1.9185085
-25.453016 17.665071 -1.9175011
-25.323736 17.806564 -1.9159271
-25.192867 17.946558 -1.91429
-25.068516 18.090872 -1.9132196
-0 0 -0
-24.798908 18.363287 -1.9096305
-24.655426 18.49235 -1.9072379
-24.508913 18.618532 -1.9046563
-24.345167 18.730835 -1.9007525
-24.18648 18.846123 -1.8972895
-24.039831 18.970062 -1.8948338
-23.865286 19.071108 -1.8901745
-23.694286 19.173864 -1.8858299
-23.556892 19.303076 -1.8842558
-23.40959 19.423676 -1.8819261
-23.262459 19.543839 -1.8796594
-23.098772 19.649347 -1.8760704
-22.911982 19.734045 -1.8705925
-22.754358 19.842775 -1.8675702
-22.588783 19.943708 -1.8639182
-22.434734 20.054001 -1.8612736
-22.318663 20.197977 -1.8619033
-22.165611 20.308249 -1.8594477
-22.147417 20.542961 -1.8686405
-21.953289 20.614933 -1.8627849
-21.860382 20.781567 -1.8657441
-21.690029 20.874477 -1.8620292
-21.547956 20.993938 -1.8608329
-21.383917 21.091419 -1.8577477
-0 0 -0
-21.096811 21.325285 -1.855355
-20.96347 21.452188 -1.8551661
-20.815506 21.5639 -1.8537179
-20.684177 21.692659 -1.8538438
-20.543158 21.811176 -1.8531512
-20.401463 21.928778 -1.8524586
-20.246943 22.032236 -1.8506327
-20.098629 22.142014 -1.8494363
-0 0 -0
-19.80224 22.360838 -1.8472326
-19.644951 22.459385 -1.8453436
-19.485243 22.554579 -1.8432658
-19.398308 22.734449 -1.848303
-19.264235 22.859917 -1.8488696
-19.152975 23.012976 -1.851766
-19.009508 23.127748 -1.851577
-18.880449 23.260227 -1.8528993
-18.741117 23.380308 -1.8532771
-18.598545 23.496428 -1.8534031
-18.434357 23.584942 -1.8513882
-18.27466 23.678646 -1.849877
-18.115719 23.772869 -1.8484918
-17.959909 23.870817 -1.8474844
-17.807152 23.972557 -1.8468547
-17.665035 24.088612 -1.8474214
-17.518654 24.198973 -1.8476104
-17.364618 24.298702 -1.8470436
-17.201391 24.38522 -1.8455325
-17.029772 24.459183 -1.8431399
-16.775934 24.412693 -1.8316172
-16.651592 24.553164 -1.8345137
-16.457882 24.591011 -1.8296654
-16.290184 24.666548 -1.8277764
-16.127628 24.749315 -1.8265171
-15.978704 24.852844 -1.8268949
-11.495279 18.123146 -1.3168179
-11.417213 18.246639 -1.3207846
-11.349596 18.388536 -1.3261366
-11.460231 18.825243 -1.3532745
-11.462152 19.091148 -1.3676933
-11.442422 19.326004 -1.3797826
-11.323121 19.394987 -1.3797196
-14.668786 25.483257 -1.817891
-9.6109467 16.936337 -1.1913922
-14.337422 25.629992 -1.8156242
-14.176034 25.710491 -1.8151206
-0 0 -0
-11.206979 20.929176 -1.4606292
-10.947946 20.750395 -1.4429991
-10.94608 21.058928 -1.4601885
-10.79619 21.08572 -1.457355
-10.902991 21.620291 -1.4904745
-10.857136 21.861979 -1.5028156
-10.696921 21.875288 -1.4991007
-10.543015 21.900045 -1.4962672
-10.39519 21.936367 -1.4943154
-9.312912 19.968287 -1.3528966
-10.105649 22.019648 -1.491356
-9.959259 22.056683 -1.489656
-9.7974005 22.05809 -1.4855633
-0 0 -0
-9.675662 22.525114 -1.5094899
-0 0 -0
-10.040183 24.187935 -1.6150817
-9.9598103 24.416346 -1.6264783
-10.066367 25.117126 -1.6699868
-9.9826221 25.357647 -1.682139
-10.254394 26.524292 -1.7569412
-10.113409 26.644562 -1.7608449
-10.239286 27.483278 -1.8131686
-10.077656 27.565271 -1.8144909
-9.9420223 27.72053 -1.8207873
-9.8740768 28.071924 -1.8402435
-0 0 -0
-9.5154247 28.151272 -1.8375989
-9.3575735 28.254602 -1.8406212
-9.1640129 28.249783 -1.8365285
-9.0173931 28.390135 -1.8421324
-0 0 -0
-8.7017241 28.608459 -1.8493733
-8.3948336 28.220329 -1.8203466
-8.2262564 28.287598 -1.821417
-7.4981751 26.386812 -1.6934727
-7.3286538 26.405397 -1.6917098
-7.1717157 26.469133 -1.692969
-6.9410582 26.255022 -1.6761575
-6.6985998 25.982067 -1.6556309
-6.4473505 25.657774 -1.6318933
-6.2432861 25.506849 -1.6195521
-6.0639901 25.449535 -1.6133816
-5.9090729 25.492098 -1.6137594
-5.7580304 25.552216 -1.6153336
-5.6017771 25.589989 -1.6155224
-5.4485955 25.642427 -1.6167188
-5.3052559 25.743801 -1.6211263
-5.1501265 25.790548 -1.6220708
-2.8535526 14.761859 -0.9113881
-2.7135804 14.515197 -0.8944506
-2.6108055 14.455951 -0.8896023
-2.5066328 14.383211 -0.88393545
-2.4029555 14.306787 -0.87807977
-2.3111432 14.296632 -0.87650567
-2.2189329 14.281944 -0.87467968
-2.1291981 14.281471 -0.87379819
-2.0316491 14.225108 -0.86939061
-1.9081289 13.972299 -0.85251611
-1.8241665 13.997599 -0.85339761
-1.7727863 14.286836 -0.87109065
-1.6898811 14.338081 -0.87367225
-1.6015402 14.345204 -0.87348336
-1.5141176 14.360717 -0.87386113
-1.4270577 14.380661 -0.87455374
-1.3399026 14.401072 -0.87530929
-1.2624851 14.535295 -0.88330585
-1.1788141 14.611407 -0.88765037
-1.0933661 14.675095 -0.8912394
-1.0148048 14.849799 -0.90188044
-1.5795741 25.40036 -1.5684248
-1.1289881 20.151299 -1.23616
-0.72055864 14.450307 -0.87562412
-0.63275194 14.474397 -0.87688345
-0.5657118 15.057445 -0.91346592
-0.45865798 14.59479 -0.8840614
-0.36940047 14.609302 -0.884817
-0.28072825 14.662183 -0.8880282
-0.18900126 14.528909 -0.87952793
-0.099065028 14.416023 -0.87234998
-0.010608867 14.417358 -0.87241292
0.078058325 14.455075 -0.87480557
0.16678599 14.457318 -0.87499452
0.2555441 14.459017 -0.8751834
0.34693971 14.569921 -0.88229841
0.43588477 14.552554 -0.88135391
0.52650034 14.586508 -0.88368362
0.61931682 14.661776 -0.88865781
0.71717441 14.821183 -0.89898407
0.81119847 14.873306 -0.90257305
1.5089436 24.864756 -1.5344238
1.6612828 24.852041 -1.534235
1.8128688 24.829435 -1.5334795
1.963925 24.801926 -1.532472
2.1154757 24.782448 -1.5320312
2.2676802 24.770988 -1.5321572
2.4190469 24.750648 -1.5317794
2.5714874 24.741297 -1.5321572
2.7239044 24.731005 -1.532535
2.8766377 24.722748 -1.5331016
3.0297363 24.716518 -1.5338572
3.1817195 24.700432 -1.5340461
3.3326843 24.676489 -1.5337942
2.2430501 15.872448 -0.97416389
2.3401082 15.856412 -0.974038
3.7919476 24.647461 -1.5361239
2.3369608 14.592701 -0.89520615
4.0949435 24.603994 -1.5364387
4.2461734 24.580372 -1.5365647
4.3963881 24.550909 -1.5363758
4.5471287 24.524452 -1.5364387
4.6960187 24.488249 -1.535935
4.8504543 24.480511 -1.5373203
5.0055718 24.474733 -1.5388944
5.1605945 24.466995 -1.5404055
5.3135915 24.448523 -1.5412871
5.4648123 24.421303 -1.5416648
5.6152272 24.39023 -1.5418537
5.769834 24.376682 -1.5432389
5.9145818 24.321424 -1.5419797
6.0595942 24.268215 -1.5409093
6.2054143 24.218975 -1.5401536
6.3498445 24.165001 -1.5391462
4.2952752 15.946854 -1.0047648
4.396759 15.933667 -1.0056462
6.7843418 24.011372 -1.5370054
5.9215775 20.476614 -1.3076249
4.3354101 14.653766 -0.92694038
7.255506 23.982729 -1.5436168
7.4119592 23.968269 -1.5456315
7.5688086 23.953743 -1.5477095
7.7260652 23.939144 -1.5498502
7.8877997 23.936785 -1.5528725
8.0510683 23.937126 -1.5561467
8.2191725 23.949577 -1.5603024
8.3900394 23.967459 -1.5648987
8.5493574 23.950304 -1.5672284
8.7067318 23.92647 -1.5691804
8.8676052 23.910961 -1.571762
9.0332012 23.906515 -1.5751621
9.1990767 23.900934 -1.5785621
9.3666792 23.897934 -1.5822141
9.537549 23.90119 -1.5863698
9.7166977 23.922663 -1.5918477
9.8861752 23.917933 -1.5956255
10.046287 23.889021 -1.5978293
6.3142896 14.760221 -0.97567505
6.3888125 14.684593 -0.97315645
10.559803 23.870729 -1.6096038
10.714259 23.823692 -1.610863
10.881812 23.804701 -1.6141372
11.073081 23.835236 -1.6209373
11.232329 23.794823 -1.6228893
11.400992 23.773148 -1.6262264
11.571122 23.752991 -1.6297524
8.2691231 16.713182 -1.1392573
11.954928 23.794699 -1.6428491
12.107962 23.735123 -1.6438565
12.272645 23.697603 -1.6465011
8.3865595 15.953091 -1.0999044
12.634405 23.679935 -1.6561346
12.797522 23.635317 -1.6585273
9.0540991 16.479158 -1.1490799
9.1769094 16.462523 -1.1519133
8.3556595 14.775286 -1.0337285
9.3201389 16.247379 -1.1445464
9.3970709 16.151068 -1.141713
9.4457855 16.008009 -1.1354795
9.5530548 15.965165 -1.1366129
14.412402 23.754515 -1.7157623
14.595534 23.726839 -1.7202957
9.9192381 15.905178 -1.1454279
14.962395 23.667419 -1.7293626
15.118641 23.592812 -1.7306849
15.274534 23.517178 -1.7320071
10.167206 15.445216 -1.1294348
10.287815 15.421562 -1.1323942
15.945715 23.588404 -1.7591449
16.130756 23.549402 -1.7636783
16.294296 23.477859 -1.7658192
10.519095 14.959525 -1.11659
16.653559 23.377743 -1.7736897
16.758728 23.222513 -1.7695971
16.851429 23.051569 -1.764308
16.950386 22.890789 -1.7598375
17.073755 22.763998 -1.7580745
17.220356 22.668343 -1.7588301
17.386507 22.597849 -1.7616636
17.600288 22.587574 -1.7694081
11.857959 15.026769 -1.1704879
0 0 -0
11.976805 14.800212 -1.1640025
0 0 -0
12.129484 14.618328 -1.161232
17.445877 20.765251 -1.6738907
17.567142 20.650972 -1.673324
17.720879 20.574554 -1.6759685
17.966167 20.602333 -1.6874281
18.135838 20.541086 -1.6915838
18.379257 20.561123 -1.7027285
19.02339 21.020718 -1.7514632
19.13381 20.883728 -1.7497631
19.246658 20.749834 -1.7483779
19.354486 20.610977 -1.7466149
19.466148 20.476641 -1.7452927
15.683443 16.296041 -1.3897309
19.679747 20.199049 -1.7420185
19.836956 20.112022 -1.7450408
19.983963 20.013939 -1.7471817
20.141153 19.925335 -1.7502669
16.258739 15.888201 -1.3970349
16.306376 15.740314 -1.3926903
16.456821 15.691617 -1.3974127
17.101297 16.106976 -1.4449511
20.79476 19.346399 -1.7547374
20.924833 19.229246 -1.7557448
17.210135 15.62177 -1.4292098
21.175577 18.985676 -1.75713
21.305122 18.867298 -1.7582633
21.427248 18.74213 -1.7588301
21.541845 18.610302 -1.7588301
21.663221 18.484251 -1.7594597
21.79302 18.365129 -1.7608449
21.889956 18.218296 -1.7595856
21.992077 18.076035 -1.7588301
22.169214 17.994844 -1.764245
22.272982 17.853485 -1.7637414
22.080835 17.478006 -1.7394999
0 0 -0
0 0 -0
21.986828 16.754658 -1.7068212
21.989532 16.54443 -1.6989506
22.041761 16.37289 -1.6951098
22.113642 16.216679 -1.692906
22.173117 16.05201 -1.6898208
22.242773 15.895346 -1.6876169
22.354567 15.768922 -1.6887504
22.517244 15.677652 -1.6938505
22.692801 15.594023 -1.6999581
22.861568 15.504344 -1.705562
23.06741 15.43816 -1.7139993
23.190849 15.31558 -1.716203
23.286896 15.17463 -1.7163919
23.794268 15.298091 -1.7474965
23.940783 15.185483 -1.7514632
24.146875 15.109239 -1.7599005
24.375011 15.044663 -1.7699748
24.283587 14.783237 -1.7564374
24.461967 14.686873 -1.7629228
24.797232 14.681925 -1.7809306
25.140244 14.677436 -1.7994423
25.391573 14.616009 -1.8112167
25.634411 14.547121 -1.8223615
26.5515 14.85293 -1.8822409
26.900829 14.832375 -1.9008784
27.354372 14.864316 -1.9269458
27.742439 14.855435 -1.9482279
28.029907 14.788789 -1.9622691
28.205132 14.66071 -1.9683137
28.437578 14.560603 -1.978451
28.423018 14.33371 -1.9711471
28.63736 14.222076 -1.9800881
28.415668 13.895273 -1.9584283
28.366409 13.656151 -1.9490465
28.391047 13.45406 -1.9449538
28.419701 13.254713 -1.9412389
28.286432 12.981838 -1.9263792
0 0 -0
28.070564 12.468042 -1.9006267
28.172148 12.306757 -1.9023896
28.047226 12.047791 -1.8886633
28.031441 11.837808 -1.8825557
28.079582 11.655639 -1.8809186
28.059088 11.445807 -1.8746852
28.10285 11.263028 -1.8729222
28.118498 11.069541 -1.8693331
28.192406 10.89932 -1.8697739
28.164513 10.690358 -1.8634144
28.101454 10.469606 -1.8547883
28.096739 10.271965 -1.8501918
27.9939 10.040071 -1.8391101
28.001314 9.8492384 -1.8355211
27.936682 9.6342897 -1.8272097
27.844942 9.4118776 -1.8171984
0 0 -0
27.878601 9.0435991 -1.8119093
27.922153 8.8687439 -1.8111538
27.810219 8.6456947 -1.8001978
0 0 -0
27.902742 8.300355 -1.7994423
27.688654 8.0520697 -1.7820641
27.821058 7.9057584 -1.787542
27.7623 7.7052751 -1.7805529
