# .PCD v0.7 - Point Cloud Data file format
VERSION 0.7
FIELDS x y z
SIZE 4 4 4
TYPE F F F
COUNT 1 1 1
WIDTH 1502
HEIGHT 1
VIEWPOINT 0 0 0 1 0 0 0
POINTS 1502
DATA ascii
16.145985 23.571632 -1.7653784
16.280071 23.457361 -1.764245
10.560427 15.018306 -1.1211236
16.685406 23.422451 -1.7771528
16.859179 23.361713 -1.780427
16.963333 23.204651 -1.7762713
16.98127 22.932497 -1.7631117
17.089924 22.785555 -1.7597746
17.218544 22.665958 -1.7586412
17.347559 22.547226 -1.7576338
17.386822 22.31361 -1.7474965
0 0 -0
11.891374 14.880438 -1.1645691
11.97241 14.794781 -1.1635617
0 0 -0
12.12566 14.61372 -1.1608542
17.454865 20.775949 -1.6747721
17.578136 20.663897 -1.6743944
17.724134 20.578335 -1.6762834
17.972071 20.609102 -1.6879948
18.126589 20.530611 -1.6907023
18.411182 20.596838 -1.7057508
18.996603 20.991117 -1.7489446
19.125719 20.874897 -1.7490076
19.274485 20.779835 -1.7509595
19.39616 20.655355 -1.7504557
19.533535 20.547529 -1.7514632
15.69936 16.312582 -1.3911792
19.796749 20.319141 -1.7525966
19.921755 20.198 -1.7526596
20.066467 20.096569 -1.7545484
20.220617 20.003948 -1.757319
20.359394 19.895544 -1.7587671
16.308529 15.742393 -1.3928792
16.427929 15.664068 -1.3948941
17.136169 16.139822 -1.4479734
20.881712 19.427298 -1.7622302
20.997583 19.296103 -1.7619783
17.234522 15.643907 -1.4312876
0 0 -0
21.335754 18.894426 -1.7608449
21.430254 18.744759 -1.759082
21.534292 18.603777 -1.7582004
21.629818 18.455748 -1.7566893
21.739599 18.32011 -1.7564374
21.829355 18.167858 -1.7546115
21.964321 18.053219 -1.7565633
22.07778 17.920626 -1.7568152
21.757475 17.440254 -1.7220587
22.159088 17.539948 -1.7457964
0 0 -0
0 0 -0
22.067795 16.816359 -1.7132436
22.041368 16.583431 -1.7030433
22.071405 16.394909 -1.6974396
22.117664 16.219629 -1.6932209
22.18605 16.061373 -1.6908282
22.254953 15.90405 -1.6885614
22.39208 15.795385 -1.6916467
22.559834 15.707307 -1.6971247
22.693623 15.594587 -1.700021
22.872307 15.511626 -1.7063805
23.080681 15.447042 -1.7150066
23.233322 15.343631 -1.7194142
23.368839 15.228029 -1.7225624
23.673384 15.220368 -1.7384295
23.926455 15.176394 -1.7503928
24.101191 15.080651 -1.7565004
23.928299 14.768935 -1.7368554
24.200897 14.732897 -1.7503299
24.521006 14.722321 -1.7672673
24.820419 14.695654 -1.7826308
25.192818 14.708131 -1.8032832
25.45904 14.654845 -1.816128
25.827103 14.656475 -1.8363396
26.318075 14.722348 -1.8653663
26.889467 14.82611 -1.9000599
27.230728 14.797126 -1.9180678
27.739799 14.854022 -1.9480391
28.048443 14.798569 -1.9635913
28.307854 14.714106 -1.9756175
28.361183 14.521485 -1.9730361
28.363314 14.303599 -1.9669285
28.269093 14.03918 -1.9541466
28.389669 13.882559 -1.9566022
0 0 -0
28.33964 13.429698 -1.9413648
28.343723 13.219277 -1.9359498
28.387114 13.028047 -1.9333682
28.441959 12.842532 -1.9316682
28.420807 12.623614 -1.924805
28.302929 12.36389 -1.9113935
28.238876 12.130119 -1.9018229
28.230947 11.922064 -1.8962191
28.223377 11.715328 -1.8907411
28.17737 11.494059 -1.8827447
28.112114 11.266741 -1.8735517
28.118498 11.069541 -1.8693331
28.123522 10.872688 -1.8651146
28.130924 10.677608 -1.8611478
28.08462 10.463334 -1.853655
27.953327 10.219532 -1.8405583
27.994841 10.040409 -1.8391731
27.982485 9.8426151 -1.8342618
27.910265 9.6251793 -1.8254467
27.982035 9.4582176 -1.8263283
27.957117 9.2590466 -1.8208504
27.881449 9.0445232 -1.8120983
27.915495 8.8666286 -1.8107131
27.794018 8.6406584 -1.7991275
27.802591 8.4565945 -1.7962312
27.783169 8.2647829 -1.7915717
27.834316 8.0944319 -1.7916347
27.731779 7.8803868 -1.7816863
27.79211 7.7135496 -1.7825048
27.612547 7.4815373 -1.7677081
27.637671 7.306612 -1.7663858
27.640427 7.1261783 -1.7636783
27.681696 6.9559593 -1.7635524
27.73452 6.7885871 -1.764245
27.81934 6.6286936 -1.7670785
27.904211 6.4682403 -1.7699748
27.969662 6.3028255 -1.7716749
28.029257 6.1357837 -1.7730601
28.077116 5.9659657 -1.7737527
28.119059 5.7947841 -1.7741305
28.150171 5.6213579 -1.7738787
28.178253 5.4473891 -1.7735009
28.208204 5.273838 -1.773312
28.242979 5.1011887 -1.7735009
28.274731 4.9279685 -1.7735639
28.328058 4.7583532 -1.775075
0 0 -0
28.437571 4.4186416 -1.778475
28.491787 4.2481899 -1.780238
28.575607 4.0816145 -1.783953
28.616924 3.9084973 -1.7850235
28.703705 3.7410893 -1.7890532
28.760784 3.5691988 -1.7912569
28.821789 3.3973324 -1.7937754
28.87879 3.2245195 -1.7961051
28.950636 3.0528095 -1.7994423
7.5677547 0.75079197 -0.44261584
7.5543323 0.7026782 -0.44148248
7.439189 0.64594615 -0.43392673
7.4161534 0.59812027 -0.43222666
7.377883 0.54948884 -0.42958215
7.3980427 0.50536585 -0.43065256
7.3940315 0.4595291 -0.43021181
7.3638291 0.4123086 -0.42813396
7.3622332 0.3669183 -0.42788211
7.3513842 0.3211706 -0.42706355
7.3562083 0.27616981 -0.42725247
7.3388114 0.23043162 -0.42605612
7.3660274 0.18605378 -0.42769322
7.345078 0.14043228 -0.42630798
7.350791 0.095426135 -0.42662281
7.3562279 0.050355162 -0.42693764
7.3903313 0.0052431575 -0.42907843
7.413178 -0.040226478 -0.43052661
7.4397364 -0.086022228 -0.43222666
7.4919553 -0.13260321 -0.4355638
7.5339031 -0.17959091 -0.43827128
7.6693263 -0.22990444 -0.44689745
7.6408424 -0.27598694 -0.4451974
25.120649 -1.0608164 -1.5490947
25.033918 -1.2110771 -1.5440575
25.047939 -1.3658547 -1.5454427
20.26936 -1.2301412 -1.2439677
24.911789 -1.6652758 -1.5380129
24.91902 -1.8194082 -1.5391462
24.939222 -1.9747946 -1.5411611
24.919676 -2.1271875 -1.5407203
19.93486 -1.8250312 -1.2257708
19.903421 -1.9453735 -1.2245116
19.928831 -2.071382 -1.2269043
25.05341 -2.7594092 -1.5529984
10.622076 -1.2361709 -0.63749164
10.614291 -1.3013234 -0.63749164
10.596208 -1.3651521 -0.63686198
10.576753 -1.4286745 -0.63616937
10.579646 -1.4952208 -0.63692492
10.573234 -1.5605452 -0.63711381
13.859065 -2.1323581 -0.84747893
13.883167 -2.2233515 -0.84987158
24.7812 -4.1244335 -1.5477724
14.388853 -2.4857924 -0.8840614
13.623765 -2.4398201 -0.83601934
24.401791 -4.5243878 -1.5285681
24.421597 -4.6832385 -1.5316534
24.167234 -4.7883887 -1.5171715
24.117844 -4.9325867 -1.5159123
24.009001 -5.064002 -1.5108751
23.959923 -5.207408 -1.5097417
23.867136 -5.3408141 -1.5058379
23.795012 -5.4782038 -1.5033193
23.733757 -5.6176682 -1.5015563
23.674597 -5.7572947 -1.4999821
23.467438 -5.8596597 -1.4888375
23.531588 -6.0293031 -1.4953858
23.497046 -6.1743374 -1.4955746
8.1757603 -2.2023377 -0.49701735
7.804204 -2.1537149 -0.47359449
7.8311796 -2.2129564 -0.476239
8.0322104 -2.3230667 -0.49034309
8.0168486 -2.3720245 -0.49028012
7.9925904 -2.4182806 -0.48965049
7.9861832 -2.4699302 -0.49021718
8.2354345 -2.6024752 -0.50772136
22.265629 -7.1859879 -1.4389064
7.8493176 -2.5868394 -0.48423553
22.145498 -7.4484997 -1.4368916
22.088995 -7.5806785 -1.4361989
22.02511 -7.7101359 -1.4350655
18.924486 -6.7554183 -1.2305562
21.881006 -7.9624329 -1.4318544
21.816765 -8.0909901 -1.4308469
18.275055 -6.9054255 -1.1953589
18.522942 -7.129272 -1.215004
18.476061 -7.2416997 -1.214815
18.617594 -7.4292746 -1.2274709
21.318823 -8.6591396 -1.4145391
21.258833 -8.787118 -1.4140983
21.198076 -8.9146862 -1.4136575
21.13839 -9.0426245 -1.4133427
21.073355 -9.1681757 -1.4127131
21.009403 -9.2940769 -1.4122094
20.95289 -9.4232225 -1.4122723
20.89649 -9.5524397 -1.4123982
21.023033 -9.766675 -1.4253061
20.980761 -9.904006 -1.4265653
20.781013 -9.9660969 -1.4168688
20.686274 -10.077249 -1.4145391
20.600794 -10.19248 -1.412902
20.526274 -10.312868 -1.4120834
20.447495 -10.430911 -1.411013
20.378675 -10.553884 -1.4106982
20.324135 -10.684299 -1.4114538
20.20096 -10.778268 -1.407361
12.956302 -7.0154929 -0.89237273
19.933346 -10.951828 -1.3977275
19.848335 -11.064212 -1.3964682
19.755749 -11.172035 -1.3947052
12.484159 -7.1615138 -0.87083882
12.607334 -7.3353453 -0.88305396
12.601627 -7.435894 -0.88595033
19.377136 -11.594572 -1.3874643
18.516363 -11.234401 -1.3292218
12.359764 -7.6033177 -0.8783316
18.845409 -11.752822 -1.3640413
18.752695 -11.855434 -1.3625302
18.65691 -11.955737 -1.3608302
18.55809 -12.053681 -1.3589412
18.459606 -12.151411 -1.3571153
18.331564 -12.229003 -1.3530855
18.21236 -12.31163 -1.3497484
18.073074 -12.379722 -1.3449001
17.958239 -12.463638 -1.3419408
17.843054 -12.546614 -1.3389814
17.73078 -12.630961 -1.3362739
17.593056 -12.696301 -1.3316145
17.417334 -12.732745 -1.3239958
17.262682 -12.782955 -1.3180141
17.186317 -12.890432 -1.3182031
17.04809 -12.950969 -1.3135437
16.923218 -13.020642 -1.3099546
16.798132 -13.089272 -1.3063657
16.668926 -13.153767 -1.3024619
16.559834 -13.233368 -1.3001952
16.462032 -13.321545 -1.2988729
16.308189 -13.363477 -1.2930171
16.18902 -13.432701 -1.2899948
16.019945 -13.459239 -1.2828798
15.889928 -13.517191 -1.2789761
15.778709 -13.590337 -1.2766464
15.626575 -13.627208 -1.2709166
15.507502 -13.69179 -1.2679572
15.390459 -13.757419 -1.2651868
15.296135 -13.842889 -1.2643683
15.205022 -13.931089 -1.2638645
15.098036 -14.004441 -1.2620386
14.999454 -14.085204 -1.2609681
14.899003 -14.163909 -1.2597718
14.794557 -14.238452 -1.2582606
14.689756 -14.312246 -1.2567495
14.512131 -14.313808 -1.248816
14.375299 -14.353928 -1.2444714
14.289762 -14.444701 -1.2447232
14.202955 -14.53425 -1.2449121
14.050431 -14.555782 -1.2391824
13.928484 -14.607773 -1.236223
13.818746 -14.671893 -1.2343971
13.723022 -14.750562 -1.2338933
6.936533 -7.5485573 -0.60959828
13.047946 -14.374711 -1.1876143
12.959498 -14.454501 -1.1876143
6.7487731 -7.6211629 -0.60506481
6.6828284 -7.6406446 -0.60323882
6.605155 -7.6460109 -0.60027945
13.211099 -15.483355 -1.246927
12.502294 -14.836072 -1.1868587
13.006692 -15.6282 -1.2456048
6.5042448 -7.9137459 -0.60909456
12.783739 -15.749442 -1.2425824
12.664391 -15.799551 -1.2403157
12.557917 -15.865223 -1.2393713
2.0064073 -2.5675793 -0.16840455
1.985737 -2.5735214 -0.16790083
1.9656744 -2.5801008 -0.16746008
1.9546064 -2.5984931 -0.1679638
1.9475526 -2.6224549 -0.16890827
1.9367366 -2.6415987 -0.16947494
1.9240031 -2.658283 -0.16985273
11.419633 -15.979985 -1.2019702
11.266139 -15.971464 -1.1959256
11.162225 -16.032101 -1.1952959
10.04339 -14.615637 -1.0816447
10.965766 -16.169523 -1.1954219
10.860795 -16.228209 -1.1947923
10.685116 -16.179621 -1.1861031
10.557304 -16.201399 -1.1828289
10.456077 -16.263353 -1.1826401
10.371058 -16.350801 -1.1844031
10.223948 -16.33968 -1.1788622
9.9588995 -16.135435 -1.1590912
9.8332396 -16.152761 -1.1558801
10.009306 -16.671413 -1.1896291
9.622076 -16.251604 -1.1543689
9.5332479 -16.3293 -1.1557541
9.4298859 -16.382298 -1.1553763
9.8237419 -17.311306 -1.2185929
9.1794157 -16.409683 -1.1490799
8.9354315 -16.206131 -1.1303793
9.0054665 -16.57283 -1.1527948
8.9215117 -16.661209 -1.1551875
8.6062756 -16.312248 -1.1264125
8.507865 -16.36829 -1.1266644
8.4131832 -16.431734 -1.127483
8.5485859 -16.951771 -1.1606025
8.0111418 -16.131508 -1.0991489
7.9142022 -16.184841 -1.0994637
8.0091267 -16.636852 -1.1277348
7.991518 -16.864252 -1.1402018
6.9172053 -14.831773 -0.99532002
7.4983869 -16.338818 -1.097008
7.8469129 -17.378693 -1.1658285
7.5116358 -16.912098 -1.1303164
7.4368892 -17.024632 -1.1349128
7.3326821 -17.07086 -1.1349758
7.2941947 -17.272747 -1.1457428
7.1589937 -17.247126 -1.1409574
7.3052225 -17.908939 -1.1830808
7.1981678 -17.960838 -1.1835846
7.0732031 -17.967522 -1.1810659
6.9376307 -17.945423 -1.1766584
6.7225537 -17.711468 -1.1580209
6.60748 -17.73555 -1.1568875
6.5670714 -17.963224 -1.1694804
6.4597602 -18.011637 -1.1700472
6.1646605 -17.526535 -1.1349758
6.0062432 -17.416849 -1.1251533
5.8727365 -17.374901 -1.1199272
6.102077 -18.425278 -1.1873624
5.9460998 -18.33042 -1.1786103
5.7881947 -18.223881 -1.1691656
5.6250076 -18.094181 -1.1582727
5.5054555 -18.100664 -1.1564467
5.387743 -18.112104 -1.1549985
5.2603431 -18.089239 -1.1513466
5.2507372 -18.478296 -1.1747695
5.1420622 -18.527477 -1.1759028
4.0338264 -14.888583 -0.93600732
3.9370387 -14.892792 -0.93468505
4.6471696 -18.02561 -1.1372426
4.5573974 -18.137028 -1.1426575
4.4403296 -18.141384 -1.1411463
4.3108883 -18.092564 -1.1362351
4.1995678 -18.117701 -1.1361721
4.1172824 -18.271643 -1.1444834
4.0415893 -18.463274 -1.1552504
3.9228311 -18.462345 -1.1536133
3.6571767 -17.747097 -1.106012
0.48120317 -2.4115968 -0.11796982
0.46393409 -2.4017656 -0.11715128
3.3810668 -18.085112 -1.1235791
0.50627398 -2.8050375 -0.14265199
0.49642214 -2.8503683 -0.14535947
0.47049105 -2.8031652 -0.14214827
0.4492999 -2.7813687 -0.14057414
0.43084607 -2.7751975 -0.14000747
0.4111602 -2.7600212 -0.1388741
0.3988747 -2.7950957 -0.14095193
0.37969077 -2.7826579 -0.14000747
0.35990059 -2.7641528 -0.13868521
0.24164383 -1.9502057 -0.086802289
0.2285046 -1.9417402 -0.08617264
0.21702905 -1.9470731 -0.0864245
0.20434524 -1.9414206 -0.085983746
0.19144325 -1.9327065 -0.085354097
0.17939581 -1.9318573 -0.085228167
0.16797072 -1.937893 -0.085542992
0.15415005 -1.9150125 -0.084031843
0.14195178 -1.9099507 -0.083654054
0.13043408 -1.9137728 -0.083842948
0.11862697 -1.9135411 -0.083779983
0.10721856 -1.9202117 -0.084157772
0.095633268 -1.9248205 -0.084409632
0.083908215 -1.9273652 -0.084535562
0.072642982 -1.9428034 -0.085480027
0.060563922 -1.9382249 -0.085165203
0.048215479 -1.9206016 -0.084031843
0.036104735 -1.9038981 -0.08296144
0.023914596 -1.8651645 -0.080505818
0.012393968 -1.8542982 -0.079813205
0.0010022582 -1.8363751 -0.078679837
-0.010303078 -1.8433326 -0.079120591
-0.028929418 -2.4789286 -0.11922912
-0.044297766 -2.4876852 -0.11979579
-0.046200704 -1.9256426 -0.084346667
-0.056940679 -1.8894104 -0.082079932
-0.075403579 -2.0795226 -0.094106197
-0.77964401 -18.459835 -1.1284904
-0.88479763 -18.287233 -1.1179123
-0.94978106 -17.41547 -1.0631959
-1.11694 -18.403505 -1.1260347
-1.15058 -17.210316 -1.0510439
-0.24482425 -3.348413 -0.17463805
-0.23929401 -3.0175347 -0.15379673
-0.28878149 -3.3789661 -0.17677885
-0.35353738 -3.8581593 -0.20725377
-0.36846817 -3.7665219 -0.20158695
-0.30543602 -2.9353106 -0.14901142
-0.42777097 -3.8807588 -0.20914271
-0.45261279 -3.8869829 -0.20970939
-0.44294479 -3.6107261 -0.19233114
-0.46751371 -3.6267474 -0.19352746
-0.47760439 -3.5338078 -0.18779768
-0.36817092 -2.6028905 -0.12867382
-0.41822544 -2.8316164 -0.14340755
-0.46700239 -3.0331845 -0.15644126
-0.49838591 -3.1100843 -0.1615414
-0.64705247 -3.8856888 -0.21134648
-0.53481519 -3.0938997 -0.16091175
-0.55871421 -3.1180668 -0.16267475
-3.6636891 -19.759289 -1.2306821
-3.2110643 -16.744011 -1.0384508
-3.3141313 -16.72595 -1.0385768
-0.53388786 -2.60866 -0.13081461
-0.5564748 -2.6365843 -0.13282949
-0.86597097 -3.9828682 -0.21997264
-4.021945 -17.972895 -1.1247755
-3.9044478 -16.958767 -1.0607404
-4.2316236 -17.87751 -1.1218791
-4.1077833 -16.89115 -1.0595441
-0.6886816 -2.756654 -0.1420853
-0.70484006 -2.7494762 -0.14189641
-0.73082769 -2.7798486 -0.14416313
-1.0982509 -4.0762763 -0.22916549
-0.63587743 -2.3031065 -0.11356229
-0.93735367 -3.316246 -0.18024191
-0.92358422 -3.1925075 -0.17249726
-0.74780804 -2.5264382 -0.12905161
-0.72341675 -2.389976 -0.12036248
-0.77580667 -2.5075366 -0.12842196
-1.0575806 -3.345886 -0.18420869
-6.0436115 -18.725794 -1.204237
-1.3474916 -4.0881186 -0.23439156
-1.3661876 -4.0608544 -0.23313227
-0.72440189 -2.1096873 -0.1035509
-0.73634386 -2.1023769 -0.10336201
-1.1931014 -3.3413496 -0.18666431
-1.5039974 -4.1320815 -0.24024728
-1.5317521 -4.1293254 -0.24068803
-1.5609406 -4.1301184 -0.24138065
-1.5887624 -4.1269832 -0.24182139
-1.1726713 -2.9909682 -0.16550817
-1.1739874 -2.941077 -0.1626118
-1.3737792 -3.3813534 -0.19308671
-1.3868766 -3.3544137 -0.19182742
-1.2298584 -2.9235694 -0.16292661
-1.2497365 -2.9205561 -0.16324145
-1.3034651 -2.9951978 -0.16890827
-1.308899 -2.9579368 -0.16689339
-1.7539583 -3.8991988 -0.23256558
-1.5571182 -3.405477 -0.19906837
-1.4076933 -3.0292857 -0.17356765
-1.8484377 -3.9149897 -0.23596568
-7.3539405 -15.333979 -1.0357434
-1.9304322 -3.9619954 -0.24087693
-0.89477986 -1.8076845 -0.090076454
-0.90406257 -1.798593 -0.089824595
-0.91009301 -1.7832327 -0.089131981
-0.92423022 -1.7838185 -0.089572735
-1.4752291 -2.8055038 -0.16280068
-0.94276232 -1.7661787 -0.089131981
-0.95548236 -1.7638713 -0.089383841
-0.96292335 -1.7518525 -0.088943087
-1.9887356 -3.5669632 -0.22047636
-1.4844483 -2.6242771 -0.15304115
-10.106719 -17.618656 -1.2442825
-10.290419 -17.686571 -1.2537901
-10.372375 -17.5784 -1.2505161
-10.448268 -17.461329 -1.2466122
-5.125329 -8.4470682 -0.58617538
-1.5502295 -2.5194068 -0.14945216
-1.5783337 -2.5301714 -0.15096332
-11.103493 -17.56324 -1.2737499
-1.3427272 -2.0946655 -0.11979579
-1.3327231 -2.0512342 -0.11715128
-1.3732693 -2.0855331 -0.12036248
-1.3755172 -2.0612931 -0.11916615
-1.4077014 -2.0817533 -0.12136991
-1.4311639 -2.0887208 -0.12256624
-1.4223303 -2.0487437 -0.12017358
-1.3453237 -1.9126192 -0.11035109
-1.3500855 -1.894574 -0.10959551
-1.4031502 -1.9437144 -0.114066
-1.4256518 -1.9495708 -0.11519937
-1.5991294 -2.1589489 -0.13232577
-1.5315063 -2.041311 -0.12382554
-1.4353362 -1.888826 -0.11249189
-1.4335103 -1.8625814 -0.11110666
-1.5682073 -2.0119879 -0.12376257
-1.5693949 -1.9882252 -0.1226292
-1.6120931 -2.0167618 -0.12571448
-1.6332265 -2.0176938 -0.12659599
-2.9075038 -3.5476942 -0.25221059
-1.6674229 -2.0090206 -0.12754045
-1.6829284 -2.0025723 -0.12785527
-1.6932443 -1.9899278 -0.12766638
-1.7041198 -1.9779884 -0.12754045
-1.7142566 -1.9652382 -0.12735155
-1.7236408 -1.9516901 -0.12709971
-2.2470522 -2.5132806 -0.17551956
-2.1780536 -2.4062066 -0.16758601
-2.239296 -2.443572 -0.17193057
-2.2651062 -2.4414935 -0.172938
-2.2916582 -2.4399173 -0.17400841
-2.3230891 -2.4431701 -0.17551956
-2.4051647 -2.4986227 -0.18162714
-3.02984 -3.1093051 -0.23672126
-16.138739 -16.362419 -1.4127761
-3.2130318 -3.2173762 -0.24969198
-2.466469 -2.4395463 -0.1816901
-2.521363 -2.4634285 -0.18521613
-2.5026827 -2.4153337 -0.18225679
-2.5217896 -2.4040644 -0.18263458
-3.5012808 -3.2972684 -0.26625171
-2.5781364 -2.3980901 -0.18496427
-3.1027806 -2.8508925 -0.22866178
-3.2051964 -2.9089415 -0.23590271
-3.3441057 -2.9978178 -0.24616596
-2.6414421 -2.3387289 -0.18540502
-17.39035 -15.211008 -1.4204577
-3.6358545 -3.1406264 -0.26593688
-17.516485 -14.945928 -1.4155465
-3.3375683 -2.812149 -0.23816945
-3.4429758 -2.8650379 -0.24541038
-3.417315 -2.8083699 -0.24188437
-3.3988385 -2.7584155 -0.23898798
-4.1328936 -3.3124101 -0.29697847
-4.1421847 -3.278317 -0.29609698
-4.1071801 -3.2098165 -0.29168946
-3.8289418 -2.9546697 -0.26795176
-18.232172 -13.893405 -1.4089981
-3.0889513 -2.3236272 -0.20668709
-11.286996 -8.3838749 -0.84987158
-3.0174384 -2.2123611 -0.19887947
-2.997812 -2.1698093 -0.19629791
-3.0346165 -2.1682024 -0.19812389
-3.0772221 -2.1702521 -0.20039062
-3.0929377 -2.1530404 -0.20057951
-3.0847049 -2.1193259 -0.19894244
-3.0951726 -2.0986781 -0.19875354
-19.696745 -13.182228 -1.4581107
-19.773928 -13.058923 -1.4578588
-19.851173 -12.935712 -1.4576699
-3.6620207 -2.3540273 -0.23747683
-5.7142119 -3.6241269 -0.38972551
-5.7448015 -3.594291 -0.39035514
-3.6767044 -2.268924 -0.23539899
-3.7007866 -2.2525492 -0.23615457
-3.7299397 -2.2390463 -0.23728794
-3.755631 -2.2232366 -0.23816945
-3.7907486 -2.2127304 -0.23974356
-3.8250129 -2.2013788 -0.24125472
-3.8931315 -2.2089002 -0.2452215
-3.8735142 -2.1664555 -0.24282883
-3.9068353 -2.1537309 -0.24427702
-3.8384249 -2.0854018 -0.23842131
-3.8555474 -2.0641661 -0.23873612
-3.9034479 -2.059099 -0.24125472
-3.9213219 -2.0378709 -0.24163251
-3.9435239 -2.0187752 -0.24232511
-4.3327756 -2.1846364 -0.26895919
-4.3720202 -2.1708837 -0.27078515
-4.4354658 -2.1685686 -0.27431118
-4.4028273 -2.1192334 -0.27109998
-17.716518 -8.3954067 -1.1997035
-5.7381821 -2.6758883 -0.36227289
-5.7526789 -2.6397965 -0.36214694
-22.443254 -10.133816 -1.516416
-22.506836 -9.996726 -1.5165418
-5.8524237 -2.5562346 -0.36573595
-5.7882204 -2.4860065 -0.36025801
-5.7849774 -2.4426782 -0.35899872
-22.705755 -9.4249172 -1.5138344
-22.754841 -9.2820272 -1.5132678
-9.5928431 -3.8443246 -0.6148243
-9.6171789 -3.7857573 -0.6148873
-22.794308 -8.8123074 -1.5046415
-22.844219 -8.6708612 -1.5043898
-22.855843 -8.5151978 -1.5016192
-22.928282 -8.3823357 -1.5030044
-23.230108 -8.3314552 -1.519816
-13.391606 -4.7101693 -0.8584348
-14.206176 -4.8989573 -0.91088438
-7.8049383 -2.6378458 -0.48259842
-7.787818 -2.5789235 -0.48039466
-7.8034954 -2.5310898 -0.48039466
-14.564676 -4.6258888 -0.92694038
-14.535604 -4.5186567 -0.92316252
-14.571651 -4.4319968 -0.92372918
-14.545001 -4.3265676 -0.92020315
-14.653689 -4.2612076 -0.92561811
-14.71124 -4.1802168 -0.92769593
-9.7003984 -2.6920226 -0.5979498
-9.698431 -2.6274922 -0.59675348
-9.7105112 -2.5669138 -0.59650159
-12.928762 -3.3330381 -0.8051666
-13.244186 -3.3278332 -0.82437086
-13.094712 -3.2049794 -0.81335205
-13.085006 -3.1176312 -0.81146312
-13.142778 -3.0462995 -0.81398171
-13.353995 -3.0090427 -0.82644868
-11.497423 -2.516618 -0.70536757
-15.211538 -3.2320364 -0.94394082
-15.207623 -3.1338043 -0.94242972
-15.077806 -3.0107245 -0.93285906
-15.103834 -2.9196677 -0.93336278
-15.266655 -2.8540845 -0.94268155
-15.290754 -2.7615981 -0.94312233
-15.216958 -2.6519575 -0.93732953
-15.392388 -2.5853226 -0.94752985
-15.487764 -2.503731 -0.95262998
-15.470291 -2.4035957 -0.95055217
-15.454148 -2.3040636 -0.94860023
-15.371172 -2.1953642 -0.94242972
-15.56531 -2.1257246 -0.95395225
-15.983814 -2.0830672 -0.97976774
-16.148819 -2.0038834 -0.98946434
-16.66729 -1.9644661 -1.0216393
-27.19066 -3.0360045 -1.6889392
-27.324902 -2.8813553 -1.6963061
-27.396688 -2.7190607 -1.6997691
-0 -0 -0
-0 -0 -0
-0 -0 -0
-30.942541 -2.305815 -1.9203975
-30.980003 -2.1175454 -1.9219086
-30.886827 -1.920848 -1.9152344
-30.945862 -1.7339745 -1.9182568
-30.866209 -1.5395858 -1.9125899
-30.83918 -1.3485953 -1.9103231
-30.931646 -1.1625313 -1.9156752
-30.845428 -0.96979845 -1.9098195
-25.701458 1.8997583 -1.9094507
-25.587933 2.0492995 -1.9017674
-25.560968 2.205065 -1.9007127
-25.516176 2.3590155 -1.8983777
-25.480381 2.5134788 -1.8967957
-25.44762 2.6680079 -1.8955152
-25.401039 2.8207982 -1.8932554
-25.359484 2.9738145 -1.8914475
-25.340759 3.1293614 -1.8914475
-25.302292 3.2823522 -1.8900163
-25.246105 3.4327042 -1.8873045
-25.222593 3.587266 -1.887154
-25.190245 3.7404962 -1.8864007
-25.217075 3.9027705 -1.8902423
-25.130632 4.0474343 -1.8854967
-25.068935 4.1954651 -1.8827096
-25.055492 4.3514252 -1.8836889
-25.039116 4.5070243 -1.8845176
-24.955114 4.6501622 -1.8802239
-24.893801 4.7969685 -1.8777381
-24.864876 4.9498181 -1.8778135
-24.857479 5.1071105 -1.8796213
-24.829576 5.2603641 -1.8799225
-24.8358 5.421124 -1.8829356
-24.861416 5.5867505 -1.8875306
-24.932564 5.7636776 -1.8957412
-24.932625 5.9250841 -1.8985283
-24.99267 6.1016102 -1.9060609
-24.956694 6.2553325 -1.9062116
-25.000895 6.4297094 -1.9126897
-25.000504 6.5934186 -1.9157782
-25.002893 6.7584057 -1.9191679
-25.004198 6.9236698 -1.9225576
-25.027439 7.0957327 -1.9277551
-25.038015 7.2650056 -1.9320487
-25.090471 7.4474459 -1.9397321
-25.178839 7.6420979 -1.9503531
-25.190521 7.8147693 -1.9550234
-25.200079 7.9875698 -1.9596183
-25.255896 8.1761389 -1.9679796
-25.252592 8.3466015 -1.971746
-25.296329 8.5335884 -1.9793539
-25.333065 8.7194767 -1.98651
-25.222635 8.8549328 -1.9819903
-25.29175 9.0538969 -1.9919336
-25.318151 9.2389984 -1.9985623
-25.392765 9.4431868 -2.0091834
-25.364183 9.6101227 -2.0115938
-25.425674 9.8122511 -2.0213864
-25.433664 9.9950666 -2.0269604
-25.388521 10.157605 -2.0283163
-25.396828 10.342155 -2.0341165
-25.356842 10.507719 -2.0360751
-25.346102 10.685966 -2.0405192
-25.337791 10.866048 -2.045265
-25.353815 11.057592 -2.0521197
-25.358412 11.245294 -2.0581458
-25.368021 11.436336 -2.0646992
-25.378956 11.629164 -2.0714786
-25.364975 11.811609 -2.0762994
-25.332584 11.986217 -2.0796893
-25.255865 12.140133 -2.0794632
-25.204195 12.306248 -2.0814219
-25.103197 12.448261 -2.0793126
-24.987158 12.582323 -2.0759983
-24.868643 12.714522 -2.0725331
-0 0 -0
-24.599588 12.960173 -2.0630419
-24.462446 13.080304 -2.0581458
-24.32476 13.199242 -2.0532496
-24.161205 13.303035 -2.0461688
-24.074772 13.448603 -2.0457921
-23.881624 13.533628 -2.0362258
-23.777388 13.66798 -2.0344179
-23.653448 13.790514 -2.0309527
-23.54607 13.922193 -2.0289943
-23.438822 14.053586 -2.0271111
-23.33511 14.186779 -2.0256047
-23.229795 14.318705 -2.0240228
-23.122051 14.448815 -2.0222902
-23.011902 14.577077 -2.020407
-22.87336 14.68675 -2.0160382
-22.745205 14.802344 -2.0126483
-22.58403 14.895507 -2.006321
-22.44993 15.005538 -2.0024793
-22.325237 15.121196 -1.9995415
-22.200794 15.236453 -1.9966791
-22.074959 15.350184 -1.9937414
-21.953457 15.466392 -1.9912556
-21.784286 15.548086 -1.9844009
-21.673931 15.670942 -1.983045
-21.539558 15.775942 -1.9795046
-21.411924 15.885231 -1.9766421
-21.280571 15.991152 -1.9734784
-21.15666 16.1021 -1.971068
-21.02903 16.209694 -1.9683563
-20.901663 16.316944 -1.9657198
-20.771427 16.421385 -1.9628574
-20.639141 16.523598 -1.9598444
-20.510256 16.627947 -1.9572079
-20.386263 16.735765 -1.9550987
-20.264021 16.844601 -1.9532156
-20.148077 16.958347 -1.9520103
-20.027706 17.068071 -1.9504285
-19.901463 17.172398 -1.9483193
-19.779202 17.279753 -1.9466621
-19.655624 17.385595 -1.9449296
-19.528522 17.487911 -1.9428958
-19.403122 17.591331 -1.941088
-19.281595 17.697918 -1.9397321
-19.157301 17.80164 -1.9381502
-19.028101 17.900402 -1.9361163
-18.90419 18.003752 -1.9346851
-18.761782 18.088953 -1.9313707
-18.627602 18.181444 -1.9289603
-18.499378 18.279278 -1.9272279
-18.385462 18.391033 -1.9270772
-18.279276 18.510593 -1.9278305
-18.170923 18.628115 -1.9284331
-18.047979 18.730642 -1.9275291
-17.918274 18.825861 -1.9259472
-17.792862 18.92528 -1.9248927
-17.610586 18.963221 -1.917586
-17.4757 19.051079 -1.9155521
-17.331696 19.128389 -1.9125391
-17.200701 19.219513 -1.9110326
-17.063295 19.303026 -1.908848
-16.928139 19.388582 -1.9069649
-16.783459 19.462633 -1.9040271
-16.644327 19.542473 -1.9017674
-16.498428 19.613708 -1.8987542
-16.357382 19.690027 -1.8963438
-16.216652 19.766125 -1.8940086
-16.086277 19.854408 -1.8929541
-15.9492 19.93405 -1.8911463
-15.814841 20.01667 -1.8897151
-15.679457 20.097609 -1.8882085
-15.546109 20.180798 -1.8870033
-15.411124 20.26152 -1.8856474
-15.275734 20.341347 -1.8842915
-12.478312 16.830004 -1.5453209
-15.000818 20.49428 -1.8812032
-14.866026 20.573812 -1.8800732
-14.734297 20.657335 -1.8793952
-14.599806 20.736755 -1.8784161
-14.465465 20.81612 -1.8775121
-14.329572 20.892975 -1.8764576
-14.19887 20.977203 -1.8761562
-14.06712 21.059784 -1.8757796
-13.937634 21.145702 -1.8757796
-13.805993 21.228315 -1.8755536
-13.677633 21.315985 -1.875855
-11.471998 18.121958 -1.5828336
-11.416571 18.281664 -1.5908183
-11.438575 18.569574 -1.6101773
-11.445046 18.83798 -1.6277285
-11.47171 19.145649 -1.6486692
-11.444811 19.369354 -1.6621528
-12.680982 21.765577 -1.8655351
-12.542225 21.834332 -1.8647819
-9.6084328 16.966658 -1.4355698
-12.268966 21.978764 -1.8641039
-12.118977 22.026546 -1.8617688
-11.980268 22.094357 -1.8612415
-11.263698 21.080378 -1.7681376
-11.238647 21.347628 -1.7850862
-11.39344 21.967669 -1.8320147
-11.343715 22.204111 -1.8461761
-10.606726 21.079659 -1.7452382
-10.565722 21.323044 -1.7603036
-10.643228 21.814964 -1.7962345
-10.731924 22.343678 -1.8351032
-10.56181 22.339691 -1.8293029
-9.2821226 19.948534 -1.6247153
-10.153634 22.176579 -1.8051231
-9.9633169 22.118448 -1.79518
-9.790657 22.096201 -1.7883252
-9.8568363 22.619335 -1.8265159
-9.7802992 22.825127 -1.8384929
-9.6899929 23.003254 -1.84821
-9.5112867 22.971989 -1.8408279
-9.3957052 23.092724 -1.8459501
-9.2519846 23.145311 -1.8455735
-9.1046915 23.18865 -1.844519
-8.9572153 23.231052 -1.8434644
-8.8229752 23.307959 -1.8452722
-8.6818781 23.367264 -1.8457242
-8.5437994 23.435085 -1.8469294
-8.4045439 23.500214 -1.847984
-8.2631617 23.559809 -1.8486619
-8.1019115 23.561975 -1.8448203
-7.9030557 23.450602 -1.8320147
-7.719316 23.378397 -1.8224483
-7.5462718 23.334238 -1.8152169
-7.3809834 23.310703 -1.809718
-7.2230563 23.307928 -1.8059516
-7.0321755 23.194355 -1.7935227
-6.8772554 23.195 -1.7902083
-6.7300858 23.22048 -1.7889278
-6.5804176 23.236393 -1.7869693
-6.4281507 23.241732 -1.7842575
-6.262033 23.194094 -1.7774781
-6.1119804 23.203152 -1.7752182
-5.9685016 23.236355 -1.774917
-5.8260555 23.273506 -1.7749923
-5.6840868 23.312691 -1.7752936
-5.5400152 23.343248 -1.7749923
-5.3917456 23.355427 -1.7733351
-5.2426624 23.362772 -1.7713766
-5.0919938 23.361376 -1.7688155
-4.9427781 23.364862 -1.7667063
-4.7929101 23.363493 -1.7642959
-4.6420789 23.355297 -1.7614335
-4.4900227 23.338297 -1.7579684
-2.7211063 14.624623 -1.0863546
-2.6267359 14.615526 -1.0843961
-2.4794517 14.29928 -1.0589358
-2.3834536 14.265047 -1.0551693
-2.288444 14.23313 -1.0516291
-2.198329 14.229166 -1.0502732
-2.1105409 14.239428 -1.0500472
-2.1507285 15.151515 -1.1186699
-1.897049 13.979678 -1.028353
-1.8134105 14.007867 -1.0296336
-1.8037153 14.638271 -1.0767882
-1.6697453 14.271716 -1.0480887
-1.5842289 14.300524 -1.0495199
-1.500598 14.349646 -1.0525329
-1.4151555 14.385377 -1.0545667
-1.3486277 14.630114 -1.0724945
-1.267967 14.744417 -1.0805545
-1.1819117 14.807584 -1.0847728
-1.0895686 14.794668 -1.0832663
-1.0170091 15.071688 -1.1037551
-0.92969275 15.162245 -1.110158
-0.83943844 15.218442 -1.1139996
-0.70715535 14.428524 -1.0538888
-0.61822671 14.423625 -1.0532109
-0.54844141 14.938347 -1.0918535
-0.46114758 15.084955 -1.1027006
-0.35316423 14.454493 -1.0548681
-0.2650294 14.487294 -1.0572032
-0.19290502 15.877588 -1.1621335
-0.086789802 14.415667 -1.0516291
0.0016570684 14.377039 -1.0486913
0.094501227 15.107661 -1.1039058
0.1785329 14.411831 -1.051403
0.26979706 14.563003 -1.0629281
0.3565588 14.456404 -1.0550187
0.45664477 14.822717 -1.0828897
0.53758723 14.549591 -1.062476
0.63665843 14.773159 -1.0796506
0.72950339 14.813792 -1.0830402
0.82115865 14.822976 -1.0840949
0.92749208 15.067472 -1.103002
1.0186454 15.042594 -1.1015707
1.108278 15.00026 -1.098859
1.2000581 14.990196 -1.0986329
1.2872974 14.92791 -1.0944899
1.3661029 14.781714 -1.0840195
1.4573637 14.779008 -1.0844715
1.5494748 14.783671 -1.0855261
1.6401566 14.773886 -1.0855261
1.7245027 14.710064 -1.0814584
1.813996 14.693268 -1.0810064
1.9122026 14.74416 -1.085752
2.0050542 14.749934 -1.0871079
2.0913067 14.707737 -1.0848482
2.1582177 14.5378 -1.0728712
2.280179 14.736149 -1.0890664
2.3483515 14.584056 -1.0785207
2.4293966 14.519215 -1.074679
2.5716879 14.810558 -1.098181
2.6376016 14.656125 -1.0875599
2.7245569 14.623981 -1.0863546
2.8565106 14.826315 -1.1032279
2.9519083 14.831001 -1.1049604
2.9902639 14.556702 -1.0852247
3.0877945 14.5771 -1.0882379
3.2152524 14.732263 -1.1017213
3.299902 14.686962 -1.0997628
3.3540156 14.510993 -1.0877105
3.4508305 14.523125 -1.0902717
3.5408239 14.505552 -1.090573
3.6377635 14.515471 -1.0930587
3.7324736 14.515089 -1.0947913
3.8217206 14.492878 -1.0948666
3.909014 14.46338 -1.0944146
3.9822495 14.383385 -1.0900457
4.0660768 14.34333 -1.0888405
4.1637363 14.351629 -1.0914769
4.3079081 14.515083 -1.1063915
4.4232473 14.575207 -1.1132463
4.4898429 14.474459 -1.1074462
4.5731478 14.429528 -1.1060903
4.6662073 14.415426 -1.1072202
4.7620821 14.409245 -1.109028
4.8835592 14.478017 -1.1168621
4.9989176 14.525094 -1.1230388
5.093894 14.511084 -1.1243947
5.1895585 14.49833 -1.1259012
5.2756863 14.458721 -1.1252986
5.3570042 14.406451 -1.1237167
5.4481263 14.38077 -1.1243194
5.5671411 14.427073 -1.1307975
5.6821866 14.46039 -1.1362964
5.7900696 14.473394 -1.1402134
5.9058485 14.504086 -1.1456369
6.0027499 14.486921 -1.1472187
6.0973382 14.463598 -1.1483487
6.2134843 14.490064 -1.1536216
6.2372937 14.302684 -1.1413432
6.3301911 14.275993 -1.1423225
6.4660311 14.34415 -1.151211
6.5746942 14.349529 -1.1549774
6.6605129 14.304399 -1.1546007
6.7583938 14.284893 -1.1564085
6.854126 14.260231 -1.1578398
6.9830627 14.303029 -1.1649959
7.1176548 14.354607 -1.1729805
7.3020287 14.502142 -1.1891757
7.3382149 14.354076 -1.1804378
7.4449873 14.345065 -1.1835263
7.5626154 14.355575 -1.1883472
7.6552596 14.317694 -1.1891004
7.7629433 14.307262 -1.1922642
7.8621283 14.280324 -1.194072
8.0279026 14.371967 -1.2061996
8.165103 14.40919 -1.2137322
8.3010731 14.44181 -1.2209637
8.3347816 14.296709 -1.2127531
8.5426378 14.448721 -1.2306055
8.5916462 14.330182 -1.2248054
8.6628351 14.24993 -1.2223948
8.7741785 14.235554 -1.2258599
8.8930693 14.232185 -1.2303795
9.0031748 14.213572 -1.2336186
9.222764 14.36447 -1.252149
9.3373823 14.34856 -1.2558399
9.449955 14.328455 -1.2592297
9.5648479 14.310822 -1.2629207
9.6457672 14.241957 -1.2620168
10.887502 15.864594 -1.4161354
13.859705 19.931713 -1.7965358
13.981169 19.84548 -1.7964605
10.612832 14.870183 -1.3426918
14.285585 19.758068 -1.8044451
14.414799 19.681303 -1.8054997
14.542419 19.602095 -1.8064036
14.655233 19.50293 -1.8054997
14.788516 19.430889 -1.8072321
14.925728 19.363476 -1.809492
15.041804 19.268385 -1.8091908
0 0 -0
11.930964 14.903135 -1.4047611
12.007112 14.811058 -1.4029533
12.064862 14.697029 -1.3990363
12.150352 14.617356 -1.3985089
15.707436 18.662012 -1.8052737
15.81906 18.562246 -1.8049724
15.935916 18.468607 -1.805349
16.050905 18.37273 -1.805575
16.154087 18.263443 -1.8045205
16.25387 18.150608 -1.8031646
16.364264 18.049795 -1.8030893
16.463919 17.937294 -1.8018839
16.573669 17.835936 -1.8018839
16.704662 17.757145 -1.8042945
16.205357 17.016018 -1.7377056
16.298386 16.904778 -1.7365004
16.397625 16.800173 -1.7360483
16.471663 16.670162 -1.73296
16.283787 16.279043 -1.7020006
16.344341 16.140287 -1.6978576
16.424509 16.021593 -1.6958991
16.309233 15.715031 -1.6735271
16.449413 15.656597 -1.678122
16.562609 15.571762 -1.6799299
16.826635 15.626582 -1.6973304
17.047863 15.6383 -1.7102113
17.202614 15.586963 -1.7162374
17.32468 15.505054 -1.7189492
17.450125 15.425536 -1.7220376
17.595526 15.362767 -1.7271599
17.715889 15.277306 -1.7297963
17.82448 15.181246 -1.7313027
17.947056 15.096623 -1.7342405
18.115286 15.049296 -1.7416979
18.346056 15.051699 -1.7552567
18.490751 14.981529 -1.760379
18.689003 14.953132 -1.7706987
18.845345 14.889482 -1.7769508
18.951288 14.785223 -1.7783821
19.071671 14.691785 -1.7812444
19.186064 14.593199 -1.7835796
19.330265 14.516515 -1.7887771
19.514296 14.468302 -1.7977411
19.889973 14.558537 -1.8246326
0 0 -0
0 0 -0
0 0 -0
0 0 -0
21.092808 14.466615 -1.8947619
21.472683 14.534213 -1.9213523
21.822662 14.576642 -1.9450803
22.178957 14.618608 -1.9692602
22.413692 14.576835 -1.982367
22.594193 14.497725 -1.9905777
22.735806 14.392416 -1.9953232
22.845678 14.266373 -1.9972817
22.922596 14.11965 -1.9963778
22.742054 13.816689 -1.9728005
22.833246 13.680986 -1.9734031
22.84207 13.496499 -1.9668497
22.859831 13.318443 -1.9612002
22.855518 13.12876 -1.9537429
22.845402 12.937176 -1.9459089
22.915646 12.791896 -1.9451556
22.928179 12.614999 -1.9395061
22.936775 12.437006 -1.9336306
22.98715 12.282408 -1.9314461
23.018845 12.11837 -1.9277551
23.0131 11.935586 -1.9209757
23.036173 11.768753 -1.9167573
23.053614 11.599847 -1.9121624
23.03858 11.415676 -1.9049311
23.056211 11.248742 -1.9005622
23.058281 11.075115 -1.8949879
23.046471 10.895922 -1.8883592
23.064976 10.732013 -1.8843669
23.078711 10.566628 -1.8800732
23.083105 10.397794 -1.8751017
23.056213 10.215976 -1.8676443
23.068184 10.052405 -1.8635013
23.095518 9.896143 -1.8607142
23.112612 9.7360535 -1.8571739
23.11203 9.5692616 -1.8522776
23.13706 9.4137421 -1.8495659
23.144384 9.2516136 -1.8454982
23.147808 9.0886583 -1.8412046
23.113821 8.9120207 -1.8339732
23.109316 8.7477922 -1.8292276
23.105536 8.5846491 -1.8246326
23.102501 8.4225655 -1.8201884
23.077692 8.2534571 -1.8140869
0 0 -0
0 0 -0
23.074509 7.776329 -1.8020346
23.07918 7.620533 -1.7986449
23.152069 7.4873681 -1.8007541
23.054977 7.3000245 -1.7894551
23.075523 7.1510463 -1.7875719
23.049303 6.9882064 -1.782073
23.090794 6.8463635 -1.7819977
23.126619 6.7028871 -1.7815458
23.198975 6.5698233 -1.7840315
23.242693 6.4284163 -1.7843329
23.305767 6.2921772 -1.786216
23.357437 6.1526127 -1.7872705
23.402475 6.0111628 -1.7878733
23.443756 5.8686652 -1.7882499
23.486105 5.7263594 -1.7887771
23.52371 5.5828342 -1.7890031
23.561409 5.4392877 -1.7893044
23.602125 5.2963614 -1.789907
23.640024 5.1527157 -1.790359
23.688755 5.0112801 -1.7917149
23.736641 4.8694406 -1.7930708
23.783678 4.7272015 -1.7944267
23.826923 4.5840039 -1.7955565
23.87813 4.4420943 -1.7973644
23.913769 4.2970839 -1.7980423
23.96032 4.1538467 -1.7996242
23.988306 4.0072436 -1.7998502
24.007519 3.8591876 -1.7994735
24.038631 3.7130251 -1.8000761
24.060961 3.5654569 -1.8000761
24.119902 3.4230769 -1.8029386
24.178988 3.2802417 -1.8058764
24.229317 3.1357865 -1.8082114
24.28274 2.9913247 -1.8108479
24.346195 2.8475988 -1.8143129
7.1814184 0.79614991 -0.50844741
7.0532727 0.73818403 -0.49835363
7.0735474 0.69645274 -0.49955887
7.0191031 0.64764142 -0.49511456
7.0070491 0.60319513 -0.49390933
7.002666 0.55955523 -0.49330673
7.002984 0.51635766 -0.49308074
6.9950767 0.47264081 -0.49225214
6.983911 0.42885762 -0.49119759
6.9774499 0.38550347 -0.49051964
6.9796844 0.3426834 -0.49051964
6.9816556 0.2998504 -0.49051964
6.9833641 0.25700614 -0.49051964
6.9738455 0.21381786 -0.48969105
6.9750266 0.17102313 -0.48969105
6.9839206 0.12836722 -0.49029365
6.9935503 0.085620642 -0.4909716
6.99893 0.042737026 -0.49134824
7.0080347 -0.00021016783 -0.49202618
7.0188699 -0.043280113 -0.49285477
7.0304375 -0.086495467 -0.49375868
7.0397439 -0.12981729 -0.49451196
7.0547647 -0.17340457 -0.4957172
7.0705113 -0.21721186 -0.49699774
7.1089048 -0.26206756 -0.50001079
7.1649442 -0.30817673 -0.50437975
7.2017603 -0.35405001 -0.50731754
21.20495 -1.1752081 -1.5669397
21.16151 -1.3030888 -1.5642279
21.09243 -1.4287945 -1.559633
19.404648 -1.4340346 -1.4324813
20.029636 -1.6038897 -1.4805398
21.056597 -1.8162806 -1.559181
19.996532 -1.8484613 -1.479636
19.86871 -1.9596647 -1.4708227
19.880114 -2.0840364 -1.4726305
20.931351 -2.3242307 -1.5535315
10.604001 -1.2428097 -0.76915348
10.593206 -1.3074844 -0.76892751
10.579051 -1.3716885 -0.76847553
10.569448 -1.4364401 -0.76840025
10.56932 -1.5025301 -0.76907814
10.584559 -1.5710166 -0.77096134
13.842374 -2.1418102 -1.020745
13.836846 -2.2279739 -1.0213476
21.246174 -3.5555186 -1.5899143
14.469649 -2.5124657 -1.0720426
21.109674 -3.7995415 -1.582909
13.528031 -2.5202844 -1.0021393
20.902838 -4.0277305 -1.570706
20.754509 -4.1313763 -1.5612148
20.710211 -4.2548318 -1.5597837
20.661276 -4.3770728 -1.5580511
20.617468 -4.5001497 -1.5567706
20.531096 -4.6134515 -1.552251
20.448967 -4.7269859 -1.548108
20.364281 -4.8392258 -1.5438143
20.291582 -4.9536796 -1.5404999
20.23082 -5.0705762 -1.5381649
20.173252 -5.1879077 -1.536131
8.1919661 -2.1596684 -0.60260594
20.006996 -5.4077487 -1.5282217
7.7766089 -2.1525116 -0.57217389
7.7824416 -2.2056282 -0.57368046
19.734564 -5.7259045 -1.5148889
8.0004616 -2.373898 -0.59303939
7.9847908 -2.4226537 -0.59296411
7.9659657 -2.4704196 -0.59266281
8.1844902 -2.5933797 -0.61119318
19.26124 -6.2351871 -1.4919895
7.8396153 -2.5903385 -0.58633536
7.8008976 -2.6307421 -0.58452749
19.024408 -6.547771 -1.4824983
18.796644 -6.5986395 -1.4675083
18.439426 -6.6005783 -1.4421232
18.262753 -6.6640248 -1.4312007
18.152359 -6.7502341 -1.4256266
18.091949 -6.8544211 -1.4241201
18.059784 -6.9692516 -1.4249487
18.060299 -7.0970769 -1.428489
18.024746 -7.2110929 -1.4291669
18.011559 -7.334343 -1.4317281
18.029778 -7.4710646 -1.4369256
18.035971 -7.6036358 -1.4412192
18.041212 -7.7365632 -1.4455129
18.016251 -7.8570828 -1.447396
17.968613 -7.967885 -1.4474714
17.912113 -8.0747099 -1.4468688
17.852259 -8.1798944 -1.4460402
17.799925 -8.2884378 -1.4458895
17.743324 -8.3949413 -1.4454376
17.668114 -8.4924212 -1.4434791
17.57535 -8.5809813 -1.4400893
17.492887 -8.6740398 -1.4376036
17.423306 -8.7731371 -1.4362477
17.350502 -8.8703461 -1.4346658
17.277163 -8.9669924 -1.433084
17.198879 -9.0607491 -1.4311254
17.138563 -9.1637573 -1.4307488
12.958449 -7.0309691 -1.0763361
17.017832 -9.3695364 -1.4301462
16.946962 -9.4664841 -1.4290164
16.867739 -9.5584908 -1.4272084
12.479428 -7.172924 -1.0499718
12.61694 -7.3553419 -1.0658658
12.576721 -7.4356647 -1.0663178
17.046268 -10.220331 -1.4640433
16.978125 -10.321625 -1.4635913
16.853357 -10.387931 -1.4581678
12.314348 -7.6945114 -1.0595384
16.679125 -10.565148 -1.4541001
16.614824 -10.66783 -1.4541755
16.533176 -10.75924 -1.4527442
16.400257 -10.816559 -1.4467181
16.211716 -10.835525 -1.4356451
16.029343 -10.856502 -1.4250994
15.916388 -10.923052 -1.420881
15.841698 -11.015383 -1.4202031
15.74691 -11.093426 -1.4177173
15.643647 -11.164927 -1.4144782
15.523939 -11.223894 -1.4097327
15.397663 -11.2771 -1.4043845
15.253703 -11.316109 -1.397379
15.150501 -11.38433 -1.3942153
15.051799 -11.455336 -1.3915036
14.960693 -11.531647 -1.3895451
14.844068 -11.587636 -1.3851761
14.735143 -11.648813 -1.3815604
14.605788 -11.692888 -1.3759862
14.521374 -11.772239 -1.374781
14.458116 -11.868711 -1.375685
14.371216 -11.945727 -1.3743291
14.277813 -12.016987 -1.3723706
14.157516 -12.064912 -1.3677756
14.03264 -12.107905 -1.3627287
13.894256 -12.138013 -1.356326
13.78516 -12.192646 -1.3528609
13.67889 -12.249061 -1.3496972
13.574663 -12.30664 -1.3467594
13.459228 -12.353288 -1.3426918
13.355419 -12.409844 -1.3398293
13.279023 -12.491558 -1.3398293
13.211513 -12.581742 -1.3408086
13.055103 -12.586434 -1.3325226
12.943378 -12.632869 -1.328907
12.825901 -12.672799 -1.3246887
12.718998 -12.722344 -1.3216003
12.582544 -12.741255 -1.3153481
12.491596 -12.80537 -1.3139923
12.391341 -12.859516 -1.3116572
12.32389 -12.947585 -1.3129377
12.267434 -13.047662 -1.3154988
12.222427 -13.160684 -1.3194158
6.9264936 -7.5498543 -0.73661232
11.962927 -13.202529 -1.3084934
11.875709 -13.268996 -1.3078154
6.7427669 -7.6267581 -0.73164076
6.6840386 -7.6544662 -0.73028487
6.5965734 -7.6485133 -0.72561461
11.515461 -13.520004 -1.3041998
11.425226 -13.582013 -1.3033712
11.314276 -13.618878 -1.3001322
11.17105 -13.615577 -1.2930515
6.4335485 -7.9394641 -0.73457849
10.978208 -13.720492 -1.2900383
10.865997 -13.752384 -1.2866486
2.0249071 -2.5938337 -0.21120784
1.9961751 -2.5896201 -0.20962597
1.9742116 -2.5938828 -0.20887271
1.9516723 -2.5971761 -0.20804411
1.9398565 -2.6147099 -0.2085714
1.9326104 -2.6386335 -0.2097013
1.9169676 -2.6512504 -0.20977664
1.9139808 -2.6816349 -0.21150915
1.9032308 -2.7014821 -0.21226242
1.8928779 -2.7221169 -0.21309102
1.8772676 -2.7353249 -0.21324167
9.7890968 -14.461623 -1.2818277
9.6198721 -14.401179 -1.2709054
9.5296812 -14.457437 -1.2706794
9.4299202 -14.498919 -1.2691728
9.3558569 -14.580006 -1.271282
9.271019 -14.644721 -1.2719599
9.1688395 -14.681877 -1.2702274
9.0749197 -14.731916 -1.2697002
8.9802141 -14.780504 -1.2690974
8.890378 -14.837038 -1.2692481
8.7956219 -14.8853 -1.2687209
8.70613 -14.942435 -1.2690222
8.6083212 -14.985197 -1.2681183
8.514246 -15.034264 -1.2678169
8.425725 -15.093189 -1.2684195
8.3339176 -15.146352 -1.2685702
8.2422504 -15.199832 -1.2687962
8.1549397 -15.261553 -1.2697754
8.0616074 -15.312186 -1.2698507
7.9656658 -15.357822 -1.2695495
7.8522301 -15.369113 -1.2663858
7.6905551 -15.283388 -1.2550867
7.5806966 -15.298122 -1.252375
7.4678869 -15.305812 -1.2491359
7.3759904 -15.35584 -1.2495126
7.32936 -15.501778 -1.2579491
6.9060183 -14.841258 -1.1991942
7.0962405 -15.498073 -1.2502658
7.0403242 -15.628606 -1.2574972
6.933795 -15.647806 -1.2555387
6.8217187 -15.65349 -1.2525256
6.7381086 -15.724383 -1.2549361
6.7649713 -16.058584 -1.2789654
6.5892644 -15.913682 -1.2637492
6.4884896 -15.946424 -1.2631466
6.4082861 -16.030382 -1.2667624
6.2190714 -15.838281 -1.248006
6.1271524 -15.890098 -1.2491359
6.0418916 -15.960035 -1.2517723
5.9931579 -16.129541 -1.2624687
5.8988571 -16.179127 -1.2635233
5.7957792 -16.204689 -1.2626947
5.7157092 -16.295464 -1.267139
5.6451168 -16.416039 -1.2739937
5.5567017 -16.487221 -1.2769315
5.4535575 -16.515324 -1.2764795
5.3005781 -16.389078 -1.2638246
5.1990142 -16.418442 -1.2635987
5.1079135 -16.481466 -1.2660844
5.0133424 -16.534445 -1.2678169
4.9007416 -16.527611 -1.2648792
4.802568 -16.568863 -1.2657831
4.6994548 -16.593222 -1.2654065
4.7259173 -17.085951 -1.3017893
4.5089893 -16.699701 -1.2693235
3.9310386 -14.921924 -1.1283118
4.2503924 -16.546125 -1.2531282
4.1548395 -16.596077 -1.2550114
4.0635571 -16.664854 -1.258401
3.9411986 -16.605064 -1.2518476
3.8369951 -16.619219 -1.2510943
3.7342944 -16.63953 -1.2508684
3.6327629 -16.665052 -1.2510943
3.5283763 -16.677273 -1.2503412
3.4323909 -16.729868 -1.2527516
3.3230662 -16.71736 -1.2501905
3.2262664 -16.767792 -1.2525256
3.1302488 -16.824524 -1.255388
3.0310116 -16.865988 -1.2571205
0.48628604 -2.7989788 -0.17723545
0.46433938 -2.7733874 -0.17505097
0.43592209 -2.7052984 -0.16962744
0.40957564 -2.6448514 -0.16480653
0.39816138 -2.6798658 -0.16729231
0.38073006 -2.6753476 -0.16676503
0.36578134 -2.6885026 -0.16759363
0.35042956 -2.6995966 -0.16827156
0.3321524 -2.6878405 -0.16721699
0.22811383 -1.9410757 -0.11026993
0.21565074 -1.9374833 -0.10989329
0.20282583 -1.9298443 -0.10921535
0.19059053 -1.9270829 -0.10891404
0.1794942 -1.9361597 -0.10951666
0.1663304 -1.9223222 -0.10838675
0.15453212 -1.9233066 -0.10838675
0.14309382 -1.9291909 -0.10876339
0.13152207 -1.9340122 -0.10906469
0.11977462 -1.9367734 -0.10921535
0.10953383 -1.9673413 -0.11147515
0.095900945 -1.9361055 -0.10906469
0.082996525 -1.9127475 -0.10725685
0.07337597 -1.9710171 -0.11162581
0.058150284 -1.8687706 -0.10386714
0.046391319 -1.8571299 -0.10296322
0.034886356 -1.8513976 -0.10251126
0.023489617 -1.8485856 -0.10228528
0.012182002 -1.8546778 -0.10273724
0.00078406237 -1.9444619 -0.10951666
-0.015244888 -2.5915732 -0.15840375
-0.042310536 -3.48681 -0.22604722
-0.062331688 -3.4127078 -0.22047304
-0.41072807 -16.645494 -1.2204363
-0.10642257 -3.4834471 -0.22589657
-0.12502722 -3.4079928 -0.22024706
-0.1469252 -3.4300749 -0.22197957
-0.17032692 -3.4769142 -0.22559527
-0.19314897 -3.5026858 -0.22762908
-1.0283382 -16.703695 -1.2268392
-1.1330366 -16.729902 -1.2293249
-1.2380952 -16.755451 -1.2318107
-1.3439082 -16.785311 -1.2346731
-0.35512415 -4.1279497 -0.27561226
-0.27216342 -2.9550402 -0.18680196
-0.29410949 -2.9920156 -0.1897397
-0.30767769 -2.9445357 -0.18627468
-0.43628329 -3.9376183 -0.26190278
-0.4534649 -3.8754451 -0.25738317
-1.8679115 -15.129697 -1.1142256
-0.48854068 -3.7736685 -0.25007647
-0.52781337 -3.8891671 -0.2591157
-0.55194783 -3.8878298 -0.25926635
-0.48393264 -3.2659364 -0.21203643
-0.41914147 -2.7150121 -0.17015474
-0.44467419 -2.7675192 -0.17437303
-2.7851787 -16.644501 -1.2374603
-0.53492326 -3.0860608 -0.19923088
-0.56268358 -3.1317894 -0.20299722
-3.111176 -16.698246 -1.2457461
-3.218483 -16.7043 -1.2477047
-3.3664844 -16.91308 -1.2653311
-3.4653802 -16.868662 -1.2635233
-0.55285472 -2.6145763 -0.16450523
-0.56761086 -2.6052895 -0.16405326
-0.87048066 -3.8781857 -0.26288202
-3.9398644 -17.044735 -1.2841629
-4.0577488 -17.076508 -1.2885318
-4.1004786 -16.797489 -1.2687962
-4.2209272 -16.841654 -1.2742198
-0.6959098 -2.7101073 -0.1739964
-0.71456027 -2.7134995 -0.17459902
-0.65624678 -2.4318352 -0.1529049
-0.92186326 -3.3330112 -0.22386275
-0.93223161 -3.2917967 -0.22107565
-0.96074963 -3.314744 -0.22333546
-4.9694157 -16.743343 -1.2819784
-0.80381483 -2.6519642 -0.17196257
-0.82036734 -2.6479344 -0.1720379
-1.0381922 -3.2787611 -0.22243154
-5.5222654 -17.059374 -1.317156
-5.6118131 -16.979723 -1.3135403
-1.4200163 -4.2124305 -0.29843628
-1.4490823 -4.2130666 -0.29918954
-1.458058 -4.1561127 -0.2953479
-1.1937991 -3.3378396 -0.23041618
-1.2115223 -3.322958 -0.22981356
-1.517626 -4.0837092 -0.29173219
-1.5479548 -4.0883074 -0.29286209
-1.1669196 -3.0265951 -0.20766748
-1.1840094 -3.0156658 -0.20736617
-1.3640045 -3.4119909 -0.24020866
-1.3743831 -3.3776991 -0.23809952
-1.4050087 -3.3931532 -0.240058
-7.0860395 -16.808426 -1.3405826
-1.2983612 -3.0301635 -0.2116598
-1.2997868 -2.9828382 -0.20842075
-1.4446008 -3.2601166 -0.23199804
-1.8289379 -4.0593238 -0.29896358
-1.460404 -3.1895664 -0.22762908
-1.4765795 -3.1733139 -0.22702648
-1.8969492 -4.0114512 -0.29783368
-1.9197991 -3.9961412 -0.29753235
-1.7662016 -3.6196001 -0.26687434
-1.4330631 -2.892241 -0.20646225
-1.4382243 -2.8584566 -0.20435311
-0.90053725 -1.7637624 -0.11222842
-0.91409898 -1.7635137 -0.11268038
-2.0181727 -3.8327873 -0.28984901
