# .PCD v0.7 - Point Cloud Data file format
VERSION 0.7
FIELDS x y z
SIZE 4 4 4
TYPE F F F
COUNT 1 1 1
WIDTH 1608
HEIGHT 1
VIEWPOINT 0 0 0 1 0 0 0
POINTS 1608
DATA ascii
3.4519713 -3.5325501 -1.6686888
3.4302311 -3.5536644 -1.6686888
3.405102 -3.5712247 -1.6670526
3.3798866 -3.5886106 -1.6654166
3.363595 -3.6155097 -1.6683615
3.340708 -3.6353843 -1.6680343
3.3304029 -3.669111 -1.6742514
3.297106 -3.6775136 -1.6686888
3.2788634 -3.7026281 -1.6709793
3.2554607 -3.7219658 -1.670652
3.2282388 -3.7368643 -1.6683615
3.2273235 -3.7824857 -1.6801413
3.1937051 -3.7899306 -1.6745787
3.1734118 -3.8130877 -1.6762147
3.1493556 -3.8317573 -1.6758876
3.1079247 -3.8289948 -1.6660709
3.0749187 -3.8361931 -1.6608355
3.0589442 -3.8646221 -1.6650894
2.0043373 -2.5637896 -1.0852592
1.9862598 -2.5730469 -1.0839504
1.9664266 -2.5799236 -1.0816598
1.9448802 -2.5843885 -1.0783876
1.9244798 -2.5902038 -1.0757699
1.9046401 -2.5966284 -1.0734794
1.8604209 -2.5692225 -1.0567913
1.6622787 -2.325299 -0.94815493
1.6229327 -2.2999289 -0.93310291
2.8097291 -4.0356188 -1.6611627
2.7538855 -4.0076051 -1.6421841
2.730834 -4.0267739 -1.6431657
2.7202599 -4.0646605 -1.6520007
2.7228577 -4.1230736 -1.6693431
2.6918349 -4.1309929 -1.6657438
2.6684804 -4.1506119 -1.6670526
2.6449862 -4.1700993 -1.6683615
2.6023138 -4.1590104 -1.6572361
2.5896447 -4.1958098 -1.6657438
2.5540276 -4.1954751 -1.6591994
2.5471985 -4.2426677 -1.6719609
2.4985003 -4.219995 -1.6565816
2.4801795 -4.2483048 -1.6618172
2.4583068 -4.2708149 -1.6647621
2.4357846 -4.2923937 -1.6673799
2.4066343 -4.30231 -1.6654166
2.3806467 -4.3178234 -1.6657438
2.3568139 -4.3373318 -1.6677071
2.331048 -4.3533778 -1.6683615
2.3078182 -4.3742857 -1.6709793
2.2778854 -4.382494 -1.6686888
2.250952 -4.3963885 -1.6686888
2.2239339 -4.4101171 -1.6686888
2.1968322 -4.4236798 -1.6686888
2.1679881 -4.4336801 -1.6673799
2.1378748 -4.4409385 -1.6650894
2.1089678 -4.4505568 -1.6637805
1.4417048 -3.0904655 -1.1392502
1.421927 -3.0975356 -1.1385957
1.4009508 -3.1018956 -1.1369597
0 -0 -0
1.9812849 -4.5356712 -1.6722882
1.9537899 -4.5486112 -1.6726153
1.9254761 -4.5596428 -1.6722882
1.8938419 -4.5626435 -1.669016
1.8675938 -4.5785532 -1.670652
1.834898 -4.5785222 -1.6663982
1.8071162 -4.5905743 -1.6667254
1.7830012 -4.6121535 -1.670652
1.7556733 -4.6256576 -1.6716337
1.7262686 -4.6336865 -1.670652
1.6978045 -4.6441913 -1.670652
1.6673635 -4.6491842 -1.6686888
1.6331654 -4.6432805 -1.6627988
1.6018734 -4.6451735 -1.6598538
1.5721315 -4.6513338 -1.658545
1.5408901 -4.6528187 -1.6556001
1.5117292 -4.660388 -1.6549456
1.4836768 -4.6713777 -1.6556001
1.4533041 -4.6749787 -1.6536367
1.4251411 -4.6856165 -1.6542912
1.393941 -4.6861205 -1.6513462
1.3780798 -4.7390494 -1.6673799
1.3500079 -4.7510519 -1.6686888
1.3263853 -4.7792792 -1.6758876
1.2953069 -4.7809429 -1.673597
1.261604 -4.7723556 -1.6677071
1.2306478 -4.7736011 -1.6654166
1.2043252 -4.7929769 -1.6696703
1.1805042 -4.8232241 -1.6778508
1.1563573 -4.8533583 -1.6860313
0.70664096 -3.046792 -1.041412
0.68606538 -3.0427735 -1.038467
0.66758418 -3.0478489 -1.0387943
0.64945889 -3.0546608 -1.039776
0.63413256 -3.0752482 -1.0456659
0.61691463 -3.0874217 -1.0486108
0.59455556 -3.0735204 -1.0423937
0.57620585 -3.0798972 -1.0433754
0.56048393 -3.1010437 -1.0495925
0.54031163 -3.0979078 -1.0473019
0.51988631 -3.0927773 -1.0443569
0.5012008 -3.0977747 -1.0450114
0.4801558 -3.087719 -1.0404304
0.46022701 -3.0840645 -1.0381398
0.43956089 -3.0746689 -1.033886
0.41698518 -3.0501556 -1.0243967
0.39704299 -3.0432863 -1.0211245
0.37905911 -3.0512919 -1.0230879
0.36088154 -3.0582528 -1.0247239
0.34388828 -3.076375 -1.0302867
0.32569757 -3.0850055 -1.0325772
0.30462107 -3.0653176 -1.0250511
0.29095885 -3.1226425 -1.0443569
0.27668598 -3.1808546 -1.0639901
0.25473884 -3.1523514 -1.0535191
0.28592265 -3.8342342 -1.2897704
0.21565023 -3.1495833 -1.0515558
0.19678803 -3.1583924 -1.0541735
0.1768785 -3.1501057 -1.0509013
0.17337841 -3.4701316 -1.161501
0.13837272 -3.1558151 -1.0522102
0.11833657 -3.1386633 -1.0459931
0.098751798 -3.1289411 -1.0423937
0.078817531 -3.1002038 -1.0322499
0.059614878 -3.0911813 -1.0289778
0.040332802 -3.0669222 -1.02047
0.022485958 -3.2135758 -1.0711888
0.0026915404 -3.0624614 -1.018834
-0.016083449 -3.0595856 -1.0178523
-0.034834165 -3.0575395 -1.0171978
-0.053932607 -3.076164 -1.0237422
-0.072852008 -3.0776646 -1.0243967
-0.092476152 -3.1017172 -1.0329044
-0.11198649 -3.1143119 -1.0374854
-0.13085283 -3.1079016 -1.0355221
-0.14978242 -3.1042087 -1.0345404
-0.16980864 -3.1211584 -1.0407575
-0.18884157 -3.1181712 -1.0401032
-0.20816053 -3.1197822 -1.0410848
-0.22709212 -3.1156189 -1.0401032
-0.24366093 -3.0821395 -1.0289778
-0.26176196 -3.0711715 -1.0257056
-0.28137881 -3.0779765 -1.0286505
-0.29998317 -3.0733707 -1.0276688
-0.32001036 -3.0827506 -1.0315955
-0.3380903 -3.073215 -1.0289778
-0.35508028 -3.0551267 -1.0234151
-0.37335867 -3.0491388 -1.0221062
-0.39327034 -3.0561621 -1.0253783
-0.40910107 -3.0321541 -1.0178523
-0.43180412 -3.0585911 -1.0279961
-0.45194498 -3.0652318 -1.0312682
-0.47736457 -3.1053617 -1.0463203
-0.49626008 -3.1014411 -1.0459931
-0.50766784 -3.0526655 -1.0299594
-0.54588014 -3.1621583 -1.0695528
-0.56910872 -3.1801417 -1.0770788
-0.58636856 -3.1645119 -1.072825
-0.60327989 -3.1478627 -1.0682439
-0.62405455 -3.1515167 -1.0708616
-0.64224273 -3.1420739 -1.0688983
-0.67732495 -3.2129631 -1.095403
-0.85213298 -3.9215672 -1.3480152
-0.71752822 -3.2080979 -1.0967119
-0.73847264 -3.2091596 -1.0986751
-0.75139558 -3.1760638 -1.0885314
-0.81356066 -3.3467572 -1.1510301
-0.82308179 -3.2976985 -1.1353235
-0.87428951 -3.4134085 -1.1785163
-0.83079642 -3.1630642 -1.090822
-0.81599784 -3.0310874 -1.0453386
-0.82829159 -3.0032523 -1.0371581
-0.84490347 -2.9917483 -1.0348676
-0.86429554 -2.9901385 -1.0361766
-0.90113884 -3.0472972 -1.0587546
-0.96938664 -3.2054064 -1.117981
-0.97897822 -3.1669009 -1.1062012
-1.1283188 -3.571676 -1.2554126
-0.99714524 -3.0908055 -1.0829687
-1.0264499 -3.1160381 -1.0944213
-1.0558001 -3.1401308 -1.1055467
-1.0692155 -3.1166129 -1.0993296
-1.0808203 -3.0885904 -1.0914763
-1.0965722 -3.0730016 -1.0882041
-1.1089401 -3.0484574 -1.0816598
-1.126309 -3.0380521 -1.080351
-1.1923887 -3.1565933 -1.1268159
-0 -0 -0
-0 -0 -0
-1.775592 -4.4495831 -1.6173155
-1.2929798 -3.1841562 -1.1484122
-1.2745694 -3.0844767 -1.1140544
-1.2659818 -3.0112755 -1.0895131
-1.3134403 -3.0712097 -1.115036
-1.9104921 -4.3912902 -1.6166611
-1.9354881 -4.375165 -1.615025
-0 -0 -0
-1.2818931 -2.805177 -1.02636
-1.3528569 -2.9129384 -1.0705345
-1.3174312 -2.7917981 -1.0273416
-1.3885013 -2.8961172 -1.0705345
-1.4509621 -2.9792793 -1.1058739
-1.4817928 -2.9957259 -1.1156905
-1.4445451 -2.8759787 -1.072825
-1.5059847 -2.9529088 -1.1062012
-1.4705991 -2.8404164 -1.0659534
-1.4765623 -2.8095956 -1.0574456
-1.4746376 -2.7646382 -1.0433754
-1.4974252 -2.7663388 -1.0476291
-1.534856 -2.7943621 -1.062354
-1.5423068 -2.7675612 -1.0554824
-1.5639126 -2.7662699 -1.0587546
-1.6039058 -2.7967799 -1.0747882
-1.6077248 -2.7640195 -1.0656261
-1.6232131 -2.7516615 -1.0646445
-1.6337563 -2.7311101 -1.0603907
-1.651464 -2.7226498 -1.0610451
-1.6616998 -2.7020037 -1.0567913
-1.6787479 -2.6925585 -1.0571185
-1.6922066 -2.6774156 -1.0551552
-1.7096232 -2.6685731 -1.0558096
-1.7249353 -2.6564481 -1.0551552
-1.7406827 -2.645025 -1.0548279
-1.7636992 -2.6445119 -1.0590818
-1.7798924 -2.6336403 -1.0590818
-1.7954844 -2.6218901 -1.0587546
-1.8169279 -2.6185856 -1.0620267
-1.8264364 -2.5981135 -1.0581001
-1.839053 -2.5822408 -1.0561368
-1.8465652 -2.5594163 -1.0512285
-1.8555405 -2.5388854 -1.0473019
-1.8727715 -2.5297298 -1.0482836
-1.8910942 -2.5219703 -1.0499197
-1.901387 -2.5035484 -1.0469748
-1.9138306 -2.4880908 -1.0453386
-1.9337091 -2.4822626 -1.0479563
-1.9477324 -2.4688675 -1.0473019
-1.9634346 -2.4576082 -1.0476291
-1.9850179 -2.453593 -1.0512285
-2.0042293 -2.4464824 -1.0535191
-2.0167885 -2.4312303 -1.0522102
-2.0213318 -2.4065127 -1.0466475
-2.0372849 -2.395504 -1.0473019
-2.0525618 -2.3836741 -1.0476291
-2.0603156 -2.3632028 -1.0440297
-2.0628908 -2.3370605 -1.0378126
-2.0828614 -2.330698 -1.0407575
-2.1117105 -2.3339849 -1.0482836
-2.120245 -2.3147147 -1.0453386
-2.1311941 -2.2981982 -1.0437026
-2.1601369 -2.3009179 -1.0512285
-2.1755168 -2.2889898 -1.051883
-2.1901762 -2.2762785 -1.0522102
-2.2054212 -2.2641504 -1.0528647
-2.2159536 -2.2472126 -1.0512285
-2.2337077 -2.2375846 -1.0531919
-2.2473953 -2.2238367 -1.0531919
-2.2596462 -2.2086844 -1.0525374
-2.2493546 -2.1718142 -1.0410848
-2.2831597 -2.1775291 -1.0509013
-2.2889094 -2.1563542 -1.0473019
-2.2868733 -2.1281126 -1.0401032
-2.3339889 -2.1453624 -1.0561368
-2.3618054 -2.1443346 -1.0630084
-2.3664737 -2.1222348 -1.0590818
-2.3766205 -2.1051693 -1.0577729
-2.3951843 -2.0955226 -1.0603907
-2.4072819 -2.080169 -1.0600635
-2.4178431 -2.0635195 -1.0590818
-2.4311819 -2.0492537 -1.059409
-2.4386249 -2.0300677 -1.0571185
-2.4495749 -2.0138667 -1.0564641
-2.4662886 -2.0023706 -1.0584273
-2.4814785 -1.9895632 -1.0597363
-2.5054965 -1.9836805 -1.0649717
-2.5094297 -1.9618706 -1.0613723
-2.527406 -1.9510533 -1.0639901
-2.5491025 -1.9429519 -1.0682439
-2.5624866 -1.9284102 -1.0688983
-2.5674427 -1.9075812 -1.0659534
-2.5882447 -1.8984952 -1.06988
-2.6006105 -1.8831322 -1.0702072
-2.6113474 -1.8665905 -1.06988
-2.6103945 -1.8418205 -1.0646445
-2.6092365 -1.8171328 -1.059409
-2.6086533 -1.7930639 -1.0545007
-2.623517 -1.7796748 -1.0561368
-2.6351731 -1.764069 -1.0564641
-2.6617203 -1.7582777 -1.0630084
-2.7318454 -1.7805902 -1.0875497
-3.9685636 -2.5514996 -1.5921197
-2.7151821 -1.7226467 -1.0718433
-2.771368 -1.7345135 -1.0904948
-2.7779374 -1.7149955 -1.0888586
-2.8182771 -1.7160914 -1.1009657
-2.8498206 -1.7114079 -1.1094733
-2.8562019 -1.6914834 -1.1078372
-2.8624461 -1.671545 -1.1062012
-2.8906682 -1.6643167 -1.1134
-2.9074016 -1.6502779 -1.1160177
-2.9224215 -1.635174 -1.117981
-2.9655042 -1.6354538 -1.1310698
-3.0003953 -1.630756 -1.1408863
-3.0445039 -1.6305957 -1.1543022
-3.1121266 -1.6422956 -1.1768802
-3.1439474 -1.6344948 -1.1853878
-3.1942954 -1.6358348 -1.2010944
-3.2641852 -1.6463994 -1.2243268
-3.3114688 -1.644824 -1.2387245
-3.3478177 -1.637336 -1.2488682
-3.4276261 -1.650357 -1.2757001
-3.4803889 -1.6495167 -1.292061
-4.2844076 -1.9981874 -1.5953919
-4.1299572 -1.8954377 -1.5319116
-4.0123115 -1.8117623 -1.482829
-3.8385231 -1.7050689 -1.4128044
-3.7908895 -1.6561542 -1.3908807
-3.8113999 -1.6373353 -1.3948073
-3.8953757 -1.6451474 -1.4226209
-3.9158709 -1.6255596 -1.4265475
-4.0246511 -1.6418078 -1.4635231
-4.1285114 -1.654673 -1.4985354
-4.2493849 -1.6728965 -1.5397649
-4.3274422 -1.6730117 -1.5649607
-4.3658991 -1.657151 -1.5754316
-4.5539851 -1.6965973 -1.6412024
-4.5634217 -1.6682984 -1.6408752
-4.650074 -1.6676823 -1.669016
-4.7306466 -1.6638713 -1.6948662
-4.7818632 -1.6489744 -1.7099181
-4.8536649 -1.6404654 -1.7324963
-4.8878608 -1.6186683 -1.7413311
-4.9678159 -1.6113721 -1.766854
-5.038856 -1.6002964 -1.7891049
-5.1171641 -1.5906513 -1.8139734
-5.2615423 -1.6001619 -1.862729
-5.3808622 -1.6004213 -1.9023223
-5.4386744 -1.5813479 -1.9196649
-5.4564562 -1.5502697 -1.9226098
-5.4940944 -1.5245874 -1.9327536
-0 -0 -0
-5.5142169 -1.4575342 -1.933408
-5.5203109 -1.4229652 -1.9324263
-5.5381031 -1.391367 -1.9356985
-5.5437827 -1.3566864 -1.9347169
-5.560276 -1.3246139 -1.9376619
-5.5784259 -1.2928165 -1.9412613
-5.5705814 -1.2550361 -1.9356985
-5.5467901 -1.2139693 -1.9245732
-5.5615296 -1.1814815 -1.9271909
-5.5705256 -1.1477153 -1.9278454
-5.5932169 -1.1166555 -1.933408
-5.6213026 -1.0864351 -1.9409341
-5.6167164 -1.0498418 -1.9370074
-5.6304922 -1.0167003 -1.9396251
-5.6366243 -0.98213309 -1.9396251
-5.6537275 -0.94940454 -1.9435518
-5.648252 -0.91288906 -1.9396251
-5.6546812 -0.87835974 -1.9399524
-5.6702452 -0.84517705 -1.9435518
-5.6921635 -0.81277007 -1.9494417
-5.6970429 -0.77782834 -1.9494417
-5.7747989 -0.75236505 -1.9749647
-0 -0 -0
-0 -0 -0
-0 -0 -0
-0 -0 -0
-0 -0 -0
-0 -0 -0
-0 -0 -0
-0 -0 -0
-0 -0 -0
-0 -0 -0
-0 -0 -0
-0 -0 -0
-0 -0 -0
-0 -0 -0
-0 -0 -0
-0 -0 -0
-0 -0 -0
-0 -0 -0
-0 -0 -0
-0 -0 -0
-0 -0 -0
-0 0 -0
-0 0 -0
-0 0 -0
-0 0 -0
-0 0 -0
-0 0 -0
-0 0 -0
-0 0 -0
-0 0 -0
-0 0 -0
-0 0 -0
-5.4859295 -0.14037414 -1.9262855
-0 -0 -0
-0 -0 -0
-0 -0 -0
-0 -0 -0
-0 0 -0
-0 0 -0
-0 0 -0
-0 0 -0
-0 0 -0
-0 0 -0
-0 0 -0
-0 0 -0
-0 0 -0
-0 0 -0
-0 0 -0
-0 0 -0
-0 0 -0
-0 0 -0
-0 0 -0
-0 0 -0
-0 0 -0
-0 0 -0
-0 0 -0
-0 0 -0
-0 0 -0
-0 0 -0
-0 0 -0
-0 0 -0
-0 0 -0
-0 0 -0
-0 0 -0
-0 0 -0
-0 0 -0
-5.3988299 0.99938172 -1.9272983
-5.4147844 1.036736 -1.9354004
-5.4092445 1.0701237 -1.935738
-5.3961205 1.101976 -1.9333749
-5.3837309 1.1339017 -1.9313493
-5.3628736 1.1639208 -1.9262855
-5.369411 1.199883 -1.9313493
-5.3591952 1.2321739 -1.9303366
-5.3322964 1.2604883 -1.9232472
-5.3345237 1.2956258 -1.9269607
-5.3173404 1.3260565 -1.9235848
-5.2981606 1.3558586 -1.9195337
-5.2833681 1.3866696 -1.9171706
-5.279305 1.420284 -1.9188585
-5.2659535 1.4514003 -1.9171706
-5.2750673 1.4887965 -1.9239224
-5.2875371 1.5274035 -1.9320245
-5.2681355 1.5568848 -1.928311
-5.2548795 1.5880911 -1.9269607
-5.2387404 1.6183602 -1.9245975
-5.2215304 1.6482078 -1.9218968
-5.2023602 1.6773278 -1.9185209
-5.1883936 1.7080401 -1.9171706
-5.1733541 1.7383446 -1.9154826
-5.1617002 1.7697498 -1.915145
-5.1534095 1.8023201 -1.9161578
-5.1458001 1.8351713 -1.9175082
-5.1388664 1.8683187 -1.9191961
-5.1299539 1.9007959 -1.9202089
-5.1181941 1.9322369 -1.9202089
-5.1036062 1.9625919 -1.9191961
-5.0932207 1.9945564 -1.9198713
-5.087007 2.0282102 -1.9222344
-5.0753388 2.0597391 -1.922572
-5.0608649 2.0901234 -1.9218968
-5.0488129 2.1215017 -1.9222344
-5.0313725 2.1505911 -1.9205465
-5.0016799 2.1742938 -1.9141324
-4.9822178 2.2022791 -1.9117692
-4.9771972 2.2366657 -1.915145
-4.976223 2.2730284 -1.9202089
-4.9570594 2.3011415 -1.9181833
-4.9275217 2.3242869 -1.9121068
-4.9233541 2.3593588 -1.9161578
-4.9180946 2.3940547 -1.9198713
-4.9050002 2.4250207 -1.9205465
-4.8917108 2.4559159 -1.9212216
-4.8664856 2.4807556 -1.9171706
-4.8478284 2.5088387 -1.9158202
-4.8331766 2.538975 -1.9161578
-4.8141842 2.5668118 -1.9148074
-4.7999997 2.5971985 -1.9154826
-4.781498 2.6252429 -1.91447
-4.7546091 2.6485782 -1.9100813
-4.7399073 2.678628 -1.9107565
-4.7192988 2.7053208 -1.9090685
-4.7042379 2.735173 -1.9097437
-4.6857452 2.7630301 -1.9090685
-4.6678953 2.7912464 -1.9087309
-4.6506805 2.8198354 -1.9087309
-4.6381025 2.8512757 -1.9107565
-4.6261125 2.8831656 -1.9131196
-4.6027637 2.9079778 -1.9107565
-4.5856266 2.9366727 -1.9110941
-4.5667319 2.9642417 -1.9107565
-4.5468845 2.9911723 -1.9100813
-4.5307951 3.0205815 -1.9110941
-4.5176363 3.0520132 -1.9134572
-4.5019317 3.0818021 -1.9148074
-4.4837108 3.1099038 -1.915145
-4.4630036 3.1362746 -1.91447
-4.437541 3.1592331 -1.9117692
-4.4020395 3.17484 -1.9046799
-4.3900771 3.2073431 -1.9080558
-4.3688016 3.2330999 -1.9073806
-4.3458681 3.2575874 -1.9060302
-4.3317962 3.2887449 -1.9087309
-4.3189979 3.3209996 -1.9121068
-4.2814569 3.3341372 -1.9043423
-4.2771797 3.3731675 -1.9117692
-4.2461042 3.3911252 -1.907043
-4.2149696 3.408829 -1.9023167
-4.2129097 3.4501321 -1.9110941
-4.1909361 3.4753163 -1.9107565
-4.1724167 3.503387 -1.9121068
-4.1486902 3.5270936 -1.9110941
-4.1412392 3.5647638 -1.9178458
-4.119288 3.5901067 -1.9178458
-4.0950646 3.6134465 -1.916833
-4.0749216 3.6403863 -1.9178458
-4.0532064 3.6659524 -1.9181833
-4.0250821 3.6856685 -1.9154826
-3.9961782 3.7045376 -1.9124444
-3.967881 3.7238352 -1.9097437
-3.9408624 3.7442217 -1.9077182
-3.9164572 3.7670269 -1.907043
-3.8892229 3.7870471 -1.9050175
-3.8639016 3.8088574 -1.9040047
-3.8404582 3.8324943 -1.9040047
-3.8181946 3.8573246 -1.9046799
-3.7931383 3.879334 -1.9040047
-3.7705717 3.9038892 -1.9046799
-3.7491462 3.9296756 -1.9060302
-3.7269006 3.9546609 -1.907043
-3.6987164 3.9733207 -1.9050175
-3.6761785 3.9980192 -1.9060302
-3.6515779 4.0205007 -1.9060302
-3.6211822 4.0365252 -1.9029919
-3.5988438 4.0614862 -1.9043423
-3.574475 4.0841999 -1.9046799
-3.5499632 4.1067677 -1.9050175
-3.5216417 4.1248937 -1.9033295
-3.4926245 4.1421065 -1.901304
-3.4665408 4.1627359 -1.9009664
-3.4217987 4.160665 -1.8901635
-3.4080749 4.1961946 -1.8969153
-3.3781402 4.2118874 -1.8945522
-3.3563244 4.2377009 -1.8969153
-3.3337388 4.2626638 -1.8989408
-3.3132746 4.2904887 -1.9023167
-3.287457 4.3114862 -1.9026543
-3.2666023 4.3390961 -1.9060302
-3.2432861 4.3635907 -1.9080558
-3.213109 4.3788557 -1.9060302
-3.1905985 4.4045868 -1.9087309
-3.1591318 4.4179559 -1.9060302
-3.1319642 4.4372568 -1.9060302
-3.10145 4.451757 -1.9040047
-3.0724759 4.4683762 -1.9029919
-3.0428863 4.4840293 -1.9016416
-3.0126963 4.4987054 -1.8999536
-2.98296 4.5139651 -1.8986033
-2.9526358 4.5282407 -1.8969153
-2.9273422 4.5502305 -1.8986033
-2.903403 4.5744643 -1.901304
-2.8732817 4.5890021 -1.8999536
-2.851501 4.6169567 -1.9043423
-2.8231182 4.634366 -1.9043423
-2.7951138 4.6524081 -1.9046799
-2.765075 4.6670418 -1.9036671
-2.734962 4.6814818 -1.9026543
-2.7075951 4.7006221 -1.9036671
-2.6763773 4.7130547 -1.9019791
-2.6487877 4.7318516 -1.9029919
-2.6151557 4.7397738 -1.899616
-2.5864735 4.7565579 -1.8999536
-2.5559051 4.7698498 -1.8989408
-2.5221944 4.7771192 -1.8955649
-2.4945729 4.795845 -1.8969153
-2.4599473 4.8010087 -1.8928642
-2.4380774 4.8311381 -1.8989408
-2.4079692 4.8451638 -1.8986033
-2.379436 4.8623843 -1.899616
-2.3487389 4.8751965 -1.8989408
-2.3175709 4.8869653 -1.8979281
-2.2875414 4.9010935 -1.8979281
-2.2574258 4.9150372 -1.8979281
-2.2272253 4.9287958 -1.8979281
-2.1934991 4.934628 -1.8948898
-2.1665735 4.9557562 -1.8979281
-2.1353812 4.9672275 -1.8972529
-2.1022971 4.9741673 -1.8948898
-2.072459 4.9887118 -1.8955649
-2.0389631 4.9943624 -1.8928642
-2.0103827 5.0120211 -1.8948898
-1.9802819 5.0260139 -1.8955649
-1.9432902 5.0222688 -1.8894883
-1.9144437 5.0393772 -1.8915139
-1.8844734 5.0536752 -1.8925266
-1.8537527 5.0660267 -1.8928642
-1.8210428 5.0728765 -1.8911763
-1.7901946 5.0848422 -1.8915139
-1.7601898 5.0992904 -1.8928642
-1.7261523 5.1019697 -1.8898259
-1.693926 5.1097851 -1.8888133
-1.6581794 5.1066537 -1.8837494
-1.6191119 5.0925121 -1.8746345
-1.5942689 5.1230226 -1.8823991
-1.5622562 5.1309075 -1.8817239
-1.5347749 5.1539283 -1.8867877
-1.5036484 5.1650562 -1.8874629
-1.4768227 5.1913867 -1.893877
-1.4419165 5.1894679 -1.8898259
-1.4051174 5.1800485 -1.8830742
-1.3781251 5.2067714 -1.8898259
-1.3445038 5.2087498 -1.8874629
-1.3115993 5.2132502 -1.8861125
-1.2804831 5.2248564 -1.8874629
-1.2464333 5.2243748 -1.8844246
-1.2171212 5.2438445 -1.8888133
-1.1832646 5.2438684 -1.8861125
-1.1516714 5.253788 -1.8871253
-1.120393 5.2653589 -1.8888133
-1.0880643 5.2721348 -1.8888133
-1.0555099 5.2777886 -1.8884757
-1.0220321 5.2786212 -1.8864501
-0.98893064 5.2810917 -1.8850998
-0.95650786 5.2870603 -1.8850998
-0.92323923 5.2881937 -1.8834118
-0.88936776 5.2854052 -1.8803735
-0.8593294 5.3056293 -1.885775
-0.82777256 5.3173127 -1.8881381
-0.79415649 5.3157749 -1.885775
-0.76405984 5.3382516 -1.8921891
-0.73116285 5.341907 -1.8918515
-0.69922572 5.3528261 -1.8942146
-0.66567063 5.3514113 -1.8921891
-0.63293302 5.3563299 -1.8925266
-0.59900737 5.3507581 -1.8891507
-0.56606537 5.3533969 -1.8888133
-0.5331136 5.3558326 -1.8884757
-0.49997813 5.3561912 -1.8874629
-0.46628571 5.349781 -1.884087
-0.43337524 5.351603 -1.8837494
-0.4003194 5.3513455 -1.8827366
-0.36702493 5.3471274 -1.8803735
-0.33426741 5.3502183 -1.8807111
-0.30143279 5.3521686 -1.8807111
-0.26868132 5.3557978 -1.8813863
-0.23589662 5.3592262 -1.8820615
-0.20329413 5.3680978 -1.8847622
-0.17062156 5.3777113 -1.8878005
-0.13740399 5.3701882 -1.8847622
-0.10463429 5.3803415 -1.8881381
-0.071568772 5.3771172 -1.8867877
-0.038567234 5.376514 -1.8864501
-0.0055674114 5.3681779 -1.8834118
0.027357027 5.3652868 -1.8823991
0.060224775 5.360312 -1.8807111
0.093065061 5.357018 -1.8796983
0.12608773 5.3629336 -1.8820615
0.15918648 5.3686452 -1.8844246
0.19205767 5.3656859 -1.8837494
0.22544974 5.3756919 -1.8878005
0.25838497 5.3732672 -1.8874629
0.29140079 5.3725204 -1.8878005
0.32419044 5.3678126 -1.8867877
0.35624644 5.3525734 -1.8820615
0.38962814 5.3577971 -1.8847622
0.42227376 5.3524904 -1.8837494
0.45518777 5.3507366 -1.884087
0.48843807 5.35253 -1.885775
0.5221836 5.3588009 -1.8891507
0.55563653 5.3611135 -1.8911763
0.58852124 5.3576035 -1.8911763
0.62127537 5.3529563 -1.8908387
0.65308112 5.3406343 -1.8878005
0.6864379 5.3411946 -1.8894883
0.71794152 5.3275537 -1.8861125
0.75074863 5.3239803 -1.8864501
0.78422433 5.324861 -1.8884757
0.81702507 5.3208795 -1.8888133
0.84772754 5.3036823 -1.8844246
0.88056272 5.3002381 -1.8850998
0.91370738 5.2984457 -1.8864501
0.94487619 5.285327 -1.8837494
0.97591847 5.2720251 -1.8810487
1.0080717 5.2650132 -1.8807111
1.0418191 5.2661157 -1.8834118
1.0726056 5.2522459 -1.8807111
1.1061701 5.2520137 -1.8830742
1.1399716 5.2524862 -1.885775
1.1732049 5.2499862 -1.8874629
1.2011791 5.2243409 -1.8807111
1.2373254 5.2342777 -1.8871253
1.2674203 5.2183547 -1.884087
1.3005542 5.2150464 -1.885775
1.332062 5.2051444 -1.8850998
1.3625417 5.1914101 -1.8830742
1.3955923 5.1874967 -1.8847622
1.427896 5.1806512 -1.8854374
1.4622132 5.1808515 -1.8888133
1.4939747 5.1717815 -1.8888133
1.5267469 5.1661286 -1.8901635
1.5595058 5.1602674 -1.8915139
1.5897504 5.1461043 -1.8898259
1.6224296 5.1398439 -1.8911763
1.6527814 5.1262083 -1.8898259
1.6853812 5.1195469 -1.8911763
1.7182611 5.1135707 -1.8928642
1.7514365 5.108274 -1.8948898
1.7808832 5.0921001 -1.8928642
1.8158877 5.0917163 -1.8969153
1.846131 5.0778246 -1.8959025
1.8772532 5.066401 -1.8959025
1.9083047 5.0547872 -1.8959025
1.9396222 5.0438614 -1.8962401
1.9674456 5.0239768 -1.8932018
1.9996294 5.0153074 -1.8945522
2.030719 5.0038161 -1.8948898
2.0592279 4.9860411 -1.8928642
2.085408 4.9628983 -1.8888133
2.113971 4.9456811 -1.8871253
2.1390245 4.9205313 -1.8823991
2.1710787 4.9116187 -1.884087
2.200789 4.897346 -1.8837494
2.2358806 4.8948808 -1.8881381
2.2722135 4.8947306 -1.8935394
2.3018026 4.8798451 -1.8932018
2.3329215 4.8681765 -1.8942146
2.3648078 4.8580022 -1.8959025
2.3849781 4.8239923 -1.8881381
2.4166439 4.8134737 -1.8898259
2.4461334 4.7985549 -1.8898259
2.4742329 4.7809472 -1.8888133
2.501771 4.7623425 -1.8874629
2.5367014 4.7577004 -1.8918515
2.5685337 4.7470136 -1.893877
2.5958006 4.7278633 -1.8925266
2.6210973 4.7052679 -1.8898259
2.6489928 4.6874576 -1.8891507
2.6814492 4.677649 -1.8918515
2.7063158 4.6545973 -1.8891507
2.736737 4.6411476 -1.8905011
2.7617819 4.6186128 -1.8881381
2.7934849 4.6072145 -1.8905011
2.8182514 4.5843735 -1.8881381
2.8438385 4.5630002 -1.8864501
2.8702748 4.5430775 -1.8854374
2.8996193 4.5277586 -1.8864501
2.9293964 4.5130401 -1.8878005
2.9570327 4.4949803 -1.8878005
2.9892564 4.4838009 -1.8908387
3.0103898 4.4560146 -1.8867877
3.0424595 4.4444504 -1.8898259
3.0702093 4.4264717 -1.8901635
3.0924416 4.4006186 -1.8871253
3.119385 4.3815608 -1.8871253
3.1489637 4.3661556 -1.8888133
3.181247 4.3543525 -1.8921891
3.2084649 4.3355074 -1.8925266
3.2338777 4.3142328 -1.8918515
3.2602885 4.2943087 -1.8918515
3.2842815 4.2712383 -1.8905011
3.3092709 4.2495203 -1.8898259
3.3312035 4.2239614 -1.8874629
3.3552964 4.2012353 -1.8864501
3.379236 4.1783724 -1.8854374
3.4089847 4.1626573 -1.8878005
3.4362645 4.1438355 -1.8888133
3.4658625 4.1277194 -1.8911763
3.4923437 4.10781 -1.8918515
3.5119567 4.0798831 -1.8888133
3.5363059 4.0575476 -1.8884757
3.561136 4.0357728 -1.8884757
3.5845778 4.0124421 -1.8878005
3.612287 3.9938629 -1.8894883
3.6392674 3.9744003 -1.8908387
3.6629455 3.9513049 -1.8905011
3.6858332 3.9273825 -1.8898259
3.7085652 3.9033277 -1.8891507
3.7363605 3.8845696 -1.8911763
3.7620955 3.8635941 -1.8921891
3.7903564 3.8451302 -1.8945522
3.8178675 3.8257987 -1.8965777
3.8492973 3.8102477 -1.9006288
3.8712583 3.7852409 -1.8999536
3.8964422 3.7633779 -1.9009664
3.9269516 3.746547 -1.9046799
3.9450712 3.7178617 -1.9023167
3.9650536 3.6910195 -1.9009664
3.9897051 3.6685324 -1.9019791
4.0009918 3.6338565 -1.8965777
4.0127039 3.5998092 -1.8915139
4.0410566 3.5807388 -1.8945522
4.0459528 3.5409963 -1.8864501
4.088254 3.5339572 -1.8962401
4.1155877 3.5136955 -1.8989408
4.1349111 3.4865561 -1.8979281
4.1634593 3.4671433 -1.901304
4.1846547 3.4415314 -1.901304
4.2071538 3.4169772 -1.9019791
4.2295094 3.392276 -1.9026543
4.2509823 3.3668449 -1.9029919
4.2693367 3.3389583 -1.9019791
4.2897439 3.3126993 -1.9019791
4.3062468 3.2834616 -1.9002912
4.3218012 3.2535799 -1.8982657
4.3348842 3.2219465 -1.8952274
4.3515368 3.1930597 -1.893877
4.3756208 3.1696126 -1.8959025
4.3880959 3.1377766 -1.8928642
4.4072661 3.1107926 -1.8928642
4.4448061 3.0966067 -1.9009664
4.4637227 3.0692756 -1.9009664
4.4855871 3.0439434 -1.9023167
4.5026155 3.0153155 -1.9016416
4.5249591 2.9902263 -1.9033295
4.535337 2.9572635 -1.8999536
4.5597296 2.9334543 -1.9026543
4.5792327 2.90643 -1.9033295
4.6017666 2.8812752 -1.905355
4.6249647 2.8564477 -1.9077182
4.6432085 2.8285055 -1.9080558
4.6532149 2.7955987 -1.9050175
4.6621828 2.7621958 -1.9016416
4.6749802 2.7311628 -1.8999536
4.6900187 2.7014866 -1.8992784
4.7155099 2.6777718 -1.9029919
4.7359581 2.6510868 -1.9046799
4.7529602 2.6224325 -1.9050175
4.7714424 2.5945687 -1.9060302
4.7864428 2.5647981 -1.9056926
4.8045869 2.5366995 -1.9067054
4.8234015 2.508909 -1.9080558
4.8395429 2.4796953 -1.9083933
4.8529863 2.4491055 -1.9077182
4.8763514 2.4234717 -1.9110941
4.8894386 2.3926778 -1.9104189
4.9091158 2.3650835 -1.9124444
4.9218345 2.3341103 -1.9117692
4.9420342 2.3066537 -1.9141324
4.9646478 2.280216 -1.9175082
4.9776878 2.2493229 -1.9171706
4.9991369 2.2221797 -1.9202089
5.007503 2.1892009 -1.9181833
5.0286241 2.1617808 -1.9212216
5.0348577 2.1279528 -1.9185209
5.0495586 2.0977418 -1.9191961
5.0527492 2.0628047 -1.9154826
5.0723 2.0345666 -1.9181833
5.0829368 2.0027151 -1.9175082
5.0933738 1.9708096 -1.916833
5.1115303 1.9418606 -1.9191961
5.1171751 1.9081576 -1.916833
5.1181798 1.8728409 -1.912782
5.1472931 1.8477631 -1.9195337
5.165637 1.8186463 -1.9222344
5.179368 1.787838 -1.9232472
5.1973734 1.7584382 -1.9259479
5.2116389 1.7276996 -1.9272983
5.2248278 1.6965615 -1.928311
5.2351389 1.6644706 -1.928311
5.2470512 1.6328765 -1.9289862
5.2524691 1.5992793 -1.9272983
5.2648897 1.5678267 -1.928311
5.2707953 1.5344398 -1.9269607
5.2755847 1.5007818 -1.9252727
5.2792525 1.4668708 -1.9232472
5.2863369 1.4339573 -1.922572
5.2832065 1.398362 -1.9181833
5.2971559 1.3673306 -1.9202089
5.3036203 1.3343426 -1.9195337
5.3053083 1.3002062 -1.9171706
5.3150172 1.268066 -1.9178458
5.3254485 1.2360685 -1.9188585
5.3393602 1.2048197 -1.9212216
5.3549275 1.1738499 -1.92426
5.3703151 1.1427344 -1.9272983
5.3836784 1.1110935 -1.9296614
5.3876257 1.077485 -1.9286486
5.394136 1.0444069 -1.9286486
5.4022932 1.011636 -1.9293238
5.4139562 0.97947502 -1.9313493
5.4207911 0.94639915 -1.9316869
5.4292808 0.91358876 -1.9326997
0 0 -0
0 0 -0
0 0 -0
0 0 -0
0 0 -0
0 0 -0
0 0 -0
0 0 -0
0 0 -0
0 0 -0
0 0 -0
0 0 -0
0 0 -0
0 0 -0
0 0 -0
0 0 -0
0 0 -0
0 0 -0
0 0 -0
0 0 -0
0 0 -0
0 0 -0
0 0 -0
0 0 -0
0 0 -0
0 0 -0
0 0 -0
0 -0 -0
0 -0 -0
0 -0 -0
0 -0 -0
0 -0 -0
0 -0 -0
0 -0 -0
0 -0 -0
0 -0 -0
0 -0 -0
0 -0 -0
5.5070696 -0.40047213 -1.9384387
5.5016937 -0.43403345 -1.9374259
0 -0 -0
5.4997025 -0.50185692 -1.9387763
5.4983935 -0.53577542 -1.9394515
5.4950027 -0.56950289 -1.9394515
5.4970188 -0.60382509 -1.9414769
0 -0 -0
0 -0 -0
0 -0 -0
5.5047994 -0.74181354 -1.9502542
5.4936194 -0.77465683 -1.9478911
5.5148377 -0.81218874 -1.9573436
5.494864 -0.84372717 -1.9519422
5.498879 -0.87891215 -1.9553181
5.4850254 -0.91124827 -1.9522798
5.4746923 -0.94408715 -1.9505918
5.4613838 -0.97633678 -1.9478911
5.4451089 -1.0079449 -1.9441776
5.4231048 -1.0383285 -1.9384387
5.4018574 -1.0686628 -1.9330373
5.373064 -1.0972693 -1.9249351
5.3349128 -1.1236236 -1.9134572
5.2276492 -1.134583 -1.87666
5.2049723 -1.1631492 -1.870921
5.0922389 -1.1708168 -1.8320984
4.9997654 -1.181908 -1.8007027
4.9183269 -1.1945744 -1.7733581
4.8679776 -1.2140282 -1.7574915
4.8266959 -1.2352426 -1.7450006
4.7862487 -1.2562354 -1.7328475
4.7466354 -1.2770231 -1.7210319
4.715116 -1.2996227 -1.7122546
4.6862168 -1.3226506 -1.7044901
4.6762042 -1.3508575 -1.7038149
4.7129636 -1.3928601 -1.7206943
4.7052293 -1.4220243 -1.7210319
4.7072082 -1.4542013 -1.725083
4.6955037 -1.4822071 -1.7240702
4.6773615 -1.5081024 -1.7206943
4.6698084 -1.5373623 -1.7213695
4.6522565 -1.563289 -1.7183312
4.6568236 -1.5966889 -1.7237326
4.6273909 -1.6183976 -1.7163056
4.6297865 -1.651186 -1.7210319
4.6133752 -1.6773118 -1.7186688
4.6091752 -1.7078763 -1.7210319
4.5757122 -1.7274833 -1.7122546
4.5790839 -1.7609315 -1.717656
4.5603042 -1.7859064 -1.7146177
4.5361443 -1.8086262 -1.7095538
4.5136223 -1.8318247 -1.7051653
4.4962072 -1.8569704 -1.7028022
4.4847288 -1.8845237 -1.7028022
4.4626942 -1.9075671 -1.6987511
4.4509053 -1.9349139 -1.6987511
4.4406714 -1.9629487 -1.6994263
4.4422812 -1.9963315 -1.7048277
4.4230981 -2.0204229 -1.702127
4.3798804 -2.0332587 -1.6899738
4.3698764 -2.0612993 -1.6909865
4.3529019 -2.08604 -1.6892986
4.3230925 -2.104471 -1.6825469
4.3075671 -2.1297061 -1.6815341
4.3011484 -2.1594751 -1.6842347
4.2785921 -2.181124 -1.6805214
4.2525883 -2.2008471 -1.6754575
4.2556705 -2.2356532 -1.6822093
4.2368889 -2.2590666 -1.6801838
4.2303991 -2.289052 -1.6832221
4.2162743 -2.3149662 -1.6832221
4.2093916 -2.3449152 -1.6862603
4.2072172 -2.3776453 -1.6913241
4.1860156 -2.3996708 -1.6886234
4.1720266 -2.4257836 -1.688961
4.1505766 -2.4475126 -1.6862603
4.1290174 -2.46907 -1.6835597
4.1194243 -2.4977744 -1.6859227
4.1096344 -2.526454 -1.6882858
4.0980492 -2.5541117 -1.6899738
4.0854836 -2.5812197 -1.6913241
4.0648127 -2.6031935 -1.6892986
4.0440254 -2.6250112 -1.687273
4.0302019 -2.6513274 -1.6882858
4.0201235 -2.6801829 -1.6909865
3.9880023 -2.6942618 -1.6842347
3.9690652 -2.7170861 -1.6832221
3.9592803 -2.7462163 -1.6862603
3.9423552 -2.7704585 -1.6862603
3.9237483 -2.7935042 -1.6855851
3.9034796 -2.8153253 -1.6842347
3.8838513 -2.8375578 -1.6832221
3.8663673 -2.8613353 -1.6832221
3.8487377 -2.885005 -1.6832221
3.8219662 -2.9017365 -1.679171
3.8033433 -2.9245594 -1.6788334
3.7838416 -2.9466846 -1.6781582
3.7723422 -2.9750917 -1.6811965
3.7518096 -2.9964204 -1.6801838
3.7465281 -3.0300381 -1.6862603
3.7249525 -3.0505841 -1.6849099
3.7003675 -3.0685761 -1.6822093
3.6807485 -3.0906181 -1.6818717
3.655978 -3.1082673 -1.679171
3.6375506 -3.1312556 -1.6795086
3.6232367 -3.157845 -1.6818717
3.6094391 -3.1849992 -1.6845723
2.4532638 -2.1918726 -1.1380172
2.4390702 -2.2062531 -1.1376796
2.4234042 -2.2192705 -1.1366668
3.5281172 -3.2707005 -1.6835597
3.4990587 -3.2839136 -1.679171
3.4699712 -3.2968938 -1.6747823
3.4625673 -3.3305202 -1.6811965
3.4447641 -3.3543298 -1.6825469
3.4080279 -3.3595452 -1.6744447
3.403342 -3.3963499 -1.6825469
3.3665445 -3.401114 -1.6744447
3.3686466 -3.445261 -1.6862603
3.2977407 -3.4144135 -1.6606036
3.2929738 -3.4516089 -1.6690433
3.2639854 -3.4635293 -1.6649922
3.2497277 -3.4910698 -1.6687057
3.2358918 -3.5192583 -1.6727568
3.2211993 -3.5467114 -1.6764703
3.1949761 -3.5615051 -1.6741072
3.1718142 -3.5796332 -1.673432
3.1510303 -3.6004443 -1.6741072
3.1325727 -3.6239831 -1.6761327
3.1170011 -3.6510103 -1.6798462
3.1054633 -3.6830194 -1.6859227
3.0731676 -3.6904323 -1.6805214
3.044486 -3.7019498 -1.6771455
3.0205271 -3.7190995 -1.6764703
3.0029511 -3.7441714 -1.6795086
2.9682314 -3.7477696 -1.6727568
2.0010388 -2.5588787 -1.1231632
1.9829986 -2.5681288 -1.1218129
1.9626372 -2.57426 -1.1191121
1.9422754 -2.5802383 -1.1164114
1.9140522 -2.5754879 -1.1089846
1.8982133 -2.5871837 -1.1089846
1.7917329 -2.4737709 -1.0536201
1.6407232 -2.2948399 -0.96989822
1.5945827 -2.2594938 -0.9499805
0 -0 -0
2.6884401 -3.9099531 -1.6599284
2.6643984 -3.9263754 -1.6599284
2.6418281 -3.9449961 -1.6609412
2.6118629 -3.9524939 -1.6572278
2.585505 -3.9652917 -1.6558774
2.5590885 -3.977915 -1.6545271
2.5275695 -3.9824169 -1.6498008
2.4980905 -3.9898729 -1.6464249
2.4755409 -4.0083289 -1.6477753
2.4425735 -4.009778 -1.6420363
2.4111366 -4.0133939 -1.63731
2.3835864 -4.0232544 -1.6352845
2.3778505 -4.070313 -1.648788
2.3612888 -4.0995078 -1.6548647
2.3351605 -4.1122823 -1.6541895
2.3121831 -4.1306396 -1.6558774
2.2831562 -4.1381559 -1.6531767
2.2550235 -4.1471257 -1.6511512
2.2286456 -4.159225 -1.650476
2.2057204 -4.1778159 -1.6525015
2.1843886 -4.1996217 -1.6558774
2.1504223 -4.1970296 -1.6494632
2.1322641 -4.2252707 -1.6555398
2.1079741 -4.2416463 -1.6568902
2.0835633 -4.2578826 -1.6582404
2.055764 -4.2671947 -1.6568902
2.0331728 -4.2873826 -1.6599284
2.0072258 -4.3006306 -1.660266
1.4440513 -3.1444471 -1.1991206
1.4154258 -3.1326623 -1.1910185
1.3938831 -3.1361275 -1.188993
1.3764995 -3.1489334 -1.1906809
1.8888614 -4.3939028 -1.673432
1.8614988 -4.4045429 -1.6730944
1.8279368 -4.4002357 -1.6670178
1.8001913 -4.409626 -1.6663426
1.7716985 -4.4170942 -1.6649922
1.7497392 -4.4410181 -1.6700561
1.7143029 -4.4306026 -1.6619539
1.689091 -4.4463172 -1.6639795
1.6647376 -4.4645352 -1.6670178
1.638283 -4.4773178 -1.6680305
1.6117342 -4.4899435 -1.6690433
1.58603 -4.5050755 -1.6710688
1.5617367 -4.5245094 -1.6747823
1.5351524 -4.5375733 -1.6761327
1.5081702 -4.5495882 -1.6771455
1.4813893 -4.5623374 -1.6784958
1.4530821 -4.5704441 -1.6781582
1.4241717 -4.5765777 -1.6771455
1.3938696 -4.5780263 -1.6744447
1.3638722 -4.5801783 -1.6720816
1.3336376 -4.5812302 -1.6693809
1.2993196 -4.5675988 -1.6612788
1.2747978 -4.588182 -1.666005
1.2451422 -4.590467 -1.6639795
1.2159886 -4.5943809 -1.6626291
1.1873045 -4.5999327 -1.6619539
1.1556115 -4.5934386 -1.6568902
0.72711545 -2.9676428 -1.0539577
0.71151483 -2.9830353 -1.0580088
0.69277209 -2.9855111 -1.0573336
0.67506206 -2.9924603 -1.0583463
0.65084094 -2.969882 -1.0485562
0.63162595 -2.9692163 -1.0468683
0.61358559 -2.973958 -1.0472059
0.5971728 -2.9868968 -1.0505818
0.57811832 -2.9868083 -1.0492314
0.56099403 -2.9967756 -1.0515946
0.54242796 -2.9992354 -1.051257
0.52126151 -2.9867437 -1.0455179
0.50526935 -3.0038095 -1.0505818
0.48170954 -2.9752612 -1.0391037
0.46170628 -2.967 -1.0350528
0.44307494 -2.9669843 -1.03404
0.42366061 -2.961261 -1.0310017
0.40497181 -2.9600744 -1.0296513
0.38619155 -2.9578366 -1.0279634
0.36908171 -2.9685574 -1.0310017
0.35063896 -2.9688966 -1.0303265
0.3318916 -2.966315 -1.0286386
0.31318912 -2.9636154 -1.0269506
0.29527876 -2.9682913 -1.0279634
0.27889878 -2.9897287 -1.0350528
0.2606307 -2.9923213 -1.0353904
0.24424252 -3.0182579 -1.0441676
0.22733492 -3.0412889 -1.0519321
0.20931493 -3.0520175 -1.055308
0.19111305 -3.0616994 -1.0583463
0.17301223 -3.0750318 -1.062735
0.15423541 -3.0779157 -1.0634102
0.13522238 -3.075983 -1.0623974
0.11581055 -3.0626457 -1.0573336
0.096387997 -3.0435414 -1.0502442
0.077494033 -3.0356066 -1.0472059
0.058682714 -3.0266137 -1.04383
0.039896481 -3.0109165 -1.0380911
0.021332396 -2.998868 -1.0337024
0.0029197664 -2.9885881 -1.0299889
-0.015559772 -3.0167882 -1.0401165
-0.033555456 -2.9705155 -1.0235747
-0.051862959 -2.9749594 -1.0252627
-0.070314474 -2.9830546 -1.028301
-0.089145541 -3.0004437 -1.0347152
-0.10778944 -3.0064251 -1.0370783
-0.12631322 -3.0075881 -1.0377535
-0.14562275 -3.0246205 -1.0441676
-0.16361873 -3.0133309 -1.0404541
-0.18034816 -2.9831431 -1.0299889
-0.19796215 -2.9716489 -1.0262754
-0.21537369 -2.9591124 -1.0222244
-0.2333785 -2.9558585 -1.0215492
-0.25198922 -2.9599984 -1.0235747
-0.27322361 -2.9921429 -1.0357279
-0.28729054 -2.9463775 -1.0198612
-0.3049759 -2.9408143 -1.0185109
-0.32280922 -2.9370162 -1.0178357
-0.34255955 -2.9499407 -1.0232371
-0.36190963 -2.958061 -1.0269506
-0.38137221 -2.9660544 -1.0306641
-0.40031824 -2.9692559 -1.0326896
-0.4229961 -2.9984345 -1.0441676
-0.4412491 -2.9948514 -1.04383
-0.45975965 -2.9930179 -1.0441676
-0.4782643 -2.99107 -1.0445052
-0.49861273 -3.0001507 -1.0488938
-0.51349425 -2.9766271 -1.041467
-0.53638518 -2.9993656 -1.0509194
-0.55906045 -3.0191576 -1.0593591
-0.57916754 -3.0239911 -1.0623974
-0.60118115 -3.0379252 -1.0688115
-0.6169861 -3.0203452 -1.0637478
-0.6302709 -2.9916327 -1.0546329
-0.64901447 -2.9895489 -1.055308
-0.66426754 -2.9717307 -1.0502442
-0.68248928 -2.9675989 -1.0502442
-0.69743812 -2.9496143 -1.0451804
-0.71507931 -2.94345 -1.0445052
-0 -0 -0
-0.75021291 -2.9308054 -1.0431548
-0.76531518 -2.9152215 -1.0391037
-0.78758878 -2.9268324 -1.0451804
-0.80628276 -2.9246674 -1.0461931
-0.83699346 -2.9649613 -1.0630726
-0.85752082 -2.9679089 -1.0661108
-0.88291651 -2.9869647 -1.0752257
-1.2183881 -4.0312324 -1.468516
-1.2456002 -4.031775 -1.4715543
-1.2813631 -4.0590649 -1.4847202
-1.3033571 -4.0421672 -1.4813443
-0.99825591 -3.0317931 -1.102908
-1.0495129 -3.1228704 -1.1397051
-1.023787 -2.9854782 -1.0900797
-1.0358727 -2.961369 -1.0833279
-1.0638238 -2.9824426 -1.093793
-1.0804958 -2.9714358 -1.0921052
-1.0918413 -2.9462137 -1.0850158
-1.1135547 -2.949146 -1.0887293
-1.1316293 -2.9422579 -1.0887293
-1.1455433 -2.9247408 -1.0846782
-1.1571938 -2.9019179 -1.0786016
-1.1590521 -2.8555126 -1.0634102
-1.1736774 -2.8413866 -1.0607095
-1.1834335 -2.8159075 -1.0536201
-1.1914419 -2.7869537 -1.0451804
-1.2073942 -2.7770009 -1.0441676
-1.2278353 -2.7772889 -1.0472059
-1.2463964 -2.7731371 -1.0485562
-1.2614334 -2.7611561 -1.0468683
-1.2747853 -2.7456799 -1.04383
-1.2891995 -2.732698 -1.0418046
-1.9481604 -4.0651293 -1.5748562
-1.3292276 -2.7302136 -1.0472059
-1.3371955 -2.7042859 -1.0401165
-1.36052 -2.7094901 -1.0455179
-1.393362 -2.73296 -1.0583463
-1.4174587 -2.7385712 -1.0640854
-1.4478041 -2.7556558 -1.0745505
-1.4624711 -2.7425671 -1.0728626
-1.482407 -2.7393374 -1.0752257
-1.4996402 -2.731015 -1.0755633
-1.5159112 -2.7209396 -1.0752257
-1.5279475 -2.7033918 -1.0718498
-1.5379535 -2.6825323 -1.0671237
-1.5477612 -2.6616521 -1.0623974
-1.558327 -2.6423748 -1.0583463
-1.5701637 -2.6254921 -1.055308
-1.602347 -2.6423712 -1.0664485
-1.6303598 -2.6517358 -1.0745505
-1.6281807 -2.6121235 -1.0620598
-1.621556 -2.5662723 -1.0468683
-1.6565598 -2.5863974 -1.0596967
-1.6739358 -2.578553 -1.0607095
-1.695416 -2.576884 -1.064423
-1.7096292 -2.5640831 -1.0634102
-1.7269106 -2.5558848 -1.064423
-1.7361808 -2.5359192 -1.0603719
-1.7452713 -2.5159366 -1.0563208
-1.7541822 -2.4959381 -1.0522697
-1.7754685 -2.4935632 -1.0559832
-1.7852297 -2.474987 -1.0526073
-1.7942747 -2.4556255 -1.0488938
-1.8065089 -2.4407864 -1.0472059
-1.8214513 -2.429656 -1.0472059
-1.8329103 -2.4139354 -1.0451804
-1.8453926 -2.3996584 -1.04383
-1.8641299 -2.3934891 -1.0461931
-1.8729526 -2.3746147 -1.0428172
-1.8869004 -2.3623421 -1.0424796
-1.8995843 -2.3485241 -1.041467
-1.9175369 -2.3411939 -1.0434924
-1.9348701 -2.3330071 -1.0451804
-1.9570167 -2.3304632 -1.049569
-1.9609154 -2.3062189 -1.04383
-1.9713449 -2.2898629 -1.0418046
-1.9822662 -2.2741756 -1.0401165
-1.9905783 -2.2556171 -1.0370783
-2.0093975 -2.2489769 -1.0397789
-2.0250533 -2.2386997 -1.0407917
-2.0616341 -2.2512257 -1.0529449
-2.0722091 -2.2350814 -1.051257
-2.0717142 -2.2072234 -1.04383
-2.0852184 -2.1944702 -1.04383
-2.0934243 -2.1762064 -1.0411294
-2.1080513 -2.1646693 -1.0418046
-2.1120431 -2.1423082 -1.0370783
-2.1258132 -2.1299748 -1.0374159
-2.1388423 -2.1168911 -1.0374159
-2.1497722 -2.1017532 -1.0364031
-2.164659 -2.0904849 -1.0374159
-2.1788073 -2.0784631 -1.0380911
-2.1969991 -2.07022 -1.0407917
-2.2248168 -2.0708115 -1.0482187
-2.2527239 -2.0711391 -1.0556456
-2.2765379 -2.0674043 -1.0610471
-2.3003902 -2.0634549 -1.0664485
-2.3108947 -2.0474281 -1.0654356
-2.3304968 -2.0394099 -1.0688115
-2.327301 -2.0115283 -1.0613846
-2.3353047 -1.9935428 -1.0593591
-2.3424559 -1.9749283 -1.056996
-2.3523598 -1.9587109 -1.0559832
-2.3803272 -1.9573953 -1.0634102
-2.4010601 -1.9498749 -1.0674613
-2.4159162 -1.9374615 -1.0688115
-2.4351373 -1.9284461 -1.0721874
-2.4543383 -1.9192674 -1.0755633
-2.4653234 -1.9035964 -1.0752257
-2.4769573 -1.8884336 -1.0752257
-2.4832342 -1.8692364 -1.0728626
-2.4893689 -1.8500334 -1.0704995
-2.504468 -1.8375087 -1.0721874
-2.5118842 -1.8193457 -1.0704995
-2.5161095 -1.7989707 -1.0674613
-2.5247934 -1.7818696 -1.0664485
-2.540313 -1.7695731 -1.0684739
-2.5581033 -1.7587532 -1.0715122
-2.5781929 -1.7493672 -1.0755633
-2.5920064 -1.73561 -1.0769137
-2.6065335 -1.7222682 -1.0786016
-2.6209943 -1.7088133 -1.0802896
-2.6401377 -1.6983018 -1.084003
-2.6497138 -1.6815658 -1.0836655
-2.6599817 -1.6652758 -1.0836655
-2.6797595 -1.6548593 -1.0877165
-2.7051363 -1.6476909 -1.0941306
-2.7103543 -1.6281526 -1.0921052
-2.7364893 -1.6210887 -1.0988569
-2.7658901 -1.6156646 -1.106959
-2.7912483 -1.6075908 -1.1133732
-2.8321624 -1.608099 -1.1262015
-2.8616881 -1.6017271 -1.1343037
-2.9242067 -1.6132448 -1.1559093
-2.9803574 -1.6204566 -1.1748142
-3.0516386 -1.6350428 -1.1997957
-3.0957406 -1.6343089 -1.2136369
-3.1541429 -1.6404802 -1.233217
-3.2077096 -1.6434194 -1.2507715
-3.2782357 -1.6542453 -1.2750779
-3.2655659 -1.6227865 -1.2659631
-3.3422527 -1.6354097 -1.2926325
-3.9508984 -1.9033515 -1.5309697
-4.1555595 -1.9706455 -1.6076022
-4.0652213 -1.8973293 -1.5670917
-3.7757008 -1.7340369 -1.4482607
-3.7408087 -1.6902901 -1.4303684
-3.7803538 -1.6803069 -1.4418465
-3.8009422 -1.661605 -1.4458976
-3.8940814 -1.6739467 -1.4783061
-3.9788418 -1.6815416 -1.5073385
-4.0751395 -1.6928536 -1.5407598
-4.1237931 -1.6834743 -1.5556136
-4.2650867 -1.710713 -1.606252
-4.2641182 -1.6800241 -1.6018633
-4.3480854 -1.682367 -1.6302207
-4.3636055 -1.657662 -1.6322463
-4.4618893 -1.6637508 -1.666005
-4.5533371 -1.6661065 -1.6970631
-4.6095419 -1.6546774 -1.7146177
-4.6755428 -1.64606 -1.7358857
-4.7220349 -1.6299357 -1.7497269
-4.7693949 -1.6136042 -1.7639056
-4.8390679 -1.6041589 -1.7865239
-4.9213352 -1.5979893 -1.8138686
-5.0315146 -1.5997132 -1.8516785
-5.1293139 -1.5962273 -1.8847622
-5.2029438 -1.5841959 -1.9087309
-5.2351193 -1.5589592 -1.9171706
-5.268084 -1.5336503 -1.9259479
-5.2855434 -1.5036157 -1.9289862
-5.3001118 -1.4726683 -1.9310117
-5.3081393 -1.4398732 -1.9306742
-5.3168745 -1.4072759 -1.9306742
-5.3272319 -1.3750964 -1.9313493
-5.347436 -1.3453697 -1.935738
-5.357419 -1.3129814 -1.9364132
-5.3681211 -1.2807398 -1.9374259
-5.372211 -1.246926 -1.9360756
-5.3742514 -1.2126956 -1.93405
-5.3742356 -1.178084 -1.9313493
-5.3832045 -1.1454781 -1.9320245
-5.3864441 -1.1116645 -1.9306742
-5.4217768 -1.0843176 -1.9411393
-5.4375691 -1.0528197 -1.9445152
-5.4448524 -1.019609 -1.9448528
-5.455637 -0.987019 -1.9465408
-5.4680815 -0.95465893 -1.9489039
-5.4645538 -0.91952682 -1.945528
-0 -0 -0
-5.5061188 -0.85717952 -1.9566684
-0 -0 -0
-0 -0 -0
-0 -0 -0
-0 -0 -0
-0 -0 -0
-0 -0 -0
-0 -0 -0
-0 -0 -0
-0 -0 -0
-0 -0 -0
-0 -0 -0
-0 -0 -0
-0 -0 -0
-0 -0 -0
-0 -0 -0
-0 -0 -0
-0 -0 -0
-0 -0 -0
-0 -0 -0
-5.472734 -0.17364356 -1.9218968
-0 0 -0
-0 0 -0
-0 0 -0
-0 0 -0
-0 0 -0
-0 0 -0
-0 0 -0
-0 0 -0
-0 0 -0
-0 0 -0
-0 0 -0
-0 0 -0
-0 0 -0
-0 0 -0
-0 0 -0
-0 0 -0
-0 0 -0
-0 0 -0
-0 0 -0
-0 0 -0
-0 0 -0
-0 0 -0
-5.1886539 1.0936031 -1.925795
-5.1818461 1.1254195 -1.925795
-5.1785026 1.1580126 -1.9271866
-5.1703863 1.1895552 -1.9268386
-5.160253 1.2206097 -1.925795
-5.1581321 1.253579 -1.9278824
-5.1530719 1.2858866 -1.9289262
-5.1350946 1.3149208 -1.9250991
-5.1060753 1.3409227 -1.917097
-5.0896044 1.3700328 -1.9139657
-5.0883317 1.4032317 -1.9167491
-5.0913544 1.4377415 -1.921272
-5.0734305 1.4663492 -1.9177928
-5.0850148 1.5035703 -1.925795
-5.0712066 1.5333854 -1.9240553
-5.0500588 1.5608714 -1.9195324
-5.0546894 1.596349 -1.9250991
-5.0439072 1.627046 -1.9247512
-5.025815 1.6553228 -1.9216199
-5.0155635 1.6861295 -1.9216199
-5.0051231 1.7168727 -1.9216199
-4.9998035 1.7494102 -1.9237075
-4.9854436 1.7787944 -1.9223157
-4.9700303 1.8077478 -1.9205762
-4.9641185 1.8401656 -1.9226637
-4.9518571 1.8702588 -1.9223157
-4.9359136 1.8989235 -1.9205762
-4.9285336 1.9308848 -1.9223157
-4.9305248 1.9666499 -1.9278824
-4.9053359 1.9915731 -1.9226637
-4.8964891 2.023067 -1.9240553
-4.8831196 2.0527096 -1.9237075
-4.8652606 2.0804205 -1.9216199
-4.8472462 2.1079895 -1.9195324
-4.8282189 2.1350365 -1.917097
-4.8098974 2.1623142 -1.9150095
-4.7956867 2.1913967 -1.9146615
-4.7932034 2.2259169 -1.9191844
-4.7862372 2.2584877 -1.9219679
-4.7638364 2.2837584 -1.9184886
-4.743834 2.3100712 -1.9160533
-4.7228484 2.335809 -1.9132699
-4.6858091 2.3533781 -1.9038761
-4.6654348 2.3791027 -1.9014407
-4.6840482 2.4249325 -1.9153574
-4.6757197 2.457118 -1.9181408
-4.6489754 2.4795821 -1.9132699
-4.6419172 2.5125256 -1.9167491
-4.6214833 2.5382516 -1.9146615
-4.6041842 2.5656476 -1.9139657
-4.5916195 2.5956962 -1.9153574
-4.5764194 2.6242876 -1.9157053
-4.5650926 2.6551478 -1.9177928
-4.5551744 2.6869206 -1.9205762
-4.5377975 2.7143385 -1.9202282
-4.5226603 2.7431037 -1.9209241
-4.500154 2.7673635 -1.9184886
-4.4783163 2.7919469 -1.9164011
-4.4547615 2.8153644 -1.9136178
-4.4366136 2.8421395 -1.9132699
-4.4143739 2.8662441 -1.9111824
-4.3943548 2.8917298 -1.9101386
-4.381988 2.9222808 -1.9125741
-4.3639746 2.9491131 -1.9125741
-4.3558517 2.9827228 -1.917097
-4.3390083 3.0104628 -1.9177928
-4.3235221 3.0391872 -1.9191844
-4.3070836 3.0672905 -1.9202282
-4.2813401 3.0887225 -1.917097
-4.2562528 3.1105072 -1.9143137
-4.2227721 3.1259632 -1.9077032
-4.2020125 3.1506896 -1.9070073
-4.1788683 3.1735775 -1.9052678
-4.1578312 3.1980152 -1.904572
-4.1433067 3.2275012 -1.9070073
-4.1278405 3.2563481 -1.9090949
-4.1070499 3.2810295 -1.908747
-4.0904846 3.3091171 -1.9104866
-4.070828 3.3347478 -1.9108344
-4.0531759 3.3620579 -1.9122262
-4.0396481 3.3928957 -1.9157053
-4.026608 3.4243014 -1.9195324
-4.0112038 3.4538388 -1.9223157
-3.9927621 3.4808509 -1.9237075
-3.9776535 3.5108697 -1.9268386
-3.9518428 3.5314608 -1.9247512
-3.9335752 3.5587881 -1.9264908
-3.9082088 3.5796902 -1.9247512
-3.8744864 3.5927637 -1.9188366
-3.8482683 3.6126184 -1.9167491
-3.8199143 3.6303489 -1.9136178
-3.7887859 3.645267 -1.9090949
-3.7663476 3.6684461 -1.9090949
-3.7444351 3.6921451 -1.9094428
-3.7170663 3.7104137 -1.9070073
-3.6962078 3.7351511 -1.9080511
-3.6771507 3.7617836 -1.9101386
-3.6533487 3.7836008 -1.9097908
-3.6313579 3.8073032 -1.9104866
-3.6092138 3.8308783 -1.9111824
-3.5920255 3.8598163 -1.9146615
-3.5689089 3.8824742 -1.9150095
-3.5418689 3.9008284 -1.9132699
-3.5159898 3.9203932 -1.9122262
-3.4881396 3.9376817 -1.9101386
-3.4608269 3.9554818 -1.9083991
-3.4340398 3.9738047 -1.9070073
-3.411418 3.9969404 -1.9080511
-3.381392 4.0113444 -1.9049199
-3.3543165 4.0291343 -1.9035282
-3.324769 4.0438457 -1.9007449
-3.2998939 4.0641699 -1.9007449
-3.2766535 4.0865359 -1.9017886
-3.2544262 4.11024 -1.9035282
-3.2279906 4.128654 -1.9028324
-3.2025969 4.1483827 -1.9028324
-3.1748097 4.1649723 -1.9014407
-3.1486306 4.1836252 -1.9010928
-3.1340809 4.2179189 -1.9080511
-3.1064782 4.2348018 -1.9070073
-3.0853829 4.2606182 -1.9101386
-3.0510066 4.2680273 -1.9049199
-3.0296242 4.2935629 -1.9080511
-3.002151 4.3105326 -1.9073553
-2.9682128 4.3180542 -1.9024844
-2.9437666 4.3392892 -1.9038761
-2.9134359 4.3518162 -1.9014407
-2.889262 4.3735223 -1.9031802
-2.8649311 4.3950958 -1.9049199
-2.8368955 4.4110146 -1.904224
-2.8107808 4.4299221 -1.9049199
-2.7775793 4.4375477 -1.9007449
-2.7576842 4.4664745 -1.9059637
-2.7258394 4.4761038 -1.9028324
-2.6997709 4.4951563 -1.9038761
-2.670228 4.5084105 -1.9024844
-2.6396787 4.5198517 -1.9003969
-2.6090899 4.5310879 -1.8983095
-2.5826266 4.549458 -1.8993531
-2.5551207 4.5660372 -1.8997011
-2.527961 4.583271 -1.9003969
-2.5015812 4.6019912 -1.9017886
-2.4746244 4.6197338 -1.9028324
-2.4479814 4.6381478 -1.904224
-2.4177468 4.6497531 -1.9028324
-2.3917344 4.669508 -1.9049199
-2.3626156 4.6832585 -1.904572
-2.3313336 4.6926289 -1.9024844
-2.3008492 4.703476 -1.9010928
-2.272759 4.7191949 -1.9017886
-2.2417526 4.7288151 -1.900049
-2.2158647 4.749279 -1.9028324
-2.185509 4.7602296 -1.9017886
-2.1562598 4.77355 -1.9017886
-2.1284511 4.7901177 -1.9031802
-2.0978937 4.8005099 -1.9021366
-2.0658092 4.8072619 -1.8997011
-2.0355442 4.81812 -1.8990053
-2.005583 4.8296533 -1.8986573
-1.975203 4.8401318 -1.8979615
-1.948257 4.8591228 -1.9007449
-1.9177185 4.8692408 -1.900049
-1.8932134 4.8949075 -1.9056157
-1.8611474 4.9011726 -1.9035282
-1.8313665 4.9133787 -1.9038761
-1.8027934 4.928926 -1.9056157
-1.7671367 4.9248924 -1.8997011
-1.7331526 4.9250293 -1.8955261
