# .PCD v0.7 - Point Cloud Data file format
VERSION 0.7
FIELDS x y z
SIZE 4 4 4
TYPE F F F
COUNT 1 1 1
WIDTH 1528
HEIGHT 1
VIEWPOINT 0 0 0 1 0 0 0
POINTS 1528
DATA ascii
-2.7314899 5.586596 -1.8839097
-2.6950879 5.5989475 -1.8824311
-2.6627281 5.6196952 -1.8839097
-2.6273887 5.6341958 -1.8833183
-2.591573 5.6476068 -1.8824311
-2.5517604 5.6520839 -1.878587
-2.5232363 5.681603 -1.8833183
-2.4837382 5.6864738 -1.8797698
-2.4454064 5.693707 -1.8771085
-2.4093096 5.7059646 -1.8762213
-2.369858 5.710053 -1.8726728
-2.3358598 5.7271404 -1.87356
-2.3013854 5.7431383 -1.8741513
-2.265403 5.7553735 -1.87356
-2.239347 5.7932229 -1.8815441
-2.2186747 5.8461504 -1.8945552
-2.1864302 5.8695006 -1.897808
-2.1480784 5.8765254 -1.895738
-2.1068201 5.8752084 -1.8910067
-2.0707309 5.8880248 -1.8910067
-2.029269 5.8852673 -1.8859797
-2.0032144 5.9274721 -1.895738
-1.958697 5.9151673 -1.887754
-1.9149959 5.9043579 -1.8803612
-1.8822018 5.9269223 -1.8839097
-1.8378586 5.912818 -1.8756299
-1.8076596 5.9440904 -1.8821355
-1.7651608 5.934926 -1.8756299
-1.7268442 5.9392242 -1.87356
-1.6942862 5.9634919 -1.8779956
-1.6599624 5.9820595 -1.880657
-1.6319702 6.0244036 -1.8910067
-1.5759289 5.9622669 -1.8679415
-1.5383614 5.9681244 -1.8667587
-1.5028769 5.9820838 -1.8682373
-1.4670517 5.994904 -1.8694201
-1.432233 6.012156 -1.8720814
-1.3966105 6.0264149 -1.8738557
-1.3608669 6.040462 -1.8756299
-1.3241863 6.0505648 -1.8762213
-1.2862415 6.0548382 -1.8750385
-1.249644 6.0654235 -1.8759257
-1.2116555 6.0692296 -1.8747427
-1.1740299 6.0746741 -1.8741513
-1.1346275 6.0704956 -1.8706028
-1.0956602 6.0679426 -1.8676457
-1.0582433 6.0736103 -1.8673501
-1.0215894 6.0837574 -1.8685329
-0.98927259 6.1210313 -1.8782912
-0.95022923 6.1175466 -1.8753341
-0.9160561 6.1459379 -1.8824311
-0.87495083 6.1278009 -1.8750385
-0.83823991 6.1396799 -1.8771085
-0.80462641 6.1759672 -1.8868668
-0.76601028 6.1750998 -1.8850926
-0.7306785 6.2015042 -1.8918939
-0.68996263 6.1821365 -1.8845011
-0.65251768 6.1910038 -1.8859797
-0.61442375 6.1939402 -1.885684
-0.57720363 6.2061543 -1.8883454
-0.53770685 6.1934004 -1.8833183
-0.50015581 6.2022963 -1.8850926
-0.46187678 6.2023902 -1.8842055
-0.42387611 6.2060604 -1.8845011
-0.38519537 6.1990104 -1.8815441
-0.34725863 6.2031646 -1.8821355
-0.30899978 6.2013621 -1.8809526
-0.27140233 6.2136397 -1.8842055
-0.23223025 6.1875043 -1.8756299
-0.19498083 6.2117281 -1.8827269
-0.15664515 6.2042127 -1.8800656
-0.11851893 6.2021918 -1.8791784
-0.080485672 6.2047129 -1.8797698
-0.042472072 6.2136869 -1.8824311
-0.0043469914 6.2166967 -1.8833183
0.033731308 6.2041879 -1.8794742
0.07189779 6.212461 -1.8821355
0.11020078 6.2224092 -1.8853883
0.14778811 6.1967859 -1.8776999
0.18552236 6.186214 -1.8747427
0.22302914 6.1725483 -1.8708986
0.25997233 6.1491117 -1.8640972
0.2976054 6.1454926 -1.8635058
0.33535981 6.144505 -1.8638016
0.37212989 6.1270752 -1.8590703
0.4095268 6.1218166 -1.8581831
0.44652548 6.111567 -1.8558174
0.48379076 6.105855 -1.8549304
0.5215714 6.1065788 -1.8561132
0.56042403 6.1184845 -1.8608445
0.59758413 6.1111279 -1.8596617
0.63783479 6.1339502 -1.8679415
0.67441434 6.1204257 -1.8649844
0.71504682 6.1427412 -1.8732642
0.75388664 6.1477199 -1.8762213
0.79086196 6.1372938 -1.8744471
0.82863265 6.1332722 -1.8747427
0.86478001 6.1176677 -1.87149
0.90383494 6.1226416 -1.8747427
0.9432739 6.1292548 -1.878587
0.98328108 6.1384439 -1.8833183
1.0228091 6.1436028 -1.8868668
1.0549581 6.105206 -1.8768127
1.09644 6.1211858 -1.8839097
1.1304954 6.0955572 -1.8779956
1.1705742 6.1025786 -1.8824311
1.2078112 6.0943441 -1.8821355
1.2442257 6.082139 -1.880657
1.2785646 6.0603695 -1.8762213
1.3175521 6.0608115 -1.8788826
1.3532555 6.0460877 -1.8768127
1.3898996 6.0358086 -1.8762213
1.4269085 6.0271664 -1.8762213
1.4620578 6.0108719 -1.8738557
1.5007637 6.0092025 -1.8762213
1.5383184 6.0026569 -1.8771085
1.575121 5.9931049 -1.8771085
1.6133549 5.988862 -1.8788826
1.6490552 5.9751663 -1.8776999
1.6851677 5.9630966 -1.8771085
1.7196019 5.945303 -1.8747427
1.7574042 5.93922 -1.8762213
1.7951964 5.9328966 -1.8776999
1.8208423 5.8870897 -1.8664629
1.8569305 5.8758063 -1.8664629
1.8958827 5.8733931 -1.8694201
1.9315865 5.8607421 -1.8691243
1.9729924 5.865078 -1.8744471
2.0126636 5.8637042 -1.8779956
2.0391364 5.8241949 -1.8691243
2.0883224 5.84936 -1.8815441
2.123194 5.8337431 -1.880657
2.1576207 5.8170233 -1.8794742
2.1932726 5.8036747 -1.8794742
2.2260971 5.7829757 -1.8771085
2.2646761 5.7772121 -1.8797698
2.2976034 5.7569971 -1.8776999
2.3343225 5.7463307 -1.8788826
2.3640637 5.718657 -1.8744471
2.3998489 5.7058048 -1.8750385
2.4363167 5.6944857 -1.8762213
2.4788332 5.696949 -1.8821355
2.5098779 5.6728954 -1.8791784
2.5426798 5.6530323 -1.8776999
2.5785098 5.6399307 -1.878587
2.6050179 5.6066761 -1.8726728
2.640594 5.5931778 -1.87356
2.6736243 5.574286 -1.8726728
2.7069404 5.5560584 -1.8720814
2.7430987 5.5436258 -1.87356
2.7766335 5.5258365 -1.8732642
2.8122234 5.5120993 -1.8744471
2.8508244 5.5040708 -1.8776999
2.8863208 5.4898572 -1.8788826
2.918153 5.4686723 -1.8776999
2.9480145 5.4439435 -1.8753341
2.9832025 5.4291015 -1.8765171
3.0132029 5.4048538 -1.8744471
3.0477202 5.3887582 -1.8753341
3.0793018 5.3674703 -1.8744471
3.1121781 5.348475 -1.8744471
3.1488206 5.3358603 -1.8768127
3.1815016 5.3164392 -1.8768127
3.2145581 5.2976341 -1.8771085
3.2480044 5.2794375 -1.8776999
3.2818537 5.2618408 -1.878587
3.3145885 5.2424121 -1.8788826
3.350816 5.2284098 -1.8812484
3.3713868 5.1901264 -1.8747427
3.4057956 5.1733317 -1.8762213
3.444366 5.1626678 -1.8800656
3.4711637 5.1343136 -1.8774042
3.4999027 5.1089778 -1.8759257
3.5398996 5.0999632 -1.880657
3.5678289 5.0734582 -1.8788826
3.5994461 5.052249 -1.8791784
3.6314964 5.0316172 -1.8797698
3.663429 5.0107827 -1.8803612
3.6969481 4.9920483 -1.8818398
3.7320943 4.9753842 -1.8842055
3.760819 4.9501085 -1.8833183
3.7899563 4.9254255 -1.8827269
3.8189325 4.9005709 -1.8821355
3.8376868 4.8627977 -1.8765171
3.8686447 4.840651 -1.8771085
3.8988745 4.817565 -1.8774042
3.9344158 4.80094 -1.8803612
3.9650197 4.7781792 -1.8809526
3.9893475 4.7479086 -1.878587
4.0214996 4.7269793 -1.8800656
4.0572858 4.7101769 -1.8833183
4.0754371 4.6729536 -1.8782912
4.1002398 4.6435623 -1.8765171
4.1350212 4.6254387 -1.8794742
4.1671705 4.6042295 -1.8812484
4.2024417 4.5863214 -1.8845011
4.2324524 4.5625505 -1.8853883
4.2623301 4.5385842 -1.8862754
4.2815413 4.5033445 -1.8824311
4.320354 4.4886904 -1.8874582
4.3351488 4.4490962 -1.8818398
4.3630371 4.4230924 -1.8821355
4.3948193 4.40097 -1.8842055
4.4169869 4.3692183 -1.8821355
4.4478121 4.3460398 -1.8839097
4.4716458 4.3160129 -1.8827269
4.4945874 4.2851982 -1.8812484
4.5256639 4.2621241 -1.8833183
4.5496325 4.2323227 -1.8824311
4.5466776 4.177825 -1.8703072
4.6047635 4.1793833 -1.8839097
4.6267648 4.147862 -1.8824311
4.6628561 4.1288943 -1.8868668
4.6866646 4.098948 -1.8862754
4.7066669 4.0657425 -1.8842055
4.7366118 4.0411267 -1.8862754
4.7591271 4.0101409 -1.8853883
4.7961254 3.9912524 -1.8904153
4.822001 3.9629622 -1.8910067
4.8358431 3.9248717 -1.8868668
4.8695245 3.9028928 -1.8907111
4.8948784 3.8741262 -1.8913025
4.9185576 3.8440189 -1.8913025
4.9420514 3.813767 -1.8913025
4.9699178 3.7868452 -1.8930767
4.9922967 3.7557049 -1.892781
5.0152473 3.7250021 -1.892781
5.0326166 3.6902044 -1.8907111
5.0520697 3.6570146 -1.8895282
5.0728588 3.624836 -1.8889368
5.0957856 3.594192 -1.8892325
5.1193113 3.5639489 -1.8898239
5.1528926 3.5405858 -1.8942596
5.1689858 3.5051482 -1.8921895
5.1919832 3.4744287 -1.892781
5.2092185 3.4398735 -1.8913025
5.2342291 3.4104533 -1.892781
5.252646 3.3767226 -1.8918939
5.2724595 3.3439176 -1.8915981
5.2985468 3.3150506 -1.8936681
5.3244781 3.2859893 -1.895738
5.3502522 3.2567344 -1.897808
5.3644013 3.2204022 -1.895738
5.3914585 3.1918066 -1.8983995
5.429091 3.1692615 -1.904905
5.4442954 3.1335065 -1.9034264
5.4684048 3.1028709 -1.9052007
5.4806709 3.0655279 -1.902835
5.5043969 3.0346091 -1.9046093
5.5254312 3.002146 -1.9054965
5.54459 2.968637 -1.9057921
5.5618563 2.9341145 -1.9054965
5.5822978 2.9012539 -1.9063835
5.5897908 2.8617225 -1.902835
5.5970092 2.8222084 -1.8992865
5.5979648 2.7797394 -1.8936681
5.6209226 2.7482762 -1.895738
5.6480088 2.7187078 -1.8992865
5.6835756 2.693001 -1.9057921
5.6688256 2.6435401 -1.8951466
5.69449 2.6130903 -1.8983995
5.7121572 2.5788867 -1.8989909
5.7409692 2.5496058 -1.9034264
5.7530036 2.5128021 -1.9022436
5.7727022 2.4793403 -1.9037222
5.7895665 2.4446163 -1.9043136
5.815927 2.4138074 -1.9081578
5.8217831 2.3744678 -1.9052007
5.8451104 2.3422551 -1.9081578
5.8567052 2.3052964 -1.9072707
5.8707399 2.2693169 -1.9072707
5.8952713 2.2373199 -1.9108192
5.914259 2.2031064 -1.9125934
5.92946 2.1674318 -1.9131849
5.9327564 2.1274607 -1.909932
5.9574137 2.0951388 -1.9137763
5.9719634 2.0591683 -1.9143677
5.9853907 2.0227921 -1.9146633
5.9995031 1.9866291 -1.9152548
6.0170321 1.9515481 -1.917029
6.0298038 1.9148808 -1.9173248
6.0469127 1.8795482 -1.919099
6.0565038 1.8418536 -1.9185076
6.073185 1.8062913 -1.9202818
6.0795674 1.7676591 -1.9188033
6.0985694 1.7326725 -1.9214647
6.1017222 1.6931758 -1.919099
6.1147623 1.656454 -1.9199861
6.1128049 1.6157291 -1.9161419
6.1198287 1.5774758 -1.9152548
6.1386576 1.5422237 -1.9182118
6.1405816 1.5027115 -1.9158462
6.161767 1.4678839 -1.9196904
6.1650743 1.4287541 -1.9179162
6.170929 1.3902689 -1.917029
6.1821432 1.3529916 -1.9179162
6.1819186 1.3132461 -1.9152548
6.1945381 1.2762539 -1.9167334
6.2031894 1.2384081 -1.917029
6.2003546 1.198328 -1.9137763
6.2122855 1.1611387 -1.9152548
6.1910911 1.1179048 -1.9063835
6.217597 1.0833406 -1.9125934
6.2363739 1.0472271 -1.9164376
6.2502265 1.0101615 -1.9188033
6.2695227 0.97384542 -1.9229432
6.2725453 0.93493539 -1.9220561
6.2791095 0.89656526 -1.9223518
6.265563 0.85543478 -1.9164376
6.2991118 0.82067817 -1.9253088
6.3049765 0.78212976 -1.9256046
6.3020673 0.74253368 -1.9232389
6.3112516 0.70438105 -1.9247174
6.3012047 0.66413981 -1.9202818
6.3004084 0.62499201 -1.9188033
6.3041244 0.58632171 -1.9188033
6.3104587 0.54787731 -1.9196904
6.3108449 0.50891626 -1.9188033
6.3081331 0.46975803 -1.917029
6.3166151 0.43143412 -1.9188033
6.3286777 0.39326105 -1.9217603
6.3471856 0.35533035 -1.9267874
6.3502007 0.31642568 -1.9270831
6.3558402 0.27762261 -1.9282659
6.3641062 0.23886991 -1.9303359
6.3654518 0.19981599 -1.9303359
6.3636932 0.16068202 -1.9294487
6.3712449 0.12176031 -1.9315187
6.3795137 0.082764402 -1.9338844
6.3569756 0.043460704 -1.9267874
6.382915 0.004473913 -1.9347715
6.3981066 -0.034773115 -1.9395028
6.3977728 -0.074030504 -1.9395028
6.3809609 -0.11299858 -1.9344758
6.4068875 -0.1527853 -1.9427556
6.4029651 -0.19200863 -1.9418685
6.4102583 -0.23160276 -1.9445299
6.4115796 -0.27105188 -1.945417
6.4088416 -0.31034133 -1.9451213
6.3972783 -0.34913942 -1.9421642
6.4207606 -0.38994777 -1.9501483
6.4134812 -0.42901897 -1.9486698
6.4012008 -0.46766782 -1.9457127
6.405829 -0.50753915 -1.9480784
6.431149 -0.54927206 -1.9569496
6.4324141 -0.58915788 -1.9584281
6.4324808 -0.62898695 -1.9596109
6.4170985 -0.66725922 -1.9560626
6.426177 -0.70808518 -1.9602025
6.4226604 -0.74761254 -1.9604981
6.4094186 -0.78596121 -1.9578367
6.4006853 -0.82478577 -1.956654
6.3850908 -0.86263788 -1.9534011
6.3560305 -0.89845866 -1.9460084
6.3466177 -0.93688387 -1.9448256
6.3416939 -0.97595358 -1.9451213
6.332756 -1.014394 -1.9442341
6.2595081 -1.0420978 -1.9232389
6.2802949 -1.0852011 -1.9318144
6.1352906 -1.0989655 -1.8883454
6.0748935 -1.1266644 -1.87149
5.9027452 -1.1322562 -1.8194454
5.8076024 -1.1510024 -1.7916489
5.7115192 -1.1684328 -1.7635566
5.6444206 -1.1908394 -1.7446313
5.572597 -1.2114526 -1.7242274
5.5408206 -1.2401993 -1.716539
5.4744582 -1.2606725 -1.6979094
5.4238582 -1.2841187 -1.6843069
5.5263362 -1.3442347 -1.719496
5.5059352 -1.3751101 -1.7156519
5.4788866 -1.4041263 -1.7097377
5.4775591 -1.4396597 -1.7121034
5.4658551 -1.472497 -1.7112162
5.4604006 -1.5070235 -1.7123991
5.4409389 -1.5376425 -1.7091463
5.392859 -1.5598532 -1.6967266
5.3914309 -1.5953528 -1.6993879
5.3806257 -1.6281273 -1.6990921
5.3604956 -1.6580073 -1.6958394
5.3292708 -1.684248 -1.6890382
5.3197451 -1.7172095 -1.6893338
5.3082013 -1.7495195 -1.6890382
5.3055153 -1.7847978 -1.6916995
5.2718754 -1.8095664 -1.6843069
5.2570662 -1.8406174 -1.6831239
5.2276797 -1.8664168 -1.6772099
5.2260041 -1.9020513 -1.6804626
5.2160263 -1.9347459 -1.681054
5.1879716 -1.960637 -1.6757313
5.1597958 -1.9862566 -1.6704085
5.1412854 -2.015439 -1.6683385
5.1350331 -2.0494258 -1.6704085
5.1250167 -2.0819736 -1.6712956
5.1041999 -2.1100967 -1.6686343
5.1096487 -2.1491523 -1.6748441
5.0717731 -2.1699443 -1.6665643
5.0609913 -2.2021666 -1.6674515
5.0386472 -2.2293143 -1.6644944
5.0327148 -2.263715 -1.6671557
4.9996161 -2.2858155 -1.6606501
5.0062895 -2.3261087 -1.6677471
4.9755087 -2.3490353 -1.6621287
4.9610019 -2.3795202 -1.6621287
4.9720721 -2.4224658 -1.6709999
4.9245782 -2.4368312 -1.659763
4.9266052 -2.475579 -1.6656772
4.88239 -2.4910028 -1.6556231
4.8678617 -2.521353 -1.6559188
4.8455348 -2.5476182 -1.6535531
4.8500395 -2.588094 -1.6606501
4.8542295 -2.6287205 -1.6677471
4.8279614 -2.6529365 -1.6641986
4.8099236 -2.6815801 -1.6636072
4.783401 -2.7054 -1.6600587
4.7451663 -2.7223413 -1.6523703
4.7572727 -2.7682195 -1.6627201
4.7295017 -2.7910466 -1.6588759
4.6950727 -2.8097136 -1.6526661
4.6826444 -2.8414421 -1.6544403
4.6822085 -2.8806314 -1.6606501
4.6838989 -2.9214387 -1.6677471
4.6545811 -2.9429772 -1.6636072
4.6356311 -2.9709663 -1.6633115
4.6036949 -2.9905086 -1.6582845
4.5629172 -3.0039935 -1.6500046
4.5436044 -3.0314043 -1.649709
4.5304585 -3.0629711 -1.6517789
4.518672 -3.0955703 -1.6544403
4.4909601 -3.1172469 -1.6511875
4.484252 -3.1535356 -1.6559188
4.4632616 -3.1798825 -1.6553274
4.4328213 -3.1993828 -1.6511875
4.393827 -3.2124279 -1.6437948
4.3801746 -3.2438753 -1.6461605
4.3517818 -3.2643855 -1.6429076
4.3407984 -3.2979603 -1.6464561
4.3272948 -3.3297756 -1.6491176
4.3060288 -3.3556774 -1.6488218
4.291357 -3.3867695 -1.6511875
4.2742267 -3.4160187 -1.6526661
4.250958 -3.440378 -1.6517789
4.2327242 -3.4688184 -1.6529617
4.21136 -3.4947245 -1.6529617
4.2022715 -3.5309453 -1.6579888
4.1819825 -3.5579016 -1.6585802
4.1738253 -3.5953395 -1.6641986
4.1358466 -3.6070695 -1.657693
4.1114879 -3.630482 -1.656806
4.0877099 -3.6543679 -1.6562146
4.0637932 -3.6780989 -1.6556231
4.0362182 -3.6984475 -1.6535531
4.0302582 -3.7387345 -1.6606501
3.9884393 -3.7457378 -1.6526661
2.3618741 -2.2458072 -0.96780622
2.3549328 -2.2668812 -0.97076327
2.3409791 -2.2812881 -0.97076327
3.8844309 -3.8317578 -1.6479347
3.8777466 -3.8723943 -1.6553274
3.8330858 -3.8750627 -1.6461605
3.8139105 -3.9032915 -1.6482304
3.7772827 -3.9135611 -1.642612
3.7545168 -3.9380472 -1.6432034
3.7217681 -3.9519703 -1.6393592
3.6902916 -3.9670389 -1.6361064
3.6594169 -3.9825737 -1.6331493
3.6220701 -3.9908061 -1.6272352
3.6185594 -4.036427 -1.6369935
3.5867574 -4.0506873 -1.6337408
3.5379357 -4.0452962 -1.6225039
3.5399017 -4.0980115 -1.6352192
3.5252314 -4.1320086 -1.6402463
3.5152013 -4.171823 -1.647639
3.4925928 -4.1969848 -1.6491176
3.4412982 -4.1873407 -1.6366978
3.4522653 -4.2536201 -1.654736
3.4350629 -4.2859035 -1.6591716
3.4045501 -4.3016567 -1.6571016
1.9997226 -2.559027 -0.96425772
1.9816484 -2.568224 -0.96307486
1.9629577 -2.5765357 -0.96159631
1.9442397 -2.5847151 -0.96011782
1.9272044 -2.5950623 -0.95952636
1.8999465 -2.5914319 -0.95361221
1.6688967 -2.3059077 -0.84006029
1.6563828 -2.3184359 -0.84094745
1.6382713 -2.3230915 -0.8388775
3.1720262 -4.5564246 -1.6775055
3.1310239 -4.5569067 -1.6704085
3.1030045 -4.5760326 -1.6704085
3.070086 -4.587841 -1.6677471
3.0360868 -4.5978241 -1.6644944
3.0010378 -4.6059623 -1.6606501
2.9711697 -4.6218791 -1.659763
2.9376376 -4.6319561 -1.656806
2.9076409 -4.6474643 -1.6559188
2.8976347 -4.6952949 -1.66686
2.8727443 -4.7195139 -1.6692257
2.8383229 -4.7280431 -1.6659729
2.7990379 -4.7281075 -1.659763
2.7694924 -4.7443681 -1.6594673
2.734134 -4.7505093 -1.6556231
2.694561 -4.7489185 -1.6491176
2.6569767 -4.7503562 -1.6437948
2.6300852 -4.770752 -1.6452733
2.6158149 -4.8144989 -1.6550317
2.6020079 -4.8599334 -1.6653814
2.5716932 -4.8749628 -1.6650858
2.5364454 -4.8804793 -1.6615373
2.5042748 -4.8916993 -1.6600587
2.4755032 -4.9095321 -1.6609459
1.5181706 -3.0577686 -1.0157109
1.5006388 -3.0696008 -1.016598
1.4805328 -3.0761688 -1.0157109
2.355499 -4.971395 -1.661833
2.3087993 -4.9511247 -1.6500046
2.2755868 -4.9591208 -1.6479347
2.2423635 -4.9668956 -1.6458647
2.2056406 -4.9665923 -1.6411334
2.1762717 -4.9826589 -1.6420206
2.1433954 -4.9906521 -1.6402463
2.113848 -5.0063496 -1.6411334
2.081625 -5.0156965 -1.6399506
2.0544181 -5.03722 -1.6429076
2.025604 -5.0550508 -1.6446819
1.9955986 -5.0700512 -1.6455691
1.9630738 -5.0786366 -1.6443862
1.9291629 -5.0834413 -1.6420206
1.8986021 -5.0969729 -1.642612
1.8725404 -5.1228819 -1.6473433
1.8401041 -5.1315775 -1.6464561
1.8085828 -5.1427717 -1.6464561
1.7779276 -5.1564813 -1.6473433
1.7398306 -5.1482892 -1.6411334
1.7073075 -5.156147 -1.6402463
1.6791751 -5.1774297 -1.6437948
1.6476645 -5.1885457 -1.6440905
1.6166481 -5.2012949 -1.6449777
1.5830351 -5.2056327 -1.6432034
1.5510641 -5.2152481 -1.6432034
1.5190347 -5.2246671 -1.6432034
1.4859037 -5.2302136 -1.6420206
1.4522508 -5.2337098 -1.6402463
1.4191107 -5.2388339 -1.6390635
1.3866949 -5.2465191 -1.6387677
1.3556693 -5.2595544 -1.6402463
1.326864 -5.2816706 -1.6446819
1.2951127 -5.2924962 -1.6455691
1.2610642 -5.2938385 -1.6434991
1.2302839 -5.3089213 -1.6458647
1.1960057 -5.3089151 -1.6434991
0.75216788 -3.4376662 -1.0482388
0.72927356 -3.4338069 -1.0455774
0.71088994 -3.4513156 -1.0497173
0.68651932 -3.4396873 -1.0446903
0.66068631 -3.4194493 -1.0370018
0.63828796 -3.4159267 -1.0346363
0.61459929 -3.4047379 -1.0299048
0.59238434 -3.4009161 -1.0275393
0.56992298 -3.3950663 -1.0245821
0.55014789 -3.4051006 -1.0266521
0.53041768 -3.4159636 -1.0290178
0.51001132 -3.4229331 -1.0302006
0.48778316 -3.4174871 -1.0275393
0.46706325 -3.4223087 -1.0281307
0.44568515 -3.4222684 -1.0272435
0.42609003 -3.4363146 -1.030792
0.40421429 -3.4322233 -1.028722
0.38547933 -3.4555254 -1.0352277
0.36577225 -3.4720757 -1.0396632
0.34559342 -3.485662 -1.0432117
0.3245534 -3.4915216 -1.0443946
0.30411595 -3.5048676 -1.0479431
0.28406483 -3.5247591 -1.0535616
0.26207697 -3.5216725 -1.052083
0.24007252 -3.5174959 -1.0503087
0.21777338 -3.5074615 -1.0467602
0.19491152 -3.4848871 -1.0393676
0.17285855 -3.4726603 -1.0352277
0.15133873 -3.4688838 -1.0337491
0.13008709 -3.4707017 -1.0340447
0.10962972 -3.4981689 -1.0423247
0.087583147 -3.4758565 -1.0352277
0.066510424 -3.4896998 -1.0393676
0.044735663 -3.4623415 -1.030792
0.023575973 -3.4749691 -1.0346363
0.002260084 -3.4836459 -1.0372976
-0.019099813 -3.4807284 -1.0364105
-0.040346868 -3.4709935 -1.0334533
-0.061694287 -3.473546 -1.0343405
-0.083006404 -3.4731021 -1.0343405
-0.10440112 -3.4753921 -1.0352277
-0.12537943 -3.4651394 -1.0322706
-0.14567183 -3.4413986 -1.0251735
-0.16710812 -3.4471192 -1.0272435
-0.18763213 -3.4345825 -1.023695
-0.20719868 -3.4085751 -1.0160066
-0.22874641 -3.4167709 -1.0189637
-0.24970701 -3.415303 -1.0189637
-0.27239224 -3.4356096 -1.0257649
-0.29289898 -3.4272108 -1.023695
-0.31662166 -3.4548395 -1.0328619
-0.33502698 -3.424309 -1.0239908
-0.3582041 -3.4430926 -1.0304964
-0.37848723 -3.4332335 -1.0281307
-0.40285781 -3.4593129 -1.0370018
-0.41547644 -3.3866103 -1.0151194
-0.43746877 -3.3934717 -1.0180765
-0.4573876 -3.3840969 -1.0160066
-0.47800976 -3.3802807 -1.0157109
-0.49874178 -3.377284 -1.0157109
-0.52163368 -3.3883228 -1.0201465
-0.53954458 -3.3671365 -1.014528
-0.56160617 -3.3722434 -1.0171894
-0.59074235 -3.4176836 -1.0325663
-0.61692119 -3.4431446 -1.0417333
-0.64395696 -3.4712296 -1.0517873
-0.66902179 -3.4869149 -1.0579971
-0.68910491 -3.4761848 -1.0559272
-0.71118701 -3.4756346 -1.0571101
-0.73328823 -3.4749444 -1.0582929
-0.75703073 -3.4815814 -1.0618414
-0.77608454 -3.4666164 -1.0585886
-0.79648346 -3.4580655 -1.0574057
-0.81900686 -3.4586906 -1.05918
-0.83682781 -3.4396768 -1.0547444
-0.8567605 -3.4298434 -1.0532658
-0.87873787 -3.4282234 -1.0544486
-0.78929967 -3.0023847 -0.91990149
-0.80696183 -2.9947178 -0.91901439
-0.82608414 -2.9924726 -0.91990149
-0.84520924 -2.9901054 -0.92078865
-0.86513245 -2.9903691 -0.92256284
-0.92790687 -3.1352344 -0.97105896
-1.0223633 -3.3781865 -1.0514916
-1.0732687 -3.4695024 -1.0831324
-1.1201515 -3.5439212 -1.1094503
-1.1474499 -3.5542543 -1.1150688
-1.0771569 -3.2677009 -1.0239908
-1.0688663 -3.1768241 -0.99648988
-1.0815172 -3.1503277 -0.98998427
-1.0989332 -3.1382225 -0.98821008
-1.1040384 -3.0918343 -0.97519892
-1.123642 -3.0867972 -0.97579032
-1.1415646 -3.0771577 -0.97490317
-1.1600865 -3.0692015 -0.97460747
-1.1967392 -3.1083853 -0.98998427
-1.3363991 -3.4087188 -1.0922993
-1.3785315 -3.4536898 -1.1100417
-1.3917886 -3.4256949 -1.1035362
-1.4219044 -3.4391615 -1.1109289
-1.4270569 -3.3925071 -1.0982134
-1.4568629 -3.4047661 -1.1053104
-1.4796321 -3.4001427 -1.106789
-1.4846226 -3.3551815 -1.0946649
-1.4961702 -3.3259704 -1.0878637
-1.5034441 -3.2880566 -1.0781053
-1.5207736 -3.2727053 -1.0760354
-1.5224761 -3.2244382 -1.0627285
-1.5352101 -3.2003927 -1.0577015
-1.5569102 -3.1952064 -1.05918
-1.5811459 -3.1950119 -1.0624328
-1.605009 -3.1937859 -1.0653899
-1.6397682 -3.2136612 -1.0757396
-1.6612133 -3.2069323 -1.0769224
-1.6817483 -3.1983702 -1.0775139
-1.6896501 -3.1660776 -1.0698255
-1.6913064 -3.1228886 -1.0582929
-1.7021565 -3.0973816 -1.0529702
-1.7118275 -3.0701911 -1.047056
-1.7245208 -3.0488198 -1.0432117
-1.7484239 -3.0472958 -1.0464646
-1.7589222 -3.0224733 -1.0414375
-1.7949108 -3.0412426 -1.052083
-1.8071615 -3.0195153 -1.0482388
-1.8083121 -2.9797847 -1.037889
-1.8310663 -2.975956 -1.0405504
-1.8341271 -2.9403474 -1.0316792
-1.871021 -2.9589143 -1.0426203
-1.8999648 -2.9642687 -1.0488302
-1.9155158 -2.9485493 -1.0473517
-1.9277942 -2.9279633 -1.0440989
-1.9165671 -2.8723714 -1.0278349
-1.9737443 -2.9191227 -1.0497173
-1.9937779 -2.9101095 -1.0509001
-2.0099626 -2.8954668 -1.0500131
-2.0282404 -2.8838608 -1.0503087
-2.029824 -2.848798 -1.0417333
-2.0388806 -2.8246698 -1.0372976
-2.0415165 -2.7920554 -1.0296092
-2.0489459 -2.7664251 -1.0245821
-2.0899551 -2.785898 -1.0370018
-2.120878 -2.7912784 -1.0440989
-2.1350524 -2.7744267 -1.0426203
-2.1279631 -2.7303789 -1.0304964
-2.1340246 -2.7037721 -1.0251735
-2.1475928 -2.6868956 -1.023695
-2.1730525 -2.6848068 -1.0281307
-2.2094655 -2.6958063 -1.037889
-2.228405 -2.6851392 -1.0390718
-2.2657311 -2.6962836 -1.0491259
-2.2661395 -2.6634121 -1.0414375
-2.2899203 -2.658143 -1.044986
-2.3294172 -2.6706817 -1.0559272
-2.3514507 -2.6627836 -1.0585886
-2.3581955 -2.6376219 -1.054153
-2.3865139 -2.6365604 -1.0597714
-2.3936121 -2.6120064 -1.0556315
-2.3998497 -2.5867643 -1.0511959
-2.4156766 -2.5719905 -1.0511959
-2.4320707 -2.5578122 -1.0514916
-2.4430826 -2.538023 -1.0494217
-2.4412773 -2.5051947 -1.0417333
-2.4519074 -2.4854074 -1.0396632
-2.4677863 -2.4709918 -1.039959
-2.4910507 -2.4638655 -1.0435075
-2.5109043 -2.453208 -1.0455774
-2.5369065 -2.4483705 -1.0503087
-2.535289 -2.4169366 -1.0432117
-2.5584161 -2.4091947 -1.0467602
-2.5899358 -2.4090679 -1.0538572
-2.6102958 -2.3983021 -1.0562229
-2.6143525 -2.3726096 -1.0517873
-2.6743815 -2.3973372 -1.0707126
-2.6954772 -2.3865824 -1.0733739
-2.7000039 -2.3611932 -1.069234
-2.687695 -2.3214748 -1.0582929
-2.6902618 -2.2950187 -1.0535616
-2.6984491 -2.2735436 -1.0511959
-2.7116144 -2.2563322 -1.0509001
-2.722456 -2.2372253 -1.0497173
-2.7331655 -2.2180703 -1.0485345
-2.757159 -2.2096229 -1.0526744
-2.7601788 -2.1843631 -1.0485345
-2.7660034 -2.1615031 -1.0455774
-2.7739203 -2.1404047 -1.0435075
-2.7908003 -2.1262391 -1.044986
-2.7969241 -2.1039059 -1.0423247
-2.8028791 -2.081578 -1.0396632
-2.830235 -2.0750742 -1.0452816
-2.854521 -2.066072 -1.0497173
-2.8749166 -2.0540726 -1.0526744
-2.8749764 -2.0275831 -1.0479431
-2.8646283 -1.9940748 -1.0393676
-2.9256222 -2.0100043 -1.0577015
-2.926832 -1.9845085 -1.0535616
-2.9429228 -1.969169 -1.0550401
-2.9358191 -1.9384397 -1.0479431
-2.9788711 -1.9407299 -1.0594757
-2.9634032 -1.9048499 -1.0494217
-2.9839089 -1.8922595 -1.0526744
-2.9970832 -1.8749285 -1.0532658
-3.0150342 -1.8605174 -1.0556315
-3.0631115 -1.8643364 -1.0689384
-3.0875971 -1.8533741 -1.0736697
-3.0717852 -1.8183329 -1.0639113
-3.0795846 -1.797524 -1.0627285
-3.0930398 -1.7800239 -1.0636156
-3.1246741 -1.7727991 -1.0710083
-3.1263223 -1.7484629 -1.0677555
-3.1478667 -1.7352436 -1.0715997
-3.1735632 -1.7241061 -1.0769224
-3.2236629 -1.725796 -1.0908208
-3.2629175 -1.7211401 -1.1008748
-3.3344445 -1.7328093 -1.1221658
-3.3586187 -1.719283 -1.1268971
-3.3861639 -1.7072457 -1.1328113
-3.4085536 -1.6923852 -1.1369512
-3.5287187 -1.7251549 -1.1748018
-3.5779703 -1.7221178 -1.1881087
-3.6169567 -1.7136314 -1.197867
-3.6109543 -1.6837339 -1.1922486
-3.704565 -1.6997988 -1.2206366
-0 -0 -0
-4.0446739 -1.7961395 -1.3288658
-3.9190574 -1.7116303 -1.2827352
-4.0751877 -1.7501403 -1.3318228
-4.1641717 -1.7581793 -1.3581408
-4.227818 -1.7545699 -1.3758833
-4.2252364 -1.7231832 -1.3714477
-4.3075538 -1.7260116 -1.3954
-4.33673 -1.7068973 -1.4016099
-4.4139466 -1.7060914 -1.423788
-4.4216528 -1.6779588 -1.4229009
-4.5025835 -1.6771446 -1.4462618
-4.5782847 -1.6734313 -1.4678485
-4.7044621 -1.6869118 -1.5059948
-4.8607111 -1.7093658 -1.5538995
-4.95961 -1.7100312 -1.5828789
-5.0813208 -1.7171936 -1.619251
-5.1851659 -1.7169186 -1.649709
-5.2782907 -1.7118952 -1.6766183
-5.3633528 -1.7031901 -1.7008665
-5.4047174 -1.6798916 -1.7109206
-5.4916935 -1.6700493 -1.73576
-5.6346025 -1.6758176 -1.7786376
-5.6429443 -1.6406792 -1.7780463
-5.6924176 -1.6172526 -1.7907617
-5.8936934 -1.6354356 -1.8522689
-5.9672375 -1.6164804 -1.8726728
-6.0989518 -1.6120665 -1.9117063
-6.1392541 -1.5824842 -1.9214647
-6.1822019 -1.5531663 -1.9321102
-6.2055335 -1.5186107 -1.9365457
-6.218452 -1.4813914 -1.9377286
-6.2423139 -1.4466596 -1.9424599
-6.243618 -1.4066501 -1.9400942
-6.2567973 -1.3693349 -1.9415728
-6.2501311 -1.3277411 -1.9368415
-6.2525463 -1.2882091 -1.9350672
-6.2481551 -1.2473879 -1.931223
-6.2697597 -1.2117465 -1.9356587
-6.2770767 -1.1732531 -1.9356587
-6.2813373 -1.1342062 -1.9347715
-6.2740622 -1.0931827 -1.9303359
-6.2957249 -1.0571973 -1.9350672
-6.3077517 -1.0194625 -1.9368415
-6.3053927 -0.97941947 -1.9341801
-6.2990007 -0.93888026 -1.9303359
-6.316937 -0.90196884 -1.9341801
-0 -0 -0
-6.3407912 -0.82611102 -1.93832
-6.3628049 -0.789307 -1.9436427
-0 -0 -0
-6.3834043 -0.7124384 -1.9471912
-6.4057059 -0.67516077 -1.9528097
-6.4268389 -0.63754183 -1.9581325
-0 -0 -0
-0 -0 -0
-0 -0 -0
-0 -0 -0
-0 -0 -0
-0 -0 -0
-0 -0 -0
-0 -0 -0
-0 -0 -0
-0 -0 -0
-0 -0 -0
-6.1407247 0.44763646 -1.9426576
-6.135016 0.4850812 -1.9417375
-6.1063185 0.52052826 -1.9334568
-0 0 -0
-0 0 -0
-0 0 -0
-0 0 -0
-0 0 -0
-0 0 -0
-0 0 -0
-0 0 -0
-0 0 -0
-0 0 -0
-0 0 -0
-0 0 -0
-6.0172591 1.0007496 -1.9242561
-6.025074 1.0400833 -1.9288565
-6.0429378 1.0813967 -1.9368304
-6.0296378 1.11724 -1.9346836
-6.0105171 1.1518849 -1.9306966
-6.0061369 1.1892983 -1.9316167
-6.0005918 1.2265104 -1.9322301
-5.9817772 1.2609482 -1.9285498
-5.9664869 1.2960103 -1.9260962
-5.9584227 1.3325956 -1.9260962
-5.9362206 1.3659265 -1.9214958
-5.9369898 1.4045178 -1.9245628
-5.9338093 1.4422698 -1.9264029
-5.9100728 1.4749615 -1.9214958
-5.8815489 1.5062348 -1.9150553
-5.8915277 1.5473762 -1.9214958
-5.8865175 1.5847348 -1.9230293
-5.8812704 1.6220901 -1.9245628
-5.8538041 1.6532279 -1.9187356
-5.8508644 1.6912309 -1.9211892
-5.8394642 1.7268293 -1.9208825
-5.8251147 1.7615243 -1.9196557
-5.8105593 1.7961084 -1.9184289
-5.8103199 1.8351694 -1.9221092
-5.7998562 1.8710788 -1.922416
-5.790978 1.9075247 -1.923336
-5.7863817 1.9454495 -1.9257895
-5.7752361 1.9812264 -1.9260962
-5.7548857 2.0137944 -1.923336
-5.7361465 2.0468276 -1.9211892
-5.7261624 2.082962 -1.9221092
-5.707027 2.1157408 -1.9199624
-5.682363 2.1463442 -1.9159753
-5.6655335 2.1798022 -1.9147487
-5.7176266 2.2402315 -1.9374439
-5.6790214 2.2653928 -1.9288565
-5.6447325 2.2919564 -1.9218025
-5.6191282 2.3218212 -1.9178156
-5.5995116 2.3540416 -1.9159753
-5.6094642 2.398839 -1.9245628
-5.5719481 2.4233387 -1.9165888
-5.5578442 2.4578669 -1.9168955
-5.5383182 2.4899707 -1.915362
-5.5064888 2.5163865 -1.9095348
-5.4987135 2.553736 -1.9122951
-5.4949903 2.5931165 -1.9165888
-5.4721103 2.6234913 -1.9141352
-5.4550543 2.6566012 -1.9138285
-5.4471817 2.6942441 -1.9168955
-5.427146 2.7259073 -1.9156687
-5.3976002 2.7526677 -1.9110683
-5.38906 2.7901127 -1.9141352
-5.3642569 2.8191402 -1.911375
-5.3485374 2.8528979 -1.9119884
-5.3242359 2.8820362 -1.9095348
-5.3064518 2.9146507 -1.9095348
-5.2909622 2.9485462 -1.9104549
-5.2727704 2.9809554 -1.9104549
-5.2568574 3.0146732 -1.911375
-5.2390833 3.0473506 -1.9116817
-5.2243848 3.0818586 -1.9132152
-5.1980262 3.1094577 -1.9104549
-5.1715255 3.1368499 -1.9076947
-5.1570449 3.1715152 -1.9095348
-5.1310272 3.1990688 -1.9070814
-5.1121058 3.2310004 -1.907388
-5.0905819 3.2612798 -1.9067746
-5.0728698 3.2940092 -1.9076947
-5.0549474 3.3266439 -1.9086148
-5.0368156 3.3591826 -1.9095348
-5.0090127 3.3852267 -1.9067746
-5.0030665 3.4261186 -1.9126017
-4.9788222 3.4545813 -1.911375
-4.9660959 3.4910886 -1.9147487
-4.9399304 3.5181804 -1.9129084
-4.9128475 3.5445259 -1.9107616
-4.8963847 3.578536 -1.9129084
-4.8728056 3.6073794 -1.9122951
-4.8528633 3.6389239 -1.9132152
-4.8190761 3.6599948 -1.9086148
-4.8018084 3.6935585 -1.9107616
-4.7828083 3.7258775 -1.9122951
-4.7516379 3.7486677 -1.9089215
-4.7263165 3.77597 -1.9080014
-4.7089777 3.8096895 -1.9104549
-4.6810961 3.8348916 -1.9086148
-4.6582103 3.8641498 -1.9089215
-4.6453428 3.901844 -1.9135219
-4.624939 3.9333577 -1.9150553
-4.6021595 3.9629042 -1.9156687
-4.5834956 3.9960728 -1.9181222
-4.5496149 4.0159311 -1.9141352
-4.5071483 4.0279121 -1.9064679
-4.4957566 4.0676274 -1.9122951
-4.4552751 4.0809894 -1.9055479
-4.4308486 4.1088972 -1.9058546
-4.4138789 4.143826 -1.9095348
-4.3876801 4.1701751 -1.9092282
-4.3578954 4.1930585 -1.907388
-4.3354936 4.2230406 -1.9089215
-4.3047566 4.244884 -1.9067746
-4.2705474 4.2631469 -1.9030943
-4.2469864 4.2919769 -1.9043211
-4.2272234 4.3247628 -1.907388
-4.2045732 4.3547287 -1.9092282
-4.1659522 4.3680453 -1.9037077
-4.1338515 4.3879814 -1.9012542
-4.1010151 4.4069915 -1.8984939
-4.0822687 4.4411831 -1.902481
-4.0485449 4.4590998 -1.8994139
-4.0204725 4.4831486 -1.8991073
-3.9979367 4.5134339 -1.9015609
-3.9808197 4.5500598 -1.9067746
-3.9416268 4.5614347 -1.9012542
-3.9123285 4.5840859 -1.9006407
-3.8835142 4.6072774 -1.9003341
-3.8612595 4.6383357 -1.903401
-3.8303094 4.6589994 -1.9021742
-3.8034494 4.6846313 -1.9030943
-3.7776098 4.7115941 -1.9046278
-3.7492197 4.7354307 -1.9049344
-3.7113016 4.747097 -1.9003341
-3.6780338 4.7645049 -1.8981873
-3.64873 4.786983 -1.8981873
-3.6147115 4.8031964 -1.8957337
-3.5851717 4.8252854 -1.8957337
-3.5740695 4.8725228 -1.9058546
-3.5468953 4.8982162 -1.907388
-3.5040467 4.9020758 -1.9003341
-3.4640276 4.909483 -1.8948137
-3.4311194 4.9267397 -1.8932801
-3.3922009 4.9351482 -1.8883731
-3.3720047 4.9708371 -1.8942002
-3.3424995 4.9930158 -1.8948137
-3.3102267 5.0110483 -1.8938936
-3.2877305 5.0440249 -1.8988006
-3.2592924 5.0681062 -1.9003341
-3.2260947 5.0847945 -1.8991073
-3.1953392 5.1053004 -1.8994139
-3.1674523 5.1304808 -1.9015609
-3.1438308 5.162828 -1.9064679
-3.1022956 5.1656995 -1.9003341
-3.0724804 5.1879139 -1.9015609
-3.0391507 5.2042027 -1.9006407
-3.0123837 5.2318268 -1.9040143
-2.9783461 5.2469006 -1.9027876
-2.9395912 5.2534466 -1.8984939
-2.9105179 5.2772198 -1.9006407
-2.8776283 5.2941422 -1.9003341
-2.8388004 5.299952 -1.8960404
-2.8035624 5.3122196 -1.8942002
-2.7678421 5.32341 -1.8920534
-2.736861 5.3436818 -1.8932801
-2.6984506 5.3493257 -1.8892932
-2.6668468 5.36834 -1.8902133
-2.6326029 5.3820372 -1.8892932
-2.603658 5.4066653 -1.8923601
-2.5712492 5.4242597 -1.8929734
-2.5403316 5.4451103 -1.8948137
-2.5033009 5.4528093 -1.8920534
-2.4697959 5.4680667 -1.8920534
-2.4269266 5.4622407 -1.8846928
-2.4006035 5.4936018 -1.89052
-2.3529532 5.4758692 -1.8791723
-2.3307865 5.517386 -1.8886797
-2.3045502 5.550045 -1.8951203
-2.2690146 5.5605555 -1.8938936
-2.2355609 5.5761404 -1.8945069
-2.1995614 5.5853243 -1.8929734
-2.1618176 5.5898376 -1.8899065
-2.1318684 5.6145654 -1.8938936
-2.0963812 5.6248646 -1.8929734
-2.0631351 5.6411977 -1.8942002
-2.0255911 5.6456871 -1.89144
-1.9905961 5.6571116 -1.8911333
-1.9567779 5.6719189 -1.8920534
-1.9198059 5.6775064 -1.8899065
-1.8798472 5.6738191 -1.8846928
-1.8476405 5.6933951 -1.887453
-1.8118075 5.7019033 -1.8865329
-1.7762222 5.7110953 -1.8859196
-1.7392079 5.7155118 -1.8837727
-1.7051907 5.7297254 -1.8849995
-1.6681416 5.7336822 -1.8828527
-1.6347497 5.7502189 -1.8849995
-1.5979093 5.7546387 -1.8831593
-1.5697861 5.790977 -1.8920534
-1.5283868 5.7784152 -1.8846928
-1.4907644 5.7793889 -1.8819325
-1.4559703 5.7911968 -1.8828527
-1.4210875 5.8027949 -1.8837727
-1.385676 5.8123312 -1.8840793
-1.351705 5.8281422 -1.8865329
-1.3175921 5.8437548 -1.8889865
-1.2825246 5.8554487 -1.8902133
-1.2441989 5.852035 -1.8865329
-1.2071159 5.8539658 -1.8846928
-1.1715466 5.8631291 -1.8853061
-1.1317567 5.8505826 -1.8788656
-1.0974104 5.8658371 -1.8816259
-1.0686693 5.9127369 -1.8948137
-1.0322059 5.9182453 -1.8945069
-0.99508488 5.9197741 -1.8929734
-0.96086884 5.9389229 -1.8972671
-0.91973597 5.9146099 -1.887453
-0.88468999 5.9286146 -1.8902133
-0.85112089 5.9537187 -1.8966538
-0.80878055 5.9163909 -1.8828527
-0.77369243 5.9306808 -1.8859196
-0.73775655 5.9390945 -1.8871464
-0.70007616 5.9331117 -1.8837727
-0.66355252 5.9363494 -1.883466
-0.62721503 5.941256 -1.8837727
-0.59046656 5.9421511 -1.8828527
-0.55478817 5.9541917 -1.8856128
-0.51750278 5.9489493 -1.8828527
-0.48190877 5.9633975 -1.8865329
-0.44439039 5.9539027 -1.8825459
-0.40759021 5.9527192 -1.8813192
-0.37141138 5.9608078 -1.8831593
-0.3347764 5.9620242 -1.8828527
-0.29828247 5.9658675 -1.883466
-0.26167101 5.9675856 -1.883466
-0.22501397 5.9681277 -1.8831593
-0.18844968 5.9712987 -1.8837727
-0.15226297 5.9904213 -1.8895998
-0.11503132 5.9664998 -1.8816259
-0.078357786 5.9623351 -1.8800924
-0.04180453 5.9674625 -1.8816259
-0.005182934 5.9599919 -1.8791723
0.031459738 5.973237 -1.883466
0.06818749 5.9795938 -1.8856128
0.1051632 5.9952407 -1.8908266
0.14103873 5.9564214 -1.8785589
0.17746978 5.9516382 -1.8773322
0.213985 5.9504371 -1.8773322
0.25000945 5.9376006 -1.8736519
0.28694385 5.9464126 -1.8770255
0.3237882 5.9511929 -1.8791723
0.3604711 5.9519439 -1.8800924
0.39749315 5.9572177 -1.8825459
0.43480164 5.9651084 -1.8859196
0.47049224 5.9509425 -1.8822392
0.5063495 5.9403567 -1.8797857
0.54469979 5.9579906 -1.8865329
0.57930136 5.9346428 -1.8800924
0.61836326 5.9565377 -1.8883731
0.65646428 5.9668226 -1.8929734
0.68954134 5.9324288 -1.8831593
0.72581315 5.9271412 -1.8828527
0.76131612 5.9159684 -1.8807058
0.80002314 5.9291072 -1.8865329
0.83452302 5.9108925 -1.8822392
0.87188804 5.9131937 -1.8846928
0.90800953 5.9067917 -1.8843861
0.94257957 5.8907709 -1.8810124
0.97120303 5.8398099 -1.8662913
1.0143112 5.8759465 -1.8800924
1.0434647 5.8311996 -1.8675181
1.0873832 5.8686724 -1.8819325
1.1244482 5.8674984 -1.8837727
1.1589488 5.8530192 -1.8813192
1.1975114 5.8588529 -1.8856128
1.2318661 5.8439441 -1.8831593
1.2672963 5.8344154 -1.8825459
1.3039033 5.830245 -1.8837727
1.3420023 5.8323374 -1.8871464
1.3764478 5.8184361 -1.8853061
1.4116732 5.8080311 -1.8846928
1.4452082 5.7909489 -1.8819325
1.4762237 5.7644539 -1.8761054
1.517857 5.7792215 -1.8840793
1.5530413 5.7688804 -1.8837727
1.5863835 5.7519026 -1.8813192
1.6182814 5.7301536 -1.8773322
1.6552618 5.7265162 -1.8794791
1.6922585 5.7226405 -1.8816259
1.7267886 5.7103276 -1.8810124
1.7623566 5.7014432 -1.8816259
1.7984542 5.6941524 -1.8828527
1.8354058 5.6893506 -1.8849995
1.8687907 5.6734619 -1.883466
1.9047812 5.6654968 -1.8846928
1.9413624 5.6591043 -1.8865329
1.9716458 5.6345091 -1.8822392
2.0084217 5.6285796 -1.8843861
2.0429204 5.6161504 -1.8843861
2.0770109 5.6026173 -1.8840793
2.1100028 5.586206 -1.8828527
2.1483428 5.5838132 -1.8865329
2.1773529 5.5572338 -1.8819325
2.2092936 5.5384655 -1.8800924
2.2421608 5.5221596 -1.8791723
2.2760019 5.5082979 -1.8791723
2.3123405 5.5003705 -1.8813192
2.3475442 5.4895792 -1.8825459
2.3815632 5.4759445 -1.8828527
2.4155033 5.4620986 -1.8831593
2.4478014 5.4445705 -1.8822392
2.4799752 5.4268517 -1.8813192
2.5116227 5.4080801 -1.8800924
2.5419142 5.3865423 -1.8779455
2.5749176 5.3708439 -1.8779455
2.6090746 5.3575106 -1.8788656
2.6397879 5.3371353 -1.8773322
2.6780419 5.3318934 -1.8813192
2.7154658 5.324687 -1.8846928
2.7458975 5.303699 -1.8831593
2.7770598 5.2842236 -1.8822392
2.8116715 5.2712827 -1.8837727
2.8430562 5.2522578 -1.8831593
2.8798137 5.2430558 -1.8862263
2.9137843 5.2286119 -1.887453
2.9458115 5.2106352 -1.887453
2.9772542 5.1916361 -1.8871464
3.0157554 5.1847878 -1.89144
3.0441258 5.1604476 -1.8892932
3.0723109 5.1359553 -1.8871464
3.0978413 5.1072426 -1.883466
3.1361032 5.0994878 -1.8877597
3.1612892 5.0704579 -1.8840793
3.1948848 5.0549874 -1.8856128
3.22276 5.0304809 -1.8837727
3.2566767 5.0154009 -1.8856128
3.2863426 4.9937339 -1.8849995
3.3163934 4.9726834 -1.8846928
3.3468428 4.9522409 -1.8846928
3.3809319 4.937108 -1.8868396
3.4008496 4.9014144 -1.8810124
3.4368827 4.889019 -1.8843861
3.4646075 4.864738 -1.8831593
3.500519 4.8518772 -1.8865329
3.5352798 4.8372221 -1.8892932
3.5688591 4.8207932 -1.89144
3.5926602 4.7911906 -1.8883731
3.6237183 4.7713299 -1.8892932
3.651185 4.7467422 -1.8883731
3.6784866 4.7219973 -1.887453
3.7091599 4.7015791 -1.8883731
3.7319961 4.6712966 -1.8853061
3.7522051 4.6379514 -1.8810124
3.7914522 4.6280923 -1.8865329
3.8276801 4.6142631 -1.89052
3.846736 4.5797591 -1.8859196
3.8778484 4.5596948 -1.887453
3.8951924 4.5235553 -1.8822392
3.9260032 4.5031567 -1.8837727
3.9510403 4.4761281 -1.8825459
3.9828715 4.456768 -1.8846928
4.0120587 4.4343629 -1.8856128
4.0385489 4.4089599 -1.8853061
4.0719991 4.3910747 -1.8883731
4.1034269 4.3708634 -1.89052
4.1393504 4.3552599 -1.8948137
4.1620355 4.325665 -1.8929734
4.1831851 4.2945924 -1.89052
4.2007675 4.260035 -1.8865329
4.2355714 4.2429347 -1.89052
4.2642326 4.219543 -1.8917466
4.289362 4.1926336 -1.89144
4.3252797 4.1761508 -1.8960404
4.3522005 4.150846 -1.8966538
4.3852096 4.1312413 -1.9000274
4.4125667 4.1062012 -1.9009475
4.4180541 4.0610175 -1.8923601
4.4280882 4.0203991 -1.8859196
4.4562168 3.99633 -1.887453
4.4934812 3.9802694 -1.8929734
4.5156693 3.9507432 -1.8920534
4.5347838 3.918606 -1.8899065
4.5732245 3.9030623 -1.8960404
4.6043658 3.8810611 -1.8991073
4.6251664 3.8503008 -1.8978806
4.6435571 3.8176186 -1.8957337
4.6683722 3.7902541 -1.896347
4.6922836 3.7621334 -1.8966538
4.7249818 3.7409501 -1.9006407
4.7395973 3.7054408 -1.8972671
4.7584767 3.6733818 -1.8957337
4.7703271 3.6360395 -1.89144
4.8085208 3.6187167 -1.8978806
4.8260493 3.5857391 -1.8960404
4.8541012 3.5605619 -1.8984939
4.8658333 3.5234556 -1.8945069
4.8904591 3.4957464 -1.8957337
4.9227061 3.4733536 -1.9000274
4.9306455 3.4338384 -1.8948137
4.9414239 3.396513 -1.8908266
4.9676862 3.3698683 -1.8929734
5.0001354 3.3472636 -1.8975738
5.0197854 3.3159959 -1.8972671
5.0480123 3.2903285 -1.9003341
5.0584984 3.2531164 -1.8966538
5.0606804 3.2108021 -1.8899065
5.0819001 3.1806993 -1.89052
5.1102309 3.1549561 -1.8938936
5.1465669 3.1339333 -1.9003341
5.182837 3.1125829 -1.9067746
5.1969233 3.0778139 -1.9049344
5.2050242 3.0396304 -1.9009475
5.2277021 3.0100098 -1.902481
5.2427611 2.9759977 -1.9012542
5.258431 2.9423788 -1.9003341
5.2797203 2.9118965 -1.9015609
5.3066878 2.884444 -1.9049344
5.3368731 2.8585672 -1.9095348
5.2810707 2.7871311 -1.8828527
5.3318558 2.7722313 -1.8951203
5.3589325 2.7446682 -1.8988006
5.3841715 2.7160199 -1.9018675
5.4220476 2.6935146 -1.9095348
5.4290667 2.655596 -1.9061612
5.4478321 2.6234725 -1.9070814
5.4732881 2.5944786 -1.9104549
5.4942803 2.5632598 -1.9122951
5.5055795 2.5275145 -1.9107616
5.521852 2.494077 -1.9110683
5.5405307 2.4616938 -1.9122951
5.5537868 2.4268894 -1.9116817
5.5755696 2.3957713 -1.9141352
5.5901651 2.361515 -1.9141352
5.6115828 2.3300886 -1.9165888
5.6222491 2.2941749 -1.915362
5.6485891 2.2645907 -1.9196557
5.6579499 2.2281458 -1.9181222
5.6706271 2.1930444 -1.9178156
5.649271 2.1450386 -1.9058546
5.6819491 2.1176438 -1.9126017
5.6903658 2.0811064 -1.9110683
5.7146754 2.0503283 -1.9150553
5.7280464 2.0155408 -1.915362
5.7529035 1.9846997 -1.9196557
5.7568574 1.9466208 -1.9168955
5.7741146 1.9130558 -1.9187356
5.7875552 1.8781776 -1.919349
5.7989707 1.8426306 -1.919349
5.8110766 1.8072965 -1.9196557
5.8284307 1.7735448 -1.9218025
5.8465018 1.7399194 -1.9242561
5.8625517 1.7056075 -1.9260962
5.8701601 1.6688231 -1.9251761
5.8812065 1.6330276 -1.9254829
5.8901968 1.5966616 -1.9251761
5.8952818 1.559274 -1.9236426
5.901052 1.5221215 -1.922416
5.9075108 1.4851891 -1.9214958
5.9266825 1.4514018 -1.9248694
5.9475131 1.4178761 -1.9288565
5.9561014 1.3813562 -1.9288565
5.952394 1.3420651 -1.9248694
5.9642358 1.3063304 -1.9260962
5.9591045 1.2669414 -1.9218025
5.9574437 1.2284327 -1.9187356
5.9770036 1.1942775 -1.9227226
5.9748735 1.155775 -1.9196557
5.9753036 1.1178682 -1.9175088
5.9904799 1.0827053 -1.9202691
6.0026369 1.0469081 -1.9221092
6.0089474 1.010057 -1.9221092
6.0216093 0.97423059 -1.9242561
6.0397005 0.93916327 -1.928243
6.0500565 0.90278816 -1.9297765
6.0611358 0.86645579 -1.9316167
6.0672812 0.82937783 -1.9319234
6.0741434 0.79237992 -1.9325367
6.0873923 0.75614911 -1.935297
6.0853004 0.71800387 -1.9331502
6.0876994 0.6804406 -1.9325367
6.0889206 0.64277512 -1.9316167
6.0927496 0.60540211 -1.9316167
6.0972977 0.56809443 -1.9319234
6.0940309 0.53009528 -1.9297765
6.0990663 0.49284601 -1.9303899
6.0924835 0.45470694 -1.927323
6.0999069 0.41763979 -1.9288565
6.1109042 0.38073468 -1.9316167
6.120728 0.34365714 -1.9340702
6.1094127 0.30543172 -1.9297765
6.1282883 0.26868653 -1.935297
6.1241145 0.23086496 -1.9334568
6.14254 0.19382086 -1.9389772
6.140759 0.1560553 -1.9380572
6.1444559 0.11842787 -1.9389772
6.1412601 0.080674663 -1.9377506
6.142591 0.042997569 -1.9380572
6.1513057 0.0053123222 -1.9408175
6.1483669 -0.032415889 -1.9398974
6.1680388 -0.070372716 -1.9463379
6.1560712 -0.10801525 -1.9426576
6.1514864 -0.1456953 -1.9414308
6.1628447 -0.18380857 -1.9454179
6.1587472 -0.22151643 -1.9444977
6.1468115 -0.25885916 -1.9411242
6.1574664 -0.29716918 -1.9451112
6.1621799 -0.33530834 -1.947258
6.1581063 -0.37299702 -1.9466445
6.16045 -0.41109318 -1.9481781
6.1692033 -0.44971776 -1.9518584
6.1606345 -0.48711163 -1.9500182
6.1755486 -0.52644283 -1.9558454
6.1627235 -0.56345695 -1.9527785
6.1439939 -0.59977764 -1.9478713
6.1667056 -0.64022219 -1.9564588
6.1446857 -0.67606717 -1.9506316
6.1668935 -0.71683961 -1.959219
6.2294545 -0.76289243 -1.9809941
6.1661286 -0.79355788 -1.9619793
6.1602001 -0.83125019 -1.9616725
6.1549835 -0.8690328 -1.9616725
6.1307034 -0.90400225 -1.9555386
6.1212783 -0.94102335 -1.9543118
6.114449 -0.97841448 -1.9540052
6.0848584 -1.0120053 -1.9463379
6.0560246 -1.0454322 -1.9389772
6.0298214 -1.079047 -1.9325367
5.986589 -1.1092551 -1.9205757
0 -0 -0
5.7297778 -1.1345212 -1.8408358
5.6052146 -1.1456186 -1.8021926
5.4937739 -1.1579819 -1.767843
0 -0 -0
5.3853388 -1.2043124 -1.7368672
5.3361092 -1.2277211 -1.723066
5.2766085 -1.2481592 -1.7058913
5.2448044 -1.274663 -1.6979172
5.2802863 -1.3176608 -1.7123318
5.3099041 -1.3597239 -1.7249061
5.3069844 -1.393731 -1.7267463
5.2946568 -1.4252774 -1.7255195
5.2812243 -1.4564718 -1.723986
5.2712722 -1.4885905 -1.7236794
5.2410092 -1.5148233 -1.7166255
5.2151875 -1.5420915 -1.711105
5.2183814 -1.5779219 -1.7153987
5.1767759 -1.6000673 -1.7046645
5.1632304 -1.6306539 -1.7034377
5.1630912 -1.6655205 -1.7068113
5.1536784 -1.6974673 -1.707118
5.12783 -1.7238983 -1.7019042
5.1000509 -1.7494582 -1.6960771
5.0748472 -1.7756859 -1.69117
5.0665455 -1.8077513 -1.69209
5.0553579 -1.838805 -1.69209
4.9975758 -1.8525763 -1.6761421
5.00036 -1.8885897 -1.6810491
5.0179901 -1.9305202 -1.69117
4.9989614 -1.9584945 -1.6887164
4.9656339 -1.9806629 -1.6813558
4.9454513 -2.00787 -1.6785957
4.9321585 -2.0378132 -1.6782889
4.9239483 -2.0698833 -1.6798223
4.8954039 -2.0933177 -1.674302
4.8920679 -2.1274934 -1.6776755
4.8763103 -2.1563151 -1.6767554
4.8577795 -2.1838522 -1.6749153
4.842557 -2.2128265 -1.674302
4.8254352 -2.2408938 -1.6730752
4.8081517 -2.2688344 -1.6718484
4.7804089 -2.2917078 -1.6669413
4.7577009 -2.3168275 -1.6638744
4.7365708 -2.3425996 -1.6614208
4.7416687 -2.381448 -1.6684748
4.7235756 -2.4087672 -1.667248
4.6884232 -2.4271986 -1.6598874
4.6667023 -2.4523768 -1.6574339
4.6566052 -2.4836538 -1.659274
4.6462998 -2.514899 -1.6611142
4.6282787 -2.5419855 -1.660194
4.6209078 -2.5749712 -1.6632611
4.6124773 -2.6074934 -1.6660212
4.6079493 -2.6423771 -1.6703149
4.6064572 -2.6792183 -1.6758354
4.5858326 -2.7050138 -1.674302
4.5830326 -2.74141 -1.6795157
4.5832133 -2.7798488 -1.6859562
4.5555315 -2.8014345 -1.6819693
4.5374489 -2.8288302 -1.6816626
4.5143747 -2.8530576 -1.6795157
4.4871678 -2.8745406 -1.6758354
4.4574728 -2.8942416 -1.671235
4.4356551 -2.9189205 -1.6697016
4.4168696 -2.945554 -1.6693949
4.4129062 -2.9821959 -1.6749153
4.3866725 -3.0038376 -1.6718484
4.3525205 -3.0198421 -1.6657145
4.3230095 -3.0388265 -1.6614208
4.312809 -3.0713701 -1.6647944
4.2915668 -3.0961039 -1.6638744
4.270184 -3.120693 -1.6629543
4.2402468 -3.1389048 -1.6586607
4.2224298 -3.1660058 -1.659274
4.2082295 -3.1958852 -1.6614208
4.1900492 -3.2228072 -1.6620343
4.1701956 -3.2484562 -1.6620343
4.1479435 -3.2722139 -1.6611142
4.1396837 -3.3071115 -1.6660212
4.1296716 -3.3408329 -1.6703149
4.1083589 -3.3655059 -1.6700082
4.0905609 -3.3930824 -1.671235
4.0652919 -3.4144437 -1.6693949
4.0500646 -3.444258 -1.6718484
4.0302968 -3.4702861 -1.6724617
4.0046239 -3.4911966 -1.6706216
3.9759922 -3.5094028 -1.6675547
3.9707046 -3.5483234 -1.6746086
3.9432123 -3.5675106 -1.672155
3.8910732 -3.5639882 -1.6589673
3.9430969 -3.6564131 -1.6914767
2.3997786 -2.2522326 -1.0192074
2.3790162 -2.2603564 -1.0161405
2.3747025 -2.2841523 -1.0204341
3.7778726 -3.6796761 -1.6580472
3.7579336 -3.705461 -1.659274
3.7445555 -3.7378657 -1.6635677
3.698792 -3.7377639 -1.6531402
3.6797791 -3.7644734 -1.6549803
3.6493404 -3.779448 -1.6516067
3.63659 -3.8127911 -1.6565138
3.6092114 -3.8308756 -1.6546736
3.5772102 -3.8438892 -1.6506866
3.5638609 -3.8769803 -1.6555938
3.5380862 -3.8966603 -1.6546736
3.5185573 -3.9232574 -1.6568204
3.503252 -3.9547493 -1.6611142
3.4626288 -3.9575424 -1.6531402
3.4283259 -3.9671896 -1.6482331
3.3909464 -3.9729445 -1.6417925
3.3566921 -3.9820302 -1.6368855
3.3705513 -4.0486441 -1.6562071
3.3275163 -4.0471888 -1.6470063
3.3212142 -4.0904398 -1.6565138
3.2960532 -4.1107416 -1.6565138
3.2542291 -4.1099906 -1.6479264
2.0010905 -2.558717 -1.0054063
1.9841899 -2.5694404 -1.0047928
1.9655025 -2.5777812 -1.0032594
1.9467876 -2.5859897 -1.0017259
1.9274786 -2.5933015 -0.99988574
1.9126557 -2.6066148 -1.0004991
1.7677072 -2.4401951 -0.92965323
1.6530987 -2.3115978 -0.87444866
1.6449183 -2.3302534 -0.87782228
0 -0 -0
3.0202916 -4.3938522 -1.6767554
2.9986162 -4.4201794 -1.6798223
2.9709086 -4.4377046 -1.6795157
2.9215958 -4.4224906 -1.6666346
2.8871307 -4.4291692 -1.6623409
2.8902657 -4.4940391 -1.6804358
2.8565195 -4.5020432 -1.6767554
2.8263175 -4.5154514 -1.675222
2.7945592 -4.5262284 -1.6727685
2.7573314 -4.5278425 -1.6669413
2.7304769 -4.546308 -1.6675547
2.6976814 -4.5547857 -1.6644877
2.6716022 -4.5745406 -1.6657145
2.6344624 -4.5751734 -1.6598874
2.6030521 -4.5854573 -1.6577406
2.5688272 -4.5905437 -1.6537535
2.5378547 -4.6012182 -1.6519134
2.5077569 -4.613358 -1.6506866
2.4794025 -4.6286588 -1.6506866
2.4585047 -4.6580963 -1.6559004
2.4452388 -4.7026534 -1.6666346
2.4085307 -4.7023182 -1.6611142
2.3856318 -4.7289066 -1.6654079
2.356571 -4.7434559 -1.6654079
2.3152976 -4.7330284 -1.6565138
1.4775324 -3.0670435 -1.0557038
1.4537951 -3.0657299 -1.0520234
1.4325433 -3.0694168 -1.0501833
2.1996367 -4.7910185 -1.6574339
2.1678483 -4.7992201 -1.6555938
2.1310205 -4.7959037 -1.6497666
2.1053627 -4.8176112 -1.6528335
