# .PCD v0.7 - Point Cloud Data file format
VERSION 0.7
FIELDS x y z
SIZE 4 4 4
TYPE F F F
COUNT 1 1 1
WIDTH 1518
HEIGHT 1
VIEWPOINT 0 0 0 1 0 0 0
POINTS 1518
DATA ascii
-3.1902041 -2.1072409 -1.0491422
-3.253828 -2.1207137 -1.0664122
-3.239279 -2.0830204 -1.057092
-3.2528112 -2.0636208 -1.057366
-3.2645969 -2.0431128 -1.057092
-3.3490796 -2.0675063 -1.0812151
-3.3732014 -2.053921 -1.0850528
-3.3939846 -2.0381365 -1.0877942
-3.4626918 -2.050601 -1.1064348
-3.3780494 -1.9725673 -1.0743619
-3.3725884 -1.9417244 -1.0686053
-3.3802574 -1.91862 -1.0672346
-3.4028759 -1.9039487 -1.0707983
-3.4237571 -1.8881427 -1.0738137
-3.4479518 -1.8739892 -1.0779256
-3.4771874 -1.8623346 -1.0836823
-3.4817452 -1.8373725 -1.0814892
-3.5168438 -1.8283979 -1.0891649
-3.556242 -1.8212535 -1.0982111
-3.6154318 -1.8236574 -1.1135621
-3.6463621 -1.8112813 -1.1198671
-3.6669097 -1.7935224 -1.1228825
-3.6813111 -1.7726581 -1.123979
-3.6903808 -1.7492127 -1.1234307
-3.738518 -1.7440221 -1.1352181
-3.8496549 -1.7671994 -1.1667428
-3.8893473 -1.7566106 -1.175789
-3.9598124 -1.75927 -1.1944296
-3.9775822 -1.738021 -1.1966226
-5.2834558 -2.2702644 -1.5984929
-4.0783386 -1.722766 -1.221294
-4.1732059 -1.7327509 -1.2473361
-4.2541003 -1.7358207 -1.2689922
-4.2905564 -1.7200652 -1.2769419
-4.3430843 -1.7102716 -1.2898258
-4.3938584 -1.6992035 -1.3021616
-4.3844233 -1.6646996 -1.2961308
-4.4287972 -1.6505308 -1.3065475
-4.5499306 -1.6639621 -1.3402652
-4.6351843 -1.6629742 -1.3630178
-4.746901 -1.6702605 -1.39372
-4.8261514 -1.6649441 -1.4145536
-4.9720149 -1.6812096 -1.4553986
-5.1967621 -1.7217629 -1.5198184
-5.2392435 -1.7002358 -1.5294129
-5.3238153 -1.6916515 -1.5516171
-5.6114168 -1.7452251 -1.6344036
-5.7167821 -1.7396041 -1.6626387
-5.8766675 -1.748943 -1.7070472
-5.8983688 -1.7160761 -1.7103367
-5.9790888 -1.6998436 -1.7311704
-6.033884 -1.6754781 -1.7443285
-6.0904598 -1.6510072 -1.7580348
-6.214829 -1.6438606 -1.7917525
-6.4073133 -1.6527883 -1.8454814
-6.5674911 -1.6512047 -1.8896159
-6.6690383 -1.6333007 -1.9164803
-6.7069983 -1.5990421 -1.9247041
-6.7260518 -1.560032 -1.9274454
-6.7411261 -1.5200019 -1.9290901
-6.7700534 -1.4829329 -1.9348468
-6.7790251 -1.4413646 -1.9348468
-6.7943344 -1.4011023 -1.9367657
-6.8037467 -1.3595752 -1.9370399
-6.7940211 -1.3143311 -1.9318314
-6.8142467 -1.2749188 -1.9353951
-6.8162632 -1.2320567 -1.9337503
-6.8341155 -1.192028 -1.9367657
-6.8137984 -1.1454471 -1.928816
-6.8273435 -1.1046926 -1.9307349
-6.8453965 -1.064554 -1.9340245
-6.8641648 -1.0243775 -1.9375881
-6.8750811 -0.98292124 -1.9389588
-6.8819356 -0.94084835 -1.9392328
-6.87995 -0.8976081 -1.9370399
-6.879602 -0.85466492 -1.9353951
-6.893312 -0.81345123 -1.9378622
-6.9019966 -0.77156693 -1.9389588
-6.9190335 -0.73051596 -1.9425224
-6.9243426 -0.68814296 -1.9427965
-6.9437556 -0.64707166 -1.9471825
-6.9485531 -0.60453677 -1.9474567
-0 -0 -0
-6.9372272 -0.51786053 -1.9422482
-6.9258823 -0.47429836 -1.9381363
-6.9229035 -0.4314338 -1.9364916
-6.9167786 -0.38846171 -1.9340245
-6.9046245 -0.34529248 -1.9299126
-0 -0 -0
-0 -0 -0
-6.9242287 -0.21859846 -1.9340245
-6.6138577 0.48568842 -1.9310782
-6.6097975 0.52618492 -1.9307932
-6.5988045 0.56607521 -1.9285131
-6.5952067 0.60655409 -1.9285131
-6.5970845 0.64757293 -1.9302232
-6.6044269 0.68923557 -1.9336435
-6.6057897 0.73037958 -1.9353535
-6.6011834 0.77089822 -1.9353535
-6.5953779 0.81127059 -1.9350685
-6.5655603 0.84852523 -1.927658
-6.5583305 0.88853705 -1.927088
-6.5612965 0.9299736 -1.9296532
-6.5289178 0.96628147 -1.9216726
-6.5313916 1.0076408 -1.9242377
-6.5354962 1.0493711 -1.9273731
-6.5327158 1.0900841 -1.9285131
-6.5277929 1.130475 -1.9290831
-6.5197902 1.170338 -1.9287981
-6.5115442 1.2101454 -1.9285131
-6.4908185 1.2475415 -1.9245228
-6.4971437 1.2901478 -1.9287981
-6.4684477 1.3257515 -1.9225277
-6.4723825 1.3679951 -1.9262329
-6.4648032 1.4078873 -1.926518
-6.4476256 1.4456393 -1.9239528
-6.4470396 1.4871144 -1.926518
-6.4182086 1.5219967 -1.9205326
-6.4292364 1.5663445 -1.926803
-6.4074163 1.6027383 -1.9230977
-6.3844643 1.6386847 -1.9191074
-6.37707 1.6785607 -1.9199625
-6.4018154 1.7271519 -1.9307932
-6.3855543 1.7648671 -1.9290831
-6.359849 1.7998362 -1.9245228
-6.3431616 1.8372246 -1.9228127
-6.308795 1.8692992 -1.9156872
-6.2972064 1.907974 -1.9156872
-6.2826338 1.9457258 -1.9148321
-6.2815428 1.9877108 -1.9182523
-6.2628436 2.0241516 -1.9162573
-6.246665 2.0613394 -1.9151171
-6.238441 2.10116 -1.9165423
-6.2290568 2.1406455 -1.9176823
-6.1904788 2.1699433 -1.9097018
-6.2203698 2.2233801 -1.9233828
-6.1904006 2.2555962 -1.9182523
-6.1351123 2.2781811 -1.9051415
-6.120122 2.315443 -1.9048564
-6.1505165 2.3701935 -1.9191074
-6.1171212 2.4005311 -1.9131221
-6.1076169 2.4401546 -1.9148321
-6.0756602 2.4707208 -1.9094168
-6.0665851 2.5105207 -1.9114119
-6.0448833 2.5450926 -1.9094168
-6.027391 2.5813801 -1.9088467
-6.0088024 2.6171663 -1.9079916
-5.9935069 2.6543746 -1.9082767
-5.9858465 2.6950369 -1.9111269
-5.951767 2.7237341 -1.9054265
-5.9288592 2.7573717 -1.9034314
-5.9083624 2.7920597 -1.9022913
-5.9256806 2.8448601 -1.9136921
-5.8788233 2.8668759 -1.9040014
-5.8645573 2.9045961 -1.9051415
-5.8611808 2.9478498 -1.9099869
-5.8523722 2.9885547 -1.9131221
-5.8398809 3.0274971 -1.9151171
-5.8127131 3.0588076 -1.912267
-5.7557917 3.0740891 -1.8994411
-5.7545161 3.1189427 -1.9054265
-5.7461877 3.1601999 -1.9091318
-5.7132978 3.1879232 -1.9045714
-5.680284 3.2153621 -1.9000112
-5.6745777 3.2582715 -1.9048564
-5.6519942 3.2915812 -1.9040014
-5.6531467 3.3388767 -1.9114119
-5.6259756 3.3695598 -1.9091318
-5.5945454 3.3975465 -1.9054265
-5.568696 3.4287939 -1.9037164
-5.5451136 3.4613752 -1.9028614
-5.5480671 3.5107148 -1.9114119
-5.5175476 3.5389967 -1.9082767
-5.4981394 3.574353 -1.9091318
-5.4777045 3.6090767 -1.9097018
-5.4530654 3.641022 -1.9088467
-5.4337969 3.6765621 -1.9099869
-5.4150882 3.7125447 -1.9114119
-5.3859096 3.7413254 -1.9091318
-5.3330688 3.7533336 -1.898301
-5.3122797 3.7876558 -1.8991561
-5.329339 3.8493719 -1.9139771
-5.2963381 3.875206 -1.9105569
-5.2716904 3.9070599 -1.9102719
-5.2537498 3.9439375 -1.912552
-5.2210593 3.9697165 -1.9094168
-5.1920471 3.998168 -1.9077066
-5.1591039 4.0234652 -1.9045714
-5.1358237 4.0562334 -1.9051415
-5.1160774 4.0918617 -1.9071367
-5.0990663 4.1298137 -1.9102719
-5.0662198 4.1549435 -1.9074216
-5.0546389 4.1975884 -1.912837
-5.0221858 4.222971 -1.9102719
-4.9793963 4.2394128 -1.9037164
-4.9598231 4.2755194 -1.9062816
-4.9248309 4.2983069 -1.9028614
-4.8761015 4.3087645 -1.8940257
-4.8802843 4.3660893 -1.9062816
-4.8462996 4.3895159 -1.9034314
-4.8305764 4.4295368 -1.9079916
-4.801199 4.4571366 -1.9071367
-4.7653799 4.4786334 -1.9037164
-4.7378101 4.5077891 -1.9037164
-4.7135129 4.5401001 -1.9051415
-4.6931143 4.5762987 -1.9082767
-4.6608539 4.6009679 -1.9065666
-4.6386361 4.6355786 -1.9091318
-4.6080842 4.6619081 -1.9082767
-4.577384 4.6880374 -1.9074216
-4.535892 4.7029247 -1.9020063
-4.5089331 4.7327499 -1.9028614
-4.4719276 4.7519498 -1.8994411
-4.4557352 4.7933426 -1.9051415
-4.4132771 4.806469 -1.8994411
-4.3914275 4.8419795 -1.9028614
-4.3673902 4.8752604 -1.9054265
-4.3335838 4.8976583 -1.9037164
-4.2933607 4.9126072 -1.8991561
-4.2662673 4.9424868 -1.9005812
-4.2408342 4.9744072 -1.9028614
-4.1978874 4.9856682 -1.897161
-4.1800842 5.0268111 -1.9031464
-4.1376061 5.0382891 -1.8977309
-4.0957484 5.0501795 -1.8926007
-4.0592923 5.0684814 -1.8900355
-4.034061 5.1008124 -1.8928857
-4.0020971 5.1247134 -1.8926007
-3.9781845 5.1590424 -1.8963059
-3.9423907 5.1780157 -1.8943107
-3.897301 5.184484 -1.8877553
-3.8871181 5.2375522 -1.898586
-3.8367841 5.2365589 -1.8894655
-3.7905405 5.2405839 -1.88234
-3.7583134 5.2637434 -1.88234
-3.7270491 5.2882719 -1.88291
-3.6967196 5.314189 -1.88405
-3.6667547 5.340723 -1.8854752
-3.6371408 5.3678832 -1.8871853
-3.6190498 5.4124122 -1.8951658
-3.5815496 5.4281154 -1.8928857
-3.5523586 5.4564161 -1.8951658
-3.5058646 5.4579458 -1.8880403
-3.4774384 5.487452 -1.8908905
-3.4376073 5.4989319 -1.8874702
-3.4027958 5.5182891 -1.8869003
-3.3743496 5.5480738 -1.8900355
-3.3407366 5.5694962 -1.8903205
-3.3206475 5.6138167 -1.898586
-3.2750354 5.6150408 -1.8920306
-3.2328775 5.6217341 -1.8874702
-3.1973772 5.6397972 -1.8869003
-3.1533628 5.6425734 -1.8811998
-3.1177566 5.6601367 -1.8806298
-3.1026254 5.7153869 -1.8928857
-3.034956 5.6734571 -1.8723643
-2.9983001 5.6885805 -1.8712242
-2.9792354 5.7374978 -1.8814849
-2.9492109 5.7659116 -1.8849051
-2.916363 5.7890353 -1.8866153
-2.8782322 5.8016686 -1.8849051
-2.8547757 5.8441987 -1.8931707
-2.819278 5.8624692 -1.8934557
-2.7771041 5.8666611 -1.8891804
-2.7576444 5.9192166 -1.9008662
-2.7080963 5.90727 -1.8914605
-2.6733749 5.9272704 -1.8926007
-2.6381211 5.9461908 -1.8934557
-2.6050351 5.9701738 -1.8960209
-2.5638201 5.9754744 -1.8926007
-2.5215216 5.9778447 -1.8883253
-2.4792905 5.9799213 -1.88405
-2.4570119 6.0305309 -1.8954508
-2.4089255 6.0179052 -1.8866153
-2.3709033 6.0298967 -1.8857602
-2.3217812 6.013032 -1.8757845
-2.2865403 6.0316467 -1.8772095
-2.2481513 6.0419698 -1.8760695
-2.2251654 6.0943694 -1.8883253
-2.1970978 6.1340785 -1.8965909
-2.1559258 6.137496 -1.8934557
-2.1182261 6.150609 -1.8934557
-2.080447 6.1634903 -1.8934557
-2.0434916 6.1788697 -1.8943107
-2.0014074 6.1785254 -1.8903205
-1.9573768 6.1715012 -1.884335
-1.9206084 6.187057 -1.8854752
-1.8840011 6.2033114 -1.8869003
-1.8469939 6.21843 -1.8880403
-1.8096049 6.2324076 -1.8888954
-1.7718524 6.2452383 -1.8894655
-1.7304294 6.2449074 -1.8860452
-1.6905781 6.249856 -1.884335
-1.6497536 6.250843 -1.8814849
-1.6104131 6.2571349 -1.8803449
-1.5673288 6.2483029 -1.8746444
-1.5262325 6.2466283 -1.8712242
-1.4934156 6.2791891 -1.8783497
-1.4585292 6.3041105 -1.883195
-1.4221321 6.3232284 -1.8863302
-1.3845333 6.3374543 -1.8880403
-1.3442307 6.3392663 -1.8860452
-1.3045367 6.3436394 -1.8849051
-1.2760682 6.4041691 -1.9008662
-1.2342098 6.3987012 -1.896876
-1.1828091 6.341135 -1.8772095
-1.1411614 6.3331795 -1.8726493
-1.1275386 6.4854975 -1.9165423
-1.0752239 6.4176092 -1.8940257
-1.0324728 6.4032669 -1.8877553
-0.99272394 6.4066396 -1.8869003
-0.9626869 6.4751868 -1.9057115
-0.91848385 6.4496555 -1.8963059
-0.87811732 6.449471 -1.8945957
-0.84247363 6.4851556 -1.9037164
-0.80372292 6.4987645 -1.9062816
-0.7621575 6.4892936 -1.9020063
-0.71999812 6.4728894 -1.8957359
-0.68276638 6.501018 -1.9028614
-0.64173484 6.493638 -1.8994411
-0.60637891 6.5461307 -1.9139771
-0.56175244 6.4981594 -1.898586
-0.52516043 6.5425687 -1.9108418
-0.4821797 6.5074315 -1.8994411
-0.44360241 6.5303502 -1.9054265
-0.40193367 6.5071182 -1.8977309
-0.36210528 6.5113759 -1.898301
-0.32219258 6.5144324 -1.898586
-0.28192559 6.5095835 -1.8965909
-0.24243878 6.523643 -1.9002962
-0.20190357 6.5087209 -1.8954508
-0.16179731 6.5031295 -1.8934557
-0.1219274 6.5059166 -1.8940257
-0.082029365 6.5084591 -1.8945957
-0.042080607 6.5069227 -1.8940257
-0.0021537954 6.5051417 -1.8934557
0.037978973 6.5414553 -1.9042864
0.077999711 6.5315146 -1.9014362
0.11747997 6.4983292 -1.8917456
0.15835597 6.5386901 -1.9040014
0.19747892 6.5050206 -1.8943107
0.23795141 6.5190125 -1.8988711
0.27901313 6.5423284 -1.9062816
0.31905708 6.5385785 -1.9057115
0.35990965 6.5498967 -1.9097018
0.40097177 6.5619159 -1.9139771
0.43890536 6.5249038 -1.9037164
0.48146638 6.5565014 -1.9139771
0.51528382 6.4731631 -1.8900355
0.55294037 6.4460044 -1.88291
0.59362525 6.4548984 -1.8866153
0.63631618 6.482614 -1.8960209
0.67538321 6.4719143 -1.8940257
0.71645296 6.4800334 -1.8977309
0.75363922 6.4536185 -1.8911755
0.78584081 6.3889389 -1.8732194
0.82957965 6.4191689 -1.8837651
0.87565172 6.4633484 -1.898586
0.91394681 6.4483638 -1.8957359
0.95195055 6.4322047 -1.8926007
0.98744935 6.4006658 -1.8849051
1.0259439 6.3897548 -1.8834801
1.0673424 6.396575 -1.8874702
1.1023141 6.3653502 -1.8800598
1.1489787 6.4009204 -1.8928857
1.1864793 6.3843265 -1.8900355
1.2191116 6.3430405 -1.8797748
1.2641749 6.3664651 -1.8891804
1.3014815 6.3501377 -1.8866153
1.3376434 6.3289037 -1.882625
1.3795135 6.3346252 -1.8869003
1.4181463 6.3251061 -1.8866153
1.4597325 6.3284268 -1.8903205
1.4943303 6.3016315 -1.8849051
1.5361469 6.3053808 -1.8888954
1.5717812 6.2837486 -1.8851901
1.5986234 6.2284956 -1.8712242
1.6363223 6.2167153 -1.8706541
1.6734372 6.2028565 -1.8695141
1.7127433 6.1970911 -1.8709391
1.7525638 6.1929207 -1.8729343
1.7897295 6.1792889 -1.8720793
1.8278836 6.1691098 -1.8723643
1.8668146 6.161447 -1.8735044
1.9085575 6.1626945 -1.8774946
1.9570408 6.184679 -1.8880403
1.9875789 6.149754 -1.8809148
2.0240736 6.1338019 -1.8797748
2.0628963 6.1249003 -1.8809148
2.1019974 6.1166592 -1.88234
2.1359994 6.0936971 -1.8792048
2.1697989 6.0705481 -1.8760695
2.2099609 6.0652251 -1.8786347
2.242795 6.0398703 -1.8749294
2.2815094 6.030477 -1.8763546
2.3205378 6.0217304 -1.8780646
2.3577931 6.0082707 -1.8783497
2.375047 5.9447379 -1.8626736
2.4233992 5.959352 -1.8720793
2.4566193 5.9363999 -1.8695141
2.4993238 5.9362311 -1.8743594
2.5281506 5.903163 -1.868659
2.5654728 5.8901758 -1.8695141
2.6097202 5.8927269 -1.8754995
2.6399231 5.8634934 -1.8712242
2.6758513 5.8471851 -1.8712242
2.7149134 5.8376083 -1.8735044
2.7502716 5.8199739 -1.8732194
2.7884204 5.8081732 -1.8749294
2.8214846 5.7857852 -1.8732194
2.8577833 5.770082 -1.8737894
2.8927033 5.7515821 -1.8735044
2.9309924 5.7396994 -1.8754995
2.9683619 5.7258615 -1.8769246
3.0079045 5.716022 -1.8797748
3.0334346 5.6797047 -1.8737894
3.0746241 5.6727815 -1.8777796
3.1042912 5.6445713 -1.8746444
3.1416705 5.6304393 -1.8763546
3.1752143 5.6093884 -1.8757845
3.2090957 5.5889688 -1.8754995
3.2423635 5.5675168 -1.8749294
3.2803648 5.5541186 -1.8772095
3.3099487 5.5264864 -1.8746444
3.3428009 5.5044346 -1.8740743
3.3830476 5.4944291 -1.8777796
3.4161894 5.472755 -1.8774946
3.4471419 5.4476409 -1.8760695
3.4856796 5.4344544 -1.8789197
3.5126882 5.4033222 -1.8754995
3.5510511 5.3896699 -1.8783497
3.5819252 5.3645916 -1.8772095
3.6179979 5.3472748 -1.8789197
3.6539929 5.3297176 -1.8806298
3.6833448 5.302474 -1.8789197
3.7147071 5.2782059 -1.8783497
3.7453539 5.2529726 -1.8774946
3.7752695 5.2267847 -1.8763546
3.8084018 5.2050686 -1.8769246
3.8379843 5.1785231 -1.8757845
3.8691113 5.1541095 -1.8754995
3.9082069 5.1401901 -1.8792048
3.9390881 5.1153536 -1.8789197
3.9745283 5.0963778 -1.8809148
4.010478 5.0779114 -1.883195
4.0397635 5.0509624 -1.88234
4.0682659 5.0231009 -1.8811998
4.1032662 5.0032315 -1.883195
4.129601 4.9727988 -1.8811998
4.1581845 4.9451661 -1.8803449
4.1809912 4.9108019 -1.8769246
4.2148004 4.889411 -1.8786347
4.2485046 4.8677897 -1.8803449
4.2795625 4.8430657 -1.8809148
4.320065 4.8288584 -1.8857602
4.3515439 4.8043909 -1.8866153
4.3757577 4.7719488 -1.884335
4.399085 4.7386885 -1.8817699
4.4353004 4.7192888 -1.8849051
4.4747472 4.7030945 -1.8894655
4.4995303 4.6714082 -1.8877553
4.531455 4.6471424 -1.8891804
4.5558434 4.6151581 -1.8874702
4.5827203 4.5857615 -1.8869003
4.6039534 4.5508189 -1.88405
4.6489387 4.5392218 -1.8911755
4.6615224 4.4959745 -1.8849051
4.6793041 4.4580326 -1.8809148
4.7051735 4.4279237 -1.8803449
4.7336588 4.4002748 -1.8809148
4.7619815 4.3724432 -1.8814849
4.7766485 4.3321972 -1.8766396
4.8281326 4.3251872 -1.8866153
4.8416572 4.28405 -1.8814849
4.8909516 4.2744417 -1.8906054
4.9207153 4.2474818 -1.8920306
4.9291759 4.2022872 -1.8851901
4.9622011 4.1781359 -1.8880403
4.992167 4.1512861 -1.8897505
5.0197678 4.1224012 -1.8906054
5.0427337 4.0897117 -1.8897505
5.0677328 4.0586934 -1.8897505
5.1030684 4.0358443 -1.8937408
5.1088467 3.9897106 -1.8866153
5.1453776 3.9676511 -1.8911755
5.1459808 3.918009 -1.88234
5.1883154 3.9001799 -1.8891804
5.1852055 3.8482828 -1.8792048
5.235786 3.8362176 -1.8891804
5.2600026 3.8045809 -1.8894655
5.2848082 3.7733481 -1.8900355
5.3039436 3.73809 -1.8886104
5.3362241 3.7120419 -1.8920306
5.3715448 3.6879077 -1.8965909
5.3980408 3.6575668 -1.898016
5.4211783 3.6249089 -1.898301
5.4369168 3.5873549 -1.8960209
5.4572196 3.5528815 -1.8954508
5.4805298 3.5203655 -1.8960209
5.5060759 3.4892359 -1.8974459
5.503809 3.440655 -1.8891804
5.5362401 3.4138608 -1.8931707
5.5873876 3.3982506 -1.9037164
5.6056671 3.3624244 -1.9028614
5.605566 3.315769 -1.8957359
5.6166968 3.276001 -1.8926007
5.6441717 3.245775 -1.8951658
5.6664829 3.2124996 -1.8960209
5.6961293 3.1832798 -1.8994411
5.7239509 3.1528924 -1.9022913
5.7280245 3.1094828 -1.897161
5.7554488 3.0787973 -1.9000112
5.767447 3.0398505 -1.8977309
5.7774835 2.999989 -1.8948808
5.8017564 2.9675372 -1.896876
5.856668 2.9504192 -1.9091318
5.840312 2.8973947 -1.8977309
5.8614254 2.8631868 -1.8988711
5.8745637 2.8250916 -1.8974459
5.8978524 2.7918625 -1.8994411
5.9027071 2.7499566 -1.8954508
5.9517112 2.7284601 -1.9059966
5.9648452 2.6903141 -1.9048564
5.9812403 2.6536639 -1.9048564
6.0114679 2.6230445 -1.9094168
6.0230446 2.5842206 -1.9079916
6.0299554 2.5434916 -1.9051415
6.0516472 2.5090132 -1.9071367
6.0704789 2.4732797 -1.9082767
6.1220279 2.4505835 -1.9199625
6.1092939 2.4021053 -1.9111269
6.1257067 2.3652642 -1.9116969
6.1356225 2.3259351 -1.9102719
6.1542706 2.2899144 -1.9116969
6.167305 2.2517807 -1.9114119
6.1746883 2.2116351 -1.9094168
6.1836205 2.1721187 -1.9079916
6.2068019 2.1375673 -1.9111269
6.2316079 2.103426 -1.9148321
6.2434869 2.0648491 -1.9145471
6.2569509 2.0267961 -1.9148321
6.2692695 1.9883661 -1.9148321
6.2767744 1.9484411 -1.9134071
6.3078728 1.9157369 -1.9193925
6.3231845 1.8780875 -1.9205326
6.3327479 1.8387196 -1.9199625
6.3549771 1.8029654 -1.9233828
6.3659201 1.7639381 -1.9233828
6.373848 1.7240939 -1.9225277
6.3843064 1.6849524 -1.9225277
6.3806005 1.642166 -1.9182523
6.3868375 1.6020523 -1.9171124
6.3974786 1.5630606 -1.9173973
6.4013534 1.5224473 -1.9156872
6.4301863 1.4876744 -1.9216726
6.4363875 1.447561 -1.9208175
6.4470215 1.4084496 -1.9213876
6.4621062 1.3702556 -1.9233828
6.46382 1.3292288 -1.9213876
6.4812551 1.2914139 -1.9242377
6.4504676 1.2441852 -1.912552
6.484365 1.209499 -1.9205326
6.4727969 1.1662928 -1.9148321
6.48172 1.1268826 -1.9154022
6.5102558 1.0907292 -1.9219576
6.5177722 1.0509149 -1.9222426
6.5222034 1.0106096 -1.9216726
6.5301781 0.97085267 -1.9222426
6.5350633 0.93063104 -1.9219576
6.5491982 0.89167744 -1.9245228
6.559299 0.85209209 -1.9259479
6.5663066 0.81206387 -1.926518
6.5702138 0.77164686 -1.9262329
6.5824461 0.73216462 -1.9285131
6.5782347 0.69086218 -1.9259479
6.5804424 0.6502977 -1.9253778
6.5843086 0.60990864 -1.9253778
6.580287 0.56883752 -1.9230977
6.5989408 0.5296753 -1.927658
6.609714 0.48974025 -1.9299382
6.6164198 0.44943374 -1.9310782
6.6180964 0.40876877 -1.9307932
6.6204801 0.36815321 -1.9307932
6.6101685 0.32691044 -1.927088
6.6091771 0.28622115 -1.9262329
6.6098514 0.24562719 -1.9259479
6.6150661 0.20518348 -1.927088
6.6181169 0.16463767 -1.927658
6.6237946 0.12411551 -1.9290831
6.6311402 0.083553702 -1.9310782
6.6344037 0.042882301 -1.9319333
6.6220813 0.002171654 -1.928228
6.6344304 -0.038535267 -1.9319333
6.6541967 -0.079486579 -1.9379187
6.6487918 -0.12022699 -1.9364936
6.6642189 -0.16141835 -1.9413389
6.6659775 -0.20239396 -1.942194
6.6579046 -0.24304588 -1.9401989
6.6582036 -0.28397545 -1.940769
6.6582503 -0.32491785 -1.9413389
6.6532602 -0.36560771 -1.9404839
6.6480212 -0.40624857 -1.9396288
6.6425347 -0.44683892 -1.9387738
6.6425357 -0.48779944 -1.9396288
6.6441951 -0.52892923 -1.9410539
6.6799793 -0.57305312 -1.9527397
6.663929 -0.61288655 -1.9490345
6.6657667 -0.65432692 -1.9507446
6.6702061 -0.69611192 -1.9533098
6.6734309 -0.73787045 -1.9555899
6.672586 -0.77924937 -1.95673
6.6781435 -0.82146597 -1.9598652
6.6587186 -0.86058152 -1.9555899
6.6058216 -0.89497972 -1.9413389
6.6248803 -0.93899709 -1.9487494
6.5971861 -0.97639745 -1.942194
6.5825453 -1.0155418 -1.9396288
6.5667262 -1.0543911 -1.9367787
6.5213709 -1.0881889 -1.9250928
6.3719611 -1.1034602 -1.8820549
6.2452574 -1.1210082 -1.8458575
6.0705223 -1.1281031 -1.7951241
0 -0 -0
5.90204 -1.1718687 -1.7483809
5.8430948 -1.1974667 -1.7327049
5.7793713 -1.2213942 -1.7156037
0 -0 -0
0 -0 -0
0 -0 -0
5.7551169 -1.3646297 -1.7178838
5.7466354 -1.3999169 -1.7178838
5.7407269 -1.4358494 -1.7187389
5.7076707 -1.4648468 -1.7113284
5.6707683 -1.4925164 -1.7027779
5.6661305 -1.5285326 -1.7042029
5.6409397 -1.5589269 -1.6993576
5.6257343 -1.5919427 -1.6976475
5.6351938 -1.6320349 -1.7036328
5.6140461 -1.6633115 -1.7002126
5.5835543 -1.691609 -1.6939422
5.5675759 -1.7241348 -1.6922321
5.5568924 -1.7582644 -1.6922321
5.5487351 -1.7932125 -1.6930871
5.5248852 -1.8230177 -1.6890969
5.4845285 -1.847088 -1.6799762
5.4785304 -1.8825756 -1.6816864
5.4578309 -1.9129835 -1.6788362
5.4649439 -1.9532145 -1.6848216
5.447453 -1.9847401 -1.6831114
5.432477 -2.0171263 -1.6822565
5.4011722 -2.0432951 -1.6762711
5.3804841 -2.0732942 -1.6737058
5.3480325 -2.0985625 -1.6674354
5.3510761 -2.1377418 -1.6725658
5.3058963 -2.1575308 -1.6623051
5.2899013 -2.1889465 -1.66145
5.2869706 -2.2258286 -1.6648703
5.2740946 -2.2586045 -1.6651553
5.2733173 -2.2966671 -1.6694306
5.2652607 -2.3316984 -1.6714257
5.2359972 -2.357269 -1.6665803
5.2162056 -2.3869581 -1.6648703
5.2162352 -2.4257934 -1.6697155
5.2185841 -2.4659476 -1.675416
5.2059469 -2.499167 -1.6762711
5.1896529 -2.5306425 -1.6759861
5.189487 -2.5700984 -1.6811163
5.1787572 -2.6044769 -1.6828265
5.1524358 -2.6309714 -1.6794063
5.1472569 -2.6682734 -1.6831114
5.1435103 -2.7065041 -1.6873868
5.1183524 -2.733496 -1.6845366
5.0964279 -2.7621088 -1.6828265
5.0894618 -2.7988725 -1.6862468
5.0654969 -2.8263106 -1.6839665
5.0322123 -2.8483646 -1.6785512
4.9930301 -2.8667746 -1.6711407
4.962923 -2.8901196 -1.6668653
4.9409699 -2.9180789 -1.6654403
4.919683 -2.9463706 -1.6643002
4.9318218 -2.9949162 -1.6748459
4.9019265 -3.0180831 -1.6708556
4.880877 -3.0465808 -1.6700006
4.8483233 -3.0677564 -1.6651553
4.8124676 -3.0865769 -1.6591699
4.8087053 -3.1259766 -1.6645852
4.7750282 -3.1459284 -1.6594549
4.7628088 -3.1799598 -1.6620201
4.7344756 -3.2032139 -1.6588849
4.7234273 -3.2381673 -1.6620201
4.7042565 -3.2676358 -1.6623051
4.6794157 -3.2931283 -1.6605949
4.6458549 -3.3123162 -1.6557497
4.651082 -3.3592861 -1.6651553
4.593256 -3.3605866 -1.6514744
4.5794792 -3.3938448 -1.6540395
4.5669999 -3.4282117 -1.6571747
4.5458789 -3.4561696 -1.6571747
4.5253458 -3.4845824 -1.6574597
4.5159717 -3.5217175 -1.6620201
4.4852524 -3.5422299 -1.6585999
4.4784021 -3.5816607 -1.6643002
4.4652781 -3.6163132 -1.6677204
4.429666 -3.6327002 -1.6625901
4.4050813 -3.6579742 -1.6617351
4.3627481 -3.6682751 -1.6540395
4.3314013 -3.6875174 -1.6506193
4.2905459 -3.6983757 -1.6434938
4.2735486 -3.7296755 -1.645774
4.2477107 -3.753288 -1.6446339
4.2374578 -3.790787 -1.6497642
4.2297449 -3.8308752 -1.6560347
4.1955643 -3.8470373 -1.6517594
4.173285 -3.8740127 -1.6523294
4.1389608 -3.8896983 -1.6480541
4.1212649 -3.9209688 -1.6506193
2.3604858 -2.2728379 -0.93351084
2.3423786 -2.283263 -0.93180072
2.3276427 -2.2969189 -0.93151569
3.9749908 -3.9721363 -1.6300979
3.9451537 -3.9909971 -1.6278177
3.9058619 -4.0000381 -1.6215473
3.9171703 -4.0611906 -1.6369383
3.8802788 -4.0726557 -1.631808
3.8644114 -4.1061621 -1.6357983
3.8672001 -4.1599894 -1.6480541
3.8513246 -4.194232 -1.6523294
3.8409681 -4.2348275 -1.6591699
3.8123536 -4.2554593 -1.6580298
3.7995069 -4.2938485 -1.6640152
3.7674131 -4.3105845 -1.66145
3.7358835 -4.3278141 -1.6591699
3.7198277 -4.3630576 -1.6640152
3.694838 -4.388 -1.6648703
3.6653934 -4.40764 -1.6637301
3.630373 -4.4204164 -1.6600249
3.6345706 -4.4813266 -1.6748459
3.5974205 -4.4915709 -1.6702856
3.5763319 -4.521831 -1.6734208
2.0067079 -2.5686636 -0.92838049
1.9873981 -2.5763731 -0.92667037
1.9680693 -2.5839427 -0.92496026
1.9475709 -2.5898395 -0.92268008
1.9305011 -2.6002011 -0.92211008
1.9139438 -2.6112244 -0.92182505
1.7086201 -2.3611524 -0.82577354
1.7057939 -2.3879757 -0.83175898
1.6690277 -2.3670537 -0.82035816
3.2945085 -4.7357726 -1.6745609
3.2588797 -4.7464147 -1.6711407
3.2162566 -4.7464809 -1.6640152
3.1758866 -4.7493911 -1.6580298
3.1503794 -4.7743897 -1.6600249
3.1110914 -4.7783661 -1.6546096
3.0962141 -4.8199492 -1.6625901
3.0809431 -4.8615294 -1.6705706
3.0368328 -4.8575816 -1.6625901
3.0009346 -4.8663325 -1.6591699
2.9799817 -4.8993969 -1.6643002
2.9404984 -4.9019699 -1.6588849
2.9123166 -4.9232206 -1.6600249
2.8767428 -4.9318891 -1.6568897
2.8421278 -4.9419684 -1.6543245
2.8089156 -4.9543109 -1.6526145
2.7737889 -4.9630847 -1.6497642
2.7474446 -4.9875679 -1.6523294
2.7122183 -4.9959068 -1.6494793
2.6833208 -5.0158358 -1.6506193
2.6431115 -5.0143971 -1.6446339
2.6069951 -5.0203118 -1.6412137
2.5787599 -5.0413342 -1.6429237
1.5338477 -3.0434935 -0.97255844
1.5138668 -3.0502715 -0.97170341
1.5052155 -3.0801752 -0.97854388
2.4251945 -5.0426288 -1.6229724
2.4155254 -5.102469 -1.6377934
2.3829579 -5.1145873 -1.6369383
2.3535271 -5.1334696 -1.6383635
2.3247418 -5.1539311 -1.6403586
2.2969599 -5.1768603 -1.6432087
2.2601705 -5.1794353 -1.6395035
2.2196586 -5.1729445 -1.632948
2.1964407 -5.2067809 -1.6395035
2.1501403 -5.1856256 -1.6283878
2.1284037 -5.2235775 -1.6363683
2.0913274 -5.2240796 -1.6323781
2.0616879 -5.2430582 -1.6343732
2.0294783 -5.25561 -1.6343732
2.0029657 -5.2832012 -1.6392186
1.9788634 -5.317852 -1.6463439
1.9468536 -5.3316951 -1.646914
1.9134562 -5.3417354 -1.6463439
1.8815964 -5.3560886 -1.647199
1.8390261 -5.3394365 -1.6383635
1.8105187 -5.3633356 -1.6423538
1.7751694 -5.367063 -1.6400735
1.7380712 -5.365087 -1.6360834
1.7054085 -5.3765645 -1.6363683
1.6723864 -5.3869276 -1.6363683
1.6359607 -5.3860812 -1.632948
1.6047908 -5.4024501 -1.6349432
1.5684066 -5.4011488 -1.631523
1.5409882 -5.4309583 -1.6377934
1.5084028 -5.4430828 -1.6386485
1.4747262 -5.4513102 -1.6383635
1.4422275 -5.463964 -1.6395035
1.4074804 -5.4680686 -1.6380785
1.3750677 -5.4812508 -1.6395035
1.3393635 -5.481204 -1.6369383
1.3065927 -5.4930496 -1.6380785
1.2728634 -5.5009632 -1.6380785
1.2367744 -5.4983826 -1.6349432
1.2052623 -5.5161691 -1.6380785
0.73989487 -3.4867582 -1.0190166
0.72060853 -3.5015604 -1.0221518
0.69742554 -3.4974554 -1.0195867
0.67558968 -3.4997866 -1.0190166
0.65023965 -3.4831355 -1.0127462
0.62681764 -3.4757392 -1.009326
0.61023551 -3.506907 -1.0175915
0.58886427 -3.5115306 -1.0178765
0.57370824 -3.5548236 -1.0298474
0.55276507 -3.5639603 -1.0315574
0.53285766 -3.5805588 -1.0355477
0.51425195 -3.6074851 -1.0426732
0.49507746 -3.6324177 -1.0492287
0.46365485 -3.5650458 -1.0281372
0.43895191 -3.5449924 -1.0212967
0.41428936 -3.5228672 -1.0138862
0.399225 -3.584408 -1.0315574
0.37662429 -3.5810704 -1.0298474
0.35530284 -3.5899913 -1.0318425
0.3337096 -3.5968759 -1.0332676
0.3137753 -3.6236854 -1.040678
0.2909992 -3.618854 -1.0386829
0.26787028 -3.6081445 -1.0349777
0.24501337 -3.5992007 -1.0318425
0.22245309 -3.5929828 -1.0295624
0.20204738 -3.6239486 -1.0383979
0.17909977 -3.6107597 -1.0341226
0.15665206 -3.6050873 -1.0321275
0.13424531 -3.5983176 -1.0298474
0.11245941 -3.6086543 -1.0326976
0.090291329 -3.6083181 -1.0324125
0.06788256 -3.594429 -1.0281372
0.045850102 -3.5966947 -1.0287073
0.02376828 -3.5949912 -1.0281372
0.0017152352 -3.6334102 -1.039538
-0.020567514 -3.6314354 -1.038968
-0.043046672 -3.6475346 -1.0438132
-0.065619178 -3.6577437 -1.0469484
-0.090375751 -3.7521377 -1.0751654
-0.11348451 -3.7543867 -1.0760205
-0.13514861 -3.7162626 -1.0649047
-0.15794863 -3.7153633 -1.0649047
-0.1786797 -3.6721997 -1.0523639
-0.19925642 -3.6356227 -1.0418181
-0.21862888 -3.5864954 -1.0275671
-0.23947008 -3.567872 -1.0224369
-0.26114652 -3.5634677 -1.0215818
-0.282473 -3.5551097 -1.0195867
-0.30403516 -3.5504446 -1.0187316
-0.32871693 -3.5800102 -1.0281372
-0.35133392 -3.5846033 -1.0301324
-0.37272409 -3.5766599 -1.0284222
-0.40162635 -3.6371837 -1.0472335
-0.42282265 -3.6251307 -1.0443833
-0.45068309 -3.6681318 -1.0580642
-0.47170556 -3.6538904 -1.054644
-0.48715845 -3.5996368 -1.039253
-0.52539772 -3.7104616 -1.0734553
-0.53045183 -3.5876987 -1.0375428
-0.54718822 -3.5502739 -1.0272821
-0.56835353 -3.5430641 -1.0261421
-0.59450465 -3.5659819 -1.0341226
-0.61375427 -3.5471559 -1.0295624
-0.64381409 -3.5895505 -1.0435283
-0.66722941 -3.5930715 -1.0458084
-0.69324738 -3.6096175 -1.0520788
-0.70641351 -3.5601695 -1.0383979
-0.72708929 -3.5501342 -1.0366879
-0.75084257 -3.5549836 -1.039538
-0.77264142 -3.5503097 -1.039538
-0.79546052 -3.5501783 -1.0409631
-0.8178758 -3.5480325 -1.0418181
-0.84538537 -3.5671954 -1.0492287
-0.86407864 -3.5489037 -1.0452384
-0.93029517 -3.7211328 -1.0996771
-0.95644855 -3.7283521 -1.1036674
-0.7864266 -2.9901578 -0.87850213
-0.81825018 -3.0352473 -0.89389312
-0.82306123 -2.9802821 -0.87850213
-0.85177934 -3.0120659 -0.88990289
-0.86384112 -2.9846876 -0.88306242
-1.0674185 -3.6042373 -1.0768756
-1.0967443 -3.6214695 -1.084286
-1.1294425 -3.6485476 -1.0948317
-1.1578845 -3.6607389 -1.1008171
-1.1847486 -3.6672456 -1.1050924
-1.2228558 -3.707237 -1.1199135
-1.077525 -3.2009916 -0.96343786
-1.0930939 -3.1825361 -0.95973259
-1.1068907 -3.1594882 -0.95460224
-1.1146361 -3.1201456 -0.94434154
-1.1288353 -3.0997393 -0.94006628
-1.1408232 -3.0738859 -0.93408084
-1.1616988 -3.0722067 -0.93579096
-1.1836312 -3.0730698 -0.93835616
-1.2052673 -3.0728872 -0.94063628
-1.376729 -3.4472644 -1.0629096
-1.4047186 -3.4556212 -1.0683249
-1.4247954 -3.4442801 -1.0674698
-1.4440418 -3.431056 -1.0660448
-1.4654447 -3.423012 -1.0663298
-1.4875691 -3.4165919 -1.0671848
-1.5127761 -3.4170399 -1.0703201
-1.5278093 -3.3945842 -1.0660448
-1.5518014 -3.392118 -1.0683249
-1.588356 -3.4164255 -1.0794407
-1.5978177 -3.3823516 -1.0714601
-1.6338962 -3.4044528 -1.0820059
-1.6270156 -3.3375068 -1.0631946
-1.638101 -3.3085659 -1.0569242
-1.635537 -3.2530715 -1.0418181
-1.6567749 -3.2455356 -1.0426732
-1.6841602 -3.2497737 -1.0475185
-1.7027291 -3.2368343 -1.0466635
-1.7270751 -3.2347798 -1.0495137
-1.7409512 -3.2131677 -1.0458084
-1.7712613 -3.2217402 -1.0523639
-1.7970698 -3.2216918 -1.0560691
-1.8130252 -3.203932 -1.0537889
-1.8326501 -3.1927471 -1.0537889
-1.852206 -3.181442 -1.0537889
-1.8682789 -3.1642406 -1.0517938
-1.8896297 -3.1560063 -1.0529339
-1.8646647 -3.0714447 -1.0275671
-1.8885027 -3.0681067 -1.0304173
-1.9027233 -3.0491443 -1.0278522
-1.9265236 -3.0455108 -1.0307024
-1.9596682 -3.0562208 -1.0386829
-2.0013776 -3.0794947 -1.0512238
-2.0218179 -3.0695574 -1.0520788
-2.0544567 -3.0778177 -1.0594894
-2.0883472 -3.0873797 -1.0674698
-2.108336 -3.0760887 -1.0680399
-2.0626266 -2.9702132 -1.0344076
-2.1095064 -2.9982564 -1.0492287
-2.1657128 -3.0383205 -1.06861
-2.1989107 -3.0451748 -1.0760205
-2.2017024 -3.0099683 -1.0680399
-2.1984365 -2.9671431 -1.0572091
-2.2033627 -2.9359691 -1.0506537
-2.2103107 -2.9078989 -1.0452384
-2.233376 -2.9011161 -1.0478035
-2.2369845 -2.86922 -1.0409631
-2.2361267 -2.8321249 -1.0321275
-2.246875 -2.810118 -1.0289923
-2.2640755 -2.7962785 -1.0289923
-2.3000374 -2.805306 -1.0378278
-2.3245571 -2.799988 -1.0412481
-2.3256514 -2.7666004 -1.0338376
-2.3562562 -2.7683325 -1.0401081
-2.3694422 -2.7494671 -1.0383979
-2.3881593 -2.7370429 -1.039253
-2.4106221 -2.7288015 -1.0418181
-2.4215672 -2.7075305 -1.039253
-2.4445708 -2.6997242 -1.0421032
-2.4753447 -2.7002134 -1.0483736
-2.5114341 -2.7060452 -1.0569242
-2.5424352 -2.7059481 -1.0631946
-2.5649381 -2.6965458 -1.0657598
-2.5588229 -2.6572888 -1.0560691
-2.571733 -2.6381073 -1.054644
-2.5818102 -2.6161397 -1.0520788
-2.5754507 -2.5778787 -1.0426732
-2.5994015 -2.570112 -1.0460935
-2.6027756 -2.5420628 -1.0409631
-2.6010735 -2.5094123 -1.0338376
-2.6545978 -2.5297625 -1.0495137
-2.6742589 -2.5173674 -1.0512238
-2.6896551 -2.500911 -1.0512238
-2.7155421 -2.4940829 -1.0554991
-2.7336347 -2.479949 -1.0566392
-2.7416594 -2.4567344 -1.0537889
-2.7624257 -2.4449461 -1.0560691
-2.7780976 -2.4285808 -1.0563542
-2.7951238 -2.4133675 -1.0572091
-2.8062317 -2.3930631 -1.0557841
-2.8113291 -2.3677752 -1.0520788
-2.8258045 -2.3504806 -1.0520788
-2.8320243 -2.3264074 -1.0489436
-2.8544357 -2.3156266 -1.0520788
-2.8700869 -2.2992666 -1.0526489
-2.8924122 -2.2881517 -1.0557841
-2.8897753 -2.257385 -1.0495137
-2.8990169 -2.2361002 -1.0478035
-2.9012418 -2.2095623 -1.0435283
-2.8955877 -2.1773236 -1.0364028
-2.9735565 -2.2074885 -1.0603443
-3.0117908 -2.2073257 -1.069465
-2.981003 -2.1567917 -1.053219
-3.2360384 -2.3110812 -1.1415749
-3.0581789 -2.1559308 -1.0717452
-3.0139017 -2.097178 -1.0509387
-3.0733409 -2.1106465 -1.0677549
-3.0854402 -2.0912116 -1.0674698
-3.0926352 -2.0685117 -1.0654747
-3.0852654 -2.036303 -1.0583493
-3.0711904 -2.0000806 -1.0489436
-3.1455107 -2.021076 -1.0708901
-3.1513748 -1.9976339 -1.06861
-3.1603212 -1.976228 -1.0674698
-3.1683078 -1.9542847 -1.0660448
-3.1769633 -1.9328158 -1.0649047
-3.1542358 -1.892584 -1.0529339
-3.1245348 -1.8488017 -1.0386829
-3.1772232 -1.8537341 -1.0529339
-3.2101438 -1.846624 -1.0603443
-3.2597747 -1.8486309 -1.0734553
-3.2233582 -1.8019496 -1.0572091
-3.2738183 -1.8038661 -1.070605
-3.2839823 -1.7832873 -1.0703201
-3.3227565 -1.7780187 -1.0797257
-3.3853335 -1.7848506 -1.0971119
-3.4736402 -1.8042276 -1.1230487
-3.5008607 -1.7911701 -1.128464
-3.5160658 -1.771811 -1.1298891
-3.5182838 -1.7459452 -1.127039
-3.5470185 -1.7331562 -1.1330243
-3.5912783 -1.7275547 -1.14414
-3.6676595 -1.736643 -1.1658015
-3.7251685 -1.7359558 -1.1811925
-3.7645061 -1.7262425 -1.1905982
-3.8169711 -1.7220204 -1.2042791
-3.9843106 -1.7681209 -1.2552975
-5.050281 -2.2038426 -1.5976057
-3.9475667 -1.6941603 -1.2364863
-4.140717 -1.7469876 -1.2954853
-4.2106872 -1.7461331 -1.3145816
-4.2559438 -1.7343627 -1.3256973
-4.3029928 -1.7228142 -1.3373832
-4.3447065 -1.7086495 -1.3473588
-4.4060807 -1.7016296 -1.3636049
-4.4675303 -1.6939203 -1.379851
-4.5272522 -1.6848518 -1.395527
-4.590631 -1.676428 -1.4123431
-4.6315141 -1.6592126 -1.4220338
-4.7682247 -1.6752144 -1.4619366
-4.8400445 -1.6671386 -1.4813179
-5.0926814 -1.7192149 -1.557418
-5.2796936 -1.7462916 -1.6127117
-5.2647753 -1.7055969 -1.6047312
-5.4067173 -1.7149659 -1.645774
-5.5150948 -1.7121474 -1.6762711
-5.5878663 -1.6972053 -1.6956524
-5.6661735 -1.6830704 -1.7167437
-5.7417531 -1.6672364 -1.7369801
-5.8062835 -1.6474001 -1.7537962
-5.9077344 -1.6370658 -1.7820132
-5.9778137 -1.6170434 -1.8005394
-6.1924529 -1.6343541 -1.8635287
-6.349966 -1.6342875 -1.9088467
-6.4342551 -1.6139376 -1.9316483
-6.4254136 -1.5698806 -1.9259479
-6.4498458 -1.5339714 -1.9305083
-6.4694095 -1.4967418 -1.9336435
-6.4737959 -1.4559673 -1.9322183
-6.5032101 -1.4207145 -1.9384887
-6.5221195 -1.3829701 -1.9416239
-6.5520773 -1.3473619 -1.9481794
-6.5743227 -1.3099409 -1.9524547
-6.5229406 -1.2581507 -1.9344984
-6.5192299 -1.2159959 -1.9310782
-6.5426054 -1.1788585 -1.9359236
-6.5591598 -1.1403317 -1.9387738
-6.5698147 -1.1006969 -1.9399139
-6.5811763 -1.0611266 -1.9413389
-6.6121917 -1.024537 -1.9487494
-6.6088724 -0.98253822 -1.9458992
-6.6223683 -0.94304818 -1.9481794
-6.5890889 -0.89710146 -1.9364936
-6.6182337 -0.85973752 -1.9436191
-6.6281404 -0.8197 -1.9450442
-6.6140056 -0.77678227 -1.9393438
-6.6510377 -0.73978192 -1.9490345
-6.6525922 -0.69865817 -1.9481794
-6.6596155 -0.65810776 -1.9490345
-6.677845 -0.61855638 -1.9533098
-6.6690998 -0.57649922 -1.9496045
-6.6744227 -0.53572059 -1.9501746
-6.6708927 -0.49426243 -1.9481794
-6.6699743 -0.45306212 -1.9470394
-6.6821961 -0.41271663 -1.9498895
-6.6865168 -0.3718138 -1.9504596
-6.701118 -0.33139241 -1.9541649
-6.719305 -0.29097104 -1.9590101
-6.7247953 -0.24987841 -1.9601502
-6.7290759 -0.20869978 -1.9610052
-6.7436452 -0.16773839 -1.9649955
-6.7541308 -0.12653491 -1.9678457
-6.743279 -0.084947042 -1.9644254
-6.7350464 -0.043515217 -1.9618603
-0 -0 -0
-0 0 -0
-6.6685734 0.079660825 -1.942194
-6.6823344 0.12083937 -1.9464693
-6.6575112 0.1612547 -1.9393438
-6.6429834 0.20169181 -1.9353535
-6.6272526 0.24192157 -1.9310782
-6.6572456 0.28393444 -1.9404839
-6.6438899 0.32421455 -1.9370637
-6.6532602 0.36560771 -1.9404839
-6.638454 0.40566227 -1.9367787
-6.6339273 0.44625843 -1.9362086
-0 -0 -0
-0 -0 -0
-0 -0 -0
-0 -0 -0
-0 -0 -0
-0 0 -0
-0 0 -0
-0 0 -0
-6.476603 0.15444346 -1.9643424
-0 0 -0
-6.4274421 0.23222254 -1.9498526
-6.4220786 0.27149504 -1.9486698
-6.4136124 0.31057206 -1.9465998
-6.3991861 0.34924343 -1.9427556
-6.4045506 0.38896433 -1.9451213
-6.3972778 0.42793608 -1.9436427
-6.3659492 0.46509457 -1.9347715
-6.3829741 0.50572979 -1.9409814
-6.368329 0.54391062 -1.9374329
-6.353456 0.58193088 -1.9338844
-6.3782883 0.6236912 -1.9427556
-0 0 -0
-0 0 -0
-0 0 -0
-0 0 -0
-0 0 -0
-0 0 -0
-0 0 -0
-6.3466177 0.93688387 -1.9448256
-6.3180895 0.97232252 -1.9377286
-6.3082314 1.0104672 -1.9365457
-6.2924891 1.0475864 -1.9335887
-6.2699404 1.0834126 -1.9285617
-6.2547116 1.1203485 -1.9259002
-6.2345695 1.1562676 -1.9217603
-6.2461214 1.1980984 -1.9276745
-6.2274075 1.2341735 -1.924126
-6.2187815 1.2721696 -1.9238303
-6.2202058 1.3122747 -1.9267874
-6.2036352 1.3485907 -1.924126
-6.1728702 1.381624 -1.917029
-6.1922045 1.4259032 -1.9259002
-6.1786909 1.4627709 -1.9244218
-6.1194749 1.4884665 -1.9084535
-6.1537871 1.536863 -1.9223518
-6.1442413 1.5745929 -1.9223518
-6.1353884 1.6125064 -1.9226475
-6.1226115 1.6493769 -1.9217603
-6.1197429 1.688946 -1.924126
-6.1147799 1.7280227 -1.9259002
-6.1003914 1.7644483 -1.9247174
-6.0912819 1.8023883 -1.9253088
-6.0709648 1.8369638 -1.9223518
-6.0486274 1.8707933 -1.9188033
-6.0443215 1.9101743 -1.9211689
-6.0270324 1.9454653 -1.9193947
-6.0050015 1.9791212 -1.9161419
-5.9900284 2.0150163 -1.9152548
-5.9775519 2.0517325 -1.9152548
-5.9648504 2.0883715 -1.9152548
-5.9438267 2.1220417 -1.9125934
-5.9441595 2.163372 -1.917029
-5.9325647 2.2004683 -1.9176204
-5.9091215 2.2331145 -1.9143677
-5.8970914 2.2700162 -1.9149591
-5.8563695 2.2956998 -1.9060879
-5.8235407 2.324156 -1.899878
-5.8259869 2.3666749 -1.9054965
-5.8334265 2.4115002 -1.9128891
-5.8105946 2.4439154 -1.9102278
-5.7946115 2.4791467 -1.909932
-5.7792907 2.5146551 -1.909932
-5.7654991 2.5508418 -1.9105234
-5.7540951 2.5881293 -1.912002
-5.7320247 2.6206069 -1.909932
-5.7149706 2.6553261 -1.9096364
-5.7002983 2.6911581 -1.9102278
-5.6879849 2.7281492 -1.9117063
-5.6737146 2.7642536 -1.9125934
-5.6626406 2.8019803 -1.9146633
-5.6453409 2.8366728 -1.9146633
-5.6252766 2.8699563 -1.9137763
-5.6101055 2.9057362 -1.9146633
-5.5904799 2.9392154 -1.9140719
-5.5706539 2.9725633 -1.9134805
-5.5489497 3.004869 -1.9122977
-5.5287333 3.03794 -1.9117063
-5.5049825 3.069016 -1.909932
-5.4719114 3.0947423 -1.904905
-5.4511623 3.1273084 -1.9043136
-5.4277425 3.1582954 -1.902835
-5.4008565 3.187171 -1.9001737
-5.3918552 3.2266262 -1.9040179
-5.3768559 3.2626224 -1.9057921
-5.3542948 3.2940512 -1.904905
-5.333982 3.3268425 -1.904905
-5.3134685 3.3595085 -1.904905
-5.2951679 3.3935943 -1.9057921
-5.2638307 3.4192567 -1.901948
-5.2427516 3.4514906 -1.901948
-5.2198853 3.4825344 -1.9013565
-5.2015843 3.5166373 -1.9025394
-5.180697 3.5490272 -1.902835
-5.1643167 3.5845613 -1.904905
-5.136755 3.6123352 -1.902835
-5.1207175 3.6482196 -1.9052007
-5.0966868 3.6784532 -1.9046093
-5.076334 3.7113478 -1.9054965
-5.0488596 3.7390149 -1.9037222
-5.0342288 3.7762287 -1.9069749
-5.0155277 3.8105142 -1.9087492
-4.9731245 3.8266544 -1.9013565
-4.9638681 3.8682525 -1.9069749
-4.9452891 3.9027798 -1.9090449
-4.9167709 3.929472 -1.9072707
-4.8933105 3.9601676 -1.9075664
-4.8681803 3.9895124 -1.9072707
-4.8480206 4.0229678 -1.9090449
-4.8247075 4.0538678 -1.9096364
-4.789556 4.0747299 -1.9054965
-4.7630157 4.1027946 -1.904905
-4.7334323 4.1281757 -1.9031308
-4.7051487 4.154613 -1.901948
-4.6731577 4.1776752 -1.8992865
-4.6467276 4.2056293 -1.8989909
-4.628583 4.2411609 -1.9022436
-4.6094766 4.2759776 -1.9052007
-4.5845456 4.3054881 -1.9057921
-4.5497327 4.3256392 -1.9022436
-4.5203524 4.3508248 -1.9010608
-4.4915185 4.3764796 -1.9001737
-4.4618597 4.4012733 -1.8989909
-4.44491 4.4386926 -1.9034264
-4.4189348 4.4672403 -1.9040179
-4.3927765 4.4956369 -1.9046093
-4.3525033 4.5094471 -1.8989909
-4.3207965 4.5319204 -1.8972166
-4.2929077 4.5583472 -1.8972166
-4.2674603 4.5874 -1.8983995
-4.2347074 4.6085744 -1.8963295
-4.2114868 4.64013 -1.8986951
-4.1861248 4.6694403 -1.9001737
-4.1567612 4.6943226 -1.899878
-4.1215897 4.7125492 -1.8969209
-4.0913477 4.7363048 -1.8963295
-4.0584888 4.7569594 -1.8945552
-4.0286088 4.7810416 -1.8942596
-4.0053077 4.8130131 -1.8972166
-3.9672081 4.827167 -1.8930767
-3.9429331 4.8580937 -1.895738
-3.9172325 4.887413 -1.897808
-3.8836126 4.9068627 -1.8960338
-3.8569615 4.9351158 -1.897808
-3.8260238 4.9579325 -1.8975123
-3.7868452 4.9699178 -1.8930767
-3.7660429 5.0060368 -1.8981037
-3.7255716 5.0160141 -1.8930767
-3.7037628 5.0511045 -1.897808
-3.6614962 5.05826 -1.8918939
-3.6287241 5.0782995 -1.8910067
-3.5963945 5.0989079 -1.8904153
-3.5568528 5.1091199 -1.8859797
-3.5151572 5.1158891 -1.8803612
-3.4858453 5.1405239 -1.8815441
-3.4643333 5.1768999 -1.8871626
-3.4351354 5.2020445 -1.8886411
-3.4099317 5.2334285 -1.8924853
-3.3829222 5.2622886 -1.8954424
-3.3495462 5.281333 -1.894851
-3.3074498 5.2863998 -1.8892325
-3.2819753 5.317975 -1.8933724
-3.2467992 5.3339329 -1.8918939
-3.2100759 5.3472028 -1.8895282
-3.1806126 5.3725524 -1.8915981
-3.1471057 5.3911424 -1.8913025
-3.1153967 5.4128346 -1.8921895
-3.0792966 5.4268637 -1.8904153
-3.0515366 5.4556603 -1.8939638
-3.0124686 5.4642429 -1.8904153
-2.9816208 5.4876604 -1.8921895
-2.9334624 5.4789033 -1.8827269
-2.9153914 5.526371 -1.8930767
-2.876581 5.5348315 -1.8898239
-2.8447425 5.5566292 -1.8913025
-2.8067229 5.5663033 -1.8886411
-2.7742155 5.5868425 -1.8898239
-2.7394633 5.6029015 -1.8895282
-2.7062762 5.6221871 -1.8904153
-2.6778646 5.6516352 -1.894851
-2.6358681 5.6523767 -1.8895282
-2.6047225 5.6762576 -1.8921895
-2.5600162 5.6703672 -1.8847969
-2.5243998 5.6842222 -1.8842055
-2.4780018 5.6733427 -1.8753341
-2.4465375 5.6963401 -1.8779956
-2.4052215 5.6962843 -1.8729686
-2.3720555 5.7153468 -1.8744471
-2.3376639 5.7315626 -1.8750385
-2.2996085 5.7387047 -1.8726728
-2.2685525 5.7633734 -1.8762213
-2.2496815 5.819953 -1.8904153
-2.2186747 5.8461504 -1.8945552
-2.1780922 5.8471217 -1.8904153
-2.1438141 5.864862 -1.8918939
-2.1087551 5.8806033 -1.892781
-2.0643911 5.8700018 -1.8850926
-2.0386126 5.9123597 -1.894851
-1.9992375 5.9157076 -1.8918939
-1.9481848 5.8834286 -1.8774042
-1.9226601 5.9279833 -1.8880496
-1.8807558 5.9223704 -1.8824311
-1.8404109 5.9210281 -1.8782912
-1.8054355 5.9367785 -1.8797698
-1.769519 5.9495759 -1.8803612
-1.7335132 5.9621563 -1.8809526
-1.69977 5.9827886 -1.8842055
-1.6545972 5.9627295 -1.8744471
-1.6144817 5.9598613 -1.8703072
-1.5798357 5.9770436 -1.8726728
-1.541939 5.9819999 -1.8711942
-1.5035753 5.9848633 -1.8691243
-1.4681875 5.9995437 -1.8708986
-1.4317901 6.0102978 -1.87149
-1.3955319 6.0217619 -1.8723772
-1.3596069 6.0348706 -1.8738557
-1.3256164 6.057097 -1.8782912
-1.2872344 6.0595102 -1.8765171
-1.2506082 6.0701017 -1.8774042
-1.2131521 6.0767241 -1.8771085
-1.1736672 6.0727987 -1.87356
-1.1353297 6.0742517 -1.8717858
-1.0976979 6.0792236 -1.8711942
-1.0597196 6.0820799 -1.8700114
-1.0214312 6.0828152 -1.8682373
-0.98500335 6.0946264 -1.8700114
-0.95154935 6.1260424 -1.8779956
-0.91492897 6.1383791 -1.8800656
-0.87346488 6.1173987 -1.8717858
-0.84147203 6.163342 -1.8845011
-0.80351514 6.1674418 -1.8842055
-0.76612794 6.1760483 -1.8853883
-0.72844172 6.1825299 -1.8859797
-0.68964452 6.1792884 -1.8836141
-0.65171617 6.1834035 -1.8836141
-0.61366886 6.1863356 -1.8833183
-0.57268882 6.1576447 -1.8732642
-0.5370453 6.1857867 -1.8809526
-0.50023264 6.2032485 -1.8853883
-0.46315482 6.2195377 -1.8895282
-0.42648232 6.2441826 -1.8963295
-0.38928753 6.2647972 -1.901948
-0.34923646 6.2384548 -1.8930767
-0.30995181 6.2204442 -1.8868668
-0.27186155 6.2241378 -1.8874582
-0.23359406 6.2237792 -1.8868668
-0.19525112 6.2203217 -1.8853883
-0.15705609 6.2204475 -1.8850926
-0.11873868 6.2136531 -1.8827269
-0.080747165 6.224772 -1.8859797
-0.042511616 6.2194185 -1.8842055
-0.0043448033 6.2138309 -1.8824311
0.033731308 6.2041879 -1.8794742
0.071875803 6.2105508 -1.8815441
0.10969515 6.1937556 -1.8765171
0.14785627 6.1996508 -1.878587
0.18515089 6.1738009 -1.8708986
0.22251266 6.1582284 -1.8664629
0.26029465 6.1567473 -1.8664629
0.29806685 6.1550345 -1.8664629
0.33577582 6.1521358 -1.8661673
0.37270838 6.13661 -1.8620273
0.4120748 6.1599431 -1.8700114
0.44930735 6.1496768 -1.8676457
0.48665565 6.1420426 -1.8661673
0.52408963 6.1360855 -1.8652802
0.56103355 6.1251435 -1.8629144
0.59619051 6.0968666 -1.855226
0.63911837 6.1463027 -1.8717858
0.67378688 6.1147285 -1.8632102
0.71615076 6.1522298 -1.8762213
0.7545839 6.153409 -1.8779956
0.79354662 6.1581378 -1.8809526
0.82351911 6.0954046 -1.8629144
0.86424541 6.113884 -1.8703072
0.90369552 6.1216969 -1.8744471
0.94400012 6.133976 -1.8800656
0.98146868 6.1271248 -1.8797698
1.0192024 6.1219296 -1.8800656
1.0611367 6.1409769 -1.8880496
1.096945 6.1240067 -1.8847969
1.1346747 6.1180997 -1.8850926
1.1730928 6.1157136 -1.886571
1.2068831 6.0896592 -1.880657
1.2453741 6.0877547 -1.8824311
1.2825073 6.0790639 -1.8821355
1.3189721 6.0673461 -1.8809526
1.3568016 6.0619354 -1.8818398
1.3937571 6.0525651 -1.8815441
1.4280086 6.0318146 -1.8776999
1.4658951 6.0266519 -1.8788826
1.5019206 6.0138364 -1.8776999
1.5411634 6.0137615 -1.880657
1.57415 5.9894094 -1.8759257
1.609877 5.9759483 -1.8747427
1.6477848 5.970562 -1.8762213
1.6820509 5.9520655 -1.87356
1.7203979 5.9480562 -1.8756299
1.7568622 5.9373879 -1.8756299
1.7938135 5.9283252 -1.8762213
1.8310019 5.9199448 -1.8771085
1.8638378 5.8976679 -1.87356
1.9029241 5.8952117 -1.8765171
1.935174 5.8716297 -1.8726728
1.9772557 5.8777537 -1.878587
2.0129735 5.8646073 -1.8782912
2.0486047 5.851244 -1.8779956
2.0828631 5.8340654 -1.8765171
2.123194 5.8337431 -1.880657
2.1589491 5.8206058 -1.880657
2.1925974 5.8018875 -1.8788826
2.2278125 5.7874331 -1.878587
2.2618873 5.7700968 -1.8774042
2.2983115 5.7587714 -1.8782912
2.3318062 5.7401357 -1.8768127
2.3666182 5.7248368 -1.8765171
2.40096 5.7084465 -1.8759257
2.4363167 5.6944857 -1.8762213
2.4708304 5.6785536 -1.8759257
2.5036948 5.6589174 -1.8744471
2.5379782 5.6425776 -1.8741513
2.5717583 5.6251612 -1.87356
2.6046154 5.6058097 -1.8723772
2.6397786 5.5914502 -1.8729686
2.6769288 5.5811772 -1.8750385
2.7115421 5.5655055 -1.8753341
2.7486057 5.5547566 -1.8774042
2.7830663 5.5386405 -1.8776999
2.8183005 5.5240126 -1.878587
2.8490672 5.5006776 -1.8765171
2.8858764 5.4890118 -1.878587
2.9217503 5.4754152 -1.8800656
2.9557467 5.4582243 -1.8803612
2.9841223 5.4307761 -1.8771085
3.018784 5.4148669 -1.8779956
3.0481906 5.3895898 -1.8756299
3.0821538 5.3724422 -1.8762213
3.1155407 5.3542547 -1.8765171
3.1488206 5.3358603 -1.8768127
3.1805205 5.3147993 -1.8762213
3.2125762 5.2943673 -1.8759257
3.2470033 5.2778106 -1.8771085
3.2828648 5.2634621 -1.8791784
3.3140781 5.2416043 -1.878587
3.346693 5.2219753 -1.8788826
3.3771105 5.1989388 -1.8779956
3.4026442 5.1685443 -1.8744471
3.4289925 5.1396217 -1.87149
3.4706287 5.133522 -1.8771085
3.5009825 5.1105537 -1.8765171
3.5290065 5.0842671 -1.8747427
3.5661805 5.0711141 -1.8779956
3.5972292 5.0491366 -1.8779956
3.6270244 5.0254202 -1.8774042
3.6544089 4.9984436 -1.8756299
3.6895578 4.9820681 -1.8779956
3.7200577 4.9593358 -1.8779956
3.7533069 4.9402199 -1.8794742
3.7812188 4.9140682 -1.8782912
3.8142354 4.8945427 -1.8797698
3.8465631 4.8740463 -1.8809526
3.8728192 4.8458748 -1.8791784
3.9054847 4.8257337 -1.880657
3.9332049 4.7994623 -1.8797698
3.9589198 4.7708273 -1.8779956
3.9825883 4.7398634 -1.8753341
4.0115967 4.7153373 -1.8753341
4.0504284 4.7022152 -1.8800656
4.0892496 4.6887932 -1.8847969
4.1122522 4.6571689 -1.8821355
4.1477537 4.6396832 -1.8853883
4.1697345 4.6070628 -1.8824311
4.1985698 4.5820951 -1.8827269
4.2279053 4.5576477 -1.8833183
4.2485976 4.5239601 -1.8800656
4.2835159 4.5054216 -1.8833183
4.3071055 4.4749241 -1.8815441
4.336482 4.4504647 -1.8824311
4.3697453 4.429894 -1.8850926
4.3995442 4.4057021 -1.8862754
4.4258151 4.3779521 -1.8859797
4.4505448 4.3487105 -1.8850926
4.4730206 4.3173399 -1.8833183
4.5035748 4.2937679 -1.8850926
4.5319223 4.2680187 -1.8859797
4.5510316 4.233624 -1.8830227
4.6001339 4.2269506 -1.892781
4.6203251 4.1935086 -1.8904153
4.6481028 4.1669931 -1.8913025
4.6692924 4.1345944 -1.8895282
4.6888218 4.1008348 -1.8871626
4.7160645 4.0738611 -1.8880496
4.7467856 4.049808 -1.8904153
4.7657018 4.0156813 -1.8880496
