# .PCD v0.7 - Point Cloud Data file format
VERSION 0.7
FIELDS x y z
SIZE 4 4 4
TYPE F F F
COUNT 1 1 1
WIDTH 1496
HEIGHT 1
VIEWPOINT 0 0 0 1 0 0 0
POINTS 1496
DATA ascii
-1.4334198 -2.0920143 -0.1228181
-1.4365559 -2.0692413 -0.1217477
-1.4233935 -2.0236497 -0.11891429
-1.4074105 -1.9750476 -0.11582902
-1.4376073 -1.9914628 -0.11778092
-1.4262407 -1.9503765 -0.11526234
-1.5254852 -2.0594923 -0.12451815
-1.5620459 -2.0820298 -0.12703674
-1.5651324 -2.0596905 -0.1260293
-1.5795666 -2.0524213 -0.1262182
-1.5074797 -1.9340501 -0.11752906
-1.582996 -2.0054615 -0.12401443
-1.6208155 -2.0276771 -0.12659599
-1.6376212 -2.0231245 -0.12703674
-1.6474738 -2.0099502 -0.12678488
-1.6718837 -2.0143969 -0.1279812
-1.6932 -2.0147984 -0.12886271
-1.702944 -2.0013306 -0.12861085
-1.7080276 -1.9825256 -0.12791824
-1.7136008 -1.964486 -0.12728859
-1.738833 -1.9688977 -0.12854789
-2.2437265 -2.5095601 -0.17520474
-2.1907773 -2.4202664 -0.16878234
-2.2379475 -2.4421003 -0.17180464
-2.2651062 -2.4414935 -0.172938
-2.2896087 -2.4377346 -0.17381951
-2.3334033 -2.45402 -0.17646404
-2.3705626 -2.4626677 -0.1784789
-2.3967717 -2.4595132 -0.17948633
-16.105099 -16.328312 -1.4097538
-3.2355969 -3.2399759 -0.25170687
-2.4678881 -2.4409502 -0.18181603
-2.5013773 -2.4438975 -0.18345311
-2.5306866 -2.4423661 -0.18471241
-2.5506809 -2.4316132 -0.18515316
-3.5005543 -3.2965841 -0.26618874
-2.5876353 -2.4069276 -0.18578281
-3.0858793 -2.8353603 -0.22721359
-2.6627932 -2.4165812 -0.18968663
-3.3351889 -2.9898229 -0.24541038
-2.6698337 -2.3638723 -0.18779768
-2.6887949 -2.3513885 -0.18817547
-3.6585107 -3.1601999 -0.26782581
-17.346424 -14.800818 -1.4014424
-3.3818314 -2.8494508 -0.24182139
-3.4483454 -2.8695071 -0.24585114
-3.4735975 -2.8546317 -0.24648078
-3.4275086 -2.7816877 -0.24131767
-4.1212125 -3.3030469 -0.29603401
-4.1241865 -3.2640703 -0.2946488
-4.0859499 -3.193222 -0.28998941
-3.818671 -2.9467425 -0.26713321
-18.241697 -13.900664 -1.4097538
-18.278797 -13.752472 -1.4059758
-11.274979 -8.3749485 -0.84892708
-3.0053666 -2.2035079 -0.197935
-3.0083213 -2.1774178 -0.19711645
-3.0289328 -2.1641405 -0.19768314
-3.0666203 -2.1627731 -0.19957207
-3.0839283 -2.1467674 -0.1998869
-3.0879948 -2.1215868 -0.1991943
-3.1017804 -2.1031594 -0.19925725
-3.117115 -2.085753 -0.19944614
-19.799744 -13.075974 -1.4598107
-19.854519 -12.937892 -1.4579217
-3.6645391 -2.3556464 -0.23766573
-5.7040987 -3.617712 -0.38896993
-3.6940167 -2.311029 -0.23772869
-3.6843479 -2.2736418 -0.23596568
-3.6939669 -2.2483974 -0.23565085
-3.7196722 -2.2328815 -0.23653236
-3.7487607 -2.2191687 -0.23766573
-3.7778206 -2.2051826 -0.2387991
-3.8146336 -2.1954041 -0.24049914
-3.8905275 -2.2074225 -0.24503259
-3.8778691 -2.1688917 -0.24314366
-3.9015915 -2.1508393 -0.24389923
-3.847194 -2.090167 -0.23905095
-3.8537879 -2.0632238 -0.23861019
-3.9034479 -2.059099 -0.24125472
-3.9000692 -2.0268238 -0.24012135
-3.9071021 -2.0001261 -0.23974356
-4.3274288 -2.1819398 -0.26858139
-4.4041991 -2.1868649 -0.27305189
-7.614656 -3.7232437 -0.49758404
-4.4477892 -2.1408794 -0.27424821
-4.4166498 -2.0926056 -0.27116296
-5.7219014 -2.6682951 -0.36113951
-5.7508645 -2.6389639 -0.36202103
-22.486916 -10.153531 -1.5194383
-22.549706 -10.015768 -1.5195012
-5.8524237 -2.5562346 -0.36573595
-5.7790504 -2.4820673 -0.35962835
-5.7711864 -2.4368541 -0.35805425
-22.663353 -9.4073162 -1.510938
-22.710484 -9.2639332 -1.5102454
-9.6076651 -3.8502653 -0.61583173
-9.6171789 -3.7857573 -0.6148873
-22.767313 -8.8018703 -1.5028156
-22.791035 -8.6506739 -1.5008007
-22.838074 -8.5085773 -1.500423
-22.919846 -8.3792515 -1.5024378
-23.415173 -8.3978319 -1.5322201
-13.409493 -4.7164617 -0.85963112
-13.45139 -4.638649 -0.86051261
-7.7964292 -2.6349695 -0.48203176
-7.7802386 -2.5764132 -0.47989094
-7.7873569 -2.5258543 -0.47932428
-14.591309 -4.6343484 -0.92870337
-14.538464 -4.519546 -0.92335141
-14.580243 -4.4346108 -0.92429584
-14.37186 -4.2750597 -0.90880656
-14.525276 -4.2238622 -0.91718084
-14.7026 -4.1777616 -0.92712927
-9.7042446 -2.6930904 -0.59820163
-9.6839819 -2.6235771 -0.59580898
-9.6912146 -2.5618119 -0.59524232
-12.884308 -3.3215761 -0.80227023
-13.252897 -3.3300223 -0.82493752
-13.081141 -3.2016573 -0.81247056
-13.082093 -3.1169372 -0.81127423
-13.164167 -3.0512578 -0.81536692
-15.072397 -3.3963015 -0.93758142
-11.497423 -2.516618 -0.70536757
-15.182252 -3.2258129 -0.94205189
-15.172435 -3.1265521 -0.94016296
-15.075848 -3.0103338 -0.93273312
-15.108733 -2.920615 -0.93367761
-15.274503 -2.855552 -0.94318527
-15.291737 -2.7617755 -0.94318527
-15.174681 -2.6445885 -0.93462205
-15.389435 -2.5848267 -0.94734097
-15.529143 -2.5104215 -0.95527452
-15.434789 -2.3980787 -0.9482854
-15.396896 -2.2955263 -0.94494826
-15.380064 -2.1966343 -0.94299638
-15.587064 -2.1286962 -0.95533746
-15.927404 -2.0757143 -0.97617877
-16.354826 -2.0294516 -1.002561
-16.671253 -1.9649335 -1.0218911
-27.128174 -3.0290265 -1.6849725
-27.225651 -2.870888 -1.6900097
-27.336107 -2.713047 -1.6959283
-0 -0 -0
-30.864191 -2.6812074 -1.9173752
-0 -0 -0
-30.849983 -2.2989163 -1.9145418
-30.85853 -2.1092408 -1.914227
-30.852961 -1.9187415 -1.9130936
-30.853191 -1.7287807 -1.912401
-0 -0 -0
-30.844166 -1.3488133 -1.910638
-30.832912 -1.1588192 -1.9094417
-30.819492 -0.9689827 -1.9081824
-25.535385 1.8874754 -1.8968711
-25.50742 2.0428476 -1.8956659
-25.500366 2.1998343 -1.8961178
-25.494331 2.3569949 -1.8967204
-25.481375 2.5135767 -1.8968711
-25.472414 2.6706083 -1.8973984
-25.445637 2.8257527 -1.8966451
-25.410982 2.979856 -1.8953645
-25.365499 3.1324177 -1.8933307
-25.322069 3.2849188 -1.8915229
-25.274759 3.4366016 -1.8894891
-25.22753 3.5879681 -1.8875306
-25.197149 3.7415218 -1.886928
-25.146126 3.8917866 -1.8848188
-25.089285 4.0407734 -1.882333
-25.046316 4.1916785 -1.8809772
-25.002441 4.3422089 -1.8796213
-24.957663 4.4923587 -1.8782654
-24.923746 4.6443152 -1.8778135
-24.899675 4.7981009 -1.87819
-24.879545 4.9527392 -1.8789433
-24.857479 5.1071105 -1.8796213
-24.854939 5.2657385 -1.8818811
-24.859182 5.426229 -1.8847435
-24.873091 5.5893745 -1.8884345
-24.910219 5.7585106 -1.8940086
-24.940386 5.926929 -1.8991309
-25.003325 6.1042123 -1.9068896
-24.975071 6.2599397 -1.9076428
-24.997032 6.4287157 -1.9123884
-25.069925 6.6117306 -1.9212017
-25.066425 6.7755814 -1.9241394
-25.033028 6.931654 -1.9248173
-25.047585 7.1014452 -1.9293369
-25.014074 7.2580581 -1.9301655
-24.98723 7.4167967 -1.9315968
-25.091057 7.6154504 -1.943423
-25.114332 7.7911296 -1.9489973
-25.2362 7.9990206 -1.9624808
-25.213205 8.1623173 -1.96459
-25.194839 8.3275099 -1.967151
-25.313337 8.5393257 -1.9807098
-25.321751 8.7155819 -1.9856061
-25.200054 8.8470039 -1.9801825
-25.2833 9.0508718 -1.9912556
-25.380911 9.2619038 -2.0036092
-25.316128 9.4146824 -2.0030065
-25.311966 9.5903358 -2.0073755
-25.312181 9.768446 -2.0121965
-25.302809 9.9436359 -2.0163393
-25.285759 10.116486 -2.0199552
-25.256454 10.284986 -2.0226669
-25.250906 10.463815 -2.0274124
-25.263407 10.651098 -2.0337398
-25.31488 10.856222 -2.0433817
-25.311771 11.039253 -2.0486546
-25.335623 11.235187 -2.0562627
-25.343477 11.425269 -2.0626655
-25.319128 11.601746 -2.0665071
-25.358648 11.808662 -2.0757723
-25.320866 11.980673 -2.0787101
-25.269344 12.146614 -2.0805931
-25.193443 12.300998 -2.0805178
-25.125532 12.459337 -2.0811958
-24.987158 12.582323 -2.0759983
-0 0 -0
-24.700773 12.820474 -2.0649252
-24.539598 12.928565 -2.0579197
-24.409687 13.052091 -2.0536261
-24.30022 13.185925 -2.0511403
-24.179548 13.313135 -2.0477507
-24.072161 13.447144 -2.0455663
-23.938881 13.566078 -2.0411973
-23.834442 13.700781 -2.0393894
-23.7215 13.830194 -2.0369036
-23.610445 13.960259 -2.0346439
-23.501251 14.091022 -2.0326099
-23.378563 14.213199 -2.0294464
-23.254412 14.333879 -2.0262072
-23.148266 14.465198 -2.0246253
-23.0397 14.594687 -2.022893
-22.896852 14.701837 -2.0181472
-22.766098 14.815944 -2.0145316
-22.619823 14.919117 -2.0095601
-22.483919 15.028258 -2.0055678
-22.355783 15.141888 -2.0023286
-22.195862 15.233068 -1.9962271
-22.055311 15.336521 -1.9919336
-21.936338 15.454331 -1.9896737
-21.807823 15.564887 -1.9865854
-21.673122 15.670358 -1.9829696
-21.544386 15.779477 -1.9799565
-21.435947 15.903055 -1.978902
-21.301296 16.006727 -1.9754369
-21.181257 16.120823 -1.9734031
-21.047983 16.224306 -1.9701641
-20.911095 16.324306 -1.9666237
-20.775339 16.424479 -1.9632341
-20.646147 16.529207 -1.9605223
-20.507158 16.625435 -1.9569066
-20.383181 16.733234 -1.9547974
-20.25712 16.838865 -1.9525377
-20.135872 16.948072 -1.9508051
-20.011009 17.053841 -1.9487712
-19.890139 17.162624 -1.9471895
-19.758926 17.262039 -1.9446282
-19.639938 17.371721 -1.9433477
-19.515152 17.475935 -1.9415399
-19.393518 17.582623 -1.9401087
-19.277187 17.693871 -1.93928
-19.161682 17.805712 -1.9386021
-19.038996 17.91065 -1.9372463
-18.907078 18.006504 -1.9349865
-18.785469 18.111794 -1.9338566
-18.650436 18.203733 -1.9313707
-18.521366 18.301006 -1.9295629
-18.39674 18.402317 -1.9282824
-18.266665 18.497822 -1.9264746
-18.121489 18.577433 -1.9230849
-17.990555 18.671041 -1.9212769
-17.857779 18.762297 -1.9193184
-17.727976 18.85626 -1.9177366
-17.597694 18.949337 -1.9161547
-17.471655 19.046669 -1.9151002
-17.348433 19.146864 -1.9144223
-17.213335 19.233631 -1.9124638
-17.084429 19.326935 -1.9112585
-16.950436 19.414122 -1.909526
-16.801691 19.483778 -1.9061363
-16.655964 19.556139 -1.9031233
-16.516401 19.635077 -1.9008634
-16.388603 19.727612 -1.9000348
-16.252069 19.809296 -1.898227
-16.125822 19.903221 -1.8976997
-15.980968 19.973761 -1.8949879
-15.84204 20.051098 -1.8930295
-15.697244 20.120409 -1.890393
-15.57836 20.222666 -1.8909956
-15.428026 20.283743 -1.8877566
-15.28711 20.356497 -1.8857228
-12.477123 16.828402 -1.5451702
-14.999052 20.491865 -1.8809772
-14.854346 20.557648 -1.8785667
-14.699556 20.608625 -1.8748757
-14.590048 20.722893 -1.8771355
-14.46262 20.812027 -1.8771355
-14.328444 20.891329 -1.8763069
-14.206695 20.988764 -1.8772109
-14.06712 21.059784 -1.8757796
-13.931049 21.13571 -1.8748757
-13.796208 21.213268 -1.8741977
-13.665248 21.296682 -1.8741224
-11.494931 18.158188 -1.5860727
-11.428189 18.300272 -1.5924755
-11.446419 18.58231 -1.6113071
-11.420196 18.797073 -1.6241127
-11.462998 19.131107 -1.6473887
-11.417929 19.323853 -1.6581604
-12.738705 21.864664 -1.8741977
-12.592883 21.922527 -1.8724653
-9.5941839 16.941494 -1.4333853
-12.302013 22.037971 -1.8692262
-12.144931 22.073725 -1.8658365
-11.99215 22.11627 -1.8631247
-11.276854 21.105003 -1.7702467
-11.229357 21.329981 -1.7835796
-11.34524 21.874723 -1.8241054
-11.345983 22.208549 -1.8465528
-10.593282 21.052935 -1.7429785
-10.45505 21.099667 -1.7414719
-10.592076 21.710108 -1.7874212
-10.803584 22.492889 -1.8476074
-10.681987 22.593914 -1.8505452
-9.306098 20.000067 -1.629009
-10.072281 21.998871 -1.790359
-9.9399757 22.066624 -1.7908863
-9.7967157 22.109877 -1.7894551
-9.7182245 22.30121 -1.8003021
-9.7944355 22.858124 -1.8412046
-9.6598024 22.931576 -1.8423345
-9.5395117 23.040167 -1.8464022
-9.3960819 23.093647 -1.8460255
-9.2656775 23.179571 -1.8483607
-9.1159878 23.217424 -1.8468541
-8.9686937 23.260826 -1.8458749
-8.8229752 23.307959 -1.8452722
-8.6818781 23.367264 -1.8457242
-8.5321884 23.403233 -1.8443683
-8.3941364 23.471106 -1.8456489
-8.2766905 23.598389 -1.8517504
-8.0717602 23.474277 -1.8378149
-7.8950953 23.426977 -1.8301315
-7.6996217 23.318743 -1.8177027
-7.5309324 23.286798 -1.8114505
-7.3716536 23.281233 -1.8073828
-7.1973805 23.225063 -1.7993982
-7.029572 23.185766 -1.7928448
-6.8758383 23.19022 -1.7898318
-6.724535 23.201324 -1.7874212
-6.5766144 23.22296 -1.7859147
-6.41752 23.203289 -1.7812444
-6.2628126 23.196981 -1.7777041
-6.1170592 23.222439 -1.7767248
-5.9717259 23.248911 -1.7758962
-5.8284764 23.28318 -1.7757456
-5.6864486 23.32238 -1.7760469
-5.5384035 23.336456 -1.7744651
-5.3928671 23.360285 -1.7737118
-5.2426624 23.362772 -1.7713766
-5.0909324 23.356504 -1.7684389
-4.9427781 23.364862 -1.7667063
-4.7901053 23.349817 -1.7632413
-4.6444111 23.367033 -1.7623374
-4.4913411 23.345152 -1.7584958
-2.7212884 14.625604 -1.08643
-2.6262071 14.612582 -1.0841702
-2.4917119 14.370021 -1.0643592
-2.3821397 14.257179 -1.0545667
-2.28702 14.22427 -1.0509511
-2.1969595 14.220296 -1.0495952
-2.1092257 14.23055 -1.0493692
-2.1542301 15.176197 -1.120553
-1.8941008 13.957939 -1.0266958
-1.8100841 13.982155 -1.027675
-1.7741014 14.397779 -1.0584837
-1.6731033 14.300438 -1.0502732
-1.5837899 14.296559 -1.0492185
-1.4993544 14.337745 -1.0516291
-1.4169114 14.40324 -1.0559226
-1.3454268 14.59536 -1.0698581
-1.2671988 14.735476 -1.0798765
-1.1795338 14.777764 -1.082513
-1.0897149 14.796657 -1.0834169
-1.0173445 15.076663 -1.1041318
-0.92932707 15.156273 -1.1097059
-0.83718991 15.17762 -1.1109113
-0.70890975 14.464379 -1.0566006
-0.61963314 14.456501 -1.0556966
-0.54778433 14.92041 -1.0904976
-0.46038777 15.060038 -1.1008174
-0.35328561 14.459476 -1.0552447
-0.26475704 14.472339 -1.0560733
-0.17775758 14.623254 -1.0673723
-0.086736493 14.406693 -1.0509511
0.0016592222 14.388007 -1.0495199
0.094381258 15.088716 -1.1024746
0.17869452 14.424793 -1.0523822
0.26918489 14.530103 -1.0604422
0.3570275 14.475344 -1.0564499
0.45572126 14.792816 -1.0806298
0.53858346 14.576496 -1.0645099
0.63381964 14.707408 -1.074679
0.72901213 14.803833 -1.0822871
0.8205511 14.812024 -1.0832663
0.92687869 15.057518 -1.1022487
1.0180384 15.03364 -1.1008928
1.1090136 15.010205 -1.0996122
1.2014918 15.008087 -1.0999888
1.2908988 14.969635 -1.0976537
1.3691338 14.814481 -1.0865053
1.4582452 14.787939 -1.0851494
1.5492668 14.781688 -1.0853754
1.6486346 14.850197 -1.0913262
1.7225276 14.693228 -1.0801779
1.8033596 14.607169 -1.074453
1.9118177 14.741193 -1.0855261
2.0037103 14.740053 -1.0863546
2.0908854 14.704775 -1.0846221
2.1596828 14.547664 -1.0736245
2.2803316 14.737135 -1.0891417
2.3527923 14.611621 -1.0806298
2.4221528 14.475942 -1.0713646
2.5814161 14.866557 -1.1024746
2.6471431 14.70912 -1.0916276
2.7625611 14.827878 -1.1020226
2.8538685 14.812607 -1.1021733
2.9466505 14.804596 -1.1029266
2.9834394 14.523493 -1.0826637
3.0869677 14.573197 -1.0879365
3.2161033 14.736159 -1.1020226
3.3042753 14.70642 -1.1012694
3.3746822 14.600373 -1.0946406
3.4605153 14.56387 -1.0934354
3.5434258 14.516208 -1.0914016
3.631459 14.490324 -1.0911002
3.718811 14.461974 -1.0906483
3.8056979 14.432135 -1.090121
3.9017272 14.436427 -1.0923055
3.9692085 14.336297 -1.0863546
4.0641727 14.336615 -1.0883132
4.1584558 14.333434 -1.0900457
4.2965565 14.476847 -1.1033785
4.395731 14.484561 -1.1060903
4.4800916 14.443031 -1.1049604
4.565012 14.403863 -1.1040565
4.6634426 14.406888 -1.1065422
4.7708454 14.435756 -1.1111372
4.8609257 14.410934 -1.1115139
4.9950228 14.51378 -1.1221349
5.0876174 14.493207 -1.1229635
5.1888866 14.496453 -1.1257505
5.2589345 14.412822 -1.1216077
5.3424044 14.367198 -1.120553
5.4452996 14.37331 -1.1237167
5.5610371 14.411259 -1.129517
5.681457 14.458534 -1.1361457
5.7822905 14.453953 -1.1386315
5.9280391 14.558574 -1.1500812
6.0164938 14.520083 -1.1499305
6.1167092 14.50954 -1.152115
6.2154493 14.494645 -1.1539981
6.2277255 14.280748 -1.1395354
6.3152332 14.242267 -1.1395354
6.490622 14.398691 -1.1557306
6.5854955 14.373098 -1.1569359
6.6664066 14.317054 -1.1556554
6.7767344 14.32365 -1.1596477
6.9007864 14.35729 -1.1659751
6.9926891 14.322742 -1.166653
7.0746803 14.267953 -1.1656739
7.2491045 14.397051 -1.1802872
7.3491096 14.375384 -1.1822457
7.4661198 14.385777 -1.1869913
7.5305424 14.294703 -1.1831496
7.6514978 14.310659 -1.1884978
7.7605648 14.30288 -1.1918875
7.8587613 14.27421 -1.1935447
8.0074768 14.335406 -1.203036
8.1380615 14.361477 -1.2095894
8.3398371 14.50924 -1.2268392
8.3453293 14.314798 -1.214335
8.5335016 14.43327 -1.2292496
8.5936975 14.333603 -1.2251066
8.6866655 14.289124 -1.2258599
8.7888298 14.259321 -1.2279691
8.9041662 14.249943 -1.2319614
9.0026417 14.212729 -1.2335433
9.1839705 14.304058 -1.2467254
9.3178005 14.318474 -1.2531282
9.4257965 14.29183 -1.2559153
9.5615234 14.305848 -1.2624687
9.6390562 14.23205 -1.2611128
10.84518 15.802933 -1.4104859
13.846042 19.912066 -1.7947279
13.982317 19.847111 -1.7966111
10.585025 14.831225 -1.3390762
14.299608 19.777462 -1.806253
14.412442 19.678085 -1.8051984
14.533507 19.590084 -1.8052737
14.653437 19.500538 -1.8052737
14.758319 19.391216 -1.8034658
14.885547 19.311352 -1.8045205
15.168214 19.430298 -1.824708
0 0 -0
11.889208 14.850983 -1.3997142
11.951847 14.742897 -1.3963245
12.030694 14.655412 -1.3949686
12.108279 14.566749 -1.3935374
15.697161 18.649805 -1.8040684
15.808711 18.550102 -1.8037672
15.92028 18.450489 -1.8035412
16.02663 18.344948 -1.8027879
16.135588 18.242529 -1.8024113
16.237238 18.132038 -1.8012813
16.348188 18.032066 -1.8012813
16.459873 17.932886 -1.801432
16.579779 17.842508 -1.8025619
16.699196 17.751335 -1.8036919
15.828484 16.620331 -1.6964265
16.289387 16.895447 -1.7355211
16.393446 16.795893 -1.7355964
16.191305 16.386454 -1.7028292
16.26263 16.257895 -1.6997409
16.344341 16.140287 -1.6978576
16.416656 16.013935 -1.6950706
16.307079 15.712955 -1.6733011
16.446524 15.653848 -1.6778208
16.574959 15.583373 -1.6812104
16.788639 15.591299 -1.6934134
17.069174 15.657847 -1.7123958
17.206308 15.59031 -1.716614
17.32468 15.505054 -1.7189492
17.441906 15.418272 -1.7212089
17.565479 15.336536 -1.7241467
17.697765 15.261677 -1.7279884
17.820684 15.178013 -1.7309262
17.933319 15.08507 -1.7328846
18.143667 15.072871 -1.744485
18.332178 15.040315 -1.7539008
18.57753 15.051832 -1.7688155
18.714699 14.973689 -1.7731845
18.855516 14.897519 -1.77793
18.977234 14.805463 -1.7808678
19.100901 14.714299 -1.7840315
19.155109 14.569657 -1.7806418
19.303951 14.496756 -1.7862914
19.58639 14.521748 -1.8045205
19.877098 14.549114 -1.8234274
0 0 -0
0 0 -0
0 0 -0
0 0 -0
21.209581 14.546698 -1.9054583
21.66427 14.663879 -1.9388281
21.834272 14.584395 -1.9461348
22.124006 14.582393 -1.9642886
22.427069 14.585532 -1.9835722
22.652103 14.534881 -1.9957752
22.713057 14.378016 -1.9932894
22.823687 14.252641 -1.9953232
22.923447 14.120173 -1.9964532
22.794039 13.84827 -1.9773954
22.735731 13.622564 -1.9648159
22.857523 13.50563 -1.9682056
22.856384 13.316436 -1.9608989
22.816608 13.106411 -1.9503531
22.83152 12.929315 -1.9447036
22.848602 12.754475 -1.9393554
22.883621 12.590487 -1.9356644
22.931517 12.434154 -1.9331787
22.97044 12.273479 -1.9300148
22.994139 12.105365 -1.9256459
23.028149 11.94339 -1.9222562
23.072582 11.787352 -1.9198458
23.042925 11.594469 -1.9112585
23.04394 11.418332 -1.905383
23.078615 11.259672 -1.9024453
23.121202 11.105333 -1.9002608
23.122196 10.931719 -1.8946866
23.124645 10.759774 -1.8893384
23.199297 10.621832 -1.8900917
23.188572 10.445295 -1.8838396
23.262255 10.30726 -1.8846681
23.143145 10.085067 -1.8696781
23.149595 9.9193125 -1.8651586
23.102505 9.7317963 -1.8563453
23.101896 9.5650663 -1.851449
23.124128 9.4084816 -1.8485113
23.128643 9.2453222 -1.8442177
23.13203 9.0824633 -1.839924
23.142664 8.9231405 -1.8363084
23.105585 8.7463799 -1.8289263
23.101797 8.5832605 -1.8243314
23.094069 8.4194927 -1.8195105
23.086143 8.2564793 -1.8147649
0 0 -0
23.083881 7.9375415 -1.8066295
23.075453 7.7766471 -1.80211
23.071604 7.618032 -1.7980423
23.075216 7.4625182 -1.7946526
23.070187 7.3048401 -1.7906603
23.083143 7.1534076 -1.7881745
23.083658 6.99862 -1.7847848
23.112782 6.8528819 -1.7837303
23.134281 6.7051072 -1.7821484
23.17115 6.561945 -1.7818471
23.213861 6.4204431 -1.782073
23.269184 6.2823024 -1.7833536
23.31308 6.1409311 -1.7838056
23.376398 6.0044656 -1.7858394
23.430212 5.8652759 -1.7871953
23.486105 5.7263594 -1.7887771
23.528561 5.5839853 -1.7893797
23.582785 5.444221 -1.7909616
23.627422 5.3020368 -1.7918656
23.675098 5.1603589 -1.7930708
23.709242 5.0156131 -1.7932967
23.760084 4.8742485 -1.7948786
23.797369 4.7299223 -1.7954812
23.832798 4.585134 -1.7960085
23.869307 4.4404531 -1.7966864
23.902973 4.2951446 -1.7972137
23.93379 4.1492491 -1.7975904
23.972569 4.0046158 -1.7986449
24.015396 3.8604534 -1.8000761
24.059326 3.7162206 -1.801658
24.092525 3.5701327 -1.8024867
24.17815 3.4313407 -1.8073828
24.207644 3.2841277 -1.8080608
24.247116 3.1380894 -1.8095673
24.25107 2.9874249 -1.8084375
24.260031 2.8375247 -1.8077595
7.1893473 0.79702765 -0.50905001
7.0592232 0.73880577 -0.49880558
7.0606465 0.69518465 -0.49857959
7.0399551 0.64956194 -0.49669644
7.0020814 0.6027683 -0.49353272
6.98875 0.55844557 -0.49225214
6.9860783 0.51511395 -0.49180019
6.9891071 0.47223848 -0.49180019
6.9759488 0.42837 -0.49059495
6.963511 0.38473567 -0.48946506
6.9697247 0.34219608 -0.48976636
6.975678 0.29959467 -0.49006769
6.9684167 0.25645852 -0.48938975
6.9778323 0.21393943 -0.48999235
6.9839983 0.17124161 -0.49036899
6.9869113 0.12842169 -0.49051964
6.9875679 0.085548393 -0.49051964
7.0039153 0.042766638 -0.49172488
7.0070376 -0.00020997203 -0.49195084
7.0158787 -0.04326117 -0.49262878
7.0324316 -0.086520329 -0.49390933
7.040741 -0.12983584 -0.49458727
7.051774 -0.17333058 -0.49549121
7.0824718 -0.21758126 -0.49790168
7.104919 -0.26191995 -0.49970952
7.1898499 -0.30925202 -0.50626296
7.1619225 -0.35208505 -0.50430447
21.206942 -1.1753186 -1.5670904
21.1217 -1.3006351 -1.5612148
21.073528 -1.427513 -1.5582018
19.370836 -1.4315338 -1.4299202
20.069395 -1.6070758 -1.4835529
21.056597 -1.8162806 -1.559181
20.003483 -1.8491042 -1.4801632
19.889549 -1.9617213 -1.4724046
19.883087 -2.0843484 -1.4728565
20.96703 -2.3281944 -1.5562433
10.606972 -1.2431581 -0.7693795
10.607061 -1.309196 -0.7699821
10.594873 -1.3737417 -0.7696808
10.581305 -1.4380528 -0.76930416
10.596962 -1.5064627 -0.77118731
10.593437 -1.5723351 -0.77163929
13.859125 -2.1444037 -1.0220256
13.838816 -2.228291 -1.0214983
21.266827 -3.5589759 -1.5914962
14.475544 -2.5134897 -1.0724945
21.168558 -3.8101432 -1.5874286
13.539795 -2.5224769 -1.0030432
20.83234 -4.014142 -1.5652825
20.813187 -4.1430597 -1.5657345
20.749279 -4.2628608 -1.5627967
20.672983 -4.3795533 -1.5589551
20.609674 -4.4984484 -1.556168
20.559309 -4.6197929 -1.5544355
20.470341 -4.7319279 -1.5497652
20.405996 -4.8491411 -1.5470535
20.325485 -4.9619589 -1.5431365
20.258869 -5.0776081 -1.5403494
20.167458 -5.1864176 -1.5356791
8.203536 -2.1627202 -0.60350984
20.01181 -5.40905 -1.5285983
7.8044772 -2.1602299 -0.57435834
7.7536616 -2.1974671 -0.57142061
19.753717 -5.731463 -1.5163954
8.0033293 -2.3747494 -0.59326541
7.9752493 -2.4197571 -0.59221083
7.9640613 -2.4698288 -0.59251213
8.1835394 -2.5930784 -0.61111784
19.321955 -6.2548451 -1.4968104
7.8585505 -2.5965981 -0.58784187
7.8462496 -2.6460435 -0.58814317
18.946152 -6.5208316 -1.4762462
18.800407 -6.5999613 -1.4678096
18.442242 -6.6015863 -1.4423492
18.253386 -6.6606059 -1.4304475
18.124321 -6.7398057 -1.4233668
18.075165 -6.8480611 -1.4227642
18.058853 -6.9688926 -1.4248734
18.038027 -7.0883226 -1.4266812
18.022894 -7.2103524 -1.4290164
18.01433 -7.3354716 -1.431954
18.012276 -7.4638109 -1.4354944
18.042402 -7.6063476 -1.4417466
18.027466 -7.7306671 -1.444383
18.015337 -7.8566842 -1.4473207
17.962233 -7.965055 -1.4469441
17.912113 -8.0747099 -1.4468688
17.851353 -8.1794786 -1.4459648
17.7945 -8.2859116 -1.4454376
17.730705 -8.3889694 -1.444383
17.661821 -8.489397 -1.4429518
17.608503 -8.5971699 -1.4428765
17.517008 -8.6860018 -1.4396374
17.435774 -8.779417 -1.4373022
17.360268 -8.8753405 -1.4354944
17.293093 -8.9752617 -1.4344398
17.212994 -9.0681868 -1.4323307
17.162304 -9.1764536 -1.4327826
12.976854 -7.040957 -1.0779181
17.005602 -9.3628025 -1.4290917
16.933035 -9.458703 -1.427811
16.867739 -9.5584908 -1.4272084
12.467325 -7.165966 -1.0489173
12.603158 -7.3473053 -1.0646605
12.587879 -7.4422626 -1.067297
17.00009 -10.192639 -1.4599756
16.935524 -10.295722 -1.4598249
16.871183 -10.398919 -1.4597497
12.283061 -7.6749582 -1.0567513
16.708609 -10.583826 -1.4567366
16.671881 -10.704468 -1.4592977
16.519804 -10.750538 -1.451539
16.417736 -10.828089 -1.4483
16.232441 -10.849379 -1.4375283
16.05246 -10.87216 -1.4272084
15.910633 -10.919102 -1.4203538
15.839242 -11.013675 -1.4199771
15.771365 -11.110656 -1.4199771
15.624168 -11.151023 -1.4126704
15.511819 -11.21513 -1.4086027
15.400077 -11.278868 -1.4046104
15.251301 -11.314326 -1.397153
15.133761 -11.37175 -1.3926334
15.020854 -11.431781 -1.3885658
14.951217 -11.524341 -1.3886411
14.848783 -11.591317 -1.3856281
14.743747 -11.655617 -1.3823891
14.610458 -11.696628 -1.3764381
14.529894 -11.779147 -1.3756096
14.448867 -11.861119 -1.374781
14.365082 -11.940628 -1.3737265
14.283154 -12.021482 -1.3728979
14.181801 -12.085609 -1.3701861
14.026601 -12.102694 -1.3621261
13.886746 -12.131452 -1.3555727
13.791882 -12.198592 -1.3535389
13.687803 -12.257044 -1.3506011
13.557673 -12.291235 -1.345027
13.448209 -12.343173 -1.3415619
13.348115 -12.403056 -1.3390762
13.260866 -12.474477 -1.3379462
13.169634 -12.541854 -1.3364396
13.072331 -12.603045 -1.3343306
12.96978 -12.65864 -1.3316941
12.8564 -12.702938 -1.3279277
12.684455 -12.687788 -1.3179092
12.572035 -12.730612 -1.3142183
12.481849 -12.795377 -1.3129377
12.402411 -12.871005 -1.3128624
12.339701 -12.964198 -1.3146702
12.264019 -13.044028 -1.3151221
12.181716 -13.116841 -1.3148962
6.9076209 -7.5292783 -0.73450315
11.938155 -13.175187 -1.3057064
11.84645 -13.236301 -1.3045011
6.7407856 -7.6245165 -0.73141474
6.6787925 -7.6484566 -0.72968227
6.5802941 -7.6296334 -0.7237314
11.518694 -13.5238 -1.3045764
11.422659 -13.57896 -1.3030698
11.316825 -13.621946 -1.3004334
11.207731 -13.660292 -1.2974204
6.4561458 -7.9673572 -0.73729026
10.970732 -13.711148 -1.2891344
10.854871 -13.7383 -1.2852927
2.0034406 -2.5663159 -0.2085714
1.9913071 -2.5833004 -0.20902337
1.9784369 -2.5994384 -0.2094
1.9540673 -2.6003656 -0.20834543
1.9351058 -2.6083014 -0.20796879
1.9231876 -2.6257586 -0.20849608
1.9198874 -2.6552916 -0.21015327
1.9191918 -2.6889415 -0.2121871
1.9061007 -2.705559 -0.21263905
1.9048269 -2.7393136 -0.21467288
1.8812153 -2.7410815 -0.21376896
9.736001 -14.383171 -1.2746717
9.6442413 -14.437664 -1.2742198
9.5417538 -14.475754 -1.2723366
9.426115 -14.493067 -1.2686455
9.3542414 -14.577488 -1.2710561
9.2651529 -14.635453 -1.2711313
9.1741199 -14.690335 -1.2709807
9.0749197 -14.731916 -1.2697002
8.9781427 -14.777095 -1.2687962
8.8944778 -14.843882 -1.2698507
8.8214903 -14.929084 -1.2725625
8.7191801 -14.964837 -1.2709807
8.6083212 -14.985197 -1.2681183
8.5152292 -15.035999 -1.2679676
8.423295 -15.088836 -1.2680429
8.3324757 -15.14373 -1.2683443
8.238924 -15.193696 -1.2682689
8.15306 -15.258035 -1.2694741
8.0657873 -15.320127 -1.2705287
7.9702563 -15.366674 -1.2703028
7.8626633 -15.389537 -1.2681183
7.7178931 -15.337725 -1.2596817
7.593092 -15.32314 -1.2544841
7.4840631 -15.338971 -1.251923
7.3932576 -15.391795 -1.2525256
7.3383093 -15.520709 -1.259531
6.9009709 -14.830409 -1.1982903
7.1174092 -15.544312 -1.2541075
7.0259919 -15.596784 -1.2548608
6.9261203 -15.630484 -1.2541075
6.8181338 -15.645263 -1.2518476
6.7353597 -15.717968 -1.2544087
6.7564559 -16.038366 -1.2773081
6.581636 -15.895255 -1.2622428
6.4851079 -15.938111 -1.2624687
6.3916326 -15.988714 -1.2633727
6.2227149 -15.847562 -1.2487593
6.1296635 -15.89661 -1.2496632
6.0464802 -15.972158 -1.2527516
5.9872546 -16.113649 -1.2611881
5.8940759 -16.16601 -1.2624687
5.7947721 -16.201872 -1.2624687
5.7173591 -16.300167 -1.2675157
5.632473 -16.379263 -1.2710561
5.5404625 -16.439028 -1.2730898
5.4438667 -16.485971 -1.2741444
5.2803302 -16.326458 -1.2588531
5.1713257 -16.330982 -1.2566686
5.101716 -16.461464 -1.2645025
5.0156565 -16.54208 -1.2684195
4.9075432 -16.550554 -1.266687
4.8028455 -16.56982 -1.2658584
4.7070613 -16.620085 -1.2675157
4.6530976 -16.822613 -1.2811497
4.5201635 -16.741098 -1.2725625
3.9323084 -14.926745 -1.1286883
4.247416 -16.534536 -1.2522243
4.1470923 -16.565123 -1.2526009
4.0484428 -16.602852 -1.2535802
3.94258 -16.610886 -1.2522997
3.8387892 -16.626991 -1.2516971
3.7345128 -16.640503 -1.2509438
3.6329751 -16.666027 -1.2511697
3.5316777 -16.692883 -1.2515464
3.4353962 -16.74452 -1.2538815
3.3193736 -16.698778 -1.2487593
3.2228763 -16.750166 -1.2511697
3.1271493 -16.807859 -1.2541075
3.0255461 -16.835564 -1.2547854
0.4917351 -2.8304193 -0.17964591
0.46828142 -2.7969923 -0.17685881
0.44826275 -2.7820916 -0.17550294
0.41885796 -2.7049658 -0.16940147
0.3999148 -2.6917026 -0.16819623
0.38213071 -2.6852202 -0.1675183
0.36712137 -2.6983838 -0.1683469
0.35682651 -2.7490425 -0.1720379
0.34141439 -2.7630563 -0.17294182
0.3314018 -2.8245239 -0.17746143
0.32393891 -2.9157038 -0.18424085
0.30314073 -2.8898673 -0.18213169
0.19107825 -1.9320447 -0.10929067
0.17867114 -1.9272231 -0.10883871
0.16718398 -1.9322572 -0.10914002
0.15516621 -1.9312586 -0.10898937
0.57532483 -7.8045282 -0.55379415
0.12977858 -1.9081447 -0.10710619
0.11721467 -1.894971 -0.10605162
0.10531092 -1.8906763 -0.10567499
0.093902901 -1.8952708 -0.1059763
0.082271971 -1.8958113 -0.1059763
0.071258567 -1.9132208 -0.10725685
0.060520854 -1.9465129 -0.10974263
0.048284829 -1.9348853 -0.10883871
0.03554007 -1.8872894 -0.10522303
0.024645543 -1.9443059 -0.10951666
0.012258996 -1.8676406 -0.10371649
0.00080148783 -1.8557148 -0.10281257
-0.010584979 -1.8556848 -0.10281257
-0.021921318 -1.8515966 -0.10251126
-0.033207886 -1.8474392 -0.10220996
-0.044123594 -1.8302542 -0.1009294
-0.5164876 -16.760269 -1.2293249
-0.62215811 -16.833513 -1.2351251
-0.14752737 -3.4440222 -0.22303416
-0.16909882 -3.4520156 -0.22371209
-0.19016634 -3.4489217 -0.22356144
-1.0298104 -16.727583 -1.228647
-1.1330366 -16.729902 -1.2293249
-1.2383894 -16.75943 -1.2321121
-1.3427134 -16.770401 -1.2335433
-0.36284152 -4.2173619 -0.28239167
-1.5690756 -16.976068 -1.2504917
-0.29763511 -3.0277398 -0.19245146
-0.30996612 -2.9663534 -0.18793187
-0.31979361 -2.889075 -0.18220702
-0.45230305 -3.8655415 -0.25662991
-1.8752469 -15.189075 -1.1187452
-0.49636865 -3.8339894 -0.25467139
-0.52633506 -3.8782985 -0.2582871
-0.54661059 -3.8503156 -0.25640392
-0.56876034 -3.8370256 -0.25565067
-0.45102581 -2.9209647 -0.18589804
-0.438806 -2.7310939 -0.17158595
-0.45209801 -2.7076972 -0.17000408
-0.5173443 -2.984869 -0.19147222
-0.5644505 -3.1416032 -0.20375049
-3.1088009 -16.685503 -1.244767
-3.2247107 -16.73661 -1.2501905
-3.3581109 -16.871027 -1.2620921
-3.456749 -16.826662 -1.2602843
-3.5553827 -16.783674 -1.2586271
-0.57016319 -2.6169801 -0.16495718
-0.88316351 -3.934613 -0.26725098
-3.9304297 -17.003931 -1.2809992
-4.0759659 -17.153149 -1.2944826
-4.1061554 -16.820738 -1.270604
-4.2187452 -16.832949 -1.2735418
-0.70137483 -2.731353 -0.17565359
-0.72549653 -2.7549593 -0.17783807
-0.64661783 -2.396219 -0.1501178
-0.90802377 -3.2830398 -0.21994576
-0.9349519 -3.3013899 -0.22182892
-0.96074963 -3.314744 -0.22333546
-4.94274 -16.653486 -1.2748977
-0.80613196 -2.6595974 -0.17256519
-0.8206628 -2.6488869 -0.17211322
-1.0412055 -3.2882667 -0.22318481
-5.5112081 -17.025221 -1.3144442
-5.6136909 -16.985405 -1.3139923
-1.398658 -4.1491265 -0.29338938
-1.4292835 -4.1555524 -0.29459462
-1.4478172 -4.1269464 -0.29301277
-1.196488 -3.34535 -0.2310188
-1.2180178 -3.3407557 -0.23124477
-1.520407 -4.091186 -0.29233482
-1.5486615 -4.0901723 -0.29301277
-1.1805637 -3.0619454 -0.21052991
-1.186198 -3.021234 -0.20781814
-1.3625227 -3.4082875 -0.23990735
-1.3785204 -3.3878577 -0.23892811
-1.3916464 -3.3609118 -0.23742157
-7.0930133 -16.824965 -1.3419385
-1.304257 -3.04391 -0.2127897
-1.293408 -2.9682143 -0.20721552
-1.4619844 -3.2993124 -0.23523709
-1.8674642 -4.144773 -0.30604428
-1.4433717 -3.1523998 -0.22454068
-1.4626873 -3.1434839 -0.22454068
-1.8884188 -3.9934244 -0.29632714
-1.9219593 -4.0006347 -0.29790899
-1.7220094 -3.5291004 -0.25926635
-1.4348353 -2.8958144 -0.20676357
-1.4386729 -2.8593473 -0.20442843
-1.3753847 -2.6924322 -0.19102027
-0.92328703 -1.7812142 -0.11418692
-0.94117141 -1.7887484 -0.11531682
-1.9095178 -3.5732422 -0.26868218
-1.9299799 -3.5588291 -0.26845622
-1.9426415 -3.5303235 -0.26702499
-1.4565319 -2.6095154 -0.18838382
-1.4789078 -2.6118071 -0.18936306
-1.4809902 -2.5784779 -0.18725392
-1.495779 -2.5676193 -0.18710327
-1.5165811 -2.5669763 -0.18785654
-1.5502515 -2.587554 -0.19049297
-1.5179209 -2.4987545 -0.18348758
-9.9829226 -16.19636 -1.3998648
-1.5125345 -2.4224379 -0.17836535
-5.0808988 -8.0223103 -0.67996657
-5.2291665 -8.1453705 -0.69382668
-1.3811748 -2.1242437 -0.15403479
-1.4155962 -2.1481919 -0.15697254
-1.4387254 -2.1543877 -0.15832843
-1.4166858 -2.0935075 -0.15358284
-1.4323261 -2.0888863 -0.15395947
-11.080286 -15.935024 -1.4287903
-1.55434 -2.208097 -0.16661437
-1.5858183 -2.2236781 -0.1689495
-1.5813197 -2.1888566 -0.16661437
-1.5310826 -2.0922332 -0.15847908
-1.6015254 -2.1604776 -0.16578577
-1.6213415 -2.159379 -0.16661437
-1.596512 -2.0994022 -0.16186878
-1.5722266 -2.0413926 -0.15727384
-1.6246092 -2.0827963 -0.1621701
-1.7449687 -2.2088926 -0.17527695
-1.6288559 -2.0362375 -0.15960898
-1.6425754 -2.0277538 -0.15975964
-1.6638449 -2.0284266 -0.16081421
-1.6545862 -1.9921083 -0.1582531
-1.6648519 -1.9796299 -0.15802711
-1.6750269 -1.9671006 -0.15780114
-1.6857624 -1.9552759 -0.15765049
-1.6872306 -1.9328808 -0.15644525
-1.7063262 -1.9307075 -0.15727384
-1.7174755 -1.9194584 -0.15719852
-1.7292207 -1.908884 -0.15719852
-1.7429239 -1.9004416 -0.15742451
-1.8122509 -1.9517988 -0.16382729
-2.8204148 -2.9995303 -0.27365378
-2.300967 -2.4175215 -0.2147482
-2.3496721 -2.4385307 -0.21843922
-3.1837122 -3.2632148 -0.30702353
-3.170032 -3.2095733 -0.30340785
-3.3977106 -3.398025 -0.32562926
-3.2815537 -3.2418938 -0.31109118
-3.4784145 -3.3943679 -0.32977223
-2.4866657 -2.39744 -0.22356144
-3.4454074 -3.2806206 -0.32201359
-2.5703886 -2.4179688 -0.22921094
-2.6092896 -2.4245429 -0.23169674
-2.6197083 -2.4044428 -0.23124477
-2.6307175 -2.3849757 -0.23086815
-2.6096344 -2.3368711 -0.22725245
-2.6306484 -2.3267581 -0.2279304
-2.898773 -2.5322301 -0.25339085
-2.6922312 -2.3229523 -0.23124477
-2.6965647 -2.2979846 -0.23026553
-2.7052724 -2.2769024 -0.22973824
-15.444442 -12.830712 -1.4794099
-15.550632 -12.758473 -1.4821217
-3.3929112 -2.750221 -0.29256079
-4.1011562 -3.2825139 -0.359451
-4.0977464 -3.2387435 -0.35719121
-3.827424 -2.9872208 -0.32939559
-16.071344 -12.380726 -1.4951532
-16.184311 -12.310252 -1.4986936
-16.265921 -12.215505 -1.4992962
-3.1866539 -2.3638651 -0.26235473
-3.1640835 -2.3171773 -0.2588897
-16.374855 -11.832276 -1.4887505
-16.502352 -11.770952 -1.4938726
-3.0260012 -2.1316876 -0.24224249
-3.0390241 -2.1130803 -0.24224249
-3.0766032 -2.1113122 -0.24450229
-3.1332676 -2.1220169 -0.24849461
-3.2233462 -2.1542578 -0.25550002
-3.3555653 -2.2129076 -0.26627174
-3.492801 -2.2727311 -0.2774201
-3.6233389 -2.3261044 -0.28789052
-5.7296147 -3.6280425 -0.47492698
-5.7543058 -3.5944023 -0.47515297
-17.279034 -10.643718 -1.4956806
-3.6324604 -2.2080085 -0.28374755
-3.6048813 -2.1610796 -0.28013188
-3.7331152 -2.2068868 -0.29022565
-3.7646801 -2.1944799 -0.29180753
-17.799732 -10.224892 -1.513307
-17.875151 -10.122852 -1.514437
-3.9689996 -2.2166657 -0.30604428
-3.9685473 -2.1845803 -0.30483907
-3.9222677 -2.1278701 -0.29971683
-3.8472993 -2.0567751 -0.29218414
-3.8960245 -2.0521734 -0.29527256
-3.8695939 -2.0080307 -0.29195818
-3.9289064 -2.0082912 -0.2959505
-3.9536259 -1.9904203 -0.29700509
-17.017231 -8.4324226 -1.3973037
-7.6781931 -3.746928 -0.60802943
-7.7010393 -3.6997449 -0.60802943
-17.308393 -8.1833916 -1.4089041
-5.7920952 -2.6959946 -0.44524822
-5.7550349 -2.6359153 -0.44080395
-19.203566 -8.6504679 -1.5536822
-5.8197694 -2.5796344 -0.44351572
-5.8217759 -2.5379016 -0.44238582
-5.7959924 -2.4844611 -0.43899611
-19.520351 -8.223031 -1.5627214
-11.37337 -4.7096496 -0.89253879
-11.400207 -4.6390238 -0.89238816
-9.6191683 -3.845849 -0.74519956
-9.6398001 -3.7856612 -0.7449736
-11.488317 -4.430191 -0.89276481
-11.665431 -4.4164453 -0.90489239
-11.925996 -4.4315958 -0.92372411
-12.022291 -4.3836069 -0.92929828
-12.017038 -4.2983418 -0.92673719
-12.087412 -4.2400346 -0.93027753
-12.161293 -4.182322 -0.93411922
-11.58857 -3.9060705 -0.88643736
-7.7897158 -2.572906 -0.58234304
-7.815793 -2.5284352 -0.58317161
-12.439943 -3.9394913 -0.94835597
-12.575322 -3.8976164 -0.95716918
-11.597963 -3.5169353 -0.87815136
-11.648005 -3.4542077 -0.88041121
-13.004093 -3.769563 -0.98541677
-12.963655 -3.671771 -0.98044521
-9.7009344 -2.6837692 -0.72297817
-9.7152939 -2.6236751 -0.72282749
-12.900795 -3.3987548 -0.97042674
-13.000604 -3.3398714 -0.97660351
-13.244304 -3.3159635 -0.99400401
-13.057079 -3.1840973 -0.97788405
-13.007485 -3.0875757 -0.97253585
-13.11363 -3.0278881 -0.97931528
-13.120287 -2.9447477 -0.97841138
-11.539292 -2.5157812 -0.85480005
-13.405184 -2.8363409 -0.99769503
-13.43601 -2.7568395 -0.99874961
-13.503531 -2.6844518 -1.0026666
-13.486455 -2.5951416 -1.0001055
-13.590356 -2.5287509 -1.0068849
-13.481954 -2.4230995 -0.99739373
-13.6577 -2.3682566 -1.0097473
-13.643452 -2.2796466 -1.0075629
-13.657182 -2.195889 -1.0075629
-13.7857 -2.1298528 -1.016376
-14.00072 -2.0751798 -1.031818
-14.517686 -2.060807 -1.0703101
-14.551796 -1.9746374 -1.0719672
-15.95999 -2.0659618 -1.1783288
-16.682959 -2.055496 -1.2324133
-22.645657 -2.6487811 -1.6849768
-22.668421 -2.5105479 -1.6855041
-22.990845 -2.4035356 -1.7088554
-23.712725 -2.33197 -1.7625633
-25.869387 -2.3837826 -1.9251187
-25.934195 -2.2293596 -1.9289603
-25.878799 -2.0647194 -1.9237628
-25.917831 -1.9078665 -1.9257966
-25.913132 -1.7477288 -1.9245913
-25.91441 -1.5881474 -1.9239135
-25.923666 -1.4291097 -1.9239135
-25.917007 -1.2692872 -1.9227835
-25.903387 -1.1093445 -1.9212017
-25.891769 -0.94972628 -1.9198458
-25.88814 -0.79056597 -1.9191679
-25.857613 -0.63085479 -1.9165314
-25.854017 -0.47205648 -1.9160041
-25.83848 -0.31319359 -1.9146482
-25.837921 -0.15463391 -1.9144976
-25.794508 0.0038988832 -1.9111832
-25.781036 0.16208886 -1.9102039
-25.768587 0.32013851 -1.9093753
-25.751184 0.47796732 -1.9082454
-25.702908 0.63485456 -1.9048557
-25.730423 0.7935378 -1.9072661
-25.705139 0.95066375 -1.9057597
-25.690853 1.1080256 -1.9051571
-25.683571 1.2656409 -1.9051571
-25.6574 1.4222142 -1.9038012
-25.633261 1.5786982 -1.9026712
-25.617123 1.7355465 -1.9022193
-22.295292 -0.56784445 -1.917575
-22.281424 -0.43070483 -1.9160904
-22.273685 -0.29384887 -1.915217
-22.270088 -0.15713935 -1.9147804
-22.261669 -0.020481277 -1.9139944
-22.254402 0.11607789 -1.9133831
-22.245302 0.25253582 -1.9126846
-22.240345 0.38897347 -1.9124225
-22.233557 0.52533627 -1.9120733
-22.218962 0.66142309 -1.9111125
-22.19557 0.79706472 -1.9094533
-22.164383 0.93215132 -1.9071828
-22.142326 1.0673647 -1.9057854
-22.102535 1.2014236 -1.9029036
-22.063921 1.3351549 -1.9001964
-22.051338 1.4702464 -1.899847
-22.039915 1.6053785 -1.8996724
-22.01078 1.7390921 -1.8980131
-21.989769 1.8732697 -1.8971399
-21.969925 2.007436 -1.8964412
-21.948271 2.1413329 -1.8956553
-21.914902 2.2739086 -1.8939086
-21.884693 2.4065912 -1.8925114
-21.860609 2.5397933 -1.8917254
-21.834724 2.6726694 -1.8908521
-21.807047 2.8051968 -1.8898915
-21.780539 2.9377511 -1.8891056
-21.762102 3.0713387 -1.8891056
-21.739891 3.2043748 -1.8888435
-21.716866 3.3372543 -1.8885815
-21.683193 3.4683983 -1.8874463
-21.662485 3.601542 -1.8875335
-21.621326 3.7311742 -1.8858744
-21.566647 3.8581569 -1.8830798
-21.53669 3.9893262 -1.8825558
-21.488325 4.1168995 -1.8804599
-21.44507 4.2451901 -1.878888
-21.403978 4.3737035 -1.877578
-21.36894 4.5033102 -1.8768793
-21.336039 4.633286 -1.8764428
-21.30332 4.7632446 -1.8760934
-21.270779 4.8931999 -1.8758315
-21.210302 5.0165153 -1.8731242
-21.158794 5.1416254 -1.8712903
-21.179041 5.2843785 -1.8760061
-21.126917 5.4092898 -1.8742595
-21.167519 5.5583005 -1.8809838
-21.190733 5.7036109 -1.8862237
-21.209116 5.8483558 -1.8911141
-21.21118 5.9892097 -1.8946073
-21.197001 6.1258836 -1.8967032
-21.193405 6.2659979 -1.899847
-21.199375 6.4094696 -1.9039515
-21.195816 6.5506024 -1.9072701
-21.181822 6.6889334 -1.9097153
-21.211487 6.8417106 -1.916265
-21.248587 6.9979067 -1.9236007
-21.244907 7.1414847 -1.9272686
-21.242149 7.2859268 -1.9311111
-21.219612 7.4240241 -1.933207
-21.183981 7.5577669 -1.9341676
-21.205549 7.7124619 -1.9405427
-21.198927 7.8576651 -1.9443852
-21.202503 8.0072994 -1.9492756
-21.19853 8.1547699 -1.9535547
-21.220444 8.3130293 -1.9603665
-21.207899 8.4585781 -1.9640343
-21.18606 8.600913 -1.9669162
-21.193653 8.7558498 -1.97268
-21.17259 8.8996229 -1.9758239
-21.172543 9.052866 -1.9810636
-21.142176 9.1937304 -1.9835088
-21.150965 9.3522873 -1.9897965
-21.152243 9.5084391 -1.995473
-21.144241 9.661231 -2.0003633
-21.159555 9.8256092 -2.0076118
-21.143915 9.976511 -2.0119784
-21.129015 10.12845 -2.0165195
-21.084383 10.266627 -2.018266
-21.062067 10.416119 -2.0222831
-21.027136 10.55991 -2.0251651
-20.991234 10.703664 -2.0280468
-20.989742 10.865692 -2.0344219
-20.95266 11.010033 -2.0373912
-20.930416 11.162766 -2.0419323
-20.904459 11.314215 -2.0462115
-20.882668 11.468643 -2.0510147
-20.830177 11.606743 -2.0528486
-20.860033 11.79169 -2.063066
-20.840004 11.949689 -2.0683932
-20.809347 12.102376 -2.0727596
-20.751858 12.239954 -2.0745063
-20.687477 12.373702 -2.0756416
-20.611164 12.500405 -2.0756416
-20.53153 12.625072 -2.0753796
-20.435925 12.739747 -2.0735457
-20.338844 12.853191 -2.0716245
-20.23527 12.962164 -2.0690918
-20.121933 13.064384 -2.0655987
-20.002279 13.161867 -2.0614941
-19.893791 13.266113 -2.0586123
-19.773224 13.361715 -2.0545077
-19.66292 13.463655 -2.0515387
-19.557838 13.568719 -2.0491807
-19.435093 13.660972 -2.0449889
-19.319258 13.757431 -2.0415831
-19.195702 13.847738 -2.0373912
-19.095894 13.95468 -2.0358193
-18.967474 14.040176 -2.0311909
-18.835535 14.122232 -2.0262129
-18.720762 14.216454 -2.0231564
-18.609489 14.312835 -2.0205367
-18.504026 14.413284 -2.0186152
-18.400379 14.514829 -2.0169561
-18.298519 14.617511 -2.0155587
-18.181376 14.707585 -2.0125022
-18.073063 14.804349 -2.0104938
-17.948149 14.886982 -2.0066512
-17.836632 14.980172 -2.0043807
-17.714024 15.06352 -2.0008874
-17.603144 15.156329 -1.9987916
-17.483532 15.241144 -1.9957349
-17.369518 15.330336 -1.9933771
-17.246157 15.410738 -1.9899713
-17.115812 15.48419 -1.9857794
-16.996973 15.567389 -1.9829849
-16.885063 15.656487 -1.9810636
-16.769794 15.74207 -1.978793
-16.659166 15.831633 -1.9771338
-16.54879 15.921123 -1.9755619
-16.434374 16.006378 -1.9735533
-16.316698 16.088032 -1.9711953
-16.199345 16.16955 -1.9689248
-16.068995 16.237488 -1.9650823
-15.939812 16.305861 -1.9614145
-15.811782 16.374695 -1.9579213
-15.682819 16.441853 -1.9543407
-15.564561 16.519644 -1.9521575
-15.443223 16.593689 -1.9496249
-15.323586 16.669065 -1.9473544
-15.207624 16.748026 -1.9456078
-15.092602 16.827675 -1.9440359
-14.975853 16.90505 -1.9422892
-14.864628 16.988377 -1.9413286
-14.751641 17.069466 -1.9401933
-14.646627 17.159658 -1.9401933
-14.53143 17.237782 -1.9388834
-14.419651 17.319731 -1.9380975
-14.290331 17.38018 -1.9349536
-14.175884 17.458258 -1.9339056
-14.055408 17.528589 -1.9320717
-13.93584 17.599663 -1.9304124
-13.814702 17.668362 -1.9285785
-13.695682 17.739389 -1.9270939
-13.569062 17.800116 -1.9245614
-13.447007 17.866323 -1.9227275
-12.491619 16.810692 -1.7984574
-13.213784 18.012323 -1.9208062
-13.104182 18.094677 -1.9209808
-12.987695 18.167448 -1.9201949
-12.871382 18.240286 -1.9194962
-12.75011 18.305841 -1.9180989
-12.629082 18.371416 -1.9167891
-12.508288 18.437019 -1.9155664
-12.388275 18.503489 -1.9145185
-12.267918 18.56918 -1.9134705
-12.161908 18.656622 -1.9147804
-12.040738 18.72084 -1.9137325
-11.478366 18.089506 -1.8405503
-11.34284 18.120754 -1.8365331
-11.233533 18.193401 -1.8368825
-11.55747 18.977516 -1.9103266
-11.443887 19.053198 -1.9108506
-11.319655 19.111057 -1.909628
-11.193135 19.164671 -1.908056
-11.04103 19.173424 -1.9020303
-9.6144218 16.935581 -1.6696463
-10.771342 19.247488 -1.8960046
-10.646784 19.301878 -1.8948693
-10.52244 19.35634 -1.8938214
-10.402533 19.418785 -1.8936467
-10.279 19.474319 -1.8928607
-10.154718 19.528185 -1.8919874
-10.027438 19.575939 -1.8905902
-9.9013004 19.625536 -1.8894548
-9.7736015 19.671646 -1.8880576
-9.6470232 19.719612 -1.8869222
-9.5171986 19.760485 -1.8851757
-9.3880901 19.802305 -1.8836038
-9.2546139 19.834261 -1.8811586
-9.1256723 19.875282 -1.879674
-8.9838619 19.887325 -1.8754821
-8.8511486 19.918407 -1.8732115
-8.7207861 19.954086 -1.871465
-8.589139 19.98617 -1.8694564
-8.4582024 20.019224 -1.8676225
-8.3325329 20.064306 -1.8670112
-8.2051229 20.10491 -1.8660505
-8.076416 20.141933 -1.8648279
-7.9453735 20.172573 -1.8630813
-7.8153377 20.205151 -1.8615967
-7.6777744 20.217335 -1.8582782
-7.5427914 20.235128 -1.8555709
-7.4106178 20.259512 -1.8535624
-7.2791023 20.28491 -1.8517284
-7.1465621 20.306641 -1.8496325
-7.0166292 20.335041 -1.8482352
-6.8850212 20.357895 -1.8464013
-6.7571573 20.391247 -1.8456154
-6.6300664 20.42664 -1.8450915
-6.5055113 20.469784 -1.8453534
-6.3818603 20.515974 -1.8459647
-6.2555661 20.553793 -1.8458774
-6.1276274 20.586061 -1.8453534
-6.0009198 20.622316 -1.8452661
-5.8720913 20.651083 -1.8445674
-5.7439351 20.681925 -1.8441308
-5.6150999 20.710051 -1.8435194
-5.4988761 20.785524 -1.8472747
-5.3677506 20.805368 -1.8460521
-5.2416906 20.844677 -1.8466634
-5.1115584 20.867739 -1.8458774
-4.9815717 20.890957 -1.8451787
-4.8532934 20.921131 -1.8451787
-4.721983 20.937883 -1.8440435
-4.595767 20.977165 -1.8450041
-4.4667597 21.003996 -1.8449167
-3.0753458 14.910825 -1.2970982
-2.9515786 14.768233 -1.2826887
-2.8342206 14.648163 -1.2703753
-2.7259619 14.56736 -1.2616423
-2.6271329 14.531857 -1.2570138
-2.5310686 14.508449 -1.2535206
-2.4218438 14.403855 -1.2428664
-2.3348503 14.427295 -1.2436523
-2.2505701 14.46891 -1.2460976
-2.1210029 14.209531 -1.2219073
-1.9954104 13.954046 -1.1981536
-1.9020579 13.909769 -1.1931759
-1.8090663 13.862898 -1.1880234
-1.7258141 13.888565 -1.1893333
-1.6532944 14.006728 -1.1988523
-1.5662124 14.006708 -1.197979
-1.4882976 14.092337 -1.2047033
-1.4128408 14.212228 -1.2144843
-1.3078519 14.030189 -1.197717
-1.2781591 14.686004 -1.2547432
-1.1900313 14.718393 -1.2569265
-1.1342829 15.188347 -1.2976221
-1.0438604 15.235769 -1.3012025
-0.94570446 15.167318 -1.2946528
-0.86089748 15.320038 -1.3075776
-0.72075194 14.403724 -1.2267104
-0.63144094 14.386975 -1.2248765
-0.57281899 15.176004 -1.2937796
-0.47928059 15.16629 -1.2926443
-0.38715208 15.205791 -1.2958754
-0.29334277 15.181985 -1.293605
-0.19943227 15.126722 -1.2886271
-0.10186305 14.456253 -1.229767
-0.013277918 14.58312 -1.2408578
0.078537919 15.032198 -1.2802435
0.16627878 14.634979 -1.2454863
0.25602201 14.630695 -1.2452244
0.34865806 14.750349 -1.2558786
0.45204416 15.181079 -1.2938669
0.53092766 14.7808 -1.2590224
0.62060678 14.753376 -1.2569265
0.70910633 14.7075 -1.2532586
0.76744628 14.115992 -1.2017342
0.8547076 14.121955 -1.2026948
0.94054717 14.104517 -1.2016468
1.0243238 14.060725 -1.1983283
1.1035193 13.964798 -1.1904687
1.1887622 13.952801 -1.190032
1.2770715 13.975006 -1.1926519
1.3638602 13.977813 -1.1936125
1.4475449 13.949364 -1.1918659
1.5321295 13.931308 -1.19108
1.6163172 13.91076 -1.1901194
1.7040619 13.920356 -1.1918659
1.7858852 13.881973 -1.1894207
1.8740921 13.89346 -1.1914293
1.9587487 13.877754 -1.19108
2.0474951 13.890113 -1.1932632
2.1358619 13.897964 -1.1950971
2.2251885 13.910173 -1.1973677
2.3129482 13.910998 -1.1986777
2.4004631 13.909307 -1.1998129
2.4868162 13.900199 -1.2003369
2.6330171 14.213798 -1.2296796
2.6684515 13.927339 -1.2055767
2.7422521 13.85207 -1.2003369
2.8435478 13.915016 -1.207498
2.9305184 13.905105 -1.2081965
3.0335395 13.968636 -1.2155323
3.1446226 14.063504 -1.2257499
3.2219229 14.005111 -1.2222567
3.3162787 14.020947 -1.2254878
3.4191823 14.070032 -1.2317755
3.501833 14.034289 -1.2304657
3.6219757 14.145716 -1.2425171
3.710222 14.129006 -1.243041
3.7919271 14.087698 -1.2413818
3.8833272 14.082413 -1.243041
3.9707448 14.062155 -1.2433904
4.0552945 14.031784 -1.2428664
4.1415982 14.007592 -1.2429538
4.2369823 14.013383 -1.2458357
4.3370051 14.032806 -1.2500274
4.4449244 14.075277 -1.2564025
4.5364032 14.063856 -1.2578871
4.615757 14.01494 -1.2559658
4.709599 14.009961 -1.2581491
4.8087244 14.019434 -1.2617296
4.963408 14.186187 -1.2799815
5.0185609 14.06633 -1.2716852
5.1572084 14.179445 -1.285134
