# .PCD v0.7 - Point Cloud Data file format
VERSION 0.7
FIELDS x y z
SIZE 4 4 4
TYPE F F F
COUNT 1 1 1
WIDTH 1545
HEIGHT 1
VIEWPOINT 0 0 0 1 0 0 0
POINTS 1545
DATA ascii
-3.6899922 7.4340286 -1.9143598
-3.638324 7.4442873 -1.9111509
-3.5938444 7.4691029 -1.9118385
-3.5646148 7.5262008 -1.9210066
-3.5216582 7.5549889 -1.9228402
-3.4841642 7.5959191 -1.9278827
-3.4286816 7.5976362 -1.9228402
-3.3966131 7.6514478 -1.9313207
-3.3499901 7.6730371 -1.9315498
-3.2928615 7.6701927 -1.9255906
-3.2529283 7.7072916 -1.9299455
-3.2171397 7.7549772 -1.9370506
-3.1658206 7.7655578 -1.9347587
-3.110873 7.7667651 -1.9301746
-3.0663662 7.793859 -1.9322374
-3.0255034 7.8306861 -1.9368215
-2.9756718 7.8445525 -1.9356754
-2.9268031 7.8608384 -1.935217
-2.878849 7.8795633 -1.9354463
-2.8265052 7.8860841 -1.9326959
-2.7761269 7.897769 -1.9313207
-2.7269804 7.9128137 -1.9308622
-2.6796231 7.9330859 -1.931779
-2.6370137 7.9678597 -1.936363
-2.5853724 7.9755569 -1.9343002
-2.5357976 7.9894147 -1.9338418
-2.4873054 8.0066824 -1.9343002
-2.4389796 8.0245876 -1.9349878
-2.3891411 8.0375357 -1.9345294
-2.3335307 8.0305462 -1.9292579
-2.2977738 8.0924673 -1.9409471
-2.242873 8.0876541 -1.936363
-2.1947322 8.1069012 -1.9377382
-2.1531529 8.1512709 -1.9453019
-2.0992112 8.1492481 -1.9416347
-2.0494061 8.162919 -1.9418639
-1.9939615 8.153594 -1.9365922
-1.9423162 8.1590462 -1.9349878
-1.8974882 8.1935692 -1.9404886
-1.8304992 8.1309891 -1.922611
-1.7967978 8.2162371 -1.9404886
-1.7429132 8.2109213 -1.9365922
-1.6887693 8.2033463 -1.9322374
-1.6469734 8.2565098 -1.9425515
-1.5912973 8.2406559 -1.936363
-1.5399886 8.2464371 -1.9354463
-1.4917804 8.2691422 -1.938655
-1.4423497 8.2858114 -1.9404886
-1.3914818 8.2945051 -1.9404886
-1.3396302 8.297122 -1.9391134
-1.2915314 8.3234606 -1.9434682
-1.2379977 8.3148613 -1.9395719
-1.1876428 8.3271198 -1.9407178
-1.1357368 8.3284636 -1.9393426
-1.085618 8.3429976 -1.9411763
-1.0362018 8.3639908 -1.9446143
-0.98269975 8.3518238 -1.9402595
-0.92960185 8.3412514 -1.936363
-0.87789375 8.341958 -1.935217
-0.82717186 8.3520308 -1.936363
-0.77338827 8.3298111 -1.9299455
-0.72402871 8.354764 -1.9347587
-0.67337626 8.3668118 -1.9365922
-0.62115967 8.3591375 -1.9338418
-0.57224119 8.3977518 -1.942093
-0.52214903 8.4244213 -1.9475938
-0.46898189 8.401226 -1.9414054
-0.41790745 8.4136677 -1.9436975
-0.36483377 8.3830099 -1.9359046
-0.31346253 8.3870363 -1.936363
-0.26166001 8.3780994 -1.9338418
-0.21071278 8.398036 -1.9381967
-0.15936433 8.4089022 -1.9404886
-0.10795305 8.4243212 -1.9439267
-0.056155618 8.4092522 -1.9402595
-0.0045431745 8.3870506 -1.9349878
0.047113255 8.4219618 -1.9432391
0.09872032 8.4156742 -1.9418639
0.14993982 8.391552 -1.936363
0.20158981 8.3972864 -1.9379674
0.2534622 8.4075661 -1.9407178
0.30550361 8.418498 -1.9436975
0.35756502 8.4261904 -1.9459895
0.40803349 8.3985596 -1.9400302
0.46046203 8.4124212 -1.9439267
0.51224834 8.4123516 -1.9446143
0.56327021 8.4003096 -1.9425515
0.61281401 8.3695135 -1.9361339
0.66538864 8.3811207 -1.939801
0.7168017 8.3768806 -1.939801
0.76738781 8.3636007 -1.9377382
0.81717402 8.343235 -1.9340711
0.86845255 8.3390312 -1.9343002
0.92141777 8.3499937 -1.9381967
0.97060728 8.3267794 -1.9340711
1.0213253 8.3177691 -1.9333835
1.0698528 8.292038 -1.9287994
1.1204509 8.2833881 -1.928341
1.1746644 8.3004522 -1.9340711
1.2210206 8.2622747 -1.9267366
1.2703605 8.2459688 -1.9246738
1.3243223 8.2591629 -1.9297162
1.3775339 8.2662439 -1.9333835
1.4275653 8.2537994 -1.9324666
1.4792132 8.2506332 -1.9338418
1.5280342 8.2318316 -1.9315498
1.5812671 8.236639 -1.9349878
1.6257178 8.196229 -1.9276534
1.6716841 8.1651201 -1.922611
1.7241653 8.1661377 -1.9253614
1.7802387 8.1829872 -1.9320083
1.8289261 8.1652613 -1.9304038
1.8829265 8.1709585 -1.9345294
1.9348218 8.1668291 -1.936363
1.9855866 8.1576405 -1.9370506
2.0264013 8.1084747 -1.9281118
2.0877197 8.1411467 -1.9391134
2.1264946 8.0858212 -1.9287994
2.1801212 8.0876579 -1.9324666
2.2289279 8.0713139 -1.931779
2.263581 8.0050325 -1.9189438
2.315362 8.0003433 -1.9212358
2.3561189 7.9579854 -1.9143598
2.4015198 7.932199 -1.9116094
2.4553246 7.934052 -1.915735
2.4945714 7.8891377 -1.9084005
2.5596814 7.9255548 -1.9212358
2.5982056 7.8791938 -1.9136722
2.6496069 7.8723283 -1.9159642
2.6858487 7.8209391 -1.9072546
2.740865 7.8245225 -1.912297
2.7927523 7.8185573 -1.9150474
2.8310165 7.7747493 -1.9084005
2.8776524 7.7544947 -1.9077129
2.9207044 7.7248554 -1.9047334
2.9743443 7.7231393 -1.908859
3.0056858 7.6639647 -1.8985449
3.0537372 7.6480899 -1.8992325
3.0973096 7.6210928 -1.8971697
3.147361 7.6100402 -1.8992325
3.1928637 7.5878935 -1.8985449
3.2405109 7.5708442 -1.8992325
3.2845731 7.5454631 -1.8978573
3.3308094 7.525167 -1.8978573
3.3677344 7.4841719 -1.8925858
3.415617 7.467793 -1.8937317
3.4556308 7.4343367 -1.890523
3.5161457 7.4446793 -1.8987741
3.5592327 7.4176989 -1.8973989
3.5948722 7.3755951 -1.8921274
3.6391966 7.3516541 -1.8916689
3.6746204 7.3100524 -1.8866266
3.7154226 7.2795644 -1.8845637
3.7376308 7.2134166 -1.8731037
3.809911 7.2437606 -1.8873142
3.853828 7.2193885 -1.887085
3.8952711 7.1904707 -1.8857098
3.9557273 7.19629 -1.8937317
3.9898529 7.1540298 -1.8889185
4.0317569 7.1260252 -1.8880018
4.0715299 7.0943985 -1.8861681
4.1120458 7.0642352 -1.8847929
4.1488814 7.0279741 -1.8818133
4.1839275 6.9890213 -1.8781462
4.2216821 6.9548969 -1.8758541
4.2775407 6.9504161 -1.8818133
4.3252592 6.9322972 -1.8841053
4.355227 6.8858833 -1.8786045
4.3963451 6.8573914 -1.8781462
4.4457631 6.8417139 -1.8813549
4.4737411 6.79317 -1.8753958
4.5158792 6.7664013 -1.8756249
4.5725794 6.7611418 -1.8820425
4.5985732 6.710475 -1.8756249
4.6535392 6.7021217 -1.8813549
4.6878552 6.663888 -1.8786045
4.7179227 6.6199369 -1.8742497
4.7521863 6.5821824 -1.8717285
4.787313 6.5458283 -1.8696657
4.8227525 6.5100732 -1.8678321
4.8573489 6.4733515 -1.8657693
4.8893213 6.4333506 -1.8627898
4.9298906 6.4047718 -1.8632481
4.9625144 6.3659573 -1.860727
5.0135441 6.3506684 -1.8653109
5.0505934 6.3175054 -1.8646233
5.051291 6.2394896 -1.8504128
5.1005878 6.2219281 -1.8545384
5.1330738 6.1837735 -1.8524756
5.1840711 6.16781 -1.8572888
5.2268653 6.1418152 -1.8591225
5.227602 6.0668573 -1.8458289
5.2704878 6.0412688 -1.8478917
5.3184114 6.0212188 -1.851788
5.3546076 5.9877467 -1.8515589
5.3958197 5.9598303 -1.8531632
5.4730625 5.9711003 -1.8673737
5.4990048 5.9259892 -1.8637065
5.5305972 5.8871703 -1.8621022
5.5518594 5.837606 -1.8570597
5.5963497 5.8125467 -1.8600394
5.6149254 5.7606716 -1.8543093
5.6706753 5.7468977 -1.8611853
5.6851945 5.6913342 -1.8543093
5.7456164 5.6816683 -1.8627898
5.7977772 5.663312 -1.8685197
5.8394217 5.6343899 -1.8708117
5.8478146 5.5736046 -1.8623313
5.8776517 5.5336146 -1.8609561
5.9171968 5.502749 -1.8627898
5.9537168 5.4689722 -1.8637065
5.9972534 5.4414954 -1.8669153
6.0486498 5.4208364 -1.8726454
6.0766959 5.3791041 -1.8710409
6.0898027 5.3244171 -1.8648525
6.1260414 5.2901316 -1.8659985
6.1302443 5.2284393 -1.8572888
6.1942205 5.2176929 -1.8671445
6.2298603 5.1827006 -1.8682905
6.244998 5.1307826 -1.8632481
6.2922349 5.105247 -1.8680613
6.3226824 5.0659337 -1.8678321
6.3681502 5.0385194 -1.8721869
6.3958778 4.996953 -1.8712701
6.4140878 4.948101 -1.8676029
6.4481993 4.9116011 -1.8687489
6.4906616 4.8813047 -1.8724161
6.5384645 4.8547335 -1.8776877
6.5547843 4.8047395 -1.8737913
6.5904503 4.7689953 -1.8756249
6.6251326 4.7324276 -1.8772293
6.6588182 4.6950536 -1.8786045
6.7050776 4.6663404 -1.883647
6.703898 4.6047187 -1.8751665
6.7553902 4.5793376 -1.8818133
6.7793164 4.5350952 -1.8806673
6.8037663 4.4912672 -1.8797505
6.8377209 4.4536862 -1.8815842
6.8297095 4.3890171 -1.8717285
6.8441806 4.3392096 -1.8682905
6.8954334 4.3126183 -1.8751665
6.9441319 4.2840276 -1.8813549
6.9636354 4.2372904 -1.8795214
6.9803233 4.1889725 -1.8770001
7.0125961 4.1500292 -1.8788338
7.0320435 4.1034884 -1.8772293
7.0596209 4.0617199 -1.8779169
7.0818701 4.0168853 -1.8772293
7.0902424 3.96433 -1.8728745
7.1442699 3.9371951 -1.8808966
7.1571741 3.8872447 -1.8779169
7.2083526 3.8579552 -1.8852513
7.235333 3.8154693 -1.8861681
7.2707005 3.7772853 -1.889377
7.2902746 3.730828 -1.8884602
7.3147678 3.6869018 -1.8889185
7.333765 3.6402187 -1.8880018
7.3515902 3.5930138 -1.8868557
7.3656044 3.5440388 -1.8847929
7.3863316 3.4983609 -1.8845637
7.4014826 3.4500945 -1.8829594
7.4508238 3.4176025 -1.8902937
7.4583459 3.3658142 -1.8868557
7.4815264 3.3211722 -1.8875433
7.5204968 3.2833838 -1.8923565
7.5056195 3.2221999 -1.8834177
7.53332 3.1794925 -1.8854805
7.574265 3.1421616 -1.8909813
7.5879941 3.0934227 -1.8896061
7.594182 3.0417378 -1.8863974
7.6271954 3.0007861 -1.8900646
7.6472802 2.9546318 -1.890523
7.6534343 2.9031649 -1.8875433
7.6847868 2.8612447 -1.8909813
7.7067695 2.8157084 -1.8921274
7.7092409 2.7631121 -1.8884602
7.7324777 2.7180169 -1.8900646
7.765574 2.6762295 -1.8941902
7.8012147 2.6350729 -1.8990034
7.8181605 2.5874617 -1.8992325
7.8061118 2.5304358 -1.8923565
7.8075747 2.4780731 -1.8889185
7.8217034 2.4298313 -1.8886894
7.847641 2.3851895 -1.8914398
7.9106455 2.3514166 -1.9033582
7.9183817 2.3009319 -1.9017538
7.9407783 2.2546957 -1.9038166
7.9300761 2.1991651 -1.8978573
7.9265089 2.1458864 -1.8937317
7.9592891 2.1024313 -1.8985449
7.9899492 2.0581686 -1.9028997
7.9901543 2.0060227 -1.8999202
7.9975853 1.9558018 -1.8987741
8.0113287 1.9071437 -1.8992325
8.0266733 1.8588297 -1.9001493
8.0170364 1.8048398 -1.8951069
8.0450764 1.7593582 -1.8992325
8.0604811 1.7109722 -1.9003786
8.0889416 1.6652118 -1.9047334
8.1190529 1.6195472 -1.9095466
8.114501 1.5669302 -1.9061086
8.1756315 1.5267625 -1.9184854
8.1225815 1.4653333 -1.9035873
8.1458044 1.4179713 -1.9070253
8.1418724 1.3658687 -1.9040458
8.1558657 1.3168166 -1.905421
6.005374 0.93172759 -1.3910953
0 0 -0
0 0 -0
0 0 -0
0 0 -0
0 0 -0
0 0 -0
0 0 -0
0 0 -0
0 0 -0
0 0 -0
0 0 -0
0 0 -0
0 0 -0
0 0 -0
0 0 -0
0 0 -0
0 0 -0
0 0 -0
0 0 -0
0 0 -0
0 0 -0
0 0 -0
0 0 -0
0 0 -0
0 0 -0
0 -0 -0
0 -0 -0
0 -0 -0
0 -0 -0
0 -0 -0
0 -0 -0
0 -0 -0
0 -0 -0
0 -0 -0
0 -0 -0
5.8275971 -0.39088276 -1.3353996
5.8425632 -0.42791146 -1.3395252
5.8582635 -0.4652155 -1.3438801
5.877605 -0.50306004 -1.3491516
0 -0 -0
5.9233017 -0.58027065 -1.3615284
6.0677562 -0.63202369 -1.3965961
8.2145424 -0.90647721 -1.9061086
8.2474985 -0.96136975 -1.9152766
8.2027998 -1.0072141 -1.9061086
8.0883417 -1.0435815 -1.8804381
7.7306719 -1.0457145 -1.7970092
7.5217156 -1.0644966 -1.7488772
7.4360824 -1.0989639 -1.7300826
7.326261 -1.1287167 -1.7055582
7.2317367 -1.1596289 -1.684701
7.1831989 -1.197102 -1.6748453
7.3934445 -1.2788017 -1.7268739
7.3365951 -1.3153847 -1.7151847
7.3312573 -1.3609093 -1.7158723
7.319901 -1.4053171 -1.7151847
7.3044567 -1.4488794 -1.7135803
7.2649136 -1.4874253 -1.7062458
7.2489834 -1.5305667 -1.7046415
7.2470646 -1.5766718 -1.706475
7.1954603 -1.6117501 -1.6963903
7.1712074 -1.6525923 -1.6929522
7.1334643 -1.6900568 -1.6863054
7.1125565 -1.7312633 -1.6837842
7.1102991 -1.7769961 -1.685847
7.0822897 -1.8162392 -1.6817214
7.0663056 -1.8584236 -1.6805754
7.0181155 -1.891868 -1.6716366
6.9810419 -1.9279001 -1.6654482
6.9718909 -1.9714931 -1.6661358
6.9456372 -2.0101764 -1.6626978
6.9210391 -2.0491645 -1.6597182
6.8924975 -2.0867984 -1.6558218
6.8795633 -2.1290507 -1.6558218
6.806972 -2.1524439 -1.641153
6.8140149 -2.2007506 -1.6461953
6.8059297 -2.244348 -1.6475705
6.8233967 -2.2966216 -1.6553633
6.7944465 -2.3333881 -1.6516961
6.7607093 -2.3682773 -1.6468829
6.725884 -2.4025133 -1.6418406
6.7530894 -2.4590554 -1.6523838
6.7141466 -2.4916415 -1.6464245
6.7205834 -2.5410526 -1.6519253
6.701232 -2.5808425 -1.6510085
6.6771145 -2.6187136 -1.6489457
6.6491685 -2.6549428 -1.6459662
6.6336546 -2.6960576 -1.6461953
6.645771 -2.7486131 -1.6535298
6.5937901 -2.7746174 -1.644591
6.5676923 -2.8111942 -1.6422989
6.5217595 -2.839009 -1.6349645
6.5184584 -2.8852754 -1.6386317
6.4926429 -2.921623 -1.6365689
6.4728236 -2.9605966 -1.6361105
6.4457088 -2.9961548 -1.6338185
6.3937569 -3.0198536 -1.625109
6.383883 -3.0632386 -1.6274009
6.3579674 -3.0989404 -1.6255673
6.3545356 -3.1456659 -1.6296929
6.3142414 -3.1741064 -1.6241921
6.2643018 -3.197304 -1.61617
6.242837 -3.2347853 -1.6157117
6.2108097 -3.2666867 -1.6125029
6.2121167 -3.3161926 -1.6182328
6.1522813 -3.3329213 -1.6076896
6.1556001 -3.3837359 -1.6141073
6.1457734 -3.4276052 -1.6170869
6.1203904 -3.4628541 -1.6159409
6.0863638 -3.4930758 -1.6125029
6.0749111 -3.536231 -1.6152533
6.074893 -3.5863039 -1.6212125
6.0310588 -3.6105132 -1.6152533
6.0054631 -3.645431 -1.6143365
6.0211158 -3.7056775 -1.6248797
6.0065231 -3.7477047 -1.6271718
5.9875278 -3.7870908 -1.6283177
5.9436917 -3.8106256 -1.6225877
5.9177494 -3.8454328 -1.6219001
5.8542085 -3.8554401 -1.6106693
5.8215351 -3.8853447 -1.6081481
5.8766055 -3.9744277 -1.6306098
5.8248072 -3.9917042 -1.6228169
5.8090005 -4.0334759 -1.6253381
5.8064342 -4.0847235 -1.6317557
5.7860179 -4.1236634 -1.6331309
5.8040137 -4.190424 -1.6457369
5.7491212 -4.2046986 -1.6372565
5.7286887 -4.2439508 -1.6388609
5.7321272 -4.3012199 -1.6475705
5.6916776 -4.3257098 -1.6434449
5.6966543 -4.3848929 -1.6528422
5.6565909 -4.4095917 -1.6489457
5.6225514 -4.4387889 -1.6468829
5.5860858 -4.4659114 -1.6441325
5.5426903 -4.4872417 -1.6393193
5.5158057 -4.5217834 -1.6395485
5.5418844 -4.6003032 -1.6560509
5.476295 -4.6029081 -1.644591
5.4316401 -4.6225452 -1.6395485
5.3781018 -4.6341844 -1.6317557
5.3253598 -4.6459813 -1.6241921
5.3222876 -4.7011218 -1.6322141
5.3767862 -4.8083043 -1.6585722
5.3392444 -4.8340192 -1.6560509
5.2936959 -4.8522205 -1.6510085
5.2331414 -4.856142 -1.641153
5.1933136 -4.8788304 -1.6379441
5.1315384 -4.8804193 -1.6276301
5.1253381 -4.9347668 -1.6354229
5.0942655 -4.9654431 -1.6351937
5.0408363 -4.9740477 -1.6276301
5.0281272 -5.0227685 -1.6335893
5.0136404 -5.0701361 -1.6390902
2.3038275 -2.3588653 -0.73649901
2.2899864 -2.3736572 -0.73672819
2.276722 -2.3890727 -0.73718661
2.2980523 -2.4412661 -0.7495634
4.8226104 -5.185905 -1.6276301
4.7801633 -5.2039289 -1.6239629
4.7435641 -5.228116 -1.6223584
4.7152934 -5.2614722 -1.6237336
4.6822758 -5.289577 -1.6235045
4.6452465 -5.3130779 -1.6219001
4.6106501 -5.3392706 -1.6212125
4.5670633 -5.3548708 -1.6173161
4.5247135 -5.3716269 -1.6138781
4.4954038 -5.4037781 -1.6152533
4.463398 -5.4327641 -1.6157117
4.4305925 -5.4608045 -1.6159409
4.3957849 -5.4863682 -1.6154824
4.3662667 -5.51858 -1.6170869
2.0130105 -2.5769494 -0.73008138
1.9906203 -2.580775 -0.72756016
1.9682591 -2.5844233 -0.72503895
1.9476836 -2.5902283 -0.72320539
1.9265308 -2.5950971 -0.72114253
1.8432384 -2.5150206 -0.6943261
1.7307582 -2.3922303 -0.65536207
1.7143497 -2.400429 -0.65467447
4.0067697 -5.6827526 -1.5973756
3.9962919 -5.742383 -1.6074605
3.9631867 -5.7700047 -1.6083772
3.9260695 -5.7917967 -1.6076896
3.8920815 -5.8182049 -1.6083772
3.861135 -5.8492875 -1.61044
3.8102956 -5.8500323 -1.6040225
3.782223 -5.8855844 -1.6074605
3.7444746 -5.9062142 -1.6067729
3.7091968 -5.9307294 -1.6072313
3.6614921 -5.9351525 -1.6021888
3.6381624 -5.9791265 -1.6081481
3.5958967 -5.9921565 -1.6056268
3.5575745 -6.0115948 -1.6049392
3.5147336 -6.0232224 -1.6021888
3.4767385 -6.0429878 -1.6017305
3.4376729 -6.0608201 -1.6008136
1.6417042 -2.9366806 -0.75231379
1.6255335 -2.9501085 -0.75323063
1.6055429 -2.9566057 -0.75231379
3.2796292 -6.1279125 -1.596688
3.263309 -6.1883864 -1.6074605
3.2216861 -6.2013831 -1.6056268
3.1813571 -6.216702 -1.6044809
3.1326365 -6.2152448 -1.5989801
3.0940087 -6.2334776 -1.5987508
3.0433064 -6.226984 -1.5921041
3.0054631 -6.246417 -1.5923332
2.9737463 -6.2788157 -1.5960004
2.9368093 -6.3004732 -1.5969173
2.8932247 -6.3077574 -1.5941669
2.8540661 -6.3245039 -1.5939376
2.8183658 -6.3490143 -1.5957712
2.7785769 -6.3644042 -1.5953128
2.7279525 -6.3545008 -1.5884368
2.6866393 -6.3657389 -1.5870616
2.6538708 -6.397388 -1.590958
2.6167722 -6.4189596 -1.5923332
2.5863862 -6.4574842 -1.5980632
2.5402997 -6.4569283 -1.5939376
2.4953701 -6.4587746 -1.5904996
2.4432631 -6.4412012 -1.5822484
2.4016564 -6.4505982 -1.5808733
2.3603609 -6.4606419 -1.5797272
2.3203461 -6.4740872 -1.5794981
2.2812238 -6.4900389 -1.5799564
2.2429447 -6.5085154 -1.5811024
2.1995401 -6.5120115 -1.5785812
2.1567888 -6.5170684 -1.5765184
2.1179612 -6.5338831 -1.5774353
2.0728233 -6.5309839 -1.5735388
2.0350215 -6.5510159 -1.5753725
1.9970517 -6.5708299 -1.577206
1.9544772 -6.5754957 -1.5753725
1.9176254 -6.5995154 -1.578352
1.8731067 -6.5971122 -1.574914
1.8299907 -6.5991015 -1.5726221
1.7978603 -6.641211 -1.5801857
1.7518554 -6.6323543 -1.5753725
1.7273984 -6.7061329 -1.5907289
1.6776834 -6.6826191 -1.5824776
1.6378044 -6.697515 -1.5836236
1.5919436 -6.6875534 -1.5788105
1.5526367 -6.7047815 -1.580644
1.5121093 -6.717031 -1.5813316
1.4710739 -6.7271333 -1.5815609
1.4301736 -6.7379375 -1.5820192
1.386644 -6.7360988 -1.5794981
1.3466192 -6.7511621 -1.5811024
1.3068309 -6.7678995 -1.5831652
1.2645643 -6.7719631 -1.5822484
1.2214328 -6.7709737 -1.5801857
1.1808658 -6.7840943 -1.5815609
1.1390561 -6.7902527 -1.5813316
1.0975256 -6.7980747 -1.5815609
1.0547477 -6.7979479 -1.5799564
1.0112957 -6.7927389 -1.577206
0.97028458 -6.8036342 -1.578352
0.92983568 -6.8191042 -1.580644
0.88697177 -6.8169594 -1.5788105
0.84560585 -6.8261371 -1.5797272
0.80268145 -6.8224969 -1.5776644
0.76091212 -6.8282609 -1.5778936
0.71869463 -6.8298974 -1.577206
0.67667764 -6.83321 -1.5769768
0.63455707 -6.8352947 -1.5765184
0.59243637 -6.8371201 -1.5760601
0.55195796 -6.8590612 -1.5804148
0.51022202 -6.8671722 -1.5815609
0.46708295 -6.855607 -1.5781229
0.42386401 -6.8398852 -1.573768
0.38085559 -6.8238916 -1.5694132
0.33994451 -6.8455439 -1.5739973
0.29861253 -6.86306 -1.5776644
0.25609556 -6.8540635 -1.5751432
0.21427844 -6.8632889 -1.5769768
0.17225991 -6.8683667 -1.5778936
0.12968789 -6.846911 -1.5726221
0.087698631 -6.849524 -1.5730804
0.045623265 -6.8431201 -1.571476
0.0036395472 -6.8530049 -1.573768
-0.038485356 -6.8665252 -1.5769768
-0.080594093 -6.864213 -1.5765184
-0.12309215 -6.8850002 -1.5815609
-0.16507894 -6.8734117 -1.5790396
-0.20695744 -6.8625398 -1.5767477
-0.24937859 -6.8698955 -1.5788105
-0.29127944 -6.862401 -1.5774353
-0.33342806 -6.8614564 -1.5776644
-0.37546974 -6.8583097 -1.5774353
-0.41807652 -6.8646212 -1.5794981
-0.46025422 -6.8628979 -1.5797272
-0.50050861 -6.8347039 -1.573768
-0.54251313 -6.8324747 -1.5739973
-0.58500677 -6.8358059 -1.5756016
-0.62765062 -6.8398423 -1.5774353
-0.66989183 -6.8387685 -1.5781229
-0.71224421 -6.8384023 -1.5790396
-0.75355017 -6.8280983 -1.5776644
-0.79565769 -6.8252797 -1.5781229
-0.83953774 -6.8366933 -1.5820192
-0.88122207 -6.8294826 -1.5815609
-0.92284954 -6.8220177 -1.5811024
-0.96537304 -6.8210454 -1.5822484
-1.0137519 -6.8592882 -1.5927917
-1.0547835 -6.8462048 -1.5911872
-1.0932276 -6.8174982 -1.5859157
-1.1404769 -6.843307 -1.5937084
-1.1832745 -6.8409762 -1.5948545
-1.2238538 -6.825922 -1.5930208
-1.2578993 -6.7761745 -1.582936
-1.2924815 -6.7320032 -1.5742264
-0.82521152 -4.1593862 -0.95859414
-1.3779241 -6.7299395 -1.5776644
-1.418187 -6.7165961 -1.5765184
-1.4602002 -6.7115726 -1.5774353
-1.5019922 -6.7053361 -1.5781229
-1.5490075 -6.7216039 -1.5843112
-1.5917917 -6.7186031 -1.5859157
-0.73100191 -3.0022078 -0.68767929
-0.74799365 -2.9919999 -0.68630409
-0.76512939 -2.9826396 -0.68515807
-1.7747597 -6.7481189 -1.6031057
-0.80091345 -2.970206 -0.68447047
-0.81575543 -2.9530382 -0.6814909
-0.83942062 -2.9676473 -0.68630409
-0.86275452 -2.9802063 -0.69065893
-1.9809216 -6.6905026 -1.6031057
-2.0191164 -6.6689057 -1.6008136
-2.063163 -6.6666198 -1.6033349
-1.0667912 -3.3729968 -0.7931115
-1.0934496 -3.3849134 -0.79769546
-2.1992395 -6.6691136 -1.6136489
-1.0902001 -3.238394 -0.76469064
-1.1018312 -3.2077076 -0.75873142
-1.1214925 -3.2008865 -0.75873142
-1.4963208 -4.1885343 -1.0074139
-1.1403749 -3.1310894 -0.7447502
-1.1345086 -3.0565021 -0.72778934
-1.1546184 -3.0531251 -0.72870618
-1.2215998 -3.1713371 -0.7603358
-1.6379577 -4.1760058 -1.0163527
-1.6628286 -4.1640687 -1.0158943
-2.6333964 -6.4794521 -1.607002
-1.2525645 -3.0279644 -0.73168576
-1.2654581 -3.0067637 -0.72824776
-1.2808197 -2.9917834 -0.72641414
-1.2991527 -2.9838681 -0.72641414
-1.8819375 -4.2513609 -1.0548583
-1.8616595 -4.1367636 -1.0282711
-1.8639323 -4.0748062 -1.0152067
-1.8884895 -4.0624099 -1.0149775
-1.9308379 -4.0877132 -1.0246038
-1.9205153 -4.00207 -1.0053511
-1.9595338 -4.0199609 -1.0131439
-1.9971166 -4.0340328 -1.0200199
-2.0165858 -4.0112662 -1.0172695
-2.0526643 -4.0213594 -1.0232286
-2.0884945 -4.0302958 -1.0289587
-2.1258705 -4.0415273 -1.0353763
-2.1382535 -4.0052218 -1.0291879
-2.2031224 -4.0664883 -1.0491283
-2.1989639 -4.0000062 -1.034918
-2.1978662 -3.9405313 -1.022541
-2.2004361 -3.8888469 -1.0122271
-2.2402437 -3.9031322 -1.0197906
-2.2680676 -3.8960431 -1.0216243
-2.2879722 -3.8753471 -1.0197906
-2.3197067 -3.8745985 -1.0234579
-2.3489926 -3.8694453 -1.025979
-2.3482044 -3.8151677 -1.0149775
-2.3808434 -3.8155527 -1.0191031
-2.4151361 -3.8181484 -1.0239162
-2.4269614 -3.7852294 -1.0188738
-2.445899 -3.7637367 -1.0170403
-2.4593108 -3.734025 -1.0129147
-2.4616446 -3.688098 -1.004205
-2.4918616 -3.6842127 -1.0074139
-2.5688903 -3.7483468 -1.0301046
-2.5463219 -3.666949 -1.0113102
-2.5491736 -3.6233907 -1.0032883
-2.5826559 -3.6235352 -1.0078722
-2.6789069 -3.7102182 -1.0376683
-2.6958764 -3.685854 -1.0353763
-2.7445138 -3.7044404 -1.0456903
-2.7625186 -3.6813018 -1.0438567
-2.7715092 -3.6464572 -1.0385851
-2.7534611 -3.5769298 -1.0229995
-2.8160481 -3.6121719 -1.0385851
-2.838762 -3.5955889 -1.0388143
-2.8486152 -3.5628967 -1.0342302
-2.8728728 -3.5483773 -1.0351471
-2.8452263 -3.470459 -1.016811
-2.9006588 -3.4941306 -1.029417
-2.9107714 -3.4628537 -1.0252914
-2.9717054 -3.4916308 -1.0397311
-3.0013332 -3.4829175 -1.0427107
-3.0450428 -3.4901092 -1.0507327
-3.1044171 -3.5144043 -1.0642556
-3.1304646 -3.5003691 -1.0658599
-3.260324 -3.6008825 -1.1039072
-3.6013281 -3.9288406 -1.2150694
-3.3281012 -3.5862896 -1.1121584
-3.3213871 -3.5352943 -1.1023028
-3.1880691 -3.3519094 -1.0493575
-3.337517 -3.4662201 -1.0931348
-3.3607607 -3.4477675 -1.0938224
-3.4064636 -3.4520257 -1.1020736
-3.4365232 -3.440012 -1.1050532
-3.4707155 -3.4318657 -1.109408
-3.5167737 -3.4349923 -1.1176592
-3.4565337 -3.3349435 -1.091072
-3.5833216 -3.4150834 -1.1256813
-3.4412124 -3.2395616 -1.0729651
-3.4588871 -3.216397 -1.0722775
-3.4821415 -3.1984057 -1.0734235
-3.4952133 -3.1710925 -1.0713607
-3.4022546 -3.0488875 -1.0358347
-3.409966 -3.0182762 -1.0323967
-3.6379907 -3.1805441 -1.097948
-3.7244751 -3.216058 -1.1188053
-3.8530018 -3.2860024 -1.1524976
-3.8083265 -3.2077386 -1.1325573
-3.5271356 -2.9340451 -1.0404187
-3.6180227 -2.9722888 -1.0626512
-3.6361923 -2.9500329 -1.0626512
-3.591938 -2.8777552 -1.0438567
-3.6202145 -2.8641171 -1.0470655
-3.6453903 -2.8478432 -1.0493575
-3.6836038 -2.8414757 -1.0555459
-3.692452 -2.8123317 -1.0530248
-3.6979702 -2.7808461 -1.0495868
-3.7016783 -2.7482381 -1.0456903
-3.7043409 -2.7151146 -1.0415647
-3.7209308 -2.6923339 -1.0415647
-3.6914427 -2.6366346 -1.0282711
-3.7131197 -2.6178613 -1.0298755
-3.7315094 -2.5966969 -1.0305631
-3.7754531 -2.5930419 -1.0385851
-3.7590654 -2.5479789 -1.029417
-3.8150797 -2.5519288 -1.0408771
-3.8379772 -2.5332983 -1.0429399
-3.8077755 -2.479949 -1.0301046
-3.8548553 -2.4770629 -1.0390435
-3.7894201 -2.402282 -1.0165819
-3.8304965 -2.3955033 -1.0239162
-3.8592057 -2.3806436 -1.0278127
-3.9020116 -2.3741238 -1.0356055
-3.9440475 -2.3666668 -1.0431691
-3.914099 -2.3161457 -1.0310215
-3.9299183 -2.293067 -1.0314798
-3.9388521 -2.2659974 -1.0301046
-3.9653816 -2.2489905 -1.0335426
-3.9876022 -2.229368 -1.0358347
-3.9833043 -2.1949916 -1.0310215
-3.9984083 -2.1714385 -1.0314798
-3.9730389 -2.1261928 -1.0211658
-3.9989247 -2.1085858 -1.0246038
-4.0178337 -2.0871508 -1.0262083
-4.0270987 -2.0606847 -1.0252914
-4.034452 -2.0333071 -1.0239162
-4.052083 -2.0111108 -1.0252914
-4.0608487 -1.9844999 -1.0243747
-4.0948768 -1.9700978 -1.0301046
-4.140316 -1.9607693 -1.0388143
-4.1637378 -1.9406745 -1.0417939
-4.1640658 -1.9098135 -1.0388143
-4.1801414 -1.8862295 -1.0399603
-4.2174363 -1.8719995 -1.0466071
-4.2618489 -1.8604984 -1.0550876
-4.2874951 -1.8404577 -1.0587547
-4.2753916 -1.8042736 -1.0527955
-4.3583074 -1.8078483 -1.0711316
-4.3873448 -1.7884223 -1.0757155
-4.4325714 -1.775223 -1.0844252
-4.5357699 -1.7843461 -1.1078036
-4.5566206 -1.7603409 -1.1103249
-4.6019197 -1.7454692 -1.1190344
-4.6171036 -1.7188979 -1.1201805
-4.6312208 -1.6918718 -1.1210972
-4.7065711 -1.6867441 -1.1373705
-4.8564115 -1.7069039 -1.1722089
-5.0747695 -1.7487589 -1.2240082
-5.1352015 -1.734411 -1.236385
-5.2464709 -1.7362098 -1.2613679
-5.2977662 -1.7171942 -1.2714527
-5.3091307 -1.6849499 -1.2716819
-5.4857578 -1.7040398 -1.3127087
-5.8621111 -1.7816082 -1.4027845
-5.8785305 -1.7472697 -1.4041597
-6.1583352 -1.7894038 -1.4701694
-6.8293276 -1.9390538 -1.6317557
-6.8486004 -1.8991946 -1.6335893
-6.9794469 -1.8894461 -1.6626978
-6.9946737 -1.84758 -1.6636145
-6.992682 -1.8012267 -1.6604058
-7.1773109 -1.8019071 -1.7025787
-7.1929598 -1.7589903 -1.7037246
-7.3049364 -1.7389468 -1.7282491
-7.4017615 -1.71408 -1.7491063
-7.5640764 -1.7028439 -1.7857784
-7.910049 -1.7298225 -1.8666861
-8.1290359 -1.7255276 -1.916881
-8.1814194 -1.6842541 -1.9269658
-8.2183275 -1.6393549 -1.9333835
-8.235877 -1.5903742 -1.935217
-8.2627029 -1.543027 -1.9393426
-8.2758474 -1.4929904 -1.9402595
-8.2973185 -1.4443533 -1.9432391
-8.3079443 -1.393737 -1.9436975
-8.2356224 -1.3296977 -1.9244446
-8.276329 -1.2842159 -1.9322374
-8.2802019 -1.2328357 -1.9313207
-8.3059196 -1.1846181 -1.9356754
-8.3159256 -1.1340264 -1.936363
-8.3053532 -1.0807179 -1.9322374
-8.3330793 -1.0323707 -1.9372798
-8.33249 -0.98042393 -1.9356754
-8.3789797 -0.93380827 -1.9453019
-8.3622866 -0.88003409 -1.9400302
-8.3258772 -0.82458043 -1.9301746
-8.3298111 -0.77338827 -1.9299455
-8.3499155 -0.72360826 -1.9336126
-8.3483772 -0.67189175 -1.9322374
-8.3329287 -0.61921084 -1.9276534
-8.3472538 -0.56879777 -1.9301746
-8.3068686 -0.51485753 -1.9198606
-8.3263931 -0.46480092 -1.923757
-8.3329763 -0.41389573 -1.9246738
-8.3314695 -0.36258826 -1.923757
-8.3724451 -0.31291652 -1.932925
-8.3732347 -0.26150784 -1.9326959
-7.9111552 0.57979822 -1.9303161
-7.9064813 0.62825221 -1.9300749
-7.893775 0.67600709 -1.9279053
-7.894311 0.72487408 -1.9291106
-7.8761921 0.77197164 -1.9257356
-7.8828902 0.82149339 -1.9286286
-7.8603382 0.8679266 -1.9242891
-7.8442612 0.91490209 -1.9216373
-7.8404264 0.96325332 -1.9221195
-7.8391809 1.0119652 -1.9233248
-7.8126278 1.0573101 -1.9182622
-7.8405857 1.1101307 -1.926941
-7.8125052 1.1550927 -1.9216373
-7.8350048 1.2075949 -1.9291106
-7.7862434 1.2490309 -1.9187444
-7.7899203 1.2986997 -1.9216373
-7.7693734 1.3443204 -1.9185034
-7.7753072 1.3945391 -1.9221195
-7.7408414 1.4374334 -1.9156104
-7.7623739 1.4907651 -1.9233248
-7.7673593 1.5412014 -1.926941
-7.7073674 1.5785043 -1.9141641
-7.7013345 1.6265689 -1.9151284
-7.6836228 1.6721406 -1.9131997
-7.7006812 1.7254125 -1.9201909
-7.6691446 1.7678316 -1.9148872
-7.6326561 1.808809 -1.9083782
-7.6214142 1.8556081 -1.9083782
-7.6522522 1.912935 -1.9192266
-7.6234498 1.9555093 -1.9148872
-7.643218 2.0106485 -1.9230838
-7.6138706 2.0529583 -1.9187444
-7.5880346 2.0960178 -1.9153694
-7.6049137 2.1509945 -1.9230838
-7.562674 2.1892469 -1.9156104
-7.5323496 2.2306466 -1.9112711
-7.4971581 2.2703495 -1.9057264
-7.5628138 2.3410003 -1.9264588
-7.5214744 2.3788695 -1.9194677
-7.5141239 2.4273634 -1.9213963
-7.46591 2.4624751 -1.9127176
-7.4616966 2.511956 -1.9156104
-7.4351296 2.5539076 -1.9127176
-7.4303093 2.6033332 -1.9156104
-7.3904347 2.6403828 -1.9093425
-7.3795657 2.6876733 -1.910789
-7.3811316 2.7396598 -1.9156104
-7.325151 2.7701309 -1.9052442
-7.3034878 2.8132801 -1.9040389
-7.274344 2.8534317 -1.9009049
-7.2476859 2.8944118 -1.8984941
-7.2423759 2.9439466 -1.9018692
-7.2340403 2.9924116 -1.904521
-7.2441659 3.0487938 -1.9122354
-7.2056956 3.08478 -1.9069318
-7.1643877 3.1192465 -1.9009049
-7.1353521 3.1588247 -1.8982531
-7.1193757 3.2041407 -1.8992174
-7.1092887 3.2522066 -1.9018692
-7.0812798 3.2920835 -1.8996994
-7.0802507 3.344594 -1.9050032
-7.0613451 3.3888147 -1.9054853
-7.0107603 3.4176152 -1.8972888
-6.974874 3.4532454 -1.8931905
-6.9518199 3.4951053 -1.8927083
-6.9708667 3.55844 -1.9040389
-6.9368391 3.594892 -1.9006639
-6.9266744 3.6437151 -1.9040389
-6.8708005 3.6683166 -1.894637
-6.8737597 3.7242796 -1.9018692
-6.8422747 3.7617095 -1.8994584
-6.8300819 3.8097696 -1.9025924
-6.8361373 3.8683393 -1.9110301
-6.8038568 3.9053798 -1.9086193
-6.7957001 3.9563336 -1.9131997
-6.7119665 3.9629149 -1.8960834
-6.7000127 4.0115042 -1.8996994
-6.6727839 4.0510278 -1.8989763
-6.6676359 4.1041074 -1.904762
-6.6316252 4.1382613 -1.9016281
-6.6011877 4.1757603 -1.9001817
-6.5901461 4.2256174 -1.904521
-6.5551434 4.2601557 -1.9018692
-6.5215864 4.2954912 -1.8996994
-6.4708934 4.3192587 -1.8924673
-6.4635606 4.3719344 -1.8982531
-6.4254069 4.4038291 -1.894878
-6.3886995 4.4365273 -1.8919851
-6.3653255 4.4784369 -1.8931905
-6.3796082 4.5472713 -1.9059675
-6.3539467 4.5880351 -1.9066907
-6.2982621 4.6068778 -1.8982531
-6.2535024 4.6333013 -1.8931905
-6.2342687 4.6785765 -1.8960834
-6.2170324 4.7255521 -1.8996994
-6.2017612 4.7742686 -1.9040389
-6.170054 4.8104415 -1.9033157
-6.1190963 4.831367 -1.8965656
-6.0772099 4.8591232 -1.8927083
-6.0638723 4.909759 -1.8980119
-6.0133715 4.9302568 -1.891503
-5.9889798 4.9720216 -1.8934315
-5.9620733 5.0117989 -1.894637
-5.9186468 5.0375915 -1.8905387
-5.9082079 5.0915556 -1.8972888
-5.8527265 5.1066523 -1.8893332
-5.8678265 5.1835966 -1.904762
-5.8228908 5.2078557 -1.9004227
-5.7886682 5.2415318 -1.8996994
-5.7556825 5.2762957 -1.8994584
-5.7153759 5.3042498 -1.8968066
-5.6961584 5.3518467 -1.901387
-5.6561818 5.3800073 -1.8989763
-5.6188703 5.4105721 -1.8975298
-5.5577722 5.4178448 -1.8878869
-5.5078483 5.4354815 -1.8821011
-5.4709606 5.4657445 -1.8808956
-5.4455075 5.5074935 -1.8837886
-5.4251719 5.5546908 -1.88861
-5.3829021 5.5794921 -1.8857172
-5.3418713 5.6053891 -1.8833064
-5.3126974 5.6437149 -1.885235
-5.2581453 5.654882 -1.8780028
-5.2391019 5.7041955 -1.8837886
-5.2066112 5.7391105 -1.8847529
-5.1648231 5.763721 -1.8823421
-5.1248584 5.790215 -1.8806546
-5.1071157 5.8420134 -1.8874047
-5.0724421 5.8747091 -1.8878869
-5.0274854 5.8953829 -1.8845118
-5.0149703 5.9543309 -1.8936726
-4.9802027 5.9872289 -1.8943958
-4.9365969 6.0094237 -1.891744
-4.9008532 6.0411086 -1.8922262
-4.8782539 6.0892463 -1.8980119
-4.8299627 6.1053624 -1.8936726
-4.7894235 6.1310587 -1.8924673
-4.760603 6.1718593 -1.8960834
-4.7244072 6.20327 -1.8968066
-4.6862559 6.2321415 -1.8968066
-4.637517 6.2467508 -1.8924673
-4.6059837 6.2844825 -1.8953601
-4.5656295 6.310267 -1.894637
-4.532464 6.3460608 -1.8970476
-4.5090942 6.3959641 -1.9037977
-4.4570179 6.4051867 -1.8982531
-4.402801 6.4108114 -1.891744
-4.3726368 6.4513645 -1.8958423
-4.3351274 6.4813004 -1.8968066
-4.3145189 6.5369406 -1.9054853
-4.278564 6.5697975 -1.907414
-4.2313533 6.5853109 -1.9042799
-4.191906 6.6127896 -1.904762
-4.161026 6.6540222 -1.9093425
-4.1201196 6.6794286 -1.9093425
-4.0664501 6.6838536 -1.9033157
-4.032351 6.7203307 -1.9066907
-4.0108037 6.7783589 -1.9163337
-3.9539793 6.7768531 -1.9088603
-3.9258695 6.8245435 -1.9156104
-3.8934937 6.8653889 -1.920432
-3.84372 6.8755946 -1.9165747
-3.7869444 6.8726974 -1.9091015
-3.7479441 6.9017749 -1.910789
-3.7188005 6.9494591 -1.9177802
-3.6674917 6.9558339 -1.9131997
-3.6341343 6.9962935 -1.9182622
-3.5973246 7.0305572 -1.9216373
-3.5619776 7.068099 -1.9259766
-3.5068963 7.0663481 -1.9194677
-3.4570825 7.0746522 -1.9158516
-3.4321148 7.1342149 -1.9264588
-3.3965802 7.1726837 -1.9312804
-3.3389807 7.1643586 -1.9233248
-3.2969804 7.1891227 -1.9245303
-3.2500136 7.2030244 -1.9228427
-3.2128398 7.2387986 -1.9271821
-3.1582716 7.2352486 -1.9209141
-3.1268282 7.2848148 -1.9291106
-3.0794301 7.2976041 -1.9274231
-3.0293913 7.3038106 -1.9240481
-2.9775615 7.3051848 -1.9194677
-2.9178946 7.286376 -1.9095836
-2.8926632 7.3538184 -1.9228427
-2.8443403 7.3632808 -1.920673
-2.8042667 7.394207 -1.9242891
-2.7635822 7.4240088 -1.9276642
-2.7193086 7.4444728 -1.9286286
-2.6804514 7.4802051 -1.9336911
-2.6316085 7.4882703 -1.9315214
-2.5799234 7.4877596 -1.9271821
-2.5261714 7.4804602 -1.9211552
-2.4823577 7.5022697 -1.9228427
-2.4392686 7.5265927 -1.9252535
-2.3939207 7.5441933 -1.9259766
-2.3507502 7.5689359 -1.9286286
-2.3020077 7.575788 -1.9266999
-2.2590723 7.6018648 -1.9298339
-2.2123857 7.6155829 -1.9298339
-2.1629667 7.619678 -1.9274231
-2.1179867 7.6393533 -1.9291106
-2.0710726 7.652205 -1.9291106
-2.0206134 7.6516318 -1.9257356
-1.975319 7.670465 -1.9274231
-1.9338837 7.7050333 -1.9332089
-1.8835757 7.7044983 -1.9300749
-1.8382872 7.7244081 -1.9322447
-1.7891065 7.7279778 -1.9303161
-1.741016 7.7359695 -1.9295928
-1.6937233 7.7474546 -1.9298339
-1.6409198 7.733017 -1.923566
-1.5983272 7.7667055 -1.9295928
-1.5472279 7.759234 -1.9252535
-1.5014269 7.778111 -1.9276642
-1.4558085 7.7986259 -1.9305571
-1.4086181 7.8112321 -1.9315214
-1.360829 7.8206844 -1.9317625
-1.3155427 7.8451591 -1.9358608
-1.2692348 7.8645806 -1.9387537
-1.2216977 7.8770161 -1.939959
-1.1719151 7.8747644 -1.9375483
-1.1212484 7.8654728 -1.93345
-1.072311 7.8673964 -1.9322447
-1.0235173 7.8699784 -1.9312804
-0.97580433 7.8809261 -1.9324857
-0.92629749 7.8771267 -1.9300749
-0.87944889 7.8961658 -1.93345
-0.83067828 7.8985176 -1.9327267
-0.78153014 7.8967052 -1.9310392
-0.73458391 7.9177804 -1.9351375
-0.68673974 7.9308405 -1.9373072
-0.63604522 7.9097528 -1.9310392
-0.58513343 7.8815675 -1.9230838
-0.53814328 7.9053431 -1.9281464
-0.49010548 7.9162455 -1.9300749
-0.44173864 7.9229798 -1.9310392
-0.392205 7.907124 -1.9264588
-0.34405833 7.918108 -1.9286286
-0.29557535 7.9229798 -1.9293517
-0.24785793 7.9537454 -1.936584
-0.19868799 7.9405632 -1.9329679
-0.15012549 7.950366 -1.9351375
-0.10109559 7.9317288 -1.9303161
-0.052456878 7.9370522 -1.9315214
-0.003749337 7.9197559 -1.9271821
0.044992011 7.9448624 -1.93345
0.093821071 7.95123 -1.9351375
0.14234394 7.9359493 -1.9315214
0.19166982 7.9611225 -1.9380305
0.23974897 7.9345751 -1.9317625
0.2891382 7.9523516 -1.936584
0.33689359 7.9261875 -1.9305571
0.38500109 7.9133081 -1.9279053
0.43381524 7.9156418 -1.9291106
0.48225814 7.9108939 -1.9286286
0.53280866 7.9378037 -1.9361018
0.57866096 7.895669 -1.9264588
0.62709701 7.8919697 -1.9264588
0.67750019 7.9111805 -1.9322447
0.7255851 7.9020419 -1.9310392
0.77367824 7.8935781 -1.9300749
0.81685954 7.8384881 -1.9175391
0.87059301 7.8844538 -1.9303161
0.91467696 7.8423333 -1.9211552
0.96254241 7.8346467 -1.920673
1.0117164 7.837256 -1.9228427
1.0550951 7.7962785 -1.9141641
1.1120374 7.8540382 -1.9303161
1.157082 7.8259459 -1.9250124
1.2064111 7.8273315 -1.9271821
1.2556468 7.8274474 -1.9291106
1.3031723 7.8167238 -1.9283874
1.349123 7.7971053 -1.9254946
1.3914527 7.7581129 -1.9177802
1.4406253 7.7580166 -1.9199498
1.4911314 7.7642798 -1.923807
1.5323172 7.7226191 -1.9156104
1.5884422 7.7558551 -1.9264588
1.6295792 7.7155776 -1.9187444
1.6737927 7.6912093 -1.9151284
1.7175564 7.6656423 -1.9112711
1.7756845 7.7031889 -1.923566
1.8132877 7.6515427 -1.9131997
1.8645673 7.6581879 -1.9177802
1.9126995 7.6513104 -1.9189855
1.9598523 7.6403704 -1.9192266
2.0084252 7.6347709 -1.9209141
2.0504303 7.6045008 -1.9163337
2.1092033 7.6357417 -1.9276642
2.1517873 7.6077151 -1.923807
2.200587 7.6018262 -1.9257356
2.2364366 7.5518904 -1.9163337
2.2801993 7.5296664 -1.9141641
2.3183184 7.4895759 -1.907414
2.3724282 7.5011177 -1.9141641
2.4184093 7.4864197 -1.9141641
2.467037 7.4797344 -1.9163337
2.5035918 7.4368639 -1.9091015
2.5453916 7.4103484 -1.9062085
2.5969124 7.4119921 -1.910789
2.6263366 7.3511381 -1.8989763
2.6730542 7.3394442 -1.9001817
2.7173622 7.3210845 -1.8996994
2.7653232 7.3124428 -1.9018692
2.8150251 7.3080158 -1.9052442
2.8683221 7.3122878 -1.9110301
2.8886507 7.2332664 -1.894637
2.9388282 7.2297897 -1.8984941
2.9775674 7.1981702 -1.894878
3.0152764 7.1645589 -1.8907797
3.070261 7.1717944 -1.8977709
3.1227345 7.1723957 -1.9030745
3.1541088 7.1247039 -1.8953601
3.1897969 7.0875177 -1.8905387
3.2308018 7.0625172 -1.8890922
3.274076 7.0425601 -1.8890922
3.3242757 7.0372553 -1.8931905
3.3816741 7.0464721 -1.901387
3.407831 6.9906974 -1.891744
3.4674599 7.0035734 -1.9011459
3.5016463 6.9648252 -1.8963245
3.5323985 6.9198713 -1.8898154
3.5752382 6.8989282 -1.8900565
3.6161461 6.8742847 -1.8893332
3.650028 6.8365579 -1.8849939
3.6909828 6.8123264 -1.8845118
3.7359867 6.7955036 -1.8861994
3.7601159 6.7410946 -1.8772795
3.8353515 6.7778616 -1.8943958
3.8594701 6.7239017 -1.8857172
3.8894212 6.6808047 -1.8801724
3.9481084 6.6868973 -1.8888512
3.9875681 6.6600485 -1.8881279
4.0384336 6.6520462 -1.8929495
4.0628905 6.6006961 -1.885235
4.0750504 6.5303626 -1.8719759
4.1108918 6.4986749 -1.8700473
4.1569772 6.4831314 -1.8729402
4.1956205 6.4558754 -1.872458
4.2159314 6.400835 -1.8637793
4.2615943 6.3845315 -1.8666723
4.3083029 6.3695159 -1.8700473
4.3418164 6.3349562 -1.8676366
4.3878031 6.3185577 -1.8707705
4.4175534 6.2788172 -1.8669133
4.4447279 6.2357893 -1.8620918
4.4988174 6.2304282 -1.8688419
4.5323772 6.1964407 -1.8669133
4.5697351 6.1677346 -1.8666723
4.6069107 6.138803 -1.8664311
4.6450782 6.1111922 -1.8666723
4.6925545 6.0956473 -1.8707705
4.7328529 6.0705662 -1.8719759
4.7694106 6.0406504 -1.8717349
4.788806 5.9892926 -1.8647436
4.8187466 5.9515004 -1.8620918
4.875483 5.9465847 -1.8700473
4.9217992 5.928503 -1.8739045
4.9480896 5.8863072 -1.8700473
4.9671273 5.8358836 -1.8635383
5.0199509 5.8251433 -1.8700473
5.0460262 5.7832642 -1.8664311
5.075633 5.7456479 -1.8642615
5.1172633 5.7216296 -1.8666723
5.1698651 5.7095442 -1.8731812
5.1903706 5.6619782 -1.8678776
5.2289758 5.6342916 -1.8693241
5.2694306 5.6084661 -1.8714937
5.2963858 5.5682936 -1.8688419
5.3196797 5.524507 -1.8649848
5.3487349 5.4868984 -1.8632972
5.3925281 5.4643359 -1.8669133
5.4280133 5.4332047 -1.8676366
5.4709115 5.409348 -1.8710116
5.5158048 5.3872037 -1.8751098
5.5340867 5.3391094 -1.8700473
5.5625267 5.3010359 -1.8686008
5.6048431 5.2761164 -1.8719759
5.6506166 5.2541809 -1.8765563
5.6720266 5.2095647 -1.8729402
5.7189817 5.1883554 -1.8780028
5.7268543 5.1317973 -1.8700473
5.7560539 5.0946321 -1.8693241
5.7850137 5.0573015 -1.8686008
5.8423839 5.0445395 -1.8772795
5.8658409 5.0023003 -1.8748688
5.9038482 4.9724646 -1.8772795
5.93574 4.937387 -1.8777617
5.9554234 4.8922501 -1.8743867
6.0034199 4.8702874 -1.8801724
6.032433 4.8327527 -1.8799313
6.0718684 4.8034739 -1.8830653
6.085165 4.753583 -1.8780028
6.1049953 4.709044 -1.8751098
6.1561675 4.6885452 -1.8821011
6.1584439 4.630856 -1.8739045
6.1984324 4.6016574 -1.8775206
6.2343793 4.5692735 -1.8799313
6.2945395 4.5542541 -1.8898154
6.3049889 4.503139 -1.8845118
6.3039427 4.4442406 -1.875833
6.3382635 4.4104643 -1.8780028
6.3692069 4.3742371 -1.8792081
6.4192266 4.3508611 -1.8861994
6.446609 4.3119311 -1.8864404
6.4697051 4.2701564 -1.8854761
6.5014777 4.2340851 -1.8871636
6.5412169 4.2030296 -1.8912619
6.5480285 4.1508665 -1.8857172
6.5848951 4.1178126 -1.8890922
6.6191249 4.0829339 -1.891744
6.6108851 4.0220709 -1.8821011
6.6437621 3.9864235 -1.8845118
6.6538968 3.9371834 -1.8804135
6.6754146 3.894815 -1.8796903
6.7092829 3.8595877 -1.8825831
6.739593 3.8221767 -1.8845118
6.7756262 3.7878532 -1.8881279
6.7936401 3.743398 -1.8866814
6.8164811 3.7016425 -1.8866814
6.845912 3.6634099 -1.88861
6.8579588 3.615905 -1.8857172
6.8843231 3.5759935 -1.8869225
6.9337845 3.547827 -1.894637
6.9675574 3.5113282 -1.8980119
7.0020123 3.4749796 -1.9016281
6.9926815 3.4170418 -1.8931905
6.9942746 3.3648179 -1.8878869
7.0261927 3.3272364 -1.8910208
7.1036577 3.3107016 -1.9066907
7.0929604 3.2528968 -1.8982531
7.1295953 3.2168953 -1.9028335
7.1243606 3.1620681 -1.8960834
7.1374016 3.1155775 -1.8943958
7.1795731 3.0816739 -1.9006639
7.1947699 3.0360539 -1.8996994
7.2213321 2.9951959 -1.9018692
7.2377768 2.9500978 -1.901387
7.2683558 2.9106812 -1.904762
7.2535634 2.8532443 -1.8960834
7.2944736 2.8177724 -1.9023514
7.3016434 2.7691772 -1.8996994
7.3212261 2.7253385 -1.9004227
7.3596897 2.6883533 -1.9062085
7.3742194 2.6424899 -1.9057264
7.3875475 2.5962279 -1.9050032
7.4152679 2.5549581 -1.9081371
7.4243684 2.5072381 -1.9064496
7.4340844 2.4598076 -1.9050032
7.4314952 2.4084642 -1.9004227
7.4424329 2.3616464 -1.8994584
7.4558568 2.3156483 -1.8992174
7.5061412 2.2808557 -1.9086193
7.5246468 2.2361374 -1.9098246
7.5605941 2.1964197 -1.9156104
7.5393834 2.1401865 -1.9066907
7.6122303 2.1104712 -1.9221195
7.595058 2.0556147 -1.9144051
7.6000209 2.0069923 -1.9124765
7.6234713 1.9632244 -1.9153694
7.6221948 1.913105 -1.9119943
7.5979643 1.857547 -1.9028335
7.6583161 1.8225685 -1.9153694
7.6249151 1.7652622 -1.9040389
7.6763177 1.7276002 -1.9144051
7.6346254 1.6690743 -1.9011459
7.6997881 1.6338738 -1.9151284
7.718224 1.5883574 -1.917298
7.7011743 1.5356593 -1.9105479
7.7371345 1.4935234 -1.917298
7.7194395 1.4410384 -1.9105479
7.7243156 1.3929573 -1.9095836
7.7374983 1.3463668 -1.910789
7.741785 1.2982235 -1.9098246
7.7668514 1.2534771 -1.9141641
6.0394535 0.93697149 -1.4780592
5.8684573 0.87363654 -1.4337014
5.8208623 0.83008659 -1.4204423
5.8104601 0.79225999 -1.4165851
5.8007755 0.75471741 -1.412969
5.7995181 0.71839559 -1.4115225
5.7893591 0.68109888 -1.4079064
5.7828188 0.64438307 -1.4052546
5.7770119 0.60787457 -1.4028438
5.7796674 0.57232058 -1.4026027
5.77244 0.53586179 -1.3999509
5.7649837 0.49951324 -1.3972991
5.7805161 0.46514001 -1.4004331
5.7697115 0.42865869 -1.397058
5.7518992 0.39186716 -1.3919954
5.7919731 0.35890013 -1.4013973
5.7911592 0.32319283 -1.4006741
5.7581377 0.28592712 -1.3919954
5.8121419 0.25285786 -1.4050134
5.7873983 0.21621743 -1.3985045
5.7769756 0.1803415 -1.3956115
5.775063 0.14481884 -1.3948883
5.7671099 0.10921736 -1.3927187
5.7929025 0.074146889 -1.3989866
5.8165402 0.038751453 -1.4047724
5.8283143 0.0030649146 -1.4076653
5.7767878 -0.032398231 -1.3948883
5.7852139 -0.067947648 -1.397058
5.7555776 -0.10291739 -1.3898257
0 -0 -0
0 -0 -0
0 -0 -0
0 -0 -0
0 -0 -0
0 -0 -0
0 -0 -0
0 -0 -0
0 -0 -0
0 -0 -0
0 -0 -0
0 -0 -0
0 -0 -0
6.1598935 -0.64168167 -1.4983095
7.8458686 -0.86632675 -1.920673
7.8847475 -0.91963011 -1.9317625
7.8230877 -0.96112061 -1.9177802
7.8199306 -1.0094773 -1.9185034
7.6866426 -1.0402412 -1.8866814
7.512918 -1.063688 -1.8447344
7.293119 -1.0782228 -1.7912158
7.1635933 -1.1040112 -1.7603581
7.0282812 -1.1273282 -1.728054
6.9140177 -1.1525413 -1.7010536
6.877171 -1.1898093 -1.6935804
6.9614439 -1.2484457 -1.7167236
6.9908652 -1.2980527 -1.7261255
6.9837222 -1.3411065 -1.7263665
7.0029674 -1.3894144 -1.7333577
6.9695911 -1.4272912 -1.7270898
6.9682984 -1.4716345 -1.7290183
6.9477577 -1.5118853 -1.7261255
6.9506612 -1.5572478 -1.7292595
6.8908548 -1.5883057 -1.7164825
6.8592601 -1.6254067 -1.7109377
6.8048401 -1.6566668 -1.6996073
6.7653604 -1.6910886 -1.6921339
6.7454562 -1.7301555 -1.6897231
6.7300205 -1.770277 -1.6885178
6.7049766 -1.8077464 -1.6849016
6.671308 -1.8426484 -1.6791158
6.6365304 -1.8769412 -1.6730889
6.6211596 -1.9165468 -1.6721246
6.5962481 -1.9532773 -1.6687496
6.5627761 -1.9872417 -1.6632049
6.519866 -2.0179982 -1.6552494
6.5184646 -2.0614789 -1.6581423
6.4918408 -2.0969596 -1.6545261
6.4779305 -2.1364491 -1.6542851
6.4463048 -2.1699612 -1.6494635
6.4411292 -2.2123129 -1.6516333
6.4100318 -2.2456934 -1.6470529
6.3979597 -2.2856357 -1.647535
6.3774319 -2.3225241 -1.6458474
6.3485041 -2.3562059 -1.6419903
6.3457274 -2.3995798 -1.6451242
6.338129 -2.4412632 -1.6470529
6.3266444 -2.4815254 -1.6480172
6.3085952 -2.519218 -1.6472939
6.3038068 -2.5622666 -1.6501868
6.2843795 -2.5994132 -1.6492225
6.2602611 -2.6345351 -1.6470529
6.2421937 -2.6721337 -1.6465707
6.2354679 -2.7146478 -1.6492225
6.2213559 -2.7540357 -1.6499457
6.2052255 -2.7925558 -1.6501868
6.1667938 -2.8208852 -1.6444011
6.1599293 -2.8635821 -1.6472939
6.1694441 -2.9141791 -1.6547673
6.1400733 -2.9465189 -1.6516333
6.1183887 -2.9824367 -1.650669
6.0730138 -3.0065694 -1.6431956
6.0535841 -3.04334 -1.6429546
6.0391183 -3.0826337 -1.6441599
6.0131969 -3.1160576 -1.6422313
5.973352 -3.1420484 -1.6364455
5.9565282 -3.1800127 -1.6371688
5.936904 -3.2165012 -1.6371688
5.8983479 -3.2425799 -1.6318651
5.8664756 -3.27209 -1.6284901
5.8665581 -3.3194983 -1.6342759
5.8460793 -3.3554323 -1.6342759
5.8287354 -3.3931937 -1.6352402
5.8094769 -3.4298813 -1.6357223
5.7908196 -3.4669592 -1.6364455
5.7827101 -3.5104859 -1.6403028
5.7461858 -3.5367427 -1.6359634
5.7614241 -3.5950599 -1.6468117
5.7269554 -3.6225593 -1.6431956
5.6915493 -3.6492476 -1.6393385
5.6495228 -3.671406 -1.6335527
5.640666 -3.7150791 -1.637651
5.6379428 -3.7630928 -1.6436778
5.6179619 -3.7997911 -1.6446421
5.5865364 -3.8287029 -1.6422313
5.5406208 -3.8474059 -1.6354812
5.5018301 -3.8707173 -1.6309009
5.4661231 -3.8959517 -1.6272846
5.4672904 -3.9476023 -1.634999
5.5071912 -4.0280671 -1.6547673
5.4808125 -4.060627 -1.6542851
5.4247479 -4.0708742 -1.6446421
5.4081655 -4.1105447 -1.6472939
5.3920689 -4.1507568 -1.6501868
5.3733864 -4.1891351 -1.6523565
5.3582439 -4.2304482 -1.6557316
5.3412805 -4.2705202 -1.6586244
5.3308139 -4.3160405 -1.663687
5.2914739 -4.3382063 -1.6595887
5.262516 -4.3687325 -1.6588656
5.2460098 -4.4096847 -1.6622406
5.2439785 -4.4631815 -1.6704371
5.1525421 -4.440145 -1.6494635
5.1091146 -4.4576368 -1.6441599
5.0816669 -4.4889021 -1.6441599
5.0359454 -4.5038209 -1.638133
5.0377078 -4.561348 -1.6480172
5.0289378 -4.6098828 -1.6545261
4.9841986 -4.6254663 -1.6489815
4.9493585 -4.6499801 -1.6468117
4.9165149 -4.6762471 -1.6453654
4.8786426 -4.6975737 -1.6422313
4.8476424 -4.7253876 -1.6415081
4.8979845 -4.8334503 -1.6692318
4.8469539 -4.8421459 -1.6617584
2.3119152 -2.3372841 -0.7765308
2.2948184 -2.3486481 -0.77556652
2.2803643 -2.3626847 -0.77556652
2.2751961 -2.3864696 -0.77894157
4.6302953 -4.9185772 -1.637892
4.603332 -4.9504499 -1.6390973
4.5833721 -4.9900398 -1.6429546
4.537672 -5.0015349 -1.6374098
4.5081925 -5.0307288 -1.637892
4.473381 -5.0539351 -1.6364455
4.428875 -5.0659423 -1.6313829
4.3951712 -5.0900831 -1.6304187
4.3720412 -5.1265569 -1.6335527
4.3461289 -5.1599679 -1.6357223
4.3050785 -5.1753449 -1.6321062
4.265851 -5.1926627 -1.6292133
4.237577 -5.2232628 -1.6306597
4.2078743 -5.2521954 -1.631624
4.1773744 -5.2801995 -1.6323472
2.0339096 -2.6025758 -0.780388
1.9941969 -2.5842645 -0.77074498
1.9677203 -2.5825529 -0.76640564
1.9436728 -2.5837173 -0.76303059
1.921999 -2.5878015 -0.76061982
1.8923181 -2.5807574 -0.75483406
1.7609854 -2.432687 -0.70589578
1.7076775 -2.3897371 -0.68950272
1.6896276 -2.3954105 -0.68805623
3.8313179 -5.5057082 -1.6260793
3.7403355 -5.4459038 -1.6010075
3.7689099 -5.5603442 -1.6284901
3.7282479 -5.5736837 -1.6255971
3.6891677 -5.5891643 -1.6234275
3.6447432 -5.5962424 -1.618847
3.6092877 -5.6168675 -1.6183649
3.5768332 -5.6421871 -1.6193292
3.5447183 -5.6681423 -1.6205345
3.5114007 -5.6922641 -1.6212578
3.480442 -5.720336 -1.6231865
3.4487717 -5.7474098 -1.624874
3.4075122 -5.7584391 -1.621981
3.3735819 -5.7817535 -1.6227043
3.3235278 -5.7771053 -1.615472
3.2985477 -5.8159633 -1.6207757
3.2613792 -5.8335514 -1.6200525
3.2194366 -5.8424025 -1.6169184
1.6069586 -2.9578006 -0.79605788
1.5915263 -2.9727397 -0.79750431
1.575971 -2.9876006 -0.79895079
3.0732982 -5.9162064 -1.6159542
3.0356135 -5.9323602 -1.6152309
2.9947896 -5.9422073 -1.6128201
2.9569788 -5.9578629 -1.6120969
2.9335711 -6.0029273 -1.6195703
2.8735492 -5.9727101 -1.6063112
2.8414149 -5.9998784 -1.608963
2.8111043 -6.0312757 -1.6128201
2.774853 -6.0501752 -1.6133024
2.7320914 -6.0547018 -1.6099273
2.6972506 -6.0766745 -1.6113738
2.6517632 -6.07443 -1.6063112
2.6052575 -6.0691814 -1.6005254
2.5823016 -6.1190329 -1.6096863
2.5313265 -6.102488 -1.6010075
2.4927361 -6.1152086 -1.6002843
2.4486752 -6.114171 -1.5959449
2.4143093 -6.1372094 -1.5981146
2.3877931 -6.1808791 -1.605829
2.3450067 -6.1827092 -1.6024539
2.3100722 -6.2051678 -1.6046237
2.2672946 -6.2064624 -1.6012486
2.2340786 -6.2339625 -1.6048647
2.1935341 -6.2411432 -1.6031772
2.1567779 -6.2590733 -1.6043825
2.127023 -6.2979364 -1.6111326
2.0782835 -6.2804618 -1.6031772
2.038811 -6.2903261 -1.6024539
