# .PCD v0.7 - Point Cloud Data file format
VERSION 0.7
FIELDS x y z
SIZE 4 4 4
TYPE F F F
COUNT 1 1 1
WIDTH 1559
HEIGHT 1
VIEWPOINT 0 0 0 1 0 0 0
POINTS 1559
DATA ascii
2.6235552 4.5108013 -1.8944824
2.656425 4.5035 -1.8983095
2.6816006 4.4830937 -1.8965698
2.7119761 4.471364 -1.8986573
2.7408347 4.4570351 -1.8997011
2.7631693 4.432179 -1.896222
2.7863042 4.408802 -1.8934386
2.8102684 4.3868866 -1.8913511
2.8356009 4.3672018 -1.8903073
2.8607974 4.3473716 -1.8892636
2.8879387 4.3305159 -1.8896115
2.9160314 4.3150444 -1.8906553
2.9461622 4.302485 -1.8930907
2.976783 4.2904878 -1.895874
3.0041316 4.2736754 -1.8965698
3.0264897 4.2498174 -1.8941344
3.050863 4.2288866 -1.8930907
3.0778604 4.2116008 -1.8937865
3.1064341 4.196403 -1.8955261
3.1354997 4.1817632 -1.8976136
3.1645026 4.1669245 -1.8997011
3.1871521 4.143714 -1.8979615
3.21367 4.1255589 -1.8986573
3.2354386 4.101347 -1.8965698
3.2587872 4.0792203 -1.8955261
3.2837553 4.0591483 -1.8955261
3.3085999 4.0389228 -1.8955261
3.3363137 4.0221529 -1.8972657
3.359724 4.0001707 -1.8965698
3.3823829 3.9773381 -1.8955261
3.4079473 3.9579301 -1.896222
3.4309361 3.9355316 -1.8955261
3.4550195 3.9144058 -1.8955261
3.4802227 3.8945303 -1.896222
3.5046825 3.8737979 -1.8965698
3.5315528 3.8556767 -1.8983095
3.5576947 3.8366842 -1.8997011
3.5850201 3.8188827 -1.9017886
3.6109688 3.7995312 -1.9031802
3.6335642 3.7766278 -1.9028324
3.6619031 3.7596331 -1.9056157
3.6783187 3.7304192 -1.9021366
3.6978266 3.7044623 -1.9003969
3.7184875 3.6797252 -1.8993531
3.7389841 3.6548741 -1.8983095
3.7613397 3.6318634 -1.8983095
3.7842321 3.6093626 -1.8986573
3.8069901 3.5867178 -1.8990053
3.8282397 3.5626526 -1.8986573
3.8534794 3.5422676 -1.9003969
3.8779187 3.5210767 -1.9017886
3.8966582 3.4947126 -1.9003969
3.9173262 3.4701159 -1.900049
3.937839 3.4453971 -1.8997011
3.9567769 3.4193316 -1.8986573
3.980536 3.3974228 -1.900049
4.0048919 3.3759551 -1.9017886
4.0334582 3.3579147 -1.9056157
4.0568833 3.3354836 -1.9070073
4.0860085 3.3176177 -1.9111824
4.0997043 3.2872071 -1.9080511
4.1197968 3.2619901 -1.9080511
4.1330862 3.2314544 -1.9049199
4.1483827 3.2025969 -1.9028324
4.1679554 3.1770825 -1.9028324
4.1873713 3.1514487 -1.9028324
4.2111454 3.12905 -1.9049199
4.2295094 3.1025977 -1.904572
4.245429 3.0743887 -1.9031802
4.264976 3.0488265 -1.9035282
4.2859015 3.0242207 -1.904572
4.2997603 2.994652 -1.9024844
4.3165088 2.9671509 -1.9017886
4.3392892 2.9437666 -1.9038761
4.3549328 2.9155216 -1.9028324
4.3750873 2.890295 -1.9038761
4.3990235 2.8674901 -1.9066595
4.4181128 2.8414581 -1.9073553
4.4433813 2.8193166 -1.9108344
4.4399323 2.7790711 -1.9017886
4.4569006 2.751776 -1.9017886
4.4624896 2.7175527 -1.8969178
4.4887261 2.6959107 -1.9010928
4.5067968 2.6692727 -1.9017886
4.569242 2.668509 -1.9216199
4.548964 2.6193781 -1.9059637
4.5600581 2.5886409 -1.9038761
4.5848565 2.5656464 -1.9077032
4.603797 2.5392764 -1.9090949
4.6217623 2.5123229 -1.9101386
4.6445293 2.4878995 -1.9132699
4.6597075 2.4593544 -1.9132699
4.676374 2.4315815 -1.9139657
4.6895366 2.4019876 -1.9132699
4.7066979 2.374434 -1.9143137
4.7203393 2.3450928 -1.9139657
4.743062 2.3202028 -1.9174449
4.7563643 2.2906497 -1.917097
4.7804971 2.2662392 -1.921272
4.7960114 2.2376564 -1.9219679
4.8045387 2.2058406 -1.9198804
4.8188376 2.1767046 -1.9202282
4.8398147 2.1505203 -1.9233595
4.844327 2.1170309 -1.9198804
4.8580871 2.0876367 -1.9202282
4.8708053 2.0577888 -1.9202282
4.8798761 2.0264261 -1.9188366
4.8939548 1.9971535 -1.9195324
4.9061165 1.9670873 -1.9195324
4.9224563 1.9386636 -1.921272
4.9377565 1.9097755 -1.9226637
4.952888 1.8807726 -1.9240553
4.9652138 1.850674 -1.9244033
4.9729533 1.8188858 -1.9230115
4.9831376 1.7880217 -1.9226637
5.0010905 1.7599002 -1.925447
5.003818 1.7264308 -1.9223157
5.0231991 1.6986967 -1.925795
5.0361972 1.6687272 -1.9268386
5.0427747 1.6366373 -1.925447
5.0580831 1.607367 -1.9275346
5.0678506 1.576301 -1.9275346
5.0783238 1.5454483 -1.9278824
5.0886097 1.5145265 -1.9282304
5.1005077 1.48406 -1.9292741
5.1122231 1.4535046 -1.9303179
5.1246591 1.4231118 -1.9317095
5.1332946 1.3916407 -1.9317095
5.1372051 1.3589194 -1.9299699
5.1454463 1.3273726 -1.9299699
5.1507664 1.2950904 -1.9289262
5.1476879 1.2607876 -1.9247512
5.1544151 1.228961 -1.9244033
5.1655121 1.1981575 -1.925795
5.1755104 1.1670581 -1.9268386
5.1935644 1.1376847 -1.9310137
5.2031984 1.1063806 -1.9320575
5.2153983 1.0755686 -1.934145
5.2182221 1.0428131 -1.9327533
5.2208409 1.0100635 -1.9313616
5.2398419 0.98042125 -1.9362324
5.2393007 0.94708574 -1.933797
5.2487078 0.91556376 -1.9351887
5.2533026 0.8831858 -1.9348408
5.2456656 0.84884173 -1.9299699
5.2554069 0.81735831 -1.9317095
5.2603235 0.78509635 -1.9317095
5.2715383 0.75373232 -1.934145
5.2723484 0.72086537 -1.9327533
5.2878284 0.68995452 -1.9369283
5.2845192 0.65657288 -1.934145
5.2893791 0.62424499 -1.9344928
5.3005638 0.59260994 -1.9372762
5.2985063 0.55948567 -1.9351887
5.3037052 0.52714914 -1.9358846
5.2937708 0.49338111 -1.9310137
5.3097749 0.46202484 -1.9358846
5.3087721 0.42913461 -1.9344928
5.3215895 0.39731812 -1.9383199
5.3173795 0.36421096 -1.9358846
5.3232574 0.33180976 -1.9372762
5.3223848 0.29898348 -1.9362324
5.3297372 0.26660013 -1.9383199
5.3275261 0.2337289 -1.9369283
5.3297968 0.20107056 -1.9372762
0 0 -0
5.3393607 0.13583975 -1.9400595
5.3419685 0.10311127 -1.9407554
5.3415632 0.070319489 -1.9404075
5.3475194 0.037581265 -1.942495
0 0 -0
5.3475776 -0.028043851 -1.942495
0 -0 -0
0 -0 -0
5.3358459 -0.1262244 -1.9386679
5.3359079 -0.15899028 -1.9390157
5.3263998 -0.19142294 -1.9358846
5.3195047 -0.22386378 -1.933797
5.3217769 -0.25668091 -1.9351887
5.3163571 -0.28912544 -1.933797
5.3191619 -0.32202482 -1.9355366
0 -0 -0
5.3447309 -0.38946164 -1.9466699
5.3562593 -0.42336005 -1.9518888
5.3404832 -0.45510018 -1.9470179
0 -0 -0
0 -0 -0
5.3302689 -0.55322695 -1.9466699
5.3277059 -0.58602512 -1.9470179
0 -0 -0
5.2987103 -0.64873505 -1.9390157
5.2992792 -0.68183434 -1.9407554
5.296854 -0.71458834 -1.9414512
5.2812304 -0.74550086 -1.9372762
5.2394576 -0.77241445 -1.9233595
5.3217211 -0.81795532 -1.9560637
5.3212309 -0.85133493 -1.9578034
0 -0 -0
5.3103828 -0.91657048 -1.9578034
5.294508 -0.94731861 -1.9539763
5.2922826 -0.98047119 -1.9553679
5.2815633 -1.0120424 -1.9536283
5.266058 -1.0426075 -1.9501492
5.2430286 -1.0715173 -1.9438866
5.2207603 -1.1003774 -1.9379721
5.1818461 -1.1254195 -1.925795
5.1190352 -1.144701 -1.904572
5.0461349 -1.1609403 -1.8795218
5.0051618 -1.1838887 -1.8666489
4.8848443 -1.1870991 -1.8235072
4.7546744 -1.1863797 -1.7765383
4.7255096 -1.2099452 -1.7681882
4.6835408 -1.229861 -1.7549673
4.6315494 -1.2466251 -1.7379194
4.5921822 -1.2662898 -1.7257423
4.5653801 -1.2890886 -1.718436
4.5555835 -1.3165559 -1.7177402
4.5492172 -1.3450158 -1.718436
4.5552363 -1.3772485 -1.7240027
4.552074 -1.4068353 -1.7260902
4.5451441 -1.4353049 -1.726786
4.5362515 -1.4631664 -1.726786
4.5316401 -1.4924401 -1.7285256
4.5375037 -1.5252997 -1.7344402
4.5085506 -1.546416 -1.726786
4.4936681 -1.572192 -1.7246985
4.4874687 -1.6009959 -1.7260902
4.4757986 -1.6278591 -1.7253944
4.4639678 -1.6546392 -1.7246985
4.4528542 -1.6816671 -1.7243507
4.442452 -1.7089577 -1.7243507
4.4222808 -1.7324198 -1.7205236
4.4098263 -1.7588267 -1.7198277
4.3876595 -1.7812645 -1.7153047
4.3757811 -1.807795 -1.7149569
4.349915 -1.8284308 -1.7090423
4.3274088 -1.8502927 -1.7045193
4.2987809 -1.8693287 -1.697561
4.2966609 -1.8998432 -1.7013881
4.2815027 -1.9246328 -1.6999964
4.2576761 -1.9454097 -1.6951256
4.252461 -1.9746581 -1.6979089
4.2156787 -1.9891058 -1.6878192
4.2042398 -2.0153408 -1.6881672
4.1993804 -2.0447953 -1.6912985
4.1665878 -2.0605443 -1.6829485
4.1580548 -2.088176 -1.684688
4.1434937 -2.112798 -1.6839921
4.1495986 -2.1480999 -1.6919943
4.1064668 -2.1578138 -1.6794692
4.1154814 -2.1948876 -1.688863
4.1035852 -2.2209911 -1.6895589
4.0783772 -2.2398076 -1.684688
4.0539122 -2.2588549 -1.6801651
4.0301833 -2.2781479 -1.6759901
4.02914 -2.3102987 -1.6815568
4.0205607 -2.3382783 -1.6839921
4.0069451 -2.3633804 -1.6843401
4.0108709 -2.3989952 -1.6923422
4.0016861 -2.4269648 -1.6947776
3.9986966 -2.4588423 -1.6999964
3.9851251 -2.4843237 -1.7006922
3.9642596 -2.5052221 -1.6982569
3.9503918 -2.5305109 -1.6989527
3.9300733 -2.5516381 -1.6968652
3.9065123 -2.570549 -1.693386
3.8781881 -2.5861454 -1.6878192
3.8669069 -2.6130433 -1.6899068
3.8546679 -2.6393704 -1.6916463
3.8345497 -2.6602995 -1.6899068
3.8227553 -2.6870136 -1.6919943
3.8000877 -2.7060671 -1.689211
3.7689683 -2.7189078 -1.6826005
3.7529714 -2.7425361 -1.6829485
3.7353194 -2.7649543 -1.6826005
3.7227836 -2.7911971 -1.684688
3.7048404 -2.8134201 -1.6843401
3.6837928 -2.8332407 -1.6826005
3.6670785 -2.8563671 -1.6829485
3.6428597 -2.8735867 -1.6798172
3.6354122 -2.9040794 -1.684688
3.6386585 -2.9434357 -1.6947776
3.6270554 -2.971055 -1.6979089
3.6073141 -2.9920568 -1.6972131
3.5881696 -3.0135314 -1.6968652
3.5724676 -3.0379214 -1.6982569
3.5480776 -3.0548894 -1.6954734
3.5278533 -3.0753701 -1.6947776
2.4568939 -2.1679859 -1.173945
2.4421473 -2.1817706 -1.1732491
2.4287143 -2.1967142 -1.1732491
3.4520085 -3.1616549 -1.6951256
3.4263582 -3.177038 -1.6919943
3.4074831 -3.1986439 -1.6923422
3.3857541 -3.2175536 -1.6912985
3.3740535 -3.2460694 -1.6954734
3.3540723 -3.2667112 -1.6954734
3.3206165 -3.2740619 -1.6885151
3.2818902 -3.2758257 -1.6787734
3.257113 -3.2912354 -1.676338
3.2414436 -3.3158529 -1.6787734
3.2301519 -3.3451238 -1.6836443
3.2037435 -3.3587735 -1.680513
3.1811459 -3.3763206 -1.6794692
3.1693089 -3.4053864 -1.6843401
3.1489885 -3.4254591 -1.684688
3.1291711 -3.446105 -1.6853839
3.1104705 -3.4680326 -1.6867756
3.0847819 -3.4821396 -1.6843401
3.0682955 -3.5066476 -1.6871234
3.0497854 -3.5289557 -1.688863
3.0268579 -3.546176 -1.6881672
3.0008132 -3.5596628 -1.6857318
2.975317 -3.5736847 -1.6836443
2.9515476 -3.5897007 -1.6826005
2.9395094 -3.6201186 -1.6885151
2.9119647 -3.6315029 -1.6853839
2.8942819 -3.6551831 -1.6881672
2.0174034 -2.579591 -1.1732491
1.9826366 -2.5674272 -1.1617678
1.958323 -2.5683582 -1.1565491
1.9408362 -2.5780783 -1.1555053
1.9266578 -2.5921965 -1.1565491
1.9118248 -2.6054814 -1.1572449
1.8881059 -2.6065309 -1.152374
1.6131812 -2.2557318 -0.98711318
1.6036328 -2.2717166 -0.98989654
1.5827003 -2.2715108 -0.98537362
2.6066628 -3.7918358 -1.6655526
2.5838735 -3.8085346 -1.6659005
2.5463789 -3.8032796 -1.6565067
2.5322931 -3.8329148 -1.6627692
2.5020738 -3.8381689 -1.6582463
2.4946988 -3.8786852 -1.6693796
2.4643252 -3.8836269 -1.6648567
2.4329908 -3.8867526 -1.6596379
2.4204204 -3.9199584 -1.6676401
2.3865736 -3.9187191 -1.6606817
2.3552458 -3.9212317 -1.655463
2.3325741 -3.9380298 -1.6565067
2.305531 -3.9474101 -1.6544192
2.2723815 -3.9460435 -1.6478088
2.2518275 -3.9664357 -1.6505921
2.2192099 -3.9654496 -1.6443295
2.1943839 -3.9781709 -1.6439817
2.1694856 -3.9907365 -1.6436337
2.1480556 -4.0097589 -1.6460692
2.1273484 -4.0303264 -1.6492004
2.1004171 -4.0391445 -1.6474608
2.0751667 -4.0511217 -1.647113
2.0498483 -4.0629416 -1.646765
2.0252969 -4.076282 -1.647113
1.9981883 -4.0844212 -1.6453733
1.9751222 -4.1008286 -1.647113
1.9475143 -4.1077871 -1.6450254
1.9230651 -4.1213589 -1.6457212
0 -0 -0
1.8654013 -4.1292667 -1.6394588
1.3895134 -3.1261394 -1.2275243
1.3706808 -3.1354656 -1.2278723
1.3514161 -3.1438169 -1.2278723
1.32189 -3.1278665 -1.2181305
1.7633737 -4.2460246 -1.6641608
1.7326849 -4.2454791 -1.6596379
1.7128792 -4.2716956 -1.6659005
1.679769 -4.2646775 -1.6589421
1.662696 -4.2985148 -1.6683359
1.6399484 -4.3182778 -1.672163
1.6075306 -4.3124452 -1.6659005
1.5807179 -4.3213472 -1.6655526
1.555755 -4.3353772 -1.6672921
1.5288134 -4.3439574 -1.6669443
1.5021305 -4.3532562 -1.6669443
1.4780924 -4.3703847 -1.6700755
1.4500697 -4.3758121 -1.6686838
1.4252175 -4.3908696 -1.6711192
1.3991001 -4.4022126 -1.672163
1.3712275 -4.4080286 -1.6711192
1.3427907 -4.4118743 -1.6693796
1.3162291 -4.4218278 -1.6700755
1.2882874 -4.4271202 -1.6690317
1.260074 -4.431334 -1.6676401
1.2338628 -4.442596 -1.6690317
1.2070706 -4.4518929 -1.6697276
1.1811688 -4.464654 -1.671815
1.154688 -4.4754491 -1.6732067
1.1274338 -4.4833589 -1.6735547
1.0994575 -4.4883709 -1.6728588
0.69346529 -2.9063132 -1.0667863
0.67202157 -2.8949869 -1.0608717
0.64682847 -2.8661301 -1.0483468
0.63383961 -2.8911097 -1.0563488
0.61375064 -2.8839395 -1.0521739
0.59623271 -2.8885694 -1.0525217
0.57813054 -2.8903346 -1.0518259
0.56091851 -2.896589 -1.0528697
0.54106808 -2.8889174 -1.0486946
0.52299869 -2.8903377 -1.0479988
0.50654131 -2.9008813 -1.0507821
0.4837648 -2.8743482 -1.0396488
0.45849147 -2.830061 -1.0219049
0.43809649 -2.8133662 -1.0145987
0.42317501 -2.8317652 -1.0205133
0.4083091 -2.8519425 -1.0271237
0.38839301 -2.8367448 -1.0205133
0.37642923 -2.8809097 -1.0361696
0.35447568 -2.8487406 -1.0232966
0.33677012 -2.8489997 -1.0226008
0.32063419 -2.8631253 -1.0271237
0.29952344 -2.8314736 -1.0145987
0.28603026 -2.872442 -1.0292113
0.26892069 -2.8797441 -1.0312988
0.2495434 -2.8617256 -1.0239924
0.23446558 -2.8940411 -1.0354737
0.21628606 -2.8898156 -1.0333862
0.20142424 -2.9331789 -1.0490426
0.18138851 -2.9016094 -1.0368655
0.1637383 -2.9054761 -1.0379092
0.14628063 -2.9139168 -1.0406926
0.12872553 -2.9222527 -1.0434759
0.11100335 -2.9286087 -1.0455633
0.093061052 -2.9301717 -1.0459113
0.075742081 -2.9569299 -1.055653
0.057597272 -2.957339 -1.055653
0.039510991 -2.9623239 -1.0573926
0.021269903 -2.9531357 -1.0539134
0.0031462314 -2.948523 -1.0521739
-0.014940506 -2.9475491 -1.0518259
-0.032819502 -2.9295902 -1.0452155
-0.050877623 -2.9340208 -1.046955
-0.068588614 -2.921469 -1.0424321
-0.086344369 -2.9153705 -1.0403446
-0.10477311 -2.9297764 -1.0459113
-0.12286677 -2.9318883 -1.046955
-0.14030977 -2.9198422 -1.04278
-0.1584785 -2.9236069 -1.0445197
-0.17652816 -2.9244511 -1.0452155
-0.19459412 -2.9251838 -1.0459113
-0.21253905 -2.9239347 -1.0459113
-0.2309204 -2.9281831 -1.0479988
-0.24888305 -2.9267111 -1.0479988
-0.26649418 -2.9213943 -1.0466071
-0.28423199 -2.9178381 -1.0459113
-0.30261508 -2.9207015 -1.0476508
-0.32032505 -2.9169261 -1.046955
-0.33865064 -2.9186306 -1.0483468
-0.35643852 -2.9155672 -1.0479988
-0.37504044 -2.9189043 -1.0500863
-0.39520323 -2.9332716 -1.0563488
-0.41595012 -2.9502857 -1.0636551
-0.43336022 -2.9430404 -1.0619155
-0.45340696 -2.9532986 -1.0667863
-0.46840507 -2.9310207 -1.0594801
-0.48930636 -2.9456625 -1.0660905
-0.50625378 -2.9361379 -1.0636551
-0.52475601 -2.935745 -1.0646988
-0.54122072 -2.9241736 -1.0615675
-0.56056601 -2.9281635 -1.064351
-0.58089197 -2.9366241 -1.0688739
-0.59852397 -2.9311676 -1.0681781
-0.61843354 -2.9366131 -1.0716572
-0.63962746 -2.9474213 -1.0772239
-0.65626687 -2.937037 -1.0747885
-0.67259258 -2.9256461 -1.0720052
-0.68685925 -2.9059548 -1.0660905
-0.69869375 -2.8770897 -1.0566968
-0.7106545 -2.850009 -1.0479988
-0.72673184 -2.8401456 -1.0459113
-0.74223834 -2.8283794 -1.0431279
-1.0763906 -3.9996872 -1.495073
-0.81330907 -2.9510028 -1.0939239
-0.83293062 -2.9513702 -1.0960114
-0.85805804 -2.97052 -1.1054052
-0.87626863 -2.9651992 -1.1054052
-1.2249132 -4.0518289 -1.528821
-1.2486436 -4.0406542 -1.5274292
-1.2838669 -4.0659924 -1.5403022
-1.3347124 -4.1383352 -1.5716147
-0.98735696 -2.9992528 -1.1297594
-0.98571241 -2.9336028 -1.1064489
-0.97538614 -2.8450327 -1.0740926
-0.99127543 -2.8345702 -1.072353
-1.0061275 -2.8213708 -1.0695697
-1.0198928 -2.8054535 -1.0657426
-1.0292622 -2.7780468 -1.0573926
-1.0499345 -2.7813258 -1.0612197
-1.0663071 -2.7730813 -1.0605239
-1.08296 -2.7656136 -1.0601759
-1.1124202 -2.7902629 -1.072701
-1.1365774 -2.8007565 -1.0796593
-1.1469355 -2.7772682 -1.0730488
-1.1574119 -2.7546229 -1.0667863
-1.1776114 -2.7552269 -1.0699176
-1.190006 -2.7376335 -1.0657426
-1.2037467 -2.7234213 -1.0629592
-1.2242806 -2.724534 -1.0664384
-1.2277205 -2.6879814 -1.0546092
-1.2473511 -2.6871994 -1.0573926
-1.2646165 -2.6811907 -1.0580884
-1.281855 -2.6750712 -1.0587842
-1.2801765 -2.6300721 -1.0434759
-1.3174964 -2.6650214 -1.0612197
-1.3472944 -2.6836939 -1.072353
-1.3722577 -2.6920786 -1.0793114
-1.3667587 -2.6411517 -1.0615675
-1.4117348 -2.6874833 -1.0845301
-1.4361433 -2.6936588 -1.0907927
-1.4513049 -2.6823227 -1.0897489
-2.0745571 -3.7776558 -1.5573502
-1.4822857 -2.6610358 -1.0883572
-1.4935086 -2.6429141 -1.0845301
-1.504565 -2.6247551 -1.080703
-1.5074389 -2.5927851 -1.0709614
-1.5180781 -2.5746052 -1.0671343
-1.5295141 -2.5580018 -1.064003
-1.5539355 -2.5629957 -1.0702655
-1.56865 -2.5518157 -1.0695697
-1.5857666 -2.544529 -1.0706134
-1.6033539 -2.5379207 -1.0720052
-1.6199077 -2.5296135 -1.072701
-1.6323344 -2.5149093 -1.0706134
-1.6472193 -2.5040629 -1.0702655
-1.6573496 -2.48611 -1.0667863
-1.6615456 -2.4595838 -1.0594801
-1.6675984 -2.4361942 -1.0535655
-1.6878611 -2.4336178 -1.0570446
-1.7016832 -2.4216816 -1.0563488
-1.7154223 -2.4096677 -1.055653
-1.7329189 -2.4028976 -1.0573926
-1.7503968 -2.3960035 -1.0591321
-1.7667394 -2.3874784 -1.0601759
-1.788669 -2.3863425 -1.0646988
-1.8078151 -2.3812945 -1.0674822
-1.8166749 -2.3627269 -1.064003
-1.8317145 -2.3522751 -1.064351
-1.8519214 -2.348351 -1.0678301
-1.8604425 -2.3296201 -1.064351
-1.8682139 -2.3101444 -1.0605239
-1.8770051 -2.2921119 -1.0573926
-1.8874416 -2.2762227 -1.055305
-1.8983572 -2.2610099 -1.0535655
-1.904297 -2.2400365 -1.0490426
-1.9216771 -2.2325718 -1.0511301
-1.9482806 -2.2355759 -1.0584363
-1.9731312 -2.2362292 -1.0646988
-1.9774424 -2.2135961 -1.0594801
-1.9853253 -2.1951654 -1.0563488
-2.0133252 -2.1988401 -1.064351
-2.0178525 -2.1768229 -1.0594801
-2.0228276 -2.1555164 -1.0549572
-2.0146973 -2.1206427 -1.0434759
-2.0302722 -2.1109426 -1.0448675
-2.0490751 -2.1044886 -1.0479988
-2.0678749 -2.097883 -1.0511301
-2.0820334 -2.0864818 -1.0518259
-2.0947967 -2.0736675 -1.0518259
-2.107481 -2.060775 -1.0518259
-2.1187367 -2.0465028 -1.0511301
-2.1231112 -2.025701 -1.046955
-2.1457386 -2.0222769 -1.0521739
-2.1642847 -2.0148196 -1.055305
-2.1911042 -2.0148227 -1.0626113
-2.2138391 -2.0107915 -1.0678301
-2.2303238 -2.0009246 -1.0699176
-2.2481747 -1.9921739 -1.072701
-2.2638845 -1.9814278 -1.0744405
-2.2767093 -1.9681125 -1.0747885
-2.2787573 -1.945587 -1.0699176
-2.2963879 -1.936401 -1.072701
-2.3046229 -1.9192758 -1.0709614
-2.3250477 -1.9122417 -1.0751363
-2.3396492 -1.9003026 -1.0765281
-2.3783331 -1.9076048 -1.089401
-2.3958743 -1.8976302 -1.0921843
-2.4222469 -1.8944396 -1.0991427
-2.4360521 -1.8812596 -1.1001865
-2.4453123 -1.8645722 -1.0991427
-2.4454689 -1.841079 -1.0939239
-2.4506984 -1.8215673 -1.0911406
-2.447464 -1.7959628 -1.0845301
-2.4424891 -1.7693677 -1.0772239
-2.4502485 -1.7521673 -1.0758322
-2.4479291 -1.727914 -1.0699176
-2.4484825 -1.7058979 -1.0653946
-2.4581311 -1.6903112 -1.0650468
-2.5188935 -1.709397 -1.0876614
-2.4919345 -1.6688825 -1.0709614
-2.5091689 -1.6582103 -1.0740926
-2.5467892 -1.6606957 -1.0862697
-2.5695491 -1.6531489 -1.0918365
-2.5733104 -1.6333344 -1.089053
-2.6222291 -1.641879 -1.106101
-2.6601782 -1.6429908 -1.1182781
-2.6982388 -1.6436982 -1.1304553
-2.7621293 -1.6594405 -1.1537658
-2.7424092 -1.6247904 -1.1408927
-2.7620432 -1.6136043 -1.1450678
-2.7735171 -1.5975616 -1.1457636
-2.7971296 -1.5883788 -1.1516782
-2.8845558 -1.6146622 -1.1847304
-2.9461339 -1.6254472 -1.2066492
-2.9758229 -1.6180811 -1.2149992
-3.0336337 -1.6254567 -1.2351785
-3.0700853 -1.6208097 -1.2463118
-3.1157441 -1.6205316 -1.2612723
-3.1890531 -1.6338518 -1.287714
-3.2743602 -1.6522412 -1.3190266
-3.3029101 -1.6412917 -1.3266808
-3.3642962 -1.6461134 -1.3479037
-3.6556389 -1.7608398 -1.4637604
-3.7883773 -1.7961801 -1.5138605
-3.8197196 -1.7824104 -1.5222105
-3.6942477 -1.6963811 -1.4665437
-3.7242403 -1.682554 -1.4745458
-3.9067185 -1.7361521 -1.5444772
-3.9370582 -1.7207787 -1.5524794
-3.928591 -1.6884499 -1.5448252
-4.0122914 -1.6953094 -1.5743982
-4.137785 -1.7184535 -1.6206712
-4.2107549 -1.7185231 -1.6457212
-4.2377553 -1.6992795 -1.6523317
-4.2725291 -1.6828593 -1.6620734
-4.3203769 -1.671146 -1.6770338
-4.3717465 -1.6602389 -1.693386
-4.430172 -1.6513815 -1.7125214
-4.481607 -1.6392943 -1.7288736
-4.5286465 -1.6250553 -1.743486
-4.5942516 -1.6168317 -1.7654049
-4.6386523 -1.6005293 -1.7789737
-4.7185521 -1.5957481 -1.8064592
-4.8047953 -1.5921086 -1.8363801
-4.8786836 -1.5834208 -1.8614302
-4.9696212 -1.5792766 -1.8930907
-5.0356202 -1.5662838 -1.9150095
-5.0729423 -1.5438118 -1.925795
-5.1092782 -1.5206732 -1.9362324
-5.1239142 -1.490865 -1.9383199
-5.1329656 -1.4593971 -1.9383199
-5.1607947 -1.4331383 -1.9456263
-5.1722059 -1.4021806 -1.9466699
-5.2088108 -1.3778443 -1.9574554
-5.2262454 -1.3481977 -1.9609346
-5.2189617 -1.3122215 -1.9550201
-5.2205405 -1.278614 -1.9525846
-5.2264638 -1.246123 -1.9518888
-5.1892586 -1.2036601 -1.9348408
-5.2102656 -1.1748873 -1.9400595
-5.2063861 -1.1404905 -1.9358846
-5.211452 -1.1081337 -1.9351887
-5.2310085 -1.0787842 -1.9400595
-5.2356906 -1.0463001 -1.9393637
-5.229125 -1.0116644 -1.9344928
-5.2278619 -0.97818226 -1.9317095
-5.2411461 -0.94741887 -1.9344928
-5.2487078 -0.91556376 -1.9351887
-5.2570009 -0.88380677 -1.9362324
-5.2651014 -0.85198247 -1.9372762
-5.2785678 -0.82095528 -1.9404075
-5.291851 -0.78979486 -1.9435388
-5.2984538 -0.7575748 -1.9442346
-0 -0 -0
-0 -0 -0
-0 -0 -0
-0 -0 -0
-0 -0 -0
-0 -0 -0
-0 -0 -0
-0 -0 -0
-0 -0 -0
-0 -0 -0
-0 -0 -0
-0 -0 -0
-0 -0 -0
-0 -0 -0
-0 -0 -0
-0 -0 -0
-0 -0 -0
-0 -0 -0
-0 -0 -0
-0 -0 -0
-0 -0 -0
-0 -0 -0
-0 -0 -0
-0 0 -0
-0 0 -0
-0 0 -0
-0 0 -0
-0 0 -0
-0 0 -0
-0 0 -0
-0 0 -0
-0 0 -0
-0 0 -0
-0 0 -0
-5.2013607 -0.13307156 -1.9519078
-5.1927438 -0.10097184 -1.948329
-0 -0 -0
-0 -0 -0
-0 -0 -0
-0 0 -0
-0 0 -0
-0 0 -0
-0 0 -0
-0 0 -0
-0 0 -0
-0 0 -0
-0 0 -0
-0 0 -0
-0 0 -0
-0 0 -0
-0 0 -0
-0 0 -0
-0 0 -0
-0 0 -0
-0 0 -0
-0 0 -0
-0 0 -0
-0 0 -0
-0 0 -0
-0 0 -0
-0 0 -0
-0 0 -0
-0 0 -0
-0 0 -0
-0 0 -0
-0 0 -0
-0 0 -0
-0 0 -0
-0 0 -0
-0 0 -0
-0 0 -0
-0 0 -0
-5.0374489 1.0609957 -1.9307928
-5.0308437 1.091885 -1.9307928
-5.0003552 1.1174401 -1.921488
-4.9897647 1.147264 -1.9200565
-4.9953537 1.1808654 -1.9250668
-4.9880137 1.2114941 -1.9250668
-4.9777684 1.2413995 -1.9239931
-4.9745808 1.2730764 -1.9257826
-4.9693851 1.3042868 -1.9268562
-4.9594851 1.3342688 -1.9261404
-4.9503045 1.3644265 -1.9257826
-4.937346 1.3935075 -1.9239931
-4.932291 1.4248124 -1.9254247
-4.9234557 1.4550496 -1.9254247
-4.9117537 1.4844218 -1.924351
-4.9114747 1.5172873 -1.9279298
-4.9038534 1.5479569 -1.9286456
-4.893374 1.5777308 -1.9282877
-4.8836012 1.6077263 -1.9282877
-4.8718743 1.6370665 -1.9275719
-4.8590879 1.6660206 -1.9264983
-4.848774 1.6958041 -1.9264983
-4.8400364 1.7261509 -1.927214
-4.8293538 1.7558162 -1.927214
-4.8184891 1.7854155 -1.927214
-4.8091908 1.8156072 -1.9279298
-4.7944736 1.8437413 -1.9264983
-4.7804618 1.8721036 -1.9254247
-4.7636805 1.8993261 -1.9232774
-4.7623196 1.9327327 -1.9275719
-4.7512341 1.9622737 -1.9279298
-4.7330785 1.9888581 -1.9254247
-4.717351 2.0163946 -1.9239931
-4.6997519 2.0430684 -1.9218459
-4.6794405 2.06847 -1.918625
-4.6632533 2.095613 -1.9171934
-4.6460605 2.1222472 -1.9154041
-4.6151643 2.1424596 -1.9078885
-4.60531 2.1723306 -1.9093201
-4.5775781 2.1936884 -1.9032362
-4.5724277 2.2258208 -1.9068149
-4.5854712 2.2670758 -1.9182671
-4.5572872 2.2880476 -1.9121832
-4.5406666 2.3146954 -1.9111094
-4.5214024 2.3399382 -1.9089622
-4.5044799 2.3663344 -1.9078885
-4.4997635 2.3992 -1.9121832
-4.4907064 2.4298749 -1.9146882
-4.4789867 2.4591808 -1.9161198
-4.4646287 2.4870715 -1.9164777
-4.4492846 2.5144191 -1.9164777
-4.430532 2.5398147 -1.9150462
-4.4092135 2.5636673 -1.912541
-4.3942046 2.5911477 -1.9128989
-4.3766198 2.6171029 -1.9121832
-4.3580837 2.6424558 -1.9111094
-4.3513341 2.6750143 -1.9154041
-4.3348389 2.7016633 -1.9154041
-4.3260746 2.7331972 -1.9189829
-4.3068633 2.7581794 -1.9179091
-4.2914248 2.7855706 -1.918625
-4.2719116 2.8103106 -1.9175513
-4.2545877 2.8364697 -1.9175513
-4.2309132 2.8583405 -1.9146882
-4.2156067 2.8858294 -1.9157619
-4.195518 2.9100451 -1.9146882
-4.1783476 2.9362705 -1.9150462
-4.1602521 2.961853 -1.9150462
-4.1465449 2.9906011 -1.9171934
-4.1243467 3.0132334 -1.9154041
-4.1065307 3.0390387 -1.9157619
-4.0878062 3.0641787 -1.9157619
-4.0704155 3.0903325 -1.9164777
-4.0506363 3.1146808 -1.9161198
-4.0329223 3.1406236 -1.9168355
-4.0113764 3.1635756 -1.9157619
-3.9933488 3.1892946 -1.9164777
-3.9737046 3.2137372 -1.9164777
-3.9459634 3.2315516 -1.912541
-3.924623 3.2545109 -1.9118253
-3.9052949 3.2791309 -1.9121832
-3.8843896 3.3024271 -1.9118253
-3.8626378 3.3249807 -1.9111094
-3.8456833 3.3516862 -1.9128989
-3.8243451 3.3746018 -1.912541
-3.8049598 3.3992484 -1.9132568
-3.7854159 3.4237838 -1.9139725
-3.763648 3.4463155 -1.9136146
-3.7417462 3.4687092 -1.9132568
-3.7217538 3.4928808 -1.9139725
-3.6948359 3.5105064 -1.9111094
-3.6712072 3.5311694 -1.9100358
-3.6481333 3.5523264 -1.9093201
-3.628263 3.5766106 -1.9103937
-3.6042659 3.596827 -1.9093201
-3.5749021 3.6115754 -1.9053835
-3.5598559 3.6407862 -1.9093201
-3.5335569 3.658531 -1.9071728
-3.5136206 3.6828458 -1.9086044
-3.490957 3.7043357 -1.9086044
-3.4687982 3.7263694 -1.9089622
-3.4452362 3.7468963 -1.9086044
-3.4209251 3.7665827 -1.9078885
-3.3946314 3.7840273 -1.9060992
-3.3682525 3.801291 -1.9043097
-3.34548 3.8225892 -1.9046676
-3.3244047 3.8458703 -1.9060992
-3.2934682 3.8576746 -1.9018047
-3.2793677 3.8892314 -1.9075307
-3.2578323 3.9121501 -1.9089622
-3.2355461 3.9342296 -1.9100358
-3.2113452 3.9540083 -1.9100358
-3.1852705 3.9714534 -1.9089622
-3.1585231 3.9879951 -1.9075307
-3.1345689 4.0080361 -1.9078885
-3.1087756 4.0257158 -1.9071728
-3.0879793 4.0499125 -1.909678
-3.0613863 4.066546 -1.9086044
-3.0335915 4.0815067 -1.9068149
-3.0112531 4.1038079 -1.9086044
-2.9761548 4.1085963 -1.9021626
-2.9606664 4.1404514 -1.9086044
-2.9314356 4.1532001 -1.9060992
-2.8957541 4.1565523 -1.8992995
-2.8717828 4.1765504 -1.9003731
-2.8602605 4.2149534 -1.9100358
-2.8317459 4.2285452 -1.9082465
-2.8072913 4.2481775 -1.9093201
-2.7827024 4.2676692 -1.9103937
-2.7605062 4.2909455 -1.9132568
-2.7276199 4.2975545 -1.9086044
-2.7002079 4.3126268 -1.9078885
-2.6692789 4.3219643 -1.9046676
-2.641252 4.3358688 -1.903594
-2.6150787 4.3527942 -1.9039519
-2.5878453 4.3679547 -1.903594
-2.5624084 4.3861699 -1.9046676
-2.5359135 4.4026189 -1.9050256
-2.506546 4.4140368 -1.9032362
-2.4798708 4.4301481 -1.903594
-2.4499345 4.4403758 -1.9014468
-2.4235349 4.456965 -1.9021626
-2.3939364 4.4676366 -1.9003731
-2.3651702 4.4797645 -1.8992995
-2.3415172 4.5016479 -1.9025204
-2.3147032 4.5175924 -1.9032362
-2.2865195 4.5308766 -1.9028783
-2.2578442 4.5431485 -1.9021626
-2.2327991 4.562788 -1.9046676
-2.2015173 4.5696726 -1.9018047
-2.1754379 4.5873132 -1.903594
-2.1472497 4.600575 -1.903594
-2.1185908 4.6128154 -1.9032362
-2.0871706 4.6189208 -1.9003731
-2.0614457 4.6376128 -1.9028783
-2.0359437 4.6570187 -1.9057413
-2.0021667 4.657414 -1.900731
-1.9728245 4.667891 -1.9000152
-1.9455789 4.6833572 -1.9014468
-1.9111577 4.6813755 -1.8957207
-1.8837881 4.6964808 -1.8971522
-1.8569897 4.7131634 -1.8992995
-1.8266873 4.7209854 -1.8978679
-1.7973537 4.7312322 -1.8975101
-1.7699213 4.7465458 -1.8992995
-1.7410846 4.7581935 -1.8996574
-1.7115406 4.7679081 -1.8992995
-1.6828734 4.7800817 -1.9000152
-1.6544259 4.7929654 -1.9010888
-1.6240877 4.8003731 -1.9000152
-1.5931331 4.8058167 -1.8982259
-1.5613075 4.8083963 -1.8953629
-1.5300764 4.8125467 -1.8932155
-1.4980206 4.8138204 -1.8899946
-1.4698156 4.8273878 -1.8917841
-1.4417671 4.8416853 -1.8939313
-1.4138594 4.8567162 -1.8964365
-1.3858215 4.8715868 -1.8989416
-1.3554038 4.8781991 -1.8982259
-1.3274025 4.8936334 -1.9010888
-1.2968727 4.8998804 -1.9003731
-1.2646822 4.8996086 -1.8971522
-1.2339113 4.9045601 -1.8960786
-1.2049059 4.9165735 -1.8978679
-1.1725481 4.9147911 -1.8942891
-1.1427917 4.9237127 -1.895005
-1.1137925 4.9360971 -1.8971522
-1.0828842 4.9401021 -1.8960786
-1.0541072 4.9539599 -1.8989416
-1.0257672 4.9703937 -1.9028783
-0.99598294 4.9802566 -1.9043097
-0.96611613 4.9899411 -1.9057413
-0.93444866 4.9902682 -1.903594
-0.9024809 4.9885573 -1.900731
-0.87121207 4.9903216 -1.8992995
-0.8401106 4.9928107 -1.8982259
-0.80826455 4.9904976 -1.8953629
-0.77748454 4.9944406 -1.895005
-0.74682456 4.9991169 -1.895005
-0.71719545 5.0110002 -1.8978679
-0.68668842 5.0171566 -1.8985838
-0.65697998 5.0296087 -1.9018047
-0.62529916 5.0270586 -1.8992995
-0.59477091 5.0335827 -1.9003731
-0.56314653 5.030642 -1.8978679
-0.53158069 5.0275025 -1.8953629
-0.50035226 5.0269527 -1.8939313
-0.46941116 5.0289984 -1.8935734
-0.43878844 5.034575 -1.894647
-0.40796405 5.0381031 -1.895005
-0.3762064 5.0293374 -1.8907104
-0.34617206 5.0436616 -1.8953629
-0.31515992 5.0447588 -1.895005
-0.28419992 5.046598 -1.895005
-0.25290126 5.0417185 -1.8924998
-0.22204335 5.0450411 -1.8932155
-0.19087094 5.04071 -1.8910682
-0.15990846 5.040853 -1.8907104
-0.12909512 5.0464063 -1.8924998
-0.098146752 5.0480371 -1.8928577
-0.067245714 5.0541463 -1.895005
-0.036307242 5.0647349 -1.8989416
-0.0052309674 5.0657964 -1.8992995
0.025852272 5.065733 -1.8992995
0.056892861 5.0617442 -1.8978679
0.087950066 5.0612998 -1.8978679
0.11902584 5.0615983 -1.8982259
0.15008098 5.0607729 -1.8982259
0.18109715 5.0588236 -1.8978679
0.21197787 5.0538855 -1.8964365
0.24293916 5.0515566 -1.8960786
0.27347583 5.0415792 -1.8928577
0.30457389 5.0426025 -1.8939313
0.335509 5.0406389 -1.8939313
0.36507833 5.0198593 -1.8867737
0.39792708 5.0435891 -1.8967943
0.4291828 5.0447741 -1.8982259
0.4599593 5.0401859 -1.8975101
0.49096712 5.0381985 -1.8978679
0.52158308 5.0323048 -1.8967943
0.5529604 5.0336504 -1.8985838
0.58319038 5.0245976 -1.8964365
0.61525571 5.0311203 -1.9003731
0.64587659 5.0253978 -1.8996574
0.67694896 5.023191 -1.9003731
0.707367 5.0161691 -1.8992995
0.73813236 5.011734 -1.8992995
0.76759499 4.9988041 -1.8960786
0.79766339 4.9903121 -1.894647
0.82842135 4.9862447 -1.895005
0.83076727 4.8172727 -1.8313024
0.88839805 4.9692688 -1.8924998
0.9183625 4.9609694 -1.8914262
0.94808304 4.9515729 -1.8899946
0.9784475 4.945662 -1.8899946
1.0100825 4.9459696 -1.8924998
1.0402189 4.938765 -1.8921419
1.0703051 4.9313769 -1.8917841
1.1001362 4.9228945 -1.8910682
1.130531 4.9169612 -1.8914262
1.159391 4.9044795 -1.8892789
1.1877 4.8900142 -1.8864158
1.2190375 4.8880706 -1.8885632
1.2490072 4.8804989 -1.8885632
1.2789298 4.8727431 -1.8885632
1.3088044 4.8648043 -1.8885632
1.3443347 4.877387 -1.8967943
1.3706865 4.8564649 -1.8917841
1.4014958 4.8515515 -1.8932155
1.4325608 4.8473382 -1.895005
1.4628167 4.8402448 -1.8957207
1.493315 4.8338542 -1.8967943
1.5218228 4.8210387 -1.8953629
1.5525213 4.815165 -1.8967943
1.5779506 4.7931309 -1.8917841
1.608223 4.7860141 -1.8928577
1.6342286 4.7663398 -1.888921
1.6640599 4.7579851 -1.8896368
1.6913414 4.7424083 -1.8874894
1.7210464 4.733696 -1.8882053
1.7526544 4.730052 -1.8910682
1.7819742 4.7200823 -1.8914262
1.8092271 4.7047014 -1.8896368
1.8373797 4.6917729 -1.888921
1.8671706 4.683013 -1.8899946
1.8920079 4.6619501 -1.886058
1.9187957 4.6459379 -1.8842685
1.9483515 4.6366591 -1.8853422
1.9778657 4.627193 -1.8864158
2.0062203 4.6149702 -1.8864158
2.0333672 4.6000109 -1.8853422
2.0646155 4.5942621 -1.8882053
2.0939302 4.5840554 -1.8892789
2.1212318 4.569427 -1.8885632
2.1496277 4.5571699 -1.888921
2.1803737 4.549789 -1.8914262
2.2082496 4.536325 -1.8914262
2.2364562 4.5235267 -1.8917841
2.2645888 4.5105538 -1.8921419
2.2905264 4.4932456 -1.8907104
2.3240609 4.4907174 -1.8957207
2.3415852 4.4573588 -1.8874894
2.3767977 4.4577394 -1.8939313
2.4094367 4.4529271 -1.8982259
2.4353662 4.4356036 -1.8971522
2.461628 4.4189453 -1.8964365
2.4882362 4.402945 -1.8960786
2.5124195 4.3827338 -1.8939313
2.5387948 4.3664279 -1.8935734
2.5660131 4.3515725 -1.8939313
2.5897906 4.3309369 -1.8917841
2.6177683 4.3173604 -1.8928577
2.6461656 4.304399 -1.8942891
2.6720333 4.2872887 -1.8939313
2.6952972 4.2660761 -1.8917841
2.7234366 4.2526031 -1.8932155
2.7504954 4.2373791 -1.8939313
2.7764437 4.2204227 -1.8939313
2.8022876 4.2033072 -1.8939313
2.8290713 4.1875811 -1.894647
2.8536577 4.1686025 -1.8939313
2.875457 4.1456428 -1.8914262
2.9003034 4.1271572 -1.8910682
2.9255724 4.1092839 -1.8910682
2.9496393 4.0897408 -1.8903525
2.976881 4.0745811 -1.8917841
3.0062695 4.0622435 -1.894647
3.0316982 4.0444684 -1.895005
3.0564575 4.0257897 -1.895005
3.0873623 4.0151033 -1.8989416
3.112514 3.9968207 -1.8992995
3.1352451 3.9754477 -1.8982259
3.1636574 3.9612432 -1.900731
3.184381 3.9374001 -1.8985838
3.2072973 3.916342 -1.8978679
3.2306712 3.89587 -1.8975101
3.2521133 3.8731129 -1.8960786
3.2752123 3.8523741 -1.8957207
3.3030522 3.8371594 -1.8982259
3.3302152 3.8210437 -1.9003731
3.3498914 3.7963369 -1.8982259
3.3768544 3.7798891 -1.9003731
3.3962259 3.7549427 -1.8982259
3.4255075 3.7409203 -1.9018047
3.447762 3.7191465 -1.9014468
3.4724343 3.6999643 -1.9025204
3.4957147 3.679265 -1.9028783
3.512399 3.6516893 -1.8996574
3.5334365 3.6287308 -1.8989416
3.5523582 3.6036563 -1.8971522
3.5803387 3.5877409 -1.9003731
3.6022851 3.5657046 -1.9003731
3.6260989 3.5454929 -1.9014468
3.6450992 3.520582 -1.9000152
3.6592011 3.4910588 -1.8960786
3.6846302 3.4723835 -1.8982259
3.7058668 3.4497097 -1.8982259
3.7249022 3.4250097 -1.8971522
3.7451563 3.4014618 -1.8967943
3.7666519 3.3790414 -1.8971522
3.7831213 3.3521502 -1.895005
3.7965922 3.3227241 -1.8914262
3.8260915 3.3073051 -1.8960786
3.847023 3.2843728 -1.8964365
3.8685308 3.2619102 -1.8971522
3.8884726 3.2381117 -1.8971522
3.908268 3.2141917 -1.8971522
3.9329898 3.1942716 -1.8996574
3.9568858 3.1735849 -1.9018047
3.9711604 3.1451876 -1.8992995
3.9999456 3.1282406 -1.9039519
4.0116749 3.0979307 -1.9003731
4.032835 3.0749559 -1.9014468
4.0523729 3.0507147 -1.9018047
4.068018 3.0235641 -1.9003731
4.0729432 2.9886019 -1.8939313
4.1138892 2.9799898 -1.9046676
4.1343751 2.9563208 -1.9057413
4.1493859 2.9287431 -1.9043097
4.1749392 2.908566 -1.9078885
4.1950154 2.8844817 -1.9089622
4.2149534 2.8602605 -1.9100358
4.2300968 2.8327851 -1.9089622
4.2505145 2.808836 -1.9103937
4.2528086 2.773011 -1.903594
4.2673879 2.7453482 -1.9025204
4.2959776 2.726619 -1.9078885
4.3260808 2.7086332 -1.9139725
4.3545356 2.6893988 -1.9193407
4.3629813 2.6577706 -1.9157619
4.3672009 2.6237357 -1.9103937
4.3824143 2.5964136 -1.9100358
4.3958445 2.5680616 -1.9089622
4.4163737 2.5438375 -1.9111094
4.4294634 2.5153079 -1.9100358
4.4448137 2.4880819 -1.9100358
4.4673548 2.4648225 -1.9132568
4.4815741 2.436919 -1.9128989
4.4956193 2.4089334 -1.912541
4.4995813 2.3756351 -1.9078885
4.5074463 2.3445339 -1.9050256
4.5234094 2.3176842 -1.9057413
4.5400457 2.2911477 -1.9068149
4.5540185 2.2632475 -1.9068149
4.5804005 2.2414193 -1.9121832
4.5940676 2.2132723 -1.9121832
4.6176853 2.1898441 -1.9164777
4.6420345 2.1666043 -1.9211301
4.655241 2.1380806 -1.9211301
4.6665707 2.1087072 -1.9204143
4.6725955 2.0769989 -1.9175513
4.6878185 2.0494118 -1.918625
4.7011633 2.0209782 -1.9189829
4.7169156 1.9935486 -1.9204143
4.7143998 1.9584776 -1.9143304
4.7263284 1.9295137 -1.9143304
4.743278 1.9025633 -1.9164777
4.7548628 1.8734232 -1.9164777
4.7758474 1.8479201 -1.9204143
4.7966976 1.8222296 -1.924351
4.8121629 1.794395 -1.9261404
4.8239594 1.7651552 -1.9264983
4.8373361 1.7364694 -1.9275719
4.8426151 1.7048944 -1.9254247
4.8468065 1.6730154 -1.9229195
4.849905 1.6408498 -1.9200565
4.8643131 1.61253 -1.9218459
4.8714514 1.5817873 -1.9207722
4.8864045 1.5535649 -1.9229195
4.8976283 1.5241083 -1.9236352
4.9095678 1.4948444 -1.9247088
4.9293861 1.4678906 -1.9290035
4.9427829 1.4389222 -1.9307928
4.9596019 1.4108669 -1.9340137
4.9645667 1.3794085 -1.9325823
4.9729376 1.3489206 -1.9325823
4.9711914 1.3157529 -1.9286456
4.9918284 1.2884938 -1.9336559
4.9824357 1.2535102 -1.9268562
4.9827781 1.2211362 -1.9239931
4.980186 1.1881551 -1.9200565
5.0010262 1.1607428 -1.9254247
5.0007672 1.1283903 -1.9225616
5.0148935 1.099285 -1.9254247
5.0297642 1.0702432 -1.9286456
5.0408087 1.040305 -1.9304349
5.0470972 1.0093557 -1.9304349
5.0559454 0.97890091 -1.9315087
5.0618567 0.94785982 -1.9315087
5.0648208 0.91628408 -1.9304349
5.0721874 0.88551098 -1.9311507
5.0775256 0.85437196 -1.9311507
5.0872808 0.82394761 -1.9329401
5.1005445 0.79401046 -1.936161
5.0914679 0.76062852 -1.9307928
5.1163745 0.73228574 -1.9386662
5.1142955 0.69999158 -1.936161
5.1175685 0.66847664 -1.9358032
5.1104546 0.63567924 -1.9315087
5.1161132 0.60452944 -1.9322244
5.1141586 0.57250243 -1.9300771
5.1092176 0.54022741 -1.9268562
5.1096487 0.50859004 -1.9257826
5.120111 0.4779231 -1.9286456
5.1182961 0.44609192 -1.9268562
5.1246595 0.41498002 -1.9282877
5.1392145 0.38443434 -1.9329401
5.1452031 0.35314953 -1.9343716
5.1482048 0.32163081 -1.9347295
5.1612692 0.29066688 -1.9390241
5.163888 0.25903931 -1.939382
5.1709771 0.22759622 -1.9415293
5.1704102 0.1957926 -1.9408134
5.1780472 0.16427165 -1.9433186
5.1742907 0.13237688 -1.9415293
5.1768727 0.10066199 -1.942245
5.1643209 0.068720438 -1.9372346
5.1833205 0.037166834 -1.9443922
5.1881199 0.0053670704 -1.9461817
5.18432 -0.026447972 -1.9447501
5.1859274 -0.058278706 -1.9454659
5.1770697 -0.089952521 -1.942245
5.1680188 -0.12151983 -1.9390241
5.156909 -0.15292427 -1.9350874
5.1577396 -0.18463024 -1.9358032
5.151845 -0.21607879 -1.9340137
5.1522875 -0.24777541 -1.9347295
5.1488056 -0.27928358 -1.9340137
5.1544514 -0.31132057 -1.9368768
5.1552396 -0.34312767 -1.9379504
5.147449 -0.37434721 -1.9358032
5.1646037 -0.40746507 -1.9433186
5.1620064 -0.43914682 -1.9433186
5.1592145 -0.47081202 -1.9433186
5.1618047 -0.50300246 -1.9454659
5.1539774 -0.53418428 -1.9436765
5.1357517 -0.56416821 -1.9379504
5.1349759 -0.59599268 -1.9390241
5.139564 -0.62850857 -1.942245
5.1522818 -0.66217369 -1.9486868
5.1333151 -0.69178087 -1.9429607
5.1280494 -0.72313493 -1.9426029
5.1198206 -0.75404251 -1.9411713
5.120635 -0.78629285 -1.9433186
5.1406102 -0.82167506 -1.9529814
5.1271811 -0.85182512 -1.9497604
5.1319799 -0.88501364 -1.9536971
5.1080689 -0.91320103 -1.9465395
5.1161423 -0.94707477 -1.9519078
5.1157374 -0.9795022 -1.954055
5.1077991 -1.010511 -1.9533392
5.0987577 -1.0412725 -1.9522656
5.0886178 -1.0717689 -1.950834
5.0518322 -1.0964385 -1.9390241
5.0249605 -1.1229366 -1.9311507
4.9861245 -1.1464274 -1.918625
4.9090233 -1.1604648 -1.8910682
4.833755 -1.1740404 -1.8642273
4.7286081 -1.1792828 -1.8255764
4.6588635 -1.1923058 -1.8008827
4.6171389 -1.2118644 -1.7872833
4.553709 -1.2251357 -1.7650949
4.5064964 -1.2421396 -1.7493482
4.4691334 -1.2613999 -1.7375381
4.4388819 -1.2823213 -1.7285912
4.4085426 -1.3029194 -1.7196442
4.3897386 -1.3267044 -1.7153497
4.3797312 -1.3530632 -1.7146339
4.406075 -1.3908708 -1.7285912
4.4001241 -1.4187392 -1.7296648
4.3851275 -1.4436677 -1.7271596
4.3956599 -1.4770889 -1.735033
4.380331 -1.501913 -1.7325279
4.3639812 -1.5262964 -1.7296648
4.3457384 -1.5499085 -1.726086
4.331759 -1.5749493 -1.7242966
4.3246403 -1.6024719 -1.7253703
4.317347 -1.6299665 -1.7264439
4.3063931 -1.6560915 -1.726086
4.29702 -1.6828243 -1.7264439
4.2814093 -1.7070841 -1.7242966
4.2639322 -1.7305136 -1.7214336
4.2428765 -1.7523674 -1.717139
4.2208529 -1.7736666 -1.7124866
4.2107491 -1.7998987 -1.7128445
4.2030511 -1.8271904 -1.714276
4.1798034 -1.8476611 -1.7092657
4.1641293 -1.8713597 -1.7074763
4.1347313 -1.8887291 -1.6999608
4.1247582 -1.91485 -1.7006766
4.1120868 -1.9397247 -1.7003187
4.0782127 -1.9544291 -1.6910138
4.0837755 -1.9879971 -1.6985294
4.0589442 -2.0068107 -1.6931611
4.03654 -2.0266511 -1.6888666
4.0198693 -2.0492606 -1.6870772
4.0097075 -2.075175 -1.6881509
3.9927654 -2.097568 -1.6863614
3.9781718 -2.1211491 -1.6856457
3.9552264 -2.140187 -1.6813512
3.9534798 -2.1707063 -1.6863614
3.9498754 -2.2003758 -1.6906559
3.9371128 -2.2250297 -1.6910138
3.9177151 -2.2458951 -1.6885087
3.9030535 -2.2694223 -1.6881509
3.8785982 -2.2871633 -1.6834984
3.8701017 -2.3142729 -1.6860036
3.8646121 -2.3433006 -1.6899402
3.8557298 -2.3703921 -1.6924454
3.8506227 -2.3999317 -1.6967399
3.8302984 -2.4200227 -1.6942347
3.804368 -2.4364302 -1.6892245
3.7979627 -2.4653192 -1.6931611
3.7827642 -2.4885767 -1.6931611
3.7580998 -2.5055254 -1.6888666
3.7449768 -2.5301056 -1.6899402
3.7332346 -2.5556736 -1.6917297
3.7159483 -2.5774679 -1.6910138
3.6992993 -2.5996833 -1.6906559
3.6809962 -2.6207085 -1.6895823
3.6724205 -2.6487067 -1.6931611
3.650821 -2.6673348 -1.6906559
3.6463957 -2.6985722 -1.696382
3.6140778 -2.7091353 -1.6888666
3.5944116 -2.7290015 -1.687435
3.5827811 -2.7549889 -1.6899402
3.5680196 -2.7786415 -1.6910138
3.5538361 -2.8027949 -1.6924454
3.54022 -2.8274615 -1.6942347
3.5249827 -2.8508918 -1.6953084
3.5153706 -2.8789744 -1.6992451
3.4947641 -2.8981061 -1.6978135
3.4719098 -2.9152923 -1.6953084
3.4667628 -2.9474266 -1.7017503
2.4924617 -2.1457152 -1.2182556
2.4834728 -2.164649 -1.2204028
2.4666431 -2.1767578 -1.2186135
3.3850284 -3.024153 -1.6974556
3.3754122 -3.0530081 -1.7021081
3.3593707 -3.076184 -1.7035396
3.3294749 -3.0865827 -1.6978135
3.3084307 -3.105037 -1.6967399
3.291347 -3.127208 -1.6978135
3.274116 -3.1492863 -1.6988872
3.2553999 -3.1699679 -1.6992451
3.2485237 -3.202337 -1.7060448
3.2228644 -3.2162733 -1.7028239
3.178762 -3.2114353 -1.6895823
3.1557329 -3.2275414 -1.6877929
3.1339233 -3.2448292 -1.6867193
3.1062191 -3.2558906 -1.6824248
3.0938683 -3.2830429 -1.6867193
3.0590312 -3.2862461 -1.6784881
3.034385 -3.3001428 -1.675983
3.0109394 -3.3152435 -1.6741935
2.989917 -3.3329608 -1.6738356
2.9725068 -3.354738 -1.6756251
2.9580166 -3.37994 -1.6792039
2.9421077 -3.4036775 -1.6820669
2.9144979 -3.4138546 -1.6781303
2.892292 -3.4302456 -1.6774144
2.8813491 -3.4601254 -1.6834984
2.883791 -3.5065858 -1.6978135
2.8522122 -3.5118933 -1.6917297
2.8241827 -3.5213158 -1.6877929
2.7851291 -3.5166199 -1.6770566
2.0121543 -2.5730891 -1.2096665
1.9797757 -2.5639558 -1.199288
1.9589102 -2.5693729 -1.1960671
1.9414229 -2.5791061 -1.1949935
1.9216617 -2.5857244 -1.1924883
1.9035499 -2.5944555 -1.1910568
1.7851486 -2.4646828 -1.1241333
1.6151826 -2.2591276 -1.0221379
1.5985979 -2.2651813 -1.0203484
1.5713232 -2.2557945 -1.0114015
2.5077493 -3.647212 -1.6541523
2.4806037 -3.6555772 -1.6509314
2.455009 -3.666074 -1.6487842
2.4329829 -3.6818478 -1.649142
2.4134064 -3.7013998 -1.6512893
2.3876178 -3.711427 -1.649142
2.3698044 -3.7338905 -1.6527208
2.3523006 -3.7570665 -1.6566575
2.3272405 -3.7682517 -1.655226
2.3060186 -3.78565 -1.6566575
2.2687995 -3.7765172 -1.646279
2.2679577 -3.8281231 -1.6630993
2.222285 -3.8040743 -1.646279
2.2044954 -3.8273478 -1.6505735
2.1772804 -3.8343065 -1.6477104
2.1614673 -3.861445 -1.6537944
2.133673 -3.8672767 -1.6505735
2.115257 -3.8901396 -1.6548681
2.0922301 -3.9046912 -1.6555839
2.0769527 -3.9339697 -1.6627414
2.0493274 -3.9400127 -1.6598784
2.0238359 -3.9500198 -1.6588048
2.0037684 -3.9706995 -1.6623836
1.9648197 -3.9536541 -1.6498578
1.9446285 -3.9740224 -1.6534365
1.9198024 -3.9850385 -1.6530787
1.8913127 -3.9883063 -1.6494999
1.8660154 -3.9981439 -1.6487842
1.8406686 -4.0078211 -1.6480684
1.8171961 -4.0215926 -1.649142
1.7924858 -4.0326672 -1.649142
1.7669599 -4.0418787 -1.6484263
1.3544629 -3.1510658 -1.2722954
1.3351028 -3.1593173 -1.2722954
1.3167673 -3.1700368 -1.273369
1.659116 -4.0641418 -1.640195
1.6344954 -4.0751119 -1.6405529
1.6087755 -4.0833268 -1.6398371
1.5877347 -4.1035709 -1.6441317
1.5651792 -4.1202192 -1.6469947
1.5431317 -4.138494 -1.6505735
1.5186722 -4.1505156 -1.6516472
1.4934921 -4.1606345 -1.6520051
1.4691755 -4.173243 -1.6534365
1.4517694 -4.2060103 -1.6630993
1.4160568 -4.1856508 -1.6512893
1.3909352 -4.1960335 -1.6520051
1.3683356 -4.2142582 -1.6559417
1.3430176 -4.2243547 -1.6566575
1.3187373 -4.237865 -1.6588048
1.2948859 -4.2530231 -1.6616678
1.2660998 -4.2519393 -1.658089
1.2402476 -4.2605243 -1.6584469
1.2120377 -4.260869 -1.6555839
1.1891212 -4.2799215 -1.6602362
1.1589254 -4.2727184 -1.6545101
1.1341206 -4.2851648 -1.6566575
1.1127083 -4.3110294 -1.6641729
1.0853238 -4.3141537 -1.6627414
1.0590546 -4.3216386 -1.6630993
0.68460917 -2.8702991 -1.0887034
0.66508377 -2.8662596 -1.0854825
0.64583939 -2.8629997 -1.0826194
0.6258601 -2.8559635 -1.0783249
0.5982151 -2.812258 -1.0597152
0.57509524 -2.7875268 -1.0486209
0.55486631 -2.7754374 -1.042537
0.53818125 -2.7806232 -1.0432527
0.52248502 -2.7912154 -1.0461158
0.49936166 -2.7612906 -1.0332321
0.48144534 -2.7587836 -1.0310849
0.46373361 -2.7570817 -1.0292954
0.44546351 -2.7515795 -1.0260745
0.42914656 -2.7579517 -1.027506
0.41083559 -2.751298 -1.0239272
0.39368147 -2.7519183 -1.0232115
0.37691531 -2.7552071 -1.0235693
0.36157581 -2.7695045 -1.0282218
0.34515232 -2.7763042 -1.0300112
0.3282204 -2.7792969 -1.030369
0.31053704 -2.7756908 -1.0282218
0.29271379 -2.7701154 -1.0253588
0.27515581 -2.7662842 -1.0232115
0.25713477 -2.7567639 -1.018917
0.23875405 -2.7415454 -1.0124751
0.22155054 -2.7383053 -1.0106857
0.20509309 -2.7442689 -1.0124751
0.18805867 -2.742681 -1.0114015
0.17122635 -2.7437832 -1.0114015
0.15470307 -2.750376 -1.0135487
0.13857384 -2.7661948 -1.0192748
0.12155705 -2.7660601 -1.018917
0.10468876 -2.7695532 -1.0199906
0.087663449 -2.7692101 -1.0196327
0.071077466 -2.7855649 -1.0257167
0.055405885 -2.8587685 -1.0536312
0.037988745 -2.8683915 -1.05721
0.020137478 -2.834022 -1.0439684
0.002768646 -2.8527677 -1.0511261
-0.014791946 -2.8639359 -1.0554206
-0.03238529 -2.8656588 -1.0561364
-0.049451269 -2.83553 -1.0446843
-0.066520661 -2.8211706 -1.0393161
-0.083746977 -2.8179092 -1.0382425
-0.10143574 -2.8285403 -1.042537
-0.11867226 -2.8250659 -1.0414634
-0.13654166 -2.8354769 -1.0457579
-0.15459378 -2.8467069 -1.0504103
-0.17273261 -2.8568895 -1.0547049
-0.1905686 -2.8604345 -1.0564942
-0.21014598 -2.8871508 -1.0672306
-0.2301317 -2.9146643 -1.0783249
-0.25046289 -2.9420402 -1.0894191
-0.27088422 -2.9664855 -1.0994397
-0.28799525 -2.953615 -1.0951452
-0.30341947 -2.925786 -1.0851246
-0.31341869 -2.85147 -1.05721
-0.32886502 -2.8318698 -1.0504103
-0.34430921 -2.8140419 -1.0443264
-0.36228311 -2.8174331 -1.0464736
-0.37931448 -2.8133063 -1.0457579
-0.39735132 -2.8164737 -1.0479052
-0.41748109 -2.8333828 -1.0554206
-0.43358368 -2.8224611 -1.0521997
-0.4532508 -2.8345008 -1.0579258
-0.4684929 -2.8187702 -1.0529155
-0.48847619 -2.8314857 -1.0589994
-0.5048551 -2.8229201 -1.0568521
-0.5238657 -2.8289511 -1.0604309
-0.54928809 -2.867871 -1.0768933
-0.5675993 -2.8681107 -1.0783249
-0.58089137 -2.8435314 -1.0700936
-0.62006664 -2.9431658 -1.110534
-0.81669223 -3.7624154 -1.4333409
-0.64982629 -2.9070845 -1.0994397
-0.65698427 -2.8566303 -1.081188
-0.67449981 -2.8525455 -1.081188
-0.69088846 -2.843816 -1.0793985
-0.70087075 -2.8096242 -1.0675884
-0.71994859 -2.8125079 -1.0704515
-0.73932505 -2.8161662 -1.0736724
-0.75925851 -2.8214958 -1.0776092
-0.78722256 -2.8554933 -1.0929979
-0.80295378 -2.8443184 -1.0904927
-0.82375908 -2.8510005 -1.0951452
-0.86742985 -2.9345469 -1.1305752
-0.85895324 -2.8415709 -1.0955031
-0.80913997 -2.6185532 -1.0081806
-0.83952355 -2.6589537 -1.0264324
-0.85668218 -2.6564186 -1.027506
-0.86449987 -2.6253901 -1.0171275
-0.87672704 -2.6085291 -1.0124751
-0.91088313 -2.6560996 -1.0339478
-0.92901266 -2.6557491 -1.0360951
-0.9490537 -2.6605532 -1.0403897
-0.95738596 -2.63274 -1.0314428
-0.96606165 -2.6066768 -1.0232115
-1.0206167 -2.7029126 -1.0650834
-1.0345016 -2.6896269 -1.0622203
-1.0353255 -2.6432316 -1.0457579
-1.0570568 -2.6507075 -1.051484
-1.0827802 -2.6675336 -1.0611467
-1.1037605 -2.6720598 -1.0657991
-1.1280918 -2.6841762 -1.0736724
-1.1500446 -2.6900835 -1.0790406
-1.1724842 -2.6966784 -1.0847667
-1.1716459 -2.6501458 -1.0683043
-1.200896 -2.6718662 -1.0804721
-1.7929169 -3.9249334 -1.6115648
-1.2198348 -2.6272836 -1.0679464
-1.2347376 -2.6172159 -1.0668727
-1.2495629 -2.607064 -1.0657991
-1.2671705 -2.6027062 -1.0672306
-1.2868406 -2.6024158 -1.0704515
-1.3015277 -2.5919673 -1.0693779
-1.3212234 -2.5914199 -1.0725988
-1.3418194 -2.592387 -1.0765355
-1.3594376 -2.5874116 -1.077967
-1.371774 -2.5724294 -1.075104
-1.4097476 -2.6050284 -1.0929979
-1.3960489 -2.5423052 -1.0693779
-1.4179828 -2.5451124 -1.0743883
-1.4248451 -2.5209174 -1.0675884
-1.4393576 -2.5105069 -1.0668727
-1.4467568 -2.4879043 -1.0607888
-1.4634178 -2.4813933 -1.0618625
-1.4800532 -2.4747717 -1.0629361
-1.4961784 -2.4672408 -1.0636518
-1.510311 -2.4564228 -1.0629361
-1.5293056 -2.4534495 -1.0657991
-1.5488191 -2.4511247 -1.06902
