# .PCD v0.7 - Point Cloud Data file format
VERSION 0.7
FIELDS x y z
SIZE 4 4 4
TYPE F F F
COUNT 1 1 1
WIDTH 1490
HEIGHT 1
VIEWPOINT 0 0 0 1 0 0 0
POINTS 1490
DATA ascii
0.12074387 -3.8772633 -1.0163738
0.096784376 -3.8711793 -1.0145338
0.072993636 -3.869771 -1.0140079
0.04921183 -3.8672519 -1.0132194
0.025500093 -3.8703754 -1.0140079
0.0017524678 -3.8772128 -1.015848
-0.022078104 -3.8839042 -1.017688
-0.045850415 -3.8788719 -1.0163738
-0.069966882 -3.8958817 -1.0211053
-0.094340861 -3.91467 -1.0263625
-0.11877133 -3.9275188 -1.0300426
-0.14240815 -3.9141817 -1.0266254
-0.16621603 -3.9084144 -1.0253111
-0.18858986 -3.8745558 -1.0163738
-0.21267878 -3.879106 -1.0179509
-0.23718472 -3.8892844 -1.0211053
-0.26071984 -3.8829427 -1.019791
-0.28581515 -3.8985898 -1.0245225
-0.31088209 -3.9111893 -1.0284654
-0.3347922 -3.908247 -1.0282025
-0.35876644 -3.9061191 -1.0282025
-0.38149968 -3.8913617 -1.0247854
-0.40617195 -3.8966243 -1.0268883
-0.43102935 -3.9026895 -1.029254
-0.4518294 -3.8731389 -1.0218939
-0.48054034 -3.9105127 -1.0329341
-0.50452572 -3.9074905 -1.0329341
-0.52810305 -3.901453 -1.0321455
-0.55338764 -3.9076917 -1.0347742
-0.57891005 -3.9147213 -1.0376656
-0.60483402 -3.9234912 -1.0410829
-0.62966233 -3.9244692 -1.0423971
-0.65404856 -3.922435 -1.0429229
-0.68008149 -3.9297559 -1.0460773
-0.70349866 -3.9217105 -1.0450258
-0.72525465 -3.9049888 -1.0416086
-0.74810791 -3.8947804 -1.0400314
-0.77236789 -3.8920095 -1.0405571
-0.79759151 -3.8938131 -1.0423971
-0.81248271 -3.8463686 -1.0305684
-0.83175337 -3.8215141 -1.0250483
-0.8551861 -3.8163385 -1.0250483
-0.87988877 -3.8166602 -1.0266254
-0.91197956 -3.847801 -1.036877
-0.92711586 -3.8074498 -1.0271511
-0.79770184 -3.1914473 -0.85576457
-0.76854289 -2.9967895 -0.80240339
-0.78667063 -2.9910843 -0.80214053
-0.8047573 -2.9852695 -0.80187768
-0.82125908 -2.9737661 -0.80003762
-0.8363356 -2.957531 -0.79688329
-0.85392976 -2.9504902 -0.79635757
-1.1224211 -3.7897482 -1.0363513
-1.1512522 -3.8012564 -1.0416086
-1.1716986 -3.784905 -1.0389799
-1.1890754 -3.7592478 -1.0337226
-1.21301 -3.7546351 -1.0345113
-1.1377091 -3.4493623 -0.94908088
-1.0750422 -3.1936243 -0.87758219
-1.0917941 -3.1787562 -0.87521642
-1.124051 -3.2084157 -0.88573092
-1.337034 -3.7420053 -1.0421343
-1.1210381 -3.0783517 -0.85208446
-1.1385612 -3.0677977 -0.85103303
-1.1686354 -3.0905313 -0.85970747
-1.4784473 -3.8376999 -1.0799866
-1.2018889 -3.0642824 -0.85629028
-1.2210264 -3.0577459 -0.85655314
-1.2354021 -3.0394721 -0.8533988
-1.2547669 -3.0336175 -0.85392451
-1.5355439 -3.6482766 -1.0379285
-1.5856404 -3.7035258 -1.0571175
-1.6044806 -3.6848819 -1.0544889
-1.6360501 -3.6952562 -1.0605347
-1.6464089 -3.6578772 -1.0523859
-1.6716338 -3.653847 -1.054226
-1.6919868 -3.6391475 -1.0529116
-1.7039747 -3.6068904 -1.0463401
-1.7198081 -3.5833216 -1.0423971
-1.7349936 -3.5588274 -1.0381913
-1.7597961 -3.5541663 -1.0400314
-1.79328 -3.5665722 -1.0471287
-1.8186419 -3.5623753 -1.0492316
-1.8351355 -3.5408714 -1.0460773
-1.8509843 -3.5184457 -1.04266
-1.8811773 -3.5231907 -1.0476544
-1.8935617 -3.4946182 -1.0423971
-1.9033413 -3.4618006 -1.0358256
-1.9231358 -3.4475293 -1.035037
-1.9433024 -3.433985 -1.0345113
-1.9633752 -3.4203234 -1.0339855
-1.9940389 -3.4248853 -1.0392429
-1.9757514 -3.346132 -1.0182137
-2.0051718 -3.3488436 -1.0229453
-2.0362024 -3.3537934 -1.0284654
-2.0759714 -3.372453 -1.0384542
-2.104291 -3.3719273 -1.0423971
-2.123909 -3.3573215 -1.0418714
-2.1517637 -3.3555949 -1.0455515
-2.1654744 -3.3318141 -1.0421343
-2.19278 -3.3289368 -1.0455515
-2.2201316 -3.3258495 -1.0489687
-2.2285988 -3.2945862 -1.0431857
-2.2618692 -3.2999461 -1.0494945
-2.3051994 -3.3192823 -1.0605347
-2.3294108 -3.3105979 -1.0623747
-2.367609 -3.3213785 -1.0707864
-2.3404775 -3.241097 -1.0487058
-2.3939424 -3.2726102 -1.0642148
-2.4254704 -3.2733605 -1.0694721
-2.455359 -3.2715321 -1.0739408
-2.4736342 -3.254101 -1.0731521
-2.4994426 -3.246505 -1.0757807
-2.5299983 -3.2448006 -1.0805123
-2.5953188 -3.286752 -1.1004899
-2.5684209 -3.2120025 -1.0799866
-2.5182321 -3.1099715 -1.0497574
-2.5201321 -3.0735757 -1.0423971
-2.54141 -3.0610232 -1.0434486
-2.5557966 -3.0402033 -1.0416086
-2.5643933 -3.0127115 -1.0374027
-2.5758996 -2.9888825 -1.0345113
-2.5929215 -2.9715674 -1.0339855
-2.6104667 -2.9548786 -1.0337226
-2.6575029 -2.9711585 -1.0455515
-2.7113144 -2.9941211 -1.060009
-2.729635 -2.9774282 -1.060009
-2.7340651 -2.9457767 -1.0544889
-3.085835 -3.2839339 -1.1872345
-2.7547092 -2.8959296 -1.048443
-2.7496648 -2.8553498 -1.0395057
-2.774544 -2.8460217 -1.0423971
-2.7797518 -2.8165865 -1.0376656
-2.7833388 -2.7858303 -1.0324084
-2.7770455 -2.7456427 -1.023471
-2.8117921 -2.7460735 -1.0303055
-3.4613512 -3.3388407 -1.2697735
-2.8410869 -2.7073691 -1.0287282
-2.8492124 -2.6819525 -1.025574
-3.3582468 -3.1221912 -1.2087893
-3.4207001 -3.1413245 -1.224824
-3.316251 -3.0081635 -1.1793487
-3.3849595 -3.0328145 -1.1977491
-2.9482074 -2.6092722 -1.0321455
-2.9852335 -2.6095419 -1.0397686
-2.9997282 -2.589915 -1.0392429
-3.0140946 -2.5702088 -1.038717
-3.0047107 -2.5305419 -1.0297798
-3.0224073 -2.5139079 -1.0305684
-4.6522865 -3.8207233 -1.5996664
-4.6816382 -3.7969663 -1.6017692
-3.1208911 -2.5000594 -1.0489687
-3.1263332 -2.4730842 -1.0455515
-3.134604 -2.4485114 -1.0431857
-3.1449838 -2.4256976 -1.0416086
-3.1636472 -2.4092762 -1.0429229
-3.1698861 -2.3834434 -1.0400314
-3.1736028 -2.3559003 -1.0363513
-3.2308097 -2.3677387 -1.0508088
-3.2781157 -2.3716137 -1.061849
-3.3059564 -2.3609836 -1.0663177
-3.3290572 -2.3467667 -1.0692092
-3.3481469 -2.3296008 -1.0707864
-3.3003283 -2.2664282 -1.0502831
-3.3213623 -2.2510047 -1.0526488
-3.3495502 -2.2402337 -1.0573803
-3.3519573 -2.2122018 -1.0537002
-3.3428252 -2.1768575 -1.0463401
-3.3277035 -2.1380599 -1.0371399
-3.4051497 -2.1583896 -1.057906
-3.4486034 -2.1563733 -1.067632
-3.4469855 -2.1260595 -1.0629004
-3.4599659 -2.1048694 -1.0629004
-3.433924 -2.0602806 -1.0505459
-3.4656029 -2.0504661 -1.0565917
-3.523129 -2.0554047 -1.0707864
-3.533165 -2.032306 -1.0699978
-3.5422108 -2.0086858 -1.0689464
-3.5603654 -1.9902073 -1.0707864
-3.5589869 -1.9608781 -1.0665805
-3.579432 -1.9436053 -1.0692092
-3.5793786 -1.9152364 -1.0655291
-3.5705762 -1.8824444 -1.0592204
-3.5743523 -1.8565 -1.0568546
-3.6131663 -1.8485881 -1.0652663
-3.6270263 -1.8276851 -1.0660548
-3.7133746 -1.842687 -1.0889239
-3.7350154 -1.8249474 -1.0920782
-3.733099 -1.7957255 -1.0881352
-3.7292206 -1.7657707 -1.0836667
-3.7758458 -1.7595544 -1.094444
-3.7760456 -1.7315301 -1.0912896
-3.8182638 -1.7226032 -1.1007527
-3.9002037 -1.7308234 -1.1220446
-4.0053797 -1.7481302 -1.1501709
-5.4073153 -2.3201675 -1.5626026
-4.0300865 -1.7003456 -1.1512223
-4.0235081 -1.6685677 -1.146228
-4.1123061 -1.6758704 -1.1693599
-4.4028964 -1.7627841 -1.2516359
-4.350771 -1.7110329 -1.2332356
-4.3863916 -1.6940314 -1.2405957
-4.4634695 -1.6923816 -1.2600476
-4.4828129 -1.6683255 -1.2626762
-4.5990105 -1.6794857 -1.2934312
-4.6719074 -1.6736726 -1.3115687
-4.7813187 -1.6798114 -1.3402207
-4.8699937 -1.677447 -1.3628269
-4.9963002 -1.6867012 -1.3962106
-5.2025986 -1.7208098 -1.4524632
-5.1956186 -1.6832088 -1.4474688
-5.3870373 -1.708728 -1.4992528
-5.3817549 -1.6707817 -1.4947841
-5.9772425 -1.8153862 -1.6614391
-6.0298915 -1.7910309 -1.673268
-6.0407677 -1.7539985 -1.673268
-6.107111 -1.7326906 -1.6890397
-6.1808572 -1.7126938 -1.7069144
-6.2741446 -1.6971436 -1.7303091
-6.3590746 -1.6782979 -1.7513382
-6.4477448 -1.6594343 -1.7734187
-6.5710473 -1.6482244 -1.805225
-6.8003659 -1.6614207 -1.866735
-6.9521747 -1.6533476 -1.9064273
-7.0345716 -1.6273918 -1.9266677
-7.0397177 -1.5831401 -1.9253534
-7.0822916 -1.547117 -1.9345536
-7.1020341 -1.5058315 -1.937445
-7.133822 -1.4668862 -1.9437538
-7.1370111 -1.4219559 -1.9421766
-7.1342325 -1.3759465 -1.9390223
-7.1396956 -1.3316156 -1.9382336
-7.1097488 -1.2809452 -1.9277191
-7.1212773 -1.2379569 -1.9287705
-7.1401582 -1.1961493 -1.9319249
-7.1749873 -1.1567647 -1.939548
-7.1571598 -1.1088812 -1.9327135
-7.1609659 -1.0645196 -1.9319249
-7.1568551 -1.0190663 -1.9290335
-7.1849623 -0.97812337 -1.9350793
-7.1822171 -0.93290174 -1.9327135
-7.1925941 -0.8894062 -1.9340279
-7.2007909 -0.84559363 -1.9348165
-7.228858 -0.80395031 -1.9411252
-7.228857 -0.75907671 -1.9398109
-7.2247372 -0.71385455 -1.937445
-7.226099 -0.66924447 -1.9366565
-7.2127666 -0.62340069 -1.9319249
-7.2222266 -0.57959443 -1.9335021
-7.2246847 -0.53519762 -1.9332392
-7.2278328 -0.49085772 -1.9332392
-7.2374496 -0.44691452 -1.9350793
-7.2525792 -0.40319216 -1.9384965
-7.2404613 -0.35797125 -1.9345536
-7.2386661 -0.31337157 -1.9335021
-7.2578077 -0.26959193 -1.9382336
-7.2699332 -0.22538096 -1.9411252
-7.2547822 -0.18036421 -1.9366565
-7.2557526 -0.1358463 -1.9366565
-7.2390838 -0.091107517 -1.9319249
-7.2346821 -0.046657287 -1.9306107
-7.2357974 -0.0022653784 -1.9308735
-7.2250619 0.042069182 -1.927982
-7.224668 0.086400539 -1.927982
-7.2365422 0.13095759 -1.9313992
-7.2114892 0.17476945 -1.9248277
-7.2257109 0.21948621 -1.9290335
-7.2203717 0.26367673 -1.927982
-7.2176538 0.30793387 -1.9277191
-7.2165923 0.35226196 -1.927982
-7.207551 0.39616373 -1.926142
-7.2059479 0.44044 -1.9264048
-7.1954083 0.48412716 -1.924302
-6.9427447 -0.17654912 -1.9389588
-6.9283128 -0.13364826 -1.9345727
-6.9405417 -0.09128686 -1.9378622
-6.9159679 -0.048521902 -1.9307349
-6.9103651 -0.0060799937 -1.9290901
-6.9035406 0.036286335 -1.9271712
-6.9166512 0.078797571 -1.9310091
-6.9150758 0.12121906 -1.9307349
-6.9093947 0.16353339 -1.9293643
-6.9073 0.20589696 -1.9290901
-6.9097509 0.24841347 -1.9301866
-6.9100184 0.290887 -1.9307349
-6.9167485 0.3336972 -1.933202
-6.8982463 0.37524423 -1.9285419
-6.8938937 0.41744787 -1.9279937
-6.8960004 0.46005994 -1.9293643
-6.9151082 0.5039708 -1.9356692
-6.8773723 0.54366535 -1.9258006
-6.8940296 0.58756769 -1.9315573
-6.89221 0.6300326 -1.9321055
-6.8527999 0.66885602 -1.9219629
-6.8131742 0.70721972 -1.9118202
-6.8230457 0.75058782 -1.9159321
-6.8584332 0.79709971 -1.9274454
-6.8180938 0.83484471 -1.9173027
-6.8405042 0.88022178 -1.9252523
-6.8368807 0.92243481 -1.9258006
-6.8129992 0.96181458 -1.9205922
-6.8193378 1.0054231 -1.9241558
-6.8244467 1.0489994 -1.9274454
-6.8102846 1.0896387 -1.9252523
-6.81106 1.1326669 -1.9274454
-6.7907143 1.1721481 -1.9236076
-6.7881274 1.2146398 -1.9249783
-6.7739277 1.2550421 -1.9230593
-6.7679882 1.2969444 -1.9236076
-6.7504692 1.3365803 -1.9208664
-6.7449675 1.3785528 -1.9216887
-6.7335587 1.4193183 -1.9208664
-6.7068672 1.4567306 -1.9156579
-6.7109418 1.5007933 -1.9194957
-6.7034812 1.5423739 -1.9200439
-6.6976347 1.5843619 -1.9211404
-6.6793766 1.6233844 -1.9186733
-6.6655579 1.6634065 -1.9175768
-6.659884 1.7054669 -1.9189475
-6.6502242 1.7465433 -1.9192215
-6.6310248 1.785066 -1.9167545
-6.6255097 1.8272535 -1.9183992
-6.6206517 1.8697015 -1.9203181
-6.6007395 1.9078871 -1.917851
-6.5861421 1.9475346 -1.9170285
-6.5749888 1.988188 -1.9173027
-6.5396953 2.0213954 -1.9104495
-6.5326715 2.0632217 -1.9120942
-6.5143971 2.1014953 -1.9104495
-6.4977264 2.140224 -1.909353
-6.5090842 2.1883261 -1.9167545
-6.4846182 2.2244799 -1.9134649
-6.4481535 2.2562876 -1.9066117
-6.4305649 2.2945178 -1.9055152
-6.4588423 2.34938 -1.9183992
-6.4397964 2.3872955 -1.9170285
-6.4259267 2.427104 -1.9173027
-6.3956547 2.4606175 -1.9126425
-6.3723774 2.4966574 -1.9101753
-6.3426456 2.5300105 -1.9057894
-6.3216558 2.5667102 -1.9041445
-6.3093433 2.6069195 -1.9052411
-6.2958884 2.6467018 -1.9060634
-6.2989836 2.6936004 -1.9120942
-6.2735186 2.7283647 -1.909353
-6.2513819 2.7644734 -1.9077083
-6.2448277 2.8075106 -1.9109977
-6.2248592 2.8445764 -1.9101753
-6.2116494 2.884743 -1.911546
-6.1851344 2.918699 -1.9088048
-6.1653748 2.9557638 -1.9082565
-6.1393409 2.9897492 -1.9057894
-6.1243286 3.0290685 -1.9068859
-6.100471 3.0640001 -1.9052411
-6.0815558 3.1013741 -1.9052411
-6.0615573 3.1381896 -1.904967
-6.0106888 3.1587722 -1.8948243
-6.0225906 3.2123377 -1.904967
-6.0053039 3.2506044 -1.9057894
-5.9903035 3.2901688 -1.9074341
-5.975883 3.3301392 -1.909353
-5.9536629 3.3657973 -1.9088048
-5.9370699 3.4046566 -1.9101753
-5.8986096 3.4308689 -1.9044187
-5.8807607 3.4689517 -1.9055152
-5.8585396 3.5044765 -1.9052411
-5.8287034 3.5353711 -1.9024998
-5.8118162 3.574091 -1.9041445
-5.7954893 3.6132455 -1.9060634
-5.7528853 3.6358945 -1.8992103
-5.7409954 3.6778684 -1.902774
-5.7126741 3.7093596 -1.9008551
-5.6881995 3.7432847 -1.9003068
-5.6739254 3.7839854 -1.9033222
-5.6609592 3.8257284 -1.9068859
-5.6302371 3.8555014 -1.9044187
-5.6088443 3.8916199 -1.9052411
-5.5777793 3.9209847 -1.902774
-5.5551825 3.9562511 -1.9033222
-5.5269032 3.9874496 -1.9019516
-5.4976735 4.0178823 -1.9003068
-5.4868302 4.0618386 -1.9052411
-5.4594955 4.093698 -1.9044187
-5.4396358 4.1311913 -1.9063376
-5.4202833 4.1691809 -1.9085306
-5.3877716 4.197042 -1.9060634
-5.3619175 4.2300215 -1.9060634
-5.3088112 4.2412343 -1.8961949
-5.3163342 4.3009453 -1.9085306
-5.2838922 4.3286099 -1.9063376
-5.2638946 4.3664751 -1.9088048
-5.2259569 4.3894143 -1.9046929
-5.2099152 4.4307423 -1.9088048
-5.1760712 4.4569793 -1.9063376
-5.1522512 4.4918146 -1.9077083
-5.1224298 4.5214348 -1.9068859
-5.0960245 4.5540619 -1.9074341
-5.040885 4.5607285 -1.8970172
-5.0085506 4.5876756 -1.8953725
-4.9887691 4.6261678 -1.8986621
-4.9518757 4.6487927 -1.8953725
-4.9162865 4.6724648 -1.8926313
-4.8937616 4.7085433 -1.8950984
-4.8613338 4.7351274 -1.8937278
-4.8349276 4.7675676 -1.8948243
-4.8083057 4.7998619 -1.8959208
-4.777411 4.8279076 -1.8953725
-4.7483697 4.8578181 -1.8956467
-4.7117929 4.8799438 -1.8929054
-4.6718049 4.898325 -1.8887935
-4.6555109 4.941597 -1.8945501
-4.6237917 4.9686618 -1.8940018
-4.59517 4.9990635 -1.8948243
-4.5644097 5.0271645 -1.8948243
-4.5347624 5.0565085 -1.8953725
-4.5030131 5.0835185 -1.8950984
-4.4571705 5.0944066 -1.8887935
-4.4277143 5.1238422 -1.8896159
-4.3949432 5.1494508 -1.8890676
-4.3837194 5.2005849 -1.8981137
-4.3338819 5.2059522 -1.8901641
-4.3195701 5.2539883 -1.8981137
-4.2793698 5.2706885 -1.8945501
-4.2469492 5.2968469 -1.8945501
-4.2054133 5.3114967 -1.8904382
-4.185183 5.3531103 -1.8961949
-4.1646004 5.3946748 -1.9019516
-4.1127639 5.3956528 -1.8931795
-4.0662775 5.4031143 -1.8868746
-4.0422258 5.4403133 -1.8912606
-4.002511 5.4564838 -1.8882452
-3.9486482 5.4529004 -1.8783766
-3.9279795 5.4950199 -1.8846816
-3.9025061 5.5308042 -1.8887935
-3.8586025 5.540441 -1.8838592
-3.8310719 5.5735226 -1.8871487
-3.8129992 5.6207991 -1.8953725
-3.7688081 5.6297054 -1.8904382
-3.7416158 5.6639576 -1.894276
-3.6915615 5.6634464 -1.8863263
-3.659863 5.6908436 -1.887971
-3.6140552 5.6961408 -1.8822144
-3.5851598 5.7279906 -1.8855039
-3.5544932 5.7572455 -1.887971
-3.5130978 5.7690907 -1.8846816
-3.4820898 5.7979579 -1.8871487
-3.4503696 5.8258338 -1.8893417
-3.4106777 5.8402519 -1.8871487
-3.3690193 5.851069 -1.8838592
-3.338752 5.8816667 -1.8871487
-3.2800562 5.8617597 -1.8739907
-3.2496014 5.8918805 -1.8772801
-3.2280869 5.938746 -1.8860523
-3.1906784 5.9567456 -1.8855039
-3.1446409 5.9583511 -1.8797473
-3.1089094 5.9792404 -1.8802955
-3.0620785 5.9785175 -1.8739907
-3.0340014 6.0143657 -1.8794731
-3.0103061 6.0595675 -1.887971
-2.965884 6.0632386 -1.8833109
-2.9344673 6.0934529 -1.8871487
-2.8896074 6.0957022 -1.8822144
-2.8615036 6.1333618 -1.8885193
-2.8262239 6.1560478 -1.8901641
-2.7812712 6.1574979 -1.8852298
-2.7336736 6.1524773 -1.8783766
-2.6943307 6.1656098 -1.8772801
-2.6632836 6.1979299 -1.8822144
-2.6259522 6.2159266 -1.8827627
-2.5866561 6.2292576 -1.8819402
-2.5672822 6.2913122 -1.8961949
-2.5211146 6.2882018 -1.8904382
-2.4919994 6.3277116 -1.8978397
-2.4409833 6.3114905 -1.8882452
-2.4203069 6.3739986 -1.902774
-2.3871977 6.4049492 -1.9077083
-2.3303425 6.3716087 -1.8931795
-2.293802 6.3930287 -1.8953725
-2.2522969 6.4006329 -1.8934536
-2.2236469 6.4452415 -1.902774
-2.1748142 6.4314342 -1.8945501
-2.1283526 6.4236617 -1.8882452
-2.0906794 6.4420881 -1.88989
-2.0514033 6.4557118 -1.8901641
-2.0146098 6.4773602 -1.8929054
-1.9767878 6.4960399 -1.8948243
-1.9325017 6.4932995 -1.8904382
-1.9063277 6.5521274 -1.9044187
-1.8589865 6.5387254 -1.8970172
-1.8139406 6.5324035 -1.8918089
-1.7786063 6.5610456 -1.8970172
-1.7348713 6.5588198 -1.8931795
-1.6948347 6.5702724 -1.8934536
-1.6469829 6.550703 -1.8846816
-1.6152239 6.5952463 -1.8948243
-1.580526 6.629355 -1.9019516
-1.5385152 6.6333075 -1.9003068
-1.4965155 6.6369939 -1.8986621
-1.4539111 6.6375966 -1.8961949
-1.4135563 6.6482739 -1.8967432
-1.3711824 6.6492872 -1.8945501
-1.3288493 6.6500311 -1.8923571
-1.2916747 6.6769433 -1.8978397
-1.247497 6.6677279 -1.8929054
-1.208101 6.6837745 -1.8953725
-1.1715306 6.7166405 -1.902774
-1.1320504 6.7341347 -1.9057894
-1.0920922 6.7494979 -1.9082565
-1.0477008 6.7370667 -1.902774
-1.0071952 6.7490754 -1.9044187
-0.96385837 6.7418003 -1.9005809
-0.92273396 6.7494931 -1.9011291
-0.8825472 6.764564 -1.9038705
-0.83912611 6.7545819 -1.8994844
-0.79800326 6.7624688 -1.9003068
-0.7574566 6.7758398 -1.902774
-0.71515936 6.773665 -1.9008551
-0.673298 6.7750549 -1.9000326
-0.63117862 6.7733135 -1.8983879
-0.58935624 6.7741847 -1.8975655
-0.54855484 6.7872586 -1.9003068
-0.50668371 6.7876201 -1.8994844
-0.46561798 6.7992358 -1.9019516
-0.42424911 6.807724 -1.9035963
-0.38268566 6.8140397 -1.9046929
-0.34024313 6.8037729 -1.9011291
-0.29802543 6.7951641 -1.8981137
-0.25672475 6.807436 -1.9011291
-0.21498068 6.8098445 -1.9014033
-0.17304519 6.8052669 -1.8997586
-0.13137862 6.8110085 -1.9011291
-0.089444846 6.8011084 -1.8981137
-0.047685131 6.7976828 -1.8970172
-0.005990678 6.8151579 -1.9019516
0.035771471 6.8044877 -1.8989362
0.077576846 6.808948 -1.9003068
0.11910231 6.793921 -1.8961949
0.16071869 6.7901778 -1.8953725
0.20292278 6.8073282 -1.9005809
0.24423949 6.7934608 -1.8970172
0.28692859 6.8158555 -1.9038705
0.3290222 6.8197298 -1.9055152
0.37216559 6.8415899 -1.9123684
0.41286021 6.818059 -1.9063376
0.45359996 6.7990847 -1.9016775
0.49475104 6.7885003 -1.8994844
0.5320785 6.7306905 -1.8838592
0.57393855 6.7340064 -1.8857781
0.61542177 6.7322736 -1.8863263
0.65923953 6.7542133 -1.8937278
0.70067018 6.7500415 -1.8937278
0.74154896 6.7408352 -1.8923571
0.78478241 6.752398 -1.8970172
0.82619959 6.7474556 -1.8970172
0.86537737 6.72509 -1.892083
0.90598279 6.7148881 -1.8907124
0.9485113 6.7187257 -1.8934536
0.9894383 6.710876 -1.8929054
1.0297205 6.6989756 -1.8912606
1.0739949 6.7124734 -1.8970172
1.1118498 6.6858349 -1.8912606
1.1538335 6.6845732 -1.8929054
1.1988915 6.7000875 -1.8994844
1.2331494 6.655726 -1.8887935
1.2745079 6.6508679 -1.8896159
1.315853 6.6457529 -1.8904382
1.3566058 6.6375537 -1.8904382
1.3945314 6.6159306 -1.8866005
1.435712 6.6100683 -1.8874228
1.4823285 6.6283517 -1.8953725
1.5223247 6.6163201 -1.8945501
1.5675409 6.6265082 -1.9003068
1.6081709 6.616765 -1.9003068
1.6503699 6.6133046 -1.9022257
1.687101 6.5881472 -1.8978397
1.7311568 6.5916238 -1.9019516
1.7823168 6.6208096 -1.9137391
1.811149 6.5671024 -1.9011291
1.8514098 6.5558658 -1.9011291
1.8846594 6.5203609 -1.8940018
1.9276313 6.5188189 -1.8970172
1.9600796 6.4820137 -1.8896159
1.9912972 6.4423003 -1.881392
2.0249975 6.4116197 -1.8759094
2.0707946 6.4192095 -1.8819402
2.1086392 6.4018154 -1.8805697
2.1509442 6.397872 -1.8833109
2.1811125 6.3581734 -1.8753612
2.2223074 6.3510246 -1.8772801
2.2651124 6.3481388 -1.8805697
2.3020492 6.3286982 -1.8789248
2.3441801 6.3234711 -1.8816662
2.3676474 6.2684832 -1.8693304
2.4081371 6.259223 -1.8709753
2.436676 6.2192564 -1.8632996
2.4712284 6.1952558 -1.8605584
2.5084717 6.1781936 -1.8600101
2.5474348 6.1653523 -1.8608325
2.6012402 6.1877275 -1.87262
2.6380241 6.1689973 -1.8717976
2.6719918 6.1438756 -1.8690563
2.7088618 6.1256056 -1.8685081
2.7463968 6.1088691 -1.8685081
2.7858267 6.0962763 -1.8698786
2.8207502 6.0738344 -1.8682339
2.8637104 6.0685887 -1.8720717
2.8983986 6.0456996 -1.8704269
2.9303877 6.017426 -1.8671374
2.9446609 5.9536438 -1.8526087
2.9824309 5.9380417 -1.8534311
3.0406525 5.9624677 -1.8671374
3.0789485 5.9471145 -1.8682339
3.1055403 5.9093814 -1.8622031
3.1544123 5.9139748 -1.8698786
3.1824009 5.8792844 -1.8649445
3.2253594 5.8722911 -1.8690563
3.2660112 5.8607907 -1.8717976
3.2981253 5.8339429 -1.8696046
3.3324244 5.8110933 -1.8687822
3.3651171 5.7855487 -1.8671374
3.3888276 5.7449117 -1.8605584
3.433393 5.7396913 -1.8657668
3.4700425 5.720983 -1.8665892
3.5010507 5.6930299 -1.8643962
3.5425303 5.6820502 -1.8679599
3.5804105 5.6650844 -1.8696046
3.617697 5.647058 -1.8709753
3.6674652 5.6481457 -1.8789248
3.6988809 5.6207156 -1.8772801
3.7172933 5.5739102 -1.8690563
3.7697308 5.5780888 -1.8783766
3.7875869 5.5310478 -1.8701528
3.8280315 5.5171857 -1.8734423
3.8535173 5.4817915 -1.8693304
3.8943322 5.4682274 -1.872894
3.9283738 5.4450092 -1.8731682
3.9622772 5.4215794 -1.8734423
3.9828813 5.3801594 -1.8674116
4.0331249 5.3787036 -1.8756354
4.0602365 5.3461962 -1.872894
4.0900321 5.3173709 -1.8715235
4.1249456 5.2952099 -1.87262
4.1686749 5.2841458 -1.8778284
4.1950173 5.2509542 -1.8750871
4.226553 5.2243676 -1.874813
4.2579198 5.1975913 -1.8745389
4.2835922 5.1639652 -1.8717976
4.3164339 5.1390576 -1.8723458
4.3516235 5.1168714 -1.8739907
4.3829379 5.0900741 -1.8739907
4.4241986 5.0746837 -1.8783766
4.4565253 5.0488839 -1.8789248
4.4893432 5.0235953 -1.8797473
4.5258894 5.0023732 -1.8822144
4.5577974 4.9759274 -1.8827627
4.5921664 4.9520988 -1.8844074
4.6224656 4.9238286 -1.8844074
4.6506033 4.8932815 -1.8835851
4.6692057 4.8528719 -1.8789248
4.6995654 4.82482 -1.879199
4.730432 4.7972627 -1.8797473
4.7638545 4.7722311 -1.881392
4.7971482 4.7469697 -1.8830369
4.820683 4.7120671 -1.8808438
4.8515806 4.6844034 -1.8816662
4.8837113 4.6578655 -1.8830369
4.9038005 4.6198978 -1.8797473
4.9236073 4.5818596 -1.8764577
4.9714522 4.5697865 -1.8841333
4.9901428 4.5307918 -1.8805697
5.0171332 4.4994454 -1.8802955
5.02953 4.455184 -1.8745389
5.064733 4.4312057 -1.8775543
5.110745 4.4163957 -1.8846816
5.1414046 4.3880754 -1.8860523
5.1645565 4.3533463 -1.8846816
5.204474 4.3326511 -1.8896159
5.2287321 4.2988033 -1.8887935
5.2430658 4.2569399 -1.8844074
5.2608342 4.218071 -1.881392
5.2888784 4.1875029 -1.8822144
5.3205338 4.1597109 -1.8844074
5.3421512 4.1240478 -1.8830369
5.371944 4.0946898 -1.8846816
5.4031143 4.0662775 -1.8868746
5.4403133 4.0422258 -1.8912606
5.4533825 4.000236 -1.8871487
5.4754882 3.9650068 -1.8863263
5.4958019 3.9285388 -1.8849556
5.5284472 3.9008427 -1.887971
5.5554347 3.869046 -1.8890676
5.5774851 3.833796 -1.8885193
5.6016994 3.800041 -1.8887935
5.6161203 3.7597127 -1.8857781
5.6575389 3.7373748 -1.892083
5.6731138 3.6978638 -1.8896159
5.7045937 3.6687071 -1.8926313
5.735117 3.638788 -1.8953725
5.7614121 3.6060808 -1.8967432
5.7736111 3.5645986 -1.8934536
5.804409 3.5346076 -1.896469
5.8127971 3.491003 -1.892083
5.8481746 3.4636028 -1.8967432
5.8618431 3.4232886 -1.894276
5.8810706 3.3862965 -1.8937278
5.8967199 3.3472984 -1.892083
5.9247007 3.3152809 -1.8945501
5.9424052 3.2774715 -1.8937278
5.9674726 3.2437041 -1.8953725
5.9923496 3.2097521 -1.8970172
6.0246887 3.179657 -1.9011291
6.0389662 3.1399682 -1.8994844
6.0512714 3.0993471 -1.8972914
6.0736094 3.0638916 -1.8983879
6.0966005 3.0287066 -1.8997586
6.1167974 2.9920866 -1.9003068
6.1359076 2.9549158 -1.9005809
6.1626129 2.9213309 -1.9033222
6.1812935 2.8838694 -1.9035963
6.1892586 2.8414731 -1.9005809
6.2083302 2.804235 -1.9011291
6.228056 2.7672603 -1.9019516
6.2334628 2.7239866 -1.8983879
6.2809834 2.6989779 -1.9079823
6.2726221 2.6499074 -1.9003068
6.2940922 2.6135826 -1.9019516
6.3046679 2.5727332 -1.9003068
6.3283687 2.5372214 -1.902774
6.3438177 2.4983435 -1.902774
6.3635125 2.4611063 -1.9041445
6.3802919 2.4226971 -1.9046929
6.4058504 2.3875337 -1.9079823
6.3987036 2.3402541 -1.9014033
6.4138479 2.3012731 -1.9016775
6.4269404 2.2615559 -1.9014033
6.4543324 2.226784 -1.9055152
6.47334 2.1889877 -1.9071599
6.4775209 2.1462016 -1.9044187
6.4933119 2.1073065 -1.9052411
6.5097861 2.0685899 -1.9063376
6.518683 2.0274649 -1.9052411
6.5365205 1.989109 -1.9068859
6.5559764 1.9511594 -1.9090788
6.5770588 1.913583 -1.9118202
6.6007018 1.8766105 -1.9153838
6.6139455 1.8365889 -1.9159321
6.6390128 1.799747 -1.9200439
6.6378446 1.7557791 -1.9164803
6.6410432 1.7130949 -1.9142873
6.6551604 1.6732522 -1.9153838
6.6484885 1.6282667 -1.9104495
6.6546125 1.5865493 -1.909353
6.6529803 1.5430794 -1.9060634
6.6632614 1.5024401 -1.9063376
6.6939611 1.4662608 -1.9126425
6.7047133 1.42556 -1.9131907
6.7152181 1.3847823 -1.9137391
6.7283034 1.3444949 -1.9151096
6.7279291 1.3015412 -1.9126425
6.6951413 1.2526275 -1.9008551
6.8020678 1.22949 -1.9296384
6.7137985 1.1710347 -1.9019516
6.757844 1.1360375 -1.9126425
6.6944366 1.0831797 -1.8923571
6.6125822 1.0283343 -1.8668633
6.603549 0.98546886 -1.8624773
6.5942392 0.94275308 -1.8580912
6.1558843 0.84154505 -1.730348
6.6301055 0.86499685 -1.8652185
6.7402668 0.83734685 -1.8953725
6.7729745 0.79924363 -1.9033222
6.7930427 0.75938076 -1.9077083
6.8119202 0.71920055 -1.9118202
6.8162045 0.67738986 -1.9118202
6.811615 0.63475007 -1.909353
6.8211298 0.59344333 -1.9109977
6.8150573 0.55080318 -1.9082565
6.8192677 0.50904804 -1.9085306
6.8318572 0.46785384 -1.9112719
6.8336391 0.42586568 -1.9109977
6.8332434 0.38376528 -1.9101753
6.8364296 0.34187818 -1.9104495
6.8316736 0.29962882 -1.9085306
6.8237734 0.25734183 -1.9057894
6.8261852 0.21549751 -1.9060634
6.833147 0.17375578 -1.9077083
6.8398538 0.13193673 -1.909353
6.841496 0.089978397 -1.9096271
6.8515363 0.048066102 -1.9123684
6.8584337 0.0060312762 -1.9142873
6.854495 -0.036031403 -1.9131907
6.8714542 -0.078285307 -1.918125
6.8794985 -0.12059747 -1.9205922
6.8738217 -0.16269352 -1.9192215
6.8698106 -0.20478164 -1.9183992
6.8876462 -0.24762006 -1.9238818
6.8927231 -0.29015994 -1.9258006
6.862956 -0.33110511 -1.917851
6.8598351 -0.37315702 -1.9175768
6.8247781 -0.41326672 -1.9082565
6.6906538 -0.44637245 -1.8707011
6.6321578 -0.48336601 -1.8548017
6.5715446 -0.51950723 -1.8383541
6.6008134 -0.56259447 -1.8476744
6.557013 -0.59941113 -1.836161
6.5771408 -0.64196706 -1.8430142
6.8935251 -0.71555555 -1.9348468
6.9329782 -0.76267469 -1.9474567
6.930078 -0.80542225 -1.948005
6.9307332 -0.84863019 -1.9496497
6.916811 -0.89003623 -1.9471825
6.8988299 -0.93078935 -1.9436189
6.8882275 -0.97243035 -1.9422482
6.8573942 -1.0110317 -1.9351209
6.8453584 -1.0522126 -1.9334762
6.7267175 -1.0762731 -1.9011291
6.5549178 -1.0900863 -1.8534311
6.4097433 -1.1064115 -1.8134085
6.2854471 -1.1247225 -1.7794168
6.169682 -1.1431268 -1.7478921
6.1106033 -1.1710101 -1.7328151
6.0533037 -1.1985852 -1.7182864
5.9977818 -1.2258866 -1.704306
5.9543877 -1.2551301 -1.6938891
6.0273967 -1.3091915 -1.7174641
5.9939098 -1.3404849 -1.7100626
5.9687023 -1.3733571 -1.7051283
5.9601631 -1.4099545 -1.7051283
5.9598098 -1.4485425 -1.7075955
5.9461441 -1.4839199 -1.7062248
5.9397221 -1.5210924 -1.7070472
5.9330673 -1.5582418 -1.7078696
5.93361 -1.5973665 -1.710885
5.8717794 -1.6194292 -1.6955339
5.8450732 -1.6507237 -1.6905996
5.8015742 -1.6769459 -1.6807311
5.7902532 -1.7122395 -1.6804569
5.7860818 -1.7496837 -1.6823758
5.7688055 -1.7831659 -1.6804569
5.7586727 -1.8188186 -1.6807311
5.7300138 -1.8485101 -1.6755226
5.7331791 -1.888447 -1.6799086
5.6986942 -1.9159294 -1.6730554
5.6904697 -1.9521078 -1.674152
5.6511526 -1.97746 -1.6659281
5.6624627 -2.0204992 -1.6730554
5.6129036 -2.0417292 -1.6618162
5.6002703 -2.0761309 -1.6618162
5.6027207 -2.1162302 -1.6664764
5.5905275 -2.1509132 -1.6667506
5.6040878 -2.1956985 -1.6749743
5.5565658 -2.2165055 -1.6645576
5.5437517 -2.2509201 -1.6648316
5.4960604 -2.2709403 -1.6544148
5.4660645 -2.2979133 -1.6494806
5.4713159 -2.3397267 -1.6555114
5.4621477 -2.3755548 -1.6571561
5.4553847 -2.4125254 -1.6596233
5.4448652 -2.4479249 -1.6609938
5.442863 -2.4872828 -1.6651058
5.4405828 -2.5267079 -1.6692177
5.4075818 -2.551836 -1.6637352
5.3935566 -2.5857997 -1.6642834
5.3767242 -2.6184242 -1.6640092
5.3588324 -2.6505132 -1.663461
5.3441873 -2.6842077 -1.6640092
5.3319006 -2.7191327 -1.6653799
5.316824 -2.7526817 -1.6659281
5.2879152 -2.7789907 -1.6620904
5.2792497 -2.8159099 -1.6648316
5.2830162 -2.8596933 -1.6716849
5.2493544 -2.8832598 -1.6664764
5.2240033 -2.9112022 -1.6640092
5.2278094 -2.9555054 -1.6711366
5.2037363 -2.9841783 -1.6692177
5.1578937 -3.0000973 -1.6601715
5.150157 -3.0380404 -1.6637352
5.1520524 -3.0819247 -1.6705884
5.1264668 -3.1094897 -1.6683953
5.1072907 -3.1408865 -1.6683953
5.062623 -3.156394 -1.6598973
5.0390959 -3.1848297 -1.6585268
4.9903064 -3.197015 -1.6486582
4.9947939 -3.2432852 -1.6568819
4.9506979 -3.258013 -1.6486582
4.9282136 -3.2867281 -1.6478357
4.9007826 -3.3120592 -1.6453686
4.8970318 -3.3534772 -1.6511253
4.8621397 -3.3735945 -1.646191
4.8523636 -3.4111066 -1.6500288
4.8344755 -3.4430473 -1.6511253
4.8085785 -3.4692705 -1.6494806
4.7608008 -3.4794185 -1.6401602
4.7470918 -3.5142863 -1.6429015
4.731595 -3.5479629 -1.6450945
4.7143312 -3.5804181 -1.6467392
4.6793141 -3.5993104 -1.6420791
4.6829371 -3.6480467 -1.6513994
4.6627302 -3.678499 -1.6522218
4.6378174 -3.7052391 -1.6513994
4.6254625 -3.7420938 -1.6552372
4.5763755 -3.7490759 -1.6456428
4.5451431 -3.7703319 -1.6426274
4.524869 -3.8006234 -1.6437238
4.5124531 -3.8376606 -1.6478357
4.4829903 -3.8602567 -1.6456428
4.445446 -3.8756843 -1.6404344
4.4107661 -3.8933427 -1.6363224
4.3731689 -3.9081585 -1.631114
4.3419747 -3.9284666 -1.6283728
4.3192067 -3.9563336 -1.628921
4.3019018 -3.9893 -1.6316622
4.3166089 -4.0524793 -1.6470134
4.2909651 -4.0782266 -1.6467392
4.2720981 -4.1104794 -1.6492064
2.3542688 -2.2934387 -0.89617932
2.3387825 -2.3064907 -0.89563107
2.3279893 -2.3241947 -0.89700174
4.1503177 -4.1942611 -1.6412567
4.1238317 -4.2189603 -1.6409826
4.0992031 -4.2455678 -1.6415309
4.1002903 -4.299171 -1.65277
4.0586658 -4.3081503 -1.6464652
4.0400171 -4.3414207 -1.6497546
4.0217638 -4.3753319 -1.6533183
4.0284595 -4.4369483 -1.667573
4.0030856 -4.4637308 -1.6683953
3.9775345 -4.4903688 -1.6692177
3.9448409 -4.5089002 -1.6670246
3.9076681 -4.5221062 -1.6629127
3.8711064 -4.5357575 -1.659075
3.8382437 -4.5535426 -1.6568819
3.8065395 -4.5725737 -1.6552372
3.7771895 -4.5943584 -1.654689
3.7380159 -4.6040101 -1.6497546
3.7205253 -4.6403642 -1.654689
3.6913855 -4.6623516 -1.6544148
2.0064273 -2.5666859 -0.88795555
1.987702 -2.5751426 -0.88658488
1.9677826 -2.5819368 -0.88466603
1.9507464 -2.5924256 -0.88411778
1.9382445 -2.6089778 -0.88576251
1.8226496 -2.4851253 -0.83779025
1.6787546 -2.3186769 -0.7752893
1.6857492 -2.3586624 -0.78570616
1.6368667 -2.3202453 -0.76871026
3.3935928 -4.8728337 -1.6519477
3.3761604 -4.9117923 -1.6582526
3.3254411 -4.9021745 -1.6478357
3.2904842 -4.9152946 -1.6453686
3.262383 -4.9386015 -1.6464652
3.2320189 -4.9585261 -1.6464652
3.2025735 -4.9798818 -1.6470134
3.1735032 -5.0018744 -1.6478357
3.1396909 -5.0163617 -1.646191
3.1043046 -5.0281677 -1.6437238
3.0678914 -5.0380859 -1.6407084
3.0349398 -5.0535178 -1.639612
3.0141671 -5.0894208 -1.6453686
2.9785171 -5.1003456 -1.6429015
2.9519651 -5.1268592 -1.6456428
2.9180777 -5.1406941 -1.6442721
2.8827229 -5.1517887 -1.6420791
2.8496642 -5.1668534 -1.6412567
2.8142328 -5.1774821 -1.6390637
2.7842278 -5.1980433 -1.6401602
2.7450981 -5.2014213 -1.6357741
2.7162368 -5.2241397 -1.637693
1.5415198 -3.01016 -0.92331791
1.523454 -3.0204206 -0.92359203
1.5185857 -3.0572712 -0.93236411
2.5863669 -5.2874985 -1.6371448
2.5463629 -5.2876725 -1.6322105
2.5163424 -5.3084111 -1.6338553
2.4918563 -5.3411808 -1.6393378
2.4478002 -5.3318992 -1.6316622
2.4138503 -5.3441892 -1.6308399
2.3872623 -5.3729606 -1.6352259
2.3604119 -5.4016066 -1.639612
2.3295021 -5.4212894 -1.6412567
2.2782273 -5.3929596 -1.6280986
2.2454629 -5.4077253 -1.6283728
2.2144198 -5.4267435 -1.6300175
2.1846595 -5.4491549 -1.6327587
2.1571746 -5.4776683 -1.637419
2.1002779 -5.4307075 -1.6190524
2.0853541 -5.4920402 -1.6338553
2.0415387 -5.4776988 -1.6256315
2.0128455 -5.5036697 -1.6297433
1.9702672 -5.491477 -1.622342
1.9387699 -5.5098133 -1.6242609
1.9061807 -5.5252419 -1.6253574
1.8725507 -5.537745 -1.6256315
1.8385365 -5.5491304 -1.6256315
1.8038592 -5.5584779 -1.6250832
1.7668061 -5.560276 -1.622342
1.7352266 -5.579277 -1.6248091
1.7026403 -5.5953393 -1.6264539
1.6715685 -5.6167417 -1.6297433
1.6346549 -5.6185822 -1.6272762
1.6014644 -5.6331315 -1.6286469
1.5676421 -5.6456318 -1.6294693
1.5324683 -5.6532879 -1.628921
1.4999653 -5.6709518 -1.6313882
1.4608159 -5.6632872 -1.6264539
1.4267428 -5.674942 -1.6272762
1.3921239 -5.6845236 -1.6275504
1.3574413 -5.6938939 -1.6278245
1.3246521 -5.711484 -1.6305658
1.2908516 -5.7251329 -1.6322105
1.2561102 -5.7348247 -1.6327587
1.2236992 -5.7555933 -1.6365966
0.75899136 -3.681474 -1.0307758
0.7380845 -3.6945491 -1.0332428
0.71010268 -3.671627 -1.0252932
0.69233733 -3.7014377 -1.0326946
0.66909933 -3.7027771 -1.0318723
0.64124256 -3.677444 -1.0233743
0.62297225 -3.7069156 -1.0307758
0.59714204 -3.6916816 -1.0252932
0.57181805 -3.6781714 -1.0203589
0.55179447 -3.6987314 -1.0252932
0.52500421 -3.6734874 -1.0170693
0.50284517 -3.6794982 -1.0178918
0.48262367 -3.7006328 -1.0231001
0.45789143 -3.6873004 -1.01844
0.4374004 -3.7081866 -1.0236484
0.4161357 -3.7241809 -1.0274862
0.39459011 -3.7390971 -1.0310498
0.37382871 -3.7634583 -1.0373548
0.35046166 -3.7628086 -1.0365324
0.32644939 -3.7543495 -1.033517
0.30294183 -3.7505305 -1.0318723
0.27884862 -3.7379332 -1.0277604
0.25689423 -3.7539656 -1.0318723
0.23427461 -3.7621899 -1.0337912
0.21113186 -3.7625964 -1.033517
0.18712734 -3.7455719 -1.0283086
0.16380386 -3.7389634 -1.0261155
0.14060484 -3.733171 -1.0241967
0.11754388 -3.7291572 -1.0228261
0.094316937 -3.7163491 -1.0189883
0.071437657 -3.7130117 -1.0178918
0.048285298 -3.6854935 -1.0099421
0.025629809 -3.6799505 -1.0082973
0.0030757394 -3.7079275 -1.016247
-0.019780707 -3.7280719 -1.0220037
-0.042895138 -3.7490361 -1.0280344
-0.066099577 -3.760241 -1.031324
-0.089579321 -3.7770703 -1.0362582
-0.11306789 -3.7870235 -1.0392736
-0.13681993 -3.8006744 -1.0433856
-0.15961276 -3.7872725 -1.039822
-0.18192229 -3.7670102 -1.0343394
-0.20409356 -3.748538 -1.0294051
-0.22517397 -3.7155373 -1.0203589
-0.24822366 -3.7179239 -1.0214554
-0.27033329 -3.7067394 -1.0187142
-0.2927694 -3.7011759 -1.0176176
-0.31767738 -3.7251821 -1.025019
-0.34114113 -3.7298665 -1.026938
-0.36243352 -3.7114315 -1.0222778
-0.38867289 -3.7426174 -1.0318723
-0.41078901 -3.7325146 -1.0296792
-0.45210403 -3.8884988 -1.0751843
-0.46205261 -3.7720575 -1.0425632
-0.48187643 -3.7433977 -1.0351617
-0.50702143 -3.7565727 -1.039822
-0.5305993 -3.7572 -1.0409185
-0.55756915 -3.7805133 -1.048594
-0.582362 -3.7874768 -1.0516094
-0.60422361 -3.7752855 -1.0491422
-0.62501138 -3.757277 -1.0450304
-0.64707267 -3.747685 -1.0433856
-0.6715799 -3.7521641 -1.0458528
-0.69336414 -3.7413535 -1.0439339
-0.7141363 -3.7256944 -1.0406443
-0.73717004 -3.7221859 -1.0409185
-0.76269031 -3.7307837 -1.0447562
-0.79211134 -3.7570877 -1.0538024
-0.8124966 -3.7399392 -1.0502387
-0.83458984 -3.7311294 -1.0491422
-0.84798229 -3.6847007 -1.0370806
-0.86946857 -3.6747487 -1.03571
-0.89427072 -3.6786897 -1.0384513
-0.92101622 -3.689929 -1.0433856
-0.76976013 -3.0050385 -0.84354693
-0.78525347 -2.9890969 -0.84025741
-0.80232978 -2.9795792 -0.8388868
-0.82034141 -2.9736729 -0.83861268
-0.83700418 -2.9630303 -0.83696789
-0.85490227 -2.9569149 -0.83669376
-1.1053255 -3.7373581 -1.07025
-1.1307414 -3.7387905 -1.0727172
-1.1511053 -3.7235126 -1.07025
-1.1733515 -3.7145452 -1.0697018
-1.192579 -3.6962926 -1.0664122
-1.2104237 -3.6742904 -1.0620263
-1.0751458 -3.1973333 -0.92085075
-1.0891281 -3.1743019 -0.9159165
-1.1257336 -3.2165778 -0.93071938
-1.2055521 -3.3780849 -0.98170698
-1.1200912 -3.0787032 -0.89316392
-1.1392949 -3.072674 -0.8934381
-1.1880252 -3.1447976 -0.91756123
-1.1838208 -3.0764134 -0.8989206
-1.2040782 -3.0726736 -0.90001714
-1.2346655 -3.0947056 -0.90906334
-1.4590936 -3.5931993 -1.0647675
-1.4789103 -3.578846 -1.0631227
-1.4896628 -3.5431073 -1.054899
-1.4977643 -3.5020666 -1.0450304
-1.5272777 -3.5113311 -1.050787
-1.5534607 -3.5124483 -1.0540766
-1.5824748 -3.5195162 -1.0592849
-1.6024418 -3.5062413 -1.0581884
-1.6227105 -3.4937263 -1.057366
-1.6457585 -3.4871826 -1.0584626
-1.6600577 -3.4622762 -1.0538024
-1.6842176 -3.4580777 -1.0557213
-1.7105199 -3.4580228 -1.0590109
-1.7291162 -3.4423058 -1.057366
-1.7432157 -3.4179235 -1.0529801
-1.732766 -3.3465252 -1.033517
-1.772055 -3.3715856 -1.0450304
-1.7949721 -3.3648918 -1.046401
-1.8178736 -3.3580437 -1.0477716
-1.8315002 -3.334182 -1.0436597
-1.8519238 -3.3228812 -1.0436597
-1.8519288 -3.275456 -1.0318723
-1.8676865 -3.2565224 -1.0294051
-1.8934346 -3.2549772 -1.0326946
-1.904577 -3.2283878 -1.0277604
-1.942121 -3.2463529 -1.0376289
-1.9410588 -3.1998389 -1.0261155
-1.9410107 -3.1559191 -1.0154246
-1.9862845 -3.1855714 -1.0294051
-2.0325079 -3.2155986 -1.0436597
-2.0501254 -3.1998274 -1.0425632
-2.0650074 -3.1799285 -1.040096
-2.086066 -3.1696081 -1.0409185
-2.1049416 -3.1559484 -1.0406443
-2.1323431 -3.1549258 -1.0447562
-2.1636143 -3.15924 -1.050787
-2.1873436 -3.152226 -1.0529801
-2.2000079 -3.1293039 -1.0496905
-2.2197254 -3.1165295 -1.0499647
-2.252872 -3.1223493 -1.0568178
-2.2475896 -3.075079 -1.0450304
-2.2498231 -3.0388136 -1.0370806
-2.2793875 -3.0395713 -1.042289
-2.338707 -3.0791409 -1.061478
-2.3686955 -3.079217 -1.0666864
-2.4017274 -3.0828338 -1.0732654
-2.4128554 -3.0582232 -1.0697018
-2.384758 -2.9847519 -1.0483198
-2.4157283 -2.9857647 -1.0540766
-2.4522848 -2.9932051 -1.0623003
-2.4724467 -2.9803224 -1.0631227
-2.5073857 -2.9849794 -1.0705242
-2.5100796 -2.9512227 -1.063671
-2.5080616 -2.9124441 -1.054899
-2.4955523 -2.8622036 -1.0417408
-2.5130675 -2.8468373 -1.0417408
-2.5477889 -2.8507259 -1.0491422
-2.5736198 -2.8443105 -1.0527059
-2.6273973 -2.868181 -1.0680571
-2.5743289 -2.7758436 -1.0384513
-2.5748582 -2.7424662 -1.0315981
-2.5962746 -2.7314954 -1.033517
-2.6223202 -2.7252162 -1.0373548
-2.6490569 -2.7194088 -1.0414667
-2.6521893 -2.6894071 -1.0359842
-2.6659238 -2.6703603 -1.0348877
-2.6788409 -2.6505697 -1.033517
-2.7136214 -2.6522341 -1.0409185
-0 -0 -0
-2.7438765 -2.6167428 -1.040096
-2.7619808 -2.601836 -1.0409185
-2.7785971 -2.585495 -1.0411925
-2.7788336 -2.5540781 -1.0351617
-2.7930288 -2.5356865 -1.0346135
-2.8056715 -2.5159326 -1.033517
-2.8275347 -2.5044093 -1.0359842
-2.8406768 -2.4851129 -1.0351617
-2.8653307 -2.475811 -1.0387254
-2.8607187 -2.4413254 -1.031324
-2.8704977 -2.4193873 -1.0294051
-2.8845496 -2.4011135 -1.0291309
-2.9021995 -2.385812 -1.0302275
-2.916784 -2.3679595 -1.0302275
-2.9432628 -2.3596439 -1.0346135
-2.9614558 -2.3445251 -1.0359842
-2.9803312 -2.329864 -1.0376289
-2.9884813 -2.3068316 -1.0354359
-3.0109923 -2.2948644 -1.0384513
-3.0396156 -2.2873344 -1.0436597
-3.0983634 -2.3019097 -1.0595591
-3.1085525 -2.2800109 -1.0581884
-3.2128341 -2.3263285 -1.0899872
-3.2630348 -2.332299 -1.102597
-3.1759229 -2.2407045 -1.0672346
-3.1856661 -2.2184269 -1.065864
-3.1603861 -2.172143 -1.0524318
-3.1664922 -2.1478508 -1.0499647
-3.1684239 -2.1208906 -1.0461268
-3.1934137 -2.1093614 -1.0502387
-3.2344933 -2.108109 -1.0598332
-3.229573 -2.0767777 -1.0538024
-3.2536232 -2.064136 -1.0576402
-3.2735636 -2.0487258 -1.0601074
-3.3564439 -2.0720537 -1.0836823
-3.3920927 -2.0654263 -1.0913578
-3.3890383 -2.0351655 -1.0861495
-0 -0 -0
-3.3315458 -1.9454056 -1.0590109
-3.3700881 -1.9402846 -1.0677829
-3.4028378 -1.9314396 -1.0746361
-3.4045544 -1.9048879 -1.0713465
-3.4187047 -1.8853557 -1.0721689
-3.4361231 -1.8675587 -1.0740879
-3.4661672 -1.8564308 -1.0801187
-3.485147 -1.8391682 -1.0825858
-3.5014858 -1.8204113 -1.0842305
-3.5827758 -1.8348455 -1.1067089
-3.6386139 -1.8353536 -1.1209636
-3.6773667 -1.8266863 -1.1297356
-3.6910975 -1.8053559 -1.130558
-3.6917083 -1.777666 -1.1272684
-3.7008083 -1.7541566 -1.1267202
-3.7210884 -1.7358891 -1.1297356
-3.8173182 -1.7523514 -1.1566001
-3.8367627 -1.7328551 -1.1593413
-3.9914501 -1.7733295 -1.2042981
-4.0128303 -1.7534267 -1.2075877
-5.2719698 -2.2653279 -1.5949292
-4.1120014 -1.7369895 -1.2317109
-4.1758704 -1.7338575 -1.2481585
-4.269237 -1.7419984 -1.2736523
-4.32269 -1.7329508 -1.2868104
-4.373507 -1.7222548 -1.2991462
-4.386683 -1.6964278 -1.2999685
-4.404202 -1.6722113 -1.3021616
-4.4324021 -1.6518744 -1.3076441
-4.5363832 -1.6590064 -1.3361533
-4.6161757 -1.6561527 -1.3572611
-4.7015438 -1.6542969 -1.3800136
-4.825242 -1.6646304 -1.4142795
-4.9665489 -1.6793609 -1.4537538
-5.2834849 -1.7505025 -1.5458605
-5.2575378 -1.7061741 -1.5348954
-5.29357 -1.6820387 -1.5425709
-5.6352925 -1.7526524 -1.6415309
-5.7167821 -1.7396041 -1.6626387
-5.8093815 -1.7289134 -1.6870359
-5.8928285 -1.7144638 -1.708692
-5.9504132 -1.6916891 -1.7226725
-6.0218377 -1.6721324 -1.7407649
-6.0988131 -1.6532722 -1.760502
-6.2371421 -1.6497639 -1.7983315
-6.4184875 -1.6556715 -1.8487709
-6.5441747 -1.645341 -1.8827627
-6.6858516 -1.6374195 -1.9214146
-6.7088695 -1.5994883 -1.9252523
-6.7297988 -1.5609014 -1.9285419
-6.7627029 -1.5248684 -1.9353951
-6.7813263 -1.4854028 -1.9381363
-6.7903128 -1.4437654 -1.9381363
-6.8009276 -1.4024622 -1.9386846
-6.7999744 -1.3588212 -1.9359434
-6.8053513 -1.3165236 -1.9351209
-6.818028 -1.2756264 -1.9364916
-6.7973361 -1.2286345 -1.9282677
-6.8341155 -1.192028 -1.9367657
-6.820437 -1.1465635 -1.9307349
-6.8358879 -1.1060755 -1.933202
-6.8140378 -1.0596755 -1.9249783
-6.8546534 -1.0229574 -1.9348468
-6.8769851 -0.98319358 -1.939507
-6.8866997 -0.94149995 -1.9406035
-6.8894858 -0.89885283 -1.9397811
-6.8776932 -0.8544277 -1.9348468
-6.9028625 -0.81457883 -1.9406035
-6.9125094 -0.77274281 -1.9419742
-6.906601 -0.72920257 -1.9389588
-6.911902 -0.68690592 -1.9392328
-6.8748126 -0.640643 -1.9274454
-6.8556204 -0.59644604 -1.9208664
-6.9166651 -0.55902129 -1.9373139
-6.8883171 -0.51420659 -1.9282677
-6.9114909 -0.47331196 -1.9340245
-6.9152246 -0.43095481 -1.9342985
-6.9455838 -0.39008114 -1.9422482
-6.922874 -0.34620619 -1.9351209
-6.9604163 -0.30528292 -1.9452636
-6.9487042 -0.26206067 -1.9414259
-6.9184613 -0.21841605 -1.9323797
-6.6234169 0.48639208 -1.9339285
-6.6164856 0.52671856 -1.9327884
-6.6217241 0.56804544 -1.9353535
-6.6209779 0.60892874 -1.9362086
-6.6304717 0.65085614 -1.9401989
-6.6168199 0.69053108 -1.9373487
-6.6153164 0.73143464 -1.9382037
-6.5897593 0.76956207 -1.9319333
-6.6001344 0.81185657 -1.9364936
-6.5883746 0.8514778 -1.9344984
-6.5801768 0.89150071 -1.9336435
-6.5603476 0.92983896 -1.9293681
-6.5431404 0.96838897 -1.9259479
-6.5294971 1.0073482 -1.9236678
-6.5326571 1.0489147 -1.926518
-6.5346069 1.0904 -1.9290831
-6.52496 1.1299838 -1.928228
-6.516017 1.16966 -1.927658
-6.5077748 1.2094442 -1.9273731
-6.5134091 1.2518874 -1.9313632
-6.4943233 1.2895871 -1.927943
-6.4834714 1.3288335 -1.927088
-6.4639425 1.3662097 -1.9236678
-6.4573112 1.4062543 -1.9242377
-6.4120855 1.4376642 -1.9131221
-6.4246244 1.4819399 -1.9196775
-6.4275346 1.52421 -1.9233828
-6.4217863 1.5645281 -1.9245228
-6.4306622 1.6085572 -1.9302232
-6.3956046 1.6415464 -1.9225277
-6.3872657 1.6812464 -1.9230977
-6.3629489 1.7166587 -1.9188224
-6.3116469 1.7444264 -1.9062816
-6.3543153 1.798269 -1.9228127
-6.3284316 1.8329554 -1.9182523
-6.3290124 1.8752935 -1.9219576
-6.3228903 1.9157609 -1.9236678
-6.2991142 1.950833 -1.9199625
-6.2870255 1.9894469 -1.9199625
-6.2774363 2.0288706 -1.9208175
-6.2239103 2.0538261 -1.9079916
-6.2248163 2.0965683 -1.912267
-6.2045832 2.1322303 -1.9099869
-6.2203274 2.1804123 -1.9191074
-6.2023187 2.2169244 -1.9176823
-6.1958036 2.257566 -1.9199625
-6.1207361 2.2728398 -1.9005812
-6.0887461 2.3035665 -1.8948808
-6.1236863 2.3598485 -1.9105569
-6.0992765 2.3935249 -1.9074216
-6.1156273 2.4433565 -1.9173973
-6.1005201 2.4808354 -1.9173973
-6.0639281 2.5094206 -1.9105569
-6.066967 2.554395 -1.9165423
-6.0485363 2.5904405 -1.9156872
-6.006166 2.6160176 -1.9071367
-6.0127864 2.6629171 -1.9145471
-5.9814768 2.6930685 -1.9097018
-5.9622254 2.7285223 -1.9088467
-5.9514546 2.767885 -1.9108418
-5.9230938 2.7990243 -1.9071367
-5.8928475 2.8290901 -1.9028614
-5.8882995 2.8714991 -1.9071367
-5.8585453 2.9016171 -1.9031464
-5.8783059 2.9564664 -1.9156872
-5.8796868 3.0025091 -1.9222426
-5.8543458 3.0349991 -1.9199625
-5.8152575 3.0601473 -1.9131221
-5.7853808 3.0898991 -1.9094168
-5.7671552 3.1257963 -1.9097018
-5.7394691 3.1565034 -1.9068516
-5.7333846 3.199136 -1.9114119
-5.7111449 3.2328382 -1.9105569
-5.7078242 3.2773688 -1.9162573
-5.6809816 3.3084695 -1.9139771
-5.6704769 3.3491163 -1.9173973
-5.659687 3.3897583 -1.9208175
-5.6314087 3.4199426 -1.9182523
-5.5923638 3.4433725 -1.9119819
-5.5646262 3.4735601 -1.9097018
-5.5432081 3.5076385 -1.9097018
-5.4925389 3.5229499 -1.8994411
-5.483676 3.5649464 -1.9040014
-5.4689012 3.6032741 -1.9065666
-5.4387183 3.6314387 -1.9037164
-5.4195089 3.6668909 -1.9048564
-5.4000692 3.7022438 -1.9059966
-5.3662314 3.7276506 -1.9020063
-5.3479605 3.7638178 -1.9037164
-5.3239851 3.7960048 -1.9034314
-5.2920465 3.8224256 -1.9002962
-5.2723603 3.8576558 -1.9017212
-5.2655306 3.902493 -1.9079916
-5.2353544 3.9301233 -1.9057115
-5.2050381 3.9575307 -1.9034314
-5.1874909 3.9946582 -1.9059966
-5.1553254 4.0205169 -1.9031464
-5.1380796 4.0580158 -1.9059966
-5.119071 4.0942569 -1.9082767
-5.0968318 4.1280036 -1.9094168
-5.0699248 4.1579833 -1.9088467
-5.0480032 4.1920762 -1.9102719
-5.0170512 4.2186522 -1.9082767
-4.9859638 4.2450061 -1.9062816
-4.9438534 4.2617483 -1.9000112
-4.929163 4.3020897 -1.9045714
-4.9127274 4.3411407 -1.9085617
-4.8788557 4.3648109 -1.9057115
-4.8555336 4.3978829 -1.9071367
-4.8256316 4.4250011 -1.9059966
-4.7857471 4.4427867 -1.9008662
-4.7674751 4.4806032 -1.9045714
-4.719758 4.4906073 -1.8963059
-4.7038493 4.5307889 -1.9011512
-4.6848803 4.5682669 -1.9048564
-4.6499414 4.5901918 -1.9020063
-4.6162663 4.6132154 -1.8997262
-4.5871992 4.6407719 -1.8994411
-4.5572987 4.667459 -1.8988711
-4.5378881 4.7049947 -1.9028614
-4.5010009 4.724421 -1.8994411
-4.4778385 4.7582331 -1.9020063
-4.4381185 4.774384 -1.8974459
-4.4281845 4.822711 -1.9059966
-4.3753324 4.8242264 -1.8957359
-4.3533225 4.859551 -1.8991561
-4.3088169 4.8696575 -1.8926007
-4.2820091 4.8996139 -1.8940257
-4.2481079 4.9214411 -1.8923156
-4.241456 4.9751368 -1.9031464
-4.2028255 4.9915347 -1.8994411
-4.1788588 5.0253372 -1.9025763
-4.1290913 5.0279169 -1.8937408
-4.1066136 5.0635819 -1.8977309
-4.0892453 5.1058946 -1.9042864
-4.0411944 5.1098356 -1.8963059
-4.0068154 5.1307578 -1.8948808
-3.9781845 5.1590424 -1.8963059
-3.9354246 5.1688628 -1.8908905
-3.8926942 5.1783533 -1.8854752
-3.8625605 5.2044506 -1.8863302
-3.830554 5.2280526 -1.8863302
-3.8006496 5.2545652 -1.8874702
-3.7677798 5.2770066 -1.8871853
-3.7447145 5.3133469 -1.8920306
-3.7295532 5.3614068 -1.9011512
-3.6743481 5.3517876 -1.8894655
-3.631228 5.3591533 -1.88405
-3.6046681 5.3908958 -1.8874702
-3.5583286 5.3929086 -1.8803449
-3.5408564 5.4387417 -1.8888954
-3.4949889 5.4410081 -1.8820549
-3.4564083 5.4542532 -1.8792048
-3.4330356 5.4916158 -1.8849051
-3.4063165 5.5240006 -1.8888954
-3.3678763 5.537426 -1.8863302
-3.3363004 5.5620971 -1.8877553
-3.3001578 5.5791636 -1.8866153
-3.2673109 5.6017919 -1.8874702
-3.2390873 5.6325374 -1.8911755
-3.187453 5.6222849 -1.8809148
-3.1355994 5.610775 -1.8703692
-3.1048119 5.6366262 -1.8726493
-3.0687962 5.6530433 -1.8717942
-3.0385718 5.6802197 -1.8746444
-3.0219793 5.7335262 -1.8863302
-2.9898331 5.757916 -1.8883253
-2.9570649 5.7812734 -1.8900355
-2.9344687 5.8249922 -1.898586
-2.8986721 5.8428879 -1.898586
-2.8472056 5.8286943 -1.8880403
-2.8155406 5.8546939 -1.8908905
-2.778744 5.8701267 -1.8903205
-2.7398407 5.8809838 -1.8883253
-2.6957183 5.8802567 -1.882625
-2.6576173 5.8923173 -1.8811998
-2.6268528 5.9207802 -1.8851901
-2.6000535 5.9587522 -1.8923156
-2.5615535 5.9701886 -1.8908905
-2.5282242 5.9937429 -1.8934557
-2.4862626 5.9967461 -1.8894655
-2.4490588 6.0110006 -1.8891804
-2.3996682 5.9947667 -1.8792048
-2.3793173 6.0513072 -1.8926007
-2.3348951 6.0470133 -1.8866153
-2.3014832 6.0710859 -1.8897505
-2.263186 6.0823979 -1.8888954
-2.2251654 6.0943694 -1.8883253
-2.1938672 6.1250544 -1.8937408
-2.1568782 6.1402092 -1.8943107
-2.1210337 6.1587658 -1.8960209
-2.0813661 6.1662149 -1.8943107
-2.0404835 6.1697688 -1.8914605
