# .PCD v0.7 - Point Cloud Data file format
VERSION 0.7
FIELDS x y z
SIZE 4 4 4
TYPE F F F
COUNT 1 1 1
WIDTH 1518
HEIGHT 1
VIEWPOINT 0 0 0 1 0 0 0
POINTS 1518
DATA ascii
-6.7141428 -3.081068 -0.9722836
-6.7202797 -3.0341043 -0.97038603
-5.7943687 -2.5733252 -0.82901502
-5.7909832 -2.5293939 -0.82616866
-6.717638 -2.8852558 -0.96184683
-6.7662473 -2.8570883 -0.96645528
-6.8513656 -2.8436265 -0.97648543
-6.9026279 -2.8153803 -0.98150051
-6.8839059 -2.7585986 -0.97621435
-6.8758116 -2.7065082 -0.97255468
-7.0392227 -2.7210755 -0.99410599
-6.9529686 -2.6388047 -0.97906077
-6.9179659 -2.5770671 -0.9716059
-6.9355092 -2.5352511 -0.97187698
-6.984508 -2.5046897 -0.97675651
-6.9913335 -2.4588275 -0.97553664
-6.9772534 -2.4058695 -0.97133482
-7.2040076 -2.4347157 -1.0019674
-7.244205 -2.3988776 -1.0056272
-7.3256998 -2.3760896 -1.0152507
-7.1408987 -2.2678077 -0.98665112
-7.1679244 -2.2280674 -0.98854876
-7.2421255 -2.202497 -0.9972235
-7.2849426 -2.1667764 -1.0014253
-7.2543378 -2.109309 -0.99519032
-7.1804175 -2.0401115 -0.98285598
-7.3016338 -2.0262227 -0.99830782
-7.3646121 -1.9951159 -1.0054916
-7.3566003 -1.9445717 -1.0026451
-7.2216063 -1.8615494 -0.98190713
-7.5634403 -1.9002696 -1.0285338
-7.6067157 -1.8615993 -1.0330068
-7.8329191 -1.866105 -1.0632328
-7.864491 -1.8227065 -1.0660791
-8.2988672 -1.8698206 -1.1254468
-8.2240458 -1.800007 -1.1133835
-8.4045334 -1.7855508 -1.1371034
-9.3071079 -1.9177386 -1.2616671
-9.1030083 -1.81752 -1.2315767
-9.6577606 -1.86676 -1.307345
-10.32836 -1.9307439 -1.3991075
-10.718309 -1.9356667 -1.4516979
-11.393703 -1.985552 -1.543867
-11.821907 -1.9855267 -1.6016082
-12.380609 -2.0013511 -1.6773765
-12.759789 -1.982398 -1.728205
-12.96476 -1.9328547 -1.7549069
-13.725718 -1.9603114 -1.8584615
-14.247949 -1.945781 -1.9289436
-14.214427 -1.8524297 -1.9227087
-14.113438 -1.7512652 -1.9072568
-14.252815 -1.6798294 -1.9250129
-14.252024 -1.5911345 -1.923522
-14.249695 -1.5024089 -1.9218955
-14.286251 -1.4176863 -1.9256907
-14.294681 -1.3300009 -1.9256907
-14.295663 -1.241665 -1.9247419
-14.288199 -1.1527295 -1.9227087
-14.269315 -1.0631225 -1.9191846
-14.300281 -0.97723699 -1.9225732
-14.305018 -0.88941222 -1.9224377
-14.298336 -0.80095625 -1.9208111
-14.313867 -0.71375132 -1.9223021
-14.324905 -0.62621272 -1.9232509
-14.34927 -0.53908664 -1.9260973
-14.32656 -0.45022121 -1.9225732
-13.084588 0.96429795 -1.9246105
-13.062652 1.0433041 -1.9222429
-13.048121 1.1227564 -1.921059
-13.040987 1.2027971 -1.921059
-12.993008 1.2788171 -1.9149917
-12.978031 1.3577956 -1.9139558
-12.979285 1.4384921 -1.9154357
-12.952534 1.5160333 -1.9127719
-12.960655 1.5976595 -1.9154357
-12.899608 1.6705451 -1.9077406
-12.865595 1.7464693 -1.904189
-12.845824 1.824126 -1.9028572
-12.83439 1.9029121 -1.9028572
-12.823449 1.9817778 -1.9030051
-12.813977 2.060895 -1.9034491
-12.781582 2.136219 -1.9004894
-12.775054 2.2157888 -1.9015254
-12.767058 2.2951839 -1.9024132
-12.757596 2.374383 -1.9031532
-12.755412 2.4550486 -1.9050769
-12.729438 2.5311456 -1.9034491
-12.702043 2.6068172 -1.9016733
-12.693548 2.6863453 -1.9028572
-12.68359 2.7656565 -1.903893
-12.642258 2.8380115 -1.9001935
-12.600516 2.9099638 -1.8964939
-12.58531 2.98791 -1.8969378
-12.577309 3.0676546 -1.8985656
-12.560168 3.1452506 -1.8988616
-12.531054 3.2197969 -1.8973819
-12.489066 3.2908275 -1.8939782
-12.469594 3.367655 -1.8941263
-12.435351 3.4404104 -1.8920544
-12.434941 3.5225797 -1.89531
-12.42924 3.6034958 -1.8978258
-12.424911 3.6850369 -1.9006375
-12.374619 3.7528791 -1.896346
-12.352304 3.8290308 -1.8964939
-12.32952 3.9050496 -1.896642
-12.308149 3.9815421 -1.8970859
-12.275036 4.0541964 -1.8957541
-12.265861 4.1348104 -1.8982698
-12.201916 4.1968026 -1.8922025
-12.139541 4.2588215 -1.8864312
-12.097351 4.3275638 -1.8839154
-12.09101 4.4091663 -1.887171
-12.081342 4.4898195 -1.8899827
-12.060964 4.5666671 -1.8911666
-12.036407 4.6420097 -1.8917586
-11.99481 4.7107139 -1.8896868
-11.977618 4.7889981 -1.8916105
-11.944344 4.8609095 -1.8910186
-11.895105 4.9261589 -1.887911
-11.859187 4.9967489 -1.8870231
-11.824668 5.0678625 -1.8864312
-11.777938 5.1336026 -1.8839154
-11.745313 5.2053733 -1.8837675
-11.719463 5.2801876 -1.8848034
-11.690441 5.3536448 -1.8853953
-11.637647 5.4160933 -1.8821397
-11.597937 5.4844384 -1.8811039
-11.558718 5.5529289 -1.8802159
-11.531538 5.6272178 -1.8813998
-11.508312 5.703578 -1.8833236
-11.469565 5.772306 -1.8827317
-11.428648 5.8398724 -1.8818437
-11.393477 5.9103427 -1.8819917
-11.374499 5.9893579 -1.8849514
-11.361957 6.0720921 -1.8890948
-11.321877 6.1402788 -1.8886509
-11.291785 6.2139249 -1.8899827
-11.268125 6.2912908 -1.8924985
-11.235332 6.3637247 -1.8935343
-11.240664 6.4581671 -1.9012294
-11.211933 6.5334911 -1.9031532
-11.164823 6.5981369 -1.9019693
-11.108858 6.6573668 -1.8993056
-11.075406 6.7300267 -1.9006375
-11.056637 6.8118663 -1.9046329
-11.042311 6.8968716 -1.9095163
-11.042397 6.9914818 -1.9170635
-11.001787 7.0607076 -1.9175074
-10.953282 7.1248446 -1.9166195
-10.910185 7.1924629 -1.9167675
-10.878181 7.2675133 -1.9189873
-10.8211 7.3258061 -1.9167675
-10.78981 7.401577 -1.9192832
-10.749064 7.4710298 -1.920171
-10.722426 7.5505118 -1.9237226
-10.671064 7.6127148 -1.9228348
-10.648199 7.6954288 -1.9272742
-10.609557 7.7670469 -1.928902
-10.576793 7.8431935 -1.9317137
-10.547446 7.9222007 -1.9352652
-10.493916 7.9831762 -1.9343773
-10.4228 8.0305128 -1.9302338
-10.397498 8.1131773 -1.9348212
-10.342866 8.1731424 -1.9339334
-10.3319 8.2679691 -1.9414805
-10.277133 8.3280954 -1.9407406
-10.235777 8.3991547 -1.9426644
-10.166554 8.4472637 -1.9392607
-10.148584 8.5381393 -1.94592
-10.100521 8.6040974 -1.9468079
-10.082733 8.6962729 -1.953763
-10.029929 8.7586269 -1.9539109
-9.9878521 8.8304863 -1.9562787
-9.9474812 8.9041386 -1.9590904
-9.8999872 8.9716492 -1.9605702
-9.8695269 9.0549603 -1.9656016
-9.8217516 9.1227522 -1.9672294
-9.7706337 9.1875887 -1.9682652
-9.724103 9.2569141 -1.970337
-9.6792259 9.3280735 -1.9728527
-9.6409187 9.4059381 -1.9768482
-9.5865421 9.4683914 -1.9775881
-9.5338593 9.53263 -1.9787719
-9.4856129 9.6015034 -1.9809917
-9.4424067 9.675806 -1.9843953
-9.3835459 9.7342739 -1.9845432
-9.3311415 9.7995462 -1.986171
-9.2701597 9.855896 -1.9860231
-9.2047987 9.9075184 -1.9849873
-9.1465082 9.9667263 -1.9855791
-9.0792046 10.016066 -1.9842473
-9.0353861 10.091481 -1.9882429
-8.9824677 10.157104 -1.9903146
-8.9258308 10.218733 -1.9916464
-8.8687754 10.280048 -1.9929782
-8.8087378 10.338037 -1.9937181
-8.7540531 10.402486 -1.9957899
-8.6925888 10.459046 -1.9963818
-8.6295042 10.513716 -1.9966778
-8.5480185 10.545722 -1.9926822
-8.5078688 10.62886 -1.9986016
-8.4510756 10.691726 -2.0006733
-8.3883553 10.747277 -2.0014131
-8.3331194 10.812646 -2.004077
-8.2684135 10.865935 -2.0045209
-8.2093077 10.926744 -2.0064447
-8.1362171 10.968966 -2.0049648
-8.11024 11.075338 -2.0154715
-8.035758 11.116076 -2.0138438
-7.963953 11.160343 -2.0129559
-7.9055748 11.223554 -2.0156195
-7.8495426 11.290528 -2.0190232
-7.7795582 11.337664 -2.0188751
-7.7059636 11.379453 -2.0178392
-7.6343474 11.424054 -2.0173953
-7.5624738 11.468205 -2.0169513
-7.4973569 11.522682 -2.0184312
-7.4345269 11.580953 -2.0206509
-7.3649149 11.628859 -2.0210948
-7.2955189 11.677185 -2.0216868
-7.2341075 11.73857 -2.0246463
-7.157836 11.775975 -2.0234625
-7.0834112 11.81628 -2.0228705
-7.0148001 11.866332 -2.0240545
-6.9448457 11.914277 -2.0249424
-6.870625 11.95495 -2.0246463
-6.8117647 12.022698 -2.0290859
-6.738831 12.065995 -2.0293818
-6.6675296 12.112315 -2.0302696
-6.5973282 12.160823 -2.0316014
-6.5244513 12.204563 -2.0321934
-6.4494429 12.244367 -2.0321934
-6.3682704 12.272297 -2.0302696
-6.2959995 12.317306 -2.0313056
-6.2216377 12.358356 -2.0317495
-6.1421771 12.389209 -2.0305657
-6.071682 12.438218 -2.0324895
-5.99225 12.468999 -2.0314536
-5.9388843 12.554705 -2.0395925
-5.8705025 12.609737 -2.0427003
-5.7781944 12.613151 -2.0373728
-5.702724 12.652876 -2.0381126
-5.6309915 12.701191 -2.0403326
-5.5604615 12.752728 -2.0431442
-5.4934068 12.812968 -2.0474355
-5.4150686 12.847345 -2.0475836
-5.3289461 12.862968 -2.0447719
-5.2435822 12.879852 -2.0422564
-5.1626182 12.907192 -2.0415163
-5.0865779 12.946911 -2.0428481
-5.013092 12.993565 -2.0453639
-4.9360723 13.031479 -2.0465477
-4.8608437 13.074499 -2.0486195
-4.7866282 13.120803 -2.0512831
-4.7146926 13.174137 -2.0551307
-4.6409726 13.223349 -2.0583863
-4.5610352 13.255317 -2.0589783
-4.4887791 13.31023 -2.0632696
-4.4039226 13.328132 -2.06179
-4.3196239 13.347375 -2.060606
-4.2331648 13.359487 -2.0583863
-4.1549206 13.39749 -2.0603101
-4.0757942 13.433142 -2.0619378
-3.9955435 13.465483 -2.0631218
-3.9167018 13.503043 -2.0651934
-3.8453677 13.567738 -2.0715566
-3.7565064 13.57106 -2.068449
-3.6754863 13.602448 -2.0697808
-3.59145 13.622831 -2.0694849
-3.5053325 13.635033 -2.0680051
-3.4381831 13.72248 -2.0782158
-3.3546221 13.746201 -2.0786598
-3.267472 13.754978 -2.076884
-3.1932504 13.819095 -2.0836911
-3.1001644 13.80176 -2.0780678
-3.0103624 13.797331 -2.0745163
-2.9190929 13.784581 -2.0697808
-2.8143716 13.704385 -2.0548346
-2.7230918 13.685506 -2.0493593
-2.6259804 13.633976 -2.0390007
-2.5337672 13.604135 -2.0320456
-2.4472706 13.602879 -2.0295298
-2.3575037 13.581584 -2.0240545
-2.2713521 13.579211 -2.0215387
-2.1878316 13.591916 -2.0213907
-2.1031833 13.597265 -2.0202069
-2.0134735 13.567848 -2.0138438
-1.9267075 13.555468 -2.0101442
-1.8436296 13.568015 -2.0102921
-1.7589455 13.568283 -2.0086644
-1.6740854 13.56606 -2.0067406
-1.5897789 13.567236 -2.0054088
-1.5048672 13.561991 -2.0031891
-1.4209033 13.564084 -2.0021532
-1.3373582 13.569594 -2.0017092
-1.2548895 13.586408 -2.003041
-1.171077 13.588925 -2.0023012
-1.0872022 13.58994 -2.0014131
-1.0039409 13.598328 -2.0017092
-0.92088431 13.610152 -2.0025971
-0.83723539 13.613572 -2.0023012
-0.75352466 13.615491 -2.001857
-0.66972482 13.614919 -2.0011172
-0.58604532 13.615808 -2.0006733
-0.50278032 13.627054 -2.001857
-0.41921744 13.63186 -2.0021532
-0.33551753 13.632197 -2.001857
-0.25184745 13.633011 -2.0017092
-0.16822846 13.637266 -2.0021532
-0.084572792 13.641998 -2.0027452
-0.0008654343 13.644238 -2.003041
0.082921043 13.654865 -2.0046687
0.166692 13.653111 -2.0045209
0.25046277 13.651831 -2.0045209
0.33446705 13.659924 -2.0060008
0.41830683 13.658603 -2.0061486
0.50258005 13.668627 -2.0080724
0.58665216 13.670226 -2.0088122
0.67105407 13.677236 -2.0104401
0.75600094 13.691623 -2.0132518
0.83999693 13.686726 -2.0132518
0.92362767 13.67638 -2.012512
1.007527 13.670456 -2.012512
1.0922555 13.674861 -2.0141397
1.1775851 13.684652 -2.0166554
1.2621669 13.684062 -2.0176911
1.3469795 13.684918 -2.0190232
1.4333951 13.700003 -2.0225747
1.5196104 13.710608 -2.0255344
1.6060097 13.720672 -2.0284939
1.690289 13.711541 -2.0286419
1.7757878 13.7117 -2.0302696
1.8610859 13.709366 -2.0316014
1.9476743 13.715313 -2.0342653
2.0300515 13.691365 -2.0324895
2.1167424 13.696243 -2.0351532
2.1979129 13.665422 -2.0324895
2.2885718 13.692647 -2.0387046
2.3779566 13.709529 -2.0434401
2.4685097 13.730695 -2.0489154
2.5548856 13.726957 -2.0506911
2.6424308 13.728503 -2.053355
2.7318275 13.73822 -2.0573504
2.818857 13.734762 -2.0594223
2.9092245 13.746234 -2.0638616
3.0025787 13.769674 -2.0702248
3.0935128 13.77994 -2.0746644
3.1782291 13.761662 -2.0748122
3.2658088 13.755373 -2.076884
3.3564785 13.761018 -2.0808794
3.448061 13.768944 -2.085319
3.5398672 13.776263 -2.0897584
3.6298757 13.775323 -2.093014
3.7187164 13.769022 -2.0955298
3.8062971 13.757383 -2.0973055
3.8941443 13.746139 -2.0992293
3.9770384 13.717237 -2.0984895
4.0529733 13.66508 -2.094198
4.114924 13.568027 -2.0829513
4.1737866 13.464121 -2.0706687
4.2769332 13.50331 -2.0808794
4.3523998 13.45423 -2.077328
4.4491429 13.470469 -2.0841351
4.5206523 13.410115 -2.0789559
4.6051021 13.388671 -2.0799916
4.6852021 13.354564 -2.0791037
4.7807169 13.363743 -2.085171
4.8643198 13.338802 -2.085911
4.9219518 13.243814 -2.0755522
4.9992681 13.20319 -2.0739243
5.0716448 13.150122 -2.0703728
5.1388574 13.084696 -2.0648975
5.225657 13.069448 -2.0675611
5.2927008 13.005077 -2.0623817
5.3644505 12.953169 -2.0592742
5.4261603 12.878087 -2.0524671
5.5128703 12.86273 -2.0554266
5.5889239 12.822315 -2.0543907
5.663487 12.77874 -2.052911
5.7401638 12.740142 -2.052319
5.8112264 12.689396 -2.0498033
5.8831344 12.640947 -2.0477316
5.9538212 12.590307 -2.0453639
6.0181112 12.526795 -2.0409243
6.0944271 12.488745 -2.0407765
6.1621571 12.433393 -2.0378168
6.2298818 12.378564 -2.0350051
6.3030176 12.334822 -2.0341172
6.3735733 12.286259 -2.0324895
6.444232 12.238169 -2.0310097
6.5131416 12.187059 -2.0290859
6.5802522 12.132957 -2.0267181
6.6488523 12.081955 -2.0249424
6.7156277 12.027979 -2.0227227
6.7854033 11.979663 -2.0215387
6.8592744 11.93866 -2.0216868
6.9319015 11.895494 -2.0215387
7.002244 11.848479 -2.0207989
7.0687118 11.795112 -2.0190232
7.1311927 11.735459 -2.0162115
7.1885386 11.667907 -2.0120678
7.2505641 11.608481 -2.0094042
7.3137193 11.551241 -2.0071845
7.3769794 11.494495 -2.0051126
7.443594 11.443213 -2.004077
7.5093126 11.390718 -2.002893
7.5724697 11.33456 -2.0011172
7.634666 11.277237 -1.9991934
7.6964445 11.219578 -1.9972697
7.7555447 11.158338 -1.994754
7.8101974 11.091134 -1.9912025
7.8694878 11.030928 -1.9889827
7.9329686 10.976823 -1.9879469
7.9954977 10.921556 -1.986763
8.0623608 10.872292 -1.986763
8.1235733 10.8155 -1.9854312
8.1796026 10.752071 -1.9829154
8.2194643 10.667995 -1.9765522
8.2847672 10.617361 -1.9765522
8.3436251 10.558567 -1.9750724
8.4107265 10.510262 -1.9756644
8.4694538 10.451542 -1.9743325
8.5189924 10.381794 -1.9709289
8.5566177 10.298141 -1.9648616
8.6005421 10.222743 -1.9604222
8.6534843 10.158487 -1.9582025
8.7234049 10.114185 -1.9599782
8.7781439 10.052276 -1.9583504
8.8298311 9.9871111 -1.9561307
8.8817091 9.9224291 -1.954059
8.9251566 9.8486929 -1.9502114
8.9707079 9.7777119 -1.9469558
9.0197639 9.7108917 -1.9445881
9.0703707 9.645999 -1.9426644
9.1225672 9.5830002 -1.9411845
9.1606054 9.5054827 -1.936745
9.2021809 9.4321079 -1.9331934
9.2487612 9.3642092 -1.9308258
9.2941561 9.2953959 -1.92831
9.3411665 9.2284622 -1.9262383
9.3898287 9.1633749 -1.9246105
9.4294987 9.0898027 -1.921207
9.4714861 9.018816 -1.9183953
9.5194416 8.9537554 -1.9169154
9.5662308 8.8877726 -1.9152876
9.6074686 8.8168726 -1.912624
9.649662 8.7471294 -1.9102563
9.6891508 8.6752224 -1.9074446
9.7281218 8.6031609 -1.9046329
9.7717876 8.5355015 -1.9028572
9.8142414 8.4669847 -1.9009334
9.8501987 8.3931379 -1.8978258
9.8848648 8.318532 -1.8945702
9.9167032 8.2419214 -1.8908707
9.9517984 8.1683712 -1.887911
10.0025 8.1077766 -1.888059
10.048971 8.0437784 -1.887467
10.085722 7.972156 -1.8850993
10.114957 7.8949099 -1.8813998
10.149108 7.8218317 -1.8787361
10.177233 7.7444401 -1.8750366
10.219816 7.6782837 -1.8741486
10.254821 7.606595 -1.8719289
10.297311 7.5406079 -1.871189
10.341783 7.4761243 -1.870893
10.368943 7.3993163 -1.8674895
10.40202 7.3270125 -1.8652698
10.443535 7.2607913 -1.8646778
10.482996 7.1932173 -1.8637899
10.522022 7.1254325 -1.862902
10.580346 7.0706263 -1.8655657
10.588028 6.9821653 -1.8592025
10.603312 6.8992701 -1.8543191
10.61798 6.8164506 -1.8494357
10.667126 6.7559333 -1.8507675
10.709217 6.6908779 -1.8509154
10.748385 6.6240039 -1.8506196
10.767698 6.5450878 -1.84692
10.783055 6.4641509 -1.8426285
10.81911 6.3958526 -1.8420366
10.859005 6.3298454 -1.8421845
10.896782 6.2626042 -1.8420366
10.929841 6.1926999 -1.8411486
10.975404 6.1298585 -1.8424805
11.011943 6.0619226 -1.8423325
11.06371 6.0022564 -1.8448483
11.114286 5.9417167 -1.8472159
11.155786 5.876174 -1.8481039
11.17934 5.8012366 -1.846032
11.204158 5.7271314 -1.8442563
11.248805 5.6631675 -1.8458841
11.272709 5.588769 -1.8441083
11.332563 5.5320749 -1.8483998
11.374317 5.46629 -1.8497317
11.408538 5.3968186 -1.8498796
11.436057 5.3242116 -1.8489918
11.478402 5.258471 -1.8506196
11.516763 5.1907859 -1.8516554
11.540258 5.116416 -1.8503236
11.578688 5.0486717 -1.8515074
11.599449 4.9732451 -1.8498796
11.641594 4.906971 -1.8518034
11.672397 4.8358259 -1.8519514
11.71101 4.7678428 -1.8534312
11.732697 4.6929579 -1.8522474
11.761272 4.6208787 -1.8522474
11.79494 4.5507617 -1.8531352
11.858712 4.4919629 -1.8589065
11.891613 4.4211822 -1.8597944
11.910155 4.3450837 -1.8584626
11.93473 4.271256 -1.8581666
11.970045 4.20122 -1.8596464
12.000274 4.1293025 -1.8603864
12.027259 4.0562243 -1.8606822
12.050982 3.9820402 -1.8605343
12.05731 3.9022374 -1.8577226
12.100826 3.8344536 -1.8608303
12.126016 3.7607179 -1.8611263
12.137506 3.6827984 -1.8593504
12.144704 3.6037545 -1.8569827
12.164688 3.5286174 -1.8566868
12.178497 3.4517531 -1.855503
12.187057 3.3735335 -1.8535792
12.224712 3.3033338 -1.8562429
12.23997 3.2270019 -1.855503
12.27295 3.1552844 -1.8575747
12.316064 3.0859268 -1.8612742
12.333806 3.0100644 -1.8611263
12.35974 2.9361567 -1.8623101
12.402578 2.8660507 -1.8661577
12.413176 2.7883794 -1.8651217
12.446478 2.7157438 -1.8676375
12.455167 2.6376839 -1.8664536
12.470148 2.561012 -1.8663056
12.480777 2.4834838 -1.8655657
12.486069 2.4049869 -1.8640859
12.52587 2.3330345 -1.8679334
12.541896 2.2564833 -1.8682294
12.561353 2.1804996 -1.8691173
12.574495 2.1033835 -1.8691173
12.5774 2.0246174 -1.8676375
12.59545 1.9483124 -1.8685254
6.5055804 0.96604246 -0.94556147
6.1618247 0.87645227 -0.8927319
5.9740276 0.81241125 -0.86357939
5.9396682 0.77065754 -0.85766011
5.9275985 0.73214018 -0.85514444
5.9162631 0.69391507 -0.85277671
5.9056649 0.65596569 -0.85055703
5.9007258 0.61879027 -0.84922516
5.897522 0.58189404 -0.84818929
5.8940878 0.54506046 -0.84715343
5.8894386 0.50820613 -0.84596956
5.8835735 0.47135055 -0.84463769
5.8794508 0.43473163 -0.84360182
5.8721399 0.39798102 -0.84212202
0 0 -0
0 0 -0
5.856739 0.28875956 -0.83886641
0 0 -0
0 0 -0
0 0 -0
5.8729372 0.14520776 -0.84049422
5.8737178 0.10916937 -0.84049422
0 0 -0
0 0 -0
0 -0 -0
0 -0 -0
0 -0 -0
0 -0 -0
0 -0 -0
0 -0 -0
0 -0 -0
0 -0 -0
0 -0 -0
0 -0 -0
0 -0 -0
0 -0 -0
0 -0 -0
0 -0 -0
0 -0 -0
6.2084298 -0.57200426 -0.89435971
11.497969 -1.1315356 -1.690207
11.483924 -1.2013435 -1.6891711
11.465524 -1.2705857 -1.6875433
10.617668 -1.2425371 -1.5610187
10.607881 -1.3074204 -1.5607227
10.581024 -1.3700695 -1.557911
10.566538 -1.4341689 -1.5570232
10.561456 -1.4995334 -1.5576152
10.558904 -1.565325 -1.558651
11.107181 -1.7163826 -1.6431488
11.061289 -1.778846 -1.6378213
11.041387 -1.8452152 -1.6364895
11.032781 -1.9134364 -1.6369334
11.008179 -1.9788203 -1.6350098
11.005552 -2.0481384 -1.6364895
10.998605 -2.1167507 -1.6373774
10.981529 -2.1834252 -1.6367855
10.953394 -2.2477818 -1.6345657
10.943266 -2.3157678 -1.6351577
10.917255 -2.3803413 -1.633382
10.889899 -2.4444664 -1.6314582
8.3143921 -1.9197201 -1.2382699
10.863894 -2.5790606 -1.6321981
10.857472 -2.648016 -1.6336778
10.836223 -2.7133849 -1.6329379
10.810749 -2.7776077 -1.6316061
7.5171347 -1.9802612 -1.1246197
10.724293 -2.8961341 -1.6236151
10.741588 -2.971643 -1.6290904
10.718394 -3.0361481 -1.6283505
10.710011 -3.104888 -1.6299783
10.699291 -3.1730766 -1.6313101
7.9899569 -2.4227018 -1.2107452
7.9494362 -2.463773 -1.2067497
7.9285126 -2.5107112 -1.2058618
7.9289541 -2.5644886 -1.2083775
10.585654 -3.4960592 -1.6295344
10.520895 -3.5464094 -1.6227272
10.493325 -3.6089671 -1.6218393
10.468184 -3.6723025 -1.6213953
10.392378 -3.7174726 -1.6129603
7.7158384 -2.813247 -1.1903237
10.373786 -3.8550613 -1.6173998
10.449823 -3.9564717 -1.633382
10.469641 -4.0376019 -1.640485
10.451113 -4.1042976 -1.641521
10.42206 -4.1668782 -1.640929
10.359655 -4.2158332 -1.6350098
10.289736 -4.2611518 -1.6279066
10.236966 -4.3130698 -1.6236151
10.202128 -4.3722944 -1.6222832
10.144284 -4.4213729 -1.6172519
10.101594 -4.4767203 -1.6147362
10.045984 -4.5260215 -1.6101488
10.015326 -4.5863419 -1.6097047
9.9932728 -4.65063 -1.6107407
9.9538202 -4.7067857 -1.6089649
9.9033594 -4.7574921 -1.6054133
9.8659821 -4.8142643 -1.6040815
9.8273954 -4.8703175 -1.6026016
9.7876101 -4.9256344 -1.6009738
9.7378283 -4.9756951 -1.5977182
9.7000923 -5.0317078 -1.5965344
9.6629105 -5.0879059 -1.5954986
9.6184263 -5.1401072 -1.5932788
9.5814905 -5.1961985 -1.5923909
9.5485601 -5.2544146 -1.592243
9.5126858 -5.3109756 -1.591651
9.4489412 -5.3516951 -1.5863236
9.4210711 -5.4125285 -1.5872115
9.3748665 -5.4627628 -1.5849918
9.3020077 -5.4970336 -1.5781846
9.2485933 -5.5423117 -1.5747811
9.2169476 -5.6004968 -1.575225
9.1588354 -5.6424179 -1.5710815
9.1458492 -5.7121329 -1.574929
9.1097927 -5.7676144 -1.5747811
9.0509281 -5.8084435 -1.5706376
9.0101433 -5.8606339 -1.5697496
8.9541979 -5.9027424 -1.5661981
8.9194555 -5.9586725 -1.566494
8.8655291 -6.0016441 -1.5633864
8.8187504 -6.0492148 -1.5616106
8.7660379 -6.0924859 -1.558799
8.7341509 -6.1501451 -1.5598348
8.6930294 -6.2013235 -1.559243
8.6468 -6.2487526 -1.5577631
8.6130829 -6.3051963 -1.558651
8.5654955 -6.3514457 -1.5570232
8.531106 -6.4074473 -1.557911
8.4436197 -6.423142 -1.5488842
8.3954325 -6.4681897 -1.5472564
8.3509083 -6.5159302 -1.5463685
8.2727509 -6.5369987 -1.5391173
8.2556486 -6.6061764 -1.5435568
8.224946 -6.664803 -1.5454806
8.1640205 -6.6988316 -1.541633
8.1334124 -6.7576485 -1.5437047
8.0986052 -6.813158 -1.5450367
8.0340643 -6.8434801 -1.5405972
7.9829354 -6.8848953 -1.5388213
7.9047861 -6.9025202 -1.5317183
7.8667297 -6.954824 -1.5326061
7.8327494 -7.0108786 -1.534382
7.7807908 -7.050837 -1.5326061
7.7337379 -7.0951033 -1.5318662
7.6915064 -7.1437693 -1.5321622
7.6352811 -7.1793103 -1.5296465
7.5853558 -7.2205687 -1.5284626
7.5366364 -7.2628574 -1.5275748
7.4912224 -7.3082743 -1.5274268
7.4413137 -7.3492365 -1.5263909
7.1450286 -7.1436954 -1.4732654
7.075346 -7.1613684 -1.46779
7.0181489 -7.1911974 -1.4649783
6.9491849 -7.2084894 -1.459651
6.8939128 -7.2395325 -1.4572833
6.8398767 -7.2716103 -1.4552115
6.7648411 -7.2808347 -1.4485524
6.7414355 -7.3455248 -1.4532878
6.6716638 -7.3596373 -1.4478124
6.586802 -7.3562231 -1.4389335
2.1772218 -2.4606068 -0.45307729
2.1620829 -2.4739196 -0.45307729
2.1488004 -2.4893858 -0.45352122
6.4331484 -7.5495334 -1.4455928
6.4000754 -7.6047564 -1.4487003
6.3627744 -7.655293 -1.4509201
6.3100357 -7.6873097 -1.4495882
6.2135563 -7.6651831 -1.4378977
6.1892715 -7.7317343 -1.443373
6.14294 -7.7711172 -1.443669
2.0082443 -2.5715523 -0.44967368
1.9875985 -2.577559 -0.44848984
1.9627631 -2.5778999 -0.44627011
1.9427506 -2.5843594 -0.44523424
1.928624 -2.5986145 -0.44567817
1.8314338 -2.4994805 -0.42510867
1.8363394 -2.5387251 -0.43028805
1.8666795 -2.6143517 -0.4421266
5.9290109 -8.4169188 -1.5019739
5.8885436 -8.4693813 -1.5049335
5.8526907 -8.5290031 -1.509225
5.8163271 -8.5885038 -1.5135164
5.7640691 -8.6248522 -1.5136645
5.6957965 -8.636939 -1.509521
5.6243577 -8.6435385 -1.5044895
5.5605321 -8.6612406 -1.5015299
1.789903 -2.8245282 -0.46180823
1.7709665 -2.8329413 -0.46136427
1.7540694 -2.8445964 -0.46151227
5.3308911 -8.7697392 -1.4970905
5.2912169 -8.8260365 -1.5012339
5.2309232 -8.8481197 -1.4994582
5.1670718 -8.8638144 -1.4966465
5.049026 -8.7847328 -1.4775568
5.0476737 -8.9084835 -1.4935389
4.9880958 -8.9306536 -1.4920591
4.9360657 -8.9662905 -1.492947
4.8828425 -8.9998856 -1.4935389
4.8331227 -9.040144 -1.4953147
4.7886224 -9.0906305 -1.4988662
4.7327528 -9.1198416 -1.4988662
4.6780558 -9.1513519 -1.4993103
4.6107001 -9.1577988 -1.4956106
4.5495906 -9.1761694 -1.4939828
4.4927673 -9.2030239 -1.4938349
4.4366426 -9.2313089 -1.4939828
4.381608 -9.2619343 -1.4945748
4.3205218 -9.2796783 -1.4930949
4.2626781 -9.3042154 -1.492799
4.2059145 -9.3310976 -1.492947
4.1429701 -9.3440704 -1.4908752
4.0812106 -9.3593435 -1.4892474
4.0221477 -9.3805733 -1.4886554
3.9656658 -9.4078102 -1.4890994
3.9105151 -9.4383612 -1.4901353
3.8525288 -9.4621782 -1.4901353
3.7910924 -9.4773741 -1.4888035
3.7335923 -9.5022984 -1.4890994
3.6773524 -9.5305653 -1.4899874
3.6167033 -9.5474005 -1.4890994
3.5549524 -9.5610685 -1.4877676
3.4972365 -9.5854893 -1.4882115
3.4403541 -9.6123543 -1.4890994
3.3809817 -9.63235 -1.4889514
3.3147373 -9.6323395 -1.4856958
3.2502007 -9.6365652 -1.4831802
3.1913209 -9.6572657 -1.4833281
3.1387026 -9.6973667 -1.4865837
3.0857122 -9.7371845 -1.4898393
3.0264935 -9.7578239 -1.4901353
2.9659896 -9.7743177 -1.4898393
2.9053972 -9.7904367 -1.4895434
2.8466465 -9.812829 -1.4902833
2.7885394 -9.8377228 -1.4914671
2.728915 -9.8575077 -1.4919111
2.6668317 -9.8683376 -1.4910232
2.6057265 -9.8826027 -1.4907272
2.545285 -9.8993626 -1.4908752
2.4830542 -9.9090376 -1.4899874
2.4212689 -9.9202442 -1.4893954
2.3601255 -9.9339514 -1.4892474
2.2989049 -9.9472828 -1.4890994
2.2371762 -9.9583063 -1.4886554
2.1760311 -9.9718456 -1.4886554
2.1135752 -9.9792042 -1.4877676
2.0507133 -9.9842348 -1.4865837
0.52263242 -2.6217878 -0.36147642
0.50690955 -2.6268876 -0.36177236
0.49186772 -2.635782 -0.36266026
0.47691086 -2.6455641 -0.36369613
0.46405017 -2.6679292 -0.36665577
0.45517284 -2.7155972 -0.37346295
0.43834457 -2.7173626 -0.37331498
0.42544025 -2.7444355 -0.37701452
0.40496534 -2.722537 -0.37331498
0.38588807 -2.7083249 -0.37079927
0.36886358 -2.7077017 -0.37035534
0.35414842 -2.7246261 -0.37257507
0.33996564 -2.7473605 -0.37568268
0.32229665 -2.7425187 -0.37464681
0.30350104 -2.7267513 -0.37198314
1.0698309 -10.20995 -1.4975344
1.0048376 -10.192701 -1.4939828
0.72826558 -7.879457 -1.1454852
0.67532355 -7.8305683 -1.1374941
0.62584525 -7.8168197 -1.1348305
0.57787037 -7.8205128 -1.1348305
0.53234088 -7.8604202 -1.1403058
0.22487175 -3.64257 -0.50753468
0.2000071 -3.5984571 -0.50072747
0.17739004 -3.5887508 -0.4990997
0.15413567 -3.5611174 -0.49480823
0.13220941 -3.5600195 -0.49451226
0.10796811 -3.4826701 -0.48282167
0.08686357 -3.4941428 -0.48444948
0.18868144 -10.197841 -1.4876196
0.12620203 -10.206717 -1.4888035
0.021970762 -3.4031751 -0.47068715
0.00093985134 -10.233212 -1.492651
-0.06189869 -10.240936 -1.4938349
-0.12463746 -10.232452 -1.492651
-0.18742026 -10.231495 -1.492651
-0.25019601 -10.230152 -1.492651
-0.31278017 -10.222493 -1.4917631
-0.37542549 -10.218405 -1.4914671
-0.43781996 -10.208993 -1.4904313
-0.50040436 -10.205126 -1.4902833
-0.56295782 -10.200876 -1.4901353
-0.62620598 -10.208088 -1.4917631
-0.69009757 -10.222802 -1.4945748
-0.76161641 -10.337718 -1.5124806
-0.84166557 -10.540864 -1.5437047
-0.91320205 -10.615314 -1.5556914
-0.98113763 -10.640039 -1.5602788
-1.0471809 -10.641692 -1.5614626
-1.1135904 -10.645886 -1.5630904
-1.1772559 -10.624109 -1.5608708
-1.2135421 -10.370134 -1.5237272
-1.3056041 -10.593158 -1.558503
-1.3208799 -10.201459 -1.5006421
-1.3786577 -10.157883 -1.4953147
-1.440542 -10.146295 -1.4948708
-1.4966756 -10.096176 -1.4886554
-0.45182586 -2.929496 -0.40498313
-0.47607762 -2.9657257 -0.41090241
-1.6832383 -10.07277 -1.4895434
-0.52156723 -3.0122793 -0.41889343
-0.54371703 -3.0294631 -0.42200106
-0.56482989 -3.0396817 -0.4240728
-1.9361007 -10.060475 -1.4944268
-2.0035832 -10.077506 -1.4988662
-2.0669711 -10.072772 -1.5000501
-2.1307862 -10.069575 -1.5015299
-2.1994877 -10.088199 -1.5064133
-0.64252257 -2.8662992 -0.4009876
-0.65074748 -2.8218312 -0.39477235
-2.373379 -9.9978924 -1.4990143
-2.4365559 -9.9908285 -1.5001981
-2.4999754 -9.9843235 -1.5015299
-0.94335938 -3.674742 -0.52914006
-0.76044381 -2.8894799 -0.40853471
-0.78254408 -2.9009905 -0.41105038
-0.78977758 -2.8580079 -0.4051311
-0.82266867 -2.9073448 -0.41356608
-0.81707704 -2.8215051 -0.4009876
-2.9137208 -9.8251047 -1.4948708
-2.972229 -9.801363 -1.4939828
-1.0036123 -3.2405119 -0.46905935
-1.0231781 -3.23335 -0.46891135
-3.175277 -9.8165054 -1.5052295
-3.219007 -9.7470675 -1.4973865
-3.2740133 -9.7130756 -1.4951667
-3.3338716 -9.6937389 -1.4953147
-1.1277736 -3.2172403 -0.47157502
-1.1454939 -3.2046728 -0.47068715
-3.4890301 -9.5684805 -1.4853998
-3.575933 -9.6229067 -1.4975344
-1.1513944 -3.0433884 -0.44834185
-1.1768097 -3.0537977 -0.45115352
-3.749922 -9.5490122 -1.4964986
-1.1998731 -3.0033138 -0.44538221
-1.2193972 -2.9986429 -0.44582617
-3.9299731 -9.4902487 -1.4984223
-4.0157847 -9.5315733 -1.509077
-4.0664001 -9.488574 -1.5061173
-4.1288924 -9.4734173 -1.5077451
-4.1841369 -9.4415751 -1.5067093
-4.2476792 -9.4283476 -1.5087811
-4.3116283 -9.4155941 -1.5110008
-1.3249969 -2.849124 -0.43161988
-1.3424538 -2.8409402 -0.43161988
-1.3654288 -2.844238 -0.43354365
-1.3876269 -2.845583 -0.43517146
-4.6028132 -9.2877655 -1.5124806
-4.6717219 -9.2831993 -1.5164762
-4.7312951 -9.2596436 -1.517364
-4.7902994 -9.234828 -1.518104
-4.8491774 -9.2096367 -1.5188438
-4.9074602 -9.183198 -1.5194358
-4.9623003 -9.1503057 -1.5189918
-4.7303081 -8.5963707 -1.4296106
-4.7439075 -8.4972439 -1.4176241
-4.7613444 -8.4068804 -1.4071174
-4.7827797 -8.3252001 -1.3980905
-4.8143497 -8.262373 -1.3923192
-4.8579106 -8.2207584 -1.3902475
-4.8894477 -8.1594095 -1.3847721
-4.9008965 -8.0658693 -1.3736734
-4.9632664 -8.0566959 -1.377373
-4.9361057 -7.9036293 -1.3557676
-5.0776348 -8.0202484 -1.3818125
-5.2138319 -8.1246023 -1.4059335
-5.2635851 -8.0924587 -1.4059335
-5.3365502 -8.0955124 -1.4122968
-5.4405208 -8.1440239 -1.426947
-5.4033318 -7.9819183 -1.4037138
-5.4589205 -7.9583998 -1.4054896
-5.4884558 -7.8971448 -1.4004582
-5.5721169 -7.9134512 -1.409633
-5.6188445 -7.8766971 -1.4091891
-5.6653314 -7.8396678 -1.4087452
-5.6747656 -7.7520933 -1.3989784
-6.3143287 -8.5154505 -1.5477003
-6.3468571 -8.4504528 -1.5428169
-6.4189496 -8.4381104 -1.5478483
-1.7142125 -2.2263746 -0.38189793
-1.7424445 -2.2345264 -0.3854495
-1.759802 -2.2284482 -0.3863374
-1.7752963 -2.2199247 -0.38678133
-1.8019613 -2.2251246 -0.38988897
-6.7741227 -8.2557583 -1.5593909
-6.8189626 -8.2071924 -1.5580591
-6.8691926 -8.1651974 -1.5580591
-6.9223709 -8.1266594 -1.558799
-6.972105 -8.0840311 -1.558799
-7.0391421 -8.0612106 -1.5627944
-7.0982995 -8.0289812 -1.5650142
-7.1454515 -7.9830651 -1.5645703
-7.1936359 -7.9383383 -1.5644222
-7.2395349 -7.8911347 -1.5638304
-7.2884908 -7.84729 -1.5639783
-7.3473444 -7.8139477 -1.566346
-7.4108367 -7.785192 -1.5697496
-7.4605255 -7.7417097 -1.5701935
-7.5009804 -7.6887088 -1.5687138
-7.552186 -7.64676 -1.5696017
-7.6101532 -7.6114659 -1.5719694
-7.6574163 -7.5653224 -1.5721173
-3.4918911 -3.4086983 -0.69162428
-3.3980942 -3.2767115 -0.66779917
-3.3601165 -3.200563 -0.65581268
-7.9056139 -7.4360991 -1.5854357
-7.9344263 -7.3719697 -1.5820322
-3.5219371 -3.2331178 -0.67682612
-3.3079433 -2.9995832 -0.62961984
-3.3793406 -3.0267236 -0.64027452
-3.5727017 -3.1605365 -0.67519832
-3.4542191 -3.018204 -0.64782161
-3.4412203 -2.9698219 -0.64160639
-3.4014096 -2.8992667 -0.63021177
-3.7695134 -3.1731458 -0.69872743
-3.7851093 -3.1467965 -0.69798756
-3.888443 -3.1925251 -0.71426558
-5.2348967 -4.2439904 -0.96983051
-5.3465481 -4.2803836 -0.98625654
-5.3502092 -4.2297139 -0.98196507
-5.3963332 -4.2126255 -0.98581254
-5.4730005 -4.2186718 -0.99543142
-5.4830413 -4.1730342 -0.99247175
-5.4990544 -4.1321845 -0.99069595
-5.5489311 -4.1166282 -0.99528342
-5.5078535 -4.0340114 -0.98300093
-5.7024302 -4.1229577 -1.0143731
-5.7815614 -4.1263757 -1.0242879
-5.6587987 -3.9866135 -0.99720716
-5.8033404 -4.0353599 -1.0191085
-5.7146339 -3.9219065 -0.99853903
-5.6378613 -3.8185685 -0.98033726
-5.7573977 -3.8481872 -0.99765116
-5.7330117 -3.781214 -0.98906815
-5.7718558 -3.7562125 -0.99187982
-5.6649561 -3.6373904 -0.96879464
-5.7038794 -3.6131442 -0.97175425
-5.6487727 -3.5298741 -0.95813996
-5.6324358 -3.4718018 -0.95148075
-5.7829418 -3.5157602 -0.97412199
-5.9503121 -3.5676594 -0.9995749
-5.9823074 -3.5371203 -1.0013506
-5.9440856 -3.4654887 -0.99099195
-5.9969654 -3.4471819 -0.99646729
-5.8295503 -3.3035684 -0.96405923
-5.9041109 -3.2981129 -0.97338206
-5.9415655 -3.2713611 -0.97634172
-5.9050188 -3.2041931 -0.96672291
-5.8530459 -3.129673 -0.95458835
-6.0042739 -3.1632853 -0.97693366
-5.9103246 -3.0676312 -0.95784396
-5.9827557 -3.0587618 -0.96687084
-5.8954034 -2.9686377 -0.94911301
-6.1438966 -3.0466037 -0.98758835
-6.0104914 -2.9346738 -0.96228343
-6.2111292 -2.9855416 -0.99261975
-6.2329073 -2.9490659 -0.99321169
-6.3288918 -2.9470742 -1.0060861
-6.2659302 -2.8711209 -0.99276775
-6.278019 -2.8301821 -0.99187982
-5.7934618 -2.569186 -0.90974981
-5.8834577 -2.5659964 -0.92188436
-6.2954168 -2.6997285 -0.98640448
-6.3592553 -2.6810203 -0.99409956
-6.3509154 -2.631732 -0.99010408
-6.5812926 -2.6799576 -1.0247319
-6.6545467 -2.662292 -1.0339067
-6.5915918 -2.5903156 -1.0211803
-6.5529208 -2.5288229 -1.0124494
-6.4841485 -2.4566951 -0.99898297
-6.4879761 -2.4127281 -0.99720716
-6.5342484 -2.3843946 -1.0022386
-6.5059214 -2.3289311 -0.99543142
-6.5312872 -2.292897 -0.99720716
-6.5396218 -2.2508483 -0.99631929
-6.5842361 -2.2211063 -1.0012027
-6.6193395 -2.1877992 -1.0046062
-6.6665139 -2.1581023 -1.0099336
-6.7814546 -2.1494119 -1.0259157
-6.7595639 -2.0969253 -1.0204403
-6.7770352 -2.0568452 -1.0211803
-6.8037505 -2.0194421 -1.0233999
-6.8986516 -2.0016198 -1.0362744
-6.8794026 -1.9503559 -1.031391
-6.7711411 -1.8748748 -1.0127453
-6.8044772 -1.8392243 -1.0161489
-6.9141369 -1.8233982 -1.031391
-6.9098692 -1.7770009 -1.0290233
-7.1998153 -1.8044919 -1.0720861
-7.3452654 -1.7930957 -1.0928036
-7.3474693 -1.7459358 -1.0914718
-7.8099804 -1.805212 -1.1608753
-8.0360966 -1.8055738 -1.1938753
-8.2132235 -1.792479 -1.2193282
-8.2937317 -1.7567962 -1.2299829
-8.9999456 -1.848662 -1.336234
-9.3583755 -1.8624704 -1.3892115
-9.8445234 -1.8964397 -1.4615748
-10.323644 -1.9230617 -1.5327542
-11.24633 -2.0235128 -1.6712654
-11.363773 -1.9727268 -1.6872474
-11.566853 -1.9349258 -1.7162519
-11.758171 -1.8928207 -1.7434806
-12.306146 -1.9035887 -1.8247226
-12.935873 -1.9197429 -1.9182473
-12.997346 -1.8474272 -1.9257944
-13.023137 -1.7696384 -1.9280142
-13.114175 -1.7001157 -1.9401486
-13.115526 -1.6185273 -1.9388168
-13.069221 -1.5314655 -1.9303819
-13.073457 -1.4507005 -1.929642
-13.143096 -1.3768392 -1.9388168
-13.145391 -1.2955872 -1.9379289
-13.139306 -1.213632 -1.9358572
-13.129754 -1.1315457 -1.9333415
-13.118705 -1.0495436 -1.9306778
-13.117007 -0.96844715 -1.9294939
-13.13553 -0.88881129 -1.9314177
-13.141724 -0.8082571 -1.9315656
-13.144461 -0.72749662 -1.9312698
-13.144726 -0.64663601 -1.9306778
-13.147458 -0.56592691 -1.9305298
-13.15266 -0.48531771 -1.9308258
-13.13562 -0.40399906 -1.9278661
-13.140818 -0.32346556 -1.92831
-13.126734 -0.24253801 -1.9259424
-13.121053 -0.16190451 -1.9249065
-13.100041 -0.081259176 -1.9216509
-13.101282 -0.00087727973 -1.9217988
-13.105986 0.079541147 -1.9225388
-13.10624 0.15996863 -1.9226868
-13.113912 0.24054801 -1.9240186
-13.116143 0.32110611 -1.9246105
-13.132708 0.40215603 -1.9274222
-13.119122 0.48232856 -1.9257944
-13.099118 0.56209463 -1.9232787
-13.089496 0.64216745 -1.9223908
-13.081359 0.72225255 -1.9217988
-13.070758 0.80214065 -1.920911
-13.054736 0.88159227 -1.9192832
-12.117411 -0.30632403 -1.917976
-12.068724 -0.23100205 -1.9098485
-12.093605 -0.15725425 -1.9136732
-12.088419 -0.083005451 -1.912717
-12.119305 -0.0088541145 -1.9176573
-12.145785 0.065651909 -1.9219601
-12.107642 0.13974409 -1.9159043
-12.099648 0.21391062 -1.9147887
-12.124754 0.28878245 -1.9190916
-12.063547 0.36140135 -1.9095297
-12.126217 0.43776357 -1.9200478
-12.126262 0.51228529 -1.9205258
-12.096266 0.58539343 -1.9162229
-12.131877 0.66175324 -1.9225975
-12.096055 0.73426741 -1.9174979
-12.030251 0.80439216 -1.9076173
-12.038873 0.87919945 -1.9098485
-12.016521 0.95172751 -1.9071392
-12.015373 1.0258614 -1.9079361
-12.032447 1.1017267 -1.9117608
-12.043146 1.1772639 -1.9146293
-12.004274 1.2478718 -1.9095297
-11.986579 1.3204244 -1.9079361
-11.935104 1.3889282 -1.900924
-11.950854 1.4651369 -1.9049081
-11.946535 1.5390689 -1.905705
-11.939802 1.6127388 -1.906183
-11.920884 1.6847267 -1.9047488
-11.933762 1.7612988 -1.9085735
-11.87687 1.8274351 -1.9010834
-11.910275 1.9074557 -1.9084141
-11.862315 1.9745035 -1.9025177
-11.772151 2.0338094 -1.8897685
-11.813869 2.1157477 -1.898693
-11.820078 2.1917956 -1.9018801
-11.797681 2.2626078 -1.9004459
-11.805849 2.3393672 -1.9041113
-11.77483 2.4083998 -1.9014021
-11.755001 2.4795849 -1.9006053
-11.715447 2.5464244 -1.8966212
-11.670701 2.611794 -1.8918402
-11.660228 2.6846838 -1.8927964
-11.619518 2.7504947 -1.8888123
-11.626405 2.8275707 -1.8927964
-11.61171 2.8995731 -1.8932745
-11.593699 2.9707665 -1.8932745
-11.579072 3.0428517 -1.893912
-11.56495 3.1151261 -1.8947088
-11.493277 3.1715868 -1.8859438
-11.514451 3.2535903 -1.8927964
-11.47151 3.3175986 -1.8889717
-11.433898 3.3828831 -1.8861032
-11.42143 3.4555492 -1.8875374
-11.383036 3.5203152 -1.8846688
-11.399817 3.6022885 -1.8912028
-11.326765 3.6557958 -1.8825971
-11.335999 3.7357314 -1.8880155
-11.325028 3.8093085 -1.8900872
-11.319183 3.8848143 -1.8931152
-11.271839 3.9460402 -1.8891311
-11.229749 4.0088229 -1.8861032
-11.19659 4.074614 -1.8846688
-11.164899 4.1408353 -1.8835533
-11.156827 4.2158937 -1.8865812
-11.105873 4.2746973 -1.8822784
-11.114363 4.3564501 -1.8883343
-11.012235 4.3945632 -1.8752663
-11.005186 4.4702229 -1.8787724
-11.020431 4.5553889 -1.8862625
-10.93585 4.5991969 -1.8763819
-10.949177 4.6840715 -1.8837126
-10.906651 4.7452588 -1.8813221
-10.866495 4.8072987 -1.8794098
-10.850299 4.8799577 -1.8818003
-10.795012 4.9349499 -1.8773381
-10.753784 4.9961028 -1.8754257
-10.708642 5.0552502 -1.8728759
-10.688104 5.1259847 -1.8747883
-10.636925 5.1819577 -1.8712822
-10.652711 5.2707667 -1.8798879
-10.583119 5.3174176 -1.8731946
-10.547654 5.3809085 -1.8727165
-10.551258 5.4645934 -1.8794098
-10.482576 5.5108576 -1.8730353
-10.441597 5.5713563 -1.8717604
-10.404611 5.6339097 -1.8712822
-10.38542 5.7062016 -1.8741508
-10.350212 5.7698178 -1.8741508
-10.321488 5.8371048 -1.8754257
-10.269208 5.8909931 -1.8723978
-10.226042 5.9499216 -1.8711228
-10.203795 6.0210838 -1.8738321
-10.186143 6.0952382 -1.8774974
-10.1418 6.1535277 -1.8762225
-10.100488 6.213572 -1.8755851
-10.057146 6.272296 -1.8746289
-10.073545 6.3687038 -1.885147
-10.050901 6.4410467 -1.8883343
-10.016158 6.5058231 -1.8892905
-9.9892445 6.5758433 -1.8918402
-9.9717035 6.6523519 -1.8963025
-9.8938932 6.6885328 -1.8891311
-9.8274174 6.7318201 -1.8841908
-9.7989035 6.8009992 -1.8867406
-9.7973671 6.8893881 -1.8947088
-9.747674 6.9442186 -1.8932745
-9.7689247 7.0501146 -1.9060236
-9.7039633 7.0941925 -1.9017209
-9.6967478 7.1806254 -1.9090515
-9.6367102 7.2281418 -1.9058644
-9.631484 7.3169942 -1.9138325
-9.5957956 7.3831778 -1.9157449
-9.5573215 7.4473786 -1.9171792
-9.5253954 7.5168886 -1.9200478
-9.4721518 7.5696473 -1.9186134
-9.4316673 7.6325932 -1.9198884
-9.3518209 7.6634159 -1.9130358
-9.3038635 7.7200227 -1.9128764
-9.2653904 7.784585 -1.9147887
-9.2197065 7.8432088 -1.9152668
-9.2050686 7.9286237 -1.9224381
-9.1584787 7.9869022 -1.9229163
-9.142602 8.0723495 -1.9300877
-9.0892191 8.1250057 -1.9292909
-9.0677414 8.2064581 -1.9355061
-9.0019302 8.2479372 -1.9321594
-8.9786568 8.3285284 -1.9382153
-8.956892 8.41117 -1.9447492
-8.8929491 8.4544067 -1.94204
-8.8480196 8.5156593 -1.9436337
-8.7920666 8.5663452 -1.9428369
-8.7414474 8.6222105 -1.9433149
-8.6534481 8.6408081 -1.9353467
-8.624567 8.7183056 -1.9409244
-8.5985098 8.7993031 -1.947299
-8.5457277 8.8533173 -1.9476178
-8.493969 8.9084444 -1.9482552
-8.4391479 8.9603949 -1.9482552
-8.3940964 9.0228491 -1.9506457
-8.3345671 9.0698233 -1.9496895
-8.2946835 9.1383352 -1.9535142
-8.2358189 9.1861191 -1.9528768
-8.1734085 9.2298279 -1.9514425
-8.1660194 9.3362789 -1.9635541
-8.0937347 9.3690262 -1.9598888
-8.0373764 9.4200144 -1.9602076
-7.9724274 9.4608498 -1.9584545
-7.9079113 9.5020018 -1.9568609
-7.8513398 9.5526323 -1.9573389
-7.844841 9.6650124 -1.9707255
-7.7742758 9.6991005 -1.967857
-7.7109404 9.7419758 -1.9669008
-7.6583152 9.798439 -1.9688132
-7.6107159 9.8616571 -1.9721599
-7.5536528 9.9128809 -1.973116
-7.4897184 9.9550991 -1.9723192
-7.4320264 10.005622 -1.9732754
-7.3798342 10.063773 -1.9758252
-7.3301024 10.125659 -1.9791719
-7.2666864 10.168839 -1.9788531
-7.204155 10.213235 -1.9788531
-7.1453009 10.262918 -1.9799687
-7.0486469 10.25775 -1.9704069
-7.0132799 10.341658 -1.9783751
-6.9491434 10.383676 -1.9782157
-6.8831234 10.422824 -1.9775783
-6.8653936 10.535993 -1.9912835
-6.7829976 10.550517 -1.9860245
-6.7091436 10.577765 -1.9833153
-6.648303 10.625428 -1.9845903
-6.5824628 10.665181 -1.9844309
-6.5220323 10.713802 -1.9860245
-6.4622688 10.763776 -1.987937
-6.4011316 10.811719 -1.9895306
-6.3376584 10.855907 -1.9904867
-6.2689586 10.891169 -1.9898493
-6.1986027 10.923419 -1.9887338
-6.1256776 10.950908 -1.9868214
-6.0559855 10.983966 -1.9860245
-5.9908319 11.025255 -1.9868214
-5.9258657 11.067028 -1.9877776
-5.8583088 11.104053 -1.987937
-5.787333 11.134535 -1.9869808
-5.7256532 11.183016 -1.9893712
-5.6635957 11.23116 -1.9917617
-5.5936975 11.263931 -1.9914429
-5.5240445 11.297154 -1.9912835
-5.4563355 11.334394 -1.9919211
-5.3824587 11.35874 -1.9903274
-5.3210073 11.409446 -1.9935147
-5.2587237 11.458927 -1.9965426
-5.1887207 11.491879 -1.996702
-5.1173086 11.521695 -1.9963832
-5.047307 11.554687 -1.996702
-4.9755344 11.583625 -1.9963832
-4.8890018 11.577559 -1.9900087
-4.8288474 11.63378 -1.9946302
-4.7652035 11.682386 -1.9979769
-4.7022467 11.733398 -2.0018017
-4.6435442 11.796018 -2.0076981
-4.5810456 11.85007 -2.0121603
-4.513854 11.892723 -2.0147102
-4.4569964 11.963675 -2.0222003
-4.3665552 11.944438 -2.0142319
-4.2931833 11.971006 -2.0142319
-4.2235808 12.008299 -2.0161445
-4.1604414 12.064786 -2.0214033
-4.08918 12.098504 -2.0228376
-4.017972 12.132738 -2.0244312
-3.9504578 12.178761 -2.0280967
-3.8810356 12.219708 -2.0309653
-3.8188796 12.284771 -2.0379772
-3.7463028 12.317417 -2.039571
-3.6762838 12.359097 -2.0427582
-3.6152675 12.432611 -2.0513639
-3.5448515 12.475451 -2.0548699
-3.4655964 12.487454 -2.0532763
-3.3883934 12.506578 -2.0529575
-3.3146186 12.538587 -2.0548699
-3.2435365 12.581632 -2.0586946
-3.1696444 12.614701 -2.0609257
-3.0874877 12.614734 -2.0577385
-3.0136886 12.648807 -2.0602884
-2.9331219 12.654557 -2.0582166
-2.8656206 12.717581 -2.0657067
-2.7997782 12.790858 -2.0749497
-2.7142653 12.774964 -2.0695314
-2.6408105 12.815551 -2.0735157
-2.5582592 12.812151 -2.0703282
-2.4878423 12.870255 -2.0773404
-2.4059222 12.869752 -2.0747905
-2.3260322 12.879415 -2.0739937
-2.240181 12.854542 -2.0676191
-2.1658442 12.895306 -2.0720813
-2.0832126 12.886911 -2.0685751
-2.0028882 12.891647 -2.0673003
-1.9346689 12.976926 -2.0792527
-1.8524946 12.970962 -2.0763841
-1.7724706 12.979149 -2.075906
-1.6957335 13.012296 -2.0795715
-1.6126982 12.996984 -2.075428
-1.5300304 12.982123 -2.0714438
-1.4551655 13.034437 -2.0784559
-1.3728824 13.021521 -2.0749497
-1.2922754 13.022823 -2.0738342
-1.2118871 13.025592 -2.0730374
-1.1362988 13.082942 -2.0811651
-1.0535401 13.059163 -2.0762248
-0.96950179 13.013205 -2.0677783
-0.89280075 13.065199 -2.0752685
-0.81476253 13.104918 -2.0808463
-0.73511028 13.123469 -2.0830774
-0.65383446 13.112943 -2.080687
-0.57288808 13.105859 -2.078934
-0.49331433 13.131818 -2.0825994
-0.4131332 13.147425 -2.084671
-0.33307886 13.174385 -2.0886552
-0.25219825 13.174207 -2.0883365
-0.17113933 13.158725 -2.0856273
-0.090402499 13.160514 -2.0857866
-0.0096365828 13.144038 -2.0830774
0.071204834 13.17939 -2.0888145
0.15172988 13.14909 -2.0840335
0.23253025 13.15482 -2.085149
0.31357098 13.166964 -2.0873802
0.39414933 13.157885 -2.0862646
0.47452134 13.145352 -2.084671
0.55271423 13.083999 -2.0752685
0.63298571 13.080361 -2.0752685
0.71403944 13.091018 -2.0776591
0.79136175 13.03712 -2.0696907
0.87364519 13.066494 -2.0752685
0.95035332 13.013627 -2.0676191
1.0319775 13.030186 -2.0712845
1.1110704 13.013772 -2.0696907
1.187301 12.967385 -2.0633163
1.2665571 12.956908 -2.0628381
1.34277 12.917471 -2.0577385
1.4264355 12.949222 -2.0642724
1.5067762 12.948071 -2.0655472
1.5805511 12.892527 -2.0580573
1.6699693 12.962874 -2.071125
1.7470986 12.934773 -2.0682566
1.8191118 12.872002 -2.0598102
1.9041113 12.901617 -2.0665035
1.9839888 12.894569 -2.0673003
2.0647879 12.892876 -2.0690534
0 0 -0
2.2221758 12.862676 -2.0684159
2.3031459 12.860459 -2.0703282
2.3836324 12.854822 -2.0717626
2.4600463 12.82735 -2.0696907
2.5308411 12.772309 -2.0631568
2.6172724 12.796196 -2.0696907
2.6841269 12.724835 -2.060607
2.7384639 12.599114 -2.042599
2.8349044 12.667817 -2.0567822
2.8995123 12.593423 -2.0473797
2.9746833 12.566749 -2.0459456
3.0347073 12.478233 -2.034312
3.1255636 12.516847 -2.0438738
3.205492 12.509865 -2.0459456
3.2902188 12.520515 -2.0510452
3.3592794 12.471494 -2.0462642
3.4325888 12.439226 -2.0443518
3.5142181 12.436931 -2.0475392
3.5792198 12.376251 -2.0410051
3.6438897 12.31619 -2.0346308
3.7273958 12.320058 -2.0390928
3.7950456 12.271489 -2.03479
3.8753269 12.263975 -2.0374992
3.95293 12.247482 -2.0387743
4.0270777 12.220184 -2.038296
4.0953746 12.175594 -2.0349493
4.1619949 12.126892 -2.0309653
4.2262144 12.072241 -2.0260251
4.2978859 12.039574 -2.0249095
4.3561497 11.970301 -2.0175786
4.4356947 11.960008 -2.0204473
4.5044603 11.920561 -2.0183754
4.5917025 11.929551 -2.02475
4.662653 11.895638 -2.0237939
4.7322626 11.858552 -2.0223596
4.7971349 11.810084 -2.0190129
4.8442445 11.719298 -2.0083356
4.9141483 11.684804 -2.0075388
5.0121541 11.716153 -2.0183754
5.0642576 11.639915 -2.0104072
5.1291933 11.594177 -2.0078576
5.214004 11.593099 -2.0132759
5.2747793 11.538442 -2.0092916
5.3275938 11.46736 -2.002439
5.3936419 11.425527 -2.0008454
5.475172 11.416251 -2.0051482
5.5412269 11.374454 -2.0037141
5.6004081 11.319003 -1.9998893
5.6604476 11.265902 -1.9965426
5.7388883 11.249425 -1.9998893
5.7996335 11.19822 -1.9970207
5.865479 11.157181 -1.9960645
5.9101276 11.076559 -1.987937
5.9784513 11.040956 -1.9880962
6.0441833 11.000604 -1.9874588
6.1005125 10.943477 -1.9837935
6.1602564 10.892949 -1.981403
6.2309079 10.861795 -1.9826779
6.2825441 10.79776 -1.9778969
6.3526931 10.76581 -1.9791719
6.4236999 10.735099 -1.9807656
6.4843278 10.687041 -1.9791719
6.5456419 10.640326 -1.9778969
6.5763288 10.544676 -1.967379
6.648819 10.516643 -1.9697694
6.6929822 10.444062 -1.9637135
6.7725339 10.426808 -1.9683352
6.8293281 10.374336 -1.9662634
6.8901157 10.328131 -1.9654665
6.9516997 10.283206 -1.9649885
7.0163388 10.242801 -1.9654665
7.0784926 10.198746 -1.9653072
7.1210637 10.126856 -1.9597294
7.1882219 10.090208 -1.9611638
7.2390227 10.030702 -1.9581358
7.2940249 9.9773283 -1.9563828
7.3474703 9.9220715 -1.954311
7.3928118 9.856267 -1.9501675
7.4531493 9.8107204 -1.9501675
7.5053806 9.754632 -1.9480958
7.5535641 9.6935997 -1.9450679
7.6043391 9.63622 -1.9428369
7.6485319 9.5708694 -1.9390121
7.7071137 9.5237589 -1.9390121
7.7591481 9.4686537 -1.9374185
7.8070145 9.4087105 -1.9348686
7.8645983 9.36063 -1.9348686
7.8975792 9.2836227 -1.9288127
7.942153 9.2207775 -1.9257848
7.9940395 9.1666632 -1.9246693
8.0455608 9.1122599 -1.9235537
8.0789518 9.0376959 -1.9181354
8.139554 8.9938107 -1.9194102
8.1879168 8.9364185 -1.9178166
8.2399101 8.8831148 -1.9171792
8.2807446 8.8179951 -1.9139919
8.3251724 8.7570019 -1.9117608
8.3712177 8.6979303 -1.9100078
8.4140959 8.6357956 -1.9076173
8.4426622 8.5594044 -1.9020395
8.49014 8.5025501 -1.900924
8.5358353 8.444047 -1.8994898
8.5860739 8.3901329 -1.899171
8.6267385 8.3270073 -1.8967805
8.661952 8.2589293 -1.8932745
8.6865931 8.1812572 -1.8875374
8.7207279 8.1130095 -1.8840314
8.7550793 8.0453196 -1.8806847
8.7998943 7.9874668 -1.8797286
8.8428583 7.9280491 -1.8784536
8.8780346 7.8618598 -1.8755851
8.9194193 7.8013873 -1.8741508
8.9693604 7.7484479 -1.8746289
9.0272493 7.7022386 -1.87686
9.040369 7.6180754 -1.8696886
9.0748014 7.5523567 -1.8671387
9.116395 7.4927711 -1.8661826
9.1652641 7.4391818 -1.8668201
9.2068863 7.3797174 -1.8660232
9.2179356 7.2961264 -1.8590112
9.2547522 7.2333493 -1.8574176
9.305213 7.1812525 -1.8586925
9.3491011 7.1240215 -1.8586925
9.4210367 7.0878897 -1.8644296
9.4215546 6.9981608 -1.8558239
9.4651136 6.9408031 -1.8559833
9.5219173 6.8930163 -1.8588518
9.5182505 6.801743 -1.849768
9.5501261 6.736383 -1.8478557
9.5929003 6.6787863 -1.8481745
9.629632 6.6170039 -1.8473777
9.655345 6.5478187 -1.844509
9.6781111 6.4769206 -1.8411624
9.7053137 6.4092541 -1.8387719
9.7552099 6.3565893 -1.8408437
9.8023329 6.3019519 -1.8424373
9.8341475 6.2374568 -1.8411624
9.8496389 6.162859 -1.8368596
9.8948288 6.1069736 -1.8382938
9.9245253 6.0415249 -1.8368596
