# .PCD v0.7 - Point Cloud Data file format
VERSION 0.7
FIELDS x y z
SIZE 4 4 4
TYPE F F F
COUNT 1 1 1
WIDTH 1508
HEIGHT 1
VIEWPOINT 0 0 0 1 0 0 0
POINTS 1508
DATA ascii
5.2652555 -2.8500807 -1.6659281
5.2451396 -2.8809452 -1.6651058
5.2357645 -2.9177554 -1.667847
5.1918097 -2.9351563 -1.6593491
5.1837134 -2.9726977 -1.6626387
5.1645446 -3.0039649 -1.6623645
5.1609254 -3.0443916 -1.6672988
5.1520524 -3.0819247 -1.6705884
5.1264668 -3.1094897 -1.6683953
5.1072907 -3.1408865 -1.6683953
5.0830259 -3.1691127 -1.6667506
5.0569811 -3.1961319 -1.6645576
5.0218887 -3.2172451 -1.6593491
4.9996333 -3.2464273 -1.6585268
4.9539118 -3.2601275 -1.6497546
4.930614 -3.2883286 -1.6486582
4.8960013 -3.3088286 -1.6437238
4.8835421 -3.3442407 -1.6464652
4.8929563 -3.3949733 -1.6568819
4.8641653 -3.4194019 -1.6541407
4.8250747 -3.4363534 -1.6478357
4.7968798 -3.4608312 -1.6453686
4.7615776 -3.479986 -1.6404344
4.7324052 -3.5034153 -1.637693
4.6923528 -3.5185416 -1.631114
4.6813974 -3.5554094 -1.6349518
4.6633058 -3.5869985 -1.6363224
4.6905241 -3.6539564 -1.6541407
4.6717906 -3.6856461 -1.6555114
4.6468339 -3.7124417 -1.654689
4.6217241 -3.7390697 -1.6538665
4.5927429 -3.7624824 -1.6516736
4.5695705 -3.7905922 -1.6516736
4.5506444 -3.8222702 -1.6533183
4.5315013 -3.8538582 -1.654963
4.5070405 -3.8809631 -1.654689
4.4497957 -3.8794758 -1.6420791
4.4064403 -3.8895245 -1.6346776
4.3717346 -3.906877 -1.6305658
4.3441143 -3.930402 -1.6291951
4.3142424 -3.9517868 -1.6270021
4.2821565 -3.9709916 -1.6239867
4.3074937 -4.0439229 -1.6434498
4.2742343 -4.0623274 -1.6401602
4.2457623 -4.0851431 -1.6387895
2.3549578 -2.2941098 -0.8964535
2.3394673 -2.3071659 -0.8959052
2.3245862 -2.3207979 -0.89563107
4.1320529 -4.1758051 -1.6338553
4.1137476 -4.2086449 -1.6368707
4.1105595 -4.257328 -1.646191
4.0843596 -4.2824702 -1.646191
4.0678988 -4.3179498 -1.6503029
4.0328102 -4.3336768 -1.6467392
4.0341301 -4.3887835 -1.6585268
3.98773 -4.3920951 -1.6503029
3.9915276 -4.4508443 -1.663461
3.9717951 -4.4838901 -1.6667506
3.9429412 -4.5067286 -1.6662023
3.9133277 -4.5286546 -1.6653799
3.8754768 -4.5408778 -1.6609938
3.8370039 -4.552072 -1.6563337
3.7954633 -4.5592704 -1.6503029
3.7655845 -4.5802445 -1.6494806
3.7343786 -4.5995307 -1.6481099
3.7253382 -4.6463666 -1.6568819
3.6860123 -4.6555662 -1.6519477
2.0099816 -2.5712314 -0.88960028
1.9865266 -2.5736203 -0.88603663
1.9671996 -2.5811722 -0.8843919
1.9484332 -2.5893521 -0.88302124
1.9307877 -2.5989432 -0.88219887
1.8869305 -2.5727463 -0.86876667
1.700754 -2.3490534 -0.78598028
1.6896642 -2.3641388 -0.78762501
1.6717994 -2.3697474 -0.78598028
3.3990896 -4.8807254 -1.654689
3.3739812 -4.9086223 -1.6571561
3.3357 -4.917295 -1.6530442
3.3011849 -4.9312768 -1.6508511
3.2692747 -4.9490323 -1.6500288
3.2325442 -4.959332 -1.6467392
3.2041342 -4.9823084 -1.6478357
3.1735032 -5.0018744 -1.6478357
3.1335676 -5.0065799 -1.6429015
3.1032939 -5.0265312 -1.6431756
3.0688918 -5.0397286 -1.6412567
3.0369203 -5.0568151 -1.6407084
3.0058353 -5.0753541 -1.6407084
2.9731817 -5.0912108 -1.6398861
2.9428465 -5.1110249 -1.6404344
2.9142792 -5.1340036 -1.6420791
2.8780262 -5.1433964 -1.6393378
2.8510578 -5.1693797 -1.6420791
2.820204 -5.1884661 -1.6426274
2.7914939 -5.2116065 -1.6445463
2.7554233 -5.2209826 -1.6420791
2.7220051 -5.2352314 -1.6412567
1.543712 -3.0144396 -0.92468858
1.5204216 -3.0144103 -0.92167318
1.5031806 -3.0262666 -0.92249554
2.5927062 -5.300456 -1.6412567
2.5505362 -5.2963371 -1.6349518
2.5188143 -5.3136249 -1.6355001
2.4886031 -5.334209 -1.6371448
2.4578326 -5.3537483 -1.6385155
2.4281037 -5.3757396 -1.6407084
2.3962448 -5.3931737 -1.6415309
2.366574 -5.4157062 -1.643998
2.3249454 -5.410687 -1.6379672
2.2935736 -5.4292798 -1.6393378
2.25284 -5.425488 -1.6338553
2.2216878 -5.4445515 -1.6355001
2.1907444 -5.4643292 -1.637419
2.1529453 -5.4669309 -1.6341294
2.1127682 -5.462997 -1.628921
2.0781839 -5.4731607 -1.6280986
2.0425465 -5.4804025 -1.6264539
2.0102024 -5.4964447 -1.6275504
1.9777384 -5.5122962 -1.6286469
1.9454747 -5.5288634 -1.6300175
1.9099451 -5.5361509 -1.6286469
1.8753238 -5.5459442 -1.6280986
1.8418642 -5.5591722 -1.6286469
1.8100945 -5.5776868 -1.6308399
1.7781667 -5.5960202 -1.6330329
1.743511 -5.6059074 -1.6327587
1.7082409 -5.6137395 -1.6319364
1.6718428 -5.6176634 -1.6300175
1.635461 -5.6213522 -1.6280986
1.6009383 -5.6312814 -1.6280986
1.5645537 -5.6345124 -1.6261797
1.5304549 -5.6458626 -1.6267279
1.4947997 -5.6514282 -1.6256315
1.4622575 -5.6688743 -1.6280986
1.4272119 -5.6768074 -1.6278245
1.3921239 -5.6845236 -1.6275504
1.3563259 -5.6892166 -1.6264539
1.3200879 -5.6918111 -1.6248091
1.2902169 -5.7223186 -1.6313882
1.2565219 -5.7367034 -1.633307
1.2202982 -5.7396021 -1.6319364
0.7741456 -3.7549393 -1.0521576
0.74619007 -3.7350996 -1.0450304
0.71631485 -3.7037292 -1.0346135
0.67606109 -3.6144719 -1.0074749
0.6613993 -3.6601913 -1.0195365
0.64454859 -3.6963916 -1.0288569
0.61962306 -3.6869998 -1.025019
0.59698838 -3.6907322 -1.025019
0.57300073 -3.6857734 -1.0225519
0.55378252 -3.7120476 -1.0291309
0.52500421 -3.6734874 -1.0170693
0.50792766 -3.7166581 -1.0285827
0.4888472 -3.748313 -1.0368066
0.46334782 -3.7312005 -1.0310498
0.43638557 -3.6995912 -1.0211813
0.41442537 -3.7088892 -1.0231001
0.39277157 -3.7218823 -1.0261155
0.37278196 -3.7529316 -1.0343394
0.34671164 -3.7225919 -1.025019
0.32644939 -3.7543495 -1.033517
0.30208901 -3.7399862 -1.0288569
0.27870533 -3.7360153 -1.0272121
0.25584209 -3.7386146 -1.0274862
0.2330173 -3.7420335 -1.0280344
0.21005222 -3.7433929 -1.0280344
0.18659835 -3.7350063 -1.0252932
0.16367728 -3.7360809 -1.0252932
0.14085892 -3.739898 -1.0261155
0.11757427 -3.7301185 -1.0231001
0.094659984 -3.7298083 -1.0228261
0.071921356 -3.7380111 -1.025019
0.048666406 -3.7143419 -1.0181659
0.025847506 -3.7107239 -1.0170693
0.0030955872 -3.7290847 -1.0222778
-0.019835692 -3.7386503 -1.025019
-0.042960532 -3.754806 -1.0296792
-0.066250779 -3.7688949 -1.0337912
-0.089670122 -3.780916 -1.0373548
-0.11341106 -3.7985587 -1.0425632
-0.13619901 -3.7833753 -1.0384513
-0.16013786 -3.7997634 -1.0433856
-0.1811354 -3.7506804 -1.0296792
-0.20331085 -3.734134 -1.0252932
-0.22517397 -3.7155373 -1.0203589
-0.24783991 -3.7121665 -1.0198107
-0.26949513 -3.6952295 -1.0154246
-0.2945112 -3.7232263 -1.0239226
-0.31784061 -3.7270985 -1.0255673
-0.34219101 -3.741359 -1.0302275
-0.36280701 -3.7152603 -1.0233743
-0.38688663 -3.7253993 -1.026938
-0.4106839 -3.7315588 -1.0294051
-0.45332468 -3.8990066 -1.0781997
-0.46111798 -3.764421 -1.0403702
-0.48371664 -3.7577052 -1.0392736
-0.50753558 -3.760385 -1.0409185
-0.53221184 -3.7686272 -1.0442079
-0.55911154 -3.7909787 -1.0516094
-0.58440673 -3.8007843 -1.0554472
-0.60786879 -3.7980766 -1.0557213
-0.62990028 -3.7866857 -1.0535283
-0.64870793 -3.7571619 -1.0461268
-0.67225724 -3.7559509 -1.0469493
-0.69721723 -3.762157 -1.0499647
-0.71232688 -3.7162492 -1.0379031
-0.74127811 -3.7429404 -1.0469493
-0.77058351 -3.7694151 -1.0559955
-0.79449087 -3.7683799 -1.057092
-0.81453729 -3.7493372 -1.0529801
-0.8310228 -3.7151744 -1.0444821
-0.84561086 -3.6743913 -1.0340652
-0.87123919 -3.6822357 -1.0379031
-0.89018351 -3.6618686 -1.033517
-0.91729146 -3.6749995 -1.0389996
-0.76976013 -3.0050385 -0.84354693
-0.78525347 -2.9890969 -0.84025741
-0.80332947 -2.9832938 -0.83998328
-0.82034141 -2.9736729 -0.83861268
-0.8375268 -2.9648814 -0.83751613
-0.8541013 -2.9541433 -0.8358714
-1.1145954 -3.768714 -1.0795704
-1.1351942 -3.7535191 -1.0771033
-1.1505374 -3.7216749 -1.0697018
-1.1788535 -3.7319694 -1.0749102
-1.1872655 -3.6798179 -1.061478
-1.1818469 -3.5875139 -1.0359842
-1.0696305 -3.1809249 -0.9159165
-1.0900642 -3.177031 -0.91673887
-1.1667004 -3.3336771 -0.96608174
-1.2120149 -3.3962007 -0.98718953
-1.1204199 -3.079607 -0.8934381
-1.1369553 -3.0663619 -0.89151919
-1.1985576 -3.1726875 -0.92605919
-1.182785 -3.0737207 -0.89809823
-1.2068843 -3.0798371 -0.90221012
-1.2307466 -3.0848796 -0.90604794
-1.4587318 -3.5923083 -1.0644934
-1.4620196 -3.5379596 -1.0505129
-1.4926438 -3.5501997 -1.057092
-1.5007889 -3.5091407 -1.0472233
-1.5276612 -3.512213 -1.0510612
-1.5596831 -3.5265212 -1.0584626
-1.5856291 -3.5265336 -1.061478
-1.6104349 -3.5237358 -1.063671
-1.6344559 -3.5190213 -1.0653157
-1.6572486 -3.5115356 -1.0661381
-1.6741911 -3.4917614 -1.0631227
-1.6905327 -3.4710474 -1.0598332
-1.6977309 -3.4321616 -1.050787
-1.7217793 -3.4276958 -1.0527059
-1.7357893 -3.4033587 -1.0483198
-1.7482394 -3.3764169 -1.0431114
-1.7693712 -3.3664777 -1.0433856
-1.7886364 -3.3530121 -1.0425632
-1.8110075 -3.3453572 -1.0436597
-1.8245562 -3.3215377 -1.0395478
-1.8556685 -3.329602 -1.0458528
-1.8519288 -3.275456 -1.0318723
-1.8724701 -3.2648654 -1.0321463
-1.9002032 -3.2666159 -1.0365324
-1.9065313 -3.2317011 -1.0288569
-1.9569302 -3.2711129 -1.0458528
-1.9305863 -3.1825707 -1.0203589
-1.9344623 -3.1452694 -1.011861
-1.9873019 -3.1872036 -1.0299534
-2.0196645 -3.1952741 -1.0368066
-2.0485692 -3.1973982 -1.0417408
-2.0691969 -3.1863813 -1.042289
-2.0924094 -3.1792486 -1.0442079
-2.1097434 -3.1631496 -1.0431114
-2.1409581 -3.167675 -1.0491422
-2.1723073 -3.171936 -1.055173
-2.1878917 -3.1530161 -1.0532541
-2.2060912 -3.1379585 -1.0527059
-2.2219567 -3.119663 -1.0510612
-2.2376809 -3.1012909 -1.0494164
-2.2543983 -3.0843966 -1.0483198
-2.2618384 -3.0550461 -1.0428374
-2.2834256 -3.0449576 -1.0442079
-2.3433597 -3.085268 -1.063671
-2.3745584 -3.0868399 -1.0694276
-2.3910904 -3.0691772 -1.0683311
-2.4211938 -3.068794 -1.0735396
-2.3631501 -2.9577017 -1.0384513
-2.4006078 -2.9670722 -1.0472233
-2.4486287 -2.9887412 -1.0606556
-2.4583259 -2.9632974 -1.0568178
-2.5086229 -2.9864523 -1.0710725
-2.5163093 -2.9585488 -1.0664122
-2.4911199 -2.8927667 -1.0474975
-2.4683793 -2.8310316 -1.0299534
-2.5060675 -2.8389058 -1.0387254
-2.5618861 -2.8665025 -1.055173
-2.5665231 -2.8364658 -1.0496905
-2.6079116 -2.846905 -1.0598332
-2.5802138 -2.7821906 -1.0409185
-2.5781491 -2.7459722 -1.0329688
-2.595612 -2.7307982 -1.0332428
-2.609652 -2.7120483 -1.0321463
-2.6342955 -2.704252 -1.0354359
-2.6420615 -2.6791348 -1.0318723
-2.6659238 -2.6703603 -1.0348877
-2.687727 -2.659364 -1.0370806
-2.7184353 -2.65694 -1.0428374
-2.7180836 -2.624177 -1.0362582
-2.7362218 -2.6094413 -1.0370806
-2.7619808 -2.601836 -1.0409185
-2.7793012 -2.5861502 -1.0414667
-2.7915773 -2.5657935 -1.040096
-2.8051322 -2.5466771 -1.0392736
-2.8221374 -2.5307014 -1.039822
-2.8275347 -2.5044093 -1.0359842
-2.8486381 -2.492079 -1.0381771
-2.8711517 -2.4808416 -1.0409185
-2.8687649 -2.4481933 -1.0343394
-2.8771152 -2.4249661 -1.0318723
-2.8993309 -2.4134202 -1.0346135
-2.9111135 -2.3931415 -1.033517
-2.9570982 -2.4006956 -1.0450304
-2.9650207 -2.3770912 -1.0425632
-2.9682412 -2.3498983 -1.0384513
-2.986392 -2.3346031 -1.039822
-2.9968545 -2.3132963 -1.0384513
-3.0041091 -2.2896173 -1.0359842
-3.0334687 -2.2827079 -1.0414667
-3.0844693 -2.291585 -1.0546248
-3.1046753 -2.2771666 -1.0568178
-3.1941409 -2.3127904 -1.0834081
-3.2685113 -2.3362141 -1.1045159
-3.1916378 -2.2517943 -1.0727172
-3.2085509 -2.2343669 -1.0738137
-3.137404 -2.1563435 -1.0444821
-3.1577382 -2.1419115 -1.0469493
-3.1412539 -2.1026993 -1.0368066
-3.1918089 -2.1083012 -1.0496905
-3.239327 -2.1112602 -1.061478
-3.2425144 -2.0851016 -1.0581884
-3.2609313 -2.0687735 -1.0601074
-3.2711182 -2.047195 -1.0592849
-3.3646266 -2.0771062 -1.0864235
-3.3863432 -2.0619247 -1.0894389
-3.408824 -2.0470498 -1.0927285
-0 -0 -0
-3.3664236 -1.9657768 -1.0705242
-3.3575873 -1.9330858 -1.063671
-3.362695 -1.9086492 -1.061478
-3.3995192 -1.90207 -1.0697018
-3.3926003 -1.8709561 -1.063671
-3.4572458 -1.8790419 -1.080941
-3.4805782 -1.8641511 -1.0847788
-3.4817452 -1.8373725 -1.0814892
-3.4997792 -1.8195239 -1.0836823
-3.5827758 -1.8348455 -1.1067089
-3.6197248 -1.8258233 -1.1149328
-3.6480844 -1.8121371 -1.1204153
-3.6504965 -1.7854925 -1.117674
-3.6709139 -1.7676504 -1.1206894
-3.6947255 -1.7512727 -1.1248013
-3.7550764 -1.7517484 -1.1404265
-3.7902253 -1.7399111 -1.1481022
-3.8499088 -1.738794 -1.1634532
-3.972116 -1.7647375 -1.1982673
-4.0101867 -1.7522713 -1.2067653
-5.306428 -2.2801373 -1.6056201
-4.1102295 -1.7362409 -1.2311627
-4.1678772 -1.7305378 -1.2456914
-4.2460866 -1.73255 -1.266525
-4.2905564 -1.7200652 -1.2769419
-4.3421898 -1.7099191 -1.2895517
-4.3624663 -1.6870602 -1.2925671
-4.3682404 -1.6585537 -1.2911965
-4.4206872 -1.6475075 -1.3040804
-4.5598655 -1.6675963 -1.3432806
-4.6360893 -1.663299 -1.3632919
-4.685215 -1.64855 -1.3750794
-4.8106966 -1.6596111 -1.4098935
-4.9656382 -1.6790527 -1.4534796
-5.2679663 -1.7453597 -1.5412004
-5.2502203 -1.7037988 -1.5327024
-5.3998861 -1.7158291 -1.5743697
-5.6205997 -1.7480817 -1.6371448
-5.6947017 -1.7328833 -1.6560596
-5.7651391 -1.7157433 -1.6738778
-5.8983688 -1.7160761 -1.7103367
-5.9365377 -1.6877434 -1.7185606
-6.0329571 -1.6752207 -1.7440543
-6.0756087 -1.6469803 -1.7536489
-6.2018132 -1.640417 -1.7879148
-6.416625 -1.6551909 -1.8482226
-6.5880094 -1.6563648 -1.8956467
-6.6587634 -1.6307837 -1.9134649
-6.6976438 -1.5968112 -1.9219629
-6.7288623 -1.560684 -1.9282677
-6.7636414 -1.52508 -1.9356692
-6.7916598 -1.487667 -1.9411517
-6.8091259 -1.4477667 -1.9436189
-6.8357763 -1.4096508 -1.9488273
-6.8131771 -1.3614601 -1.9397811
-6.7836351 -1.3123212 -1.928816
-6.8019581 -1.2726189 -1.9318314
-6.7878728 -1.2269233 -1.9255265
-6.8246417 -1.190375 -1.9340245
-6.8223338 -1.1468825 -1.9312831
-6.8339891 -1.1057682 -1.9326538
-6.8529987 -1.0657367 -1.9362174
-6.8622622 -1.0240934 -1.9370399
-6.8741288 -0.98278511 -1.9386846
-6.8866997 -0.94149995 -1.9406035
-6.8809037 -0.89773262 -1.9373139
-6.8948717 -0.85656279 -1.9397811
-6.893312 -0.81345123 -1.9378622
-6.9048638 -0.77188766 -1.9397811
-6.9094701 -0.72950566 -1.9397811
-6.911902 -0.68690592 -1.9392328
-6.9207745 -0.64492875 -1.9406035
-6.9236431 -0.60236812 -1.9403293
-6.9281678 -0.55995166 -1.9406035
-6.9391451 -0.51800382 -1.9427965
-6.9431524 -0.47548205 -1.9430707
-6.9171443 -0.43107456 -1.9348468
-6.9110174 -0.38813782 -1.9323797
-6.913269 -0.3457253 -1.9323797
-6.9123778 -0.30317318 -1.9315573
-6.9121861 -0.26068133 -1.9310091
-6.8944311 -0.21765602 -1.9255265
-6.6042981 0.48498476 -1.928228
-6.5945096 0.52496523 -1.9262329
-6.5959392 0.56582892 -1.927658
-6.5866165 0.60576248 -1.9259479
-6.5904069 0.64691627 -1.928228
-6.5929866 0.68803966 -1.9302232
-6.6029315 0.73006308 -1.9344984
-6.6097517 0.77190036 -1.9379187
-6.5925241 0.81091905 -1.9342134
-6.59693 0.85258502 -1.9370637
-6.5896749 0.89278924 -1.9364936
-6.5745826 0.93185914 -1.9336435
-6.558311 0.97063696 -1.9305083
-6.5531793 1.011006 -1.9307932
-6.5364423 1.0495232 -1.927658
-6.5156984 1.0872414 -1.9233828
-6.5136266 1.1280191 -1.9248078
-6.5046959 1.1676257 -1.9242377
-6.5011783 1.208217 -1.9253778
-6.4889359 1.2471793 -1.9239528
-6.47082 1.2849158 -1.9208175
-6.5022507 1.3326858 -1.9327884
-6.4583158 1.3650194 -1.9219576
-6.44139 1.4027841 -1.9193925
-6.4186325 1.4391333 -1.9151171
-6.4339643 1.4840959 -1.9225277
-6.4396586 1.5270873 -1.927088
-6.420855 1.5643011 -1.9242377
-6.4241533 1.6069279 -1.928228
-6.4141726 1.6463156 -1.928228
-6.3937545 1.6829555 -1.9250928
-6.3685012 1.7181578 -1.9205326
-6.3061037 1.7428933 -1.9045714
-6.3146582 1.7870387 -1.9105569
-6.3256698 1.8321549 -1.9173973
-6.3069568 1.8687541 -1.9151171
-6.2871161 1.9049149 -1.912552
-6.2954516 1.949698 -1.9188224
-6.2733183 1.9851067 -1.9156872
-6.260108 2.0232668 -1.9154022
-6.2457552 2.061039 -1.9148321
-6.2329912 2.0993233 -1.9148321
-6.1909866 2.1275551 -1.9057115
-6.1823382 2.1670883 -1.9071367
-6.1833653 2.2101462 -1.9116969
-6.1615829 2.2450902 -1.9091318
-6.1198378 2.272506 -1.9002962
-6.0896425 2.3039057 -1.8951658
-6.1549883 2.3719175 -1.9205326
-6.1554861 2.4155946 -1.9253778
-6.0987163 2.4365969 -1.9119819
-6.0889778 2.4761393 -1.9136921
-6.0701275 2.5119872 -1.912552
-6.0537167 2.5488136 -1.912267
-6.0414877 2.5874205 -1.9134071
-6.0228615 2.6232929 -1.912552
-5.9961357 2.6555395 -1.9091318
-5.9893422 2.6966114 -1.912267
-5.9726834 2.7333107 -1.912267
-5.9523234 2.7682893 -1.9111269
-5.9369588 2.8055794 -1.9116969
-5.9187684 2.8415401 -1.9114119
-5.896914 2.8757021 -1.9099869
-5.8903236 2.9173632 -1.9136921
-5.8817306 2.9581897 -1.9168273
-5.8506651 2.9876826 -1.912552
-5.8135033 3.0138166 -1.9062816
-5.7838755 3.0436261 -1.9025763
-5.7870717 3.0908024 -1.9099869
-5.7595716 3.1216841 -1.9071367
-5.7377896 3.1555793 -1.9062816
-5.725852 3.194931 -1.9088467
-5.7019701 3.2276425 -1.9074216
-5.6754088 3.258749 -1.9051415
-5.676012 3.3055744 -1.912267
-5.6382928 3.3300998 -1.9062816
-5.6259756 3.3695598 -1.9091318
-5.597003 3.3990397 -1.9062816
-5.580122 3.4358318 -1.9077066
-5.5613742 3.4715292 -1.9085617
-5.5383487 3.5045624 -1.9079916
-5.5094805 3.5338204 -1.9054265
-5.5045676 3.5785336 -1.9114119
-5.468101 3.6027465 -1.9062816
-5.4578481 3.6442165 -1.9105569
-5.4234781 3.6695774 -1.9062816
-5.4150882 3.7125447 -1.9114119
-5.3803997 3.7374964 -1.9071367
-5.3581491 3.7709913 -1.9074216
-5.3341298 3.8032408 -1.9071367
-5.3161316 3.8398285 -1.9091318
-5.2824154 3.8650155 -1.9054265
-5.260911 3.8990676 -1.9062816
-5.2414861 3.9347281 -1.9079916
-5.2035122 3.9563701 -1.9028614
-5.1859722 3.9934883 -1.9054265
-5.1538138 4.0193377 -1.9025763
-5.1117563 4.0372181 -1.8960209
-5.1205683 4.0954547 -1.9088467
-5.081192 4.1153321 -1.9034314
-5.0773354 4.164063 -1.9116969
-5.0494776 4.1933012 -1.9108418
-5.0192518 4.2205033 -1.9091318
-4.9969096 4.2543287 -1.9105569
-4.9641781 4.2792754 -1.9079916
-4.929163 4.3020897 -1.9045714
-4.9062638 4.3354273 -1.9059966
-4.8695707 4.3565011 -1.9020063
-4.8534026 4.3959522 -1.9062816
-4.7903142 4.3926044 -1.8917456
-4.7941756 4.450614 -1.9042864
-4.7625866 4.4760075 -1.9025763
-4.7315612 4.5018415 -1.9011512
-4.699708 4.5267987 -1.8994411
-4.673902 4.5575581 -1.9002962
-4.6499414 4.5901918 -1.9020063
-4.6074538 4.6044059 -1.8960209
-4.5838308 4.6373625 -1.898016
-4.5572987 4.667459 -1.8988711
-4.5272431 4.693954 -1.898301
-4.5049667 4.7285857 -1.9011512
-4.4784951 4.7589312 -1.9022913
-4.4387708 4.7750864 -1.8977309
-4.4152217 4.8085876 -1.9002962
-4.3952904 4.84624 -1.9045714
-4.3456492 4.8509822 -1.8957359
-4.3138971 4.8754015 -1.8948808
-4.2864237 4.9046664 -1.8960209
-4.248734 4.9221668 -1.8926007
-4.2228045 4.9532504 -1.8945957
-4.2040596 4.9930015 -1.9000112
-4.1917262 5.0408163 -1.9085617
-4.1449041 5.0471792 -1.9011512
-4.1174793 5.0769844 -1.9028614
-4.0862498 5.1021528 -1.9028614
-4.0459499 5.1158509 -1.898586
-4.0074053 5.1315136 -1.8951658
-3.9495106 5.1218433 -1.88234
-3.9365854 5.1703882 -1.8914605
-3.9065139 5.1967444 -1.8923156
-3.8614182 5.2029109 -1.8857602
-3.8294213 5.2265062 -1.8857602
-3.7905405 5.2405839 -1.88234
-3.7583134 5.2637434 -1.88234
-3.7441626 5.3125634 -1.8917456
-3.702739 5.3228455 -1.8871853
-3.6754329 5.3533678 -1.8900355
-3.650579 5.3877234 -1.8943107
-3.6137233 5.4044433 -1.8923156
-3.5778553 5.4225144 -1.8908905
-3.5455618 5.4459724 -1.8914605
-3.5063825 5.4587526 -1.8883253
-3.4687188 5.4736867 -1.8860452
-3.440655 5.503809 -1.8891804
-3.4083283 5.5272646 -1.8900355
-3.3728557 5.5456166 -1.8891804
-3.339258 5.5670295 -1.8894655
-3.3050363 5.5874143 -1.8894655
-3.2726214 5.6109004 -1.8906054
-3.238132 5.6308756 -1.8906054
-3.1917062 5.6297898 -1.8834801
-3.1697237 5.6718616 -1.8911755
-3.116832 5.6584573 -1.8800598
-3.0697105 5.6547284 -1.8723643
-3.0367639 5.6768384 -1.8735044
-3.0273407 5.7437024 -1.8897505
-2.9911578 5.760468 -1.8891804
-2.9548833 5.7770061 -1.8886104
-2.9211049 5.7984529 -1.8897505
-2.901227 5.8480406 -1.9002962
-2.8648691 5.8648705 -1.9000112
-2.8292441 5.8832026 -1.9002962
-2.7664454 5.8441339 -1.8817699
-2.7446964 5.8914108 -1.8917456
-2.7009091 5.8915844 -1.8863302
-2.6639204 5.9062986 -1.8857602
-2.628407 5.9242854 -1.8863302
-2.5851095 5.9244866 -1.8811998
-2.5524867 5.9490461 -1.88405
-2.5163083 5.9654794 -1.884335
-2.4822261 5.9870052 -1.8863302
-2.4436362 5.9976845 -1.8849051
-2.4035847 6.0045562 -1.88234
-2.3673973 6.0209756 -1.88291
-2.3369658 6.0523787 -1.8883253
-2.3045397 6.0791531 -1.8923156
-2.2621837 6.0797029 -1.8880403
-2.2182651 6.07546 -1.88234
-2.1822371 6.0925665 -1.8834801
-2.1454477 6.1076503 -1.88405
-2.1151066 6.1415453 -1.8906054
-2.0761573 6.150775 -1.8894655
-2.0380771 6.162488 -1.8891804
-1.998455 6.1694059 -1.8874702
-1.9611419 6.1833797 -1.8880403
-1.9211764 6.1888881 -1.8860452
-1.8809389 6.193222 -1.8837651
-1.8464484 6.2165923 -1.8874702
-1.8106732 6.2360902 -1.8900355
-1.7723752 6.2470827 -1.8900355
-1.7329874 6.2541451 -1.8888954
-1.6850755 6.2294989 -1.8780646
-1.6482869 6.2452822 -1.8797748
-1.6135168 6.2692027 -1.88405
-1.5775827 6.2892127 -1.8871853
-1.5330524 6.2745633 -1.8797748
-1.4934156 6.2791891 -1.8783497
-1.456802 6.2966394 -1.8809148
-1.4265454 6.3428679 -1.8923156
-1.3769699 6.3028049 -1.8774946
-1.3482039 6.3580208 -1.8917456
-1.3143749 6.3915238 -1.8994411
-1.275694 6.4022889 -1.9002962
-1.225504 6.3535233 -1.883195
-1.1966808 6.4155769 -1.8997262
-1.1465952 6.3633671 -1.8817699
-1.1157295 6.4175019 -1.8960209
-1.0752239 6.4176092 -1.8940257
-1.0349115 6.4184079 -1.8923156
-0.99638903 6.4303207 -1.8940257
-0.95916718 6.4514832 -1.898586
-0.91848385 6.4496555 -1.8963059
-0.8809585 6.4703665 -1.9008662
-0.83926749 6.4604411 -1.8963059
-0.80231315 6.487349 -1.9028614
-0.76494849 6.5130935 -1.9091318
-0.72211403 6.4919429 -1.9014362
-0.68276638 6.501018 -1.9028614
-0.64512235 6.5279784 -1.9097018
-0.60258448 6.5050893 -1.9017212
-0.56298822 6.5124841 -1.9028614
-0.5248543 6.5387468 -1.9097018
-0.48154378 6.4988279 -1.896876
-0.44224179 6.5102673 -1.8994411
-0.40440845 6.5472999 -1.9097018
-0.36311325 6.5295601 -1.9037164
-0.32327768 6.5364518 -1.9051415
-0.28192559 6.5095835 -1.8965909
-0.24413927 6.5696206 -1.9139771
-0.2035583 6.5623727 -1.9114119
-0.161892 6.5069623 -1.8945957
-0.12306593 6.5672512 -1.912267
-0.082231812 6.5247526 -1.8994411
-0.042171024 6.5213003 -1.898301
-0.0021599436 6.5453997 -1.9054265
0.037847068 6.5194097 -1.8977309
0.078197189 6.5478086 -1.9062816
0.11872225 6.5663729 -1.9119819
0.15816896 6.531024 -1.9017212
0.19900024 6.5548406 -1.9091318
0.23932165 6.5563698 -1.9099869
0.2788901 6.5394554 -1.9054265
0.31680652 6.4926248 -1.8920306
0.3598569 6.5489397 -1.9094168
0.40015092 6.548522 -1.9099869
0.43271333 6.433094 -1.8763546
0.47344452 6.4475245 -1.8814849
0.51147223 6.4253888 -1.8757845
0.5604108 6.5329094 -1.9088467
0.59573609 6.4778061 -1.8934557
0.63828611 6.5026464 -1.9020063
0.67737633 6.4909806 -1.8997262
0.71645296 6.4800334 -1.8977309
0.75074416 6.4288659 -1.8837651
0.79134864 6.4336514 -1.8866153
0.83080989 6.4286747 -1.8866153
0.86972445 6.4196568 -1.8854752
0.91206127 6.4350777 -1.8917456
0.95237201 6.4350491 -1.8934557
0.99198514 6.4300318 -1.8937408
1.0291386 6.4096284 -1.8894655
1.0644997 6.3795576 -1.88234
1.1049337 6.3804612 -1.8846201
1.1399943 6.3509197 -1.8777796
1.184551 6.3739605 -1.8869003
1.2227331 6.361866 -1.8854752
1.261559 6.3533034 -1.8851901
1.2999405 6.3426261 -1.884335
1.3394288 6.3373437 -1.8851901
1.378493 6.3299422 -1.8854752
1.4149982 6.3110771 -1.88234
1.4554204 6.3097477 -1.8846201
1.4930023 6.2960353 -1.883195
1.5295625 6.2783751 -1.8806298
1.5699191 6.27631 -1.88291
1.603631 6.2479916 -1.8772095
1.6353457 6.2130079 -1.8695141
1.6576976 6.144557 -1.8515579
1.7150428 6.2054052 -1.8735044
1.7470793 6.1735535 -1.866949
1.7865275 6.168241 -1.868659
1.8289735 6.1727858 -1.8735044
1.8695956 6.17062 -1.8763546
1.9054365 6.1526232 -1.8743594
1.9448885 6.1462989 -1.8760695
1.9840395 6.1388097 -1.8774946
2.0222702 6.1283407 -1.8780646
2.0583045 6.1112752 -1.8766396
2.0976338 6.1039691 -1.8783497
2.1375856 6.0982194 -1.8806298
2.1733494 6.0804758 -1.8792048
2.2093043 6.0634241 -1.8780646
2.2464671 6.0497537 -1.8780646
2.2760801 6.0161343 -1.8717942
2.3132963 6.0029492 -1.8720793
2.3500862 5.9886422 -1.8720793
2.3921244 5.9874606 -1.8763546
2.4284563 5.9717822 -1.8760695
2.4676197 5.9629683 -1.8780646
2.5037892 5.9468317 -1.8777796
2.5326807 5.9137359 -1.8720793
2.5754287 5.913022 -1.8769246
2.6120501 5.897985 -1.8772095
2.6477966 5.8809724 -1.8769246
2.6758513 5.8471851 -1.8712242
2.7149134 5.8376083 -1.8735044
2.7453554 5.8095751 -1.8697991
2.7884204 5.8081732 -1.8749294
2.823586 5.7900929 -1.8746444
2.8582089 5.7709408 -1.8740743
2.8952882 5.7567196 -1.8752145
2.9296842 5.7371387 -1.8746444
2.962625 5.7148004 -1.8732194
3.0025463 5.7058439 -1.8763546
3.0384035 5.6890044 -1.8769246
3.0764518 5.6761522 -1.8789197
3.1126082 5.659688 -1.8797748
3.1458752 5.6379719 -1.8789197
3.1761589 5.6110563 -1.8763546
3.2090957 5.5889688 -1.8754995
3.242846 5.5683446 -1.8752145
3.2759764 5.5466919 -1.8746444
3.3079782 5.5231977 -1.8735044
3.3542478 5.5232759 -1.8806298
3.3775179 5.4854522 -1.8746444
3.422282 5.482511 -1.8809148
3.4491928 5.4508805 -1.8772095
3.4867148 5.4360681 -1.8794898
3.5158236 5.4081435 -1.8772095
3.5557988 5.396873 -1.8809148
3.5915084 5.3789387 -1.88234
3.6244454 5.3568006 -1.88234
3.657788 5.3352509 -1.882625
3.6833448 5.302474 -1.8789197
3.7119482 5.2742872 -1.8769246
3.748137 5.2568746 -1.8789197
3.7786379 5.2314463 -1.8780646
3.8151953 5.2143502 -1.8803449
3.8511143 5.1962323 -1.88234
3.8811986 5.1702051 -1.8814849
3.9093676 5.141716 -1.8797748
3.9425979 5.1199098 -1.8806298
3.9721699 5.0933547 -1.8797748
3.9944341 5.0576048 -1.8754995
4.0229964 5.0300064 -1.8743594
4.0525775 5.0037374 -1.8737894
4.088675 4.9854465 -1.8763546
4.1228633 4.9646888 -1.8780646
4.1520147 4.9378309 -1.8774946
4.1791267 4.9086127 -1.8760695
4.2066631 4.8799744 -1.8749294
4.2434611 4.8620133 -1.8780646
4.277658 4.8409114 -1.8800598
4.3098373 4.81743 -1.8811998
4.3418899 4.793736 -1.88234
4.3751097 4.7712426 -1.88405
4.4121304 4.7527361 -1.8874702
4.4444923 4.7290659 -1.8888954
4.4588871 4.6864314 -1.882625
4.4988651 4.6707177 -1.8874702
4.534802 4.6505733 -1.8906054
4.5592108 4.6185684 -1.8888954
4.5840755 4.5871172 -1.8874702
4.6162262 4.5629458 -1.8891804
4.6455088 4.5358744 -1.8897505
4.6801534 4.5139375 -1.8926007
4.7049861 4.4824915 -1.8914605
4.7142496 4.4364614 -1.88405
4.7399783 4.406147 -1.8834801
4.7542138 4.3653135 -1.8783497
4.7851701 4.3399229 -1.8800598
4.8038545 4.3034458 -1.8769246
4.8402209 4.2827797 -1.8809148
4.8671303 4.2536306 -1.8811998
4.9025726 4.2318268 -1.8849051
4.9284463 4.2016659 -1.8849051
4.9629345 4.1787529 -1.8883253
4.9906931 4.1500607 -1.8891804
5.0145817 4.1181436 -1.8886104
5.0486903 4.0945411 -1.8920306
5.0684814 4.0592923 -1.8900355
5.0940452 4.0287108 -1.8903205
5.1216912 3.9997377 -1.8914605
5.1355085 3.9600439 -1.8874702
5.1528454 3.9232337 -1.8849051
5.1921468 3.903059 -1.8906054
5.2129183 3.8688428 -1.8894655
5.2365589 3.8367841 -1.8894655
5.2693238 3.8113203 -1.8928857
5.2746658 3.7661092 -1.8863302
5.3282351 3.7552032 -1.8974459
5.3464546 3.7191558 -1.8957359
5.3889318 3.6998403 -1.9028614
5.4139128 3.6683173 -1.9037164
5.4363194 3.6350291 -1.9037164
5.4481192 3.5947433 -1.9000112
5.4716802 3.5622923 -1.9005812
5.4885955 3.5255444 -1.8988711
5.4906912 3.4794903 -1.8920306
5.4899902 3.4320197 -1.884335
5.519105 3.4032989 -1.8871853
5.5480738 3.3743496 -1.8900355
5.5736065 3.3432012 -1.8917456
5.6080413 3.3172326 -1.8965909
5.6324301 3.2851737 -1.898016
5.6491575 3.2486413 -1.896876
5.6764898 3.2181706 -1.8994411
5.697803 3.1842148 -1.9000112
5.7189131 3.1501184 -1.9005812
5.7465591 3.11954 -1.9034314
5.7554488 3.0787973 -1.9000112
5.7801676 3.0465522 -1.9020063
5.7936478 3.008379 -1.9002962
5.794075 2.9636099 -1.8943107
5.8207116 2.9323134 -1.897161
5.852334 2.9033563 -1.9017212
5.8769293 2.8707569 -1.9040014
5.8667884 2.8213542 -1.8948808
5.9047837 2.7951422 -1.9017212
5.9148722 2.7556214 -1.8994411
5.9368973 2.7216723 -1.9011512
5.944747 2.6812534 -1.898301
5.9768591 2.651721 -1.9034314
5.9842315 2.611166 -1.9005812
6.009831 2.5785539 -1.9037164
6.0361381 2.5460982 -1.9071367
6.0463343 2.5068114 -1.9054265
6.0580506 2.4682186 -1.9042864
6.0757513 2.4320688 -1.9051415
6.101265 2.3989499 -1.9085617
6.1113987 2.3597426 -1.9071367
6.1203847 2.3201616 -1.9054265
6.1443882 2.2862391 -1.9085617
6.1619024 2.2498093 -1.9097018
6.1782985 2.2129273 -1.9105569
6.2071352 2.1803739 -1.9154022
6.2077084 2.1378794 -1.9114119
6.2261586 2.1015875 -1.9131221
6.2298355 2.0603371 -1.9102719
6.2505674 2.0247297 -1.912837
6.2665281 1.9874972 -1.9139771
6.2740278 1.947589 -1.912552
6.2876945 1.9096125 -1.9131221
6.2974553 1.8704505 -1.912552
6.3051314 1.8307064 -1.9114119
6.3061018 1.7891084 -1.9082767
6.3409786 1.7570317 -1.9156872
6.3544164 1.7188414 -1.9165423
6.3509407 1.6761526 -1.912267
6.3722458 1.6400174 -1.9156872
6.3821888 1.6008872 -1.9156872
6.3928223 1.561924 -1.9159722
6.4097462 1.5244418 -1.9182523
6.3965659 1.4799024 -1.9114119
6.4317117 1.4465102 -1.9193925
6.4245462 1.4035437 -1.9145471
6.4480405 1.3672757 -1.9191074
6.4563088 1.3276855 -1.9191074
6.4680939 1.2887939 -1.9202476
6.4711742 1.2481753 -1.9188224
6.465519 1.2059872 -1.9148321
6.4510994 1.1623873 -1.9082767
6.5194955 1.1334431 -1.926803
6.5206552 1.0924696 -1.9250928
6.5206113 1.0513722 -1.9230977
6.5307288 1.011929 -1.9242377
6.5510368 0.97395003 -1.9285131
6.5559406 0.93360037 -1.928228
6.546349 0.89129001 -1.9236678
6.5507441 0.85098225 -1.9233828
6.5529885 0.8104192 -1.9225277
6.5664058 0.7712003 -1.9250928
6.5643454 0.73015451 -1.9230977
6.5553555 0.68846339 -1.9191074
6.557549 0.64803934 -1.9185374
6.5690374 0.60849673 -1.9208175
6.5669174 0.56768411 -1.9191074
6.5817428 0.52829784 -1.9225277
6.5991993 0.48896298 -1.926803
6.5982499 0.4482027 -1.9256629
6.5999188 0.40764922 -1.9253778
6.6013389 0.36709216 -1.9250928
6.6092114 0.32686326 -1.926803
6.6091771 0.28622115 -1.9262329
6.6242189 0.24615858 -1.9302232
6.6227307 0.20541987 -1.9293681
6.6181169 0.16463767 -1.927658
6.6295447 0.12422226 -1.9307932
6.6205974 0.083422706 -1.927943
6.6171508 0.042773802 -1.926803
6.6335835 0.0021734105 -1.9316483
6.6344304 -0.038535267 -1.9319333
6.6388612 -0.079300724 -1.9333584
6.6420832 -0.12010451 -1.9344984
6.6536784 -0.1611612 -1.9382037
6.6429834 -0.20169181 -1.9353535
6.6598206 -0.24311614 -1.940769
6.6802292 -0.28491873 -1.9473244
6.6611223 -0.32505852 -1.942194
6.6647449 -0.36624083 -1.9439042
6.6642857 -0.40724531 -1.9444741
6.6635742 -0.44825792 -1.9450442
6.654007 -0.48864385 -1.9430491
6.654705 -0.52976781 -1.9441891
6.6465545 -0.57017988 -1.942764
6.6744285 -0.61385399 -1.9521697
6.6543198 -0.65320128 -1.9473244
6.6930861 -0.69850367 -1.9601502
6.6515188 -0.73544383 -1.9490345
6.7087631 -0.78348058 -1.9675608
6.6676788 -0.8201769 -1.95673
6.6577682 -0.86045849 -1.9553049
6.640965 -0.89974731 -1.9518846
6.6239314 -0.93886244 -1.9484644
6.6038232 -0.97738093 -1.9441891
6.6071749 -1.019346 -1.9470394
6.5534773 -1.0522615 -1.9327884
6.5468974 -1.092453 -1.9327884
6.3511839 -1.0998582 -1.8757845
6.210351 -1.114736 -1.8353118
6.1016197 -1.1338882 -1.8045297
0 -0 -0
5.8926387 -1.1700001 -1.7455307
5.8318272 -1.1951554 -1.7292846
5.7765579 -1.220799 -1.7147486
0 -0 -0
0 -0 -0
0 -0 -0
5.7420607 -1.3615311 -1.7138935
5.7308044 -1.396057 -1.7130386
5.7137618 -1.4290994 -1.7104733
5.6881747 -1.4598392 -1.705343
5.6911602 -1.4978877 -1.7090483
5.6615033 -1.5272834 -1.7027779
5.6344728 -1.5571383 -1.6973624
5.6303458 -1.5932485 -1.6990726
5.6158605 -1.6264316 -1.6976475
5.611289 -1.6624941 -1.6993576
5.6165767 -1.7016207 -1.7042029
5.5794783 -1.7278233 -1.6959374
5.5642028 -1.7605791 -1.6945122
5.5605912 -1.7970468 -1.6967924
5.5567417 -1.8335364 -1.6990726
5.5254035 -1.860863 -1.6928022
5.4875951 -1.8856925 -1.6845366
5.4632583 -1.914887 -1.6805463
5.4387703 -1.9438539 -1.676556
5.4141331 -1.9725926 -1.6725658
5.3866529 -2.0001009 -1.6677204
5.3948975 -2.0409198 -1.6742759
5.3715405 -2.0698459 -1.6708556
5.3605237 -2.1034667 -1.6714257
5.3377256 -2.132405 -1.6682905
5.3351951 -2.1694515 -1.6717107
5.2837019 -2.1863797 -1.6594549
5.2640033 -2.2161541 -1.6574597
5.2723327 -2.2578495 -1.6645852
5.2741961 -2.29705 -1.6697155
5.2433519 -2.321991 -1.6643002
5.2176442 -2.3490021 -1.6605949
5.1970325 -2.3781796 -1.6585999
5.1892948 -2.4132581 -1.66088
5.2081852 -2.4610314 -1.6719958
5.2007627 -2.4966769 -1.6745609
5.1887913 -2.5302224 -1.675701
5.1748862 -2.5628636 -1.6762711
5.1719069 -2.6010303 -1.6805463
5.1695075 -2.6396928 -1.6851066
5.1651258 -2.677541 -1.6890969
5.1519918 -2.7109692 -1.6902369
5.1268067 -2.738013 -1.6873868
5.1056972 -2.7671347 -1.6859617
5.0903015 -2.7993345 -1.6865317
5.0830727 -2.8361218 -1.6899519
5.0405531 -2.8530877 -1.6814014
5.0138092 -2.8787105 -1.6782662
4.9902539 -2.9060428 -1.6762711
4.9533482 -2.9253929 -1.6697155
4.9320164 -2.9537604 -1.6685755
4.9252682 -2.9909348 -1.6725658
4.9158006 -3.0266292 -1.675701
4.8979502 -3.0572426 -1.6759861
4.8467035 -3.066731 -1.6645852
4.8318291 -3.0990002 -1.6660104
4.7821884 -3.1087313 -1.6551796
4.7726274 -3.1443458 -1.6585999
4.7556353 -3.175168 -1.6594549
4.7598767 -3.220407 -1.6680055
4.7052464 -3.225698 -1.6554646
4.6672616 -3.2419274 -1.6489092
4.6621728 -3.2809885 -1.6543245
4.6396122 -3.3078635 -1.6534694
4.6394281 -3.3508651 -1.66088
4.587842 -3.3566236 -1.6494793
4.5702395 -3.3869944 -1.6506193
4.538641 -3.4069149 -1.646629
4.5321465 -3.4457247 -1.6520444
4.529902 -3.4880922 -1.6591699
4.4948111 -3.5052087 -1.6540395
4.4626894 -3.5244033 -1.6500492
4.4537034 -3.5618997 -1.6548946
4.4555964 -3.608469 -1.6640152
4.4318895 -3.6345241 -1.6634451
4.4072928 -3.6598117 -1.6625901
4.3781519 -3.6812325 -1.6600249
4.3445363 -3.6987045 -1.6557497
4.304338 -3.710269 -1.6489092
4.2692165 -3.725893 -1.6440638
4.2692556 -3.7723329 -1.6531844
4.2424574 -3.7952616 -1.6517594
4.211987 -3.8147852 -1.6489092
4.1800246 -3.8327825 -1.645489
4.1599402 -3.8616197 -1.646914
4.149436 -3.8995466 -1.6523294
4.1330681 -3.9322028 -1.6554646
2.367388 -2.2794886 -0.93636101
2.3519845 -2.2926331 -0.93579096
2.3371909 -2.3063481 -0.93550599
3.9668562 -3.964004 -1.6266776
3.9370692 -3.982815 -1.6243975
3.931973 -4.0267897 -1.6326631
3.9165051 -4.0605006 -1.6366533
3.8749905 -4.0671029 -1.6295278
3.8611274 -4.1026711 -1.6343732
3.8600228 -4.1522655 -1.6449189
3.8552134 -4.1984692 -1.6540395
3.8358176 -4.2291465 -1.6568897
3.8117142 -4.254745 -1.6577448
3.7893462 -4.282361 -1.6594549
3.7604761 -4.3026438 -1.6583148
3.7452765 -4.3386993 -1.6634451
3.7198277 -4.3630576 -1.6640152
3.6991587 -4.3931332 -1.6668653
3.6635551 -4.4054284 -1.6628752
3.6480105 -4.4419012 -1.6682905
3.6249125 -4.4694133 -1.6702856
3.5992174 -4.4938159 -1.6711407
3.581682 -4.5285983 -1.6759861
2.013196 -2.5769746 -0.93151569
1.9926647 -2.5832055 -0.92923552
1.9680693 -2.5839427 -0.92496026
1.9481467 -2.5906057 -0.92296511
1.9310721 -2.600971 -0.92239505
1.9150765 -2.6127708 -0.92239505
1.7423172 -2.4077578 -0.84287471
1.6857476 -2.359889 -0.82149827
1.6651634 -2.3615687 -0.81836307
3.2720723 -4.7035074 -1.6628752
3.2556252 -4.7416725 -1.6694306
3.2119565 -4.7401319 -1.6617351
3.175354 -4.7485943 -1.6577448
3.1408799 -4.7599869 -1.6548946
3.1121368 -4.779973 -1.6551796
3.0925889 -4.8143034 -1.6605949
3.0783787 -4.8574805 -1.6691456
3.0556271 -4.8876576 -1.6731358
3.0220587 -4.9006028 -1.6711407
2.9889445 -4.9141393 -1.6694306
2.9547925 -4.9258103 -1.6671504
2.9245126 -4.9438477 -1.6671504
2.8878467 -4.9509344 -1.6634451
2.8516817 -4.9585886 -1.6600249
2.8183672 -4.9709892 -1.6583148
2.779866 -4.9739628 -1.6534694
2.7423594 -4.9783316 -1.6491942
2.7149613 -5.0009618 -1.6511893
2.6833208 -5.0158358 -1.6506193
2.6551745 -5.0372944 -1.6523294
2.6202421 -5.0458345 -1.6497642
2.581378 -5.0464549 -1.6446339
1.535141 -3.046062 -0.97341353
1.5151442 -3.0528479 -0.97255844
1.4968044 -3.0629485 -0.97284347
2.4542627 -5.1031017 -1.6429237
2.4274139 -5.1275954 -1.646059
2.39712 -5.145 -1.646914
2.365905 -5.1604829 -1.647199
2.3286812 -5.1626692 -1.6432087
2.3008454 -5.1856227 -1.646059
2.2640023 -5.188221 -1.6423538
2.2234364 -5.1817536 -1.6357983
2.1994197 -5.2138467 -1.6417837
2.1677537 -5.2281294 -1.6420687
2.126596 -5.2191386 -1.6349432
2.0866988 -5.2125106 -1.6286728
2.0539751 -5.2234321 -1.6281028
2.0274076 -5.2502441 -1.6326631
2.0022864 -5.2814088 -1.6386485
1.9658333 -5.282814 -1.6352283
1.9284528 -5.28127 -1.630953
1.9050568 -5.3182716 -1.6389335
1.8669909 -5.314486 -1.6340882
1.8474488 -5.3639078 -1.646059
1.8166465 -5.3815002 -1.6480541
1.7796814 -5.3807144 -1.6443489
1.7427946 -5.3796778 -1.6406436
1.7129385 -5.400321 -1.6437788
1.6814747 -5.416223 -1.645489
1.6473745 -5.4236865 -1.6446339
1.6148826 -5.4364491 -1.645489
1.5774882 -5.4324474 -1.6412137
1.5454329 -5.4466352 -1.6426388
1.504566 -5.4292264 -1.6343732
1.4744761 -5.4503851 -1.6380785
1.442472 -5.4648905 -1.6397885
1.4101067 -5.4782801 -1.6412137
1.3743685 -5.4784613 -1.6386485
1.3416368 -5.4905157 -1.6397885
1.3072575 -5.4958472 -1.6389335
1.2713522 -5.4944258 -1.6360834
1.2369846 -5.4993176 -1.6352283
1.2038313 -5.5096135 -1.6360834
0.74029219 -3.4886336 -1.0195867
0.721766 -3.507194 -1.0238619
0.70023268 -3.5115566 -1.0238619
0.67450148 -3.4941392 -1.0173064
0.65041524 -3.4840777 -1.0130312
0.62783647 -3.4813993 -1.011036
0.60892338 -3.499352 -1.0153114
0.59076285 -3.5228753 -1.0212967
0.57187927 -3.5434678 -1.0264271
0.55335146 -3.5677493 -1.0326976
0.5360958 -3.6023655 -1.0421032
0.52073044 -3.6530359 -1.0563542
0.49778947 -3.6523631 -1.055214
0.4614352 -3.5479357 -1.0230069
0.43848202 -3.5411873 -1.0201566
0.41652215 -3.5419071 -1.0195867
0.3965801 -3.5605915 -1.0244319
0.37732393 -3.5877435 -1.0318425
0.35765526 -3.6138384 -1.038968
0.33547443 -3.6159651 -1.038968
0.3141872 -3.6284602 -1.0421032
0.29230011 -3.635097 -1.0435283
0.26914215 -3.6253512 -1.0401081
0.24689235 -3.6269343 -1.0401081
0.22321908 -3.6054199 -1.0332676
0.20156991 -3.6153352 -1.0358328
0.17829773 -3.5944846 -1.0292773
0.15727162 -3.6194518 -1.0364028
0.13456415 -3.6069384 -1.0324125
0.11284354 -3.6211092 -1.0364028
0.092303246 -3.6897676 -1.0566392
0.068469621 -3.6260548 -1.0375428
0.046255004 -3.629282 -1.0383979
0.024063639 -3.641958 -1.0421032
0.0017172846 -3.6468296 -1.0435283
-0.020693684 -3.6525226 -1.0452384
-0.043290611 -3.6676621 -1.0497987
-0.066021606 -3.679786 -1.053504
-0.091918632 -3.8153813 -1.0939766
-0.11424517 -3.7792966 -1.083431
-0.13448107 -3.6980629 -1.0594894
-0.15864582 -3.7316432 -1.0697501
-0.17694491 -3.6367769 -1.0418181
-0.19904539 -3.6317945 -1.040678
-0.21833572 -3.5817118 -1.0261421
-0.23779307 -3.5430069 -1.0150263
-0.26100579 -3.5615559 -1.0210117
-0.28140578 -3.541733 -1.0155964
-0.30378887 -3.5475798 -1.0178765
-0.32889283 -3.581919 -1.0287073
-0.3512401 -3.5836492 -1.0298474
-0.37312269 -3.5804734 -1.0295624
-0.39666763 -3.592407 -1.0338376
-0.42159781 -3.6146584 -1.0412481
-0.44716746 -3.6395919 -1.0495137
-0.46961418 -3.6377304 -1.0497987
-0.48535451 -3.5863395 -1.0352627
-0.52768725 -3.7265947 -1.0783006
-0.52890635 -3.5772688 -1.0344076
-0.54718822 -3.5502739 -1.0272821
-0.56622374 -3.529815 -1.0221518
-0.59324121 -3.5584185 -1.0318425
-0.60900623 -3.5197673 -1.0212967
-0.64856058 -3.6159661 -1.0515088
-0.66635293 -3.5883596 -1.0443833
-0.68835813 -3.5842035 -1.0443833
-0.70361066 -3.5460675 -1.0341226
-0.72323686 -3.5313547 -1.0309874
-0.7476685 -3.5399795 -1.0349777
-0.77121252 -3.5437539 -1.0375428
-0.79567039 -3.5511136 -1.0412481
-0.82003188 -3.5573721 -1.0446683
-0.8566733 -3.614759 -1.0637646
-0.86839259 -3.5665972 -1.0506537
-0.91935545 -3.6774306 -1.0862812
-0.95883316 -3.7376359 -1.1065176
-0.78789157 -2.9957194 -0.88021225
-0.80800694 -2.9973063 -0.88220733
-0.8238278 -2.9830537 -0.87935716
-0.84237713 -2.9788649 -0.87964219
-0.86117285 -2.9754813 -0.88021225
-1.0518878 -3.5518553 -1.0606294
-1.1025845 -3.6407325 -1.0902715
-1.1251866 -3.6348143 -1.0905564
-1.1590418 -3.6643941 -1.1019572
-1.1888778 -3.6800139 -1.1090827
-1.1864914 -3.5971041 -1.0854261
-1.0714028 -3.1828251 -0.95773745
-1.0843668 -3.157156 -0.95175207
-1.096422 -3.1296396 -0.94519663
-1.1078577 -3.1011922 -0.93835616
-1.1209558 -3.0781262 -0.93322581
-1.1381526 -3.0666978 -0.93180072
-1.1583055 -3.0632422 -0.93294078
-1.1822518 -3.0694926 -0.9372161
-1.2010636 -3.0621805 -0.9372161
-1.3639209 -3.4152226 -1.0526489
-1.3902693 -3.4201071 -1.0569242
-1.4152619 -3.4212542 -1.0600594
-1.430274 -3.3983722 -1.0554991
-1.4601594 -3.4106774 -1.0623395
-1.4822083 -3.40429 -1.0631946
-1.5081166 -3.4065237 -1.0668999
-1.5309585 -3.4015758 -1.0683249
-1.5601809 -3.4104199 -1.0743103
-1.5851212 -3.4094732 -1.0771605
-1.5797913 -3.3442233 -1.0589193
-1.6164663 -3.3681638 -1.0700351
-1.6324793 -3.3487058 -1.0668999
-1.6457611 -3.3240254 -1.0620545
-1.6484619 -3.2787588 -1.0503687
-1.645873 -3.224196 -1.0355477
-1.6806297 -3.2429667 -1.0452384
-1.7004966 -3.2325935 -1.0452384
-1.7198477 -3.2212532 -1.0449533
-1.7432357 -3.2173808 -1.0472335
-1.7652546 -3.2108228 -1.0486586
-1.7937994 -3.2158332 -1.0540739
-1.8210548 -3.218111 -1.0586343
-1.8278757 -3.1844356 -1.0509387
-1.8507583 -3.1789575 -1.0529339
-1.8565764 -3.1444349 -1.0449533
-1.8645043 -3.1140728 -1.0383979
-1.8686463 -3.0779982 -1.0298474
-1.9030812 -3.0917742 -1.0386829
-1.9179544 -3.0735347 -1.0364028
-1.9280616 -3.0479405 -1.0315574
-1.9607035 -3.0578344 -1.039253
-2.003468 -3.0827088 -1.0523639
-2.0270929 -3.0775607 -1.054929
-2.0517948 -3.0738323 -1.0580642
-2.1071522 -3.1151619 -1.0774455
-2.1094203 -3.0776696 -1.06861
-2.0680964 -2.9780843 -1.0372578
-2.0758464 -2.9504473 -1.0318425
-2.1529109 -3.0203724 -1.0620545
-2.1753325 -3.0125439 -1.0640496
-2.1977394 -3.004554 -1.0660448
-2.2018616 -2.9717629 -1.0589193
-2.1797636 -2.9045444 -1.038968
-2.1911614 -2.8827226 -1.0358328
-2.2152426 -2.8775766 -1.038968
-2.2198863 -2.8473036 -1.0326976
-2.2319672 -2.8268602 -1.0301324
-2.2594504 -2.8258355 -1.0349777
-2.266489 -2.7992575 -1.0301324
-2.3018613 -2.8075292 -1.0386829
-2.3178196 -2.7918777 -1.0381129
-2.3133111 -2.75193 -1.0281372
-2.3562562 -2.7683325 -1.0401081
-2.3581748 -2.7364011 -1.0332676
-2.3919418 -2.7413752 -1.0409631
-2.4106221 -2.7288015 -1.0418181
-2.4234848 -2.7096732 -1.0401081
-2.4593735 -2.7160614 -1.0486586
-2.4662733 -2.6903245 -1.0443833
-2.5192614 -2.7144735 -1.0603443
-2.5496573 -2.71363 -1.0663298
-2.5603123 -2.6916857 -1.0637646
-2.5581577 -2.6565986 -1.0557841
-2.5590162 -2.6250706 -1.0492287
-2.5676665 -2.6018171 -1.0460935
-2.5720623 -2.5744891 -1.0412481
-2.5973561 -2.5680909 -1.0452384
-2.6130648 -2.5521054 -1.0452384
-2.6348853 -2.5420115 -1.0478035
-2.648351 -2.5238132 -1.0469484
-2.6658812 -2.509486 -1.0478035
-2.6833355 -2.4950387 -1.0486586
-2.7070682 -2.486305 -1.0520788
-2.7265337 -2.4735107 -1.0537889
-2.7459438 -2.4605711 -1.0554991
-2.7631438 -2.4455812 -1.0563542
-2.7780976 -2.4285808 -1.0563542
-2.7943981 -2.4127414 -1.0569242
-2.8164451 -2.4017673 -1.0597744
-2.800329 -2.3585165 -1.0478035
-2.8081138 -2.3357751 -1.0452384
-2.8268383 -2.32215 -1.0469484
-2.8440118 -2.3071756 -1.0480886
-2.8543735 -2.2866864 -1.0466635
-2.8706064 -2.2709126 -1.0475185
-2.8761752 -2.246768 -1.0443833
-2.8838336 -2.2243965 -1.0421032
-2.8966653 -2.2060792 -1.0418181
-2.9032505 -2.1830816 -1.039253
-2.9627793 -2.1994932 -1.0563542
-3.0218437 -2.2146885 -1.0731703
-3.022171 -2.1865575 -1.0683249
-3.1377351 -2.2409191 -1.1056625
-3.0989256 -2.1846371 -1.0865662
-3.0878761 -2.1486173 -1.0777305
-3.0662284 -2.1057651 -1.0651897
-3.0870275 -2.0922866 -1.0680399
-3.1014011 -2.0743709 -1.06861
-3.0940671 -2.0421083 -1.0614845
-3.0872579 -2.0105371 -1.054644
-3.1124413 -1.9998424 -1.0592043
-3.159472 -2.0027633 -1.0714601
-3.1651983 -1.9792757 -1.06918
-3.1699398 -1.9552906 -1.0666149
-3.1810584 -1.9353055 -1.0663298
-3.1517696 -1.8911052 -1.0520788
-3.145987 -1.8614858 -1.0460935
-3.1606619 -1.8440785 -1.0472335
-3.1793966 -1.8289496 -1.0497987
-3.2347569 -1.8344535 -1.0649047
-3.2133164 -1.7963401 -1.0537889
-3.2696199 -1.8015546 -1.06918
-3.2907221 -1.7869445 -1.0726002
-3.3295188 -1.7816344 -1.0820059
-3.3581965 -1.7705537 -1.0879912
-3.4404607 -1.7870065 -1.1119329
-3.5213435 -1.8016423 -1.1353045
-3.5503101 -1.7890548 -1.1412898
-3.5371761 -1.7553135 -1.1333094
-3.568552 -1.74367 -1.1401498
-3.5895505 -1.7267241 -1.1435701
-3.680656 -1.7427922 -1.1700768
-3.7408092 -1.7432392 -1.1863229
-3.7932622 -1.7394191 -1.2000039
-3.9017327 -1.7602321 -1.231926
-4.0517802 -1.7980405 -1.2772441
-3.9511547 -1.7244812 -1.2410467
-3.9933751 -1.7138051 -1.2513072
-4.117753 -1.737306 -1.2880747
-4.1513586 -1.7215478 -1.2954853
-4.2257605 -1.7220715 -1.3160067
-4.3421502 -1.7384804 -1.349924
-4.3589802 -1.7142589 -1.3519191
-4.4186001 -1.7064611 -1.3675952
-4.4558778 -1.6895053 -1.3761457
-4.5209632 -1.6825131 -1.3935319
-4.5888305 -1.6757708 -1.4117732
-4.6270018 -1.6575973 -1.4206088
-4.731144 -1.6621965 -1.4502507
-4.8472953 -1.6696342 -1.483598
-5.0872321 -1.7173766 -1.5557079
-5.2205372 -1.7267389 -1.5941855
-5.2501845 -1.7008735 -1.6001709
-5.4259052 -1.7210479 -1.6517594
-5.5407281 -1.7200996 -1.6842515
-5.5952039 -1.6994324 -1.6979325
-5.6634169 -1.6822522 -1.7158887
-5.7500381 -1.6696404 -1.7395453
-5.8072057 -1.6476616 -1.7540812
-5.8929543 -1.6329731 -1.7774528
-6.0490627 -1.6363025 -1.8224859
-6.1868916 -1.6328875 -1.8618186
-6.364819 -1.6381074 -1.9134071
-6.4249578 -1.6116072 -1.9287981
-6.4421744 -1.5739727 -1.9310782
-6.4321275 -1.5297607 -1.9250928
-6.4610047 -1.4947988 -1.9310782
-6.4915648 -1.4599602 -1.9376336
-6.495718 -1.4190792 -1.9362086
-6.5071163 -1.3797915 -1.9370637
-6.5520773 -1.3473619 -1.9481794
-6.5602212 -1.3071338 -1.9481794
-6.5041165 -1.2545233 -1.9287981
-6.5088644 -1.2140644 -1.927943
-6.5586429 -1.1817452 -1.940769
-6.572381 -1.142628 -1.942764
-6.5405078 -1.0957922 -1.9310782
-6.5660348 -1.058688 -1.9367787
-6.5790381 -1.0194058 -1.9387738
-6.5804286 -0.97831452 -1.9373487
-6.5938993 -0.93899912 -1.9396288
-6.6109343 -0.90007174 -1.9430491
-6.6077776 -0.85838103 -1.9404839
-6.6205301 -0.81876016 -1.942764
-6.6178136 -0.77722883 -1.9404839
-6.6291265 -0.73734862 -1.942479
-6.6306663 -0.69635934 -1.9416239
-6.6414914 -0.65631992 -1.9436191
-6.632031 -0.61432076 -1.9396288
-6.6375856 -0.57378054 -1.9401989
-6.6400261 -0.53296578 -1.9399139
-6.6383915 -0.49186 -1.9384887
-6.6336341 -0.4506 -1.9362086
-6.6477542 -0.41059539 -1.9396288
-6.6501484 -0.36979783 -1.9396288
-6.6475058 -0.3287504 -1.9382037
-6.6886606 -0.28964934 -1.9498895
-6.6893539 -0.24856761 -1.9496045
-6.6917114 -0.20754738 -1.9498895
-6.6871095 -0.16634189 -1.9481794
-0 -0 -0
-6.6828966 -0.084196784 -1.9464693
-0 -0 -0
-0 -0 -0
-6.6344304 0.038535267 -1.9319333
-6.5957313 0.078777999 -1.9205326
-6.6142907 0.1195971 -1.9262329
-6.6249313 0.16045989 -1.9296532
-6.6334028 0.20139925 -1.9325033
-6.6349158 0.24220265 -1.9333584
-6.6227708 0.28245804 -1.9302232
-6.6256995 0.32332373 -1.9316483
-6.6178489 0.3636556 -1.9299382
-6.6049685 0.40361017 -1.926803
-6.6042805 0.4442589 -1.9273731
-0 -0 -0
-0 -0 -0
-0 -0 -0
-0 -0 -0
-0 -0 -0
-0 0 -0
-0 0 -0
-0 0 -0
-0 0 -0
-0 0 -0
-6.4188499 0.23191264 -1.9471912
-0 0 -0
-6.3811712 0.30900314 -1.9365457
-6.3896475 0.34872344 -1.9397986
-6.3625956 0.38641891 -1.9321102
-6.3677301 0.42596138 -1.9344758
-6.363091 0.46488592 -1.9338844
-6.3582144 0.50376958 -1.933293
-6.3654733 0.54366696 -1.9365457
-6.3525047 0.58184379 -1.9335887
-0 0 -0
-6.3980951 0.6652844 -1.9501483
-0 0 -0
-6.3989382 0.74485272 -1.9531054
-0 0 -0
-6.3874211 0.82307738 -1.9525141
-0 0 -0
-0 0 -0
-6.3362222 0.93534994 -1.9415728
-6.2888198 0.96781999 -1.9285617
-6.2667279 1.0038216 -1.9235346
-6.2510271 1.0406865 -1.9205775
-6.2426414 1.0786973 -1.9199861
-6.2443681 1.1184964 -1.9226475
-6.2402053 1.1573125 -1.9235346
-6.2301722 1.1950402 -1.9226475
-6.2264705 1.2339879 -1.9238303
-6.2122302 1.2708298 -1.9217603
-6.2015114 1.3083321 -1.9208733
-6.1821651 1.3439248 -1.9173248
-6.1756673 1.3822497 -1.9179162
-6.1819644 1.4235457 -1.9226475
-6.169395 1.4605707 -1.9214647
-6.1677427 1.5002036 -1.9238303
-6.1760311 1.5424167 -1.9294487
-6.1488686 1.5757784 -1.9238303
-6.1409316 1.613963 -1.9244218
-6.1244564 1.6498736 -1.9223518
-6.1096129 1.6861511 -1.9208733
-6.1000714 1.7238671 -1.9211689
-6.0792847 1.7583449 -1.9179162
-6.0793734 1.7988654 -1.9214647
-6.0572491 1.8328147 -1.9179162
-6.0449767 1.8696645 -1.9176204
-6.038856 1.9084475 -1.9193947
-6.0279417 1.9457587 -1.9196904
-6.0222402 1.9848015 -1.9217603
