# .PCD v0.7 - Point Cloud Data file format
VERSION 0.7
FIELDS x y z
SIZE 4 4 4
TYPE F F F
COUNT 1 1 1
WIDTH 1557
HEIGHT 1
VIEWPOINT 0 0 0 1 0 0 0
POINTS 1557
DATA ascii
-5.395154 9.2378922 -1.955214
-5.3280673 9.2529325 -1.9513655
-5.2910919 9.3205013 -1.9588794
-5.2049966 9.3013201 -1.9478834
-5.185813 9.4019451 -1.9625446
-5.1383557 9.452589 -1.9665765
-5.0802593 9.4839392 -1.9665765
-5.0201354 9.5114555 -1.9658433
-4.9589586 9.5368462 -1.9647437
-4.8936253 9.5539703 -1.9619948
-4.8393393 9.5925941 -1.9638275
-4.771203 9.6036186 -1.9599789
-4.7082982 9.6247663 -1.9583296
-4.6457405 9.646389 -1.9568634
-4.5944657 9.6915903 -1.9603454
-4.5656738 9.7855225 -1.973907
-4.5231843 9.8517685 -1.9817874
-4.4492941 9.8497725 -1.9757397
-4.3975558 9.8966503 -1.9797715
-4.3383231 9.9270506 -1.9805046
-4.2757778 9.9498701 -1.9797715
-4.2215328 9.992219 -1.9830703
-4.1620278 10.022472 -1.9839866
-4.1026816 10.053283 -1.9850862
-4.0365281 10.067318 -1.982887
-3.9746799 10.091896 -1.982887
-3.9123278 10.115177 -1.9827038
-3.8529809 10.146345 -1.9841698
-3.8019831 10.200192 -1.9902176
-3.7474296 10.245487 -1.994616
-3.6911352 10.286794 -1.9982812
-3.624357 10.299048 -1.9962654
-3.5684705 10.342466 -2.0004804
-3.5024233 10.356717 -1.9990144
-3.4344804 10.364949 -1.9964486
-3.3741562 10.396112 -1.9984646
-3.3094101 10.41381 -1.9979148
-3.2542102 10.462081 -2.0034127
-3.1890962 10.47903 -2.0028629
-3.1331522 10.526667 -2.0083609
-3.0619104 10.523039 -2.0039625
-2.991369 10.520826 -1.9999306
-2.9338613 10.564557 -2.0048788
-2.8720703 10.593746 -2.0070779
-2.8120432 10.630177 -2.0107434
-2.742835 10.632001 -2.0078111
-2.6713128 10.623842 -2.0030463
-2.6030352 10.627621 -2.0006638
-2.5382323 10.645305 -2.0010302
-2.4713111 10.653975 -1.9997474
-2.3989718 10.638251 -1.9938829
-2.3521669 10.737275 -2.0100102
-2.2870579 10.755352 -2.0107434
-2.2309513 10.817323 -2.0199065
-2.1587548 10.801888 -2.0144086
-2.0866451 10.78501 -2.0087273
-2.0215154 10.803409 -2.0098269
-1.9642843 10.865912 -2.0193567
-1.8943648 10.859361 -2.0158746
-1.8239477 10.848482 -2.0116596
-1.7625319 10.891494 -2.0177073
-1.7014123 10.939016 -2.0246716
-1.628018 10.907441 -2.0167911
-1.557024 10.889004 -2.0114763
-1.4983072 10.957767 -2.0226555
-1.4348605 10.995997 -2.0281534
-1.3637257 10.975327 -2.0226555
-1.2957804 10.978607 -2.0217392
-1.2234752 10.942388 -2.0134923
-1.1562077 10.948711 -2.013309
-1.0936751 11.002555 -2.0221057
-1.0251402 10.998292 -2.0200899
-0.9560166 10.985766 -2.0166078
-0.88890821 10.995345 -2.0173409
-0.82157177 11.002553 -2.0177073
-0.75263429 10.986792 -2.0138588
-0.68728733 11.024562 -2.0200899
-0.62156028 11.062924 -2.026504
-0.55052167 11.003693 -2.014775
-0.48389968 11.027488 -2.0186238
-0.41659823 11.040073 -2.0204563
-0.34940916 11.060108 -2.0237551
-0.28048703 11.020768 -2.016058
-0.2129737 11.028179 -2.0171576
-0.14473067 10.986028 -2.009094
-0.077555396 11.020132 -2.0153248
-0.0099458229 11.031214 -2.0173409
0.057939902 11.069407 -2.0244882
0.12548059 11.03542 -2.0182571
0.1934479 11.049187 -2.0210061
0.26063749 11.022239 -2.0162413
0.32814685 11.016501 -2.0155082
0.39742923 11.061438 -2.0243049
0.46446767 11.039146 -2.0206397
0.53072709 11.00565 -2.0149584
0.59888655 11.013966 -2.0171576
0.66212231 10.938451 -2.0037792
0.73406512 11.006767 -2.0173409
0.79787481 10.951072 -2.0078111
0.86551881 10.95185 -2.0089107
0.93295205 10.949272 -2.0094604
0.993321 10.868938 -1.9955323
1.0640967 10.904711 -2.0034127
1.1297694 10.886242 -2.0012136
1.1981565 10.893763 -2.0039625
1.2674724 10.907689 -2.0079944
1.3385565 10.933859 -2.0144086
1.4044917 10.916665 -2.0127592
1.4738135 10.925378 -2.016058
1.5398611 10.909315 -2.014775
1.6030438 10.874374 -2.0100102
1.6715291 10.875994 -2.0122094
1.7332633 10.83447 -2.006345
1.8034174 10.845935 -2.01056
1.8634138 10.796884 -2.0034127
1.9351664 10.816214 -2.0092771
1.9887856 10.735506 -1.9962654
2.0557296 10.728894 -1.997365
2.1278214 10.747902 -2.0034127
2.1829054 10.681669 -1.9933331
2.250433 10.677693 -1.9951658
2.3148646 10.658881 -1.9942495
2.3868718 10.674217 -1.9999306
2.4573913 10.681406 -2.0041459
2.5237899 10.669953 -2.0048788
2.5882835 10.650445 -2.0041459
2.6528709 10.631502 -2.0035961
2.7068388 10.571217 -1.9951658
2.7716517 10.554408 -1.9951658
2.8240969 10.491637 -1.986369
2.8928614 10.490223 -1.9894845
2.9515643 10.452407 -1.985636
3.0257413 10.469044 -1.9924169
3.0832322 10.427655 -1.9880184
3.1471572 10.408541 -1.9880184
3.2112536 10.389974 -1.9882017
3.2725768 10.362575 -1.9867356
3.33459 10.337621 -1.9858192
3.4044151 10.336575 -1.9896678
3.4633899 10.302445 -1.9871022
3.5246258 10.275421 -1.9860026
3.5979965 10.283294 -1.9918671
3.6484737 10.225839 -1.984903
3.7208934 10.230052 -1.9902176
3.7600198 10.143425 -1.9775723
3.822535 10.121083 -1.9777555
3.8789179 10.082757 -1.9748234
3.9407115 10.058767 -1.9748234
3.9987152 10.025267 -1.9729908
4.0542374 9.9859686 -1.9700584
4.11656 9.9636297 -1.9706082
4.1760945 9.9345589 -1.9698752
4.2362003 9.9069395 -1.9695086
4.296124 9.8789568 -1.9691422
4.3538766 9.846117 -1.9678593
4.4198518 9.8317699 -1.970425
4.4788699 9.8017826 -1.9698752
4.5356159 9.766983 -1.9684091
4.5845532 9.7158537 -1.9636441
4.6449323 9.6893129 -1.9640107
4.6948295 9.6411848 -1.9599789
4.7408247 9.5857611 -1.9544809
4.8101411 9.5775757 -1.9588794
4.84515 9.5014639 -1.9491663
4.9051661 9.4750481 -1.9498993
4.9723568 9.4621763 -1.9535646
5.0201449 9.412406 -1.9495327
5.0806117 9.3866129 -1.9506323
5.1239147 9.3294115 -1.9451344
5.181541 9.2986555 -1.9453176
5.2389827 9.2675428 -1.945501
5.2903695 9.2258415 -1.943485
5.347867 9.1949062 -1.9438516
5.3971934 9.1500645 -1.9412858
5.4380975 9.091465 -1.9357879
5.4968381 9.0629702 -1.9368875
5.54565 9.0181847 -1.934505
5.5909991 8.9681368 -1.931023
5.6422453 8.927845 -1.9297402
5.6963892 8.8922291 -1.9295568
5.7422786 8.8439169 -1.9266247
5.7942743 8.805232 -1.9258916
5.8498292 8.7719669 -1.9264414
5.8969378 8.7261333 -1.9242421
5.9520359 8.6922197 -1.9247919
5.9946113 8.6401882 -1.9213099
6.027163 8.5742893 -1.9147124
6.1007586 8.5667753 -1.9214932
6.1445813 8.5172215 -1.9187442
6.1949863 8.4769773 -1.9181944
6.2363558 8.4245834 -1.9148957
6.2578559 8.3460455 -1.9055492
6.3285675 8.3333263 -1.9115969
6.3639989 8.2740784 -1.906832
6.4285417 8.2527113 -1.9110471
6.4723611 8.2046213 -1.9090312
6.5213547 8.1632166 -1.9086647
6.5731754 8.1253414 -1.9092145
6.6129408 8.0726881 -1.9062822
6.6485424 8.0153131 -1.9022504
6.7013917 7.9788847 -1.90335
6.7464018 7.9331222 -1.9022504
6.7878962 7.8833828 -1.9002345
6.8413076 7.8475127 -1.9017006
6.8678637 7.781065 -1.8956529
6.9148231 7.7380447 -1.8954695
6.9549184 7.6874514 -1.8934537
6.995317 7.6373825 -1.891621
7.0407104 7.5928745 -1.8912544
7.0723653 7.533762 -1.8872226
7.113718 7.4852366 -1.8859398
7.1431556 7.4244437 -1.8815414
7.1920056 7.383996 -1.8824577
7.2074995 7.3096261 -1.8745774
7.266799 7.2798758 -1.878426
7.3225102 7.2462144 -1.8813581
7.355587 7.1901526 -1.878426
7.4038095 7.1489816 -1.8795255
7.4354424 7.0918832 -1.87641
7.4695158 7.0373626 -1.8740276
7.5139952 6.9927378 -1.8743941
7.5278115 6.919888 -1.8670635
7.5613961 6.8656378 -1.8648643
7.6026487 6.8184562 -1.864681
7.6428714 6.7703748 -1.8643146
7.6628146 6.7045784 -1.8589998
7.7075281 6.6606479 -1.8599161
7.7407746 6.6068478 -1.8580835
7.77741 6.5560589 -1.8571671
7.8106914 6.502553 -1.8555177
7.834497 6.4413934 -1.8516692
7.8845572 6.4018764 -1.8542349
7.9137201 6.3453822 -1.8518525
7.9540467 6.2979255 -1.852219
7.9971871 6.252635 -1.8533186
8.0517426 6.216064 -1.8571671
8.0772238 6.1570063 -1.8542349
8.1085663 6.1026001 -1.8527688
8.1592722 6.0627003 -1.8558843
8.1844292 6.003799 -1.8531353
8.2274837 5.9580803 -1.8546015
8.2622871 5.906342 -1.8542349
8.2839146 5.8453317 -1.8509362
8.349472 5.8151817 -1.8577169
8.3493519 5.739337 -1.8496534
8.4210176 5.7128348 -1.8579003
8.4714336 5.6714487 -1.8613822
8.4847479 5.6052723 -1.8566173
8.510746 5.5477371 -1.8547847
8.5363579 5.4900937 -1.8529521
8.5765238 5.4418259 -1.8544182
8.6130857 5.3911853 -1.8551513
8.6627331 5.3485646 -1.8588165
8.7138596 5.30656 -1.8628484
8.7496262 5.2550178 -1.8635814
8.7783232 5.1992283 -1.8628484
8.8210945 5.1517129 -1.8652308
8.8815041 5.1141706 -1.8714619
8.9195557 5.0634613 -1.872928
8.9204311 4.9918332 -1.8665137
8.9440069 4.9332061 -1.8650476
8.9749718 4.8787031 -1.8652308
9.0160027 4.829577 -1.8676133
9.039381 4.7709527 -1.8663304
9.0719738 4.7172127 -1.8670635
9.1418695 4.6825242 -1.875677
9.1713066 4.6267858 -1.8758602
9.1863174 4.5638628 -1.8731112
9.1691132 4.4853783 -1.8637648
9.2478313 4.4537754 -1.8743941
9.2367887 4.3788385 -1.8665137
9.2902088 4.3345509 -1.8720117
9.3023357 4.2709022 -1.8690794
9.3695774 4.2323608 -1.8775096
9.3639278 4.1608181 -1.8710953
9.3532505 4.0875354 -1.8637648
9.4549255 4.0630622 -1.8793422
9.4896393 4.0091805 -1.8813581
9.5167837 3.9520087 -1.8819079
9.5353928 3.8913116 -1.8808084
9.5180302 3.8162653 -1.8725615
9.5613899 3.7657182 -1.8765932
9.5393896 3.6896014 -1.8676133
9.5848246 3.639725 -1.8721949
9.6171103 3.5846224 -1.8742108
9.6278448 3.5214927 -1.8720117
9.6566734 3.4650075 -1.8734778
9.6592064 3.3991625 -1.8698125
9.7235584 3.3549025 -1.878426
9.7420979 3.2945468 -1.8780594
9.7723942 3.2381101 -1.8800753
9.7668333 3.1698918 -1.8751272
9.8170166 3.1197305 -1.8811749
9.8265867 3.0565155 -1.8793422
9.810359 2.9855719 -1.8725615
9.8087072 2.9194305 -1.8687129
9.8490896 2.865783 -1.8731112
9.929842 2.8233118 -1.88539
9.9763422 2.7704859 -1.8910712
9.9476109 2.6968713 -1.8822745
9.9687233 2.6370404 -1.8831909
10.002802 2.5804904 -1.8866729
10.017494 2.5188258 -1.8864896
10.006025 2.450763 -1.8813581
10.041912 2.3943379 -1.88539
10.084186 2.3391197 -1.8907046
10.088758 2.2750375 -1.888872
10.102528 2.2130911 -1.888872
10.101494 2.147994 -1.8861231
10.152995 2.0939159 -1.8934537
10.139625 2.0263762 -1.8885055
10.162484 1.9661771 -1.8905214
10.178222 1.9045076 -1.8912544
10.204226 1.8446431 -1.8940035
10.203732 1.7799687 -1.8918042
10.245484 1.7225432 -1.8976687
10.229659 1.6554046 -1.8927206
6.0733805 0.94444889 -1.1066966
0 0 -0
0 0 -0
0 0 -0
0 0 -0
0 0 -0
0 0 -0
0 0 -0
0 0 -0
0 0 -0
0 0 -0
0 0 -0
0 0 -0
0 0 -0
0 0 -0
0 0 -0
0 0 -0
0 0 -0
0 0 -0
0 0 -0
0 0 -0
0 0 -0
0 0 -0
0 0 -0
0 0 -0
0 0 -0
0 -0 -0
0 -0 -0
0 -0 -0
0 -0 -0
0 -0 -0
0 -0 -0
0 -0 -0
0 -0 -0
0 -0 -0
0 -0 -0
5.9247923 -0.39532357 -1.0678444
5.95363 -0.43395475 -1.0737089
5.9479151 -0.47024512 -1.0731591
0 -0 -0
0 -0 -0
6.0977345 -0.5952037 -1.1030314
9.4693871 -0.98278159 -1.7356625
9.2853327 -1.0213122 -1.7023082
9.1792889 -1.0666966 -1.6836151
9.0740166 -1.110938 -1.6651053
9.1684332 -1.1796366 -1.6841649
9.2038889 -1.2416519 -1.6922286
9.2262726 -1.3023608 -1.6979098
9.230751 -1.3608109 -1.7002922
9.202795 -1.4144381 -1.6966269
9.1822939 -1.4690157 -1.6944277
9.156621 -1.522589 -1.6913123
9.0860758 -1.5682133 -1.6797665
9.0724115 -1.6232425 -1.6790335
9.027482 -1.6724341 -1.672436
8.9678097 -1.7183611 -1.6630894
8.9513111 -1.7722089 -1.6619898
8.9219685 -1.8233607 -1.6585078
8.3805838 -1.7663821 -1.5575287
8.8460836 -1.9212366 -1.6484282
8.9041634 -1.9911369 -1.6618066
8.8726177 -2.0413268 -1.6581413
8.8474884 -2.0927885 -1.6557589
8.8535862 -2.1516786 -1.6594242
8.827817 -2.2028692 -1.6570417
7.3732319 -1.8880969 -1.3797616
8.802021 -2.3115335 -1.6574082
8.7981148 -2.3683085 -1.6594242
8.776783 -2.420419 -1.6581413
8.7210855 -2.4627407 -1.6502609
8.6906996 -2.5118392 -1.6473286
8.6864357 -2.5684614 -1.6495278
7.9779367 -2.4123306 -1.5146447
7.917901 -2.4473047 -1.5058481
7.8886743 -2.4914019 -1.503099
7.8844662 -2.54338 -1.5052983
7.9303384 -2.612005 -1.5173937
8.6214218 -2.8983469 -1.6564919
8.5932465 -2.9476843 -1.6544759
8.5712862 -2.9990573 -1.6537429
8.5508718 -3.0509326 -1.6533763
8.5236759 -3.1003184 -1.651727
8.4998827 -3.1508522 -1.6508107
8.4767113 -3.2015579 -1.6500776
7.5788379 -2.9157472 -1.4746929
8.4248857 -3.3006778 -1.6476952
8.3916903 -3.3472114 -1.6451294
8.3637075 -3.3956807 -1.6436633
8.3272686 -3.4405546 -1.6405479
8.296032 -3.4873948 -1.6385319
8.2437449 -3.5250928 -1.6323009
8.2057323 -3.568553 -1.6290021
8.1701956 -3.6128721 -1.6262531
8.1577368 -3.6673689 -1.6282691
8.1306095 -3.7153122 -1.6273527
8.0737782 -3.749398 -1.6203886
8.0328388 -3.7904775 -1.6167234
7.9526944 -3.8124995 -1.6049944
7.9362226 -3.8646674 -1.6064606
7.9854999 -3.9494596 -1.6216716
8.0516024 -4.0438242 -1.6405479
8.026639 -4.0931516 -1.6405479
8.012722 -4.1482 -1.6429303
7.95753 -4.1817403 -1.6366993
7.9135056 -4.2207732 -1.6328506
7.949707 -4.3029399 -1.6460458
7.9007516 -4.339334 -1.6412809
7.8164406 -4.3556719 -1.6290021
7.7835765 -4.4001641 -1.6277193
7.7700763 -4.4556646 -1.6306515
7.7170963 -4.4884305 -1.6251535
7.6970315 -4.5401921 -1.6268029
7.6707158 -4.5883436 -1.6271695
7.5659266 -4.5889349 -1.6104923
7.6188569 -4.6852193 -1.6282691
7.5732803 -4.7214785 -1.6246037
7.5366883 -4.7631321 -1.6229544
7.4907641 -4.7986817 -1.619289
7.4776697 -4.8552599 -1.6229544
7.4157095 -4.8799767 -1.6158071
7.3823557 -4.9232049 -1.615074
7.2982488 -4.9320831 -1.6029785
7.267849 -4.9767714 -1.6029785
7.2476754 -5.0285573 -1.605361
7.2126632 -5.070107 -1.6044446
7.1854215 -5.1171188 -1.605361
7.0964847 -5.1197019 -1.5921658
7.1292291 -5.2101297 -1.6070104
7.0615692 -5.2274566 -1.5987633
7.0466652 -5.2836604 -1.6027952
7.0047178 -5.3196645 -1.6005961
6.9524636 -5.3475614 -1.5960144
6.9156432 -5.3871002 -1.5950981
6.9048414 -5.4470882 -1.6004127
6.8643761 -5.4838309 -1.5987633
6.8168411 -5.5147181 -1.5954646
6.7935224 -5.5651627 -1.5980303
6.7547069 -5.6029768 -1.5969307
6.6810551 -5.6114421 -1.5874009
6.6427536 -5.6491466 -1.5864847
6.6005163 -5.6833849 -1.5846519
6.5914555 -5.746387 -1.5910662
6.5582833 -5.7886748 -1.591616
6.5219083 -5.8281517 -1.5914328
6.4787345 -5.8614645 -1.5896001
6.4506221 -5.9084105 -1.591616
6.3955045 -5.9305015 -1.5868511
6.3468103 -5.9581943 -1.5837357
6.313695 -6.000411 -1.5846519
6.2498374 -6.0131392 -1.5776879
6.2177534 -6.0561757 -1.5789708
6.1860766 -6.0997348 -1.5804369
6.1346173 -6.1236873 -1.5767716
6.101768 -6.1661043 -1.5780544
6.0713782 -6.2111607 -1.5800704
6.0249581 -6.2398109 -1.5778712
5.9872365 -6.2773733 -1.5780544
5.9169216 -6.280364 -1.569441
2.2462237 -2.4140644 -0.57559443
2.2313688 -2.4278016 -0.57559443
2.2164302 -2.4414473 -0.57559443
2.2014079 -2.4550011 -0.57559443
5.6732488 -6.4044571 -1.5558794
5.672039 -6.4827962 -1.566692
5.6520815 -6.5405345 -1.5723733
5.6092901 -6.5721011 -1.5716401
5.5631561 -6.5996308 -1.5699908
5.5074606 -6.6155095 -1.5655924
5.4530292 -6.632473 -1.5615606
5.4246244 -6.6810703 -1.5652258
5.377378 -6.7065601 -1.5633932
5.3751841 -6.7887535 -1.5751222
2.0174987 -2.5808454 -0.57156259
1.9932141 -2.5822821 -0.56899685
1.9749482 -2.5913365 -0.56826383
1.9584197 -2.6026204 -0.56808054
1.9435861 -2.6161661 -0.56844705
1.8071269 -2.4639664 -0.5305112
1.7867846 -2.4678426 -0.52886182
1.7716086 -2.4787598 -0.52886182
4.8947916 -6.9369373 -1.5436006
4.8538208 -6.9692607 -1.5441504
4.8282313 -7.0240254 -1.5498316
4.7745552 -7.0380621 -1.5463495
4.7383904 -7.0778451 -1.548732
4.7154646 -7.1379542 -1.5556961
4.6382928 -7.1156945 -1.5443337
4.6019897 -7.1555963 -1.5468994
4.5648446 -7.1944895 -1.5492818
4.5253086 -7.2298627 -1.5509312
4.4772463 -7.2516379 -1.5496484
4.4173265 -7.2537851 -1.5441504
1.7223425 -2.8682332 -0.5845744
1.7042099 -2.8779016 -0.58439112
1.6860236 -2.8874552 -0.58420789
4.2325826 -7.3506365 -1.5421345
4.2063289 -7.4098096 -1.5492818
4.155983 -7.4269009 -1.5474492
4.1212554 -7.4720597 -1.5516642
4.0678172 -7.4833879 -1.548732
4.0153246 -7.4960752 -1.5461663
3.9651237 -7.5127468 -1.5445169
3.9307442 -7.5596118 -1.5492818
3.8708394 -7.5573397 -1.5437839
3.8359089 -7.6037683 -1.5485488
3.7817447 -7.612195 -1.5454333
3.7341018 -7.6334901 -1.5450667
3.6880465 -7.65803 -1.5454333
3.6334076 -7.664526 -1.5421345
3.5842321 -7.6822214 -1.5412182
3.5341558 -7.6978159 -1.5399354
3.4896896 -7.7256274 -1.5412182
3.4394257 -7.7406058 -1.5399354
3.3883224 -7.7534566 -1.538286
3.3344736 -7.7596502 -1.5353537
3.2944508 -7.7980752 -1.539019
3.2374914 -7.7963533 -1.5346206
3.1936791 -7.8260837 -1.5366366
3.1477945 -7.851007 -1.5377362
3.0952389 -7.8591976 -1.5355369
3.043411 -7.8688731 -1.5337043
2.9943731 -7.885561 -1.5333377
2.9431849 -7.8964167 -1.5318717
2.893327 -7.910634 -1.5311385
2.8543632 -7.9550714 -1.5364532
2.8028872 -7.9650173 -1.5349871
2.7517173 -7.9755607 -1.5337043
2.7046182 -7.9978819 -1.5348039
2.6595132 -8.0264578 -1.5371864
2.6129456 -8.0510406 -1.5388358
2.5536697 -8.036005 -1.5327879
2.5011013 -8.0411968 -1.5307721
2.4505694 -8.0526304 -1.530039
2.4061618 -8.0844746 -1.5333377
2.354039 -8.0905914 -1.5316883
2.2984362 -8.0840807 -1.5276566
2.2487898 -8.098031 -1.5276566
2.2016315 -8.1211653 -1.5294892
2.1489937 -8.1240673 -1.5274733
2.1045082 -8.158042 -1.5315051
2.0560901 -8.177475 -1.5327879
1.9972209 -8.1546078 -1.5260072
1.9412185 -8.1418467 -1.5212423
1.8794495 -8.10285 -1.5115292
1.8426734 -8.1717682 -1.5225251
1.7918664 -8.1800404 -1.5219753
1.7391869 -8.1793423 -1.5197761
1.6895624 -8.1927481 -1.5203259
1.6469685 -8.2415199 -1.5276566
1.5948743 -8.2437496 -1.5261904
1.5341341 -8.1992683 -1.5159276
1.480822 -8.1920815 -1.512812
1.4322182 -8.2106981 -1.5146447
1.3880064 -8.2561703 -1.5216088
1.3363789 -8.258709 -1.5205092
1.242761 -7.9908819 -1.4684619
1.1797714 -7.9050174 -1.4508685
1.1011801 -7.7019048 -1.4112833
1.0589635 -7.7455287 -1.4182473
1.0152351 -7.7811241 -1.4237453
0.97050315 -7.8115959 -1.4283268
0.91356319 -7.7412539 -1.4140322
0.86735785 -7.7584372 -1.4162314
0.81911701 -7.7577477 -1.4151318
0.76867998 -7.7342587 -1.4098171
0.72221297 -7.7495966 -1.411833
0.67388135 -7.7450676 -1.4101837
0.62412673 -7.7216206 -1.4050522
0.57351357 -7.6821704 -1.3969885
0.52697086 -7.6943717 -1.3986379
0.47938192 -7.6915731 -1.3975383
0.42881224 -7.6344976 -1.3863592
0.3808783 -7.6153846 -1.3823273
0.33306572 -7.5930252 -1.3777457
0.28791663 -7.6332383 -1.3848931
0.24321884 -7.7026587 -1.3975383
0.19870687 -7.812108 -1.4176975
0.1513965 -7.8456149 -1.4237453
0.1052407 -7.9967918 -1.4517848
0.057742964 -8.2194538 -1.4932027
0.0073765009 -8.2924004 -1.5067643
-0.043714348 -8.3325949 -1.5142782
-0.094863646 -8.3341351 -1.5146447
-0.14658304 -8.3668156 -1.5208757
-0.19777887 -8.3598614 -1.5197761
-0.24816406 -8.3280296 -1.5140949
-0.29957658 -8.3351917 -1.5157443
-0.35046697 -8.3273039 -1.5146447
-0.39994702 -8.2916107 -1.5084137
-0.45284277 -8.3263025 -1.5153778
-0.50600111 -8.3577108 -1.5217921
-0.55681586 -8.3475828 -1.5205092
-0.60466945 -8.2979269 -1.5118958
-0.65774077 -8.3215008 -1.5170271
-0.71045667 -8.3368988 -1.5206925
-0.76186585 -8.3353195 -1.5212423
-0.81080097 -8.3079844 -1.5170271
-0.86287838 -8.3136091 -1.5190431
-0.91537762 -8.3218384 -1.5216088
-0.96653569 -8.3170414 -1.5217921
-1.0180275 -8.3148575 -1.5225251
-1.0778059 -8.3767071 -1.5353537
-1.1272134 -8.3553219 -1.5326047
-1.1729649 -8.3093119 -1.5252742
-1.2259345 -8.3155737 -1.5278398
-1.2769347 -8.3078957 -1.5278398
-1.3283528 -8.3028164 -1.5283896
-1.3874947 -8.3439665 -1.5377362
-1.4351559 -8.3149519 -1.5338875
-1.4800899 -8.2721205 -1.5274733
-1.5274172 -8.2445173 -1.5239912
-1.5772361 -8.2311277 -1.5232582
-1.6126319 -8.1451111 -1.5087802
-0.60854417 -2.9763546 -0.52721244
-0.62861961 -2.9812219 -0.52886182
-0.64710879 -2.9782693 -0.5290451
-0.66579992 -2.9761615 -0.52941161
-0.68382841 -2.9710622 -0.52922833
-0.68643457 -2.9007998 -0.51658309
-0.71466571 -2.9395204 -0.52482998
-0.73149896 -2.9303107 -0.52391368
-2.0931482 -8.1741562 -1.5338875
-2.1422658 -8.1573563 -1.5331545
-0.78199112 -2.9040091 -0.52153122
-0.80266947 -2.9095809 -0.52354711
-0.8175689 -2.8941941 -0.52153122
-0.94202238 -3.2583916 -0.59318787
-1.0534135 -3.5617652 -0.6532988
-2.4837365 -8.2141275 -1.5606443
-2.5062263 -8.1085663 -1.5430508
-2.5606687 -8.1080351 -1.5459831
-1.0478666 -3.2476096 -0.59703642
-1.0597789 -3.2168419 -0.59227157
-2.6982014 -8.0259819 -1.5393856
-1.1045965 -3.2194028 -0.59538704
-1.1256281 -3.2162762 -0.59612012
-2.8418429 -7.9647717 -1.5373696
-2.9114916 -8.0044641 -1.548732
-1.1491066 -3.0991464 -0.57706052
-1.1694902 -3.095716 -0.5777936
-1.1902279 -3.0930696 -0.5787099
-1.2299808 -3.1387978 -0.58933932
-1.2652404 -3.1713691 -0.59740299
-3.2078388 -7.9009852 -1.5505646
-3.2570086 -7.8829708 -1.5509312
-3.3125536 -7.8800564 -1.5544132
-3.363934 -7.8668141 -1.5558794
-3.4054766 -7.8306994 -1.5527638
-1.3004129 -2.9401331 -0.56020015
-1.3099648 -2.913269 -0.5563516
-1.3282242 -2.9060705 -0.55653483
-3.5630906 -7.6725445 -1.5379194
-3.645757 -7.7261086 -1.553497
-3.7113669 -7.7417116 -1.5613773
-3.7501919 -7.7011166 -1.5577121
-3.7938883 -7.6709108 -1.5562459
-3.8527966 -7.6712074 -1.5611941
-3.8971143 -7.642168 -1.5600945
-3.9561341 -7.6416836 -1.5650426
-3.9997473 -7.6111741 -1.5637598
-4.0445228 -7.5830188 -1.5630267
-4.0961223 -7.5675697 -1.5650426
-4.1472111 -7.5509105 -1.5668752
-4.1996846 -7.5364857 -1.5692577
-4.2235966 -7.4712081 -1.5608275
-4.2625136 -7.4332123 -1.5582619
-4.3001351 -7.393321 -1.5553296
-4.3354306 -7.3498616 -1.5516642
-4.3925571 -7.34337 -1.5560626
-4.4334545 -7.3095551 -1.5545965
-4.5019078 -7.3207355 -1.5630267
-4.531661 -7.2687812 -1.5577121
-4.6050596 -7.2865458 -1.5677916
-4.6613479 -7.2763643 -1.5718235
-4.7150073 -7.2616429 -1.5749389
-4.7600155 -7.2333965 -1.5751222
-4.8092179 -7.2114143 -1.5767716
-4.8533754 -7.1817698 -1.5767716
-4.917345 -7.181056 -1.5833691
-4.9192877 -7.0901694 -1.5696243
-4.9807892 -7.0855885 -1.5754887
-5.0264525 -7.0580969 -1.5762218
-5.0765672 -7.0366893 -1.578421
-5.1283484 -7.0173135 -1.58117
-5.181252 -6.9991474 -1.5842855
-5.2282281 -6.9727297 -1.5855683
-5.2673464 -6.9358211 -1.5844687
-5.3151984 -6.9103842 -1.5861181
-5.3538752 -6.8729873 -1.5850185
-5.3922935 -6.8353758 -1.5839189
-5.4359736 -6.8044653 -1.5844687
-5.477623 -6.7709823 -1.5844687
-5.5396223 -6.7623415 -1.5905164
-3.3932312 -4.0904841 -0.95165437
-5.6563296 -6.7345037 -1.6004127
-3.5947373 -4.2267761 -0.99527144
-3.6180391 -4.2016597 -0.99453843
-3.620497 -4.1527033 -0.98794085
-3.7142124 -4.2078018 -1.0071837
-3.7452011 -4.1907969 -1.0086498
-3.879003 -4.2872972 -1.0387053
-3.6901126 -4.0285282 -0.97932738
-3.9025817 -4.2083755 -1.0308249
-3.9020908 -4.1563969 -1.0236776
-3.9342923 -4.139502 -1.0255102
-3.9848354 -4.1414962 -1.0322911
-4.0321207 -4.139504 -1.0381556
-4.0312166 -4.0880842 -1.0311915
-4.0721979 -4.0792751 -1.0354065
-4.1607361 -4.1171393 -1.0520836
-3.5033414 -3.424253 -0.87413323
-3.501657 -3.3808403 -0.86826879
-3.4220359 -3.263618 -0.84242839
-3.4205317 -3.2223349 -0.83693045
-4.3289671 -4.0284266 -1.0632628
-3.4996214 -3.2167096 -0.84701002
-3.5200207 -3.1958368 -0.8471933
-3.5483456 -3.1820548 -0.84939247
-3.4147494 -3.0246301 -0.81127334
-3.4117889 -2.9848473 -0.80595863
-3.704495 -3.2010529 -0.87358344
-3.7180848 -3.1731565 -0.87211734
-3.7765689 -3.1832321 -0.88164711
-3.8451364 -3.2008851 -0.89355934
-4.4061089 -3.6224012 -1.0242274
-4.4152789 -3.5847628 -1.0211118
-4.3589635 -3.4948742 -1.0024188
-4.4350452 -3.5113921 -1.0154306
-4.4007487 -3.4405143 -1.0022355
-4.4567919 -3.4404819 -1.0104824
-4.479382 -3.4142628 -1.010849
-4.5167418 -3.3991284 -1.0146976
-4.5043731 -3.3467233 -1.0070004
-4.5589066 -3.3440266 -1.0148808
-4.4909625 -3.2519853 -0.99453843
-4.6011992 -3.2889733 -1.0152473
-4.4815354 -3.1620541 -0.98335922
-4.4984331 -3.1328108 -0.98280942
-4.5702276 -3.1413491 -0.99472165
-4.614635 -3.1303575 -1.0004029
-4.5389981 -3.0385401 -0.97914416
-4.5468941 -3.0035872 -0.9767617
-4.6047673 -3.0014009 -0.98555839
-4.5677013 -2.9374597 -0.97327965
-4.6371021 -2.9420338 -0.98464209
-4.7425599 -2.9682951 -1.0038849
-4.6879125 -2.8942046 -0.98794085
-4.6745172 -2.8464658 -0.98116004
-4.7567849 -2.8567064 -0.99527144
-4.8292017 -2.8600309 -1.0071837
-4.8305311 -2.8209252 -1.0037017
-4.8664908 -2.8020256 -1.0077335
-4.8938508 -2.7779367 -1.0099326
-4.8979363 -2.7406549 -1.0071837
-4.8793678 -2.6910822 -0.99966985
-4.798192 -2.6080351 -0.97896087
-4.9241562 -2.6375015 -1.0022355
-4.8837371 -2.5774093 -0.99032331
-4.8820162 -2.5383236 -0.98665798
-4.8563766 -2.4872551 -0.97804457
-4.9163084 -2.4799938 -0.98739105
-5.0361981 -2.5018351 -1.0091996
-5.047039 -2.4687264 -1.0082833
-5.0744915 -2.4436841 -1.010849
-5.1000495 -2.4175553 -1.0130482
-5.1201324 -2.3887107 -1.0141478
-5.132906 -2.3564286 -1.0137812
-5.1454763 -2.32408 -1.0134147
-5.1398764 -2.2836814 -1.0093828
-5.1519904 -2.2513132 -1.0090164
-5.1702228 -2.2215996 -1.0099326
-5.2498622 -2.2177651 -1.023311
-5.2542925 -2.1817403 -1.0214784
-5.2566586 -2.1450016 -1.0192792
-5.2970939 -2.1236837 -1.0247772
-5.1179452 -2.0154827 -0.98629147
-5.4208598 -2.0964689 -1.0443865
-5.4896817 -2.0844584 -1.0555657
-5.3890676 -2.0084989 -1.0330241
-5.3671308 -1.9628987 -1.0262432
-5.3688955 -1.926277 -1.0242274
-5.407506 -1.9027625 -1.0295421
-5.4581094 -1.8830152 -1.0372392
-5.5086727 -1.8627179 -1.0449363
-5.3921561 -1.7865157 -1.019829
-5.6498661 -1.8335239 -1.068211
-5.8052897 -1.8446791 -1.0964338
-5.8221316 -1.8107759 -1.0975333
-5.8378348 -1.7764491 -1.0984497
-5.8326077 -1.7358273 -1.0953342
-6.1074424 -1.7769191 -1.1466484
-6.2023869 -1.7633424 -1.162959
-6.2263503 -1.7289352 -1.1655247
-6.3620839 -1.7246579 -1.1897157
-6.4134121 -1.6964003 -1.1975961
-6.8967891 -1.7790819 -1.2886789
-7.1220856 -1.7906765 -1.3299135
-7.113842 -1.7422644 -1.3262482
-7.7574348 -1.8495456 -1.4475697
-7.8442903 -1.8194635 -1.4620477
-8.0346346 -1.8117439 -1.4963182
-8.4095478 -1.8421525 -1.5657756
-9.0812817 -1.9310133 -1.6916788
-9.074667 -1.8714818 -1.6881968
-9.1852703 -1.8356127 -1.7070731
-9.3710537 -1.813024 -1.740244
-9.5607653 -1.7889467 -1.7741481
-10.070728 -1.820505 -1.8687129
-10.384829 -1.8115671 -1.9260749
-10.471366 -1.7605292 -1.9403695
-10.45771 -1.692318 -1.9357879
-10.444585 -1.6244919 -1.9313896
-10.479635 -1.5641487 -1.9361545
-10.48125 -1.4987038 -1.9346883
-10.479534 -1.4328985 -1.9326724
-10.493003 -1.3692065 -1.9335887
-10.515841 -1.3066157 -1.9363377
-10.479727 -1.2368802 -1.9280908
-10.524244 -1.1767069 -1.9350548
-10.526378 -1.1115928 -1.9341385
-10.526153 -1.0463023 -1.9328556
-10.532374 -0.98169535 -1.9328556
-10.543097 -0.91747773 -1.933772
-10.53285 -0.85150123 -1.9308398
-10.567286 -0.78905398 -1.9363377
-10.568987 -0.72399783 -1.9357879
-10.576174 -0.65931767 -1.9363377
-10.56726 -0.59369373 -1.9339552
-10.568741 -0.52874476 -1.9335887
-10.505002 -0.46095324 -1.9211267
-10.524333 -0.39711788 -1.9242421
-10.533449 -0.33275184 -1.9255251
-9.8462906 0.72363067 -1.9245156
-9.8817501 0.78723085 -1.9325143
-9.8659849 0.84692532 -1.9303683
-9.8732986 0.90861583 -1.9329045
-9.816782 0.96418893 -1.9227598
-9.7960491 1.0228759 -1.9198334
-9.8081102 1.0850152 -1.9235401
-9.8139315 1.1466573 -1.9260763
-9.7823753 1.2038552 -1.9211991
-9.7485418 1.2604573 -1.9159316
-9.7134123 1.3165578 -1.9104691
-9.743022 1.3815079 -1.9180776
-9.7460041 1.442989 -1.9204187
-9.7534447 1.5053073 -1.9237353
-9.7401514 1.5645024 -1.9229549
-9.6761951 1.615188 -1.9120299
-9.6719007 1.6755347 -1.9132004
-9.6469574 1.7322471 -1.910274
-9.6187906 1.7881783 -1.9067624
-9.6307526 1.8516114 -1.9114445
-9.5903511 1.9049338 -1.9055918
-9.6034622 1.9688678 -1.9106642
-9.598877 2.0293803 -1.9122249
-9.5718699 2.0851066 -1.9092985
-9.5359278 2.1386454 -1.9046164
-9.511158 2.1944692 -1.9022753
-9.5013313 2.2536931 -1.9030557
-9.4768429 2.3093941 -1.9009097
-9.4919882 2.3748827 -1.9069575
-9.4990864 2.4386916 -1.9114445
-9.4924803 2.4991796 -1.9132004
-9.4656038 2.5543096 -1.9108592
-9.4450264 2.6110342 -1.9098839
-9.3788128 2.6547749 -1.899544
-9.3736515 2.7155485 -1.9018852
-9.3840818 2.7810981 -1.9075427
-9.3630857 2.8374872 -1.9067624
-9.3642359 2.900691 -1.9106642
-9.3425217 2.9569101 -1.9098839
-9.3111372 3.009954 -1.9071525
-9.2850428 3.0645692 -1.9055918
-9.2734995 3.1239893 -1.9071525
-9.2606487 3.183064 -1.9085182
-9.2242842 3.2339835 -1.9050065
-9.2024202 3.2898612 -1.9046164
-9.1746893 3.3435767 -1.9030557
-9.1245804 3.3888781 -1.8968128
-9.0953598 3.4416766 -1.895057
-9.0713253 3.4963615 -1.8944716
-9.0378332 3.5472963 -1.8919355
-9.0250044 3.6063251 -1.8938864
-9.0263271 3.6712439 -1.8989588
-9.0616264 3.7505715 -1.9114445
-9.023077 3.7996292 -1.908128
-8.9734497 3.8437202 -1.9024704
-8.9056387 3.8795092 -1.892911
-8.9318819 3.9563301 -1.903836
-8.8886595 4.0026016 -1.8997391
-8.8915768 4.0697231 -1.9057869
-8.8424292 4.1130323 -1.9005195
-8.8161383 4.1667919 -1.9003243
-8.7364759 4.1949058 -1.8884239
-8.7035198 4.2449923 -1.8868631
-8.665885 4.292655 -1.8843269
-8.6761799 4.3642626 -1.8925208
-8.6658325 4.4258943 -1.8962275
-8.6385126 4.4789834 -1.8962275
-8.6316967 4.5428696 -1.9009097
-8.589819 4.5883517 -1.8977882
-8.5433969 4.6311541 -1.8936913
-8.5208359 4.6867976 -1.895057
-8.4739332 4.7289529 -1.8909601
-8.4319553 4.7736096 -1.8880337
-8.4229174 4.8369818 -1.8927158
-8.3574877 4.867836 -1.8845221
-8.3173285 4.9130378 -1.8821809
-8.3206787 4.9841433 -1.8899846
-8.3067045 5.0452895 -1.8938864
-8.2714157 5.0935912 -1.892911
-8.2050667 5.1224289 -1.8847171
-8.1411619 5.1522188 -1.8771087
-8.1110458 5.2031345 -1.8774989
-8.1061001 5.2704511 -1.8839368
-8.0744276 5.3206296 -1.8841319
-8.0367355 5.3668046 -1.8829614
-7.9898462 5.4066701 -1.8796448
-7.9540949 5.4539285 -1.8790596
-7.9212856 5.503191 -1.8792546
-7.8937855 5.5562086 -1.8808154
-7.8411794 5.5914402 -1.8763282
-7.8202381 5.6492124 -1.8796448
-7.7743478 5.6889801 -1.8769135
-7.7392945 5.7365756 -1.8769135
-7.6804218 5.7662864 -1.8710608
-7.6612892 5.8257728 -1.8751577
-7.6300607 5.8762631 -1.8763282
-7.6178331 5.9416718 -1.8823761
-7.5643015 5.9749255 -1.8780841
-7.5527701 6.0414472 -1.8845221
-7.526989 6.0969377 -1.8874484
-7.5000529 6.1517167 -1.8901796
-7.4780083 6.2107821 -1.8942766
-7.4224958 6.2420282 -1.8897895
-7.4072027 6.3071685 -1.8958373
-7.3735628 6.3569827 -1.897203
-7.3233361 6.3924308 -1.8942766
-7.2604599 6.4164591 -1.8880337
-7.2626104 6.4981699 -1.8991538
-7.2218752 6.5419517 -1.8989588
-7.146183 6.5536542 -1.8893993
-7.1353021 6.624743 -1.897398
-7.0973773 6.6710873 -1.8981783
-7.0563107 6.71451 -1.8981783
-7.0079155 6.750875 -1.8962275
-6.9684672 6.7958026 -1.8968128
-6.946876 6.8584175 -1.9024704
-6.9115992 6.9078479 -1.9044213
-6.8353047 6.9159412 -1.8948618
-6.8126073 6.978106 -1.9005195
-6.7608128 7.0105972 -1.8979833
-6.7372847 7.0725455 -1.9036409
-6.702498 7.1230383 -1.906177
-6.6553273 7.1604376 -1.9052017
-6.6125932 7.2025843 -1.9055918
-6.5676155 7.2422962 -1.9053967
-6.5263257 7.2861109 -1.9063722
-6.4964414 7.3429155 -1.9108592
-6.4667506 7.4003654 -1.9155414
-6.4160953 7.4339647 -1.9139807
-6.3735414 7.4769258 -1.9149562
-6.3155437 7.5016351 -1.9112494
-6.26438 7.5342116 -1.9096887
-6.2385697 7.5975232 -1.9161267
-6.1961584 7.6409926 -1.9174924
-6.1577387 7.6895866 -1.9202236
-6.1299047 7.7518454 -1.9264665
-6.0864496 7.7947235 -1.9278321
-6.0367112 7.8295922 -1.9272468
-5.9832101 7.8594613 -1.9254911
-5.9348731 7.8960257 -1.9254911
-5.8892341 7.9362311 -1.9264665
-5.8485408 7.983295 -1.9291978
-5.8000207 8.0198259 -1.9293928
-5.7529817 8.0584564 -1.9301732
-5.6768789 8.0559196 -1.9210039
-5.6710172 8.15341 -1.936221
-5.6158872 8.1807747 -1.9344652
-5.563385 8.2118311 -1.9336848
-5.5156183 8.2498903 -1.9346603
-5.4659743 8.2852154 -1.9350505
-5.4177094 8.3227081 -1.9360259
-5.3808479 8.3780775 -1.9412934
-5.3398366 8.4275064 -1.9451952
-5.3010197 8.4809065 -1.9500724
-5.2396183 8.4982443 -1.9465607
-5.1613908 8.4874926 -1.9366112
-5.1228328 8.5417147 -1.9418787
-5.0843024 8.5966253 -1.9473412
-5.0131812 8.5963106 -1.9401228
-4.9794035 8.6600714 -1.9477314
-4.9310079 8.6989946 -1.9496822
-4.881844 8.7367926 -1.9514381
-4.8238869 8.7588501 -1.9496822
-4.7733269 8.7943182 -1.9510479
-4.7234383 8.8312254 -1.9528037
-4.6714478 8.8643808 -1.9537791
-4.6169691 8.8928776 -1.9537791
-4.5672278 8.930645 -1.9559251
-4.5017581 8.9374771 -1.9512429
-4.4786415 9.0290747 -1.9654845
-4.4175615 9.0449276 -1.9629483
-4.3594303 9.0665598 -1.9617778
-4.3108482 9.1082096 -1.9650943
-4.2590203 9.1433802 -1.9670453
-4.2032461 9.1702318 -1.9672403
-4.1424656 9.1860151 -1.9650943
-4.0955653 9.2327776 -1.9697765
-4.0455022 9.2730169 -1.973093
-3.9935534 9.3093834 -1.9756292
-3.9348328 9.3300972 -1.9748489
-3.8812649 9.3631258 -1.9767998
-3.823741 9.3867645 -1.9767998
-3.7700803 9.4200659 -1.9789457
-3.713285 9.4457598 -1.979531
-3.6594944 9.4793472 -1.9818721
-3.586319 9.4621849 -1.9734832
-3.5381067 9.5106707 -1.9791409
-3.4870806 9.5524712 -1.9834329
-3.4323688 9.5847683 -1.9857739
-3.373493 9.605649 -1.9857739
-3.3151288 9.6280222 -1.9861641
-3.2575574 9.6528282 -1.9871396
-3.2053468 9.6940536 -1.9916266
-3.1430862 9.7051401 -1.9898708
-3.0888116 9.7410727 -1.9933825
-3.0289834 9.7598419 -1.9933825
-2.9676168 9.773551 -1.992407
-2.9067543 9.7887554 -1.9918218
-2.8488235 9.813942 -1.9933825
-2.7896228 9.8350115 -1.9941628
-2.7255595 9.8387098 -1.9914316
-2.661556 9.8419933 -1.9887003
-2.6046181 9.8714161 -1.9914316
-2.5508394 9.9138079 -1.9968941
-2.4890075 9.9254675 -1.9961138
-2.4275939 9.9386482 -1.9957236
-2.366339 9.9524021 -1.9955285
-2.3041232 9.961956 -1.994553
-2.2455349 9.9873896 -1.9968941
-2.1860936 10.009604 -1.99865
-2.1203659 10.00268 -1.994553
-2.0601349 10.021266 -1.9957236
-1.9974579 10.027946 -1.994553
-1.937189 10.046756 -1.9959186
-1.8740695 10.050739 -1.9943579
-1.8196615 10.102591 -2.0025518
-1.7547859 10.097138 -1.9992352
-1.6923124 10.104814 -1.99865
-1.6270034 10.094672 -1.994553
-1.5695333 10.133543 -2.0004058
-1.5090543 10.154625 -2.0027468
-1.4393988 10.112229 -1.992407
-1.3836671 10.16752 -2.0017715
-1.3178475 10.149556 -1.9965039
-1.2580706 10.177893 -2.0006008
-1.1944542 10.175679 -1.99865
-1.1353507 10.213036 -2.0046978
-1.067959 10.174939 -1.9957236
-1.0073359 10.199846 -1.9994303
-0.94563478 10.215601 -2.0013812
-0.88327247 10.22512 -2.0021615
-0.82450902 10.280207 -2.0121112
-0.75642657 10.217583 -1.99865
-0.69491178 10.239645 -2.0021615
-0.63243121 10.24959 -2.0033321
-0.56985468 10.259153 -2.0045025
-0.50428814 10.209558 -1.9939678
-0.44362035 10.258514 -2.0031369
-0.37936193 10.22576 -1.9961138
-0.31772941 10.264167 -2.0033321
-0.25454995 10.258079 -2.0017715
-0.19105667 10.230029 -1.9959186
-0.12812439 10.21826 -1.9933825
-0.065553434 10.23945 -1.9974793
-0.0027254652 10.248487 -1.9992352
0.060093563 10.237521 -1.9970891
0.12283737 10.231076 -1.9959186
0.1853074 10.213459 -1.9926021
0.24871403 10.242525 -1.99865
0.31143656 10.236885 -1.9978695
0.37320048 10.206357 -1.9922119
0.43732917 10.239151 -1.9992352
0.49880388 10.208846 -1.9937726
0.56078696 10.193842 -1.9914316
0.62392461 10.199998 -1.9933825
0.68511289 10.175428 -1.9892856
0.74904728 10.191574 -1.9933825
0.81242555 10.19754 -1.9955285
0.87582117 10.202135 -1.9974793
0.93597394 10.170199 -1.9922119
0.99816757 10.162313 -1.9918218
1.0613194 10.163801 -1.9933825
1.1208564 10.131752 -1.9883101
1.1841419 10.134425 -1.9902611
1.2425861 10.096792 -1.9842132
1.3115648 10.143448 -1.9951383
1.3679779 10.092446 -1.9865543
1.4313941 10.094544 -1.9887003
1.4950312 10.097214 -1.9910414
1.5578567 10.093666 -1.9922119
1.6150912 10.054867 -1.9863592
1.6778874 10.051538 -1.9877249
1.7368505 10.025593 -1.9846034
1.8104756 10.082319 -1.9982598
1.8597492 10.003524 -1.9846034
1.920724 9.9899979 -1.9842132
1.9773967 9.954937 -1.979531
2.0398214 9.9493418 -1.9808967
2.1042819 9.9529514 -1.9842132
2.1669834 9.9475183 -1.9857739
2.2230403 9.9120245 -1.9812869
2.2860236 9.9077539 -1.9832377
2.3456409 9.8887691 -1.9822624
2.4023237 9.8579912 -1.9789457
2.4646714 9.8506765 -1.9805065
2.5211635 9.8201694 -1.977385
2.5826206 9.8092575 -1.9783605
2.6425047 9.7922792 -1.9781654
2.7007093 9.7692633 -1.9767998
2.7662134 9.7723255 -1.9808967
2.8288536 9.7645884 -1.9828476
2.8767264 9.7066135 -1.9744587
2.938792 9.6972265 -1.9762145
2.9944634 9.6668329 -1.9736784
3.0537217 9.6482773 -1.9736784
3.1053202 9.6060286 -1.9688011
3.1632807 9.5839996 -1.9682158
3.2167027 9.5486097 -1.9648993
3.2682149 9.5082874 -1.9606073
3.3378563 9.5204487 -1.9674355
3.3968704 9.5016356 -1.9678257
3.4530919 9.4750853 -1.9666551
3.5029669 9.431654 -1.961973
3.5666752 9.4255762 -1.9652895
3.6470242 9.4620819 -1.9777752
3.6774132 9.3692293 -1.9627533
3.7242751 9.3200779 -1.9570956
3.7714121 9.272522 -1.9518282
3.8394921 9.276392 -1.9576809
3.8913889 9.2409086 -1.9551448
3.9287026 9.1717815 -1.9453902
3.996268 9.1735783 -1.9510479
4.0409584 9.12288 -1.9453902
4.1125693 9.1327896 -1.9529988
4.155056 9.0779552 -1.9465607
4.2264018 9.0860806 -1.9539742
4.2611132 9.0156422 -1.9442197
4.3167763 8.9902105 -1.9444149
4.3602467 8.9397545 -1.9391474
4.4023895 8.8873472 -1.9334897
4.4594836 8.8654242 -1.9346603
4.5222745 8.8544884 -1.938367
4.5760679 8.8257036 -1.9381719
4.6173425 8.773159 -1.9327093
4.6733975 8.7489872 -1.9336848
4.7344728 8.733942 -1.9368063
4.7652802 8.6634808 -1.927442
4.8355584 8.6649084 -1.9344652
4.8760686 8.6128855 -1.9293928
4.9376178 8.5981131 -1.9329045
4.9863319 8.5608749 -1.9313438
5.0322809 8.5191402 -1.9288076
5.0622783 8.4510841 -1.9202236
5.1176028 8.4257317 -1.9215893
5.1733208 8.4008522 -1.9231499
5.2294455 8.3764381 -1.9249058
5.2754979 8.335906 -1.9229549
5.3191314 8.2918234 -1.9202236
5.3773952 8.2705402 -1.9229549
5.4140072 8.2160978 -1.9178826
5.4517884 8.1639652 -1.9133954
5.4847364 8.1051817 -1.9073477
5.548234 8.0915956 -1.9122249
5.5933013 8.0509567 -1.9106642
5.6499357 8.0269108 -1.9132004
5.6922474 7.9825106 -1.9108592
5.733078 7.9363041 -1.908128
5.7677636 7.8819828 -1.9034458
5.8049192 7.8314743 -1.8997391
5.8481512 7.7894344 -1.8981783
5.8904924 7.7463789 -1.8964226
5.9391098 7.7116437 -1.8968128
6.005621 7.6998019 -1.9030557
6.060657 7.6728115 -1.9055918
6.0972061 7.6224608 -1.9022753
6.1302786 7.56814 -1.8979833
6.1641588 7.5152178 -1.8940815
6.2038879 7.4697099 -1.8921306
6.2508669 7.4330039 -1.8925208
6.3039885 7.4034696 -1.8948618
6.344173 7.3587074 -1.8933011
6.3692088 7.2967386 -1.8872533
6.3956728 7.2369452 -1.8817908
6.4393034 7.1968346 -1.8815957
6.4846582 7.1586423 -1.8819859
6.5311127 7.1216092 -1.8827662
6.5680132 7.0742145 -1.8808154
6.6025624 7.0244913 -1.8782792
6.6550059 6.9937925 -1.8810104
6.7114043 6.9669518 -1.8849123
6.7499175 6.9214277 -1.8837417
6.7784767 6.8659234 -1.8798399
6.81493 6.8186531 -1.8782792
6.8454781 6.7656794 -1.8751577
6.8735271 6.7105327 -1.871451
6.9025693 6.6566586 -1.8681345
6.946125 6.6168857 -1.8689148
6.9880233 6.5754848 -1.869305
7.0253644 6.5298123 -1.8685247
7.0421762 6.4653602 -1.8622818
7.0751748 6.4160995 -1.860526
7.120986 6.3784547 -1.8622818
7.165132 6.33919 -1.8636475
7.1913371 6.2841363 -1.8603308
7.2282753 6.2386112 -1.8599406
7.279109 6.204957 -1.8632572
7.305789 6.1507025 -1.8603308
7.3667727 6.125195 -1.8663787
7.3466048 6.0325818 -1.8515518
7.4162421 6.0139494 -1.8599406
7.4912853 5.9989796 -1.8696952
7.4825597 5.9170136 -1.8581849
7.5395985 5.8872852 -1.8634523
7.5538301 5.8241467 -1.8579898
7.6089354 5.7925377 -1.862867
7.6506071 5.7504544 -1.8644278
7.6881104 5.7051563 -1.865013
7.7245545 5.6590347 -1.8654032
7.724956 5.5868206 -1.8570143
7.7582922 5.5387464 -1.8568193
7.8153834 5.5074191 -1.8624768
7.8594971 5.4666405 -1.865013
7.9397941 5.4505014 -1.8763282
7.9454784 5.3829808 -1.8696952
7.9498191 5.3150511 -1.862867
7.9929256 5.2731919 -1.8654032
8.0391054 5.2331438 -1.8687197
8.117281 5.2133937 -1.8796448
8.134203 5.1540418 -1.8761332
8.1473761 5.0925994 -1.8718412
8.1876545 5.0481734 -1.8739872
8.205905 4.9901972 -1.8710608
8.2422581 4.9432831 -1.8724265
8.291007 4.9035988 -1.8767184
8.3556786 4.8728871 -1.8847171
8.3361025 4.7931767 -1.8734019
8.3866882 4.7540259 -1.8782792
8.3917255 4.6890841 -1.8728167
8.4461145 4.6516967 -1.8786694
8.4658775 4.5951071 -1.8767184
8.4480734 4.5185637 -1.8663787
8.4982004 4.4785285 -1.871451
8.5525055 4.4403067 -1.8774989
8.5970554 4.3966751 -1.8814006
8.6177397 4.340754 -1.880035
8.631031 4.2812591 -1.8771087
8.6456804 4.2226253 -1.8745725
8.6652393 4.1665225 -1.8732069
8.6941881 4.114953 -1.8739872
8.7370558 4.0698099 -1.877889
8.7921782 4.030015 -1.8845221
8.8551884 3.9933238 -1.892911
8.8257294 3.9150586 -1.8812056
8.8352013 3.854558 -1.8780841
8.8496723 3.7964082 -1.8761332
8.8981047 3.7527046 -1.8815957
8.938179 3.7051702 -1.8853024
8.9280443 3.6369402 -1.8782792
8.9802418 3.5941131 -1.8847171
8.9847822 3.5321279 -1.8810104
8.9980507 3.4737537 -1.8792546
9.0246992 3.4205623 -1.8804252
9.053791 3.3682001 -1.8821809
9.0659952 3.3095577 -1.8804252
9.0889015 3.2548592 -1.8810104
9.1327629 3.2074766 -1.8860828
9.1726742 3.158401 -1.8903748
9.2021036 3.1055076 -1.8925208
9.1921167 3.0394444 -1.8864729
9.2087269 2.9823813 -1.8860828
9.250227 2.9332302 -1.8909601
9.307394 2.8886218 -1.8991538
9.2461081 2.8075309 -1.8827662
9.2772646 2.7549314 -1.8856926
9.2977619 2.6990485 -1.8864729
9.3575535 2.654254 -1.8954471
9.3575945 2.5923376 -1.8921306
9.3790054 2.5364075 -1.8933011
9.4133587 2.4838133 -1.897203
9.3970766 2.4179459 -1.890765
9.4250546 2.3635793 -1.8934963
9.4327106 2.3040755 -1.8921306
9.4543037 2.2479682 -1.8936913
9.4726973 2.1910198 -1.8946668
9.4735231 2.1300597 -1.8921306
9.4979124 2.0744011 -1.8944716
9.4989481 2.0136447 -1.8921306
9.5620432 1.9657838 -1.9024704
9.535449 1.8994156 -1.8946668
9.5488501 1.8412427 -1.895057
9.5493612 1.780641 -1.892911
9.5591421 1.7218399 -1.8927158
9.5521336 1.6601329 -1.8892043
9.6008339 1.6079665 -1.8970078
9.623107 1.551054 -1.899544
6.0665884 0.94009453 -1.1818067
5.943213 0.8836931 -1.1558597
5.8883204 0.83864713 -1.1437641
5.8816934 0.80091554 -1.141423
5.8757982 0.76342314 -1.139277
5.8745313 0.72663432 -1.1381065
5.8662157 0.68909019 -1.1355703
5.8615603 0.65210849 -1.1338145
5.8439918 0.6138804 -1.1295226
5.8671694 0.57993644 -1.1334243
5.863781 0.54329324 -1.1320587
5.8445296 0.50536466 -1.1275716
5.8221016 0.46745795 -1.1224992
5.8170352 0.43114701 -1.1209385
5.8097858 0.39478326 -1.1189877
0 0 -0
0 0 -0
5.8092108 0.28743932 -1.117622
0 0 -0
0 0 -0
0 0 -0
0 0 -0
0 0 -0
0 0 -0
0 0 -0
0 0 -0
0 -0 -0
0 -0 -0
0 -0 -0
0 -0 -0
0 -0 -0
0 -0 -0
0 -0 -0
0 -0 -0
0 -0 -0
0 -0 -0
0 -0 -0
0 -0 -0
0 -0 -0
0 -0 -0
0 -0 -0
0 -0 -0
0 -0 -0
9.0185013 -0.99757129 -1.765517
8.8651142 -1.0356848 -1.7360584
8.6892157 -1.0691963 -1.7021127
8.5657711 -1.1073866 -1.6787018
8.6161566 -1.1677033 -1.6902121
8.7059345 -1.2343297 -1.7097211
8.7020779 -1.2883002 -1.7105016
8.7066097 -1.3436171 -1.7130377
8.7204742 -1.4005947 -1.7175248
8.7184877 -1.4552073 -1.7188904
8.6891003 -1.5051575 -1.7147934
8.6584644 -1.5546284 -1.7105016
8.6159782 -1.6016277 -1.7038684
8.5819101 -1.649832 -1.6989912
8.5543108 -1.699017 -1.6954795
8.4140196 -1.7248657 -1.6691424
8.3696928 -1.7693561 -1.6623142
8.3768864 -1.8246468 -1.6660209
8.33778 -1.8697845 -1.6603633
8.3041706 -1.9158349 -1.6558762
8.2865334 -1.9653934 -1.6547056
8.2714596 -2.0155046 -1.6541204
7.3446136 -1.8373418 -1.4666386
7.3218021 -1.879445 -1.4642975
8.0366335 -2.1157002 -1.6137367
7.9704747 -2.1506565 -1.6028117
7.8909578 -2.1812208 -1.5891553
7.8623266 -2.225322 -1.5860338
8.1283035 -2.3546107 -1.6439757
8.1061802 -2.4022102 -1.6424149
7.95613 -2.4109263 -1.6143219
7.8896613 -2.4437315 -1.603592
7.8492727 -2.4841018 -1.5983245
7.7984209 -2.5207493 -1.5909111
7.7297215 -2.5510237 -1.5797909
7.8561254 -2.6463273 -1.6096398
7.7627583 -2.6680117 -1.5934473
7.7194018 -2.7061791 -1.5877897
7.7469797 -2.769347 -1.597154
7.7777576 -2.8342979 -1.6072987
7.7923985 -2.8939235 -1.6141269
7.8332 -2.9639041 -1.6266127
7.5934076 -2.9265249 -1.5794008
7.8062811 -3.0637493 -1.6287587
7.8529072 -3.1378014 -1.6428051
7.8353229 -3.186666 -1.6431954
7.8183408 -3.2358081 -1.6437806
7.7893004 -3.2799122 -1.6418297
7.7600136 -3.323782 -1.6398787
7.7286839 -3.3666322 -1.6375377
7.6944304 -3.4080315 -1.6346114
7.6724801 -3.4547765 -1.6344162
7.6511374 -3.5017891 -1.6344162
7.6232824 -3.5457733 -1.6330507
7.6084757 -3.5958357 -1.6346114
7.5712395 -3.6352339 -1.6312948
7.5514359 -3.6829119 -1.63188
7.5225439 -3.7261293 -1.6305145
7.4837689 -3.7642815 -1.6270028
7.4579105 -3.8087914 -1.6264175
7.3978324 -3.8355153 -1.6182238
7.3863091 -3.8872318 -1.620955
7.3631835 -3.9329424 -1.6211501
7.3673654 -3.9934757 -1.6275882
7.4286537 -4.0858846 -1.6470971
7.3965926 -4.1275644 -1.6455364
7.3873425 -4.182054 -1.6492431
7.3802528 -4.2380509 -1.6535351
7.3481774 -4.2797995 -1.6521695
7.3437333 -4.3377786 -1.6572418
7.3380122 -4.3953595 -1.6621192
7.2622881 -4.4107656 -1.6508038
7.2259016 -4.449585 -1.6486579
7.2159333 -4.5047479 -1.6527548
7.1400924 -4.5185127 -1.6414396
7.0981998 -4.5532341 -1.638123
7.0602617 -4.5902853 -1.6357819
7.0123096 -4.6205659 -1.6310997
7.0156341 -4.6847515 -1.6387082
6.9778223 -4.721663 -1.6365622
6.9527636 -4.7671633 -1.6375377
6.8951926 -4.7901454 -1.6307095
6.8592553 -4.8278465 -1.6291488
6.7991605 -4.8482013 -1.6217355
6.7788243 -4.8967218 -1.6240765
6.7154107 -4.9138937 -1.6158826
6.6764669 -4.9485807 -1.6137367
6.6310763 -4.9782634 -1.6100299
6.5972829 -5.0164819 -1.6092496
6.5873566 -5.0730281 -1.6145171
6.5568781 -5.1139555 -1.6147121
6.5176806 -5.1480112 -1.6127613
6.4806094 -5.1836166 -1.6113956
6.4631605 -5.2350144 -1.6151023
6.4089279 -5.2565327 -1.6094447
6.3803258 -5.2988915 -1.6104201
6.3461914 -5.336678 -1.6100299
6.3192997 -5.3806047 -1.6115907
6.255713 -5.3930173 -1.603592
6.2527957 -5.457747 -1.6115907
6.1912661 -5.4713268 -1.6041772
6.1378455 -5.4915528 -1.5989099
6.1301994 -5.5528183 -1.6059331
6.0786667 -5.5744162 -1.6012509
6.0378799 -5.6056023 -1.5994951
6.0098019 -5.648591 -1.6012509
5.970057 -5.6806269 -1.5998853
5.914607 -5.6974163 -1.5942277
5.8942804 -5.747982 -1.5983245
5.8595986 -5.7847295 -1.5985197
5.8260746 -5.8226547 -1.5991049
5.7929955 -5.861084 -1.5998853
5.7576084 -5.8972206 -1.6000804
5.7138271 -5.9246707 -1.5979344
5.6557217 -5.9368916 -1.5916915
5.642036 -5.9957709 -1.5983245
2.2449429 -2.4141943 -0.61643499
2.228761 -2.4264786 -0.61604482
2.2131715 -2.4393816 -0.61584973
5.4271092 -6.0586329 -1.5786204
5.4067268 -6.1109195 -1.5836928
5.3555784 -6.1284685 -1.5795959
5.328126 -6.1730957 -1.5827173
5.2939653 -6.2101507 -1.5838879
5.2690239 -6.258275 -1.5879848
5.2449446 -6.3078346 -1.5924718
5.1843605 -6.3133659 -1.5856436
5.1152596 -6.3077264 -1.5760843
5.0746212 -6.3366971 -1.5754989
5.0374689 -6.3700233 -1.5760843
2.0210841 -2.5870788 -0.61370373
1.9949929 -2.5862257 -0.61038715
1.9600786 -2.5734437 -0.60414428
1.9501433 -2.5932629 -0.60609519
1.9388697 -2.6114814 -0.60765588
1.8416753 -2.5125532 -0.58034325
1.7923188 -2.4769132 -0.56883293
1.761703 -2.4663095 -0.56356549
4.6668973 -6.6223216 -1.5721824
4.6300955 -6.6564689 -1.5735481
4.58639 -6.6807103 -1.5725726
4.5475116 -6.7119741 -1.5733531
4.4926167 -6.7193656 -1.5684757
4.464263 -6.7664547 -1.5731579
4.4242659 -6.796186 -1.5737432
4.3983793 -6.8479638 -1.5795959
4.3520794 -6.8681946 -1.5780351
4.3046575 -6.8864517 -1.5760843
4.2674685 -6.9210839 -1.5780351
4.2305255 -6.956357 -1.5801811
4.1847363 -6.9771371 -1.5790106
1.6978514 -2.8692379 -0.62384838
1.6856481 -2.888922 -0.62599438
1.6693567 -2.9017613 -0.62657964
1.6452341 -2.900857 -0.62404352
3.9357414 -7.043139 -1.5655494
3.8919783 -7.0662966 -1.5653543
3.8396595 -7.0736651 -1.5616475
3.7897093 -7.0849829 -1.5589163
3.7393081 -7.0950871 -1.55599
3.6975102 -7.1213794 -1.5567703
3.6532984 -7.1430597 -1.5565752
3.6063128 -7.1592093 -1.5552096
3.5618811 -7.1803241 -1.5550145
3.5177565 -7.202044 -1.5550145
3.4739242 -7.2243767 -1.5552096
3.4249165 -7.2358046 -1.5530636
3.3908048 -7.2789111 -1.5579408
3.3374984 -7.2808552 -1.553844
3.2984045 -7.3137145 -1.5565752
3.2475023 -7.3203664 -1.5536488
3.2009559 -7.3365588 -1.5528685
3.1601315 -7.3659768 -1.5550145
3.127449 -7.4150524 -1.5614525
3.0758848 -7.4196053 -1.558331
3.0217931 -7.4174466 -1.553844
2.969666 -7.4194574 -1.5503323
2.9233677 -7.4357133 -1.5499421
2.8709786 -7.4361258 -1.5462354
2.8291199 -7.4636908 -1.5483814
2.7853215 -7.4864249 -1.549552
2.7410142 -7.5079813 -1.5505275
2.6995225 -7.5375857 -1.5532587
2.6457496 -7.5327234 -1.5487716
2.6023526 -7.5571623 -1.5505275
2.5575013 -7.5776343 -1.5515029
2.5118809 -7.5959778 -1.5520881
2.4643195 -7.608448 -1.5515029
2.3995113 -7.5663943 -1.5396024
