# .PCD v0.7 - Point Cloud Data file format
VERSION 0.7
FIELDS x y z
SIZE 4 4 4
TYPE F F F
COUNT 1 1 1
WIDTH 1490
HEIGHT 1
VIEWPOINT 0 0 0 1 0 0 0
POINTS 1490
DATA ascii
-1.7076477 -1.9322011 -0.15742451
-2.132592 -2.382972 -0.20420244
-2.2643878 -2.4991169 -0.21738464
-2.6343696 -2.8715706 -0.25700653
-2.6906319 -2.8969874 -0.26130018
-2.3216205 -2.4693601 -0.2186652
-2.3319144 -2.4500139 -0.21813791
-2.3462114 -2.4349418 -0.21806258
-3.2108769 -3.2910438 -0.30996129
-3.1833491 -3.2230496 -0.30483907
-3.4068787 -3.4071894 -0.32660851
-3.2687817 -3.2292826 -0.3097353
-3.468421 -3.3846204 -0.32871765
-2.4658411 -2.3773761 -0.22137696
-3.4584093 -3.2929945 -0.32336944
-2.5645761 -2.4125047 -0.22860834
-2.6019826 -2.4177577 -0.23094347
-3.1120615 -2.8560412 -0.28171372
-2.6462359 -2.3990355 -0.23245001
-2.6542187 -2.3767686 -0.23177207
-2.6650167 -2.357136 -0.23139542
-2.8334205 -2.4751763 -0.24683742
-2.6846795 -2.3164406 -0.2304915
-2.6980832 -2.2992775 -0.23041618
-3.3699493 -2.8359561 -0.2953479
-15.432936 -12.821155 -1.4782801
-15.497437 -12.714835 -1.4769242
-3.402209 -2.7577534 -0.29346472
-4.1104999 -3.289989 -0.36035493
-4.0789676 -3.2239082 -0.35538334
-3.8179893 -2.9798608 -0.32849169
-16.114792 -12.414193 -1.4992962
-16.204155 -12.325343 -1.5005767
-16.304195 -12.244246 -1.5029119
-3.1570153 -2.3418927 -0.25956765
-3.1302874 -2.2924426 -0.25572598
-16.405569 -11.854467 -1.4916129
-16.531578 -11.791796 -1.4965844
-2.9958324 -2.1104491 -0.2394554
-3.0136387 -2.0954413 -0.23990735
-3.0988069 -2.1265392 -0.24653612
-3.1382225 -2.1253703 -0.24894658
-3.2233462 -2.1542578 -0.25550002
-3.3056095 -2.1799836 -0.26175213
-3.4493315 -2.2444632 -0.27350312
-3.6376064 -2.3352585 -0.2891711
-3.6569223 -2.3160944 -0.28962305
-5.7619181 -3.5991554 -0.47583091
-17.309599 -10.662543 -1.4983923
-3.6520617 -2.2199159 -0.28548008
-3.6031704 -2.1600547 -0.27998123
-3.7202375 -2.1992786 -0.28909576
-3.7009206 -2.1573367 -0.28623334
-17.815296 -10.233831 -1.5146629
-17.929817 -10.153806 -1.5191824
-4.0020866 -2.2351334 -0.3089067
-3.9545686 -2.1768901 -0.30363384
-3.9582086 -2.1473563 -0.30280524
-3.8833592 -2.0760403 -0.29527256
-3.9216132 -2.0656433 -0.29745704
-3.8757904 -2.0112441 -0.29248548
-3.9155865 -2.001487 -0.29482061
-3.9456091 -1.9863869 -0.29632714
-16.980597 -8.4142723 -1.3942153
-7.6728158 -3.7443047 -0.6075775
-7.6875563 -3.6932695 -0.60689956
-17.319212 -8.1885052 -1.4098079
-5.7848625 -2.6926296 -0.44464561
-5.7577553 -2.6371603 -0.44102994
-19.259935 -8.6758566 -1.5583525
-5.8316212 -2.5848851 -0.44449496
-5.817205 -2.5359101 -0.44200918
-5.7959924 -2.4844611 -0.43899611
-19.551596 -8.2361908 -1.5652825
-11.357707 -4.7031655 -0.89125824
-11.387275 -4.6337633 -0.89133358
-9.6330566 -3.8514001 -0.74632949
-9.6398001 -3.7856612 -0.7449736
-11.639043 -4.4882984 -0.90496773
-11.692476 -4.4266815 -0.9070769
-11.950299 -4.4406242 -0.9256826
-11.993248 -4.3730206 -0.92696315
-12.035817 -4.3050566 -0.9282437
-12.141047 -4.2588434 -0.93457115
-12.199013 -4.1952901 -0.93713224
-11.577229 -3.9022496 -0.88553339
-7.8067598 -2.5785327 -0.58369887
-7.8015609 -2.5238335 -0.58204168
-12.44945 -3.9425008 -0.94910926
-12.562941 -3.8937798 -0.95618993
-11.510169 -3.4903221 -0.8712213
-12.814368 -3.7999699 -0.97230989
-12.938966 -3.7506902 -0.98029453
-12.943506 -3.6660662 -0.9788633
-9.6990118 -2.6832376 -0.72282749
-9.7037411 -2.6205568 -0.72192359
-12.809188 -3.3746293 -0.96327066
-13.000604 -3.3398714 -0.97660351
-13.23463 -3.3135426 -0.99325073
-13.092924 -3.1928353 -0.98067117
-12.999723 -3.0857339 -0.97193325
-13.228281 -3.0543499 -0.98820382
-13.126124 -2.9460576 -0.9788633
-11.53442 -2.5147197 -0.85442346
-13.402257 -2.8357217 -0.99746907
-13.477036 -2.7652538 -1.0019133
-11.63059 -2.3122828 -0.85841578
-13.471766 -2.5923164 -0.99897557
-13.599179 -2.5303917 -1.0075629
-13.511397 -2.4283888 -0.99965352
-13.641979 -2.3655322 -1.0085421
-13.664105 -2.2830958 -1.0091447
-13.698532 -2.202534 -1.0107266
-13.768947 -2.1272659 -1.0150955
-13.979019 -2.071965 -1.0301609
-14.492017 -2.0571654 -1.0683515
-14.557725 -1.9754415 -1.0724192
-15.972845 -2.067625 -1.1793079
-16.39793 -2.0203977 -1.2107192
-22.661505 -2.6506336 -1.686182
-22.707075 -2.5148268 -1.6884419
-22.761747 -2.3795967 -1.6914549
-23.915169 -2.3518689 -1.77793
-25.850519 -2.382045 -1.9236875
-0 -0 -0
-25.878799 -2.0647194 -1.9237628
-25.883024 -1.9053059 -1.9231602
-25.874331 -1.7451136 -1.9216536
-25.857677 -1.5846732 -1.9196198
-25.832067 -1.4240642 -1.9169834
-25.833347 -1.2651936 -1.9164561
-25.822691 -1.1058922 -1.9151002
-25.837959 -0.94775492 -1.9157782
-25.829334 -0.78877282 -1.9147235
-25.844652 -0.63053918 -1.9155521
-25.844048 -0.47187489 -1.9152508
-25.850445 -0.31333807 -1.9155521
-25.852879 -0.15472275 -1.9156275
-25.850349 0.0039098477 -1.9154015
-25.841862 0.16247402 -1.9147989
-25.826418 0.32085958 -1.9137443
-25.811003 0.47908032 -1.912765
-25.792625 0.63707465 -1.9116352
-25.771286 0.79479986 -1.9103546
-25.742008 0.95202899 -1.9085468
-25.723728 1.109445 -1.9076428
-25.693529 1.266132 -1.9059104
-25.660387 1.4223799 -1.9040271
-25.639233 1.5790662 -1.9031233
-25.617123 1.7355465 -1.9022193
-22.298279 -0.56792063 -1.917837
-22.294373 -0.43095535 -1.9172257
-22.289623 -0.29405943 -1.9166144
-22.273077 -0.15716049 -1.9150424
-22.25868 -0.020478474 -1.9137325
-22.238462 0.11599504 -1.9119859
-22.224384 0.25229874 -1.9108506
-22.207476 0.38839921 -1.9095407
-22.191729 0.52434874 -1.9084054
-22.177141 0.6601789 -1.9074447
-22.170681 0.79617137 -1.9072701
-22.149454 0.93152368 -1.9058728
-22.13138 1.0668373 -1.9048249
-22.115465 1.2021264 -1.9040389
-22.095741 1.3370798 -1.9029909
-22.062271 1.4709752 -1.9008077
-22.026005 1.6043656 -1.8984498
-21.986946 1.7372094 -1.8959173
-21.94014 1.8690428 -1.8927734
-21.908419 2.0018172 -1.8910267
-21.875893 2.1342728 -1.8892802
-21.848513 2.2670214 -1.8880576
-21.852016 2.4029984 -1.8896295
-21.848734 2.538414 -1.8906775
-21.829781 2.6720645 -1.8904154
-21.811987 2.8058321 -1.8903282
-21.786461 2.93855 -1.8896295
-21.739416 3.0681372 -1.887097
-21.712296 3.2003081 -1.8863983
-21.670589 3.3301435 -1.884477
-21.660568 3.4647796 -1.8854377
-21.63497 3.5969677 -1.8850883
-21.596785 3.7269394 -1.8836911
-21.560762 3.8571045 -1.8825558
-21.539629 3.9898705 -1.8828177
-21.493217 4.1178365 -1.8808966
-21.453865 4.2469311 -1.879674
-21.439116 4.3808827 -1.8807219
-21.388435 4.5074182 -1.878626
-21.361349 4.638782 -1.8787133
-21.329569 4.7691131 -1.8784513
-21.313496 4.9030256 -1.879674
-21.213211 5.0172033 -1.8733861
-21.152985 5.1402144 -1.8707663
-21.180008 5.2846198 -1.8760934
-21.128847 5.4097838 -1.8744341
-21.01432 5.5180755 -1.8670985
-21.15514 5.6940317 -1.8829925
-21.155336 5.8335276 -1.8862237
-21.160368 5.9748635 -1.8899788
-21.164461 6.1164808 -1.893734
-21.180984 6.2623267 -1.8987118
-21.177443 6.4028392 -1.901943
-21.172974 6.5435438 -1.9051741
-21.159973 6.682034 -1.9077067
-21.143225 6.819694 -1.9099773
-21.124636 6.957088 -1.9121605
-21.127819 7.1021276 -1.9164397
-21.136612 7.2497301 -1.9213302
-21.166016 7.405273 -1.9282292
-21.153017 7.5467215 -1.9312857
-21.173719 7.7008858 -1.9375734
-21.193323 7.8555875 -1.9438612
-21.169886 7.9949818 -1.9462191
-21.201321 8.1558428 -1.9538168
-21.254763 8.3264723 -1.9635977
-21.211601 8.4600544 -1.9643836
-21.209135 8.610281 -1.9690994
-21.21575 8.7649784 -1.9747759
-21.212997 8.9166069 -1.9796664
-21.167963 9.0509071 -1.9806269
-21.149485 9.196908 -1.9842075
-21.163721 9.3579273 -1.9910191
-21.151333 9.5080299 -1.9953856
-21.143335 9.6608171 -2.0002761
-21.139679 9.8163795 -2.0056906
-21.124096 9.9671593 -2.010057
-21.101168 10.115102 -2.0138123
-21.073635 10.261395 -2.0172181
-21.042423 10.406404 -2.0203619
-21.017344 10.554992 -2.0242045
-21.01697 10.716786 -2.0305796
-20.990627 10.866151 -2.0345094
-20.955305 11.011423 -2.0376532
-20.922506 11.158546 -2.0411463
-20.884308 11.303309 -2.0442028
-20.844248 11.447544 -2.0471721
-20.783186 11.580561 -2.0481327
-20.761169 11.735807 -2.0531106
-20.777782 11.914012 -2.0621054
-20.778345 12.084348 -2.0696158
-20.721827 12.222241 -2.0714498
-20.66012 12.357339 -2.0728471
-20.589018 12.486974 -2.0733709
-20.523045 12.619854 -2.0745063
-20.402956 12.719194 -2.0701399
-20.270632 12.810086 -2.0645506
-20.167322 12.918641 -2.0620182
-20.065952 13.028039 -2.0597477
-19.969824 13.140512 -2.0580883
-19.86064 13.244006 -2.055119
-19.767447 13.357811 -2.0538964
-19.665384 13.465343 -2.0518005
-19.559475 13.569855 -2.0493553
-19.4408 13.664982 -2.0456002
-19.294914 13.740096 -2.0389631
-19.200548 13.851234 -2.0379152
-19.040396 13.914125 -2.0297935
-18.876194 13.972611 -2.0212352
-18.792496 14.089963 -2.0214972
-18.702515 14.202597 -2.021148
-18.600803 14.306154 -2.0195761
-18.510313 14.418181 -2.0193141
-18.412111 14.524083 -2.018266
-18.307858 14.624971 -2.0166068
-18.195316 14.718863 -2.0140741
-18.088476 14.816974 -2.0122402
-17.974218 14.908605 -2.0096204
-17.857227 14.99747 -2.0067384
-17.732237 15.079008 -2.0029833
-17.603899 15.156979 -1.9988788
-17.494045 15.250308 -1.9969575
-17.370266 15.330996 -1.9934645
-17.255814 15.419367 -1.9911065
-17.135021 15.501566 -1.98805
-17.01387 15.582864 -1.9849935
-16.900404 15.670711 -1.9828975
-16.789406 15.760478 -1.981151
-16.682997 15.854279 -1.9800156
-16.574635 15.945986 -1.9787058
-16.465775 16.036961 -1.9773958
-16.352167 16.123003 -1.9755619
-16.218382 16.188551 -1.9712827
-16.087914 16.256605 -1.9674402
-15.948169 16.314409 -1.9624624
-15.817317 16.380428 -1.95862
-15.697259 16.456989 -1.9561746
-15.572759 16.528345 -1.9532055
-15.457476 16.609001 -1.9514588
-15.348532 16.696201 -1.9505856
-15.233743 16.776789 -1.9490136
-15.093266 16.828417 -1.9441231
-14.993689 16.925184 -1.9446472
-14.893492 17.021362 -1.9451711
-14.752293 17.070219 -1.9402807
-14.637573 17.149052 -1.9389707
-14.508958 17.211124 -1.9358269
-14.387781 17.281452 -1.933731
-14.271351 17.357098 -1.9323337
-14.151394 17.428097 -1.9304998
-14.029234 17.495949 -1.9284039
-13.906775 17.562958 -1.9263079
-13.776658 17.619705 -1.9231641
-13.662807 17.69681 -1.9223781
-13.558796 17.786648 -1.9230767
-13.450602 17.871099 -1.9232514
-12.491619 16.810692 -1.7984574
-13.236765 18.04365 -1.924212
-13.124634 18.122915 -1.9240373
-12.996964 18.180414 -1.9215921
-12.874828 18.245169 -1.9200202
-12.742138 18.294397 -1.9168763
-12.612716 18.347609 -1.9142565
-12.489832 18.409817 -1.9126846
-12.37054 18.476999 -1.9117239
-12.261328 18.559206 -1.9124225
-12.148851 18.636595 -1.9126846
-12.038582 18.717489 -1.9133831
-11.398838 17.964178 -1.8275381
-11.367682 18.16044 -1.8406376
-11.144035 18.04846 -1.821949
-11.57457 19.005592 -1.9132085
-11.458249 19.077108 -1.9132959
-11.326763 19.123056 -1.9108506
-11.200169 19.176714 -1.9092786
-11.077321 19.236443 -1.9084054
-9.6080284 16.924318 -1.6685109
-10.803452 19.304863 -1.9017683
-10.668436 19.341131 -1.8987991
-10.540997 19.390474 -1.8972272
-10.412412 19.437225 -1.8954806
-10.286441 19.488415 -1.894258
-10.154259 19.5273 -1.8919001
-10.025621 19.572393 -1.8902408
-9.8927746 19.608637 -1.8877956
-9.7616339 19.647558 -1.8856996
-9.6317015 19.688293 -1.8838657
-9.5029335 19.730865 -1.8822938
-9.3791275 19.783403 -1.8817699
-9.2478743 19.819817 -1.8797612
-9.1173582 19.857176 -1.8779273
-8.9867334 19.893681 -1.8760934
-8.852767 19.922049 -1.8735609
-8.7175941 19.946783 -1.8707663
-8.585598 19.977932 -1.8686703
-8.4582024 20.019224 -1.8676225
-8.3306217 20.059706 -1.8665745
-8.2043695 20.103065 -1.8658758
-8.0749331 20.138235 -1.8644786
-7.9468341 20.176281 -1.8634306
-7.8088689 20.188427 -1.8600248
-7.668932 20.194054 -1.856095
-7.5361805 20.217394 -1.8539116
-7.4061689 20.247349 -1.8524271
-7.2794385 20.285849 -1.8518158
-7.1528459 20.324493 -1.8512918
-7.0241027 20.356701 -1.8502438
-6.8952341 20.388092 -1.8491958
-6.7637382 20.411104 -1.8474493
-6.6328344 20.435167 -1.8458774
-6.5006833 20.454594 -1.8439561
-6.3676562 20.470316 -1.8417729
-6.2390323 20.499472 -1.8408996
-6.1097217 20.525909 -1.8398516
-5.985332 20.568752 -1.8403757
-5.8590121 20.605089 -1.8403757
-5.7311382 20.635853 -1.839939
-5.6041508 20.669668 -1.8398516
-5.4795117 20.712334 -1.8406376
-5.3538132 20.751352 -1.8411616
-5.2271132 20.786711 -1.8414235
-5.0994701 20.818392 -1.8414235
-4.9720969 20.851229 -1.8415983
-4.8442879 20.882315 -1.8416855
-4.7180376 20.920391 -1.8424715
-4.5936346 20.967436 -1.8441308
-4.4661379 21.001072 -1.8446548
-3.083396 14.949851 -1.3005912
-2.9535313 14.778002 -1.2835621
-2.8274074 14.612953 -1.2672313
-2.7246792 14.560506 -1.2610309
-2.6290827 14.54264 -1.2579744
-2.5315821 14.511393 -1.2537826
-2.4231653 14.411714 -1.2435651
-2.3356462 14.432211 -1.244089
-2.2479668 14.452177 -1.2446131
-2.1217384 14.214457 -1.2223439
-2.0011933 13.994478 -1.2017342
-1.9035429 13.920626 -1.1941365
-1.825183 13.986372 -1.1989396
-1.763904 14.195023 -1.2164055
-1.6657923 14.112584 -1.2081965
-1.5634441 13.981958 -1.1957958
-1.4818091 14.030915 -1.199289
-1.4079121 14.162663 -1.2101178
-1.3042448 13.991506 -1.1943111
-1.2738391 14.636382 -1.2503767
-1.1885856 14.700521 -1.2553545
-1.1360641 15.212189 -1.299718
-1.043588 15.231793 -1.3008533
-0.94787514 15.202117 -1.2977095
-0.8583253 15.274286 -1.3035605
-0.72224635 14.433572 -1.2293303
-0.63375741 14.439722 -1.2295049
-0.57116455 15.132204 -1.289937
-0.48202038 15.252914 -1.3002419
-0.38580686 15.153011 -1.291247
-0.29440266 15.236765 -1.298408
-0.18964189 14.38563 -1.2236539
-0.10142614 14.394491 -1.2243525
-0.013121852 14.416759 -1.2262738
0.078304917 14.98737 -1.2763137
0.16616589 14.625018 -1.2446131
0.25971124 14.841853 -1.2637382
0.34567186 14.62387 -1.2447877
0.45343646 15.227879 -1.2979714
0.53221405 14.816639 -1.2621663
0.6215691 14.776268 -1.2589351
0.71140778 14.75526 -1.2574505
0.76685172 14.10505 -1.2007736
0.8534444 14.101073 -1.2008609
0.9400171 14.096565 -1.2009482
1.0242515 14.059732 -1.198241
1.105402 13.988632 -1.1925646
1.1918901 13.989527 -1.1932632
1.2766184 13.970045 -1.1922152
1.3662781 14.0026 -1.1957958
1.4455919 13.930538 -1.1902066
1.529952 13.911504 -1.1893333
1.6139033 13.889979 -1.1882854
1.7085395 13.956942 -1.1950971
1.7865207 13.886913 -1.1898574
1.872095 13.878652 -1.1901194
1.9576352 13.869863 -1.1903813
2.0505455 13.910809 -1.1950971
2.1370723 13.905842 -1.1957958
2.2210979 13.884598 -1.1950971
2.312295 13.907067 -1.1983283
2.399955 13.906362 -1.1995509
2.4873424 13.903141 -1.2005988
2.6419067 14.261794 -1.2339588
2.6648903 13.90875 -1.2039174
2.7478616 13.880409 -1.2028694
2.8375652 13.885736 -1.2048781
2.9288752 13.897306 -1.207498
3.0360761 13.980317 -1.2165802
3.1339724 14.015867 -1.2214707
3.257653 14.160443 -1.2362294
3.321552 14.043244 -1.2274964
3.4114206 14.038088 -1.2288936
3.4999039 14.026557 -1.229767
3.6214814 14.143785 -1.2423425
3.7107279 14.130934 -1.2432157
3.7978816 14.109823 -1.2433904
3.8851807 14.089135 -1.2436523
3.9704742 14.061195 -1.2433031
4.0550179 14.030827 -1.2427791
4.1415982 14.007592 -1.2429538
4.2387118 14.019105 -1.2463596
4.3381815 14.036613 -1.2503767
4.4467239 14.080976 -1.2569265
4.5241718 14.025932 -1.2543939
4.6151338 14.013048 -1.2557912
4.7118206 14.016571 -1.2587605
4.8093705 14.021318 -1.2619042
4.9268937 14.081814 -1.2702879
5.0198994 14.070083 -1.2720345
5.1510801 14.162594 -1.2835621
5.2403064 14.137259 -1.2841734
5.334343 14.12441 -1.2860073
5.4430828 14.149058 -1.2914217
5.5755787 14.232265 -1.3024253
5.6749792 14.228322 -1.305307
5.7516842 14.167388 -1.3028618
5.8210092 14.089478 -1.2988447
5.958303 14.174718 -1.3103722
6.0338078 14.111328 -1.3078396
6.1131296 14.057596 -1.3062677
6.2190094 14.064466 -1.3105469
6.3668618 14.163241 -1.3237337
6.448678 14.113035 -1.3226857
6.5448022 14.093983 -1.3246943
6.6570878 14.108516 -1.3300214
6.7650604 14.112319 -1.3343879
6.8698406 14.108161 -1.3380557
6.9916043 14.137179 -1.3450421
7.0867109 14.110929 -1.3467013
7.2378702 14.194088 -1.3591895
7.3284907 14.156487 -1.3598881
7.4207759 14.121836 -1.360936
7.519474 14.098891 -1.3632066
7.6162729 14.071761 -1.3651279
7.7427521 14.09811 -1.3724636
7.8528695 14.092977 -1.3767427
7.9867444 14.128648 -1.3852137
8.1049986 14.134685 -1.3908027
8.2020912 14.102772 -1.3926367
8.2965679 14.065907 -1.3940339
8.4629984 14.14896 -1.4077448
8.6684666 14.292675 -1.4278306
8.7111282 14.166238 -1.4203202
8.8205471 14.148872 -1.4240754
9.0237408 14.27891 -1.4432006
9.1638422 14.305479 -1.4517589
9.2943001 14.314988 -1.4586579
9.3491058 14.207759 -1.4534181
9.4736891 14.206486 -1.4593565
9.5829897 14.181105 -1.4628497
9.740736 14.225606 -1.4738532
11.736892 16.917362 -1.7674553
11.837036 16.840137 -1.7669314
11.936098 16.761509 -1.7663201
10.609689 14.706964 -1.5521879
12.154995 16.633076 -1.768416
12.251491 16.550976 -1.76763
11.984112 15.983714 -1.7137476
12.070514 15.894806 -1.7120885
12.156883 15.80623 -1.7105165
12.234051 15.70619 -1.7077219
11.812567 14.974614 -1.6344523
11.883088 14.875388 -1.6314832
11.933415 14.751851 -1.6258068
12.024337 14.679122 -1.6258941
12.084926 14.569795 -1.621877
12.910212 15.371879 -1.7222186
13.012033 15.30148 -1.7232666
13.114775 15.231921 -1.7244892
13.236136 15.183453 -1.7282444
13.376513 15.155728 -1.7345321
13.496469 15.103822 -1.7381127
13.627651 15.063573 -1.7431778
13.805944 15.073704 -1.7543559
13.930686 15.023772 -1.7585478
14.034198 14.95036 -1.7600324
14.13253 14.871187 -1.7609056
14.229037 14.789935 -1.7616043
14.331334 14.714481 -1.7630889
14.42205 14.626978 -1.7631762
14.512936 14.53962 -1.7633508
14.60754 14.455903 -1.7640495
14.705226 14.375053 -1.7651848
14.833999 14.323997 -1.7701626
15.02469 14.331032 -1.7826507
15.19862 14.319867 -1.7930429
15.393394 14.326107 -1.8058804
15.588079 14.329819 -1.8186306
15.788548 14.336364 -1.8319919
15.969658 14.323026 -1.8429955
16.154922 14.311305 -1.8544357
16.378126 14.330647 -1.8702424
16.579557 14.328241 -1.8834291
16.783089 14.325193 -1.8967905
17.007004 14.336879 -1.9124225
17.266907 14.37567 -1.9320717
17.498678 14.387766 -1.9484023
17.761404 14.422044 -1.9681388
17.967691 14.407516 -1.9814129
18.182274 14.397182 -1.9955603
18.318926 14.323391 -2.0009747
18.449837 14.244203 -2.0057778
18.531343 14.1265 -2.0051665
18.598572 13.998151 -2.0030706
18.660126 13.865943 -2.0004508
18.679794 13.703456 -1.9933771
18.715117 13.553522 -1.9881374
18.777666 13.423949 -1.985954
18.811659 13.27459 -1.9808016
18.843712 13.124753 -1.9755619
18.879559 12.978409 -1.9708461
18.884645 12.811985 -1.9629864
18.928137 12.672592 -1.9593185
18.960655 12.52656 -1.9546027
18.999607 12.385503 -1.9506729
19.027489 12.237973 -1.9456952
19.066053 12.098042 -1.9419399
19.10784 11.96074 -1.9386214
19.156288 11.828094 -1.9360888
19.189367 11.686495 -1.9320717
19.232531 11.551603 -1.9291898
19.290192 11.425762 -1.9278799
19.317787 11.282566 -1.9236007
19.353848 11.144931 -1.9202822
19.386349 11.005803 -1.9167017
19.435259 10.876427 -1.9148678
19.442314 10.724251 -1.9089293
19.464867 10.581439 -1.9046502
19.494301 10.442989 -1.901157
19.507795 10.296671 -1.8961792
19.537907 10.159775 -1.892948
19.539587 10.008817 -1.8870096
19.551716 9.8640556 -1.8822064
19.566374 9.7212963 -1.8777527
19.59523 9.5861721 -1.8747835
19.607908 9.4437113 -1.8703296
19.607876 9.2959089 -1.8647406
19.606771 9.1484623 -1.8591515
19.622702 9.0096951 -1.855309
19.639486 8.8718977 -1.8516412
19.651678 8.7326164 -1.8476239
19.661989 8.5931206 -1.8435194
19.662176 8.449894 -1.8385416
19.66502 8.3085413 -1.8339132
19.668711 8.1682358 -1.8294594
19.646519 8.0180359 -1.8226477
19.66391 7.8847299 -1.8196785
19.676699 7.7500525 -1.81636
19.675568 7.6104846 -1.8118188
19.694887 7.4793572 -1.8092862
19.717073 7.3496718 -1.807103
19.718763 7.2128091 -1.8030858
19.72702 7.0788951 -1.7997674
19.689272 6.9292769 -1.792257
19.716351 6.8031363 -1.7908597
19.766216 6.6849036 -1.7916456
19.818209 6.567255 -1.7926936
19.877083 6.4516802 -1.7944403
19.943827 6.338346 -1.7969728
20.006123 6.2232513 -1.7991561
20.057274 6.1044397 -1.8003787
20.109629 5.9858031 -1.8017759
20.147892 5.8628569 -1.8019506
20.179653 5.7380314 -1.8016013
20.211601 5.6133037 -1.8013393
20.247587 5.4897032 -1.8015139
20.271259 5.3628154 -1.8006406
20.317287 5.2418165 -1.8018632
20.371288 5.1226411 -1.8038719
20.417818 5.0013413 -1.8052691
20.465563 4.8801255 -1.806841
20.51453 4.7589617 -1.8085877
20.55209 4.6349702 -1.8093736
20.590847 4.5111227 -1.8103342
20.61619 4.3842802 -1.8101596
20.640753 4.257297 -1.8099849
20.661602 4.129591 -1.8095483
20.691442 4.0036826 -1.8099849
20.715618 3.8766468 -1.8099849
20.744898 3.7505286 -1.8105088
20.772427 3.6240258 -1.8109455
20.809008 3.4989786 -1.8122555
20.844835 3.3736186 -1.8135654
20.894674 3.2502477 -1.8161854
20.950678 3.1274216 -1.8194165
20.991169 3.001915 -1.8213377
21.017088 2.8741391 -1.8220364
21.060011 2.7484787 -1.824307
21.084387 2.6201882 -1.8250057
6.961864 0.82154483 -0.57697815
6.9083633 0.77227908 -0.57182568
6.8495693 0.72317779 -0.56623662
6.8172002 0.67748886 -0.56300539
6.8142858 0.6349991 -0.56239408
6.7892733 0.59066987 -0.55986154
6.7887979 0.54867929 -0.5595122
6.7940235 0.50716215 -0.5596869
6.7890568 0.46492031 -0.55898821
6.7858162 0.42288256 -0.55846423
6.7912669 0.38140538 -0.55872625
6.7855201 0.33932924 -0.55802763
6.786479 0.29764399 -0.5579403
6.7881775 0.25599733 -0.5579403
6.7916121 0.21440402 -0.55811495
6.7957873 0.17280358 -0.55837691
6.8007035 0.13117924 -0.55872625
6.7924156 0.08933001 -0.5579403
6.8157477 0.047812928 -0.55994886
6.822886 0.0059979279 -0.56056017
6.8357444 -0.035933938 -0.56169546
6.8294187 -0.077808857 -0.56117147
6.8576975 -0.12021658 -0.56370401
6.8578267 -0.16231586 -0.56379133
6.8796034 -0.20507298 -0.56579995
6.8921533 -0.24778183 -0.56702256
6.9084187 -0.29081976 -0.56859452
6.9134693 -0.33353916 -0.56920582
6.9650068 -0.37887192 -0.57392162
7.0281787 -0.42557138 -0.57968533
18.408424 -1.2274262 -1.579784
18.364779 -1.3377504 -1.5766401
18.338348 -1.4489974 -1.5750682
18.277498 -1.557096 -1.5705271
18.187244 -1.6618745 -1.5634534
14.234605 -1.3889089 -1.2162309
18.07333 -1.875375 -1.5553317
18.059504 -1.9860178 -1.5551571
10.59288 -1.2309033 -0.89730316
10.582162 -1.2955137 -0.89704114
10.567097 -1.3595307 -0.89642984
10.566454 -1.4254087 -0.89712846
10.568359 -1.4917476 -0.89808911
10.567877 -1.557873 -0.89887506
13.875319 -2.1323822 -1.1930885
13.826561 -2.2118156 -1.1899446
13.852036 -2.3031466 -1.1934378
18.114792 -3.1261208 -1.573933
14.529754 -2.5994282 -1.2564025
17.935974 -3.3224199 -1.5615321
13.458691 -2.5786734 -1.1637458
18.164543 -3.5958514 -1.5857224
18.123592 -3.7034502 -1.5840632
18.08688 -3.8117089 -1.5828406
18.036867 -3.916909 -1.5804827
17.984301 -4.021204 -1.5779501
17.789394 -4.0923982 -1.5626675
17.771704 -4.2033091 -1.5633661
17.729122 -4.3082762 -1.5618814
17.674324 -4.409986 -1.5593489
8.2260742 -2.1064401 -0.70683724
8.2091408 -2.1558626 -0.70648795
17.492998 -4.7084169 -1.5505286
7.706697 -2.1253667 -0.6632598
7.6963868 -2.1734259 -0.66352177
17.292355 -4.9975271 -1.5403984
8.0168676 -2.3705115 -0.69530976
7.9783325 -2.4124506 -0.6931265
7.9633799 -2.4613593 -0.6931265
8.0089235 -2.5293727 -0.69871563
16.90243 -5.451921 -1.519352
16.866766 -5.5549068 -1.5191773
7.8155928 -2.6274834 -0.68526685
16.735138 -5.7401395 -1.5134135
16.686438 -5.8381109 -1.5121909
16.638103 -5.9360356 -1.5110556
16.592943 -6.0349493 -1.5102696
16.471533 -6.1054888 -1.5024101
16.370388 -6.1825099 -1.4964716
16.313549 -6.2756872 -1.494725
16.206097 -6.3487797 -1.4882627
16.115019 -6.427433 -1.4833722
16.06974 -6.5239439 -1.4828482
16.042297 -6.627748 -1.4840708
15.982961 -6.7183371 -1.4823242
15.923118 -6.8084474 -1.4805776
15.857289 -6.8956933 -1.478307
15.784614 -6.9795685 -1.4754251
15.724227 -7.0685296 -1.4737659
15.659719 -7.1553569 -1.4717573
15.589318 -7.2391419 -1.4692248
15.531993 -7.3287086 -1.4680022
15.478648 -7.4199977 -1.4672161
15.426558 -7.5117807 -1.4666048
15.37214 -7.6023207 -1.4658189
15.30829 -7.688005 -1.4641596
15.230655 -7.7664046 -1.4611905
15.156174 -7.8459735 -1.4585706
15.087463 -7.928165 -1.4565619
13.048495 -6.9592924 -1.2588477
14.958373 -8.0961189 -1.4535054
14.899683 -8.1829538 -1.4526322
14.843972 -8.2713137 -1.4521081
14.791206 -8.3612585 -1.4519335
12.39246 -7.1060429 -1.2147462
12.612995 -7.3356957 -1.2415565
12.583192 -7.4220591 -1.2431284
13.018741 -7.7870107 -1.292295
14.400851 -8.7340717 -1.4389213
14.338503 -8.8170509 -1.4380481
14.26807 -8.8948517 -1.4363889
12.268756 -7.7534652 -1.2347448
14.119255 -9.0445566 -1.4323716
14.057645 -9.127223 -1.4317603
14.013027 -9.220974 -1.4329829
13.971103 -9.3167305 -1.4345549
13.917801 -9.4050684 -1.4349916
13.862296 -9.4919777 -1.4352535
13.811978 -9.5825348 -1.4361268
13.741511 -9.6590834 -1.4349042
13.803705 -9.8298931 -1.4480036
13.819882 -9.9697723 -1.4563
13.731102 -10.034398 -1.4533308
13.620431 -10.082309 -1.4480036
13.529617 -10.14418 -1.4448597
13.425864 -10.195678 -1.4403187
13.325149 -10.248714 -1.4361268
13.236077 -10.310082 -1.4332449
13.089661 -10.325706 -1.423988
12.943553 -10.339924 -1.4147311
12.851208 -10.395968 -1.4114999
12.765599 -10.456951 -1.4090546
12.685861 -10.522364 -1.4073081
12.599699 -10.582066 -1.4048629
12.541361 -10.664985 -1.4056488
12.48097 -10.746286 -1.4062601
12.413296 -10.821357 -1.4060855
12.343676 -10.894683 -1.4057361
12.260253 -10.955614 -1.4038149
12.177286 -11.016602 -1.401981
12.080074 -11.064199 -1.3984878
11.950597 -11.081219 -1.3911521
11.867853 -11.140702 -1.3894055
11.786995 -11.201646 -1.3879209
11.71158 -11.267543 -1.3871349
11.639369 -11.336411 -1.3867856
11.548309 -11.386634 -1.3841658
11.414769 -11.393942 -1.3763061
11.342541 -11.461642 -1.376044
11.280356 -11.539572 -1.377092
11.232866 -11.632934 -1.3800613
11.161276 -11.701638 -1.3800613
11.085851 -11.766277 -1.3796246
6.9304752 -7.4470968 -0.85424966
10.946019 -11.907299 -1.3803232
10.842615 -11.941051 -1.3763934
10.710609 -11.942096 -1.3687084
6.7535543 -7.6238842 -0.85529763
6.6823759 -7.6374412 -0.8520664
6.5806713 -7.6149883 -0.84473073
10.259737 -12.020263 -1.3478366
10.178726 -12.074611 -1.346876
10.105721 -12.138371 -1.3470507
10.031684 -12.200919 -1.3471379
9.9522352 -12.256829 -1.3465266
9.8936682 -12.338648 -1.3488846
9.8134441 -12.393655 -1.3482733
2.0197458 -2.583719 -0.24992874
1.9904609 -2.578716 -0.24800749
1.9649377 -2.5782051 -0.24661022
1.9514774 -2.5933969 -0.24695954
1.9390929 -2.6101196 -0.24748352
1.9265766 -2.6267877 -0.24800749
1.922109 -2.6546957 -0.24975409
0 -0 -0
9.0977573 -12.892814 -1.3457407
1.89911 -2.7272277 -0.25377125
1.8862907 -2.7445755 -0.25438255
1.8705333 -2.7577465 -0.25455722
1.8502516 -2.7642055 -0.25403324
8.6650429 -13.115949 -1.340501
8.5827703 -13.166366 -1.3402389
8.4711037 -13.171024 -1.3352611
8.367712 -13.187427 -1.3315933
8.2935085 -13.249499 -1.3327286
8.2256632 -13.322176 -1.3349992
8.1199293 -13.33326 -1.330982
8.0307837 -13.370875 -1.3297594
7.9470677 -13.417329 -1.3294973
7.8856926 -13.501966 -1.3331653
7.7952404 -13.537149 -1.3318553
7.7139988 -13.58819 -1.3322046
7.637289 -13.647437 -1.3334272
7.5591803 -13.704509 -1.3344752
7.4839888 -13.767262 -1.3361344
7.3989029 -13.812046 -1.3360471
7.2898335 -13.811374 -1.331506
7.1930013 -13.832864 -1.3292354
7.1093516 -13.879399 -1.3294973
7.0213633 -13.917423 -1.3289734
6.934062 -13.956676 -1.3286241
6.8395395 -13.981062 -1.3268775
6.7320104 -13.977891 -1.3225111
6.6328874 -13.991031 -1.3198038
6.5317507 -13.998967 -1.3166599
6.4357553 -14.017055 -1.314564
6.3479862 -14.052649 -1.3142147
6.2567868 -14.08041 -1.3131667
6.1862316 -14.155048 -1.3166599
6.116962 -14.233925 -1.3205898
6.0240808 -14.258344 -1.3193672
5.9357157 -14.293198 -1.3191925
5.8512902 -14.33765 -1.3199785
5.7921257 -14.445403 -1.3267902
5.7092228 -14.495501 -1.3281875
5.6266418 -14.546983 -1.3297594
5.5432897 -14.597065 -1.331244
5.4560552 -14.637338 -1.3318553
5.3651128 -14.667733 -1.3315933
5.2709746 -14.689125 -1.3305453
5.1777682 -14.712733 -1.3297594
5.0951939 -14.766828 -1.3318553
5.0073628 -14.806306 -1.3326412
4.9026303 -14.795145 -1.3287988
4.8049908 -14.804103 -1.3268775
4.7143655 -14.834257 -1.3269649
4.6194086 -14.850538 -1.3258295
4.5194983 -14.850013 -1.3232096
4.3862314 -14.736157 -1.3102849
4.2834816 -14.720708 -1.3064424
4.1968913 -14.760128 -1.307665
4.1441021 -14.9219 -1.3200657
4.0634146 -14.987428 -1.3237337
3.9308646 -14.858954 -1.3098482
3.8834209 -15.052562 -1.3252182
3.7416663 -14.879989 -1.3074903
3.6469758 -14.889121 -1.3062677
3.5657167 -14.953855 -1.3101102
3.4826748 -15.013298 -1.313516
3.4007907 -15.080058 -1.3176205
3.3120348 -15.118156 -1.3191925
3.2194166 -15.139169 -1.3192798
3.1343126 -15.196688 -1.3226857
3.044328 -15.23224 -1.3241702
2.950618 -15.249655 -1.324083
2.8590083 -15.278243 -1.3250436
2.7682221 -15.312162 -1.3265282
2.6826065 -15.376946 -1.3308073
0.45210776 -2.6908748 -0.20163547
0.43240488 -2.6739304 -0.19988889
0.41629609 -2.6785021 -0.20006354
0.40500158 -2.7154901 -0.20312007
0.38424167 -2.6893258 -0.20058751
0.3739427 -2.7370343 -0.20460467
0.24793452 -1.9026104 -0.1306365
0.23588705 -1.9011302 -0.13037451
0.23017441 -1.9529965 -0.13482831
0.21519701 -1.9276419 -0.13247041
0.20043488 -1.9011874 -0.13002519
0.18975137 -1.9122943 -0.13089849
0.17736676 -1.9064795 -0.13028719
0.1680847 -1.9353198 -0.13273241
0.15564446 -1.9293642 -0.1321211
0.14410004 -1.9342566 -0.13247041
0.13304637 -1.9470304 -0.13351837
0.13430721 -2.1595848 -0.15211958
0.11048532 -1.9723872 -0.13561429
0.098082021 -1.9670583 -0.13509031
0.086272776 -1.9735944 -0.13561429
0.074274205 -1.9770731 -0.13587627
0.068660498 -2.1835976 -0.15395351
0.089805402 -3.5393379 -0.27280909
0.067836218 -3.5268745 -0.27167383
0.03374593 -2.5849206 -0.18906
0.019533508 -2.8181794 -0.20949514
0.0022168185 -2.7923455 -0.20722456
-0.01385008 -2.5870962 -0.18923466
-0.029735234 -2.5879588 -0.18932199
-0.060753852 -3.4542716 -0.26529875
-0.079478838 -3.3492639 -0.25612915
-0.099820673 -3.341743 -0.25551784
-0.1151421 -3.1967146 -0.24285504
-0.13048688 -3.0944273 -0.23394743
-0.14999887 -3.1045136 -0.23490806
-0.16212644 -2.9762118 -0.22372986
-0.18152799 -2.9940538 -0.22538912
-0.20300968 -3.0396004 -0.22949362
-1.1696055 -16.055771 -1.3736862
-1.2671585 -16.036375 -1.3726382
-1.3629113 -15.997528 -1.369931
-1.4596852 -15.973984 -1.3686211
-1.5568986 -15.956795 -1.3679224
-0.30724737 -2.9577355 -0.22311856
-0.3222326 -2.9270785 -0.220586
-1.7672412 -15.210007 -1.3047831
-1.853637 -15.142515 -1.2998053
-0.48305762 -3.7525814 -0.29411754
-0.50620705 -3.7505341 -0.29420486
-0.42982477 -3.0430632 -0.23185152
-0.44848856 -3.0403683 -0.23185152
-0.4678919 -3.0424824 -0.23228817
-0.48843935 -3.0513585 -0.23333612
-0.50715297 -3.0483038 -0.23333612
-0.4735066 -2.7417979 -0.20635127
-0.47874409 -2.6741202 -0.20058751
-0.49713883 -2.6819072 -0.20154814
-0.52614307 -2.7443583 -0.20739922
-3.1873307 -16.100653 -1.4012823
-3.2549529 -15.928535 -1.387659
-3.3600218 -15.943355 -1.3908027
-0.56479782 -2.5991979 -0.19560973
-0.57530177 -2.5713789 -0.19342649
-0.58905876 -2.559063 -0.19264053
-0.60750097 -2.5670338 -0.19368848
-0.62135893 -2.5555139 -0.19298984
-3.9216669 -15.717056 -1.3825065
-4.0140777 -15.677257 -1.3811092
-0.6576668 -2.5031757 -0.18932199
-0.66524673 -2.4702349 -0.1867021
-4.2675419 -15.47587 -1.3697563
-0.92450595 -3.2729454 -0.26058295
-0.94733655 -3.2767813 -0.26145625
-4.5482898 -15.383233 -1.3687084
-0.80643576 -2.6660767 -0.20661326
-0.86248642 -2.789567 -0.21840276
-4.7742815 -15.118318 -1.3522904
-5.0232115 -15.573211 -1.3969158
-5.1523252 -15.644285 -1.4063474
-5.2634544 -15.657701 -1.4105393
-5.3810825 -15.688245 -1.4163903
-5.4700055 -15.634245 -1.4144691
-1.181969 -3.3119791 -0.27071318
-1.2009068 -3.3009195 -0.27036387
-5.7987456 -15.643935 -1.425036
-5.8622475 -15.522322 -1.4170016
-1.1824223 -3.0727777 -0.25106403
-1.2143347 -3.0988564 -0.25420791
-1.3001206 -3.2588274 -0.27001455
-1.3695525 -3.3726277 -0.28154206
-1.2829598 -3.1045215 -0.25691512
-1.2533487 -2.9808781 -0.24591158
-1.2645662 -2.9566441 -0.24433964
-6.6358981 -15.259828 -1.4211935
-6.8019166 -15.382821 -1.4369128
-1.3730941 -3.0537114 -0.25595447
-1.4240966 -3.1159031 -0.26276621
-7.018044 -15.11316 -1.423202
-7.1038432 -15.055399 -1.4218048
-1.9225705 -4.0099297 -0.35227904
-7.2959108 -14.983212 -1.4233767
-1.4112587 -2.8528714 -0.24145778
-1.3437959 -2.6750143 -0.22486515
-1.3443463 -2.6356571 -0.22180861
-1.3710258 -2.6477063 -0.22381718
-1.3877094 -2.6401258 -0.22390452
-1.4066955 -2.6368353 -0.2244285
-1.9349366 -3.5743413 -0.31874448
-1.9563525 -3.5615284 -0.31865716
-1.4865093 -2.6670599 -0.23010492
-1.5136305 -2.6769674 -0.23202617
-1.5270544 -2.6624444 -0.23150219
-8.6262751 -14.832159 -1.4666048
-8.7257242 -14.793537 -1.4680895
-5.0523815 -8.4465656 -0.82525623
-8.9004078 -14.675123 -1.4670415
-8.9876766 -14.615993 -1.4666048
-1.3663205 -2.1910453 -0.18879803
-1.3829317 -2.1876733 -0.18932199
-5.2279654 -8.1609449 -0.81206942
-5.2763143 -8.1262064 -0.81180745
-1.4076332 -2.1385462 -0.18687676
-1.4179653 -2.1257248 -0.18644013
-9.6895189 -14.338758 -1.4795296
-9.7784433 -14.280678 -1.4797043
-9.8897324 -14.254786 -1.4833722
-5.5752788 -7.9313836 -0.81233144
-1.6864796 -2.3676772 -0.21726747
-1.7038896 -2.3613241 -0.21770412
-1.5855153 -2.169049 -0.19796763
-1.7060682 -2.3042057 -0.21377429
-1.6986617 -2.2650003 -0.21063042
-1.6649337 -2.1918595 -0.20373139
-1.6303738 -2.11922 -0.19683234
-1.6329399 -2.0958159 -0.19534774
-1.6500876 -2.0912318 -0.19595905
-10.952962 -13.710994 -1.500838
-10.997415 -13.594736 -1.4953363
-11.08946 -13.53779 -1.4965589
-1.6182367 -1.9504277 -0.18460619
-1.620564 -1.929019 -0.18329625
-1.633015 -1.919798 -0.18338358
-1.6447639 -1.9097419 -0.18338358
-1.6656152 -1.9101268 -0.18460619
-1.6825776 -1.9058459 -0.18530484
-1.696895 -1.8984573 -0.18565415
-1.7192047 -1.8998295 -0.18705143
-1.7422674 -1.9017338 -0.18853603
-2.284919 -2.4637125 -0.25700244
-2.2979476 -2.4474671 -0.25674045
-3.2118816 -3.3793037 -0.37114224
-3.4107432 -3.5447505 -0.39367327
-2.3822253 -2.4454327 -0.26171824
-2.41537 -2.4492133 -0.26398882
-3.3614061 -3.3671486 -0.3795259
-3.2418079 -3.2077148 -0.36223462
-3.3426361 -3.2671499 -0.37219021
-3.3869846 -3.2701061 -0.37515941
-3.4134734 -3.2554507 -0.37594536
-12.903141 -12.157024 -1.5165575
-3.5005651 -3.2574315 -0.38162181
-2.5678394 -2.3601079 -0.26818064
-3.4908631 -3.1693599 -0.37577072
-3.4842887 -3.1246006 -0.37271419
-3.4154079 -3.0252135 -0.36240929
-2.6557236 -2.3232751 -0.27176115
-3.4756396 -3.0032663 -0.36511651
-3.3636796 -2.8706431 -0.35009581
-13.548388 -11.421164 -1.5158588
-13.618212 -11.337817 -1.5158588
-3.3613169 -2.7633214 -0.34389541
-4.0463676 -3.2852008 -0.41934818
-3.8084285 -3.0534079 -0.39035475
-13.614326 -10.780037 -1.4847695
-13.689631 -10.703661 -1.4858174
-13.758204 -10.621897 -1.4861667
-3.3229015 -2.5326424 -0.32870007
-11.274507 -8.4855204 -1.1994636
-11.267192 -8.3722124 -1.1930012
-11.38582 -8.3524179 -1.2003369
-4.0666184 -2.9446635 -0.40258092
-14.227365 -10.170869 -1.4955983
-3.0964394 -2.1846144 -0.29464149
-3.1146903 -2.1689899 -0.29516548
-3.0614467 -2.1041262 -0.28809178
-3.0817189 -2.0903356 -0.28887776
-3.1830587 -2.1306891 -0.29822201
-3.1279175 -2.0660892 -0.29106098
-3.1705782 -2.0664425 -0.29420486
-3.2150357 -2.0674274 -0.29752338
-5.7030931 -3.6184669 -0.55453444
-3.4495716 -2.1589041 -0.31918111
-3.4517345 -2.1308932 -0.31804585
-15.13612 -9.2179317 -1.5160334
-3.5732687 -2.145824 -0.32782677
-3.5923676 -2.1274123 -0.32843807
-3.6079342 -2.106837 -0.32870007
-15.545973 -8.9520721 -1.5350713
-15.60754 -8.8604498 -1.5357699
-15.658135 -8.7625704 -1.5354207
-15.743009 -8.683651 -1.5385644
-3.8966668 -2.117929 -0.3512311
-3.9280291 -2.1038585 -0.35306501
-3.9355783 -2.0769269 -0.35254103
-3.9288039 -2.042628 -0.35061979
-3.9190979 -2.0071285 -0.34843653
-3.9082155 -1.9713768 -0.34616598
-7.6698508 -3.8103914 -0.71321231
-7.6796641 -3.7566917 -0.71190238
-7.7007751 -3.7086349 -0.71172774
-16.559116 -7.8504515 -1.5689552
-9.9673424 -4.6505146 -0.92664587
-5.7579575 -2.6434331 -0.517856
-5.7531886 -2.5986202 -0.51584738
-5.7872319 -2.5713613 -0.51759398
-5.8111157 -2.5393937 -0.51837999
-10.118119 -4.3480868 -0.92786849
-10.173055 -4.2979407 -0.93057573
-10.232354 -4.2491941 -0.93371958
-10.25639 -4.1855769 -0.93354493
-10.17185 -4.078445 -0.92315269
-9.6155367 -3.787046 -0.86839706
-10.487782 -4.056459 -0.94821632
-10.507818 -3.9902623 -0.94777966
-10.355685 -3.8599474 -0.93127435
-10.377304 -3.7956491 -0.93109971
-10.516665 -3.7736275 -0.94192857
-10.42498 -3.6686792 -0.93127435
-10.404919 -3.5900209 -0.92734456
-7.8099637 -2.6410604 -0.68517953
-7.8127837 -2.5887024 -0.68395692
-10.449338 -3.3914332 -0.92551059
-10.490837 -3.3338919 -0.92743188
-10.524413 -3.2736013 -0.92865449
-10.524288 -3.2028716 -0.92682058
-10.439672 -3.1072559 -0.91730165
-10.914792 -3.1759152 -0.95895785
-10.872749 -3.0914447 -0.95336878
-10.864638 -3.0172081 -0.9509235
-9.7090015 -2.6321726 -0.84429407
-11.027967 -2.9172881 -0.96245104
-11.063023 -2.8540466 -0.96402299
-11.095784 -2.7899988 -0.96542025
-11.149462 -2.7308707 -0.96873879
-11.177636 -2.6651807 -0.9697867
-11.017165 -2.5555713 -0.95389271
-11.39608 -2.5698948 -0.98655403
-11.467101 -2.5120745 -0.99153179
-11.291319 -2.4010484 -0.97441518
-11.306815 -2.3319223 -0.9745025
-11.496744 -2.297648 -0.99022186
-11.507692 -2.2264943 -0.98995984
-11.562263 -2.1635394 -0.99362773
-11.596887 -2.0964534 -0.99554896
-11.898049 -2.0755982 -1.0212239
-11.791693 -1.9825643 -1.010657
-11.968843 -1.9369158 -1.0253284
-13.377279 -2.0807412 -1.1492491
-13.39275 -1.9990618 -1.1495111
-14.174942 -2.0270047 -1.2177155
-15.157325 -2.0726883 -1.3035605
-15.86912 -2.070931 -1.3653898
-15.759933 -1.9584079 -1.3546484
-19.499367 -2.3017812 -1.6837063
-20.181377 -2.2568347 -1.7426537
-21.682827 -2.2901506 -1.8738228
-22.262499 -2.2133493 -1.9236881
-22.257807 -2.0750427 -1.9221162
-22.203627 -1.9326435 -1.916265
-22.239891 -1.798376 -1.9184483
-22.262428 -1.6627712 -1.9194962
-22.295071 -1.527707 -1.9215049
-22.319931 -1.3918706 -1.9229021
-22.344961 -1.2558424 -1.9243867
-22.345282 -1.118364 -1.9237754
-22.346746 -0.9810164 -1.9233388
-22.332436 -0.84312886 -1.9215921
-22.322254 -0.70561135 -1.9202822
-19.405001 1.4306582 -1.9112345
-19.38693 1.5489844 -1.9103374
-19.370123 1.6673135 -1.9096398
-19.347637 1.7850373 -1.9084438
-19.327408 1.9028406 -1.9075468
-19.307451 2.0205665 -1.9067495
-19.280846 2.1374609 -1.9053541
-19.24859 2.2535264 -1.9034605
-19.221563 2.3700075 -1.9021648
-19.189884 2.4857302 -1.9004705
-19.153564 2.6006176 -1.8983774
-19.129366 2.7169728 -1.8975801
-19.101509 2.8326912 -1.8964838
-19.070002 2.9477136 -1.8950884
-19.048609 3.0641952 -1.8947895
-19.022577 3.1798687 -1.8940917
-18.989964 3.2943175 -1.892796
-18.950787 3.407429 -1.8909024
-18.910936 3.5201838 -1.8890088
-18.877256 3.6338952 -1.8878127
-18.834108 3.7455785 -1.8857197
-18.817595 3.8624728 -1.8864174
-18.789648 3.9770381 -1.8860188
-18.754196 4.0899215 -1.8849224
-18.721952 4.203392 -1.8842247
-18.684175 4.3155007 -1.8830287
-18.649599 4.4282241 -1.8822314
-18.614344 4.5406857 -1.8814341
-18.579376 4.6531229 -1.8807364
-18.541801 4.7648072 -1.8798393
-18.501633 4.8756981 -1.8787431
-18.464643 4.9873133 -1.8780453
-18.421228 5.0970664 -1.8767496
-18.386734 5.209187 -1.8764507
-18.357292 5.3227391 -1.8767496
-18.341457 5.4403715 -1.8785437
-18.32963 5.559454 -1.880836
-18.33604 5.6844897 -1.8851217
-18.352985 5.8134193 -1.8906034
-18.356731 5.9387879 -1.8947895
-18.344509 6.0594263 -1.8973807
-18.33527 6.1814103 -1.9003707
-18.322401 6.302537 -1.9030617
-18.302162 6.421432 -1.9050552
-18.289585 6.5433331 -1.9079455
-18.297699 6.6731634 -1.9131281
-18.280659 6.7943244 -1.9157195
-18.260027 6.9144702 -1.9180118
-18.250677 7.0392742 -1.9215999
-18.222885 7.1573105 -1.9232942
-18.194332 7.2752705 -1.9249885
-18.165937 7.3935246 -1.9267825
-18.138617 7.5124655 -1.9287759
-18.143526 7.6452608 -1.9343573
-18.141087 7.7756538 -1.9392409
-18.141376 7.9078946 -1.9445233
-18.137085 8.0388184 -1.949407
-18.124613 8.1667156 -1.9534934
-18.11487 8.2964191 -1.9579784
-18.089783 8.419591 -1.9608687
-18.058468 8.5402145 -1.963161
-18.031734 8.6633568 -1.9660513
-18.013111 8.7908554 -1.9699384
-18.021238 8.9321518 -1.9769151
-17.959871 9.0394278 -1.9762174
-17.932419 9.1639481 -1.9794067
-17.904999 9.2889299 -1.9826958
-17.873198 9.4120646 -1.9855862
-17.895842 9.5647097 -1.9947555
-17.836817 9.6743364 -1.9947555
-17.84424 9.8205433 -2.00243
-17.807972 9.9434328 -2.0052207
-17.77606 10.069189 -2.0086093
-17.75794 10.203356 -2.0136921
-17.727667 10.331164 -2.0174797
-17.679361 10.448858 -2.0192735
-17.636251 10.569929 -2.0217652
-17.600822 10.696032 -2.0252535
-17.569593 10.825229 -2.02934
-17.532377 10.951282 -2.0328283
-17.520332 11.093787 -2.0394063
-17.487101 11.223656 -2.0435925
-17.446262 11.349193 -2.0469811
-17.414509 11.481223 -2.0515656
-17.371035 11.606104 -2.0548546
-17.337395 11.738134 -2.0594394
-17.29458 11.864559 -2.0630274
-17.261488 11.998283 -2.0679111
-17.22171 12.128036 -2.0720971
-17.17289 12.251973 -2.0752864
-17.132872 12.382761 -2.0796719
-17.09671 12.517045 -2.0846553
-16.990015 12.599781 -2.0809674
-16.925909 12.713952 -2.0826619
-16.823824 12.799493 -2.0796719
-16.726055 12.887904 -2.0772798
-16.62862 12.976211 -2.0749874
-16.534636 13.066892 -2.0731936
-16.430841 13.149447 -2.0702035
-16.326658 13.231222 -2.0672135
-16.20594 13.298958 -2.0621305
-16.081944 13.363168 -2.0566487
-15.979852 13.444936 -2.0540574
-15.862214 13.51305 -2.0494728
-15.764686 13.597775 -2.0475791
-15.69894 13.709959 -2.0499711
-15.57129 13.767797 -2.0441904
-15.444263 13.825252 -2.0385094
-15.376836 13.935793 -2.0409014
-15.277842 14.017772 -2.0391073
-15.17915 14.099738 -2.0374131
-15.080752 14.181704 -2.0358183
-14.986966 14.267795 -2.0349214
-14.882661 14.343602 -2.032629
-14.777278 14.417973 -2.030237
-14.648184 14.468514 -2.0245559
-14.557724 14.556714 -2.0243566
-14.449951 14.627359 -2.0217652
-14.342556 14.697943 -2.0192735
-14.229314 14.762028 -2.0159845
-14.122688 14.832484 -2.0136921
-14.028686 14.915961 -2.0132935
-13.90507 14.967495 -2.0086093
-13.786061 15.023207 -2.0046225
-13.667562 15.078759 -2.0007355
-13.479216 15.055582 -1.9863834
-13.463697 15.22522 -1.9980445
-13.364787 15.301549 -1.9972472
-13.267398 15.379498 -1.9967488
-13.161812 15.447741 -1.9950545
-13.054606 15.513742 -1.9931608
-12.948996 15.581307 -1.9915662
-12.839891 15.644315 -1.9894731
-12.719851 15.693429 -1.9856858
-12.618966 15.765743 -1.9849881
-12.514588 15.833508 -1.9837921
-12.406794 15.896662 -1.9820977
-12.297482 15.957514 -1.9802041
-12.188492 16.018415 -1.9784101
-12.082804 16.083355 -1.9772141
-11.982113 16.154793 -1.9769151
-11.871007 16.211952 -1.9749217
-11.757903 16.265938 -1.9726294
-11.641116 16.314287 -1.9697391
-11.523607 16.361004 -1.9667491
-11.398012 16.395454 -1.9623637
-11.28988 16.454414 -1.961068
-11.178663 16.508549 -1.9592741
-11.058916 16.549526 -1.955985
-10.956067 16.61541 -1.9557856
-10.848484 16.673981 -1.954789
-10.733609 16.720972 -1.9524966
-10.627083 16.780634 -1.951799
-10.519175 16.837929 -1.950902
-10.411485 16.89538 -1.9501046
-10.304004 16.952993 -1.949407
-10.179327 16.981758 -1.9454203
-10.07595 17.045612 -1.9456196
-9.9536352 17.077026 -1.9421313
-9.7569551 16.978172 -1.9236928
-9.5221424 16.807426 -1.8971814
-9.4620085 16.942858 -1.9060518
-9.4826097 17.227243 -1.9319652
-9.3900108 17.309593 -1.9347559
-9.2939425 17.386189 -1.9369485
-9.1796694 17.428802 -1.9353539
-9.0693483 17.478617 -1.9346563
-8.9510641 17.512671 -1.9322642
-8.8385181 17.557487 -1.9311678
-8.7266445 17.603365 -1.9302709
-8.6141043 17.647638 -1.9292742
-8.4914379 17.670565 -1.9259852
-8.3717928 17.698946 -1.9233938
-8.2516994 17.725626 -1.9207028
-8.1357384 17.760544 -1.9190085
-8.0176153 17.790173 -1.9168159
-7.9070959 17.836304 -1.9165168
-7.7939272 17.876276 -1.9156199
-7.6793895 17.912786 -1.9144238
-7.5674024 17.954985 -1.9139255
-7.4551864 17.996483 -1.9134271
-7.3386197 18.027143 -1.9118325
-7.2252831 18.065365 -1.9111348
-7.1106625 18.100098 -1.9101381
-6.996604 18.13596 -1.9093409
-6.8823729 18.171104 -1.9085435
-6.769361 18.209261 -1.9081448
-6.655458 18.244846 -1.9075468
-6.5423789 18.282528 -1.9072478
-6.4290876 18.319511 -1.9069488
-6.3146186 18.352968 -1.9063509
-6.20157 18.390427 -1.9062511
-6.0858026 18.41963 -1.9053541
-5.9692984 18.446211 -1.9042578
-5.8505936 18.465416 -1.9024638
-5.7256899 18.463902 -1.8985767
-5.6125789 18.499638 -1.8986764
-5.4995275 18.535637 -1.8988757
-5.3865228 18.571899 -1.8991748
-5.276535 18.618959 -1.9006698
-5.1648455 18.660576 -1.9016664
-5.0528436 18.701521 -1.9026631
-4.9390125 18.736021 -1.9030617
-4.8242049 18.766937 -1.9031614
-4.7082372 18.793289 -1.9028624
-4.5925994 18.820858 -1.9027628
-4.475421 18.841908 -1.9020652
-4.3592772 18.867075 -1.9018657
-3.2921245 14.656683 -1.4669186
-3.1711748 14.534671 -1.4523672
-3.0172293 14.248192 -1.4210718
-2.9297473 14.266437 -1.4210718
-2.8475897 14.31147 -1.4238625
-2.7617917 14.339421 -1.4249588
-2.713454 14.569348 -1.4466861
-2.5563841 14.209667 -1.408414
-2.4706781 14.233909 -1.4093111
-2.381161 14.236042 -1.4080154
-2.2858632 14.201265 -1.4030321
-2.1267798 13.749904 -1.3558894
-2.0391603 13.741041 -1.3536968
-1.9431938 13.671528 -1.3454244
-1.8544502 13.647699 -1.3418365
-1.7775779 13.712107 -1.3472185
-1.6958441 13.742507 -1.3492118
-1.6140355 13.774395 -1.3514044
-1.5295967 13.785028 -1.3515041
-1.4464346 13.808009 -1.3528994
-1.3637308 13.83742 -1.3549925
-1.3156464 14.244823 -1.3951583
-1.2366666 14.350772 -1.4050254
-1.3099703 16.377514 -1.6079476
-1.1545726 15.640999 -1.5331973
-1.0223528 15.1117 -1.479377
-0.93863696 15.264675 -1.4941278
-0.85066646 15.373471 -1.5044931
-0.71313113 14.498868 -1.4162878
-0.62449592 14.510923 -1.4170851
-0.56220311 15.24135 -1.4899417
-0.46452528 15.109253 -1.476387
-0.37217388 15.12674 -1.477882
-0.27830821 15.072032 -1.472201
-0.19932783 16.175858 -1.5826321
-0.093603991 15.119088 -1.476686
-0.00083366421 15.100472 -1.4747924
0.091441229 15.038503 -1.4686129
0.18342045 15.01378 -1.466221
0.27752021 15.119816 -1.476985
0.3641538 14.868154 -1.4519686
0.4543072 14.83083 -1.4484802
0.54526228 14.826769 -1.4483806
0.63515866 14.798291 -1.4458889
0.73342061 14.946171 -1.4611379
0.77780962 14.085983 -1.3753246
0.86276007 14.05711 -1.3729326
0.94543874 13.998936 -1.3676502
1.0330008 14.015694 -1.3699425
1.1251661 14.086456 -1.3777165
1.2038925 13.990066 -1.3687465
1.2902601 13.98836 -1.3693446
1.3791884 14.011868 -1.3725339
1.4631687 13.984339 -1.3706403
1.5397332 13.892025 -1.3622682
1.6265647 13.896152 -1.3636636
1.7083882 13.858259 -1.3608729
1.7908312 13.82778 -1.3588794
1.889706 13.920058 -1.3693446
1.9658437 13.843183 -1.3627665
2.0538132 13.851529 -1.3648596
2.1387661 13.838666 -1.3648596
2.228539 13.855737 -1.3679492
2.3140066 13.844746 -1.3682482
2.406909 13.876364 -1.3729326
2.4918313 13.860355 -1.3728329
2.5740976 13.830132 -1.3713379
2.6651182 13.84632 -1.3746269
2.7554634 13.857032 -1.3774176
2.8440387 13.857408 -1.3792115
2.9298372 13.84359 -1.3796103
3.0291455 13.891459 -1.3863876
3.1151969 13.876494 -1.3867863
3.2652383 14.138268 -1.4156897
3.3195076 13.981467 -1.4016367
3.4366038 14.089401 -1.4148924
3.5169454 14.04392 -1.4124007
3.6008217 14.013403 -1.4115037
3.6966295 14.028568 -1.4153907
3.8026204 14.079587 -1.4230651
3.9099066 14.131748 -1.4309388
3.9848785 14.066327 -1.4266531
4.0675097 14.029188 -1.4253575
4.2194567 14.226231 -1.4485799
4.3040681 14.191503 -1.4476829
4.3459759 14.019419 -1.4324338
4.4388275 14.014305 -1.4347261
4.5320864 14.009525 -1.4371182
4.6245165 14.001294 -1.4392111
4.7071605 13.963226 -1.4382145
4.8370972 14.062984 -1.4518689
4.9608555 14.140072 -1.463231
5.0267396 14.051282 -1.4570516
5.2172003 14.306214 -1.4875497
5.2958689 14.249684 -1.4849584
5.4092827 14.285779 -1.4923338
5.4796472 14.207759 -1.4875497
5.5980086 14.253516 -1.496121
5.6883173 14.22629 -1.4969184
5.7725 14.183746 -1.496121
6.1244564 14.787873 -1.5654894
6.1470661 14.588638 -1.547948
6.2784138 14.6485 -1.5586123
6.306541 14.468325 -1.5431639
6.4734273 14.605828 -1.5624994
6.4623561 14.342672 -1.5379813
6.5477529 14.297322 -1.5373832
6.6353564 14.256877 -1.5373832
