# .PCD v0.7 - Point Cloud Data file format
VERSION 0.7
FIELDS x y z
SIZE 4 4 4
TYPE F F F
COUNT 1 1 1
WIDTH 1486
HEIGHT 1
VIEWPOINT 0 0 0 1 0 0 0
POINTS 1486
DATA ascii
-1.447111 -3.1100383 -0.2217536
-1.8918309 -4.0006351 -0.29692975
-1.9133185 -3.9826608 -0.29640245
-1.8191447 -3.7280202 -0.27598891
-1.4286327 -2.8833077 -0.20570898
-1.4332907 -2.84866 -0.20352452
-0.9141562 -1.7903972 -0.11448822
-0.92282766 -1.7803292 -0.11411159
-1.8954588 -3.5998886 -0.26996276
-1.9104582 -3.5750008 -0.26883286
-1.8981136 -3.5001087 -0.26340932
-1.9455273 -3.5355644 -0.26747698
-1.4667449 -2.6277964 -0.18996568
-1.4907079 -2.6326275 -0.19117092
-1.4934148 -2.60009 -0.18913709
-1.4726743 -2.5279939 -0.18363823
-1.5064299 -2.5498099 -0.18635
-1.5456362 -2.5798573 -0.18981503
-1.4821755 -2.4399645 -0.17829002
-1.4850838 -2.4113011 -0.17655751
-1.4565172 -2.3328035 -0.17038071
-5.0712934 -8.0071478 -0.67861068
-1.3858951 -2.1603675 -0.15652058
-1.3844385 -2.1292582 -0.15448676
-1.4282246 -2.1673369 -0.15870506
-1.4182217 -2.1237147 -0.15554133
-1.4301074 -2.1133215 -0.15539068
-10.733452 -15.64015 -1.3955712
-1.4758596 -2.1242657 -0.15802711
-1.512988 -2.1494064 -0.16119084
-1.5081891 -2.1149225 -0.15885571
-1.5275648 -2.114517 -0.1596843
-1.5122269 -2.0664911 -0.15606862
-1.6371753 -2.2085264 -0.17030539
-1.6159499 -2.1522045 -0.16593643
-1.5663147 -2.0597293 -0.15810244
-1.5868379 -2.0603464 -0.1590817
-1.5994501 -2.050571 -0.1590817
-1.6113836 -2.0399361 -0.15900637
-1.6344651 -2.0432432 -0.16028692
-1.6419474 -2.0269792 -0.1596843
-1.6530883 -2.0153251 -0.15953365
-1.6609608 -1.9997764 -0.15900637
-1.6674205 -1.9826814 -0.15832843
-1.6724397 -1.964065 -0.15749983
-1.6798992 -1.9484816 -0.15697254
-1.7003523 -1.9478991 -0.15795179
-1.7175578 -1.9434043 -0.1585544
-2.262316 -2.5278201 -0.21889117
-2.2530012 -2.4865589 -0.21610409
-2.2729363 -2.4778299 -0.21663137
-2.277915 -2.4528804 -0.21550147
-2.3332362 -2.4817064 -0.21994576
-2.3491075 -2.4680653 -0.22002108
-3.3491235 -3.4750643 -0.32721111
-3.1934638 -3.2732046 -0.30807811
-3.197367 -3.2372351 -0.30634561
-3.3998263 -3.4001398 -0.32585526
-3.2602673 -3.220875 -0.30883139
-3.4748454 -3.3908865 -0.32939559
-2.4830754 -2.3939805 -0.22318481
-3.4381843 -3.273746 -0.3212603
-2.5623968 -2.4104557 -0.22838235
-2.6158662 -2.4306495 -0.23237467
-3.0914855 -2.8371685 -0.27960458
-2.6484528 -2.4010439 -0.23267598
-2.5776823 -2.3082778 -0.2240134
-2.6807065 -2.3710041 -0.23297729
-2.7530448 -2.4050069 -0.23877746
-3.5780637 -3.0867734 -0.31960312
-2.675308 -2.279882 -0.22815637
-3.4180257 -2.8763928 -0.30009347
-15.426032 -12.81542 -1.4776021
-15.550632 -12.758473 -1.4821217
-3.3936861 -2.7508488 -0.29263613
-15.716928 -12.575403 -1.4831762
-4.1055708 -3.2449248 -0.35794446
-3.8156307 -2.9780207 -0.3282657
-16.103733 -12.405674 -1.4982417
-16.191456 -12.315684 -1.4993715
-3.1832528 -2.3917561 -0.26340932
-3.1810467 -2.3597083 -0.26182747
-3.1415527 -2.3006873 -0.25678056
-16.342524 -11.808918 -1.4857374
-16.473127 -11.750108 -1.4911609
-3.0137706 -2.1230774 -0.24111259
-3.0422995 -2.1153562 -0.24254379
-3.0733137 -2.1090565 -0.24420099
-3.123358 -2.11531 -0.24759069
-3.2009573 -2.1393044 -0.25346619
-3.3180983 -2.1882145 -0.26288202
-3.5220592 -2.2917573 -0.28005654
-3.6350887 -2.333643 -0.28894511
-3.6518669 -2.3128946 -0.2891711
-5.7771425 -3.6086619 -0.4771868
-17.258657 -10.631167 -1.4938726
-3.6145635 -2.1971364 -0.28216571
-3.5920503 -2.1533926 -0.27900198
-3.7133694 -2.1952209 -0.28849316
-3.7112598 -2.1633599 -0.28713727
-17.778114 -10.212476 -1.5114238
-17.846518 -10.106639 -1.5119511
-3.9698703 -2.2171516 -0.30611962
-3.9449582 -2.171603 -0.30280524
-3.9257741 -2.1297712 -0.30001813
-3.8701665 -2.0689921 -0.29414266
-3.923378 -2.0665722 -0.29760769
-3.8669384 -2.0066535 -0.29173219
-3.9333465 -2.0105593 -0.29632714
-3.9527352 -1.9899721 -0.29692975
-16.972555 -8.4102879 -1.3935374
-7.6674385 -3.7416816 -0.60712552
-7.6902528 -3.6945646 -0.60712552
-17.319212 -8.1885052 -1.4098079
-5.7541227 -2.6783285 -0.44208449
-5.7441549 -2.6309345 -0.43990001
-19.242661 -8.6680765 -1.5569212
-5.8225045 -2.5808461 -0.44374168
-5.8382306 -2.5450714 -0.44374168
-5.8179903 -2.4938858 -0.44080395
-19.537811 -8.2303848 -1.5641526
-11.362314 -4.7050729 -0.89163488
-11.381733 -4.6315088 -0.8908816
-9.6108341 -3.8425183 -0.74452162
-9.6481533 -3.7889409 -0.74565154
-11.58694 -4.4682121 -0.90074944
-11.677555 -4.4210339 -0.90587163
-11.940018 -4.4368043 -0.92485398
-12.006364 -4.3778014 -0.92801774
-12.038633 -4.3060641 -0.92846966
-12.062006 -4.2311254 -0.9282437
-12.215986 -4.2011256 -0.93848813
-11.577229 -3.9022496 -0.88553339
-7.8029723 -2.5772824 -0.58339757
-7.805356 -2.5250607 -0.58234304
-12.432339 -3.9370835 -0.94775337
-12.595325 -3.9038138 -0.95875108
-12.682023 -3.8455489 -0.96372265
-12.754138 -3.782115 -0.96756428
-12.925557 -3.7468047 -0.97923994
-12.933912 -3.6633496 -0.97811007
-9.7018957 -2.6840348 -0.72305351
-9.7037411 -2.6205568 -0.72192359
-12.843903 -3.3837717 -0.96598244
-13.009295 -3.3421037 -0.97728145
-13.253009 -3.3181424 -0.99468195
-13.078393 -3.1892929 -0.97954124
-13.048234 -3.0972445 -0.9756996
-13.123346 -3.0301306 -0.98006856
-13.126124 -2.9460576 -0.9788633
-11.539292 -2.5157812 -0.85480005
-13.281285 -2.8101368 -0.98812854
-13.469222 -2.7636511 -1.0013107
-13.446805 -2.6731799 -0.99829763
-13.476663 -2.5932581 -0.99935222
-13.597219 -2.5300272 -1.0074122
-13.493731 -2.4252152 -0.99829763
-13.618399 -2.3614452 -1.0067343
-13.643452 -2.2796466 -1.0075629
-13.707393 -2.203958 -1.0114045
-13.886219 -2.1453741 -1.0240594
-13.974087 -2.0712345 -1.0297842
-14.502876 -2.058706 -1.0691801
-14.53401 -1.9722253 -1.0706114
-15.949111 -2.0645545 -1.1775001
-16.64535 -2.0508649 -1.229551
-22.649618 -2.6492441 -1.6852781
-22.683289 -2.5121937 -1.6866339
-22.885717 -2.3925507 -1.7008708
-0 -0 -0
-25.801865 -2.377564 -1.9199964
-0 -0 -0
-25.858919 -2.0631342 -1.9222562
-25.88402 -1.9053791 -1.9232355
-25.914125 -1.7477959 -1.9246666
-25.899481 -1.5872332 -1.9227835
-25.905745 -1.4281225 -1.9225576
-25.906052 -1.2687511 -1.9219549
-25.900398 -1.1092166 -1.9209757
-25.87981 -0.94928819 -1.9189419
-25.880165 -0.79032284 -1.9185653
-25.850634 -0.63068485 -1.9160041
-25.848036 -0.47194752 -1.9155521
-25.831499 -0.31310931 -1.9141209
-25.83094 -0.15459245 -1.9139702
-25.828411 0.0039055401 -1.9137443
-25.833883 0.16242351 -1.9141963
-25.826418 0.32085958 -1.9137443
-25.80901 0.47904322 -1.9126143
-25.798605 0.63722265 -1.9120871
-25.771286 0.79479986 -1.9103546
-25.730051 0.95158625 -1.9076428
-25.661963 1.1067783 -1.9029726
-25.682575 1.2655916 -1.9050817
-25.649435 1.4217724 -1.9031986
-25.604399 1.5769192 -1.9004868
-25.569368 1.732309 -1.8986036
-22.296288 -0.56786984 -1.9176623
-22.281424 -0.43070483 -1.9160904
-22.270699 -0.29380941 -1.9149551
-22.264112 -0.15709706 -1.9142565
-22.255692 -0.020475671 -1.9134705
-22.23946 0.11600022 -1.9120733
-22.221395 0.25226486 -1.9105886
-22.207476 0.38839921 -1.9095407
-22.188742 0.52427822 -1.9081434
-22.166187 0.65985304 -1.9064841
-22.15077 0.79545671 -1.9055235
-22.149454 0.93152368 -1.9058728
-22.133371 1.0669332 -1.9049995
-22.11845 1.2022885 -1.9043009
-22.101707 1.3374407 -1.9035149
-22.080162 1.4721677 -1.9023796
-21.97434 1.6006033 -1.8939086
-22.023691 1.7401119 -1.8991485
-22.005651 1.8746222 -1.8985372
-21.963972 2.0068922 -1.8959173
-21.935381 2.1400754 -1.8945199
-21.908957 2.2732918 -1.8933847
-21.864889 2.4044137 -1.8907648
-21.832901 2.5365748 -1.8892802
-21.806049 2.6691601 -1.8883196
-21.776417 2.8012571 -1.8871843
-21.749933 2.9336238 -1.8863983
-21.734484 3.0674412 -1.8866603
-21.715252 3.2007437 -1.8866603
-21.690281 3.3331695 -1.8862237
-21.67729 3.4674542 -1.8869222
-21.646763 3.5989282 -1.8861363
-21.609547 3.7291417 -1.8848264
-21.573511 3.8593848 -1.8836911
-21.528854 3.9878747 -1.8818572
-21.488325 4.1168995 -1.8804599
-21.448002 4.2457705 -1.8791499
-21.407883 4.3745012 -1.8779273
-21.36894 4.5033102 -1.8768793
-21.329224 4.6318064 -1.8758315
-21.300404 4.7625928 -1.8758315
-21.281458 4.8956561 -1.8767921
-21.177341 5.0087204 -1.870155
-21.190739 5.1493874 -1.8741722
-21.216736 5.2937832 -1.8794119
-21.143322 5.4134898 -1.8757441
-21.150175 5.5537467 -1.8794119
-21.209009 5.7085299 -1.8878829
-21.238886 5.8565645 -1.8938214
-21.21118 5.9892097 -1.8946073
-21.205614 6.1283727 -1.8974892
-21.203913 6.2691045 -1.9008077
-21.20319 6.4106226 -1.9043009
-21.192009 6.5494261 -1.9069208
-21.19702 6.6937327 -1.9111125
-21.192524 6.8355947 -1.9145185
-21.189924 6.9785881 -1.9181863
-21.186363 7.1218061 -1.9218541
-21.173363 7.2623343 -1.924736
-21.162254 7.4039574 -1.9278799
-21.147388 7.544713 -1.9307617
-21.128782 7.6845431 -1.9333817
-21.123266 7.8296218 -1.9373115
-21.107445 7.9714022 -1.9403681
-21.131588 8.1290188 -1.9472671
-21.063688 8.2516232 -1.9456078
-21.154232 8.4371738 -1.9589692
-21.12237 8.5750589 -1.9608904
-21.14946 8.7375927 -1.9684881
-21.131264 8.8822527 -1.971894
-21.139568 9.0387669 -1.9779197
-21.154966 9.1992912 -1.9847314
-21.119987 9.3385906 -1.9868274
-21.130436 9.4986362 -1.9933771
-21.104374 9.6430149 -1.996521
-21.097212 9.7966614 -2.001586
-21.114185 9.9624834 -2.0090964
-21.093082 10.111227 -2.0130262
-21.074532 10.26183 -2.0173054
-21.042423 10.406404 -2.0203619
-21.03693 10.564827 -2.0261257
-21.034719 10.725837 -2.032326
-20.990627 10.866151 -2.0345094
-21.00028 11.035055 -2.0421071
-20.977882 11.188079 -2.0466483
-21.010466 11.371588 -2.0567784
-20.976969 11.520432 -2.0604463
-20.929382 11.662019 -2.0628042
-20.862635 11.79316 -2.063328
-20.868523 11.966041 -2.071275
-20.81193 12.103879 -2.0730217
-20.770735 12.251088 -2.0764275
-20.686623 12.373191 -2.0755541
-20.605202 12.496789 -2.0750303
-20.502678 12.607331 -2.0724103
-20.396193 12.714978 -2.0694411
-20.289158 12.821795 -2.0664721
-20.184938 12.929925 -2.0638521
-20.085169 13.040515 -2.0617561
-19.983139 13.149273 -2.0594857
-19.882189 13.258375 -2.0573897
-19.767447 13.357811 -2.0538964
-19.665384 13.465343 -2.0518005
-19.528372 13.548277 -2.0460367
-19.426945 13.655244 -2.0441155
-19.313578 13.753386 -2.0409718
-19.202972 13.852983 -2.0381773
-19.081417 13.944101 -2.0342474
-18.973879 14.044918 -2.0318894
-18.83713 14.123427 -2.0263877
-18.744562 14.234527 -2.0257764
-18.63002 14.328625 -2.0228071
-18.504026 14.413284 -2.0186152
-18.402725 14.51668 -2.0172181
-18.297741 14.616889 -2.0154715
-18.187571 14.712597 -2.013201
-18.066128 14.798667 -2.0097077
-17.951982 14.890162 -2.0070879
-17.82519 14.970562 -2.0030706
-17.697327 15.049323 -1.9989662
-17.483866 15.053634 -1.9849935
-17.4167 15.182885 -1.9879626
-17.365038 15.326381 -1.9928532
-17.238728 15.4041 -1.989098
-17.132805 15.499561 -1.987788
-16.996973 15.567389 -1.9829849
-16.861687 15.634812 -1.9782691
-16.757446 15.73048 -1.9773084
-16.633892 15.807615 -1.9740772
-16.510742 15.884518 -1.9709333
-16.401546 15.974406 -1.9695361
-16.286196 16.057959 -1.9674402
-16.164093 16.134361 -1.9645584
-16.039562 16.20775 -1.9614145
-15.927278 16.293039 -1.9598426
-15.808322 16.371113 -1.9574846
-15.692446 16.451944 -1.9555633
-15.576858 16.532696 -1.9537294
-15.461548 16.613377 -1.9519829
-15.347183 16.694735 -1.950411
-15.227715 16.770151 -1.9482276
-15.118543 16.856596 -1.9474417
-15.001616 16.934132 -1.9456952
-14.890868 17.018364 -1.9448218
-14.769229 17.089815 -1.9425513
-14.650508 17.164206 -1.9407173
-14.522442 17.227118 -1.9376608
-14.403079 17.299826 -1.9358269
-14.281473 17.369408 -1.933731
-14.167092 17.447432 -1.932683
-14.051669 17.523926 -1.9315478
-13.940169 17.605131 -1.9310237
-13.825747 17.682487 -1.9301504
-13.710901 17.759102 -1.9292772
-13.598052 17.838142 -1.9287531
-13.480556 17.910896 -1.9276179
-12.507068 16.831482 -1.800728
-13.250907 18.062925 -1.9263079
-13.129892 18.130177 -1.9248233
-13.010869 18.199863 -1.9236881
-12.882869 18.256565 -1.9212428
-12.761497 18.322189 -1.9198456
-12.640368 18.387835 -1.9185356
-12.520034 18.45433 -1.9174004
-12.400468 18.5217 -1.9164397
-12.279998 18.587465 -1.9153917
-12.160276 18.654119 -1.9145185
-12.040198 18.720003 -1.9136451
-11.458083 18.057543 -1.8372318
-11.355526 18.14102 -1.838629
-11.180672 18.107792 -1.8280622
-11.531043 18.934124 -1.9058728
-11.396696 18.974632 -1.9028163
-11.280563 19.045061 -1.9029036
-11.165502 19.117359 -1.903253
-11.048985 19.187237 -1.9034276
-9.6291771 16.961569 -1.6722661
-10.804912 19.30747 -1.9020303
-10.671324 19.346365 -1.8993231
-10.543851 19.395725 -1.8977512
-10.417586 19.446884 -1.8964412
-10.292486 19.499866 -1.8953933
-10.169426 19.556467 -1.8947819
-10.041063 19.602537 -1.8932101
-9.9111719 19.645102 -1.8913761
-9.7758179 19.676105 -1.8884943
-9.6478987 19.721401 -1.887097
-9.5128765 19.751509 -1.8843024
-9.3983326 19.82391 -1.8856996
-9.2600899 19.845997 -1.8822938
-9.1344013 19.894295 -1.8815079
-9.0068293 19.938166 -1.8803725
-8.8709717 19.963013 -1.8774906
-8.733552 19.983295 -1.8742595
-8.5981855 20.007219 -1.871465
-8.4671192 20.040331 -1.8696311
-8.3374996 20.076267 -1.8681464
-8.2077579 20.111366 -1.8666618
-8.0804939 20.152103 -1.8657886
-7.9501195 20.184622 -1.8642166
-7.8196507 20.216299 -1.8626447
-7.6908607 20.251793 -1.8615093
-7.5605378 20.282734 -1.8600248
-7.4287562 20.309095 -1.8581909
-7.2952533 20.329916 -1.8559203
-7.1574759 20.33765 -1.8525144
-7.0263777 20.363293 -1.8508551
-6.8949151 20.387148 -1.8491086
-6.7662449 20.418669 -1.848148
-6.6368327 20.447485 -1.8470126
-6.5094342 20.482126 -1.8464887
-6.3806763 20.512169 -1.8456154
-6.2517953 20.541405 -1.8447421
-6.1208062 20.563147 -1.8432574
-5.9897857 20.584055 -1.8417729
-5.8603745 20.60988 -1.8408122
-5.7338042 20.645451 -1.8408122
-5.6078005 20.683128 -1.8410742
-5.4828238 20.724854 -1.8417729
-5.3582931 20.768715 -1.8427335
-5.2288141 20.793472 -1.8420348
-5.0963888 20.805813 -1.8402883
-4.9688621 20.837662 -1.8403757
-4.8451881 20.886196 -1.8420348
-4.7180376 20.920391 -1.8424715
-4.592782 20.963543 -1.8437815
-4.4671741 21.005945 -1.8450915
-3.0509944 14.792773 -1.2865312
-2.9552886 14.786794 -1.284348
-2.8291106 14.621756 -1.2680173
-2.7206476 14.538963 -1.2591097
-2.6312096 14.554403 -1.2590224
-2.5327809 14.518262 -1.2543939
-2.4234958 14.413679 -1.2437397
-2.3327811 14.414511 -1.2425171
-2.2430663 14.420678 -1.2418184
-2.1311524 14.277514 -1.227933
-1.9986545 13.976727 -1.2001623
-1.9071876 13.947274 -1.1964943
-1.809453 13.865861 -1.1882854
-1.7331864 13.94788 -1.1945732
-1.6544625 14.016621 -1.1997256
-1.5576862 13.930478 -1.1912546
-1.4815998 14.028934 -1.1991143
-1.4108694 14.192402 -1.2127377
-1.3081293 14.033164 -1.197979
-1.2784184 14.688981 -1.2550052
-1.1889069 14.704492 -1.2557038
-1.1344314 15.190334 -1.2977967
-1.0540782 15.384846 -1.3143021
-0.94570446 15.167318 -1.2946528
-0.86100936 15.322027 -1.3077524
-0.72563368 14.501227 -1.2352687
-0.63672954 14.507397 -1.2354434
-0.57195419 15.153109 -1.2917709
-0.51338607 16.244614 -1.3872223
-0.38641602 15.176912 -1.2933429
-0.29436412 15.234773 -1.2982334
-0.19062883 14.460336 -1.2302036
-0.10189828 14.461234 -1.2302036
-0.013273246 14.578139 -1.2404212
0.078398116 15.005301 -1.2778856
0.16619976 14.628007 -1.244875
0.25541294 14.595835 -1.2421678
0.34571889 14.625861 -1.2449623
0.4493188 15.089471 -1.2858325
0.53210682 14.813652 -1.2619042
0.6215691 14.776268 -1.2589351
0.71179134 14.763221 -1.2581491
0.76717603 14.111018 -1.2012975
0.85398579 14.110023 -1.2016468
0.94054717 14.104517 -1.2016468
1.0243962 14.061719 -1.1984156
1.107677 14.017431 -1.1950971
1.1923974 13.995482 -1.1937872
1.2791559 13.997823 -1.1946604
1.3647307 13.986736 -1.1943985
1.4474422 13.948373 -1.1917785
1.5322385 13.932298 -1.1911672
1.6160873 13.90878 -1.1899446
1.7074504 13.948043 -1.1943111
1.7815646 13.84838 -1.1864514
1.8695652 13.859894 -1.1884601
1.9581919 13.873809 -1.1907307
2.0474951 13.890113 -1.1932632
2.1348028 13.891072 -1.1944858
2.2207835 13.88263 -1.1949224
2.3121314 13.906085 -1.198241
2.399955 13.906362 -1.1995509
2.4852376 13.891374 -1.1995509
2.6107023 14.093317 -1.2189381
2.6669521 13.919512 -1.2048781
2.7486353 13.884318 -1.2032188
2.8415534 13.905256 -1.2066246
2.9362698 13.932399 -1.2106417
3.0352306 13.976423 -1.2162309
3.13006 13.998368 -1.2198987
3.2234859 14.011907 -1.222868
3.3149033 14.015131 -1.2249638
3.4095387 14.030344 -1.2281951
3.503521 14.041055 -1.231077
3.6195049 14.136065 -1.2416438
3.7132578 14.140569 -1.244089
3.7999527 14.117518 -1.244089
3.8859751 14.092016 -1.2439144
3.966414 14.046815 -1.2419931
4.0525289 14.022213 -1.2419931
4.13482 13.984665 -1.2408578
4.2364058 14.011477 -1.2456609
4.3290639 14.007109 -1.2476696
4.4686213 14.150323 -1.2633015
4.5293703 14.04205 -1.2558786
4.6120176 14.003586 -1.2549179
4.7067423 14.001463 -1.2573631
4.8054924 14.010012 -1.2608563
4.9518943 14.153276 -1.276925
5.024251 14.08228 -1.2731698
5.1575489 14.180382 -1.2852212
5.2437687 14.1466 -1.2850466
5.3325834 14.11975 -1.2855706
5.4330688 14.123025 -1.2889764
5.5868425 14.26102 -1.3051324
5.6642776 14.201488 -1.3027745
5.734448 14.124929 -1.2988447
5.8164449 14.078429 -1.2977967
5.9884109 14.246349 -1.3171839
6.0310664 14.104917 -1.3072283
6.105979 14.041152 -1.3046957
6.224246 14.07631 -1.3116821
6.354609 14.135983 -1.3211137
6.448678 14.113035 -1.3226857
6.5464802 14.097597 -1.3250436
6.6570878 14.108516 -1.3300214
6.7762556 14.135675 -1.3366584
6.8615546 14.091144 -1.3363965
6.9863052 14.126464 -1.3439941
7.0853701 14.108257 -1.3464394
7.2328925 14.184325 -1.3582288
7.3307805 14.160911 -1.3603247
7.4203124 14.120955 -1.3608487
7.5086923 14.078674 -1.3611981
7.6077385 14.055991 -1.3635559
7.7556996 14.121686 -1.3748214
7.844142 14.077312 -1.3751708
8.0034113 14.158134 -1.3881829
8.1079712 14.13987 -1.3913268
8.2065992 14.110521 -1.3934226
8.2864456 14.048747 -1.3922874
8.4675999 14.156654 -1.4085307
8.6421213 14.249234 -1.4233767
8.6996489 14.14757 -1.418399
8.8300323 14.164089 -1.4256473
9.013629 14.262909 -1.4415413
9.1697521 14.314706 -1.4527194
9.2948427 14.315824 -1.4587452
9.3704615 14.240214 -1.4568239
9.4781103 14.213116 -1.4600551
9.5729504 14.166247 -1.4612777
9.7120333 14.183685 -1.4693995
11.738028 16.918999 -1.76763
11.834172 16.836061 -1.7664948
11.93032 16.753395 -1.7654468
12.03872 16.687956 -1.7663201
12.141477 16.614576 -1.7664074
12.243193 16.539766 -1.7664074
12.000843 16.006031 -1.7161928
12.08437 15.913054 -1.714097
12.184819 15.842554 -1.7145337
12.131823 15.574944 -1.6931379
11.822438 14.987128 -1.6358497
11.890549 14.884727 -1.6325312
11.982283 14.812263 -1.6326184
12.038224 14.696076 -1.6278154
12.1269 14.620401 -1.6276407
12.88907 15.346704 -1.7193367
13.002997 15.290855 -1.722044
13.119325 15.237206 -1.7251005
13.2309 15.177445 -1.7275457
13.366625 15.144525 -1.7332221
13.501115 15.109022 -1.738724
13.641685 15.079086 -1.7450117
13.799216 15.066358 -1.7534827
13.921204 15.013545 -1.7573252
14.016472 14.931476 -1.7577618
14.118806 14.856745 -1.7591591
14.211771 14.771988 -1.7594211
14.307008 14.689504 -1.7600324
14.419252 14.624141 -1.7628269
14.512936 14.53962 -1.7633508
14.606124 14.454502 -1.7638749
14.722322 14.391767 -1.7672807
14.876995 14.365517 -1.7754024
15.032619 14.338595 -1.7836114
15.21312 14.33353 -1.7947896
15.404332 14.336287 -1.8071903
15.648216 14.385102 -1.8257916
15.808461 14.354445 -1.8343499
15.967433 14.321031 -1.8427335
16.1758 14.329802 -1.8568809
16.393869 14.344422 -1.8720763
16.586342 14.334104 -1.8842151
16.799 14.338776 -1.8986244
17.011574 14.340731 -1.9129465
17.281452 14.387781 -1.933731
17.490984 14.381439 -1.9475291
17.70495 14.376203 -1.9617637
17.971577 14.410633 -1.9818496
18.17837 14.39409 -1.9951236
18.352671 14.349776 -2.00473
18.500301 14.283165 -2.0113671
18.559864 14.148242 -2.0083106
18.651102 14.037689 -2.0088344
18.720894 13.9111 -2.0070879
18.734411 13.743526 -1.9993155
18.747389 13.576895 -1.9916304
18.767132 13.416417 -1.9848188
18.804335 13.269422 -1.9800156
18.833084 13.117351 -1.9744265
18.868067 12.970508 -1.9696234
18.888767 12.814781 -1.963423
18.928965 12.673146 -1.9594059
18.984758 12.542484 -1.9571353
19.028814 12.404543 -1.9537294
19.087812 12.276773 -1.9519829
19.123249 12.134336 -1.9478784
19.183834 12.008312 -1.9464811
19.185108 11.845889 -1.9390581
19.238714 11.716548 -1.9371368
19.25815 11.566992 -1.9318097
19.308191 11.436424 -1.9297138
19.33757 11.294122 -1.9256094
19.35989 11.148411 -1.9208935
19.392412 11.009246 -1.917313
19.436996 10.8774 -1.9150424
19.468483 10.738686 -1.9115492
19.498999 10.599996 -1.908056
19.529427 10.461806 -1.9046502
19.560656 10.324573 -1.901419
19.546745 10.164371 -1.8938214
19.556433 10.017447 -1.8886689
19.562389 9.8694401 -1.8832544
19.592247 9.7341509 -1.8802853
19.597021 9.5870476 -1.8749582
19.627653 9.4532213 -1.8722509
19.610577 9.2971888 -1.8650025
19.61941 9.1543598 -1.8603741
19.614555 9.0059538 -1.8545229
19.598633 8.8534422 -1.8477113
19.574299 8.6982298 -1.8402009
19.593529 8.563199 -1.8369697
19.608177 8.4266872 -1.8333893
19.626478 8.2922564 -1.8302454
19.64571 8.1586838 -1.8272761
19.656664 8.0221767 -1.8236083
19.673155 7.8884377 -1.8205518
19.67021 7.7474971 -1.8157487
19.696938 7.6187506 -1.8138274
19.696751 7.4800649 -1.8094609
19.747877 7.3611546 -1.8099849
19.725313 7.2152047 -1.8036972
19.748585 7.0866342 -1.8017759
19.783239 6.9623494 -1.80099
19.781328 6.8255577 -1.7968855
19.82378 6.7043724 -1.7969728
19.853197 6.5788493 -1.7959248
19.8894 6.4556785 -1.7955755
19.934334 6.3353286 -1.7960995
19.98805 6.217629 -1.7974968
20.042978 6.1000886 -1.7990687
20.10199 5.9835296 -1.8010772
20.154587 5.8648052 -1.8025619
20.197859 5.7432084 -1.8032606
20.242317 5.6218348 -1.8041338
20.283161 5.4993491 -1.8047451
20.326153 5.3773384 -1.8056184
20.366482 5.2545094 -1.8063171
20.411865 5.1328454 -1.8075397
20.450716 5.0094004 -1.8082383
20.486881 4.8852091 -1.8087623
20.524235 4.7612133 -1.8094609
20.558893 4.6365042 -1.8099849
20.586954 4.5102701 -1.8099849
20.620089 4.3851094 -1.8105088
20.641727 4.2574983 -1.8100722
20.661602 4.129591 -1.8095483
20.691442 4.0036826 -1.8099849
20.724432 3.8782961 -1.8107709
20.759602 3.7531874 -1.8118188
20.801867 3.6291628 -1.8135654
20.845356 3.5050912 -1.8154867
20.890072 3.3809407 -1.8175826
20.934048 3.2563732 -1.8196785
20.971369 3.1305108 -1.8212504
20.998072 3.0029023 -1.821949
21.040775 2.8773787 -1.8241323
21.079767 2.7510574 -1.8260535
21.113056 2.6237514 -1.8275381
6.9143772 0.81593829 -0.57278633
6.9261837 0.7742722 -0.57339764
6.8456068 0.72275919 -0.56588727
6.8439651 0.68015027 -0.56536329
6.8380904 0.63721883 -0.56449002
6.8319473 0.59438509 -0.56361669
6.8314943 0.55213261 -0.56326741
6.8268061 0.50961125 -0.56256872
6.8198662 0.46703199 -0.56169546
6.8146496 0.42468113 -0.56099683
6.8141432 0.38269147 -0.56073481
6.8103933 0.34057459 -0.56021082
6.8083739 0.29860556 -0.55986154
6.8060961 0.25667414 -0.5595122
6.7955947 0.21452999 -0.55846423
6.8007665 0.17293049 -0.55881357
6.8046875 0.13125633 -0.55907559
6.8103452 0.089566872 -0.5595122
6.8127589 0.047791786 -0.5596869
6.8258743 0.0060007316 -0.56082213
6.822794 -0.035866626 -0.56056017
6.8493409 -0.078034662 -0.56291807
6.8626776 -0.12030359 -0.56414068
6.8677855 -0.162551 -0.56466466
6.8646674 -0.20462863 -0.56449002
6.8861799 -0.24756745 -0.56649858
6.8994608 -0.29044318 -0.56780851
6.902524 -0.33301175 -0.56824517
6.9471021 -0.37789899 -0.57234967
18.578684 -1.1243163 -1.5941061
18.419357 -1.228155 -1.5807446
18.372726 -1.3383292 -1.5773388
18.327425 -1.4481344 -1.5741076
18.244743 -1.5543063 -1.5676452
18.1803 -1.6612401 -1.5628421
14.281204 -1.3934543 -1.2203354
18.071348 -1.8751694 -1.5551571
18.058512 -1.985909 -1.5550698
10.582985 -1.2297539 -0.89642984
10.57524 -1.2946666 -0.89642984
10.566109 -1.3594036 -0.89634252
10.549671 -1.4231454 -0.89564389
10.591047 -1.4949491 -0.90009767
10.59153 -1.5613588 -0.900971
13.853657 -2.1290538 -1.1911672
13.825577 -2.2116582 -1.1898574
18.164097 -3.0199759 -1.5766401
18.143261 -3.1310329 -1.5764655
14.55525 -2.6039889 -1.2586731
17.98299 -3.3311281 -1.565724
13.443037 -2.5756743 -1.1623485
18.110796 -3.5852127 -1.5809194
18.081623 -3.694875 -1.5803081
18.052763 -3.8045199 -1.579784
18.005716 -3.9101448 -1.5776881
17.92597 -4.008163 -1.5727104
17.812695 -4.0977578 -1.5647633
17.751347 -4.1984944 -1.5615321
17.712666 -4.3042779 -1.5603969
17.662725 -4.4070921 -1.558301
8.2067728 -2.1014986 -0.7050907
8.1946878 -2.1520679 -0.70517802
17.447788 -4.6962485 -1.5464242
7.7163005 -2.1280146 -0.66413307
7.7385697 -2.1853359 -0.6673643
17.277042 -4.9931026 -1.5390011
8.0245104 -2.372771 -0.69600838
7.9840541 -2.41418 -0.69365048
7.9605246 -2.4604769 -0.69286454
8.0032244 -2.5275729 -0.69819164
16.863558 -5.439384 -1.5157714
16.833651 -5.5440006 -1.5161208
7.8203144 -2.6290703 -0.68570352
16.759638 -5.7485423 -1.5156841
16.705244 -5.8446898 -1.5139375
16.667191 -5.9464121 -1.5137628
16.59856 -6.0369921 -1.5107937
16.496754 -6.1148367 -1.5047679
16.375048 -6.1842694 -1.4969083
16.303322 -6.2717528 -1.4937644
16.236706 -6.3607697 -1.4911445
16.152031 -6.442194 -1.4868654
16.074354 -6.5258174 -1.4832848
16.027565 -6.6216621 -1.4826735
15.983879 -6.7187228 -1.4824115
15.919454 -6.806881 -1.4802283
15.856376 -6.8952961 -1.4782197
15.787347 -6.9807768 -1.4756871
15.723319 -7.068121 -1.4736786
15.640692 -7.1466632 -1.4699234
15.564923 -7.2278142 -1.4668669
15.514875 -7.320632 -1.4663429
15.460682 -7.411386 -1.4654696
15.393419 -7.495645 -1.4633737
15.337315 -7.5850987 -1.4624131
15.288704 -7.6781697 -1.4622384
15.235979 -7.7691197 -1.4617144
15.17829 -7.8574224 -1.4607538
15.126266 -7.9485531 -1.4604045
13.002788 -6.934916 -1.2543066
14.975896 -8.1056023 -1.4552521
14.911035 -8.189188 -1.4537674
14.859635 -8.2800417 -1.45368
14.809418 -8.3715525 -1.4537674
12.457274 -7.1432066 -1.221296
12.612134 -7.3351946 -1.2414691
12.584908 -7.4230709 -1.2433031
13.029 -7.7931466 -1.2933429
14.396592 -8.7314892 -1.4384848
14.318985 -8.8050499 -1.4360396
14.238482 -8.8764076 -1.4333323
12.262861 -7.7497401 -1.2341335
14.092412 -9.0273619 -1.4295771
14.02673 -9.107152 -1.4285291
13.965592 -9.1897621 -1.4280052
13.913915 -9.2785959 -1.4285291
13.876531 -9.3771811 -1.4306251
13.827773 -9.4683409 -1.4315857
13.786605 -9.5649328 -1.4334196
13.740696 -9.6585112 -1.4348168
13.802895 -9.8293152 -1.4479164
13.858662 -9.9977474 -1.4604918
13.743166 -10.043215 -1.4546407
13.641249 -10.097718 -1.4502742
13.518458 -10.135814 -1.4436371
13.397303 -10.173989 -1.4371748
13.327518 -10.250536 -1.4363889
13.232148 -10.307021 -1.4328083
13.112343 -10.343597 -1.4265206
13.000372 -10.385311 -1.4211061
12.831845 -10.380305 -1.4093167
12.750957 -10.444958 -1.4073954
12.690462 -10.526179 -1.407832
12.622584 -10.601286 -1.4074827
12.546674 -10.669502 -1.4062601
12.473421 -10.739786 -1.4053868
12.410292 -10.818738 -1.4057361
12.331725 -10.884136 -1.4043388
12.256538 -10.952295 -1.4033782
12.162511 -11.003235 -1.4002343
12.059505 -11.045361 -1.3960426
11.958632 -11.088669 -1.3921127
11.865674 -11.138657 -1.3891435
11.782662 -11.197529 -1.3873969
11.705119 -11.261327 -1.386349
11.607255 -11.305135 -1.3828558
11.473825 -11.313196 -1.3749961
11.36894 -11.348198 -1.3706297
11.311708 -11.430489 -1.3722016
11.272696 -11.531735 -1.3761314
11.240478 -11.640817 -1.3810219
11.186029 -11.727589 -1.3832051
11.10088 -11.782228 -1.3815458
6.9555869 -7.4740782 -0.85748082
10.92377 -11.883098 -1.3774413
10.840606 -11.938838 -1.3761314
10.723247 -11.956185 -1.3703676
6.7443061 -7.6134453 -0.85407501
6.6843438 -7.6396904 -0.85232842
6.5663409 -7.5984068 -0.8428095
10.254563 -12.014201 -1.3471379
10.178083 -12.07385 -1.3467886
10.103808 -12.136073 -1.3467886
10.025356 -12.193224 -1.3462647
9.9503517 -12.254509 -1.3462647
9.884943 -12.327767 -1.347662
9.8122072 -12.392093 -1.3480986
2.036927 -2.6056921 -0.25237396
1.9898521 -2.5779276 -0.24792017
1.9679574 -2.5821662 -0.24704687
1.9514774 -2.5933969 -0.24695954
1.9373105 -2.6077209 -0.24722153
1.9248089 -2.6243782 -0.2477455
1.9302894 -2.6659913 -0.25097671
1.951553 -2.7304599 -0.25665313
9.1115417 -12.912348 -1.3478366
1.8900001 -2.7141488 -0.25237396
1.8891124 -2.7486799 -0.25481921
1.869974 -2.7569222 -0.25446987
1.8546853 -2.7708275 -0.25473186
8.6864595 -13.148364 -1.3439068
8.6007223 -13.193905 -1.3431208
8.4851151 -13.192808 -1.3375317
8.3709145 -13.192473 -1.3321173
8.2993231 -13.258787 -1.3336892
8.2303734 -13.329804 -1.3357852
8.1183748 -13.330707 -1.3307199
8.0241156 -13.359775 -1.3286241
7.9409752 -13.407043 -1.3284495
7.8736343 -13.481322 -1.3310694
7.8012061 -13.547508 -1.3329033
7.7248187 -13.607249 -1.3341259
7.6445866 -13.660477 -1.3347372
7.5692844 -13.722827 -1.3363091
7.4901738 -13.77864 -1.3372697
7.3993735 -13.812924 -1.3361344
7.2963438 -13.823708 -1.3327286
7.1998954 -13.846121 -1.3305453
7.1116223 -13.883832 -1.329934
7.019568 -13.913866 -1.3286241
6.9424839 -13.973625 -1.3302834
6.8513594 -14.005223 -1.3292354
6.7160158 -13.944683 -1.3192798
6.6324606 -13.99013 -1.3197165
6.5368052 -14.0098 -1.3177079
6.4349236 -14.015244 -1.3143893
6.3369131 -14.028136 -1.3118567
6.257596 -14.082231 -1.3133414
6.1902208 -14.164176 -1.3175333
6.1181417 -14.23667 -1.3208518
6.0326109 -14.278531 -1.3212883
5.9418292 -14.307918 -1.3205898
5.858819 -14.356097 -1.321725
5.7928672 -14.447252 -1.3269649
5.6993656 -14.470475 -1.3258295
5.6172976 -14.522826 -1.3274888
5.5362163 -14.57844 -1.3294973
5.4487481 -14.617736 -1.3300214
5.3596373 -14.652764 -1.330196
5.2682829 -14.681624 -1.3298467
5.1761146 -14.708035 -1.3293227
5.0912943 -14.755527 -1.3308073
5.0019369 -14.790263 -1.3311566
4.9035707 -14.797982 -1.3290608
4.8049908 -14.804103 -1.3268775
4.7101412 -14.820966 -1.3257422
4.6152658 -14.837221 -1.3246069
4.5226893 -14.860496 -1.3241702
4.3961787 -14.769575 -1.3133414
4.2790284 -14.705403 -1.3050451
4.2069731 -14.795581 -1.3108962
4.1566324 -14.967012 -1.3241702
4.0615897 -14.980698 -1.3231224
3.923985 -14.832952 -1.3074903
3.830658 -14.848069 -1.3067044
3.738265 -14.866464 -1.3062677
3.6481609 -14.893959 -1.3067044
3.5645614 -14.94901 -1.3096735
3.4801984 -15.002624 -1.3125554
3.3900511 -15.032441 -1.3133414
3.3007348 -15.066583 -1.314564
3.2208672 -15.145989 -1.3198911
3.1345139 -15.197663 -1.322773
3.044328 -15.23224 -1.3241702
2.9521322 -15.257479 -1.3247815
2.8591914 -15.279222 -1.3251309
2.7676904 -15.309222 -1.3262662
2.6791821 -15.357319 -1.3290608
2.5844052 -15.370522 -1.3287988
0.42651546 -2.6375453 -0.19665769
0.41108942 -2.6450346 -0.19709434
0.40558994 -2.7194312 -0.2034694
0.38367748 -2.6853812 -0.2002382
0.36246833 -2.6531403 -0.19718166
0.25102893 -1.9263177 -0.13273241
0.2398189 -1.9327645 -0.13316905
0.22818877 -1.9361783 -0.13334371
0.21453263 -1.9217019 -0.13194644
0.20305121 -1.925954 -0.13220844
0.1903428 -1.9182421 -0.13142246
0.18051136 -1.9402033 -0.13325639
0.16704789 -1.9234107 -0.13168445
0.1559657 -1.9333359 -0.13247041
0.14521328 -1.9491577 -0.13378036
0.15661542 -2.2909017 -0.16373442
0.13188846 -2.1208091 -0.14871372
0.11054124 -1.9733818 -0.13570161
0.098281272 -1.9710381 -0.13543962
0.086622439 -1.9815562 -0.13631292
0.074199006 -1.9750822 -0.13570161
0.075557172 -2.4016519 -0.17307869
0.088333264 -3.4815784 -0.26774397
0.065793522 -3.4212992 -0.26241687
0.024705622 -1.9006052 -0.12906456
0.013987556 -2.0342057 -0.14076672
0.002420546 -3.0095124 -0.22626242
-0.013829368 -2.5831115 -0.18888535
-0.029633623 -2.5789938 -0.18853603
-0.057012416 -3.2401257 -0.24652289
-0.078279659 -3.2984729 -0.25167534
-0.10189432 -3.4114447 -0.26163092
-0.11767912 -3.2673979 -0.24905545
-0.13521485 -3.2068963 -0.24381568
-0.15417024 -3.1910808 -0.24250573
-0.16320746 -2.9961059 -0.22547646
-0.18152799 -2.9940538 -0.22538912
-0.20546107 -3.0763774 -0.23272482
-1.1672903 -16.023977 -1.3708916
-1.2644129 -16.001617 -1.3695817
-1.3607134 -15.971721 -1.3676604
-1.4576914 -15.952159 -1.3666998
-1.5509024 -15.895323 -1.3625079
-0.30776134 -2.9626899 -0.22355521
-0.32451895 -2.9478729 -0.22241992
-1.7611492 -15.157562 -1.3001547
-1.8555733 -15.158336 -1.3012025
-0.48458257 -3.7644379 -0.29516548
-0.50767159 -3.7613938 -0.29516548
-0.43121672 -3.052927 -0.23272482
-0.44848856 -3.0403683 -0.23185152
-0.46653029 -3.0336208 -0.23150219
-0.48513547 -3.0307012 -0.23150219
-0.50453919 -3.0325809 -0.23193884
-0.46740863 -2.7064576 -0.2032074
-0.48190144 -2.6917713 -0.20215945
-0.5011301 -2.7034566 -0.2034694
-0.53513962 -2.7913208 -0.21159105
-3.1668272 -15.997068 -1.3920254
-3.2549529 -15.928535 -1.387659
-3.3569407 -15.928734 -1.3894929
-0.56395227 -2.5953038 -0.19526041
-0.56443411 -2.5227699 -0.18906
-0.59017533 -2.5639172 -0.19307716
-0.6049791 -2.55637 -0.19272785
-0.61924201 -2.5468016 -0.19220388
-3.9127445 -15.681293 -1.3792753
-4.0086422 -15.656025 -1.3791879
-0.63970464 -2.4347658 -0.18312159
-0.6613633 -2.4558055 -0.18539216
-4.2670121 -15.473949 -1.3695817
-0.92044574 -3.2585649 -0.25927302
-0.94788969 -3.2786953 -0.26163092
-4.5584569 -15.417624 -1.3718523
-0.80297637 -2.654634 -0.2055653
-0.81777918 -2.6448982 -0.20512865
-4.7949791 -15.183864 -1.3583162
-5.0076165 -15.524858 -1.392462
-5.1632309 -15.677402 -1.4094039
-5.2685328 -15.67281 -1.4119365
-5.3736491 -15.666572 -1.4143817
-5.4732947 -15.643648 -1.4153425
-5.5474224 -15.548783 -1.4096659
-1.1913736 -3.2747061 -0.26791865
-5.7914753 -15.624319 -1.423202
-1.1769193 -3.1153889 -0.25438255
-1.1935093 -3.1016004 -0.25377125
-1.1961673 -3.0524788 -0.24984142
-1.2694911 -3.1820271 -0.26276621
-1.3691778 -3.3717048 -0.28145474
-1.2726902 -3.0796623 -0.25455722
-1.2579807 -2.9918983 -0.24695954
-1.2696573 -2.9685516 -0.24547493
-6.6788001 -15.358491 -1.4306251
-6.8067508 -15.393754 -1.4379607
-1.3853468 -3.0809696 -0.25857437
-1.4187148 -3.1041241 -0.26163092
-7.0104923 -15.096896 -1.4216301
-7.1004424 -15.048191 -1.4211061
-1.9281682 -4.0216079 -0.35341433
-7.3124828 -15.017246 -1.4266952
-1.3984526 -2.8269756 -0.23892522
-1.3616782 -2.7106235 -0.22835833
-1.3588266 -2.6640561 -0.22460316
-1.3852223 -2.6751313 -0.22652441
-1.4002204 -2.6639359 -0.22626242
-1.4245088 -2.6702371 -0.22774702
-1.9282985 -3.5620761 -0.31752187
-1.4624442 -2.6621599 -0.22870766
-1.4850546 -2.6644492 -0.22984293
-1.5151011 -2.6795692 -0.23228817
-1.5270544 -2.6624444 -0.23150219
-8.6327858 -14.843353 -1.4677402
-8.7237005 -14.790105 -1.4677402
-5.0544271 -8.4499855 -0.82560551
-8.9107399 -14.692159 -1.4687881
-9.0022869 -14.639753 -1.46905
-1.3599966 -2.1809008 -0.18775006
-1.3733528 -2.1725152 -0.18775006
-5.2360253 -8.1735277 -0.81337941
-5.2833662 -8.1370687 -0.81294274
-1.409276 -2.1410427 -0.18713875
-1.4080172 -2.1108062 -0.18486819
-9.712944 -14.373425 -1.4831975
-9.8071461 -14.322598 -1.4841582
-9.8795118 -14.240053 -1.4818002
-5.5890274 -7.9509435 -0.81442732
-1.6668332 -2.3400872 -0.21429826
-1.6817431 -2.3306236 -0.2143856
-1.5837519 -2.1666362 -0.19770564
-1.6758418 -2.26337 -0.20932047
-1.6640024 -2.2187719 -0.2055653
-1.6305938 -2.1466377 -0.1987536
-1.6157984 -2.1002684 -0.19473644
-1.6353885 -2.0989594 -0.19569705
-1.643918 -2.0834105 -0.19508575
-10.930579 -13.682974 -1.4976943
-10.984258 -13.578471 -1.4935024
-11.076204 -13.521606 -1.494725
-1.6220524 -1.9550283 -0.18513018
-1.6340178 -1.9450388 -0.18513018
-1.6459216 -1.934976 -0.18513018
-1.6629632 -1.9308798 -0.1858288
-1.661033 -1.9048703 -0.18399489
-1.6852144 -1.9088335 -0.18565415
-1.696895 -1.8984573 -0.18565415
-1.7232144 -1.9042621 -0.1875754
-1.7375576 -1.8965913 -0.18792473
-2.2903376 -2.4695563 -0.25770107
-2.3054473 -2.4554565 -0.25770107
-2.3328223 -2.4542627 -0.25927302
-3.4148872 -3.549058 -0.39419726
-2.3766651 -2.4397235 -0.26101962
-12.45952 -12.636484 -1.5181293
-12.544563 -12.567552 -1.5190899
-3.2545528 -3.2203279 -0.36380655
-3.3661435 -3.2901304 -0.37507206
-3.379102 -3.2624941 -0.37419879
-3.3983359 -3.2410114 -0.37411144
-12.955344 -12.206211 -1.5228451
-3.507128 -3.2635396 -0.38240775
-2.5590391 -2.3520176 -0.26713267
-3.4635758 -3.1445816 -0.37253952
-3.4664905 -3.1086371 -0.37061825
-3.4221189 -3.0311589 -0.36319524
-3.3889244 -2.9648402 -0.35716951
-3.4990046 -3.0234594 -0.36782372
-3.3826218 -2.8868117 -0.35227904
-13.556767 -11.428226 -1.5168194
-13.620508 -11.339729 -1.5161208
-3.3497751 -2.7538309 -0.34258547
-3.9203146 -3.1828434 -0.40511346
-3.8037655 -3.0496688 -0.38983077
-13.651031 -10.809102 -1.488874
-13.716313 -10.724524 -1.4887866
-13.77634 -10.6359 -1.4881753
-3.276952 -2.4976137 -0.32363492
-11.256201 -8.4717417 -1.197455
-11.259995 -8.3668652 -1.1922152
-11.357708 -8.3317938 -1.1972804
-4.0763001 -2.9516754 -0.40362886
-14.207916 -10.156964 -1.4935024
-3.0899282 -2.1800194 -0.29394287
-3.0942545 -2.1547558 -0.29298225
-3.0540586 -2.0990472 -0.28730583
-3.1493161 -2.1361976 -0.29603878
-3.1499476 -2.10852 -0.29472885
-3.1453717 -2.077621 -0.2928949
-3.1714127 -2.0669866 -0.29429218
-3.2870896 -2.1137722 -0.30503374
-5.7131863 -3.6248717 -0.5555824
-3.443661 -2.1552041 -0.31856981
-3.4296966 -2.1172853 -0.31577528
-15.113149 -9.2039413 -1.5136756
-3.6082814 -2.1668544 -0.33140728
-3.594939 -2.1289353 -0.32870007
-3.6191168 -2.1133685 -0.32983533
-15.495041 -8.9227409 -1.5299188
-15.585016 -8.847662 -1.5334994
-15.659005 -8.7630577 -1.5355079
-3.8992989 -2.1504595 -0.35280302
-3.9299247 -2.1360095 -0.35454962
-3.9306633 -2.1052699 -0.35332701
-3.9399831 -2.079252 -0.35297769
-3.9199657 -2.0380321 -0.3497465
-3.920871 -2.0080369 -0.34861121
-3.9295609 -1.9821461 -0.34826189
-7.6582532 -3.8046291 -0.71207702
-7.6671367 -3.7505627 -0.71067977
-7.6900053 -3.7034476 -0.71067977
-16.656332 -7.8965421 -1.5783868
-10.036853 -4.68295 -0.93337029
-5.779685 -2.6534095 -0.51995188
-5.7613592 -2.6023114 -0.51663339
-5.7936044 -2.5741932 -0.51820529
-5.81568 -2.5413885 -0.51881659
-10.145576 -4.3598871 -0.93048841
-10.17489 -4.2987161 -0.93075037
-10.306873 -4.2801433 -0.94079328
-10.318185 -4.2107978 -0.93939602
-10.205136 -4.0917926 -0.92629659
-9.6192436 -3.7885063 -0.86874634
-10.477562 -4.0525055 -0.94725567
-10.485468 -3.9817739 -0.94568378
-10.353819 -3.8592515 -0.93109971
-10.371691 -3.7935956 -0.93057573
-10.559795 -3.7891057 -0.94594574
-10.444714 -3.6756244 -0.93310827
-10.419986 -3.5952201 -0.92874181
-7.7910905 -2.6346772 -0.68343294
-7.8108921 -2.5880756 -0.68378222
-10.42944 -3.3849745 -0.92367667
-10.450964 -3.3212187 -0.92376399
-10.493975 -3.264132 -0.92585993
-10.530006 -3.204612 -0.92734456
-10.396708 -3.0944662 -0.9133718
-10.941574 -3.1837091 -0.96140307
-10.919701 -3.1047962 -0.95764792
-10.856 -3.0148087 -0.95013756
-9.7080402 -2.631912 -0.84420675
-10.984631 -2.9058223 -0.95852119
-11.079421 -2.8582776 -0.96550757
-11.126699 -2.7977734 -0.96821481
-11.166879 -2.7351372 -0.97031069
-11.199924 -2.6704955 -0.97179532
-10.998728 -2.5512938 -0.95223349
-11.417459 -2.5747168 -0.98847526
-11.452504 -2.5088763 -0.99022186
-11.290345 -2.4008412 -0.97432786
-11.250228 -2.3202496 -0.96943742
-11.475254 -2.2933524 -0.98830062
-11.514539 -2.2278192 -0.99057114
-11.566179 -2.1642725 -0.99397701
-11.591004 -2.0953898 -0.99502498
-11.974595 -2.0889542 -1.0280355
-11.722925 -1.9710001 -1.0045439
-11.995395 -1.9412135 -1.0276862
-13.241441 -2.0596082 -1.1371976
-13.454822 -2.0083287 -1.1550128
-14.25482 -2.0384295 -1.2247891
-15.176078 -2.0752532 -1.3052198
-15.882949 -2.072736 -1.3666124
-15.728299 -1.954476 -1.3518537
-19.50827 -2.3028324 -1.6844922
-20.362549 -2.2770982 -1.758635
-20.947752 -2.2124979 -1.8090243
-22.311071 -2.2181795 -1.9279672
-22.344099 -2.0830891 -1.9297138
-22.287983 -1.9399875 -1.9236881
-22.335213 -1.8060857 -1.926832
-22.348854 -1.6692281 -1.9270939
-22.338799 -1.5307043 -1.9253473
-22.331863 -1.3926148 -1.9239501
-22.321089 -1.2545004 -1.9222908
-22.315434 -1.1168696 -1.9211555
-22.303951 -0.97913694 -1.9195836
-22.301577 -0.84196323 -1.9188849
-22.299353 -0.70488703 -1.9182736
-19.436756 1.4330013 -1.9144238
-19.405777 1.5504912 -1.9122312
-19.369131 1.6672281 -1.9095402
-19.335749 1.7839396 -1.9072478
-19.303642 1.9004993 -1.9051548
-19.277763 2.0174577 -1.9037595
-19.249199 2.1339507 -1.9021648
-19.226849 2.2509797 -1.9012678
-19.197861 2.3670835 -1.8997728
-19.176069 2.4839399 -1.8990752
-19.150606 2.6002159 -1.8980784
-19.131336 2.717253 -1.8977795
-19.108398 2.8337133 -1.8971814
-19.083767 2.9498425 -1.8964838
-19.056467 3.06546 -1.8955867
-19.03141 3.1813459 -1.8949888
-18.989964 3.2943175 -1.892796
-18.953724 3.4079576 -1.8912014
-18.919739 3.5218232 -1.8899057
-18.888981 3.636153 -1.8890088
-18.860458 3.7508202 -1.8884107
-18.828316 3.8646741 -1.8875138
-18.796461 3.9784811 -1.8867164
-18.766834 4.0926785 -1.8862181
-18.733603 4.2060084 -1.8854207
-18.701626 4.3195324 -1.8848227
-18.657345 4.4300637 -1.8830287
-18.621111 4.5423369 -1.8821317
-18.581306 4.6536069 -1.8809357
-18.546621 4.7660456 -1.8803377
-18.499708 4.8751907 -1.8785437
-18.486736 4.9932823 -1.8803377
-18.451916 5.1055593 -1.879939
-18.415455 5.2173257 -1.8794407
-18.380228 5.329391 -1.8791417
-18.350996 5.4432015 -1.8795403
-18.327726 5.558876 -1.8806367
-18.313231 5.6774168 -1.8827296
-18.309353 5.7995954 -1.8860188
-18.304663 5.9219394 -1.8893077
-18.300104 6.0447559 -1.8926964
-18.287184 6.1651955 -1.8952878
-18.274416 6.2860279 -1.8979788
-18.261789 6.4072647 -1.9007695
-18.268974 6.5359578 -1.9057528
-18.259375 6.6591835 -1.9090418
-18.280659 6.7943244 -1.9157195
-18.26561 6.916585 -1.9186099
-18.253462 7.0403485 -1.9218988
-18.223812 7.1576743 -1.9233938
-18.193409 7.2749009 -1.9248888
-18.187136 7.402153 -1.9290749
-18.179983 7.5296011 -1.9332609
-18.162781 7.6533756 -1.9364502
-18.146574 7.7780061 -1.9398389
-18.146849 7.9102807 -1.9451213
-18.137085 8.0388184 -1.949407
-18.120983 8.1650801 -1.9530946
-18.11487 8.2964191 -1.9579784
-18.082565 8.4162321 -1.9600713
-18.048574 8.5355349 -1.9620647
-18.037117 8.6659422 -1.9666494
-18.015795 8.7921648 -1.9702374
-18.073835 8.9582253 -1.9827955
-17.965202 9.0421124 -1.9768155
-17.959887 9.1779861 -1.9824965
-17.959759 9.3173418 -1.9888752
-17.936584 9.4454489 -1.9927622
-17.907249 9.5708075 -1.9960512
-17.876175 9.6956863 -1.9992405
-17.850342 9.8239021 -2.0031276
-17.828821 9.9550762 -2.0076125
-17.790777 10.077527 -2.0103035
-17.756216 10.202364 -2.0134928
-17.729385 10.332166 -2.017679
-17.691353 10.455947 -2.020669
-17.65588 10.581695 -2.0240576
-17.612728 10.703267 -2.026649
-17.57383 10.827839 -2.0298383
-17.534065 10.952335 -2.0330276
-17.500158 11.081011 -2.0370142
-17.461981 11.207531 -2.0406024
-17.429583 11.338341 -2.0449877
-17.397894 11.470268 -2.0495725
-17.369381 11.604998 -2.0546553
-17.322563 11.728093 -2.0576453
-17.286377 11.858931 -2.0620308
-17.233711 11.978973 -2.0645225
-17.178595 12.09767 -2.0668149
-17.12915 12.220764 -2.0699046
-17.077229 12.342541 -2.0727949
-17.01964 12.460612 -2.0750871
-16.969236 12.584369 -2.0783763
-16.916363 12.70678 -2.081466
-16.838078 12.810338 -2.081466
-16.752851 12.908555 -2.0806684
-16.664703 13.004371 -2.0795722
-16.5401 13.071211 -2.0738912
-16.428511 13.147582 -2.0699046
-16.319702 13.225583 -2.0663164
-16.194403 13.289489 -2.0606353
-16.108728 13.385426 -2.060137
-16.00193 13.463514 -2.0569477
-15.890238 13.536926 -2.0531604
-15.792562 13.621822 -2.0512667
-15.69894 13.709959 -2.0499711
-15.598124 13.791527 -2.0477784
-15.507277 13.881665 -2.0469811
-15.471204 14.021327 -2.0536587
-15.28444 14.023827 -2.0400043
-15.184981 14.105156 -2.0382104
-15.077128 14.178295 -2.03532
-14.971832 14.253386 -2.0328283
-14.871199 14.332554 -2.0310342
-14.768021 14.408938 -2.0289414
-14.662342 14.4825 -2.0265493
-14.556317 14.555307 -2.0241573
-14.458343 14.635855 -2.0229614
-14.357843 14.713611 -2.0214663
-14.248649 14.782088 -2.0187752
-14.145329 14.856266 -2.0169814
-14.032094 14.919585 -2.0137918
-13.925386 14.989366 -2.0115993
-13.816334 15.056199 -2.0091076
-13.706317 15.121522 -2.0065162
-13.594028 15.183838 -2.0036259
-13.481493 15.245346 -2.0007355
-13.359551 15.295553 -1.9964498
-13.258299 15.36895 -1.9953535
-13.15794 15.443195 -1.9944565
-13.039232 15.49547 -1.9907688
-12.931826 15.560645 -1.9888752
-12.826004 15.627393 -1.9872805
-12.721104 15.694976 -1.9858851
-12.60964 15.75409 -1.9834931
-12.518291 15.838191 -1.9843901
-12.419649 15.913135 -1.9841908
-12.313879 15.978795 -1.9828951
-12.208373 16.044548 -1.9816991
-12.09356 16.097675 -1.9790081
-11.992782 16.169178 -1.9787091
-11.865717 16.204727 -1.9740248
-11.74916 16.253841 -1.9711344
-11.622046 16.287558 -1.9664501
-11.509284 16.340666 -1.9642574
-11.388358 16.381563 -1.9606694
-11.271867 16.42816 -1.9578787
-11.161928 16.483829 -1.956284
-11.052835 16.540424 -1.9548887
-10.935254 16.583841 -1.9519984
-10.841973 16.663973 -1.953593
-10.735221 16.723484 -1.9527956
-10.628679 16.783155 -1.952098
-10.516011 16.832865 -1.950304
-10.407831 16.88945 -1.949407
-10.295735 16.939388 -1.9478123
-10.183419 16.988586 -1.9462177
-10.056205 17.012205 -1.9417326
-9.9426126 17.058113 -1.9399385
-9.6746645 16.834957 -1.9071481
-9.5491161 16.855043 -1.9026631
-9.4896593 16.992376 -1.9117328
-9.4946041 17.249035 -1.9344569
-9.3828945 17.296473 -1.9332609
-9.297226 17.392332 -1.9376463
-9.1824512 17.434084 -1.9359519
-9.0698061 17.4795 -1.9347559
-8.9542332 17.518873 -1.9329619
-8.8340454 17.548599 -1.9301713
-8.7173643 17.584644 -1.9281778
-8.6018839 17.622601 -1.9264835
-8.4866972 17.660698 -1.9248888
-8.3743448 17.704344 -1.9239919
-8.2634563 17.750885 -1.9234935
-8.1518974 17.795826 -1.9228956
-8.031105 17.820108 -1.9201049
-7.9187889 17.862684 -1.9194071
-7.7979035 17.885397 -1.9166166
-7.6762538 17.90547 -1.9136264
-7.5631518 17.944899 -1.9128292
-7.4517593 17.988209 -1.9125302
-7.3393703 18.028986 -1.9120318
-7.2275 18.07091 -1.9117328
-7.1143003 18.109358 -1.9111348
-6.9987521 18.141531 -1.9099388
-6.8802586 18.165522 -1.9079455
-6.7652011 18.198069 -1.9069488
-6.6486392 18.226151 -1.9055535
-6.5333285 18.257233 -1.9045568
-6.4201932 18.294161 -1.9042578
-6.3058791 18.327564 -1.9036598
-6.1923509 18.363083 -1.9033607
-6.077064 18.393175 -1.9025635
-5.9610281 18.420649 -1.9015667
-5.8472881 18.454981 -1.9013674
-5.7354136 18.495264 -1.9018657
-5.6218209 18.530107 -1.9018657
-5.5097141 18.569979 -1.9024638
-5.3970528 18.608213 -1.9029621
-5.2846723 18.64768 -1.9036598
-5.1714792 18.684551 -1.9041581
-5.056736 18.715931 -1.9041581
-4.9402804 18.740833 -1.9035602
-4.8232145 18.763083 -1.9027628
-4.7058196 18.783638 -1.9018657
-4.5881186 18.802492 -1.9008691
-4.4696741 18.817705 -1.8995734
-4.3512154 18.832172 -1.8982778
-3.3004081 14.693575 -1.470706
-3.1860166 14.602722 -1.4593439
-3.0203202 14.262794 -1.4225668
-2.9269462 14.252791 -1.4196764
-2.8458428 14.302687 -1.4229654
-2.7614155 14.337467 -1.4247594
-2.7001603 14.497938 -1.4394106
-2.5592017 14.225336 -1.4100087
-2.4667659 14.21136 -1.4070187
-2.3775513 14.214451 -1.4058228
-2.2861793 14.20323 -1.4032314
-2.1252596 13.74007 -1.3548928
-2.0379925 13.733167 -1.3528994
-1.9401152 13.649856 -1.3432318
-1.8573958 13.669391 -1.3440291
-1.7802624 13.732829 -1.3493115
-1.6966965 13.749419 -1.3499094
-1.6156555 13.788231 -1.3527998
-1.5281712 13.772172 -1.3502085
-1.4437416 13.782279 -1.3503082
-1.360708 13.806722 -1.3519028
-1.3173836 14.263649 -1.397052
-1.2346182 14.32698 -1.4026333
-1.3137749 16.425123 -1.6127316
-1.1595485 15.708477 -1.5399746
-1.0199376 15.075961 -1.475789
-0.93790501 15.252757 -1.4929317
-0.84951359 15.352608 -1.5024002
-0.71191108 14.474022 -1.4137961
-0.62312943 14.479112 -1.4138957
-0.56099522 15.208536 -1.4866527
-0.46425077 15.100303 -1.47549
-0.37297899 15.159566 -1.481171
-0.27911311 15.115806 -1.4765863
-0.20107082 16.318134 -1.5968845
-0.093579657 15.115108 -1.4762874
-0.00083375105 15.096492 -1.4743936
0.091563769 15.058403 -1.4706063
0.1840076 15.061538 -1.471005
0.27676839 15.079027 -1.4728986
0.36838204 15.04024 -1.469211
0.45378795 14.813923 -1.4467859
0.54555541 14.834723 -1.4491779
0.63545787 14.80525 -1.4465865
0.73146683 14.906418 -1.4571513
0.77890849 14.105853 -1.3773179
0.86300421 14.061082 -1.3733312
0.94570726 14.002906 -1.3680489
1.0332205 14.018671 -1.3702415
1.1210421 14.03488 -1.3725339
1.2034656 13.985109 -1.3682482
1.2889795 13.974489 -1.3679492
1.3802615 14.02276 -1.3736303
1.4666921 14.017985 -1.3740289
1.5376489 13.873235 -1.3603746
1.6255229 13.887258 -1.3627665
1.7081445 13.856284 -1.3606735
