# .PCD v0.7 - Point Cloud Data file format
VERSION 0.7
FIELDS x y z
SIZE 4 4 4
TYPE F F F
COUNT 1 1 1
WIDTH 1505
HEIGHT 1
VIEWPOINT 0 0 0 1 0 0 0
POINTS 1505
DATA ascii
-7.8041563 15.952757 -1.9572163
-7.6996565 15.986913 -1.9555416
-7.5950317 16.020386 -1.953867
-7.4865046 16.045074 -1.9511876
-7.3870835 16.088902 -1.9509643
-7.2861791 16.129398 -1.9504061
-7.1850562 16.16926 -1.9498479
-7.0809326 16.202116 -1.9485081
-6.9778533 16.237041 -1.9475034
-6.8753858 16.273144 -1.9467219
-6.7735004 16.310434 -1.9461637
-6.6740451 16.353529 -1.9463869
-6.5783844 16.406164 -1.9478383
-6.4805079 16.453615 -1.9487314
-6.3808622 16.496777 -1.949178
-6.2752862 16.524471 -1.9478383
-6.1768999 16.571045 -1.9488431
-6.0740814 16.605833 -1.9485081
-5.9730825 16.645597 -1.9488431
-5.8728142 16.687557 -1.949513
-5.7706347 16.724218 -1.9496245
-5.6647243 16.749897 -1.9485081
-5.5655937 16.79566 -1.9498479
-5.4633532 16.832329 -1.9501828
-5.359066 16.862694 -1.9498479
-5.2522502 16.884821 -1.9486198
-5.1439185 16.90152 -1.9468335
-5.0341616 16.912762 -1.944489
-4.9227953 16.91757 -1.9414747
-4.8229752 16.961796 -1.9431493
-4.7180109 16.988197 -1.9428145
-4.6157651 17.0245 -1.9437076
-4.5061345 17.033287 -1.9414747
-4.3997974 17.053879 -1.9406933
-4.2933774 17.073809 -1.9399117
-4.183332 17.078596 -1.9374555
-4.0708537 17.072044 -1.9337714
-3.9617577 17.078308 -1.9316502
-3.3433049 14.82518 -1.6694022
-3.1740069 14.48819 -1.6283178
-3.0778139 14.473372 -1.6244104
-2.9303267 14.207794 -1.5918108
-2.8594563 14.307363 -1.6011888
-2.7655723 14.293417 -1.5976162
-2.675441 14.29742 -1.5961648
-2.5733414 14.234357 -1.5871218
-2.4575977 14.087372 -1.5685892
-2.3722665 14.109046 -1.5693706
-2.2810457 14.094888 -1.566133
-2.1797001 14.013371 -1.5553037
-2.041877 13.679534 -1.5158939
-1.9549479 13.671146 -1.5135494
-1.8694105 13.671069 -1.5122098
-1.7838192 13.669473 -1.5107584
-1.6988082 13.671285 -1.5097536
-1.619668 13.721914 -1.514331
-1.5837123 14.163171 -1.5631187
-1.493125 14.138033 -1.5592113
-1.4074292 14.157805 -1.5604392
-1.3501483 14.48379 -1.5962765
-1.2841785 14.755143 -1.6259733
-1.1849662 14.655769 -1.6139159
-1.1422517 15.295014 -1.6851438
-1.0382569 15.154013 -1.6685091
-1.0000072 16.037859 -1.7673126
-0.89388406 15.906773 -1.7519059
-0.72227365 14.434117 -1.5856705
-0.63369399 14.438277 -1.5856705
-0.61121833 16.192625 -1.782496
-0.47716877 15.09952 -1.6592427
-0.38271317 15.031631 -1.6513162
-0.28933942 14.975076 -1.6447293
-0.2141068 16.237526 -1.7864034
-0.10506537 14.908932 -1.637026
-0.013793664 15.132889 -1.6621455
0.078714184 15.066109 -1.6546655
0.17326272 15.251161 -1.6755426
0.2798585 15.995008 -1.7592744
0.38475204 16.27911 -1.7914274
0.47836667 16.065861 -1.7677592
0.53063244 14.772574 -1.6227357
0.6215992 14.776983 -1.6236289
0.71220952 14.771899 -1.6235173
0.79480076 14.6194 -1.6068825
0.85208505 14.078604 -1.5465956
0.93402553 14.006677 -1.5391155
1.0436969 14.326761 -1.575846
1.106856 14.007038 -1.5405669
1.1882268 13.946514 -1.5345383
1.2726034 13.926096 -1.5330869
1.3585107 13.922971 -1.5336452
1.4456581 13.931176 -1.535543
1.5440352 14.039591 -1.5488285
1.6173089 13.919296 -1.5363245
1.7015991 13.900233 -1.5353197
1.7906605 13.9191 -1.538669
1.8755015 13.903912 -1.5382224
1.9557801 13.856717 -1.5342033
2.0398972 13.838557 -1.5335335
2.1312602 13.868016 -1.5383341
2.218039 13.865472 -1.5395621
2.3043778 13.859444 -1.5404553
2.4057651 13.940033 -1.5512846
2.5873182 14.462053 -1.6125762
2.5752017 13.901644 -1.5503914
2.6563387 13.864109 -1.5479354
2.7436726 13.859247 -1.549275
2.8346279 13.871361 -1.5526243
2.9221463 13.865375 -1.553964
3.0141263 13.87923 -1.5576482
3.1302364 13.999158 -1.573613
3.581192 15.56699 -1.7565949
3.3020208 13.960658 -1.5737247
3.7670259 15.501592 -1.7542504
3.8332043 15.362483 -1.7408533
3.9074306 15.260695 -1.7318103
3.7534192 14.293526 -1.6222892
3.8890889 14.448712 -1.6430546
3.9533699 14.336441 -1.6327835
4.0409923 14.310958 -1.6326718
4.1461072 14.346038 -1.6397054
4.2729344 14.451838 -1.655112
4.3529015 14.396811 -1.6517627
4.3642836 14.121077 -1.6225125
4.4484525 14.086452 -1.6216193
4.5561543 14.125095 -1.6294342
4.7748437 14.498024 -1.6768823
4.869411 14.485409 -1.6788918
4.9549766 14.445857 -1.6777754
4.9516373 14.152541 -1.6465155
5.0380487 14.120956 -1.6464039
5.2071314 14.316717 -1.673533
5.489666 14.810034 -1.7364993
5.4631753 14.465563 -1.6992108
5.582871 14.512461 -1.7089236
5.5895343 14.267892 -1.6835808
5.6758709 14.230557 -1.6832459
5.9167075 14.573899 -1.7291309
6.0048814 14.534566 -1.728796
6.0743132 14.450725 -1.7231022
6.1523185 14.388511 -1.7200879
6.2603025 14.396056 -1.72567
6.3549471 14.371915 -1.7274562
6.4544196 14.358029 -1.7305822
6.5403323 14.313636 -1.7300241
6.6962543 14.420152 -1.7482218
6.8181076 14.449793 -1.7570415
6.8830166 14.358399 -1.7509012
6.9940453 14.363249 -1.7568182
7.0771995 14.310266 -1.7555902
7.1742377 14.28522 -1.7579347
7.2694292 14.255981 -1.7598325
7.3786931 14.253469 -1.7651914
7.435504 14.149866 -1.757823
7.5806394 14.213582 -1.7717783
7.6757507 14.181658 -1.7736762
7.8023267 14.206591 -1.7829425
7.9174037 14.208798 -1.7894177
7.99857 14.149569 -1.7880781
8.1242895 14.168329 -1.7968978
8.2230616 14.13883 -1.7995772
8.3197584 14.105227 -1.8018101
8.417882 14.073528 -1.8043779
8.5252047 14.05645 -1.8089552
8.6362782 14.044508 -1.814314
8.7611923 14.053658 -1.8225756
8.8886671 14.065161 -1.8312837
8.9983864 14.047175 -1.8361959
9.1168766 14.041708 -1.8428944
9.2318134 14.029502 -1.8488115
9.3618288 14.038735 -1.8577429
9.4867401 14.038665 -1.8655579
9.629405 14.063007 -1.8768338
9.7494993 14.052648 -1.8835323
9.8818283 14.058415 -1.8925754
10.009406 14.0558 -1.9006135
10.159995 14.083578 -1.9130059
10.281398 14.069114 -1.9197044
10.413055 14.067266 -1.9283009
10.548056 14.068306 -1.9374555
10.694278 14.082462 -1.9486198
10.821681 14.070144 -1.9562114
10.938342 14.042678 -1.9617937
11.096924 14.067364 -1.9749674
11.26552 14.102276 -1.9898158
11.415586 14.111693 -2.0012033
11.563041 14.115953 -2.0120327
11.697652 14.10287 -2.0205176
11.838927 14.096274 -2.0301187
11.931635 14.030937 -2.0312352
12.033064 13.975535 -2.0339146
12.108794 13.890203 -2.0322399
12.172095 13.791056 -2.0285559
12.236623 13.693879 -2.0252066
12.311749 13.608958 -2.0237551
12.37153 13.507509 -2.0198476
12.437285 13.413127 -2.0170567
12.493508 13.309028 -2.0128143
12.547553 13.203304 -2.0083485
12.598706 13.095271 -2.0035479
12.656632 12.994939 -1.9999753
12.713803 12.89439 -1.9964027
12.773728 12.797147 -1.9933884
12.825169 12.691965 -1.989146
12.882907 12.593581 -1.98602
12.929914 12.485304 -1.981331
12.971763 12.372808 -1.9759722
13.025739 12.272538 -1.9726229
13.08261 12.175457 -1.9698318
13.139513 12.078813 -1.9671525
13.196459 11.982598 -1.9645847
13.254199 11.887466 -1.9622402
13.304575 11.786147 -1.9588909
13.365425 11.694474 -1.9572163
13.413621 11.592101 -1.9537554
13.467113 11.49474 -1.9511876
13.525232 11.401643 -1.9494013
13.533841 11.267571 -1.94047
13.601955 11.183685 -1.9403583
13.651807 11.084981 -1.9376788
13.709487 10.992925 -1.9362276
13.754087 10.890707 -1.9329898
13.794819 10.785909 -1.9293057
13.845008 10.688916 -1.9270729
13.883464 10.58328 -1.923277
13.915586 10.473392 -1.9186996
13.958053 10.371806 -1.9156853
14.006206 10.274797 -1.9135641
14.035184 10.164182 -1.9088751
14.083543 10.068048 -1.9069772
14.112576 9.9585238 -1.9025115
14.157106 9.860384 -1.9002787
14.205059 9.7648878 -1.898604
14.256484 9.6719637 -1.8974876
14.306479 9.5782242 -1.8962595
14.349227 9.4798527 -1.8941383
14.394637 9.3834887 -1.8924637
14.422689 9.2761726 -1.8885562
14.454163 9.1715288 -1.8852069
14.477316 9.0621033 -1.8808529
14.500517 8.9532614 -1.8766105
14.531415 8.8496466 -1.8734845
14.559885 8.7449656 -1.8701352
14.59446 8.6443214 -1.8676791
14.625772 8.542079 -1.8648881
14.657243 8.4402742 -1.8622086
14.684558 8.3364429 -1.8590826
14.699011 8.2257996 -1.8543936
14.735285 8.1277733 -1.8526074
14.751701 8.0191698 -1.8483649
14.782233 7.9186497 -1.8460205
14.79539 7.8092432 -1.8415548
14.842146 7.717855 -1.8414432
14.882147 7.6230154 -1.8405499
14.910896 7.522604 -1.8383172
14.929185 7.4172635 -1.8348563
14.975308 7.3259568 -1.8349679
15.002071 7.2253075 -1.8327351
15.033551 7.1271601 -1.831172
15.05899 7.0263777 -1.8289392
15.077435 6.9226494 -1.8259249
15.09246 6.8177319 -1.8225756
15.11857 6.7181373 -1.8206776
15.155865 6.6236529 -1.8202311
15.193482 6.5293565 -1.8198961
15.209459 6.425952 -1.8169935
15.256862 6.335938 -1.8179983
15.295451 6.2422042 -1.8179983
15.338999 6.150455 -1.8186681
15.375525 6.0558567 -1.8185564
15.43649 5.9707217 -1.8214592
15.485842 5.8808322 -1.8230221
15.530014 5.788826 -1.8240269
15.569908 5.6951337 -1.8245851
15.616719 5.6038551 -1.8260365
15.651747 5.5082569 -1.8261482
15.691826 5.4143848 -1.8269296
15.742639 5.3240495 -1.8290508
15.788217 5.2317305 -1.8306139
15.838924 5.1408935 -1.8328466
15.882482 5.047524 -1.834298
15.921694 4.9526329 -1.8353028
15.946079 4.8531098 -1.834633
15.966985 4.7526231 -1.8336282
15.98535 4.6515079 -1.8324001
15.984915 4.5451818 -1.8290508
16.037397 4.4539289 -1.8319535
16.074015 4.3580422 -1.8330699
16.115824 4.2633986 -1.8348563
16.144567 4.1651783 -1.8351911
16.171747 4.0665236 -1.8354144
16.199291 3.9679282 -1.8357494
16.213667 3.8661513 -1.834633
16.233212 3.7656951 -1.8341864
16.248257 3.6642699 -1.8332932
16.293732 3.569608 -1.8359727
16.324076 3.4714248 -1.8369775
16.352854 3.372803 -1.8378706
16.382011 3.2741535 -1.8388754
16.414476 3.176028 -1.8403267
16.439516 3.0763478 -1.8409966
16.461018 2.9759493 -1.8413315
16.482883 2.8755736 -1.841778
16.505117 2.7752066 -1.8423363
16.51791 2.6732457 -1.8418897
16.555605 2.5752041 -1.8443458
16.582888 2.4753332 -1.8456856
16.607601 2.3749428 -1.846802
16.628754 2.2739384 -1.8475834
6.651526 0.86779284 -0.71564144
6.6093898 0.82108009 -0.71028256
6.5896311 0.77759725 -0.70749152
6.5557623 0.73284149 -0.70313746
6.5443234 0.69093192 -0.70135117
6.5523953 0.65115702 -0.70179778
6.5483518 0.6102019 -0.70090461
6.5490026 0.56975192 -0.70056969
6.5563374 0.52987772 -0.70101625
6.5495553 0.48889849 -0.69989985
6.5395436 0.44781858 -0.69844848
6.5530782 0.4083648 -0.69967657
6.5326405 0.36686522 -0.69710881
6.5198808 0.32602942 -0.69543415
6.5267224 0.28623605 -0.69599235
6.5313349 0.24629597 -0.69632727
6.5357032 0.20631006 -0.69666219
6.5358524 0.16617854 -0.69655055
6.5307879 0.12595683 -0.69588071
6.5244818 0.085790411 -0.69509923
6.519917 0.045720175 -0.69454104
6.5200748 0.0057138563 -0.69454104
6.5259495 -0.03432367 -0.69521087
6.5266099 -0.074376762 -0.69532251
6.5399408 -0.11466492 -0.69688553
6.565938 -0.15542439 -0.69989985
6.5708203 -0.19588661 -0.70056969
6.5873709 -0.23684233 -0.70257926
6.5996938 -0.27784157 -0.70414227
6.6117611 -0.3190009 -0.70570523
6.6384554 -0.36112756 -0.70894289
6.634131 -0.40173355 -0.70871961
6.7068987 -0.44745526 -0.71720439
6.6782575 -0.48672304 -0.71430171
14.491472 -1.1451226 -1.59516
14.732704 -1.2551864 -1.6231823
14.694047 -1.3427584 -1.6197214
14.61333 -1.4258513 -1.6115714
14.553896 -1.5102605 -1.6058778
14.52855 -1.5977954 -1.6040914
10.602604 -1.2320328 -1.1612061
10.593859 -1.2969453 -1.1610945
10.584716 -1.3617967 -1.1609828
10.577146 -1.4268506 -1.1610945
10.571143 -1.4921404 -1.1614294
10.567687 -1.557845 -1.1620992
13.81694 -2.1234124 -1.5325286
13.800708 -2.2076807 -1.5321938
13.810429 -2.2962298 -1.5348731
14.03894 -2.4228313 -1.5625604
13.983703 -2.5017529 -1.5579832
13.866467 -2.5686865 -1.5463723
14.230109 -2.7264528 -1.5898012
14.167295 -2.804647 -1.5845541
13.309574 -2.7198429 -1.4882066
14.222243 -2.9973464 -1.5949367
14.205526 -3.0849776 -1.59516
14.1873 -3.1722999 -1.5952717
14.170473 -3.2599602 -1.5956066
14.157941 -3.3486769 -1.5964998
8.2688656 -2.0096021 -0.91804904
8.24963 -2.0586171 -0.91726756
13.863819 -3.5498049 -1.5698172
13.838893 -3.6340477 -1.5694823
7.6374574 -2.0559337 -0.85061705
7.6294889 -2.1040783 -0.85117525
14.05274 -3.9680867 -1.6025285
14.027173 -4.0539622 -1.6024168
8.0192585 -2.3712184 -0.90152597
7.9608016 -2.4071505 -0.89639044
7.9468312 -2.4562452 -0.89650208
7.9372964 -2.5067551 -0.89717191
8.4674768 -2.7314172 -0.96158957
13.655135 -4.4972677 -1.5771856
13.617864 -4.5778031 -1.5760692
13.569778 -4.6545043 -1.5737247
7.7609906 -2.7155786 -0.88578439
13.494792 -4.8146658 -1.5717151
13.449119 -4.8916035 -1.5698172
13.393693 -4.9647088 -1.5668029
13.349962 -5.0418825 -1.5652399
13.303007 -5.1176362 -1.563342
13.250074 -5.1908288 -1.5607742
13.19859 -5.2643013 -1.5584297
13.140259 -5.3347211 -1.5553037
13.085236 -5.4061418 -1.5526243
13.024334 -5.4747777 -1.549275
12.968567 -5.5452142 -1.5465956
12.920628 -5.6187396 -1.544921
12.855916 -5.6846519 -1.5412368
12.771849 -5.7414265 -1.5352081
12.718302 -5.8114252 -1.5329752
12.663477 -5.8805652 -1.5306307
12.623561 -5.95646 -1.5301841
12.59484 -6.0376706 -1.531189
12.564704 -6.1183176 -1.5320821
12.520691 -6.1922145 -1.5313007
12.417632 -6.2363677 -1.5231507
12.351688 -6.29845 -1.5196898
12.282804 -6.3585873 -1.5158939
12.211008 -6.4167309 -1.5117632
12.166144 -6.4887295 -1.5110934
12.110371 -6.5547433 -1.5090837
12.062955 -6.6251011 -1.5081906
12.013396 -6.6941566 -1.5070742
11.96431 -6.7633424 -1.5060694
11.945862 -6.8499727 -1.5090837
11.888144 -6.9141498 -1.5070742
11.84036 -6.9839349 -1.5064044
11.776815 -7.0442123 -1.5037249
11.704481 -7.0988202 -1.4999291
11.637848 -7.1564498 -1.4969147
11.564201 -7.2093244 -1.4930073
11.530669 -7.2870464 -1.4944587
11.466494 -7.3453317 -1.4918909
11.414539 -7.4112215 -1.4909977
11.371341 -7.482759 -1.4913327
11.312811 -7.5441217 -1.489658
11.249841 -7.6022658 -1.4874252
11.175923 -7.6526237 -1.4837409
11.128757 -7.7210536 -1.4837409
11.050278 -7.767478 -1.4794985
11.0186 -7.8466635 -1.4817314
10.967022 -7.9117994 -1.4812849
10.919874 -7.9801154 -1.4815081
10.849936 -8.0315962 -1.4786054
10.786139 -8.0872889 -1.4765959
10.722068 -8.1425018 -1.4745862
10.675843 -8.2111664 -1.4751445
10.6331 -8.2826242 -1.4762609
10.582078 -8.3477116 -1.4762609
10.528329 -8.4106245 -1.475926
10.468025 -8.4681921 -1.4746979
10.4028 -8.5215578 -1.4728
10.330429 -8.5687332 -1.4698973
10.27157 -8.6268454 -1.4690042
10.190433 -8.6658897 -1.4648734
10.141586 -8.7321444 -1.4655433
10.085568 -8.7922487 -1.4652083
10.02696 -8.8500214 -1.4645385
9.9635763 -8.9034338 -1.4631988
9.9021263 -8.9584017 -1.462194
9.8396435 -9.0122795 -1.4610776
9.7783308 -9.0670795 -1.4601845
9.7232361 -9.1275873 -1.460296
9.6706495 -9.1904993 -1.4608543
9.608346 -9.2441521 -1.4599612
9.5364943 -9.2883739 -1.4576167
9.468708 -9.3362484 -1.455942
9.4154634 -9.3983831 -1.4566119
9.3597155 -9.4580975 -1.4569468
9.3209572 -9.5352468 -1.4600728
9.2553711 -9.5851107 -1.4589564
6.9980593 -7.337081 -1.1011425
6.9590411 -7.3863916 -1.1021473
9.0570621 -9.7320251 -1.4556071
8.9985218 -9.7888784 -1.4558303
8.9389572 -9.8446436 -1.455942
8.8856821 -9.907444 -1.4571701
6.7588439 -7.6298556 -1.1071712
6.6641302 -7.6165891 -1.0990213
6.5438433 -7.5723753 -1.0864058
2.1281688 -2.4938447 -0.33036357
2.1096241 -2.5030572 -0.32980537
2.0942259 -2.5159545 -0.32980537
2.0806425 -2.5310597 -0.33014029
2.0656993 -2.5445502 -0.33025193
2.0531559 -2.5610535 -0.33081016
2.0448058 -2.582952 -0.33214986
2.0050459 -2.5649192 -0.3277958
1.9935212 -2.5826797 -0.32857731
1.9463084 -2.5537677 -0.32277191
1.9120764 -2.5410488 -0.31931099
1.8922997 -2.5471497 -0.31852949
1.8825133 -2.5667253 -0.31964591
1.8778036 -2.5935199 -0.32176712
1.8861283 -2.6389461 -0.3264561
1.8773491 -2.6610246 -0.32790744
1.8825692 -2.7034802 -0.33214986
1.8715751 -2.7231698 -0.33326629
1.8620839 -2.7452927 -0.33471763
1.8457569 -2.7574923 -0.33482927
1.8304459 -2.7712531 -0.33516419
1.8134074 -2.7824323 -0.33516419
7.224772 -11.233315 -1.4625289
7.1493201 -11.267365 -1.4611892
7.0679231 -11.291646 -1.4586214
6.9760551 -11.298443 -1.4538208
6.8993611 -11.329153 -1.4522578
6.8256235 -11.364458 -1.4513646
6.7588029 -11.411255 -1.4520345
6.6861515 -11.448221 -1.4514763
6.6232195 -11.501948 -1.453151
6.5559545 -11.548421 -1.4539324
6.4840007 -11.586696 -1.4537091
6.4171038 -11.634094 -1.4547139
6.3470216 -11.675869 -1.4550489
6.2644668 -11.694447 -1.4524812
6.1809959 -11.710693 -1.44969
6.0957279 -11.722831 -1.4464524
6.0155282 -11.744092 -1.4444429
5.9433546 -11.780782 -1.4444429
5.8718414 -11.818808 -1.4446661
5.8219213 -11.901031 -1.4504715
5.7643123 -11.968761 -1.4544907
5.7035365 -12.030844 -1.45784
5.6283488 -12.062912 -1.457505
5.5529823 -12.09451 -1.4571701
5.4860315 -12.144656 -1.4591796
5.4017243 -12.156295 -1.4565002
5.3063383 -12.14186 -1.4506948
5.1956377 -12.090195 -1.4404237
5.0838385 -12.033054 -1.4295944
4.9977126 -12.034654 -1.4260218
4.9485593 -12.125816 -1.4333903
4.8640771 -12.131048 -1.4303759
4.7644215 -12.096868 -1.4226726
4.6764832 -12.090654 -1.4184302
4.5951519 -12.100541 -1.4161973
4.5138755 -12.109886 -1.4139645
4.4408512 -12.141088 -1.4144111
4.3635859 -12.160625 -1.413518
4.2862487 -12.179671 -1.4126247
4.2062483 -12.190712 -1.4108385
4.1310496 -12.21535 -1.4107269
4.0578957 -12.246127 -1.4113967
3.9832921 -12.272686 -1.41162
3.9015923 -12.277007 -1.4092755
3.8211703 -12.284585 -1.4073776
3.7376194 -12.28118 -1.4042516
3.6633272 -12.307693 -1.4046981
3.5971806 -12.362381 -1.408494
3.5250642 -12.397602 -1.4100569
3.4470658 -12.412295 -1.4092755
3.3713608 -12.435131 -1.4094988
3.2990634 -12.470954 -1.411285
3.2339017 -12.535225 -1.4164206
3.1593497 -12.564469 -1.417537
3.0838513 -12.590374 -1.4183185
3.0086148 -12.617759 -1.4193233
2.9365273 -12.659215 -1.4220027
2.8679793 -12.71771 -1.4266917
2.7858498 -12.716624 -1.4245706
2.6972265 -12.683906 -1.4188768
2.6129243 -12.669073 -1.4153042
2.5302696 -12.660505 -1.4125131
2.4517834 -12.671889 -1.4120666
2.3705106 -12.668136 -1.4099454
2.290437 -12.66973 -1.408494
2.2140205 -12.691377 -1.4093871
2.1344578 -12.694923 -1.4082707
2.057317 -12.712686 -1.408829
1.9794276 -12.726052 -1.4089406
1.8960222 -12.702576 -1.4049214
0.39625305 -2.7733052 -0.27677524
0.38071021 -2.7865145 -0.27800331
0.3656632 -2.8045645 -0.2797896
0.34526101 -2.7811151 -0.27688688
0.22157656 -1.8801732 -0.1747341
0.315083 -2.8206959 -0.28090599
0.19880044 -1.8857155 -0.17506903
0.18722618 -1.8868998 -0.17506903
0.17795141 -1.9127495 -0.1778601
0.25645229 -2.9503393 -0.29474965
0.15438552 -1.9137987 -0.17774846
0 -0 -0
0.19666655 -2.875246 -0.28581828
0.16281129 -2.6165416 -0.25656796
0.10882235 -1.9428078 -0.18065116
0.096551619 -1.9364915 -0.17986965
0.088112205 -2.0154779 -0.18868941
0.094835751 -2.5214381 -0.24551538
0.074304923 -2.3620591 -0.22754095
0.091029473 -3.5873647 -0.36519599
0.069861948 -3.6315725 -0.37010828
0.04753834 -3.6289518 -0.36977333
0.024933189 -3.5814762 -0.36441451
0.0029534651 -3.5775869 -0.36396793
-0.019049903 -3.5874751 -0.36508435
-0.042435922 -3.7085202 -0.37870473
-0.065259613 -3.7121644 -0.37915128
-0.084423594 -3.5586994 -0.36195838
-0.10779444 -3.6097665 -0.36776379
-0.12858699 -3.5712988 -0.36352137
-0.15354456 -3.6429224 -0.37167126
-0.63649499 -13.200618 -1.4467874
-0.72120088 -13.264932 -1.4544907
-0.2298739 -3.7932289 -0.38897583
-0.25221908 -3.7778652 -0.38741285
-0.27496183 -3.7702999 -0.38674298
-0.29707348 -3.7556632 -0.38529164
-0.31969053 -3.7488189 -0.38473341
-0.34431416 -3.7646 -0.38674298
-1.3040015 -13.364155 -1.4705671
-1.3742878 -13.243219 -1.45784
-1.4555209 -13.234538 -1.45784
-1.536355 -13.222396 -1.457505
-0.36076069 -2.9444144 -0.29530787
-0.37767956 -2.9332745 -0.29430309
-1.7962105 -13.315966 -1.4715719
-1.8757992 -13.289934 -1.4698973
-1.9602072 -13.297836 -1.4721302
-2.0502157 -13.340563 -1.4783821
-0.49180585 -3.072407 -0.31160766
-0.50804114 -3.0536468 -0.30982137
-2.3018456 -13.337778 -1.4826245
-2.3750675 -13.27547 -1.477154
-2.4566603 -13.261624 -1.4772657
-2.5450909 -13.283388 -1.4815081
-0.54975981 -2.7753699 -0.27990124
-0.56498837 -2.7631817 -0.27889645
-0.58029306 -2.7518837 -0.27800331
-0.59126312 -2.7210801 -0.27487731
-0.60382861 -2.6989746 -0.2727561
-3.0425382 -13.225259 -1.4866437
-3.120199 -13.191835 -1.484969
-3.2137542 -13.224586 -1.4909977
-3.297725 -13.216188 -1.4923375
-3.3819599 -13.20822 -1.4937887
-0.73935497 -2.8142898 -0.28894424
-0.7542848 -2.8010638 -0.28793949
-3.6070735 -13.080504 -1.4864204
-3.7040071 -13.11742 -1.4933422
-0.80737072 -2.7924335 -0.28860933
-0.8030777 -2.7150009 -0.28012452
-0.92439979 -3.0562692 -0.32076234
-4.0380125 -13.065293 -1.4983661
-4.1288762 -13.074385 -1.5023853
-4.2410502 -13.14811 -1.5141077
-4.3309708 -13.150157 -1.517457
-4.420126 -13.148768 -1.5204713
-4.5348959 -13.221039 -1.5323054
-4.6129799 -13.184523 -1.5313007
-4.656394 -13.051141 -1.5187967
-1.1636864 -3.1985757 -0.34443051
-1.153589 -3.1112401 -0.33482927
-1.1649338 -3.0836506 -0.33237314
-1.177054 -3.0588222 -0.33025193
-5.0936899 -13.002096 -1.530854
-1.2936499 -3.2426028 -0.35425505
-1.2439975 -3.0633407 -0.33348957
-1.2415222 -3.0042162 -0.32723761
-5.4027719 -12.853021 -1.5283979
-1.3138462 -3.0719044 -0.33739704
-1.3441622 -3.0902133 -0.34063467
-5.5966458 -12.656873 -1.5167871
-5.6929431 -12.663988 -1.5219227
-5.7709537 -12.629723 -1.5220343
-5.8449912 -12.586864 -1.5211412
-5.9195685 -12.545371 -1.5204713
-1.3332844 -2.7805626 -0.30848166
-1.3716372 -2.8161092 -0.31395215
-1.3725919 -2.7746811 -0.30982137
-1.3851315 -2.7573264 -0.30870494
-6.3399792 -12.433137 -1.5299609
-6.3773174 -12.318987 -1.5204713
-1.4564509 -2.7709498 -0.31372887
-1.4766991 -2.7680991 -0.31451038
-6.6081924 -12.209128 -1.5216994
-6.7121611 -12.221484 -1.5285095
-6.8349099 -12.26601 -1.5395621
-6.9208021 -12.242874 -1.5420183
-6.988378 -12.187246 -1.5403436
-4.9462852 -8.5043821 -1.0673149
-7.143971 -12.111698 -1.541795
-7.2298846 -12.087251 -1.5443628
-7.3039145 -12.042662 -1.5443628
-7.3859978 -12.011164 -1.546149
-7.488471 -12.012 -1.5522894
-5.1667705 -8.1754284 -1.048559
-5.2195168 -8.1477556 -1.0491172
-5.2699537 -8.1164093 -1.0492288
-5.3491526 -8.1287489 -1.0552576
-5.6448183 -8.4645224 -1.10505
-8.022336 -11.871501 -1.5717151
-8.1000805 -11.829432 -1.5727199
-8.1708126 -11.77706 -1.572385
-8.2434931 -11.727515 -1.5724967
-8.3199072 -11.683189 -1.5733898
-8.3896933 -11.629501 -1.5730549
-8.4995899 -11.63076 -1.5804232
-1.7403581 -2.3505311 -0.2906189
-1.7565364 -2.3421936 -0.29095381
-8.6924009 -11.446223 -1.5767391
-8.7757988 -11.410002 -1.5791951
-1.7700397 -2.2718332 -0.285595
-1.64547 -2.0853779 -0.26047546
-1.6737403 -2.0946531 -0.2632665
-8.5681887 -10.591644 -1.4925607
-8.6600933 -10.571929 -1.4973613
-8.717186 -10.509414 -1.4960216
-8.7789497 -10.452684 -1.4955751
-8.8532209 -10.410733 -1.4973613
-8.9195271 -10.359228 -1.4978079
-1.7085921 -1.9594283 -0.25411183
-1.7113767 -1.9384768 -0.25254884
-9.1067095 -10.191071 -1.497473
-9.1684017 -10.134264 -1.4973613
-2.4186177 -2.6402206 -0.36430287
-9.2799129 -10.007874 -1.4953518
-2.4732792 -2.6342518 -0.36798707
-2.4962416 -2.62623 -0.36910349
-9.4949341 -9.8690243 -1.5005989
-9.5573902 -9.8127146 -1.5009339
-9.5867214 -9.7227507 -1.4960216
-3.244417 -3.2499397 -0.4779548
-9.7462797 -9.6449175 -1.5024968
-3.2854755 -3.2112703 -0.47817808
-3.0820832 -2.9756758 -0.44334567
-3.3174446 -3.1638517 -0.47706166
-10.029225 -9.4491682 -1.5100886
-10.080468 -9.3813581 -1.5090837
-3.1629605 -2.9072123 -0.44468537
-3.5368147 -3.2110865 -0.49872029
-3.5564508 -3.1893246 -0.49872029
-3.5662835 -3.1588759 -0.49726892
-3.4397652 -3.0093269 -0.47549868
-3.4175646 -2.9530754 -0.46946996
-3.4031188 -2.9043078 -0.46466935
-10.612224 -8.9458904 -1.5213645
-3.4278111 -2.8534257 -0.46310636
-3.8620543 -3.1750526 -0.52372819
-3.9570649 -3.2126853 -0.5346691
-10.683595 -8.5665045 -1.5004873
-10.709468 -8.4798155 -1.4966915
-10.668139 -8.3411007 -1.4834061
-3.9293139 -3.0332277 -0.51970905
-10.726228 -8.1764231 -1.4772657
-10.811131 -8.1367483 -1.482178
-10.863246 -8.0720377 -1.482513
-10.91818 -8.0093451 -1.4832944
-10.989654 -7.9585228 -1.4864204
-11.03262 -7.8868961 -1.4856389
-11.191229 -7.8969765 -1.5008222
-11.324279 -7.8872294 -1.5124331
-11.43306 -7.8592558 -1.5206946
-11.532054 -7.8235474 -1.5276164
-11.727651 -7.8516049 -1.5476004
-11.912414 -7.8698835 -1.5660214
-12.046223 -7.85254 -1.5775206
-5.6878476 -3.6579361 -0.72178173
-5.7093463 -3.6224349 -0.72167009
-3.161535 -1.9785975 -0.38104922
-3.4027584 -2.1006515 -0.4113043
-12.247479 -7.4586535 -1.5730549
-3.4785416 -2.0889258 -0.4178912
-12.384257 -7.3351445 -1.5790836
-7.5919113 -4.4337778 -0.94975549
-7.6516976 -4.4059563 -0.95399791
-7.7131557 -4.3785486 -0.95846361
-7.9011726 -4.4214077 -0.97922909
-8.0543242 -4.4424419 -0.99541724
-7.8072858 -4.2439017 -0.96036148
-7.8086519 -4.1827774 -0.95723552
-7.9870863 -4.2155023 -0.97666126
-7.9466772 -4.1320286 -0.96828812
-7.9126229 -4.0528355 -0.9608081
-7.9054017 -3.9880934 -0.95678896
-7.6707478 -3.810837 -0.92430103
-7.6939859 -3.7636983 -0.92430103
-8.2174129 -3.9574738 -0.98670912
-8.2244806 -3.8988893 -0.98458791
-8.1708031 -3.8122137 -0.97498667
-8.2211332 -3.774447 -0.97833592
-5.7654476 -2.6041582 -0.67277074
-5.7840424 -2.5699439 -0.67310566
-8.0979948 -3.5389075 -0.95489103
-8.3258944 -3.5778317 -0.98012221
-8.3046675 -3.5084991 -0.97487503
-8.6472502 -3.5908799 -1.0139499
-8.4906273 -3.4649041 -0.99229121
-8.4084244 -3.3713169 -0.97978729
-8.2800903 -3.261025 -0.96181285
-8.210968 -3.1757405 -0.95109516
-8.5062151 -3.230087 -0.98425299
-8.5174942 -3.1747091 -0.98324817
-8.5321465 -3.1206799 -0.98268998
-8.3678074 -3.0024793 -0.9608081
-8.5632381 -3.013433 -0.9819085
-8.5477486 -2.9491634 -0.97788936
-8.5638008 -2.8960233 -0.97766608
-7.8126206 -2.5886486 -0.88667756
-7.8945212 -2.5621393 -0.89449251
-8.7662401 -2.7857611 -0.99541724
-8.7366724 -2.7174556 -0.98994672
-8.7541323 -2.6640866 -0.99005836
-8.7455502 -2.6029506 -0.98715568
-8.8310118 -2.56951 -0.9953056
-8.9068298 -2.5323999 -1.002339
-8.9308186 -2.4800944 -1.0033438
-8.8163872 -2.3901408 -0.98827207
-8.8424149 -2.3390493 -0.9896118
-9.0605946 -2.3373835 -1.01328
-9.0525999 -2.2761703 -1.0107123
-9.051918 -2.2170351 -1.0090376
-9.0953169 -2.1685979 -1.0124985
-9.1887989 -2.1313899 -1.0217648
-9.1416016 -2.0614126 -1.014843
-9.479269 -2.0765326 -1.0522432
-9.3022909 -1.9780178 -1.0304729
-9.3960056 -1.9377667 -1.0398508
-9.4613152 -1.8907906 -1.0459912
-9.7322607 -1.8829228 -1.0756881
-10.124578 -1.8944681 -1.1192286
-10.427424 -1.885 -1.152498
-10.843103 -1.8915282 -1.1986064
-11.356259 -1.909339 -1.2557672
-12.010303 -1.9436268 -1.3288929
-13.238623 -2.05917 -1.4672179
-13.572402 -2.025883 -1.5037249
-14.672591 -2.0981824 -1.6272014
-15.59002 -2.1318688 -1.7298007
-15.764411 -2.0572639 -1.7481101
-17.107067 -2.1258442 -1.8987156
-17.32309 -2.0448396 -1.9217139
-17.447897 -1.9511012 -1.9344412
-17.388386 -1.8364896 -1.9264029
-17.390427 -1.7288768 -1.9253982
-17.368055 -1.6190939 -1.9217139
-17.457853 -1.5194764 -1.930757
-17.454962 -1.4113671 -1.9294174
-17.454374 -1.3035727 -1.9284126
-17.453121 -1.1958385 -1.9274077
-17.450212 -1.088107 -1.9262913
-17.434732 -0.97978675 -1.9238352
-17.441408 -0.87284052 -1.9239469
-17.421616 -0.76471561 -1.9211558
-17.440876 -0.6583668 -1.9228305
-17.433662 -0.55099362 -1.9216024
-15.548736 1.1461185 -1.9093297
-15.529541 1.240553 -1.9078423
-15.508784 1.3347101 -1.9062309
-15.471648 1.4271997 -1.9026364
-15.452725 1.5211322 -1.901397
-15.439154 1.6155064 -1.9009012
-15.43684 1.711084 -1.9018928
-15.422108 1.8053087 -1.901397
-15.409756 1.8997815 -1.901273
-15.385016 1.9926404 -1.8996617
-15.36955 2.0866029 -1.8992898
-15.350563 2.1800318 -1.8985462
-15.321193 2.2718501 -1.8965631
-15.321674 2.3680909 -1.8984222
-15.29216 2.4596937 -1.8965631
-15.27678 2.5534782 -1.8965631
-15.257892 2.6466577 -1.8961911
-15.228669 2.7379451 -1.8945799
-15.177439 2.8249772 -1.8902416
-15.165666 2.9191766 -1.8909854
-15.150389 3.0127573 -1.8913572
-15.134533 3.1062603 -1.891729
-15.115189 3.1990657 -1.891729
-15.090427 3.290693 -1.8911093
-15.051557 3.3790929 -1.8887542
-15.018938 3.4687035 -1.8872669
-14.98096 3.5568948 -1.8851599
-14.946321 3.6456914 -1.8835485
-14.918857 3.7361259 -1.8829287
-14.891808 3.8266079 -1.8824329
-14.876683 3.9201865 -1.8835485
-14.855223 4.0121708 -1.8839203
-14.83415 4.1043038 -1.8844161
-14.802005 4.1933537 -1.8835485
-14.752171 4.2771883 -1.8804498
-14.708526 4.362545 -1.8782188
-14.668187 4.4486799 -1.8764834
-14.630189 4.5353656 -1.87512
-14.613436 4.6286459 -1.8766074
-14.58004 4.7166977 -1.8759876
-14.542344 4.8032684 -1.8748721
-14.492852 4.8857503 -1.8722693
-14.46917 4.9768443 -1.8731369
-14.428997 5.0622458 -1.8718973
-14.389256 5.1476765 -1.8707819
-14.348077 5.23247 -1.8695424
-14.325932 5.324213 -1.8709058
-14.294849 5.4127178 -1.8711537
-14.262294 5.5006847 -1.8712777
-14.225504 5.5870047 -1.8709058
-14.189112 5.6734486 -1.8706579
-14.16598 5.7652678 -1.8722693
-14.151424 5.8608146 -1.87512
-14.138971 5.9575553 -1.8783426
-14.12039 6.0520177 -1.8808216
-14.10573 6.148459 -1.8839203
-14.081346 6.2409267 -1.8857795
-14.07626 6.3422952 -1.8903656
-14.061437 6.4397035 -1.8937122
-14.047748 6.5380058 -1.8973067
-14.030688 6.6351094 -1.9005294
-14.004023 6.7279515 -1.9025126
-13.971395 6.8181047 -1.903752
-13.943521 6.9107547 -1.9057351
-13.928331 7.0100112 -1.9095775
-13.908913 7.1075349 -1.9129242
-13.888821 7.2050838 -1.9162707
-13.870688 7.3040404 -1.9199891
-13.849239 7.4016418 -1.9233358
-13.821879 7.4964161 -1.9259386
-13.786054 7.5868263 -1.927426
-13.74704 7.6756272 -1.9285415
-13.707454 7.764235 -1.9296571
-13.66988 7.8541293 -1.9311445
-13.644578 7.9513493 -1.934491
-13.617742 8.048049 -1.9377137
-13.620872 8.163084 -1.9453984
-13.599359 8.2640295 -1.9496127
-13.569514 8.3603315 -1.9527113
-13.531426 8.4518471 -1.9546945
-13.496078 8.5453329 -1.9571735
-13.458423 8.6376314 -1.9594046
-13.415982 8.7270832 -1.9610159
-13.373779 8.816885 -1.9627512
-13.328504 8.9048433 -1.9641145
-13.281008 8.9914646 -1.9652301
-13.240315 9.0828915 -1.9674612
-13.207148 9.1798201 -1.9709318
-13.182213 9.2829695 -1.9757657
-13.156507 9.386157 -1.9805996
-13.127618 9.4876337 -1.9850618
-13.092374 9.5850048 -1.9886563
-13.046067 9.6746159 -1.9906394
-12.996773 9.7622309 -1.9922508
-12.942945 9.8466005 -1.9932424
-12.891716 9.9330997 -1.9947298
-12.837565 10.017509 -1.9958452
-12.788313 10.105935 -1.9978284
-12.738459 10.194134 -1.9998115
-12.677981 10.273978 -2.0001833
-12.640782 10.372979 -2.0043976
-12.595976 10.466202 -2.0074964
-12.55126 10.559903 -2.0107191
-12.499825 10.6483 -2.0129499
-12.447778 10.736465 -2.0151811
-12.401097 10.829612 -2.0184038
-12.350768 10.919961 -2.0211306
-12.297579 11.008114 -2.0234857
-12.240095 11.092692 -2.0252209
-12.182037 11.17698 -2.0269561
-12.127768 11.265024 -2.0294352
-12.068538 11.348744 -2.0311704
-12.017361 11.440372 -2.0343931
-11.966228 11.532487 -2.0377395
-11.915835 11.625791 -2.0413342
-11.861925 11.71612 -2.0444329
-11.800338 11.799208 -2.0462921
-11.738177 11.881981 -2.0481513
-11.674058 11.963014 -2.0497625
-11.610764 12.045136 -2.0516217
-11.539374 12.119026 -2.0521176
-11.472274 12.197555 -2.0534811
-11.401267 12.272079 -2.0542247
-11.33179 12.348386 -2.0553403
-11.26847 12.431653 -2.0576952
-11.199259 12.508694 -2.0590587
-11.121638 12.576432 -2.0589347
-11.042956 12.642942 -2.0586867
-10.96582 12.711214 -2.0588107
-10.894054 12.785813 -2.0600502
-10.833285 12.873677 -2.0635207
-10.767407 12.955934 -2.0661237
-10.682673 13.01562 -2.0651321
-10.594487 13.070901 -2.0635207
-10.489905 13.105447 -2.0586867
-10.39822 13.155552 -2.0564559
-10.306314 13.205026 -2.0542247
-10.215405 13.255439 -2.0522416
-10.124267 13.305235 -2.0502584
-10.032901 13.354411 -2.0482752
-9.9590464 13.426879 -2.0500104
-9.8401299 13.438094 -2.0423257
-9.7609768 13.503044 -2.0430694
-9.6635323 13.542488 -2.0399706
-9.5773983 13.597471 -2.039351
-9.5073786 13.675536 -2.0423257
-9.4418125 13.760616 -2.046416
-9.3566446 13.81747 -2.0462921
-9.2694817 13.871321 -2.0457962
-9.1721773 13.909711 -2.0430694
-9.0807047 13.956578 -2.0417058
-8.992754 14.008694 -2.0412102
-8.8763704 14.015822 -2.0341451
-8.7802153 14.054032 -2.03179
-8.6828852 14.089902 -2.0291872
-8.592145 14.136129 -2.0281956
-8.4965734 14.174115 -2.0260885
-8.4028788 14.214877 -2.0244772
-8.3075056 14.252452 -2.0224941
-8.2124825 14.290252 -2.0206349
-8.1270905 14.34469 -2.0212545
-8.039403 14.395153 -2.0213785
-7.9274812 14.401614 -2.015305
-7.8351803 14.443007 -2.0143135
-7.7473478 14.492561 -2.0145614
-7.6333098 14.492414 -2.0078683
-7.5328178 14.516958 -2.0047696
-7.4458594 14.567324 -2.0053892
-7.348752 14.597669 -2.0032821
-7.2599254 14.644263 -2.00353
-7.1668868 14.682291 -2.0026624
-7.0775223 14.727778 -2.0029104
-6.9721727 14.739532 -1.9985721
-6.8761582 14.770341 -1.9969608
-6.7853994 14.812254 -1.9969608
-6.6817479 14.825564 -1.9931184
-6.5914588 14.868097 -1.9933662
-6.5056567 14.920997 -1.9951016
-6.4128079 14.957898 -1.9947298
-6.3216782 14.998794 -1.9949776
-6.2325659 15.044634 -1.9959692
-6.1431293 15.089946 -1.9969608
-6.0482125 15.121827 -1.9962171
-5.9516854 15.149418 -1.9949776
-5.8557615 15.178246 -1.993986
-5.7674389 15.226881 -1.9957213
-5.6714802 15.255472 -1.9948536
-5.5764074 15.286256 -1.9943578
-5.4818392 15.318316 -1.99411
-5.3907013 15.36009 -1.9952255
-5.296998 15.394754 -1.9954734
-5.2021208 15.426026 -1.9953494
-5.1039467 15.44729 -1.993986
-5.0057077 15.467932 -1.9926226
-4.9086065 15.491734 -1.991755
-4.8134584 15.521561 -1.991755
-4.7181296 15.550803 -1.991755
-4.622623 15.57946 -1.991755
-4.5233493 15.595141 -1.9901437
-4.4210825 15.599689 -1.9871689
-4.3197241 15.60644 -1.984566
-4.2223306 15.626904 -1.9838223
-4.1283894 15.660193 -1.9848139
-4.0304937 15.678503 -1.9839462
-3.9356627 15.708714 -1.98469
-3.8323817 15.70461 -1.9810954
-3.4991271 14.730528 -1.8530573
-3.3995202 14.712081 -1.8479755
-3.2920105 14.656177 -1.8381835
-3.1641712 14.50256 -1.8159969
-3.0443017 14.376084 -1.7974048
-2.9241092 14.238971 -1.7775731
-2.8378468 14.262484 -1.7783167
-2.7499053 14.277679 -1.7780689
-2.6337349 14.141126 -1.7586091
-2.5240867 14.030058 -1.7424958
-2.4411752 14.063858 -1.7448509
-2.3235836 13.891639 -1.7211767
-2.2600529 14.040832 -1.7382816
-2.1831048 14.114254 -1.7458425
-2.0993719 14.147015 -1.7483214
-1.9486129 13.709679 -1.6915532
-1.8609837 13.695812 -1.6883307
-1.7750005 13.692212 -1.6864713
-1.6921676 13.712694 -1.6877109
-1.6089195 13.730703 -1.6887025
-1.5433382 13.908965 -1.7098975
-1.4530071 13.870802 -1.703948
-1.3703011 13.904143 -1.7070467
-1.2965407 14.037778 -1.7227881
-1.2207661 14.166081 -1.7379098
-1.1996673 14.997255 -1.8411583
-1.1082071 15.012251 -1.8421499
-1.0163404 15.022728 -1.8426456
-0.92383945 15.023729 -1.842026
-0.8312549 15.02218 -1.8411583
-0.71074033 14.45018 -1.7690207
-0.62363797 14.490951 -1.7736068
-0.55259728 14.980396 -1.8343412
-0.45546767 14.813904 -1.8131461
-0.3650493 14.836259 -1.8156251
-0.27410007 14.843181 -1.8162448
-0.18286085 14.831684 -1.8146335
-0.091669895 14.802758 -1.810915
-0.00083941704 14.836781 -1.8151293
0.085217543 14.027806 -1.7141118
0.18280438 14.963669 -1.8311186
0.2744334 14.952344 -1.829879
0.36612538 14.948395 -1.8296312
0.45793149 14.948843 -1.830003
0.55008578 14.957651 -1.8314904
0.64185381 14.953994 -1.8314904
0.73150319 14.907157 -1.8261607
0.77123505 13.967096 -1.7091539
0.85192972 13.880887 -1.6989901
0.93695134 13.873418 -1.6987423
1.0651405 14.451271 -1.7718714
1.1560063 14.472159 -1.775342
1.1997359 13.94181 -1.7097735
1.2910056 13.996435 -1.7175823
1.3743324 13.962575 -1.7143596
1.4615294 13.968682 -1.7162188
1.5483061 13.969315 -1.7174584
1.6342219 13.961522 -1.7177062
1.7134186 13.899036 -1.7111371
1.793568 13.848899 -1.7061791
1.8821157 13.864182 -1.7095257
1.9785961 13.93293 -1.7196894
2.0652146 13.92838 -1.720681
2.1501839 13.912504 -1.7203091
2.261049 14.057757 -1.7403888
2.3272963 13.924218 -1.7252671
2.4106538 13.897943 -1.7237797
2.5167882 13.999108 -1.7385294
2.5851994 13.889752 -1.7266304
2.6705644 13.874602 -1.7267544
2.7691996 13.92608 -1.7354308
2.8613818 13.941875 -1.739645
2.9402964 13.892991 -1.7356787
3.0278134 13.885352 -1.7370421
3.1381774 13.978821 -1.75142
3.2296984 13.98444 -1.7546427
3.3344762 14.04449 -1.7649304
3.4593997 14.182827 -1.7853818
3.5666134 14.242188 -1.7957934
3.6719677 14.290192 -1.8048416
3.7431417 14.205023 -1.796785
3.8467951 14.243096 -1.8047177
3.9372928 14.230701 -1.806205
3.9947772 14.101258 -1.7925707
4.1199207 14.209904 -1.8099234
4.2027998 14.170087 -1.8080642
4.2888026 14.141184 -1.8076924
4.3531551 14.042571 -1.7982724
4.4422336 14.025056 -1.7995118
4.5269842 13.993759 -1.799016
4.6336193 14.028846 -1.8073206
4.7183433 13.996389 -1.8068248
4.8112364 13.987817 -1.8095516
4.8950024 13.952415 -1.808808
5.0019164 13.981911 -1.8167406
5.089994 13.957481 -1.8176082
5.1810718 13.940869 -1.8195914
5.2721367 13.923663 -1.8215746
5.3710432 13.926232 -1.8262845
5.4738069 13.937346 -1.832234
5.5676966 13.924687 -1.8350849
5.6683707 13.927944 -1.8401667
5.7719526 13.936906 -1.8461162
5.8646812 13.918601 -1.8484713
5.9730411 13.936163 -1.8557842
6.0743017 13.935635 -1.8607421
6.1673355 13.915337 -1.8630971
6.2758412 13.928799 -1.8701621
6.3764782 13.923409 -1.8747482
6.4890103 13.942494 -1.8828048
6.603713 13.96431 -1.8913572
6.7008758 13.947676 -1.8947037
6.8046117 13.94375 -1.8999096
6.9032621 13.928407 -1.903628
7.0193806 13.946944 -1.9121804
7.1305661 13.953975 -1.9192455
7.2366176 13.949595 -1.9248232
7.3396454 13.938293 -1.9295331
7.4465489 13.933249 -1.9352348
7.5716457 13.960563 -1.9456464
7.6796522 13.954699 -1.9514719
7.7927094 13.956697 -1.958537
7.9021659 13.950924 -1.9646103
8.0108557 13.942611 -1.970436
8.1267347 13.94549 -1.9779967
8.2454748 13.951741 -1.9861773
8.3528624 13.937483 -1.9915071
8.4938841 13.977548 -2.0048935
8.6143665 13.981767 -2.0131979
8.7304878 13.977458 -2.0203869
8.8436937 13.967218 -2.0268321
8.9919434 14.010393 -2.0413342
9.1134548 14.009851 -2.0495148
9.2309284 14.001717 -2.0567036
9.3480911 13.99184 -2.0637686
9.4337683 13.934218 -2.0637686
9.5353689 13.899799 -2.0673633
9.5978212 13.808439 -2.0624053
9.639514 13.688443 -2.0531092
9.7267809 13.633885 -2.0538528
9.7945585 13.552233 -2.0505064
9.8722534 13.484674 -2.0493908
9.9376659 13.400732 -2.0457962
9.9946718 13.306183 -2.0405905
10.059304 13.222495 -2.0371199
10.126316 13.142446 -2.0342691
10.190283 13.058943 -2.0309224
10.252991 12.974373 -2.027452
10.311945 12.885653 -2.0233617
10.370197 12.796698 -2.0192714
10.427747 12.707515 -2.0151811
10.489667 12.624213 -2.0120823
10.55032 12.539871 -2.0088599
10.618054 12.464325 -2.0071244
10.683964 12.386918 -2.0051413
10.746059 12.305434 -2.0025384
10.801642 12.216966 -1.9988199
10.863164 12.135673 -1.996341
10.921429 12.051144 -1.9933662
10.979066 11.966357 -1.9903915
11.032022 11.876956 -1.9866731
11.091774 11.795307 -1.9843181
11.148887 11.711217 -1.9815912
11.20332 11.624727 -1.9784925
11.2682 11.549375 -1.9773771
11.330484 11.471545 -1.9758897
11.384521 11.38567 -1.9730388
11.433695 11.295379 -1.9694444
11.502787 11.22501 -1.9694444
11.537866 11.121855 -1.9636188
11.590799 11.036482 -1.9610159
11.641673 10.949519 -1.958165
11.694826 10.865049 -1.9558101
11.734951 10.768936 -1.9513479
11.779485 10.677404 -1.9477534
11.82038 10.583085 -1.9436632
11.867253 10.494582 -1.9406885
11.914234 10.406556 -1.9378376
11.962084 10.319646 -1.9352348
12.021402 10.242836 -1.934615
12.082506 10.167603 -1.9343671
12.119481 10.072347 -1.9302769
12.152674 9.9745026 -1.9256908
12.201313 9.8897514 -1.9237076
12.238523 9.7960987 -1.9199891
12.284388 9.7097454 -1.9177581
12.330436 9.6238089 -1.915651
12.37825 9.5394907 -1.9139158
12.425494 9.4549475 -1.9121804
12.464233 9.3642254 -1.9092057
12.495155 9.2680635 -1.9051154
12.525367 9.1718769 -1.9010252
12.557281 9.0774117 -1.8973067
12.590125 8.9840536 -1.8938361
12.62392 8.891778 -1.8906136
12.663575 8.803957 -1.8883824
12.700173 8.7143011 -1.8857795
12.73615 8.624527 -1.8831767
12.764077 8.5296793 -1.8794582
12.793806 8.4364529 -1.8761116
12.828694 8.3469706 -1.8736327
12.862967 8.2573786 -1.8711537
12.89411 8.1660872 -1.8683029
12.9263 8.0757771 -1.8657
12.962091 7.9879827 -1.8637168
12.996446 7.8995376 -1.8616097
13.037863 7.8155632 -1.8606181
13.091552 7.7389517 -1.8614857
13.116501 7.6454873 -1.8582631
13.142516 7.5529971 -1.8552884
13.170483 7.4619431 -1.8526855
13.177899 7.3597045 -1.8472317
13.194122 7.2629189 -1.8431414
13.219249 7.1714163 -1.8404146
13.256001 7.0864277 -1.8394231
13.274651 6.9920106 -1.8359525
13.296164 6.8994603 -1.8329778
13.332946 6.8150373 -1.832234
13.364761 6.7281923 -1.8308706
13.395124 6.6407728 -1.8293833
13.424918 6.5532341 -1.8278959
13.460403 6.4685884 -1.8272761
13.507914 6.3896933 -1.8283917
13.547765 6.3071089 -1.8285156
13.600644 6.2304735 -1.8304988
13.640428 6.1477199 -1.8307467
13.6915 6.0699391 -1.832606
13.72121 5.9826436 -1.8316144
13.777725 5.9069395 -1.8343412
13.818282 5.8242164 -1.8349609
13.852841 5.7389398 -1.834837
13.893309 5.6560769 -1.8355807
13.934202 5.5733018 -1.8364483
13.969984 5.4884233 -1.8366961
14.006175 5.4036732 -1.8370681
14.039995 5.3179827 -1.8371919
14.077942 5.233809 -1.8379357
14.108859 5.1469898 -1.8378117
14.156992 5.0663395 -1.8400428
14.187812 4.9793787 -1.8400428
14.212468 4.8902936 -1.8392991
14.25255 4.8064823 -1.8406625
14.316635 4.7304559 -1.8452486
14.308571 4.630609 -1.8404146
14.338607 4.5433254 -1.8406625
14.352945 4.4511461 -1.8389273
14.371441 4.3604021 -1.8378117
14.395071 4.2712917 -1.8374399
14.439116 4.1881356 -1.8397949
14.4865 4.1056814 -1.8426456
14.519071 4.0188336 -1.8436372
14.550161 3.9314821 -1.844505
14.585526 3.8451645 -1.8459923
14.604039 3.7543621 -1.8453726
14.637388 3.6673346 -1.846736
14.636478 3.5718081 -1.8437612
14.687082 3.4888108 -1.8474797
14.708213 3.3986268 -1.8474797
14.713299 3.3048368 -1.8454965
14.734269 3.2147067 -1.8456204
14.757601 3.1250606 -1.8461162
14.804687 3.0402372 -1.8497107
14.8435 2.9534049 -1.8523136
14.875958 2.8650851 -1.8541728
14.885453 2.7723012 -1.8531812
14.91195 2.6826699 -1.8544208
14.91151 2.5882378 -1.8523136
14.906557 2.4932578 -1.8497107
14.918635 2.401273 -1.8493389
14.947799 2.3119626 -1.8511981
14.993113 2.2248597 -1.8551644
15.028095 2.1358919 -1.8578913
7.0794258 0.96251774 -0.85428548
6.4583488 0.83785266 -0.77533066
6.4554896 0.79723763 -0.77433908
6.4444909 0.75576609 -0.77235591
6.4233646 0.71336609 -0.76913327
6.4157782 0.67270005 -0.7676459
6.4099097 0.63234854 -0.76640642
6.3998356 0.59172964 -0.76467115
6.4013686 0.55227965 -0.76442325
6.3917785 0.51196361 -0.76281196
6.4145913 0.47419423 -0.76529092
6.3955994 0.43335426 -0.76256406
6.3862529 0.39337355 -0.76107669
6.3816109 0.35379758 -0.76020902
6.3658223 0.31375808 -0.75797796
6.3735757 0.27494773 -0.75872165
6.3741512 0.23579854 -0.75859773
6.3784533 0.19677429 -0.75896955
6.3795409 0.15763313 -0.75896955
6.3863406 0.1185955 -0.75971323
6.3839717 0.079370946 -0.75934142
6.3883076 0.040222406 -0.75983721
6.3914108 0.0010236665 -0.76020902
6.3972502 -0.038229972 -0.76095271
6.3968954 -0.077482045 -0.76095271
6.408205 -0.11695063 -0.76244009
6.4192705 -0.15656093 -0.76392746
6.4271154 -0.19622003 -0.76504302
6.4386816 -0.23612745 -0.76665431
6.4509907 -0.27622682 -0.76838958
6.4640408 -0.31653482 -0.77024883
6.46594 -0.35641062 -0.77074462
6.4745259 -0.39674774 -0.77210802
6.5036507 -0.43860948 -0.77607435
6.5701089 -0.4836182 -0.7847507
13.6858 -1.0931301 -1.6768035
13.512745 -1.1627775 -1.6559802
13.460892 -1.2415633 -1.6504025
13.35822 -1.3147954 -1.6385036
13.275884 -1.3889846 -1.6292075
13.195116 -1.4624319 -1.6201593
10.597838 -1.2402143 -1.2946723
10.593968 -1.3057041 -1.295168
10.587726 -1.3709379 -1.2954159
10.585013 -1.4366785 -1.2961596
10.575999 -1.5015999 -1.2961596
10.576402 -1.567921 -1.297399
12.965212 -2.0036993 -1.6005756
12.929161 -2.0794308 -1.5976008
12.904414 -2.1567597 -1.5961134
12.841076 -2.227246 -1.589792
12.841817 -2.3086305 -1.5916513
12.833263 -2.3884728 -1.5923949
12.815443 -2.4666083 -1.5920231
12.823424 -2.5498426 -1.5949979
12.825033 -2.6320701 -1.5972289
12.802817 -2.7094803 -1.5964853
12.779165 -2.7865055 -1.5956177
12.756986 -2.8637772 -1.5949979
12.753676 -2.9453492 -1.5968571
12.737294 -3.0240076 -1.597105
8.2483988 -2.0114045 -1.0223588
12.812807 -3.208539 -1.6117308
12.846697 -3.3009303 -1.6186719
12.836756 -3.3824761 -1.6200353
7.5872993 -2.0486252 -0.94352794
12.682389 -3.508781 -1.6055335
12.622434 -3.5757108 -1.6005756
12.451585 -3.6099761 -1.5812397
7.9989748 -2.3719406 -1.0040145
7.9681277 -2.4160795 -1.0019073
7.9389367 -2.4605172 -1.0000482
7.9388247 -2.5139785 -1.0020313
8.5000896 -2.7493012 -1.0777634
12.566552 -4.1505075 -1.6149535
12.519222 -4.2202439 -1.6121026
12.442423 -4.2795482 -1.6054095
12.382223 -4.3439846 -1.6009474
7.7194567 -2.7610204 -0.9859181
12.327983 -4.4956064 -1.6009474
12.278774 -4.5632124 -1.5980966
12.23384 -4.6321416 -1.5958655
12.193152 -4.702477 -1.5942541
12.152987 -4.7728505 -1.5927668
12.099517 -4.8377495 -1.5895442
12.048467 -4.903295 -1.5866934
11.997986 -4.9687762 -1.5839665
11.950812 -5.0353642 -1.5817355
11.902363 -5.1011696 -1.5793804
11.855375 -5.1673636 -1.5772734
11.811653 -5.2347817 -1.575662
11.762122 -5.2994118 -1.573307
11.703221 -5.3594995 -1.5697125
11.656622 -5.4249268 -1.5678533
11.613249 -5.4916811 -1.5664898
11.56413 -5.5555291 -1.5643828
11.510205 -5.6168051 -1.5616559
11.463967 -5.6815953 -1.5600445
11.404959 -5.7397838 -1.556698
11.34832 -5.7988167 -1.5537232
11.301956 -5.8628554 -1.5522358
11.253478 -5.9256191 -1.5505006
11.195029 -5.9828629 -1.5474019
11.142408 -6.0429254 -1.5451708
11.100774 -6.1087875 -1.5445511
11.062215 -6.176302 -1.5444272
11.018929 -6.2411275 -1.5436834
10.958058 -6.2957664 -1.5404608
10.876357 -6.3379016 -1.5342634
10.832993 -6.4019938 -1.5336437
10.786698 -6.464262 -1.5326521
10.741743 -6.5272336 -1.5319084
10.687129 -6.5841713 -1.5298012
10.619598 -6.6327991 -1.5258349
10.561934 -6.6872168 -1.523356
10.509848 -6.7449293 -1.5217447
10.44747 -6.7957611 -1.518646
10.391492 -6.8504519 -1.5165389
10.359163 -6.9206996 -1.5180262
10.321433 -6.9874701 -1.51877
10.285728 -7.0557222 -1.5198854
10.228392 -7.1090727 -1.5177784
10.1789 -7.1676993 -1.5169107
10.129073 -7.2259865 -1.5160431
10.076503 -7.2821884 -1.5148036
10.026026 -7.339776 -1.5139359
9.9640646 -7.3887429 -1.5113331
9.908227 -7.4419937 -1.5097218
9.8489523 -7.492435 -1.5076146
9.7823582 -7.5369778 -1.504392
9.7257595 -7.588923 -1.5027807
9.673562 -7.6441493 -1.5019131
9.6249266 -7.7021208 -1.5016651
9.5612974 -7.7479129 -1.4990622
9.5059071 -7.8001385 -1.4978228
9.4426041 -7.8456349 -1.4953438
9.3874531 -7.897676 -1.4942282
9.3388176 -7.9551272 -1.4942282
9.2845697 -8.0077429 -1.4933606
9.2300291 -8.0599918 -1.492493
9.1692505 -8.1066141 -1.4906337
9.110465 -8.1547804 -1.4891464
9.0573158 -8.2078629 -1.4886506
9.0111694 -8.2673082 -1.4893943
8.9573641 -8.3197422 -1.4888985
8.8953047 -8.3643494 -1.4870393
8.8380651 -8.4132986 -1.4860477
8.7834177 -8.4646158 -1.485552
8.7235022 -8.5107269 -1.4841884
8.6668816 -8.5599089 -1.4834448
8.6163006 -8.6150322 -1.4838166
8.5653696 -8.6698561 -1.4841884
8.5120115 -8.722249 -1.4841884
8.4493809 -8.7650261 -1.4825772
6.9893937 -7.3398237 -1.2278643
8.3153524 -8.8405838 -1.4778671
8.2447424 -8.873991 -1.4748924
8.1800747 -8.9134455 -1.4730332
8.1172323 -8.9546471 -1.4715458
8.0548544 -8.9961519 -1.4701824
6.7269874 -7.6062346 -1.2302194
6.6625667 -7.6271877 -1.2268727
2.1507452 -2.4916408 -0.37299591
2.1302683 -2.4987478 -0.37200433
2.1187294 -2.5163274 -0.37274802
2.086761 -2.5094376 -0.36952537
7.6303024 -9.2961302 -1.4641089
7.4269233 -9.1623812 -1.4351051
2.0402169 -2.5474229 -0.36952537
2.0140884 -2.5466585 -0.36741826
1.9886569 -2.5464523 -0.36543509
1.9542193 -2.5342402 -0.36159271
1.9224105 -2.5248611 -0.35824612
1.8955586 -2.5215349 -0.35589111
1.8753223 -2.5267422 -0.35489953
1.8609556 -2.5398028 -0.35514742
1.8441741 -2.5495651 -0.35489953
1.8423272 -2.5802193 -0.35787427
6.9257617 -9.832262 -1.4641089
6.8568063 -9.8623505 -1.4622498
6.7871814 -9.8911457 -1.4602666
6.7258062 -9.9317837 -1.4601426
6.6630859 -9.9703903 -1.4597708
1.8411461 -2.7904298 -0.3794412
1.8218253 -2.7983472 -0.37894541
1.8115885 -2.8203292 -0.38055673
1.8101748 -2.8565421 -0.38427517
6.4939466 -10.39395 -1.4927409
6.4321303 -10.43698 -1.4932367
