# .PCD v0.7 - Point Cloud Data file format
VERSION 0.7
FIELDS x y z
SIZE 4 4 4
TYPE F F F
COUNT 1 1 1
WIDTH 1512
HEIGHT 1
VIEWPOINT 0 0 0 1 0 0 0
POINTS 1512
DATA ascii
7.9755664 -19.601845 -1.0461571
7.8614426 -19.666178 -1.0470262
7.8220096 -19.92135 -1.0584249
7.7883596 -20.199135 -1.0710506
7.6943226 -20.325935 -1.0753955
7.5736337 -20.383999 -1.0760088
7.4138722 -20.335318 -1.0708461
7.3118234 -20.444372 -1.074322
7.1188221 -20.296597 -1.0638944
7.0425305 -20.480616 -1.0715107
6.9026999 -20.4818 -1.0692616
6.7812791 -20.537046 -1.0699772
6.6545238 -20.576368 -1.0698749
6.5480385 -20.679651 -1.0732486
6.3752127 -20.571579 -1.0653256
6.2798676 -20.712574 -1.0707951
5.6621709 -19.096146 -0.98246682
6.1572542 -21.243711 -1.095075
5.9903312 -21.152328 -1.0882255
5.8319492 -21.085691 -1.0827562
4.0104847 -14.852921 -0.75045192
3.9180017 -14.872421 -0.75019634
5.2595143 -20.475595 -1.0450326
5.1427512 -20.543327 -1.0469239
5.0263004 -20.614279 -1.0490197
4.8851933 -20.583513 -1.0457994
4.7653165 -20.641321 -1.0472817
0.53654158 -2.386199 -0.08819481
0.51997626 -2.3806641 -0.087734766
0.50163937 -2.3662224 -0.086814679
0.49333116 -2.3995838 -0.088399269
0.47937688 -2.4064839 -0.088603735
0.4642247 -2.4074187 -0.088501506
0.44871387 -2.4062943 -0.088297039
0.43235147 -2.4001555 -0.087836996
0.42716679 -2.4578686 -0.090699486
0.47129902 -2.8150618 -0.10910119
0.45813715 -2.8435378 -0.1104302
0.44235733 -2.8571522 -0.11099248
0.4220373 -2.8410423 -0.11002128
0.40263313 -2.8297353 -0.10930566
0.38539684 -2.8331423 -0.10935678
0.3664681 -2.8235683 -0.10874338
0.34803763 -2.816843 -0.10828334
0.3395611 -2.8943126 -0.11216815
0.3280589 -2.9529216 -0.11508175
0.20707755 -1.9705336 -0.06442593
0.19459191 -1.9677916 -0.064221472
0.18040745 -1.9460753 -0.0630458
0.1673518 -1.9342103 -0.062381297
0.15548055 -1.9352008 -0.062381297
0.14426291 -1.9450823 -0.062841341
0.13172096 -1.9369631 -0.062381297
0.11928409 -1.9287634 -0.061921254
0.10755703 -1.9314533 -0.062023487
0.095459789 -1.9270895 -0.061767906
0.083548225 -1.9256433 -0.061665677
0.071548313 -1.9211296 -0.061410096
0.059546061 -1.9145448 -0.061052285
0.048064958 -1.9258566 -0.061614558
0.036610954 -1.9460857 -0.062636875
0.024355762 -1.9203097 -0.061307862
0.012341165 -1.8814746 -0.059314344
0.00080112822 -1.8575463 -0.058087565
-0.010444801 -1.8335481 -0.056860786
-0.021807108 -1.842437 -0.057320826
-0.033891987 -1.8842064 -0.059467692
-0.0453538 -1.8799694 -0.059263229
-0.057381514 -1.8956271 -0.060081083
-0.070305206 -1.9301697 -0.061870139
-0.079907127 -1.8778183 -0.059212115
-0.093887672 -1.9271667 -0.061767906
-0 -0 -0
-0.18504839 -3.021354 -0.11794424
-0.20081398 -2.9793091 -0.11584849
-0.28015831 -3.8036819 -0.15822354
-1.6683409 -20.833927 -1.0327648
-0.29314908 -3.40992 -0.13818613
-0.26733854 -2.9028778 -0.11221926
-0.28514522 -2.9011827 -0.11221926
-0.36742893 -3.5141964 -0.14385998
-0.40243801 -3.6329713 -0.15009612
-0.44357249 -3.7911201 -0.15837689
-0.47466251 -3.8517611 -0.1616483
-0.49738786 -3.8418434 -0.16129048
-0.34341541 -2.5334618 -0.093868665
-0.5419637 -3.8176529 -0.16037041
-0.44975287 -3.0358262 -0.1200911
-0.47387236 -3.0685391 -0.12193128
-0.49586853 -3.0852935 -0.12295359
-0.63746905 -3.8150227 -0.1609838
-0.54429024 -3.1399813 -0.12612277
-3.5880694 -19.935133 -0.99974394
-3.860193 -20.716824 -1.0416079
-3.7821562 -19.62875 -0.98614717
-0.5191859 -2.6134179 -0.099389181
-0.53601587 -2.6140962 -0.099593647
-0.89820385 -4.2442985 -0.18505937
-0.8980276 -4.1186948 -0.17877211
-0.96357965 -4.2923937 -0.18817744
-4.8233457 -20.865713 -1.0591406
-5.2699909 -22.176565 -1.1296805
-0.67664516 -2.7759609 -0.10925454
-0.69463682 -2.7756317 -0.10945901
-0.71911848 -2.8003335 -0.11099248
-0.73246664 -2.7813833 -0.11022574
-0.64812917 -2.401809 -0.090341672
-0.6082108 -2.2004819 -0.079862922
-0.63477904 -2.2428274 -0.082316481
-0.73815554 -2.5477271 -0.098775789
-0.76031137 -2.56517 -0.099951454
-0.66986263 -2.210695 -0.081243053
-0.77190399 -2.4917397 -0.09652669
-0.793818 -2.5079005 -0.097651243
-0.8368783 -2.5884943 -0.10225167
-0.87249309 -2.6430488 -0.10547197
-0.71181846 -2.113404 -0.07715378
-0.61782449 -1.7983195 -0.060336664
-0.6943571 -1.9810692 -0.0704576
-1.1986587 -3.3514128 -0.14518899
-0.73915941 -2.0286889 -0.073524557
-0.7648229 -2.0596852 -0.075466961
-0.75125903 -1.9858456 -0.071684383
-7.8743086 -20.404684 -1.0824494
-1.197879 -3.0509541 -0.13077432
-1.2054462 -3.0157299 -0.12924084
-1.3245057 -3.2552319 -0.14288878
-1.3872793 -3.3503745 -0.14861375
-1.1982809 -2.8448732 -0.12101119
-1.7680153 -4.1251898 -0.19272675
-1.2842096 -2.9471257 -0.12755401
-1.3083421 -2.9528844 -0.12832075
-1.7718121 -3.9326215 -0.18378147
-1.7472295 -3.8154519 -0.17780091
-0.84471619 -1.8165594 -0.065550484
-0.85755515 -1.814953 -0.065754943
-0.87256974 -1.8177577 -0.066214986
-0.88063931 -1.8060876 -0.065857172
-0.89791673 -1.813176 -0.0665728
-0.91037285 -1.8103083 -0.066726148
-0.92191821 -1.8055775 -0.066777259
-0.94034147 -1.8140689 -0.067595117
-0.95145464 -1.808265 -0.067595117
-0.96347398 -1.8041543 -0.067697346
-0.97119147 -1.7920642 -0.067339532
-0.97301632 -1.7694496 -0.066368334
-0.98093265 -1.7582147 -0.066061638
-1.4984071 -2.6462123 -0.11865986
-1.4563794 -2.5356681 -0.1126793
-1.4593344 -2.5051157 -0.11140141
-1.4858613 -2.5150263 -0.11252595
-1.5305403 -2.5546827 -0.11543956
-1.0942732 -1.8019851 -0.070917644
-1.1231277 -1.8241416 -0.072655588
-0 -0 -0
-2.5740502 -4.0652828 -0.20928828
-5.1665068 -8.0477924 -0.45249754
-1.677467 -2.5794818 -0.12050003
-1.6228753 -2.4624317 -0.1139572
-1.4359314 -2.150208 -0.095351025
-1.4418166 -2.1306076 -0.094686523
-1.3412668 -1.9562172 -0.084412232
-1.3315772 -1.9167937 -0.082469828
-1.3410125 -1.9053216 -0.08226537
-1.3532583 -1.8978703 -0.082316481
-1.3619519 -1.8854847 -0.082060903
-1.3729053 -1.8762867 -0.082009785
-1.3998641 -1.8886805 -0.083338797
-1.7252202 -2.2976053 -0.1100724
-1.7882805 -2.3513451 -0.11421278
-1.4807316 -1.9227059 -0.087223604
-1.5687094 -2.0111964 -0.09356197
-1.6231396 -2.0548048 -0.097037852
-1.6288509 -2.0362313 -0.096475579
-1.6626992 -2.0525739 -0.098213516
-1.698076 -2.0701208 -0.10005369
-2.4494209 -2.9482069 -0.15919474
-2.4867589 -2.9560432 -0.16072822
-2.5126238 -2.9498501 -0.16134161
-2.5391586 -2.9442065 -0.16200611
-2.4579546 -2.8150079 -0.15428762
-2.1178648 -2.3959386 -0.12668505
-2.17117 -2.4260478 -0.12964977
-2.1075284 -2.3261175 -0.12366921
-2.1791666 -2.3756785 -0.12801406
-2.0869653 -2.2474072 -0.11998887
-2.1773608 -2.316026 -0.12571386
-2.9664094 -3.116183 -0.18321919
-2.4454672 -2.5378799 -0.14339994
-2.4602957 -2.5221126 -0.14334883
-2.5346906 -2.5666397 -0.14764255
-3.2496493 -3.2500219 -0.19824725
-2.6221371 -2.5907757 -0.15168071
-2.6487083 -2.5850978 -0.15244745
-3.198884 -3.0836387 -0.19042653
-2.6679337 -2.540695 -0.15157847
-3.1564429 -2.9689064 -0.18480378
-3.176064 -2.9508419 -0.18490602
-2.691432 -2.4702296 -0.14999388
-3.1883526 -2.8901875 -0.18327031
-3.2945881 -2.9498215 -0.18935309
-2.8105252 -2.4857495 -0.15505436
-2.8340001 -2.4756823 -0.15561663
-3.6349819 -3.1358519 -0.208726
-3.648072 -3.1083088 -0.20831709
-3.3078578 -2.7837315 -0.18429263
-4.2405982 -3.5240431 -0.24522273
-3.3209219 -2.7258272 -0.1829125
-3.495888 -2.8336463 -0.19334014
-3.4165092 -2.7347803 -0.18700176
-3.5813355 -2.8307741 -0.19666266
-11.054873 -8.6252947 -0.68067878
-3.2368233 -2.4946957 -0.17217816
-3.0104153 -2.2910006 -0.15663895
-3.024416 -2.272486 -0.15663895
-3.0383029 -2.2538857 -0.15663895
-3.0536871 -2.2363801 -0.15674117
-3.1175416 -2.2538631 -0.15991037
-3.0809009 -2.1987383 -0.15674117
-3.0649354 -2.1590967 -0.15490101
-3.0756652 -2.1385403 -0.15474766
-4.3142791 -2.9600961 -0.23080806
-4.5399561 -3.0740697 -0.24363814
-4.5985961 -3.0727799 -0.24609171
-4.6198654 -3.0461543 -0.24624506
-4.5313034 -2.9480608 -0.23970222
-5.7731633 -3.7054229 -0.31412691
-5.6953721 -3.6063678 -0.30804414
-5.7165461 -3.5708249 -0.30799302
-23.80648 -14.664044 -1.3941028
-23.859308 -14.495399 -1.3919048
-3.778321 -2.2649894 -0.18848413
-3.8274012 -2.2625911 -0.19057988
-3.8878109 -2.2662106 -0.19334014
-3.9224274 -2.2542505 -0.19456692
-3.8909948 -2.2045522 -0.1919089
-3.8747988 -2.1640866 -0.19017094
-3.8407536 -2.1142759 -0.1874107
-3.8852606 -2.107806 -0.18925087
-3.9183805 -2.0947506 -0.19042653
-3.9461832 -2.0785768 -0.1912955
-4.0014181 -2.0763929 -0.19374906
-4.0701141 -2.0804234 -0.19696936
-4.3584752 -2.1941047 -0.21276416
-4.3763304 -2.1695371 -0.21301974
-7.6154828 -3.7163363 -0.39673015
-4.418829 -2.1234517 -0.21393983
-4.4055915 -2.0839207 -0.21245746
-5.7149615 -2.660109 -0.28565538
-5.7257276 -2.6224983 -0.28534868
-26.496897 -11.935349 -1.4504325
-26.558676 -11.767687 -1.4498191
-5.8627539 -2.5557566 -0.29035804
-5.818656 -2.4941709 -0.2870355
-5.7942739 -2.4417522 -0.28483751
-5.8211427 -2.4111192 -0.28550205
-5.8154759 -2.3670766 -0.28437749
-9.5718088 -3.8269205 -0.49062997
-9.6239281 -3.7794304 -0.49221456
-23.277016 -8.9749346 -1.2398863
-23.302691 -8.820982 -1.2383016
-28.234821 -10.490111 -1.5046664
-28.339941 -10.331717 -1.5069156
-0 -0 -0
-28.531506 -10.00663 -1.5105448
-28.618811 -9.8404665 -1.511976
-11.497535 -3.875396 -0.58401865
-7.828229 -2.5856206 -0.3849735
-7.8192401 -2.5295501 -0.38364449
-28.764093 -9.1074314 -1.5072733
-28.811804 -8.9284019 -1.5068644
-28.869867 -8.7526073 -1.5070689
-29.139425 -8.6394501 -1.5186211
-29.541048 -8.5616713 -1.5372273
-9.7529697 -2.7626901 -0.48183805
-9.6792555 -2.6777744 -0.47703317
-12.903343 -3.4842312 -0.64709562
-9.7104216 -2.5585392 -0.47698206
-9.7211008 -2.4976668 -0.47672647
-18.077705 -4.5256591 -0.91683406
-13.086843 -3.1913528 -0.65246278
-13.326757 -3.1633317 -0.66406608
-13.126966 -3.030966 -0.65256506
-15.797824 -3.5454566 -0.79170239
-11.504326 -2.5081615 -0.56566805
-11.489209 -2.431119 -0.56408346
-17.786736 -3.6491487 -0.89234954
-17.820547 -3.5422785 -0.89296293
-17.862541 -3.4368281 -0.89403635
-19.758638 -3.6759419 -0.99166763
-19.788685 -3.5560486 -0.99207658
-18.019211 -3.1241684 -0.89904571
-32.271042 -5.3904657 -1.6376188
-32.284775 -5.1893425 -1.6366476
-20.154249 -3.1132312 -1.0067979
-25.898912 -3.8377223 -1.3030655
-32.036659 -4.5462303 -1.619166
-32.002594 -4.3412504 -1.6159968
-32.003868 -4.1416011 -1.6147189
-18.19838 -2.2421031 -0.90149927
-23.95808 -2.8022225 -1.1976135
-32.261292 -3.5724707 -1.6243286
-32.875599 -3.436415 -1.6548449
-32.973587 -3.2422495 -1.6588318
-33.742702 -3.1089277 -1.6973733
-33.71537 -2.8978953 -1.6950219
-0 -0 -0
-0 -0 -0
-0 -0 -0
-0 -0 -0
-37.899776 -2.0887845 -1.9057726
-0 -0 -0
-0 -0 -0
-0 -0 -0
-37.984543 -1.1594181 -1.9080728
-0 -0 -0
-0 -0 -0
-0 -0 -0
-0 -0 -0
-0 0 -0
-0 0 -0
-37.802567 0.47018829 -1.898003
-0 0 -0
-0 0 -0
-0 0 -0
-0 0 -0
-0 0 -0
-0 0 -0
-37.785404 2.0950332 -1.8999454
-0 0 -0
-0 0 -0
-30.841818 -0.78028893 -1.9092528
-30.806112 -0.59026712 -1.9067342
-30.785204 -0.40092105 -1.905223
-0 -0 -0
-30.730919 -0.023065602 -1.9016341
-30.683577 0.16524421 -1.8986747
-30.643064 0.35306406 -1.8962191
-30.570471 0.53984714 -1.8918115
-30.628443 0.72888517 -1.8957154
-30.51366 0.91352028 -1.8887893
-30.5005 1.1004796 -1.8883485
-30.485195 1.2872697 -1.8878448
-30.497658 1.4753115 -1.8891671
-0 0 -0
-30.474268 1.8492723 -1.8889781
-30.467327 2.0365567 -1.889293
-30.440321 2.2224452 -1.8884114
-0 0 -0
-30.340155 2.5898018 -1.8839409
-30.300833 2.7738245 -1.8824928
-30.245499 2.9560063 -1.8801001
-30.161276 3.1347251 -1.8759445
-30.144449 3.32006 -1.8761333
-30.12351 3.5049603 -1.8761333
-30.116297 3.69155 -1.8770778
-29.977266 3.8613546 -1.8697109
-30.187412 4.0768723 -1.8846335
-29.917744 4.2275348 -1.8690813
-30.330601 4.4758568 -1.8971006
-30.050043 4.6230321 -1.8809816
-29.915667 4.7904453 -1.8742445
-29.938871 4.9827609 -1.8776445
-29.886099 5.1626315 -1.8762592
-0 0 -0
-30.02166 5.5662866 -1.8891671
-0 0 -0
-30.227167 5.9889746 -1.9069231
-30.193762 6.1751323 -1.9071749
-30.171906 6.3637829 -1.9082453
-30.179102 6.5589676 -1.9112676
-30.149002 6.7464166 -1.9119602
-30.170256 6.9458337 -1.9160529
-0 0 -0
-30.15839 7.3339396 -1.9209642
-30.447851 7.6024981 -1.94275
-0 0 -0
-30.530834 8.0224876 -1.9543985
-30.518618 8.2197924 -1.9568541
-30.478191 8.4098167 -1.9575467
-0 0 -0
-30.528009 8.8281097 -1.967747
-30.879999 9.1355829 -1.994507
-30.760317 9.3058147 -1.9903513
-0 0 -0
-30.812244 9.7358103 -2.0014961
-0 0 -0
-30.824102 10.15723 -2.0103741
-30.745117 10.340764 -2.0093038
-0 0 -0
-31.094427 10.884778 -2.0412898
-31.147366 11.118309 -2.0493493
-31.045734 11.297273 -2.0471454
-31.073149 11.523642 -2.0536938
-31.031731 11.725374 -2.0557086
-31.05793 11.953559 -2.0623829
-30.988647 12.145722 -2.0626976
-30.914465 12.336006 -2.0627608
-30.832644 12.523209 -2.0623829
-30.736774 12.704534 -2.0611236
-30.30405 12.743946 -2.0368822
-30.260153 12.944564 -2.0392749
-30.099623 13.094957 -2.0337341
-29.931087 13.24064 -2.0276895
-29.84655 13.422816 -2.0275004
-29.652889 13.555079 -2.0198188
-29.443348 13.678325 -2.0110667
-29.390453 13.873639 -2.0132704
-29.159891 13.984235 -2.0031331
-29.062769 14.157649 -2.0023775
-28.918102 14.307384 -1.9983479
-28.811043 14.475144 -1.9970256
-28.601664 14.59043 -1.9885254
-0 0 -0
-28.302971 14.878556 -1.9801511
-28.077305 14.980532 -1.9705803
-27.961161 15.139699 -1.9688803
-27.802137 15.274939 -1.9641579
-27.707016 15.444756 -1.964095
-27.568291 15.58991 -1.9609468
-27.404589 15.720038 -1.9560355
-27.251545 15.855271 -1.9519428
-27.14687 16.018127 -1.9514391
-26.97699 16.141865 -1.946213
-26.855253 16.293629 -1.944576
-26.706318 16.428299 -1.940987
-26.627031 16.605587 -1.9426241
-26.43775 16.713726 -1.9361387
-26.347303 16.883707 -1.9370831
-26.171232 16.998302 -1.9316682
-26.053934 17.150335 -1.9307238
-25.915833 17.288277 -1.9282681
-25.750561 17.407286 -1.9237976
-25.565868 17.511946 -1.917879
-25.443178 17.658243 -1.9167455
-25.301695 17.791065 -1.914227
-25.163603 17.925713 -1.9120232
-25.032099 18.06459 -1.9103861
-24.908699 18.209011 -1.9094417
-24.762012 18.335966 -1.9067342
-24.617104 18.463606 -1.9042156
-24.48984 18.604044 -1.9031452
-24.323019 18.713795 -1.8989896
-24.173098 18.835695 -1.8962191
-24.031998 18.963881 -1.8942043
-23.862167 19.068615 -1.8899226
-23.713682 19.18956 -1.887404
-23.563068 19.308136 -1.8847595
-23.402678 19.41794 -1.8813595
-23.249468 19.532925 -1.8785889
-23.102573 19.65258 -1.8763852
-22.92408 19.744467 -1.8715999
-22.773163 19.859173 -1.8691442
-22.604496 19.957581 -1.8652405
-22.45557 20.072624 -1.8630366
-22.304604 20.185253 -1.8607069
-22.166348 20.308922 -1.8595107
-22.050098 20.452694 -1.8602662
-21.937283 20.599903 -1.8613997
-21.814089 20.737558 -1.8617144
-21.714479 20.898006 -1.8641701
-21.575121 21.020403 -1.8632256
-21.447866 21.154493 -1.8634144
-21.309893 21.277939 -1.8627218
-21.143135 21.37211 -1.8595107
-0 0 -0
-20.843925 21.59334 -1.8562994
-20.692442 21.701326 -1.8545994
-20.560949 21.830065 -1.8547883
-20.407581 21.935354 -1.8530253
-0 0 -0
-20.144243 22.192263 -1.8537179
-20.011024 22.319164 -1.8540328
-19.857821 22.423597 -1.8525215
-19.727085 22.553284 -1.8532141
-19.590288 22.676168 -1.8534031
-0 0 -0
-19.302824 22.905706 -1.8526475
-19.18745 23.054398 -1.8551661
-19.04373 23.169382 -1.8549773
-18.943977 23.338488 -1.8592588
-18.772329 23.419245 -1.8564254
-18.619606 23.523033 -1.8555439
-18.436813 23.588087 -1.8516401
-18.27466 23.678646 -1.849877
-18.108459 23.763344 -1.8477362
-17.955109 23.864437 -1.8469807
-12.522404 16.858259 -1.2877282
-17.666216 24.090221 -1.8475474
-17.508703 24.18523 -1.84654
-17.361717 24.294643 -1.8467288
-17.197939 24.380327 -1.8451546
-17.022358 24.448536 -1.8423213
-16.783848 24.42421 -1.8324988
-16.595575 24.470566 -1.8282171
-16.452885 24.583546 -1.8290987
-16.257183 24.616581 -1.8239986
-16.085127 24.684095 -1.8216059
-15.921492 24.763859 -1.8202207
-11.520939 18.163599 -1.3198402
-11.397096 18.214489 -1.3183919
-11.367943 18.418261 -1.3283404
-11.459193 18.82354 -1.3531485
-11.452391 19.074892 -1.366497
-11.438354 19.319134 -1.3792788
-11.313057 19.37775 -1.3784603
-14.787287 25.689116 -1.8328766
-9.599124 16.915504 -1.189881
-14.439257 25.812029 -1.8287839
-0 0 -0
-14.010386 25.782959 -1.8141131
-11.231478 20.974926 -1.4639034
-11.098841 21.036385 -1.4633996
-10.938255 21.043875 -1.4591181
-10.807107 21.10704 -1.4588662
-10.947482 21.708511 -1.496708
-0 0 -0
-0 0 -0
-10.54691 21.908138 -1.4968339
-10.394763 21.935465 -1.4942524
-9.2977257 19.935724 -1.3506299
-0 0 -0
-9.9802055 22.103071 -1.4928671
-9.8383188 22.150211 -1.4919227
-9.7297907 22.273264 -1.4962672
-0 0 -0
-0 0 -0
-10.28583 24.779701 -1.6555049
-9.9922295 24.495817 -1.6318933
-10.071565 25.130096 -1.6708684
-9.9376535 25.243425 -1.6743944
-10.250075 26.513123 -1.7561855
-10.107388 26.6287 -1.7597746
-10.220819 27.433712 -1.8098315
-10.074572 27.556835 -1.8139242
-9.9410114 27.717712 -1.8205985
-9.9128227 28.182077 -1.8476104
-9.7338572 28.225388 -1.8464769
-9.5493011 28.251492 -1.8442732
-9.368556 28.287762 -1.8428251
-9.1738682 28.280161 -1.8385434
-8.9874821 28.295969 -1.8358989
-8.8056917 28.32485 -1.8341988
-8.6180773 28.333471 -1.8312395
-8.4295511 28.337032 -1.8280283
-7.9776573 27.432783 -1.7652525
-7.4818063 26.329212 -1.6896949
-7.3289208 26.406359 -1.6917727
-7.1503124 26.390144 -1.6878059
-6.9721799 26.372734 -1.6838391
-6.6983504 25.9811 -1.655568
-6.4677825 25.739079 -1.6371822
-6.2138619 25.386644 -1.6117445
-6.0556622 25.414585 -1.6111149
-5.8957758 25.434736 -1.6100445
-5.7453046 25.495747 -1.6116816
-5.598362 25.57439 -1.6145149
-5.4434094 25.618023 -1.6151446
-5.2971978 25.7047 -1.6186076
-5.1448493 25.764124 -1.6203707
-2.8463538 14.724624 -0.90899545
-2.7172487 14.534818 -0.89570987
-2.6047738 14.422559 -0.88746148
-2.5076611 14.38911 -0.88431329
-2.4087422 14.341235 -0.88028353
-2.3119395 14.301558 -0.87682045
-2.2178602 14.275042 -0.87423891
-2.1252239 14.25482 -0.87209809
-2.0248747 14.177685 -0.86636835
-1.9056976 13.9545 -0.85138273
-1.8218446 13.979785 -0.85226423
-1.7749988 14.304663 -0.87222403
-1.6899979 14.339072 -0.87373519
-1.6013187 14.343221 -0.87335742
-1.5127568 14.347814 -0.87304258
-1.426762 14.377682 -0.87436485
-1.3386078 14.387159 -0.8744278
-1.2641265 14.554185 -0.88450217
-1.181062 14.63926 -0.88941342
-1.0957398 14.706943 -0.89325428
-1.0143282 14.842829 -0.90143967
-1.5751131 25.328642 -1.5638914
-1.1285414 20.143326 -1.2356564
-0.71946454 14.428377 -0.87423891
-0.63327527 14.486362 -0.877639
-0.55750024 14.839034 -0.89967668
-0.45919138 14.611748 -0.88513184
-0.36940047 14.609302 -0.884817
-0.27952293 14.599319 -0.8840614
-0.18828577 14.474022 -0.8760649
-0.099133886 14.426003 -0.87297964
-0.0106142 14.424344 -0.8728537
0.077972539 14.439108 -0.87379819
0.16661371 14.442349 -0.87405002
0.25547367 14.455025 -0.87493151
0.34758046 14.596859 -0.88399845
0.43564594 14.544573 -0.8808502
0.52671617 14.592492 -0.8840614
0.61885381 14.650807 -0.8879652
0.71847606 14.848098 -0.90068412
0.81424069 14.929112 -0.90609908
1.5077952 24.845829 -1.5332276
1.6589535 24.817188 -1.5320312
1.8110524 24.804552 -1.5319053
1.9628223 24.787998 -1.5315905
2.1146271 24.772505 -1.5314015
2.2670434 24.764032 -1.5317163
2.4184647 24.74469 -1.5314015
2.5709717 24.736332 -1.5318424
2.7244506 24.735964 -1.5328498
2.8773296 24.728695 -1.5334795
3.0294936 24.714537 -1.5337312
3.1786597 24.676676 -1.532535
3.3265407 24.630993 -1.5308979
2.2452841 15.888259 -0.97517133
2.3386512 15.846539 -0.97340834
3.7908854 24.640556 -1.5356832
2.3391697 14.606498 -0.89608765
4.0897007 24.572491 -1.5344238
4.2431159 24.56267 -1.5354313
4.3962121 24.549927 -1.5363128
4.5471287 24.524452 -1.5364387
4.6958308 24.487268 -1.5358721
4.8473511 24.464848 -1.5363128
5.0009727 24.452244 -1.5374461
5.1560636 24.445511 -1.5390203
5.3112597 24.437796 -1.5405945
5.4606714 24.402798 -1.5404685
5.6123166 24.377586 -1.5410352
5.7629385 24.347546 -1.54135
5.9124594 24.312696 -1.5414129
6.0603194 24.27112 -1.5410981
6.207644 24.227676 -1.5407203
6.3536487 24.17948 -1.5400907
4.2903442 15.928544 -1.0035684
4.3962278 15.931743 -1.0055203
6.7919393 24.038263 -1.5387684
5.922132 20.478531 -1.3077509
4.3322959 14.643238 -0.92624778
7.2719779 24.037178 -1.5472057
7.4396739 24.057896 -1.5515503
7.5745215 23.971825 -1.5489057
7.732502 23.959089 -1.5511725
7.8959203 23.96143 -1.5545096
8.0548859 23.948477 -1.5569023
8.2207918 23.954296 -1.5606172
8.3874016 23.959923 -1.5643951
8.5517054 23.956884 -1.5676693
8.7115088 23.9396 -1.5700619
8.8710756 23.920319 -1.5723916
9.0367289 23.91585 -1.5757917
9.1987181 23.900003 -1.5784992
9.3623085 23.886784 -1.5814584
9.5364399 23.898409 -1.5861808
9.7121916 23.911568 -1.5910921
9.8755007 23.892107 -1.5938625
10.043192 23.88166 -1.5973256
6.3138971 14.759303 -0.9756121
6.3927937 14.693745 -0.97378612
10.540828 23.827833 -1.6066444
10.707709 23.809128 -1.6098555
10.880982 23.802885 -1.6140113
11.060887 23.808987 -1.6191114
11.233607 23.797529 -1.6230782
11.400129 23.771349 -1.6261005
11.563255 23.736839 -1.6286191
8.2053947 16.58437 -1.1301905
11.950448 23.785782 -1.6422194
12.115671 23.750235 -1.6449269
12.265761 23.684311 -1.6455566
8.3898096 15.959274 -1.1003451
12.664001 23.735409 -1.6601014
12.836962 23.70816 -1.6637534
9.012291 16.403061 -1.1436019
9.1083946 16.339607 -1.1430353
8.3625374 14.787448 -1.03461
9.3062353 16.223141 -1.1427834
9.3915501 16.141579 -1.1410204
9.4828091 16.070757 -1.1400759
9.5802135 16.010555 -1.13995
14.424826 23.774992 -1.7172734
14.597626 23.73024 -1.7205476
9.9150133 15.898403 -1.1449242
14.948528 23.645485 -1.7277255
15.117025 23.590292 -1.7304959
15.307151 23.567396 -1.735785
10.173791 15.455219 -1.1301905
10.279508 15.409108 -1.1314497
15.934536 23.571867 -1.7578856
16.112709 23.523054 -1.7616636
16.301125 23.487698 -1.7665747
10.544928 14.996264 -1.1194235
16.616501 23.32572 -1.76966
16.699741 23.140776 -1.7632376
16.829638 23.021757 -1.7619783
16.967016 22.913248 -1.7616005
17.08633 22.780764 -1.7593968
17.222771 22.671522 -1.759082
17.405373 22.62237 -1.7636154
17.637093 22.634809 -1.7731861
11.945747 15.138021 -1.1794288
0 0 -0
12.03519 14.872363 -1.1698582
0 0 -0
12.151151 14.644443 -1.1633729
17.461285 20.78359 -1.6754018
17.581369 20.667696 -1.6747092
17.729996 20.585142 -1.6768501
18.023888 20.668526 -1.692969
18.175468 20.585974 -1.6953616
18.398546 20.582701 -1.7045546
19.045488 21.045137 -1.753541
19.156057 20.90801 -1.7518409
19.309776 20.817883 -1.7542337
19.431684 20.693188 -1.7537299
19.573418 20.589481 -1.7551152
15.635692 16.246424 -1.3853863
19.848288 20.37204 -1.7572559
19.936472 20.212921 -1.7539818
20.039671 20.069731 -1.7521558
20.195784 19.979382 -1.7551152
16.278011 15.907035 -1.3987349
16.309248 15.743086 -1.3929422
16.461876 15.696439 -1.3978534
17.114374 16.119293 -1.4460844
20.79549 19.34708 -1.7548003
20.926304 19.230597 -1.7558707
17.137716 15.556033 -1.4230393
21.17112 18.981678 -1.7567523
21.303627 18.865974 -1.7581375
21.417484 18.733587 -1.7580116
21.533537 18.603125 -1.7581375
21.640446 18.464817 -1.7575707
21.738836 18.319468 -1.7563745
21.839327 18.176159 -1.75543
21.94813 18.039911 -1.7552412
22.082428 17.924398 -1.757193
22.030024 17.65873 -1.7440964
22.06362 17.464378 -1.7381147
0 0 -0
0 0 -0
22.17337 16.896812 -1.7216179
22.032597 16.576832 -1.7023507
22.052979 16.381222 -1.6959913
22.10157 16.207825 -1.6919615
22.177158 16.054935 -1.6901356
22.250082 15.900568 -1.6881837
22.377401 15.78503 -1.6905134
22.513149 15.674801 -1.6935357
22.699381 15.598544 -1.7004617
22.893782 15.526192 -1.7080176
23.042528 15.421507 -1.7121103
23.259138 15.360681 -1.721366
23.283552 15.172451 -1.71614
23.703604 15.239799 -1.7406962
23.904543 15.162496 -1.7487557
24.147722 15.109768 -1.7599634
24.416626 15.070349 -1.7730601
24.261421 14.769744 -1.7548003
24.55352 14.741843 -1.76966
24.838453 14.706332 -1.783953
25.114388 14.66234 -1.7975534
25.372545 14.605055 -1.8098315
25.90609 14.7013 -1.8420694
26.391237 14.763277 -1.8706554
26.927048 14.846831 -1.9027674
27.258789 14.812374 -1.9200827
27.755636 14.862502 -1.9491724
27.990185 14.767831 -1.9594357
28.191849 14.653806 -1.9673692
28.287451 14.483732 -1.9678099
28.398958 14.321575 -1.969447
28.39155 14.099998 -1.9627727
28.444359 13.909303 -1.960443
28.219835 13.585585 -1.9387832
28.428022 13.471583 -1.9475353
28.227951 13.16528 -1.9278903
28.222939 12.952697 -1.9219717
28.267319 12.763673 -1.919579
28.345104 12.589988 -1.919579
28.33951 12.37987 -1.9139122
28.381927 12.191569 -1.9116454
28.264965 11.93643 -1.8985487
0 0 -0
28.206942 11.506121 -1.8847595
28.212164 11.30684 -1.880352
28.238293 11.116703 -1.8774556
28.211023 10.906518 -1.8710332
28.195305 10.702045 -1.8654923
28.015413 10.43755 -1.8489956
0 0 -0
28.120722 10.085559 -1.8476104
27.851622 9.7965832 -1.8255097
27.831955 9.5981722 -1.8202207
27.867634 9.4195471 -1.8187095
27.822586 9.214489 -1.8119093
27.835882 9.0297413 -1.809076
27.837498 8.8418541 -1.8055499
27.849293 8.6578426 -1.8027794
27.793999 8.4539804 -1.7956644
27.818563 8.2753124 -1.7939014
27.852524 8.0997276 -1.7928311
27.805698 7.9013934 -1.7865345
27.799805 7.7156849 -1.7830086
27.74259 7.5167737 -1.7762084
27.792049 7.3474274 -1.7764602
27.76606 7.1585708 -1.7718638
27.777521 6.9800396 -1.769786
27.773294 6.7980785 -1.7667637
27.802835 6.6247606 -1.766008
27.837128 6.4526887 -1.7656302
27.881063 6.2828588 -1.7659451
27.917139 6.111239 -1.7658192
27.974613 5.9441838 -1.7671415
28.039883 5.7784667 -1.7690303
28.100258 5.6113901 -1.7706674
28.176294 5.4470105 -1.7733749
28.240578 5.279891 -1.7753898
28.304853 5.1123652 -1.7774676
28.375999 4.9456196 -1.7800492
28.435339 4.7763748 -1.7819381
28.466082 4.6021276 -1.7820641
28.517452 4.4310546 -1.7835752
28.563845 4.258935 -1.7848345
28.596355 4.0845785 -1.7852752
28.632746 3.9106584 -1.7860309
28.703705 3.7410893 -1.7890532
28.731071 3.565511 -1.7893679
28.765293 3.3906724 -1.7901865
28.804401 3.2162125 -1.7913828
28.834511 3.0405629 -1.7920754
7.5747066 0.75148201 -0.44305661
7.5473762 0.70203084 -0.44104174
7.432229 0.6453414 -0.43348595
7.4390335 0.59996682 -0.43367487
7.3987832 0.55104661 -0.43090442
7.3900771 0.5048213 -0.43014884
7.3641486 0.45767033 -0.42832285
7.3638291 0.4123086 -0.42813396
7.3502717 0.36632153 -0.42712653
7.3434076 0.32082167 -0.42655984
7.3342676 0.27534488 -0.42586723
7.3338237 0.23027474 -0.42574131
7.357048 0.1858265 -0.42712653
7.3550563 0.1406236 -0.42693764
7.3617682 0.095569238 -0.42731541
7.3542323 0.05034139 -0.4268117
7.3863392 0.0052401093 -0.42882657
7.4051943 -0.040183585 -0.4300229
7.4606934 -0.086263418 -0.43354893
7.4869657 -0.13251516 -0.43524897
7.6087332 -0.18137071 -0.44299364
7.663341 -0.22972533 -0.44651967
7.6867213 -0.27764168 -0.44809377
25.087744 -1.0594274 -1.5470169
25.017969 -1.2103058 -1.5430501
24.980175 -1.3621607 -1.5411611
20.288286 -1.2312895 -1.245164
24.96357 -1.6687363 -1.5412871
25.00263 -1.8255115 -1.5444353
25.018816 -1.9810958 -1.5461982
25.02906 -2.136523 -1.5476464
19.916971 -1.8233938 -1.2246375
19.90044 -1.9450824 -1.2243227
19.914934 -2.0699377 -1.2260227
25.135748 -2.7684767 -1.5582246
10.608197 -1.2345563 -0.63661009
10.601413 -1.2997451 -0.63667309
10.595218 -1.3650247 -0.63679898
10.576753 -1.4286745 -0.63616937
10.578657 -1.4950812 -0.63686198
10.580145 -1.5615649 -0.63755459
13.86301 -2.1329651 -0.84773076
13.847691 -2.2176712 -0.84760487
24.659126 -4.1041183 -1.5399648
14.409506 -2.4893596 -0.88538367
13.624747 -2.4399958 -0.83608228
24.443005 -4.5320287 -1.5312127
24.363768 -4.6721497 -1.5279385
24.26807 -4.8083663 -1.5236568
24.158911 -4.9409852 -1.5185567
24.051968 -5.0730639 -1.5136455
23.941393 -5.2033811 -1.5085454
23.85837 -5.3388529 -1.5052712
23.756109 -5.4692478 -1.5008007
23.657034 -5.5995092 -1.496582
23.567924 -5.7313552 -1.4930561
23.482931 -5.8635278 -1.4898448
23.366266 -5.9869471 -1.4846188
23.424652 -6.1553159 -1.4908522
8.1988878 -2.2085667 -0.49852851
7.8850174 -2.1760125 -0.4788835
7.8359818 -2.2143133 -0.47655383
7.9392133 -2.296175 -0.48423553
8.012063 -2.370609 -0.48996532
7.9859037 -2.4162579 -0.48920974
7.9833226 -2.4690456 -0.49002826
8.2363863 -2.6027758 -0.50778431
22.342562 -7.2108159 -1.4440066
7.8796501 -2.5968342 -0.4862504
22.232527 -7.4777694 -1.4426843
22.161682 -7.6056223 -1.4410472
22.070324 -7.7259631 -1.4380878
18.970543 -6.7718582 -1.2336415
21.89226 -7.9665284 -1.4326099
21.820509 -8.0923786 -1.4310988
18.28159 -6.9078946 -1.1957997
18.514559 -7.1260457 -1.2144372
18.464911 -7.2373295 -1.2140595
18.612959 -7.4274254 -1.227156
21.308651 -8.6550083 -1.4138465
21.246843 -8.7821617 -1.4132798
21.171396 -8.9034662 -1.4118316
21.104439 -9.0281019 -1.411013
21.036749 -9.1522503 -1.4101945
20.962854 -9.2734861 -1.4089981
20.894636 -9.3970251 -1.4082426
20.869261 -9.5399923 -1.4105093
21.10721 -9.8057785 -1.4311618
21.027693 -9.9261589 -1.4298395
20.777414 -9.9643707 -1.4166169
20.680891 -10.074626 -1.4141613
20.605267 -10.194694 -1.4132168
20.545893 -10.322725 -1.4134687
20.472387 -10.443609 -1.4127761
20.395514 -10.562604 -1.4118946
20.293217 -10.668046 -1.40925
20.210648 -10.783436 -1.4080538
12.96069 -7.017869 -0.89268756
19.955212 -10.963841 -1.3993016
19.872744 -11.077818 -1.3982311
19.788761 -11.190703 -1.3970978
12.486756 -7.1630034 -0.87102771
12.601295 -7.3318319 -0.88261324
12.61624 -7.4445157 -0.88702077
19.420813 -11.620706 -1.3906754
18.459196 -11.199717 -1.3250033
12.358914 -7.6027951 -0.87826866
18.87505 -11.771305 -1.3662452
18.790655 -11.879433 -1.3653636
18.680439 -11.970815 -1.3625932
18.579016 -12.067271 -1.3605154
18.471277 -12.159094 -1.3579967
18.35647 -12.245618 -1.3549745
18.20492 -12.306601 -1.3491817
18.039316 -12.356598 -1.3423185
17.941019 -12.451689 -1.3406185
17.837339 -12.542595 -1.3385407
17.711271 -12.617064 -1.3347628
17.54369 -12.660675 -1.3277737
17.407665 -12.725677 -1.3232403
17.257067 -12.778797 -1.3175734
17.147993 -12.86169 -1.3151808
17.017891 -12.928028 -1.311151
16.92638 -13.023076 -1.3102065
16.777664 -13.073323 -1.3047286
16.698698 -13.177258 -1.3048545
16.581665 -13.250813 -1.3019582
16.443413 -13.306478 -1.2973617
16.306646 -13.362211 -1.2928913
16.203613 -13.444809 -1.2911912
16.061209 -13.493906 -1.2862799
15.928698 -13.55017 -1.2821872
15.812738 -13.619645 -1.2794797
15.689758 -13.682305 -1.2762057
15.559873 -13.738027 -1.2723647
15.429895 -13.792669 -1.2685239
15.316854 -13.861639 -1.2661313
15.213117 -13.938506 -1.2645571
15.117793 -14.022766 -1.2637386
15.016188 -14.100917 -1.2624164
14.916364 -14.180411 -1.2612829
14.811095 -14.254369 -1.2597089
14.69476 -14.317122 -1.2571902
14.565423 -14.36637 -1.2535384
14.368943 -14.347581 -1.2439047
14.308012 -14.463147 -1.2463603
14.210628 -14.542102 -1.2456048
14.035875 -14.540704 -1.2378601
13.918841 -14.597661 -1.2353415
13.822167 -14.675526 -1.2347119
13.72982 -14.757869 -1.2345229
6.9223514 -7.5331254 -0.60827601
6.8578873 -7.5555062 -0.60657597
13.055438 -14.561503 -1.1966811
6.7527432 -7.6256456 -0.60544258
6.6762576 -7.6331325 -0.60260916
6.6234241 -7.6671567 -0.6020425
13.224703 -15.499297 -1.2482493
13.13321 -15.58473 -1.2486271
12.988177 -15.605954 -1.2437788
6.5036111 -7.9129748 -0.60903156
12.770531 -15.73317 -1.2412602
12.664391 -15.799551 -1.2403157
12.545528 -15.849572 -1.238112
2.0057926 -2.566793 -0.16834158
1.9887859 -2.5774717 -0.16821565
1.968699 -2.5840697 -0.1677749
1.9510063 -2.5937083 -0.16758601
1.9368402 -2.6080341 -0.1677749
1.9278836 -2.6295266 -0.16853048
1.9310261 -2.6679838 -0.17060831
11.337233 -15.864684 -1.1930293
11.254633 -15.955153 -1.1946663
11.159373 -16.028006 -1.1949811
10.060348 -14.640313 -1.0835336
10.950082 -16.146397 -1.1936588
10.851913 -16.214939 -1.1937848
10.636715 -16.106335 -1.1805623
10.544772 -16.182167 -1.1813807
10.486301 -16.310364 -1.186166
10.501495 -16.556438 -1.1997664
10.312358 -16.480967 -1.1893773
10.225717 -16.567711 -1.1911403
9.8430996 -16.168959 -1.1570764
9.7591162 -16.254719 -1.1589653
9.6312294 -16.267061 -1.1555023
9.5392857 -16.339642 -1.1565096
9.4413376 -16.402191 -1.1568245
9.6981335 -17.08997 -1.2025369
9.2310638 -16.502008 -1.1557541
8.9730196 -16.274302 -1.1352906
8.9439955 -16.459711 -1.1446723
8.8122082 -16.457092 -1.1405796
8.5815916 -16.265467 -1.1230755
8.4438829 -16.245203 -1.1179123
8.4022675 -16.410414 -1.1259718
8.5351048 -16.925037 -1.1587135
8.0138054 -16.136871 -1.0995266
7.9199018 -16.196497 -1.1002822
7.8519759 -16.310432 -1.1048787
7.8658638 -16.599102 -1.1216903
6.9210019 -14.839913 -0.99588674
7.4904776 -16.321583 -1.0958117
7.8789492 -17.44964 -1.1707398
7.5322976 -16.958614 -1.1335276
7.4440808 -17.041094 -1.1360462
7.3515897 -17.114876 -1.1379981
7.2747808 -17.226778 -1.1425945
7.1624374 -17.255421 -1.1415241
7.2848663 -17.859039 -1.1796807
7.1951976 -17.953426 -1.1830808
7.0545578 -17.92016 -1.1778548
6.933672 -17.935183 -1.1759658
6.7115746 -17.682543 -1.1560689
6.6144485 -17.754253 -1.1581467
6.5670714 -17.963224 -1.1694804
6.4644771 -18.024788 -1.1709286
6.1524072 -17.491701 -1.1326461
5.9564595 -17.272495 -1.1155196
5.8356643 -17.265226 -1.1126233
6.0587749 -18.294537 -1.1786733
5.9414806 -18.316179 -1.1776658
5.7676497 -18.159201 -1.164884
5.6282668 -18.104664 -1.1589653
5.504003 -18.09589 -1.1561319
5.3814821 -18.091059 -1.1536133
5.2765079 -18.144821 -1.1549985
5.2441897 -18.455257 -1.1732583
5.1612802 -18.596716 -1.1804363
4.0348701 -14.892436 -0.93625915
3.9406099 -14.9063 -0.93556654
4.6479168 -18.028509 -1.1374314
4.572721 -18.198006 -1.1466242
4.4303632 -18.10067 -1.1385018
4.3108883 -18.092564 -1.1362351
4.2063289 -18.146868 -1.138061
4.1352744 -18.351479 -1.1496465
4.0552487 -18.525671 -1.1592802
3.9292619 -18.492607 -1.1555653
3.654155 -17.732435 -1.1050675
0.47924867 -2.4018099 -0.11734017
0.46203968 -2.3919671 -0.11652163
3.3816171 -18.088055 -1.1237681
3.2787278 -18.153641 -1.1266644
0.49368018 -2.8346372 -0.14435203
0.47478983 -2.8287549 -0.14378534
0.453123 -2.8050141 -0.1420853
0.43559673 -2.8057692 -0.14195937
0.41675353 -2.7975311 -0.14126676
0.40183851 -2.8158433 -0.1422742
0.38495845 -2.8212225 -0.14246309
0.36273855 -2.7859249 -0.14007042
0.24287307 -1.9601099 -0.087431937
0.2297899 -1.9526429 -0.086865254
0.21736133 -1.9500487 -0.086613394
0.20633402 -1.9602783 -0.087180078
0.19183758 -1.936679 -0.085605957
0.17874841 -1.9249012 -0.084787421
0.16676131 -1.9239733 -0.084661491
0.15398948 -1.9130229 -0.083905913
0.14076492 -1.8940266 -0.082646616
0.12934496 -1.8978418 -0.08283551
0.11875089 -1.9155333 -0.083905913
0.10721856 -1.9202117 -0.084157772
0.095683001 -1.9258173 -0.084472597
0.084082678 -1.9313534 -0.084787421
0.072268024 -1.9328303 -0.084850386
0.060250163 -1.9282497 -0.084535562
0.048392259 -1.9275855 -0.084472597
0.035913412 -1.8939198 -0.082331792
0.024070706 -1.8771397 -0.081261396
0.012490369 -1.86827 -0.080694713
0.0010091168 -1.8453572 -0.079246521
-0.010324525 -1.8473246 -0.079372451
-0.022750393 -1.9420317 -0.085354097
-0.068843685 -3.8787026 -0.2075686
-0 -0 -0
-0.05700038 -1.8914055 -0.082205862
-0.070942976 -1.9558491 -0.08629857
-0 -0 -0
-0.84242177 -17.411001 -1.0625664
-0.95075887 -17.433407 -1.0643294
-1.1161543 -18.390556 -1.1252162
-1.1566361 -17.300932 -1.0567735
-0.2464954 -3.3713064 -0.17608625
-0.23858513 -3.0085807 -0.15323006
-0.28912097 -3.3829436 -0.17703071
-0.35844964 -3.9118278 -0.21065387
-0.38069826 -3.8916757 -0.2095205
-0.30347604 -2.9164498 -0.14781509
-0.42777097 -3.8807588 -0.20914271
-0.45295876 -3.889957 -0.20989829
-0.46734849 -3.8098373 -0.20498705
-0.45795217 -3.5525093 -0.18880512
-0.47373119 -3.5051258 -0.18597171
-0.36775205 -2.5999258 -0.12848492
-0.40686196 -2.7546051 -0.13849631
-0.46943024 -3.0489671 -0.15744869
-0.49396777 -3.0824914 -0.15977839
-0.64574182 -3.8778129 -0.21084276
-0.5375331 -3.1096349 -0.16191918
-0.54956722 -3.0669825 -0.1594006
-3.6647806 -19.765177 -1.2310599
-3.2097487 -16.737148 -1.0380101
-3.3154888 -16.732803 -1.0390176
-0.53488761 -2.613549 -0.13112944
-0.54555917 -2.5848279 -0.12949236
-0.86088431 -3.9594622 -0.21846148
-4.0393786 -18.050808 -1.1298127
-3.8352642 -16.658239 -1.0412843
-4.2589765 -17.993082 -1.1293719
-4.0606208 -16.697199 -1.0469511
-0.69375849 -2.7769883 -0.14340755
-0.7083078 -2.7630112 -0.14277792
-0.74147981 -2.8203893 -0.14680766
-1.0982509 -4.0762763 -0.22916549
-0.62207413 -2.2530792 -0.11028812
-0.93653965 -3.3133647 -0.18005303
-0.94576305 -3.2692065 -0.17753443
-0.75092232 -2.5369656 -0.12974422
-0.76474082 -2.5265787 -0.12936643
-0.78258789 -2.5294664 -0.12987015
-1.0551752 -3.3382728 -0.18370497
-6.0387077 -18.710598 -1.2032295
-1.3562371 -4.1146593 -0.23615457
-1.3859127 -4.1195035 -0.23703608
-0.72634554 -2.1153512 -0.10392869
-0.73865193 -2.1089706 -0.10380276
-1.2061861 -3.3780069 -0.18911994
-1.4968308 -4.1123862 -0.23892502
-1.5244648 -4.1096749 -0.23936577
-1.5517691 -4.105845 -0.23974356
-1.5758575 -4.093452 -0.23955467
-1.1825042 -3.0160568 -0.16720822
-1.1680694 -2.9262459 -0.16160436
-1.3670193 -3.3647096 -0.19195335
-1.3830644 -3.3451903 -0.19119777
-1.2275372 -2.9180496 -0.16254883
-1.2403163 -2.8985341 -0.16173029
-1.3070483 -3.0034342 -0.16947494
-1.3189926 -2.9807544 -0.16846751
-1.7674664 -3.9292357 -0.23464341
-1.5699804 -3.433615 -0.20102027
-0.84299952 -1.8137121 -0.089006051
-1.8739988 -3.969141 -0.23974356
-7.3435831 -15.312382 -1.0342323
-1.914698 -3.9296951 -0.23861019
-1.7829937 -3.6029994 -0.21644662
-0.90361452 -1.7977012 -0.08976163
-0.91326749 -1.7894559 -0.089572735
-0.92377126 -1.7829323 -0.08950977
-1.4543321 -2.7657509 -0.15996727
-0.94511122 -1.7705814 -0.089446805
-0.95548236 -1.7638713 -0.089383841
-0.96628726 -1.7579753 -0.089383841
-1.9712425 -3.5355806 -0.21820964
-1.4382702 -2.5426159 -0.14712247
-10.041171 -17.504383 -1.2359712
-10.264823 -17.642576 -1.250579
-10.367304 -17.569805 -1.2498864
-10.394464 -17.371405 -1.2400008
-5.1066928 -8.4163504 -0.58390868
-1.5329739 -2.4913547 -0.14737433
-1.5725245 -2.5208561 -0.15027072
-11.129624 -17.604576 -1.2768352
-5.2007799 -8.1153898 -0.57093793
-1.319133 -2.0303099 -0.11557716
-1.3628435 -2.0696943 -0.11916615
-1.3594561 -2.0372159 -0.11734017
-1.3998765 -2.0701776 -0.12048841
-1.4362397 -2.0961313 -0.12313292
-1.4450911 -2.0815399 -0.12269217
-1.3292506 -1.88976 -0.10858808
-1.3483484 -1.8921355 -0.10940662
-1.4154146 -1.9607096 -0.11538827
-1.4344863 -1.9616562 -0.11614385
-1.5112314 -2.0402429 -0.12300699
-1.5339016 -2.0445046 -0.12407739
-1.4612954 -1.9229989 -0.11519937
-1.4572444 -1.8934304 -0.11356229
-1.5222015 -1.952944 -0.11904022
-1.5836142 -2.0062451 -0.12407739
-1.6245537 -2.0323548 -0.12697378
-1.6388768 -2.0246761 -0.12716267
-1.6392508 -1.9999148 -0.12596634
-1.6808056 -2.0251498 -0.12886271
-1.691274 -2.012506 -0.12867382
-1.7003574 -1.9982898 -0.12835899
-1.7080276 -1.9825256 -0.12791824
-1.7267193 -1.9795299 -0.12854789
-1.7381724 -1.9681495 -0.12848492
-2.2231083 -2.4864933 -0.17325284
-2.1700177 -2.3973267 -0.16683044
-2.2379475 -2.4421003 -0.17180464
-2.2583194 -2.4341762 -0.17230836
-2.2978067 -2.446465 -0.17457509
-2.3581576 -2.4800601 -0.17873076
-2.4363067 -2.5309823 -0.18446055
-2.4434335 -2.5074077 -0.18370497
-16.147148 -16.370945 -1.4135317
-3.2391229 -3.2435071 -0.25202167
-2.5182614 -2.4907854 -0.18628652
-2.4721124 -2.4152985 -0.18087156
-2.5256603 -2.4375143 -0.18427165
-2.5477917 -2.4288585 -0.1849013
-3.5099986 -3.3054798 -0.26700729
-2.5890968 -2.408287 -0.18590873
-3.1020458 -2.8502173 -0.2285988
-2.6635323 -2.4172518 -0.18974958
-3.3351889 -2.9898229 -0.24541038
-2.6765578 -2.3698275 -0.18836436
-2.6910484 -2.3533597 -0.18836436
-3.6343441 -3.1393216 -0.26581094
-17.510412 -14.940744 -1.4150428
-3.3520684 -2.8243685 -0.23936577
-3.4475784 -2.8688686 -0.24578817
-3.4350479 -2.8229454 -0.24333255
-3.4244092 -2.7791719 -0.24106582
-4.1212125 -3.3030469 -0.29603401
-4.1116662 -3.2541595 -0.29364136
-4.1087527 -3.2110457 -0.29181537
-3.8226213 -2.9497914 -0.26744804
-18.260748 -13.915182 -1.4112649
-3.1423833 -2.3638296 -0.21090573
-11.284593 -8.3820896 -0.84968269
-3.0279007 -2.2200336 -0.199698
-3.0123632 -2.1803439 -0.19743128
-3.0281208 -2.1635602 -0.19762017
-3.0853775 -2.1760049 -0.20102027
-3.0822902 -2.1456268 -0.19976097
-3.1044452 -2.1328917 -0.20045358
-3.1001287 -2.1020391 -0.19913132
-3.1287265 -2.0935245 -0.20032765
-19.790583 -13.069923 -1.4591181
-19.826925 -12.91991 -1.4558439
-3.6695759 -2.3588848 -0.23804352
-5.6939855 -3.6112969 -0.38821435
-5.7329574 -3.5868793 -0.38947365
-3.6741567 -2.2673514 -0.23521011
-3.6922619 -2.2473595 -0.23552492
-3.7171054 -2.2313404 -0.23634347
-3.7633598 -2.2278128 -0.23873612
-3.7795444 -2.2061889 -0.23892502
-3.7999296 -2.1869397 -0.23942874
-3.8775077 -2.2000337 -0.24408813
-3.8569653 -2.1571977 -0.24163251
-3.8806164 -2.1392739 -0.24238808
-3.8436863 -2.0882609 -0.2387991
-3.8775427 -2.0759444 -0.24031024
-3.9158053 -2.0656192 -0.24213623
-3.913352 -2.0337281 -0.24106582
-3.9115438 -2.0024004 -0.24005839
-4.3425779 -2.1895797 -0.2696518
-4.3925791 -2.1810939 -0.27223334
-4.3843617 -2.1435781 -0.27072221
-4.4351997 -2.1348186 -0.27336672
-4.4211593 -2.0947425 -0.27147779
-5.743609 -2.6784196 -0.36265066
-5.7417941 -2.6348011 -0.36139137
-22.441437 -10.132995 -1.5162901
-5.8256841 -2.5872347 -0.36498037
-5.8542528 -2.5570335 -0.36586186
-5.7845526 -2.4844308 -0.36000615
-5.7757835 -2.4387956 -0.35836908
-22.741703 -9.4398394 -1.5162901
-22.796425 -9.2989902 -1.5161011
-9.5956221 -3.8454385 -0.61501324
-9.6283226 -3.7901444 -0.61564285
-22.793377 -8.8119478 -1.5045786
-22.812494 -8.6588192 -1.5022489
-22.868935 -8.5200758 -1.5025008
-22.892664 -8.3693132 -1.5006118
-23.357868 -8.3772783 -1.5283792
-13.528119 -4.7581887 -0.86756468
-14.254293 -4.9155517 -0.91409558
-7.8058839 -2.6381652 -0.4826614
-7.7783437 -2.5757856 -0.47976503
-7.7949514 -2.5283182 -0.479828
-14.429607 -4.5829859 -0.91799939
-14.48986 -4.5044351 -0.92014021
-14.536322 -4.4212508 -0.92139947
-14.519174 -4.3188839 -0.91850311
-14.541567 -4.2286 -0.91825122
-14.55956 -4.1371126 -0.91774756
-9.6936665 -2.6901543 -0.59750903
-9.6868725 -2.6243601 -0.59599787
-9.6998978 -2.5641079 -0.59580898
-12.924897 -3.3320413 -0.80491477
-13.229668 -3.3241847 -0.82342643
-13.092773 -3.2045047 -0.8132261
-13.086947 -3.1180937 -0.811589
-13.169028 -3.0523849 -0.81568176
-13.378335 -3.014528 -0.82802284
-11.494498 -2.5159776 -0.70517868
-15.202752 -3.2301693 -0.94337416
-15.145065 -3.1209114 -0.93839997
-15.034743 -3.0021248 -0.93008864
-15.023484 -2.9041336 -0.92819965
-15.328459 -2.8656402 -0.9466483
-15.298612 -2.7630174 -0.94362605
-15.278899 -2.6627541 -0.94129634
-15.356956 -2.5793705 -0.94526309
-15.431606 -2.4946513 -0.94904101
-15.440706 -2.3989983 -0.94866318
-15.413677 -2.2980285 -0.9460187
-15.3771 -2.1962109 -0.9428075
-15.62464 -2.1338289 -0.95773011
-15.978866 -2.0824223 -0.97945297
-16.15377 -2.004498 -0.98977917
-16.728741 -1.9717104 -1.0255431
-27.250172 -3.0426502 -1.6927172
-27.3517 -2.8841815 -1.6980062
-27.427477 -2.7221165 -1.7017211
-27.6434 -2.5723631 -1.714377
-30.725986 -2.6691997 -1.9086231
-30.840269 -2.4885664 -1.9148567
-30.830078 -2.2974327 -1.9132825
-30.866495 -2.1097853 -1.9147307
-30.893801 -1.9212818 -1.9156752
-30.907 -1.7317965 -1.915801
-30.887142 -1.5406302 -1.9139122
-30.878067 -1.3502961 -1.9127787
-30.873802 -1.1603565 -1.9120232
-30.861387 -0.9703005 -1.9108269
-25.56522 1.8896819 -1.8991309
-25.531275 2.0447593 -1.8974737
-25.511293 2.2007775 -1.8969464
-25.48341 2.3559847 -1.8958919
-25.459543 2.5114222 -1.895214
-25.437704 2.6669676 -1.8947619
-25.415905 2.8224497 -1.8943853
-0 0 -0
-25.338779 3.1291168 -1.8912969
-25.312181 3.2836354 -1.8907696
-25.267843 3.4356608 -1.8889618
-25.224567 3.5875468 -1.8873045
-25.199121 3.7418149 -1.8870786
-25.170761 3.8956003 -1.8867019
-25.118818 4.0455313 -1.8845928
-25.087622 4.1985931 -1.8841408
-25.037809 4.3483529 -1.882333
-24.978271 4.4960694 -1.8798473
-24.917864 4.643219 -1.8773614
-24.88401 4.7950811 -1.8769848
-24.847273 4.9463134 -1.8764576
-24.833061 5.1020923 -1.8777381
-24.824699 5.2593303 -1.8795459
-24.81242 5.4160194 -1.8811278
-24.848768 5.5839076 -1.8865514
-24.905361 5.7573876 -1.8936321
-24.958818 5.9313102 -1.9005622
-24.966515 6.0952239 -1.9040271
-24.998285 6.265759 -1.9094507
-25.019243 6.4344292 -1.9141209
-25.021715 6.5990138 -1.9174353
-25.01252 6.7610078 -1.919921
-25.006121 6.924202 -1.9227082
-25.05526 7.1036215 -1.9299395
-25.001625 7.2544451 -1.9291863
-0 0 -0
-25.171206 7.639781 -1.9497505
-25.185759 7.813292 -1.9546467
-25.190573 7.9845567 -1.958865
-25.184746 8.1531019 -1.9623301
-25.220402 8.3359604 -1.9691849
-25.280268 8.5281687 -1.9780734
-25.287807 8.7038975 -1.9828943
-25.181238 8.8403969 -1.978676
-25.320852 9.0643158 -1.9942687
-25.289112 9.2284002 -1.9962271
-25.303978 9.4101639 -2.0020273
-25.347399 9.6037626 -2.0102379
-0 0 -0
-25.391903 9.978653 -2.0235708
-25.387596 10.157234 -2.0282412
-25.351576 10.323726 -2.0304255
-25.328285 10.495884 -2.0337398
-25.309347 10.670469 -2.0375063
-25.331375 10.863297 -2.0447376
-25.294405 11.031678 -2.0472233
-25.265436 11.204058 -2.0504625
-25.252573 11.384284 -2.0551326
-25.252047 11.571004 -2.0609329
-25.214922 11.741727 -2.0637953
-25.22172 11.933756 -2.0704241
-25.359215 12.189817 -2.0881259
-25.161186 12.285246 -2.077806
-25.149651 12.471299 -2.0832295
-25.029016 12.603403 -2.0795386
-24.911259 12.736312 -2.076149
-24.754759 12.848497 -2.0695202
-24.603117 12.962032 -2.0633433
-24.451015 13.074191 -2.0571666
-24.34667 13.211132 -2.0551326
-24.185663 13.316503 -2.0482781
-24.053009 13.436444 -2.0439091
-23.925869 13.558703 -2.0400674
-23.79727 13.679411 -2.0361505
-23.703411 13.819646 -2.0353217
-23.566669 13.934374 -2.0308022
-23.452505 14.061791 -2.0283163
-23.332554 14.185225 -2.0253787
-23.213669 14.308763 -2.0225916
-23.082308 14.423978 -2.01875
-22.977365 14.555198 -2.0173187
-22.851543 14.672742 -2.0140796
-22.717625 14.784395 -2.0101626
-22.598181 14.904841 -2.0076015
-22.475628 15.022717 -2.0048144
-22.342575 15.132939 -2.0011234
-22.201616 15.237018 -1.9967544
-22.073322 15.349046 -1.9935907
-21.936338 15.454331 -1.9896737
-21.817562 15.571838 -1.9874892
-21.663425 15.663346 -1.9820657
-21.541168 15.777121 -1.9796553
-21.396708 15.873941 -1.975211
-21.295715 16.002535 -1.9749097
-21.128096 16.080359 -1.9683563
-20.987173 16.177427 -1.9643639
-20.856863 16.281967 -1.9614261
-20.726059 16.385515 -1.9584885
-20.594772 16.488073 -1.9555507
-20.479273 16.602827 -1.9541948
-20.358519 16.712986 -1.952387
-20.247919 16.831215 -1.9516337
-20.11146 16.927525 -1.9483947
-19.979895 17.027321 -1.9456829
-19.844843 17.123537 -1.9426697
-19.723633 17.231203 -1.941088
-19.597366 17.334063 -1.9390541
-19.479496 17.444004 -1.9379241
-19.361753 17.553822 -1.9368696
-19.248539 17.667574 -1.9363424
-19.130274 17.776524 -1.9353631
-19.017208 17.890152 -1.9349865
-18.894081 17.994123 -1.9336306
-18.761063 18.088261 -1.9312954
-18.624748 18.178658 -1.928659
-18.503633 18.283484 -1.9276798
-18.369247 18.374813 -1.9253446
-18.247047 18.477955 -1.9243654
-18.115223 18.571009 -1.9224069
-17.989862 18.670322 -1.9212017
-17.847467 18.751461 -1.9181886
-17.723879 18.8519 -1.9172846
-17.589552 18.940569 -1.9152508
-17.455479 19.029034 -1.9132923
-17.325001 19.121 -1.9117858
-17.19405 19.212082 -1.9102793
-17.051409 19.289577 -1.9074922
-16.912399 19.370554 -1.9051571
-16.769785 19.446775 -1.9024453
-16.628811 19.524254 -1.8999594
-16.488802 19.602262 -1.8976244
-16.328711 19.65551 -1.8929541
-16.208431 19.756102 -1.8930295
-16.063051 19.825741 -1.890167
-15.93238 19.913027 -1.8891125
-15.788879 19.983809 -1.8865514
-15.65799 20.070089 -1.8855721
-15.526638 20.155518 -1.8845928
-15.399655 20.246439 -1.8842162
-15.265555 20.327791 -1.883011
-12.472967 16.822794 -1.5446429
-14.990218 20.479795 -1.8798473
-14.847339 20.547949 -1.8776628
-14.703031 20.613497 -1.8753276
-14.559626 20.679678 -1.8731432
-14.43986 20.779272 -1.8741224
-14.308141 20.861725 -1.8735951
-14.175955 20.943344 -1.8730679
-14.047181 21.029932 -1.8730679
-13.916782 21.114063 -1.8729172
-13.784793 21.195713 -1.8726158
-13.64694 21.268147 -1.8715613
-11.478931 18.132912 -1.583813
-11.429246 18.301964 -1.5926261
-11.426024 18.549196 -1.6083695
-11.451777 18.849058 -1.6287076
-11.427638 19.072086 -1.6421912
