# .PCD v0.7 - Point Cloud Data file format
VERSION 0.7
FIELDS x y z
SIZE 4 4 4
TYPE F F F
COUNT 1 1 1
WIDTH 1523
HEIGHT 1
VIEWPOINT 0 0 0 1 0 0 0
POINTS 1523
DATA ascii
-4.8262029 -1.6953405 -1.2902423
-4.8932462 -1.6852387 -1.3058497
-5.0098596 -1.6910955 -1.3350506
-5.0743523 -1.6782575 -1.3499027
-5.3184052 -1.7228628 -1.4138426
-5.3390241 -1.6934166 -1.4166116
-5.4611497 -1.6953517 -1.4470711
-5.9538994 -1.8083788 -1.5782232
-5.9992089 -1.7820108 -1.5875373
-6.3213758 -1.8355953 -1.6718674
-6.3800025 -1.8102491 -1.6847057
-6.2790737 -1.7400469 -1.6544979
-6.4559202 -1.7464818 -1.6993061
-6.5292091 -1.7233882 -1.7161721
-6.5865221 -1.6953583 -1.7287587
-6.7882948 -1.7029634 -1.7801119
-6.8117781 -1.6644961 -1.7836362
-7.0826626 -1.6847186 -1.8533659
-7.2192116 -1.6704708 -1.8870978
-7.3397961 -1.6509982 -1.9165505
-7.3980079 -1.6164696 -1.9293888
-7.4352422 -1.5768701 -1.936689
-7.4428816 -1.5308285 -1.9361855
-7.4597278 -1.4866446 -1.9381994
-7.4639578 -1.4399278 -1.9369407
-7.4726524 -1.3941027 -1.9369407
-7.4696364 -1.3461647 -1.9339199
-7.4720349 -1.2993114 -1.9324095
-7.4722309 -1.2521595 -1.9303957
-7.4597092 -1.2030503 -1.9251094
-7.4631248 -1.1566626 -1.9241024
-7.4748678 -1.11156 -1.925361
-7.4825058 -1.0658106 -1.9256128
-7.5167136 -1.0236675 -1.9329131
-7.5065379 -0.97540557 -1.9286336
-7.5383143 -0.93253738 -1.9354303
-7.515059 -0.88287646 -1.9278784
-7.5463047 -0.83963925 -1.9346751
-7.51089 -0.78907114 -1.9241024
-7.5329261 -0.74468499 -1.9286336
-7.5190439 -0.69675219 -1.9238507
-7.4875021 -0.64751601 -1.9145366
-7.4855461 -0.60109627 -1.9130262
-7.5315599 -0.55830473 -1.9241024
-7.5377407 -0.51227844 -1.9248576
-7.5726185 -0.46798974 -1.9331647
-7.5734148 -0.42140859 -1.9326613
-7.572958 -0.37478739 -1.9319061
-7.5499763 -0.32722268 -1.925361
-7.5460391 -0.28067461 -1.9238507
-7.561162 -0.23478892 -1.927375
-7.1807556 0.52741832 -1.9211476
-7.1975818 0.57308006 -1.9266677
-7.1843171 0.61640644 -1.9240391
-7.1957717 0.66189349 -1.9282448
-7.1944556 0.70631671 -1.9290335
-7.1659961 0.74793994 -1.9224619
-7.1641488 0.79221416 -1.9232504
-7.1735277 0.83783889 -1.9271934
-7.167294 0.88172108 -1.9269305
-7.1741881 0.92729199 -1.9303478
-7.1549783 0.96947873 -1.9266677
-7.1536713 1.0140405 -1.927982
-7.150178 1.0583397 -1.9287705
-7.1425958 1.1020452 -1.9285077
-7.1185522 1.1430943 -1.9237761
-7.1075978 1.1861155 -1.9227247
-7.0821238 1.2265733 -1.9177303
-7.0725651 1.269664 -1.9172046
-7.0608473 1.3123307 -1.9161532
-7.0640316 1.3578179 -1.9193076
-7.0640841 1.4028292 -1.9216733
-7.0525079 1.4455655 -1.9208847
-7.00386 1.480425 -1.9098445
-7.0059566 1.5258377 -1.9129988
-7.0143495 1.5728104 -1.9179932
-7.0092673 1.6169052 -1.9193076
-7.0170507 1.6641158 -1.924302
-6.9954591 1.7043978 -1.9211476
-6.997973 1.7505691 -1.9248277
-6.9646721 1.7877141 -1.9185189
-6.9423757 1.8274658 -1.9153646
-6.9477983 1.8745557 -1.9200962
-6.9138474 1.9109787 -1.9137874
-6.9038482 1.953891 -1.9143132
-6.8833895 1.9937983 -1.9119474
-6.84235 2.0274942 -1.9037986
-6.8648672 2.0800774 -1.9137874
-6.8012872 2.1064525 -1.89933
-6.8710184 2.1743569 -1.9229876
-6.8667278 2.2194445 -1.9256163
-6.8145008 2.2488308 -1.9145761
-6.7457151 2.2721138 -1.8988042
-6.7754421 2.328521 -1.9114217
-6.7683105 2.3726051 -1.9135245
-6.752717 2.4137652 -1.9132617
-6.7287145 2.451849 -1.9106331
-6.7099257 2.4917452 -1.9095817
-6.6972175 2.5338943 -1.9103702
-6.6536365 2.5641799 -1.9022214
-6.6602297 2.6137731 -1.908793
-6.6422749 2.6538739 -1.9082673
-6.6267595 2.6949439 -1.9085301
-6.6145563 2.7373996 -1.9098445
-6.5940785 2.7764361 -1.908793
-6.5591817 2.8092442 -1.9035357
-6.5586267 2.856761 -1.9085301
-6.5436206 2.8981228 -1.9093188
-6.5204368 2.9358416 -1.9077415
-6.5110726 2.9798114 -1.9103702
-6.4795446 3.0136011 -1.9064273
-6.482738 3.0636117 -1.9129988
-6.448163 3.0958123 -1.9082673
-6.4368505 3.1391268 -1.9106331
-6.4131451 3.1764216 -1.9093188
-6.3987055 3.2183142 -1.9108959
-6.3564987 3.2461026 -1.9040614
-6.3501654 3.2921517 -1.9082673
-6.3213081 3.3265591 -1.9056387
-6.3092875 3.3698301 -1.9082673
-6.2834024 3.4057202 -1.9066901
-6.246326 3.4353735 -1.9016957
-6.2436633 3.4839816 -1.9074787
-6.2221684 3.5222266 -1.9074787
-6.206296 3.5637028 -1.9093188
-6.1609702 3.5881171 -1.9019586
-6.1429911 3.6283066 -1.9032729
-6.0982661 3.6525416 -1.8961756
-6.0963545 3.7024155 -1.9027472
-6.081737 3.7448123 -1.9053758
-6.0480061 3.7754152 -1.9019586
-6.0141287 3.8057451 -1.8985413
-6.0004086 3.8488281 -1.9016957
-5.9896207 3.8939898 -1.9059016
-5.961587 3.9280133 -1.9045873
-5.9261408 3.9570162 -1.9009072
-5.8833718 3.980865 -1.8948613
-5.8683834 4.0234385 -1.8980156
-5.8435855 4.05937 -1.8980156
-5.8233013 4.0984821 -1.8995929
-5.7933307 4.1307745 -1.8980156
-5.7670937 4.1656785 -1.8977528
-5.7562175 4.2118139 -1.9027472
-5.7248406 4.243032 -1.9009072
-5.6902118 4.2717056 -1.8980156
-5.6677337 4.3094602 -1.89933
-5.651885 4.3523989 -1.90301
-5.6258335 4.3875899 -1.9032729
-5.5927496 4.4172416 -1.90117
-5.5610204 4.4478583 -1.8995929
-5.5448689 4.4910069 -1.9035357
-5.4851336 4.4986305 -1.8922327
-5.4767237 4.5482316 -1.899067
-5.4568348 4.5885825 -1.9019586
-5.4190283 4.6138458 -1.8985413
-5.4118056 4.6652822 -1.9061644
-5.3670888 4.6844401 -1.9003814
-5.3389673 4.7179232 -1.9006443
-5.2919445 4.7345076 -1.8940727
-5.2399144 4.7461586 -1.8856611
-5.2249141 4.791265 -1.8909184
-5.1876402 4.8160119 -1.8880268
-5.1825953 4.870883 -1.897227
-5.1351385 4.8859615 -1.8906555
-5.1113153 4.9234033 -1.8930212
-5.0844631 4.9580417 -1.8943356
-5.0553184 4.9905019 -1.8948613
-5.0307431 5.027566 -1.897227
-4.9936967 5.0521626 -1.8948613
-4.9497986 5.0695896 -1.8898669
-4.910563 5.0915308 -1.8867126
-4.8978605 5.1411285 -1.8940727
-4.8688674 5.1738954 -1.8951242
-4.8258638 5.1916571 -1.8906555
-4.7932653 5.2204595 -1.8903927
-4.7702155 5.2597795 -1.8940727
-4.7275543 5.2774496 -1.8898669
-4.7110639 5.3244257 -1.8964385
-4.6592617 5.3314338 -1.8885525
-4.6523037 5.3898721 -1.89933
-4.6272802 5.4278626 -1.9027472
-4.5802197 5.4399133 -1.8969642
-4.5301023 5.4478817 -1.8898669
-4.500875 5.4807954 -1.8917069
-4.4616923 5.501564 -1.8893412
-4.423027 5.5228114 -1.8872383
-4.3836713 5.5430346 -1.8848726
-4.3365159 5.5530963 -1.8790895
-4.3123746 5.5925908 -1.8835582
-4.2750559 5.6151071 -1.8822439
-4.2306685 5.6281199 -1.8777752
-4.1972051 5.6555228 -1.8783009
-4.1943502 5.7247596 -1.8930212
-4.1404896 5.724586 -1.8843467
-4.0951972 5.7357478 -1.8796153
-4.0521464 5.7497253 -1.8759352
-4.0101805 5.7649746 -1.8727808
-3.998754 5.8244743 -1.8843467
-3.9651048 5.8520961 -1.8853983
-3.931803 5.8803263 -1.8867126
-3.8972418 5.9067569 -1.8875011
-3.85461 5.9208546 -1.8843467
-3.8374958 5.9744344 -1.8940727
-3.8064444 6.006834 -1.8969642
-3.7577558 6.0112576 -1.8909184
-3.7182693 6.0300951 -1.8896041
-3.6982408 6.0808268 -1.8985413
-3.6578829 6.0984397 -1.8969642
-3.614502 6.1108027 -1.8938098
-3.5672197 6.1161957 -1.8885525
-3.5382793 6.1530252 -1.8932841
-3.5075939 6.187211 -1.897227
-3.468152 6.20609 -1.8964385
-3.4355912 6.2373958 -1.8995929
-3.3921928 6.2490301 -1.8967013
-3.3492362 6.2612181 -1.8940727
-3.3148024 6.2893333 -1.8964385
-3.2903726 6.3369579 -1.9048501
-3.2566984 6.3673368 -1.9080044
-3.2075875 6.3673792 -1.9019586
-3.1628852 6.3757038 -1.8985413
-3.1241286 6.3958578 -1.8988042
-3.0722857 6.3888192 -1.8909184
-3.0317886 6.4049335 -1.8901298
-2.9948754 6.4286637 -1.8917069
-2.973058 6.4855127 -1.9032729
-2.9228978 6.4807639 -1.8964385
-2.8928556 6.5206265 -1.90301
-2.8466201 6.5241036 -1.8988042
-2.8122396 6.5547485 -1.9027472
-2.7730918 6.5745478 -1.9035357
-2.7363927 6.6003528 -1.9061644
-2.6878366 6.5973597 -1.9003814
-2.6458719 6.6101446 -1.89933
-2.6169083 6.6558886 -1.9080044
-2.571156 6.6592183 -1.9043244
-2.5370843 6.692914 -1.9095817
-2.4872258 6.6848431 -1.9027472
-2.4514534 6.7144804 -1.906953
-2.399152 6.6985106 -1.8980156
-2.3634388 6.7285819 -1.9024843
-2.3158283 6.7247109 -1.897227
-2.2797656 6.7543354 -1.9016957
-2.2388844 6.7700291 -1.9022214
-2.197005 6.782721 -1.9019586
-2.1535964 6.7905555 -1.9003814
-2.1218956 6.8358946 -1.9095817
-2.0762684 6.8367834 -1.9061644
-2.0315342 6.8401451 -1.9035357
-1.9906011 6.8561883 -1.9045873
-1.9545479 6.8896227 -1.9106331
-1.9158418 6.9145041 -1.9143132
-1.8625532 6.8860784 -1.90301
-1.8170674 6.8852491 -1.8995929
-1.7771893 6.9056129 -1.9022214
-1.7366604 6.9238749 -1.9043244
-1.6959742 6.9418988 -1.9064273
-1.6542399 6.9559293 -1.9074787
-1.6030529 6.929287 -1.897227
-1.5649477 6.9587612 -1.9027472
-1.5318907 7.0125365 -1.9151018
-1.4842345 7.0000949 -1.9090558
-1.4414489 7.010015 -1.9093188
-1.399351 7.023459 -1.9106331
-1.3525783 7.0129652 -1.9053758
-1.3114663 7.0315657 -1.9082673
-1.2717153 7.0584717 -1.9135245
-1.2275559 7.061389 -1.9122102
-1.1877086 7.0897236 -1.9179932
-1.1394286 7.0673485 -1.9098445
-1.1006173 7.1037645 -1.9179932
-1.0516235 7.0741181 -1.9080044
-1.0087411 7.0842586 -1.9090558
-0.96434402 7.0836225 -1.9072158
-0.92024094 7.0846219 -1.9059016
-0.87592542 7.0834322 -1.9040614
-0.83390671 7.101131 -1.9074787
-0.78776348 7.0830994 -1.90117
-0.74972034 7.139617 -1.9153646
-0.70258325 7.1104765 -1.9061644
-0.66080624 7.134829 -1.9116845
-0.61751288 7.1445169 -1.9132617
-0.56958085 7.0971985 -1.89933
-0.52979219 7.151557 -1.9132617
-0.48622715 7.1594863 -1.9145761
-0.4411613 7.1440377 -1.9095817
-0.39731801 7.1466103 -1.9095817
-0.35535932 7.1874599 -1.9200962
-0.3112928 7.1904693 -1.920359
-0.26648951 7.1739244 -1.9153646
-0.22199021 7.1599946 -1.9111588
-0.17786254 7.1535058 -1.9090558
-0.1334289 7.1255221 -1.90117
-0.090124562 7.1599736 -1.9103702
-0.046159755 7.1555676 -1.9090558
-0.0022453393 7.1045799 -1.8951242
0.041509222 7.131475 -1.9024843
0.08567559 7.1648526 -1.9116845
0.12995371 7.1815562 -1.916416
0.17356937 7.1622972 -1.9114217
0.21801376 7.1774917 -1.9158903
0.26070604 7.13938 -1.9059016
0.30492035 7.1472855 -1.9085301
0.34900549 7.1500983 -1.9098445
0.39079994 7.1102509 -1.8995929
0.43849245 7.1741676 -1.9177303
0.48191974 7.1626782 -1.9153646
0.52479756 7.145153 -1.9114217
0.56786221 7.1321807 -1.908793
0.61144847 7.1266398 -1.9082673
0.65534228 7.1246753 -1.908793
0.69659108 7.0955548 -1.9019586
0.73820955 7.0729146 -1.8969642
0.786798 7.1152415 -1.9098445
0.82999319 7.1064463 -1.908793
0.87476146 7.110796 -1.9114217
0.91887134 7.1091223 -1.9124731
0.96143723 7.0957017 -1.9103702
1.0033307 7.0782056 -1.9072158
1.0451872 7.0614176 -1.9043244
1.0899683 7.0644064 -1.906953
1.1306911 7.0413914 -1.9024843
1.1759416 7.0466924 -1.9059016
1.2196515 7.0421963 -1.9066901
1.2613029 7.0260334 -1.9043244
1.3080958 7.0380816 -1.9098445
1.3492509 7.0195007 -1.906953
1.3889109 6.9940562 -1.9022214
1.4286972 6.9702797 -1.8980156
1.4706404 6.9576068 -1.8969642
1.5147421 6.9550509 -1.8988042
1.5561215 6.9399772 -1.897227
1.6019305 6.9443998 -1.90117
1.6431736 6.9288073 -1.8995929
1.6858855 6.9195318 -1.8998557
1.716831 6.8631954 -1.8869754
1.7709121 6.8992572 -1.9001186
1.814932 6.8947921 -1.9019586
1.8473958 6.8471985 -1.8917069
1.89529 6.8571219 -1.8977528
1.9375918 6.846292 -1.8980156
1.9725802 6.8101802 -1.8911812
2.0135067 6.7951736 -1.8903927
2.0548832 6.7817674 -1.8901298
2.0973134 6.7717962 -1.8909184
2.13533 6.7477617 -1.887764
2.1790683 6.7418771 -1.8898669
2.2155545 6.7137208 -1.8856611
2.2539344 6.691771 -1.8832953
2.2980893 6.6869392 -1.885924
2.3393955 6.6736231 -1.8861868
2.3832242 6.6673193 -1.8885525
2.4197931 6.6407866 -1.8851354
2.4628468 6.6321449 -1.8869754
2.5093012 6.6322484 -1.8914441
2.5593204 6.6410332 -1.8985413
2.6031945 6.633287 -1.9009072
2.6305959 6.5840406 -1.8911812
2.683672 6.5990553 -1.9003814
2.6897871 6.4995599 -1.8759352
2.7131367 6.44381 -1.8643692
2.745024 6.4093041 -1.8591119
2.8074253 6.4454103 -1.8748838
2.8457482 6.4254165 -1.8740951
2.8815539 6.3999171 -1.8717294
2.9143424 6.3680797 -1.8675236
2.9509192 6.3448291 -1.8659464
2.996393 6.3405595 -1.8701522
3.0227096 6.2959628 -1.8622663
3.0714374 6.2981086 -1.868575
3.1083105 6.2756863 -1.8675236
3.1489272 6.2608051 -1.8688378
3.2022078 6.2705789 -1.8777752
3.2392905 6.2482429 -1.8769866
3.2856581 6.2436166 -1.8817182
3.3034453 6.1850448 -1.8698894
3.3279967 6.1400619 -1.8622663
3.3651438 6.118681 -1.8620034
3.4021537 6.097075 -1.8617406
3.4428287 6.0819621 -1.8635806
3.4978635 6.0916777 -1.8733065
3.522547 6.0484257 -1.8664721
3.5173836 5.9552603 -1.8438659
3.5583212 5.9410148 -1.8462317
3.6007192 5.9289641 -1.849386
3.6400671 5.9116879 -1.8509632
3.7023354 5.9309788 -1.8643692
3.7396896 5.9097805 -1.864895
3.7758808 5.886723 -1.864895
3.8166642 5.8707232 -1.8672607
3.8526146 5.8471942 -1.8672607
3.886812 5.8210378 -1.8664721
3.9110987 5.7803001 -1.860952
3.9546781 5.7681284 -1.864895
3.994401 5.7500925 -1.8669978
4.0318294 5.728631 -1.8680493
4.0601807 5.6943583 -1.864895
4.0865679 5.6576076 -1.860952
4.1314631 5.6464405 -1.8656836
4.1643071 5.618659 -1.864895
4.201601 5.596859 -1.8662093
4.2370319 5.5725088 -1.866735
4.2740884 5.5502281 -1.8680493
4.306283 5.521616 -1.8672607
4.352643 5.5109873 -1.8727808
4.3821564 5.4789028 -1.8709408
4.4132624 5.4489126 -1.8698894
4.4539566 5.4306817 -1.8730437
4.4828792 5.3980556 -1.8712037
4.5121899 5.3660173 -1.8696265
4.5450306 5.3382301 -1.8696265
4.5884113 5.3226633 -1.8740951
4.6311369 5.3060379 -1.8783009
4.6546612 5.2674012 -1.8746209
4.6785288 5.2293954 -1.8712037
4.7066407 5.1963 -1.8696265
4.7299576 5.1580796 -1.8662093
4.7693963 5.137444 -1.8693635
4.7995076 5.1066771 -1.8688378
4.848711 5.0960011 -1.8759352
4.880558 5.0668492 -1.8761981
4.8953867 5.0202312 -1.8698894
4.9294877 4.9935317 -1.8712037
4.9634452 4.9666028 -1.8725179
4.9807863 4.9231691 -1.8675236
5.0184956 4.8999281 -1.8704151
5.069304 4.8891335 -1.8783009
5.1187706 4.8765678 -1.8856611
5.1183782 4.8166404 -1.8743579
5.1372347 4.7752924 -1.8704151
5.1728358 4.7495527 -1.8727808
5.2018809 4.7177234 -1.8727808
5.2314491 4.6863604 -1.8730437
5.2651644 4.6586471 -1.8748838
5.2791185 4.6135573 -1.8696265
5.3467731 4.6151152 -1.883821
5.3815994 4.5878534 -1.8861868
5.4111252 4.5559888 -1.8867126
5.4003963 4.4906297 -1.8730437
5.4181542 4.4494505 -1.8696265
5.4633408 4.4307041 -1.8759352
5.522058 4.4224243 -1.8869754
5.5581722 4.3956385 -1.8901298
5.5637436 4.3448277 -1.8827696
5.5910625 4.3111963 -1.8830324
5.5966806 4.2610321 -1.8759352
5.6265774 4.2295094 -1.8772495
5.6524234 4.1949058 -1.8772495
5.6788344 4.1607141 -1.8775123
5.7167673 4.1348362 -1.8817182
5.7648048 4.1159358 -1.8893412
5.7647114 4.0627046 -1.8809296
5.7958684 4.0316629 -1.8830324
5.8037915 3.9845591 -1.8775123
5.8369184 3.9548244 -1.8804039
5.8707004 3.9253693 -1.8835582
5.8850102 3.8828988 -1.8804039
5.9127679 3.8493471 -1.8817182
5.9330282 3.8109095 -1.8806667
5.958745 3.7759824 -1.8814553
5.9744382 3.7347474 -1.8790895
6.0218816 3.7132065 -1.8869754
6.0462008 3.6771896 -1.8875011
6.0628576 3.6365485 -1.8856611
6.0900397 3.6022255 -1.8872383
6.1328659 3.5769389 -1.8938098
6.1337862 3.52722 -1.8872383
6.1586709 3.4914203 -1.8882897
6.2035627 3.4667406 -1.8956499
6.2018976 3.4160464 -1.8885525
6.2303734 3.3820693 -1.8909184
6.2705774 3.3542407 -1.8969642
6.2867727 3.3134534 -1.8956499
6.2847199 3.2632596 -1.8888154
6.3243833 3.2347379 -1.8948613
6.3303242 3.1889284 -1.8906555
6.3549585 3.1525979 -1.8922327
6.3663797 3.1097355 -1.8898669
6.3905582 3.0731215 -1.8914441
6.4293532 3.0433431 -1.8974899
6.4566526 3.0079088 -1.9001186
6.4942842 2.9770772 -1.9059016
6.4728475 2.9193292 -1.8940727
6.5118065 2.8889446 -1.9003814
6.5347161 2.8512487 -1.9019586
6.5476546 2.8091974 -1.9006443
6.5656571 2.7693436 -1.9009072
6.5789609 2.7275279 -1.8998557
6.5946789 2.6867449 -1.8995929
6.617311 2.6487391 -1.9014329
6.6361327 2.6091447 -1.9022214
6.6556177 2.5697665 -1.9032729
6.6739669 2.5299056 -1.9040614
6.6993122 2.4926066 -1.906953
6.7017913 2.4468231 -1.9032729
6.7121367 2.4040296 -1.9019586
6.7404165 2.3675935 -1.9059016
6.7411323 2.3214805 -1.9019586
6.7689629 2.2846999 -1.9059016
6.7791901 2.2419124 -1.9048501
6.7818031 2.1967077 -1.9016957
6.7859569 2.1521387 -1.899067
6.8303657 2.1201801 -1.9080044
6.8423228 2.0779498 -1.9077415
6.8567944 2.0364761 -1.9082673
6.8747206 1.9959784 -1.9098445
6.8877664 1.9540216 -1.9101074
6.9061351 1.9135245 -1.9119474
6.9037752 1.8673368 -1.9080044
6.9272313 1.8281394 -1.9114217
6.9429903 1.7868019 -1.9127359
6.9444642 1.7418212 -1.9101074
6.9690809 1.7026104 -1.9140503
6.9615617 1.6555784 -1.9090558
6.9819293 1.6152223 -1.9119474
6.9870019 1.571294 -1.9106331
7.0247908 1.5345657 -1.9185189
7.0350184 1.4916334 -1.9187818
7.0355325 1.4466918 -1.916416
7.0158887 1.3978441 -1.9085301
7.046124 1.358968 -1.9145761
7.0676088 1.3181827 -1.918256
7.0708165 1.2739372 -1.9169418
7.0528336 1.22607 -1.9098445
7.0764012 1.1854789 -1.9143132
7.0683007 1.1395819 -1.9101074
6.4878159 1.0052875 -1.7481838
6.4738202 0.962484 -1.7426637
5.9618745 0.84910846 -1.6001921
5.8359957 0.79470193 -1.5641799
5.8474598 0.75974685 -1.5660199
5.8194542 0.71983266 -1.5570825
5.8103456 0.68253833 -1.5534025
5.7990813 0.64517003 -1.5491967
5.7952542 0.60877055 -1.5470937
5.7815976 0.57149518 -1.5423622
5.7859559 0.536098 -1.5426251
5.7727952 0.4991762 -1.5381564
5.7719021 0.4634375 -1.537105
5.7746372 0.42801303 -1.537105
5.773304 0.3923116 -1.5360535
0 0 -0
0 0 -0
0 0 -0
0 0 -0
0 0 -0
0 0 -0
0 0 -0
0 0 -0
0 0 -0
0 0 -0
0 0 -0
0 -0 -0
0 -0 -0
0 -0 -0
0 -0 -0
0 -0 -0
0 -0 -0
0 -0 -0
0 -0 -0
0 -0 -0
0 -0 -0
0 -0 -0
0 -0 -0
0 -0 -0
0 -0 -0
0 -0 -0
6.6260161 -0.65041798 -1.7734187
7.1947842 -0.75094932 -1.9303478
7.1996307 -0.79614359 -1.9329764
7.1831107 -0.83895969 -1.9298221
7.2075129 -0.88667542 -1.9379708
7.1780157 -0.92778736 -1.9313992
7.2056503 -0.97635293 -1.9405994
7.160358 -1.0149894 -1.9298221
7.1530409 -1.058764 -1.9295592
7.0129161 -1.0820154 -1.8927584
6.7879987 -1.0899595 -1.8325628
6.6213064 -1.1048827 -1.7884018
6.5117316 -1.1276906 -1.7600126
6.3983316 -1.1485136 -1.730572
6.3427877 -1.1787519 -1.7171661
6.2596388 -1.2030663 -1.696137
6.2114472 -1.2333645 -1.6848339
6.2755938 -1.2861896 -1.7048115
6.2732472 -1.3258697 -1.7063886
6.2508535 -1.3612546 -1.7024457
6.2781572 -1.4076111 -1.7124345
6.275043 -1.4474088 -1.7140117
6.2557173 -1.4834338 -1.7111201
6.235249 -1.5190477 -1.7079659
6.2192593 -1.5556378 -1.7061257
6.155396 -1.5798473 -1.6908797
6.1558495 -1.6202898 -1.6937712
6.1150527 -1.649732 -1.6850967
6.0890064 -1.68285 -1.6806281
6.0711393 -1.7180766 -1.6785252
6.0558496 -1.7539531 -1.6772109
6.0366483 -1.7886097 -1.6748451
6.0421796 -1.8306551 -1.6795766
5.9948912 -1.8565565 -1.669325
5.9916649 -1.8959267 -1.6716907
5.9854274 -1.9344366 -1.673268
5.9789424 -1.972941 -1.6748451
5.9447803 -2.0021949 -1.6685364
5.9196095 -2.0342414 -1.6648563
5.904285 -2.0695672 -1.6640677
5.8896585 -2.1051066 -1.663542
5.8739114 -2.1402137 -1.6627535
5.8416758 -2.1691585 -1.6572334
5.8102088 -2.1981301 -1.651976
5.8173175 -2.2417228 -1.6580219
5.810638 -2.280196 -1.6601248
5.7848907 -2.3111508 -1.6567075
5.7366405 -2.3327856 -1.6467187
5.742722 -2.37643 -1.6527647
5.7120275 -2.40488 -1.6480331
5.6971636 -2.439883 -1.6480331
5.7059674 -2.4852011 -1.6551304
5.7011962 -2.5248556 -1.6582848
5.6820779 -2.5582051 -1.6572334
5.6917148 -2.6046693 -1.6648563
5.6738758 -2.63873 -1.6643306
5.6593227 -2.6743193 -1.6648563
5.651504 -2.7131712 -1.667485
5.6286802 -2.7448356 -1.6656449
5.5953059 -2.7711818 -1.6606505
5.5626831 -2.7976558 -1.655919
5.5393982 -2.8286626 -1.654079
5.5082335 -2.8554909 -1.6498731
5.5 -2.8941791 -1.6527647
5.4804363 -2.9269626 -1.652239
5.4810333 -2.9706528 -1.6580219
5.4745374 -3.0107391 -1.6617019
5.4433236 -3.0372195 -1.6577591
5.4363394 -3.0772181 -1.6614391
5.4123354 -3.1076334 -1.6598619
5.4073381 -3.1490414 -1.6643306
5.3530259 -3.1615469 -1.6532904
5.3517342 -3.2052426 -1.6590734
5.3319664 -3.2380199 -1.6590734
5.2922821 -3.2585309 -1.6527647
5.2836461 -3.2980971 -1.6564447
5.2641249 -3.3309708 -1.6567075
5.2411513 -3.361645 -1.655919
5.2139554 -3.3895328 -1.6538161
5.1688919 -3.4055319 -1.6459302
5.1470962 -3.4366474 -1.6456673
5.1235156 -3.4665422 -1.6448787
5.1037402 -3.4990058 -1.6454045
5.0544438 -3.5109854 -1.6362042
5.0304389 -3.5402665 -1.6354157
5.0062647 -3.5693851 -1.6346271
5.0077305 -3.6169882 -1.642513
5.0126925 -3.6675923 -1.6517131
4.9800186 -3.6908102 -1.648296
4.9680796 -3.729409 -1.651976
4.9573898 -3.7691679 -1.6561818
4.9425769 -3.8059916 -1.6590734
4.9001131 -3.8214102 -1.6525018
4.8659744 -3.8430307 -1.6488217
4.8400421 -3.8710072 -1.6480331
4.8199472 -3.9036691 -1.6493474
4.7735267 -3.9148111 -1.6414615
4.7434788 -3.939095 -1.6393586
4.6963305 -3.948873 -1.6312099
4.6558528 -3.9638517 -1.6254269
4.6767454 -4.0314107 -1.6417243
4.6497407 -4.0581269 -1.6409358
4.5792108 -4.0463233 -1.6243755
4.5406365 -4.062119 -1.6193811
4.557096 -4.1274776 -1.6346271
4.5693679 -4.189929 -1.6485589
4.5690246 -4.2415233 -1.6580219
4.5176067 -4.2456865 -1.6485589
4.5110393 -4.2919517 -1.655919
4.4873986 -4.322228 -1.6569704
4.4677 -4.3564177 -1.6595991
2.3291595 -2.2984169 -0.85103303
2.3197892 -2.31744 -0.85287309
2.304848 -2.3309441 -0.85261023
4.3803344 -4.4861526 -1.6677479
4.3493772 -4.5094724 -1.6664335
4.2976713 -4.5109224 -1.6569704
4.2613177 -4.5280719 -1.6535532
4.235424 -4.5562539 -1.6543418
4.2015157 -4.5757589 -1.651976
4.2005782 -4.6314745 -1.6630163
4.1592083 -4.6427865 -1.6577591
4.1338382 -4.6718326 -1.6590734
4.0892253 -4.6789446 -1.6525018
4.0484629 -4.6900682 -1.6475074
4.0189829 -4.7140865 -1.6472446
3.9918461 -4.7408724 -1.6480331
3.9454122 -4.7445016 -1.6406729
3.9541824 -4.8148565 -1.6569704
3.9397547 -4.8577647 -1.663542
3.8923869 -4.8600049 -1.655919
3.8624933 -4.8837967 -1.655919
2.0073833 -2.5695286 -0.84787869
1.9874561 -2.5764482 -0.84603864
1.9681038 -2.583988 -0.84446144
1.9498932 -2.5929301 -0.84341002
1.932797 -2.6032958 -0.8428843
1.899684 -2.5917547 -0.83499837
1.7271527 -2.3867843 -0.76218539
1.6995835 -2.3792744 -0.75613952
1.6732832 -2.3730943 -0.75061941
3.5160868 -5.0544224 -1.6369928
3.4850073 -5.0759015 -1.6369928
3.4565017 -5.1011839 -1.6383072
3.4149497 -5.1070557 -1.6333128
3.3989544 -5.1512709 -1.6409358
3.3514948 -5.1477695 -1.63305
3.3354845 -5.1925931 -1.6409358
3.3035605 -5.2129617 -1.6409358
3.2638428 -5.2208605 -1.6369928
3.2337718 -5.2440739 -1.6380444
3.2005315 -5.2621684 -1.6375186
3.16471 -5.2759151 -1.6356785
3.1214747 -5.2769628 -1.6298956
3.0948687 -5.3060188 -1.63305
3.0617723 -5.3240719 -1.6327871
3.0223873 -5.3310065 -1.629107
2.9839735 -5.3393435 -1.6259526
2.9544132 -5.3634686 -1.6277927
2.9223683 -5.3831916 -1.6283184
2.8824584 -5.3882589 -1.6243755
1.5793332 -2.9952412 -0.88205081
1.5635918 -3.0100133 -0.88362801
1.5415796 -3.0126781 -0.8815251
2.7519593 -5.4625459 -1.6259526
2.7389646 -5.5208197 -1.6385701
2.6940315 -5.5149794 -1.6317356
2.6501095 -5.5105357 -1.6254269
2.6232626 -5.5415192 -1.6298956
2.5843236 -5.5470152 -1.6267412
2.5490334 -5.5601363 -1.6259526
2.5081282 -5.560719 -1.6214839
2.4759166 -5.5804143 -1.6227983
2.4400864 -5.5919633 -1.6217468
2.404588 -5.6041703 -1.6209582
2.3611603 -5.5974817 -1.6146495
2.3245542 -5.6065159 -1.6130724
2.2973874 -5.6385455 -1.6183296
2.2559371 -5.6355157 -1.6133353
2.2209628 -5.6483536 -1.6130724
2.1855686 -5.6600747 -1.6125467
2.1521652 -5.6769876 -1.6135981
2.1226723 -5.7045555 -1.6178039
2.0863068 -5.7138467 -1.6167524
2.0538094 -5.7338076 -1.6188554
2.0227437 -5.7581363 -1.6222725
1.9917704 -5.7832117 -1.6259526
1.9534721 -5.787096 -1.6235869
1.9121734 -5.7815676 -1.6185925
1.879634 -5.802371 -1.6212211
1.8457451 -5.8193135 -1.6227983
1.814292 -5.8443518 -1.6267412
1.7713921 -5.832293 -1.6201696
1.7350234 -5.8412023 -1.6196439
1.6978054 -5.847105 -1.6183296
1.6621594 -5.8583407 -1.6185925
1.6261821 -5.8684297 -1.6185925
1.5881293 -5.8708458 -1.6164895
1.5533068 -5.8851447 -1.6178039
1.5157251 -5.888958 -1.6162267
1.4795626 -5.8981476 -1.6162267
1.4408273 -5.8968048 -1.6133353
1.4035026 -5.9008408 -1.6120209
1.3674866 -5.9102817 -1.6122837
1.3301384 -5.9138541 -1.6109694
1.2932093 -5.9190764 -1.6101809
1.2562664 -5.9240685 -1.6093923
1.217369 -5.9193792 -1.605975
1.1855464 -5.9494476 -1.6122837
0.74956805 -3.8836913 -1.0371399
0.72130537 -3.8645048 -1.0305684
0.69672501 -3.86411 -1.029254
0.67250687 -3.8654604 -1.0284654
0.64893544 -3.8704658 -1.0287282
0.62670863 -3.8839002 -1.0313569
0.60640734 -3.9105561 -1.0376656
0.58169264 -3.9094315 -1.0363513
0.55850899 -3.9186585 -1.0379285
0.53380412 -3.9172313 -1.0366142
0.50802064 -3.9070375 -1.0329341
0.4826189 -3.8985906 -1.0297798
0.45745239 -3.8909376 -1.0268883
0.43293047 -3.8879175 -1.0253111
0.40705439 -3.8713093 -1.0200539
0.38329282 -3.873734 -1.0200539
0.36147094 -3.8971491 -1.0258368
0.33746874 -3.8983324 -1.025574
0.31292644 -3.8926356 -1.023471
0.28804007 -3.8810115 -1.019791
0.26298204 -3.8644159 -1.0147966
0.24033308 -3.883291 -1.0195282
0.21607392 -3.8769858 -1.0174252
0.19294596 -3.8917298 -1.0211053
0.16881368 -3.8870568 -1.0195282
0.14538787 -3.8995895 -1.0226824
0.12047618 -3.8685839 -1.0140079
0.096284047 -3.850924 -1.0090135
0.072563872 -3.8466191 -1.0076993
0.04902003 -3.8518157 -1.0090135
0.025445485 -3.8616922 -1.0116422
0.0017512891 -3.8694942 -1.0137451
-0.022078104 -3.8839042 -1.017688
-0.046014111 -3.8923786 -1.0200539
-0.069790758 -3.886235 -1.0184766
-0.094152614 -3.9069536 -1.0242596
-0.11726944 -3.8783352 -1.0166366
-0.14170083 -3.8948979 -1.0213681
-0.16530785 -3.8872075 -1.0195282
-0.18844827 -3.8716648 -1.0155852
-0.21209459 -3.8685091 -1.0150595
-0.23659454 -3.8796542 -1.0184766
-0.25896686 -3.8569512 -1.0126936
-0.28319442 -3.8629873 -1.0147966
-0.30735233 -3.8669477 -1.0163738
-0.33330479 -3.8909438 -1.023471
-0.35876644 -3.9061191 -1.0282025
-0.38301048 -3.9067249 -1.0289911
-0.40817824 -3.9158165 -1.0321455
-0.43283474 -3.918992 -1.0337226
-0.44779447 -3.83864 -1.0124308
-0.48160195 -3.919131 -1.0352999
-0.50452572 -3.9074905 -1.0329341
-0.52888125 -3.9071894 -1.0337226
-0.54999846 -3.8838103 -1.0282025
-0.57834435 -3.9109035 -1.0366142
-0.6038031 -3.9168165 -1.0392429
-0.62721235 -3.9092276 -1.0381913
-0.65452546 -3.9252901 -1.0437114
-0.67925745 -3.9250026 -1.044763
-0.70128042 -3.9093654 -1.0416086
-0.72490174 -3.9030917 -1.0410829
-0.75047749 -3.9070976 -1.0434486
-0.77029896 -3.8815999 -1.0376656
-0.79545873 -3.8834164 -1.0395057
-0.81727511 -3.8690231 -1.036877
-0.83463001 -3.8347118 -1.0287282
-0.85898864 -3.8332841 -1.0297798
-0.87988877 -3.8166602 -1.0266254
-0.90752375 -3.8290257 -1.0316198
-0.92391622 -3.7943265 -1.023471
-0.74990618 -3.0005126 -0.80214053
-0.76806283 -2.9949205 -0.80187768
-0.78740793 -2.9938834 -0.8029291
-0.80551171 -2.9880641 -0.80266625
-0.82305938 -2.9802754 -0.80187768
-0.83896452 -2.9668143 -0.79951191
-0.85822707 -2.9653175 -0.80056334
-1.1281806 -3.8091738 -1.0418714
-1.1490127 -3.7938697 -1.0395057
-1.1719842 -3.7858267 -1.0392429
-1.1908228 -3.7647667 -1.0352999
-1.2058847 -3.7326026 -1.0282025
-1.1479945 -3.4805124 -0.95801818
-1.0768909 -3.1991103 -0.87915933
-1.0911666 -3.1769314 -0.87469065
-1.1189418 -3.1938484 -0.8815251
-1.3510048 -3.7810702 -1.0534374
-1.1312827 -3.1064525 -0.86023325
-1.1489781 -3.095835 -0.85918176
-1.1737589 -3.1040666 -0.86365044
-1.453456 -3.7728829 -1.0610604
-1.2089412 -3.0822442 -0.86154753
-1.2217427 -3.0595379 -0.85707885
-1.2390382 -3.048409 -0.85602742
-1.2569814 -3.0389662 -0.85550171
-1.5276783 -3.6296041 -1.0324084
-1.5647404 -3.6547492 -1.04266
-1.5933031 -3.6592312 -1.0468658
-1.6090811 -3.6343901 -1.0423971
-1.6396725 -3.6429224 -1.0479172
-1.664404 -3.6380565 -1.0494945
-1.6809971 -3.6155286 -1.0458144
-1.6977888 -3.5938065 -1.0423971
-1.7193904 -3.5824518 -1.0421343
-1.7345706 -3.5579603 -1.0379285
-1.7572259 -3.5489793 -1.0384542
-1.788076 -3.5562296 -1.0439743
-1.8190808 -3.5632346 -1.0494945
-1.8333586 -3.5374455 -1.0450258
-1.8397478 -3.497102 -1.0360885
-1.8707194 -3.5036182 -1.0416086
-1.8898826 -3.487833 -1.0402943
-1.9126432 -3.4787071 -1.0410829
-1.9316008 -3.4626937 -1.0397686
-1.950434 -3.4465785 -1.0384542
-1.9614528 -3.4169769 -1.0329341
-2.002296 -3.4390574 -1.0437114
-1.9850768 -3.3619149 -1.0232081
-1.9967415 -3.3347738 -1.0184766
-2.0457208 -3.3694603 -1.0334598
-2.0779953 -3.3757391 -1.0395057
-2.1088903 -3.3792925 -1.044763
-2.1187484 -3.3491695 -1.0392429
-2.1408217 -3.338542 -1.0400314
-2.177047 -3.3496082 -1.0479172
-2.1895943 -3.3241034 -1.0439743
-2.206198 -3.3049893 -1.0421343
-2.2269762 -3.2921891 -1.0423971
-2.2913377 -3.3429124 -1.063689
-2.3156605 -3.3343363 -1.0655291
-2.3294108 -3.3105979 -1.0623747
-2.3659282 -3.3190219 -1.0699978
-2.3489535 -3.2528276 -1.0526488
-2.3768466 -3.2492533 -1.0563289
-2.4329405 -3.2834361 -1.0728892
-2.4455097 -3.2584164 -1.0694721
-2.4870687 -3.2717636 -1.079198
-2.5200505 -3.273257 -1.084981
-2.5133808 -3.2235005 -1.0731521
-2.5767765 -3.2632833 -1.0923411
-2.5690236 -3.2127559 -1.0802494
-2.5249133 -3.1182179 -1.0526488
-2.51952 -3.0728297 -1.0421343
-2.5432594 -3.0632496 -1.0442373
-2.5570388 -3.0416801 -1.0421343
-2.5675213 -3.0163841 -1.038717
-2.5765297 -2.9896133 -1.0347742
-2.5973635 -2.9766548 -1.0358256
-2.6264422 -2.9729507 -1.0402943
-2.6613636 -2.9754722 -1.0471287
-2.7184408 -3.0019858 -1.0629004
-2.7328961 -2.9809833 -1.0613233
-2.7603273 -2.9740562 -1.0650034
-3.251056 -3.4596708 -1.2529503
-2.807924 -2.9518399 -1.0694721
-2.7597067 -2.8657715 -1.0434486
-2.7705016 -2.8418777 -1.04082
-2.7506003 -2.7870662 -1.0263625
-2.7724247 -2.7749128 -1.0282025
-2.7880263 -2.7564931 -1.0276768
-2.8104112 -2.7447255 -1.0297798
-2.8251159 -2.7254205 -1.0289911
-3.4615111 -3.2982428 -1.2621505
-2.8456988 -2.678647 -1.0242596
-3.3957067 -3.1570003 -1.2227211
-3.4207001 -3.1413245 -1.224824
-3.3326912 -3.0230687 -1.1853945
-3.3741779 -3.0231597 -1.1938062
-2.9445939 -2.606076 -1.0308312
-2.9816005 -2.6063681 -1.0384542
-3.0063026 -2.595588 -1.0416086
-3.0229065 -2.5777185 -1.0418714
-3.0334992 -2.5547726 -1.0400314
-3.0572793 -2.5428958 -1.0429229
-4.6149998 -3.7901134 -1.5865232
-3.0935009 -2.5094402 -1.044763
-3.0967891 -2.4807634 -1.0405571
-3.1543374 -2.4952238 -1.0552775
-3.1490543 -2.4597919 -1.0481801
-3.1671445 -2.4427795 -1.0492316
-3.1951253 -2.433234 -1.0537002
-3.190712 -2.3990929 -1.0471287
-3.2100217 -2.3829191 -1.0487058
-3.2642803 -2.3922534 -1.0621119
-3.3000081 -2.3874426 -1.0692092
-3.331872 -2.3794804 -1.0749922
-3.3527195 -2.3634369 -1.077095
-3.3378489 -2.3224399 -1.0673691
-3.3090789 -2.2724338 -1.0531745
-3.3085809 -2.2423477 -1.048443
-3.3351116 -2.230583 -1.0526488
-3.3414867 -2.205296 -1.0502831
-3.3315039 -2.1694896 -1.04266
-3.324456 -2.1359746 -1.0360885
-3.4304168 -2.1743951 -1.0660548
-3.4576037 -2.1619976 -1.0705235
-3.4461641 -2.1255534 -1.0626376
-3.4599659 -2.1048694 -1.0629004
-3.4231668 -2.0538306 -1.0471287
-3.4606199 -2.0475197 -1.0550146
-3.5031245 -2.0437417 -1.0644777
-3.5155988 -2.0222085 -1.0644777
-3.5212252 -1.9967936 -1.0623747
-3.5376227 -1.9775028 -1.063689
-3.5572965 -1.9599473 -1.0660548
-3.5692556 -1.9380833 -1.0660548
-3.5785277 -1.9147815 -1.0652663
-3.5594792 -1.8765981 -1.0558032
-3.5709269 -1.8547221 -1.0558032
-3.5899715 -1.8367294 -1.0581689
-3.6046209 -1.8164029 -1.0592204
-3.6934936 -1.8328284 -1.082878
-3.7298133 -1.8224074 -1.0905011
-3.7383165 -1.7982334 -1.0897125
-3.7257321 -1.7641201 -1.0826151
-3.7889655 -1.7656637 -1.0983869
-3.7751684 -1.7311282 -1.0910268
-3.8165047 -1.7218101 -1.100227
-3.9319558 -1.7449039 -1.1315076
-4.0089169 -1.749673 -1.1512223
-5.5225906 -2.3696029 -1.5967748
-4.0514235 -1.7093414 -1.157531
-4.0645094 -1.6855583 -1.1583197
-4.1274967 -1.6820564 -1.1738286
-4.3670645 -1.7484484 -1.2411214
-4.361547 -1.7152675 -1.2363899
-4.4061942 -1.7016736 -1.2463787
-4.4833188 -1.6999023 -1.2658305
-4.5434027 -1.6908579 -1.280288
-4.6706138 -1.7056149 -1.3141973
-4.689167 -1.6798511 -1.3165631
-4.8095398 -1.689719 -1.3483695
-4.9356799 -1.7000556 -1.3817531
-5.0392685 -1.7011962 -1.408565
-5.1888576 -1.7162679 -1.4485202
-5.2121415 -1.6885577 -1.4522003
-5.3373713 -1.6929857 -1.4850582
-5.3596387 -1.6639206 -1.4884753
-5.86553 -1.7814798 -1.6296327
-6.0076928 -1.7844418 -1.6669593
-6.0509605 -1.756956 -1.6761594
-6.1024699 -1.7313747 -1.6877254
-6.1920152 -1.7157835 -1.7100687
-6.28439 -1.699913 -1.7332007
-6.3730688 -1.6819885 -1.7552811
-6.4496136 -1.6599149 -1.7739444
-6.5953803 -1.6543235 -1.8120595
-6.8266106 -1.667828 -1.8740951
-6.929646 -1.6479938 -1.9001186
-7.0458522 -1.6299995 -1.9298221
-7.0576038 -1.5871594 -1.9303478
-7.079464 -1.5464997 -1.9337649
-7.0869317 -1.5026319 -1.9332392
-7.1319318 -1.4664978 -1.943228
-7.1057839 -1.4157397 -1.9335021
-7.132338 -1.3755814 -1.9384965
-7.1359015 -1.3309085 -1.9371822
-7.1087995 -1.2807742 -1.9274563
-7.104166 -1.2349851 -1.9240391
-7.1173201 -1.192327 -1.9256163
-7.1387901 -1.1509348 -1.9295592
-7.1686015 -1.1106521 -1.9358679
-7.1924601 -1.0691963 -1.9405994
-7.2074819 -1.0262668 -1.9429651
-7.1878304 -0.97851336 -1.9358679
-7.2032671 -0.93563253 -1.9384965
-7.2069573 -0.89117998 -1.9379708
-7.218998 -0.84772873 -1.9398109
-7.2183099 -0.8027789 -1.9382336
-7.2144637 -0.75756764 -1.9358679
-7.2410603 -0.71546471 -1.9419137
-7.2289815 -0.66951096 -1.937445
-7.2348757 -0.62530798 -1.9379708
-7.2539644 -0.58213633 -1.9421766
-7.2574 -0.53761584 -1.9421766
-7.2490106 -0.49229255 -1.9390223
-7.2836738 -0.44976145 -1.9476967
-7.2381287 -0.40239114 -1.9345536
-7.2346797 -0.35768631 -1.9329764
-7.2348104 -0.31320527 -1.9324507
-7.2414165 -0.26898572 -1.9337649
-7.2448597 -0.22460763 -1.9342908
-7.2219877 -0.17955415 -1.9277191
-7.2374234 -0.13550608 -1.9316621
-7.2352247 -0.091059573 -1.9308735
-7.237577 -0.046675488 -1.9313992
-7.2203598 -0.002263021 -1.9266677
-7.2298861 0.042098045 -1.9292964
-7.2304564 0.086470693 -1.9295592
-7.2278605 0.13079908 -1.9290335
-7.2288508 0.175193 -1.9295592
-7.2334261 0.21972179 -1.9311364
-7.2059088 0.26314625 -1.9240391
-7.2186174 0.30797514 -1.927982
-7.1992459 0.35141245 -1.9232504
-7.2191114 0.39680102 -1.9292964
-7.2049847 0.44038099 -1.926142
-7.2213998 0.48588017 -1.9313992
-6.9254398 -0.17610808 -1.9340245
-6.9302359 -0.13368547 -1.9351209
-6.9290028 -0.091134422 -1.9345727
-6.9275079 -0.048603538 -1.9340245
-6.9353695 -0.0061034504 -1.9362174
-6.9343147 0.036446292 -1.9359434
-6.9301138 0.078950167 -1.9348468
-6.9285374 0.12145425 -1.9345727
-6.9093947 0.16353339 -1.9293643
-6.9082613 0.20592557 -1.9293643
-6.9020624 0.2481375 -1.9279937
-6.9138618 0.29104859 -1.9318314
-6.9177089 0.33374348 -1.9334762
-6.9203324 0.37644437 -1.9348468
-6.910213 0.41843507 -1.9326538
-6.9084749 0.46089143 -1.932928
-6.9151082 0.5039708 -1.9356692
-6.8907943 0.54472554 -1.9296384
-6.885406 0.58683318 -1.9290901
-6.8797598 0.62889522 -1.9285419
-6.8183427 0.66549492 -1.9120942
-6.861959 0.71228075 -1.9258006
-6.848856 0.7534256 -1.9233335
-6.8154459 0.79210621 -1.9151096
-6.8591404 0.83986819 -1.9290901
-6.8509965 0.88157123 -1.9282677
-6.8254437 0.92089242 -1.9225111
-6.841567 0.96584588 -1.928816
-6.8298035 1.0069655 -1.9271712
-6.8168421 1.0478311 -1.9252523
-6.8178816 1.0908537 -1.9274454
-6.8082137 1.1321938 -1.926623
-6.8020864 1.1741104 -1.9268972
-6.7777143 1.2127771 -1.9219629
-6.7729821 1.254867 -1.9227853
-6.7557096 1.2945921 -1.9200439
-6.7514124 1.336767 -1.9211404
-6.7355452 1.3766276 -1.9189475
-6.7156792 1.4155507 -1.9156579
-6.7106266 1.4575469 -1.9167545
-6.6921716 1.4965968 -1.9140131
-6.6828628 1.537631 -1.9140131
-6.6976347 1.5843619 -1.9211404
-6.6532106 1.6170266 -1.9109977
-6.6291671 1.6543275 -1.9068859
-6.652431 1.7035588 -1.9167545
-6.6167383 1.737751 -1.909353
-6.6124516 1.7800674 -1.9112719
-6.6032591 1.8211184 -1.9118202
-6.5882587 1.8605556 -1.9107237
-6.5841098 1.9030813 -1.9129167
-6.563086 1.9407184 -1.9101753
-6.5271206 1.9737164 -1.903048
-6.5360198 2.0202596 -1.909353
-6.5244179 2.0606153 -1.9096271
-6.5052447 2.0985432 -1.9077083
-6.4867649 2.1366143 -1.9060634
-6.501792 2.1858747 -1.9145614
-6.4818892 2.2235439 -1.9126425
-6.4345374 2.251524 -1.9024998
-6.4278474 2.2935483 -1.9046929
-6.4317288 2.3395195 -1.9101753
-6.4343863 2.3852901 -1.9153838
-6.4133315 2.4223475 -1.9134649
-6.4010401 2.4626892 -1.9142873
-6.3795409 2.4994636 -1.9123684
-6.3542581 2.5346417 -1.909353
-6.3278933 2.5692422 -1.9060634
-6.3191204 2.6109586 -1.9082565
-6.3038673 2.6500556 -1.9085306
-6.3007522 2.6943564 -1.9126425
-6.2796917 2.7310491 -1.9112719
-6.2549 2.7660291 -1.9088048
-6.2290387 2.8004136 -1.9060634
-6.1977434 2.8321869 -1.9016775
-6.2011824 2.8798826 -1.9082565
-6.1755676 2.914185 -1.9057894
-6.1350226 2.9412148 -1.8986621
-6.1419349 2.9910123 -1.9066117
-6.1355352 3.0346103 -1.9104495
-6.1262531 3.0769475 -1.9134649
-6.1046882 3.1131692 -1.9126425
-6.0752225 3.145263 -1.909353
-6.058363 3.1838226 -1.9101753
-6.0387135 3.2209361 -1.9101753
-6.0222197 3.2597592 -1.9112719
-6.0012617 3.2961867 -1.9109977
-5.9658022 3.324522 -1.9060634
-5.9461279 3.3615382 -1.9063376
-5.9245558 3.3974814 -1.9060634
-5.9002724 3.4318359 -1.904967
-5.8815889 3.4694405 -1.9057894
-5.8560634 3.5029957 -1.9044187
-5.8319926 3.5373657 -1.9035963
-5.8167315 3.5771134 -1.9057894
-5.7930412 3.6117194 -1.9052411
-5.77321 3.6487381 -1.9060634
-5.7604308 3.6903176 -1.909353
-5.7328391 3.7224514 -1.9077083
-5.7114973 3.7586148 -1.9082565
-5.683527 3.7903879 -1.9066117
-5.642632 3.8133442 -1.9005809
-5.6215081 3.849525 -1.9014033
-5.5914607 3.87956 -1.8992103
-5.5848603 3.925962 -1.9052411
-5.5590992 3.9590404 -1.9046929
-5.5315828 3.9908254 -1.9035963
-5.5015559 4.0207195 -1.9016775
-5.4806466 4.0572615 -1.903048
-5.4664207 4.0988903 -1.9068859
-5.4365721 4.1288648 -1.9052411
-5.4118981 4.1627316 -1.9055152
-5.3756323 4.1875868 -1.9016775
-5.3558769 4.2252569 -1.9038705
-5.3351102 4.2622418 -1.9057894
-5.3096046 4.2955022 -1.9060634
-5.2801723 4.325563 -1.904967
-5.2498307 4.3548102 -1.9035963
-5.2215385 4.3857036 -1.903048
-5.1959953 4.4189057 -1.9035963
-5.1658683 4.4481945 -1.9024998
-5.1319532 4.4741206 -1.9000326
-5.1137772 4.5137982 -1.9035963
-5.0838332 4.5431685 -1.902774
-5.0437374 4.5633092 -1.8981137
-5.0128059 4.5915728 -1.8970172
-4.9887691 4.6261678 -1.8986621
-4.9497719 4.6468182 -1.8945501
-4.9288349 4.6843891 -1.8975655
-4.894455 4.7092099 -1.8953725
-4.8613338 4.7351274 -1.8937278
-4.8239703 4.7567644 -1.8904382
-4.8049026 4.7964649 -1.8945501
-4.777411 4.8279076 -1.8953725
-4.7591262 4.8688211 -1.9000326
-4.732502 4.9013896 -1.9014033
-4.681098 4.9080672 -1.8926313
-4.6647439 4.9513965 -1.8983879
-4.6257572 4.9707737 -1.8948243
-4.59517 4.9990635 -1.8948243
-4.5598845 5.022181 -1.8929054
-4.5398993 5.0622358 -1.8975655
-4.497911 5.0777597 -1.8929054
-4.4571705 5.0944066 -1.8887935
-4.4245706 5.120204 -1.8882452
-4.3930702 5.1472564 -1.8882452
-4.3589249 5.1711736 -1.8871487
-4.3295746 5.2007785 -1.8882452
-4.3043003 5.2354174 -1.8912606
-4.2660332 5.2542639 -1.8885193
-4.2355185 5.2825918 -1.8893417
-4.2143683 5.3228059 -1.8945501
-4.1999927 5.3720498 -1.903048
-4.1557846 5.3832564 -1.8978397
-4.1110148 5.3933582 -1.8923571
-4.0894108 5.4338489 -1.8978397
-4.0313272 5.4256473 -1.8860523
-4.0292478 5.492928 -1.9011291
-3.9808013 5.4972968 -1.8940018
-3.94364 5.5169249 -1.8923571
-3.903615 5.5323758 -1.8893417
-3.8701453 5.5570126 -1.8896159
-3.8294375 5.5711451 -1.8863263
-3.7984211 5.5993118 -1.887971
-3.7655981 5.6249108 -1.8887935
-3.733664 5.6519217 -1.8901641
-3.690511 5.6618352 -1.8857781
-3.6525798 5.6795201 -1.8841333
-3.6181774 5.7026367 -1.8844074
-3.5831187 5.72473 -1.8844074
-3.5509565 5.7515178 -1.8860523
-3.5110967 5.7658052 -1.8835851
-3.4766428 5.7888894 -1.8841333
-3.4410574 5.810113 -1.8841333
-3.4126179 5.8435736 -1.8882452
-3.3853366 5.8794041 -1.8931795
-3.3335292 5.872467 -1.8841333
-3.2753596 5.8533678 -1.8712493
-3.2621429 5.9146166 -1.8846816
-3.2299242 5.9421253 -1.8871487
-3.1797791 5.9364009 -1.8789248
-3.1343157 5.9387898 -1.8734423
-3.0987043 5.9596167 -1.8739907
-3.0734782 6.0007715 -1.8811179
-3.0374668 6.0212345 -1.8816662
-3.0077386 6.0544 -1.8863263
-2.9739139 6.0796518 -1.8885193
-2.9428136 6.1107812 -1.8926313
-2.9036152 6.125247 -1.8915347
-2.8558104 6.121161 -1.8846816
-2.8202045 6.1429386 -1.8860523
-2.78721 6.1706443 -1.8893417
-2.7449992 6.1779633 -1.8863263
-2.7139728 6.2105513 -1.8912606
-2.6587267 6.1873274 -1.8789248
-2.6150975 6.1902366 -1.874813
-2.5800166 6.2132711 -1.8770061
-2.5611043 6.2761755 -1.8915347
-2.5275574 6.3042684 -1.8953725
-2.4962289 6.338449 -1.9011291
-2.4559021 6.3500586 -1.9000326
-2.4035764 6.3299456 -1.8893417
-2.3730893 6.3671026 -1.8961949
-2.3329856 6.3788342 -1.8953725
-2.2960758 6.3993649 -1.8972914
-2.2558091 6.4106116 -1.896469
-2.2104714 6.4070597 -1.8912606
-2.1748142 6.4314342 -1.8945501
-2.1416638 6.4638281 -1.9003068
-2.0936484 6.4512353 -1.8926313
-2.0569379 6.4731255 -1.8953725
-2.0186093 6.4902163 -1.8967432
-1.9818283 6.5125999 -1.8997586
-1.9333248 6.4960647 -1.8912606
-1.8958477 6.5161152 -1.8937278
-1.8605647 6.5442758 -1.8986621
-1.8327284 6.6000462 -1.9118202
-1.7801163 6.5666151 -1.8986621
-1.7405287 6.5802031 -1.8994844
-1.6977179 6.5814466 -1.8967432
-1.6582412 6.5954704 -1.8978397
-1.6181985 6.6073895 -1.8983879
-1.5758412 6.6097102 -1.8961949
-1.5356898 6.6211286 -1.8967432
-1.4893216 6.6050973 -1.8893417
-1.4493829 6.6169295 -1.8901641
-1.4161571 6.6605024 -1.9003068
-1.3694339 6.6408105 -1.892083
-1.3348814 6.6802087 -1.9011291
-1.295329 6.695827 -1.9033222
-1.2476739 6.6686735 -1.8931795
-1.2113522 6.701755 -1.9005809
-1.1687205 6.7005348 -1.8981137
-1.131253 6.7293925 -1.9044187
-1.088558 6.727663 -1.9019516
-1.0497705 6.7503705 -1.9066117
-1.0086153 6.7585869 -1.9071599
-0.96658164 6.7608404 -1.9060634
-0.92351592 6.7552099 -1.902774
-0.88242275 6.7636104 -1.9035963
-0.83877027 6.751719 -1.8986621
-0.79619914 6.7471881 -1.8959208
-0.75574625 6.7605481 -1.8983879
-0.71253258 6.7487993 -1.8937278
-0.67148995 6.7568722 -1.8948243
-0.6295715 6.7560778 -1.8934536
-0.58910602 6.7713103 -1.8967432
-0.54816717 6.7824659 -1.8989362
-0.50582397 6.7761116 -1.8961949
-0.46561798 6.7992358 -1.9019516
-0.42263258 6.7818089 -1.8961949
-0.38117418 6.7871547 -1.8970172
-0.3389928 6.7788005 -1.8940018
-0.29709715 6.7740273 -1.892083
-0.25647065 6.8007092 -1.8992103
-0.21440305 6.7915816 -1.8961949
-0.17294718 6.8014216 -1.8986621
-0.13121119 6.8023548 -1.8986621
-0.089457549 6.8020701 -1.8983879
-0.047889221 6.8265328 -1.9052411
-0.0059924824 6.817081 -1.9024998
0.035821456 6.8141046 -1.9016775
0.077598646 6.8108716 -1.9008551
0.11896791 6.7862287 -1.8940018
0.16092297 6.798831 -1.8978397
0.20246521 6.7919478 -1.8961949
0.24423949 6.7934608 -1.8970172
0.28652465 6.8062468 -1.9011291
0.32842049 6.8072424 -1.9019516
0.37070456 6.814702 -1.9046929
0.41117615 6.7902207 -1.8983879
0.44797146 6.714643 -1.8775543
0.49356365 6.7721944 -1.8948243
0.53639519 6.7853365 -1.8994844
0.57728463 6.7732935 -1.8970172
0.6190089 6.7715392 -1.8975655
0.66026652 6.7647424 -1.8967432
0.70196021 6.7624764 -1.8972914
0.74323058 6.7561302 -1.8967432
0.78544819 6.7581296 -1.8986621
0.82725102 6.7560468 -1.8994844
0.86893511 6.7527514 -1.9000326
0.91086698 6.7511048 -1.9011291
0.95227385 6.7453885 -1.9011291
0.99364483 6.7394185 -1.9011291
1.0354166 6.7360463 -1.9019516
1.0735391 6.7096243 -1.8961949
1.1143731 6.7010136 -1.8956467
1.1553051 6.6931024 -1.8953725
1.1963515 6.6858873 -1.8953725
1.2349008 6.6651821 -1.8915347
1.2726984 6.6414227 -1.8868746
1.3180938 6.6570735 -1.8937278
1.358916 6.6488605 -1.8937278
1.4000837 6.6422791 -1.894276
1.4397932 6.6288643 -1.8929054
1.4854759 6.6424298 -1.8994844
1.5225402 6.6172571 -1.8948243
1.5633357 6.6087265 -1.8950984
1.6054461 6.6055512 -1.8970172
1.6536291 6.626368 -1.9060634
1.6892477 6.5965323 -1.9003068
1.7267606 6.5748811 -1.8970172
1.7663211 6.5613761 -1.8961949
1.8137052 6.5763736 -1.9038705
1.846445 6.538281 -1.8959208
1.8854604 6.5231328 -1.8948243
1.9213604 6.4976077 -1.8907124
1.9545135 6.463603 -1.8841333
1.9898775 6.4377065 -1.8800215
2.0273139 6.4189558 -1.8781025
2.0675473 6.4091415 -1.8789248
2.1059318 6.3935943 -1.8781025
2.1500251 6.3951373 -1.8824885
2.1942163 6.3963795 -1.8868746
2.2245305 6.357379 -1.879199
2.2676976 6.3553848 -1.8827627
2.3089516 6.3476772 -1.8846816
2.3418407 6.3171592 -1.8797473
2.3693461 6.2729812 -1.8707011
2.4140065 6.2744818 -1.8756354
2.4356236 6.2165704 -1.8624773
2.4801347 6.2175875 -1.8674116
2.5175149 6.2004704 -1.8668633
2.550005 6.1715741 -1.8627514
2.6031032 6.1921606 -1.8739907
2.6384022 6.1698818 -1.8720717
2.6735258 6.1474032 -1.8701528
2.7150841 6.1396785 -1.872894
2.7400882 6.0948348 -1.864122
2.7830291 6.0901532 -1.8679599
2.8288505 6.0912795 -1.8737165
2.856324 6.0529332 -1.8671374
2.8975673 6.0439653 -1.8698786
2.9303877 6.017426 -1.8671374
2.9408243 5.9458852 -1.8501415
2.9945154 5.9621053 -1.8611066
3.0227416 5.927341 -1.8558983
3.0687804 5.9274712 -1.8619291
3.1149342 5.927259 -1.8679599
3.1512444 5.9080348 -1.8679599
3.1915557 5.8961997 -1.8704269
3.2230449 5.8680763 -1.8676857
3.2599263 5.8498697 -1.8682339
3.2943394 5.8272457 -1.8674116
3.3257275 5.7994137 -1.8649445
3.3704352 5.7946935 -1.8701528
3.4044616 5.7714186 -1.8693304
3.449683 5.7669272 -1.874813
3.4909875 5.7555194 -1.8781025
3.5151551 5.7159681 -1.8720717
3.5486352 5.6918435 -1.8712493
3.5860615 5.6740274 -1.87262
3.615622 5.6438189 -1.8698786
3.6533258 5.6263671 -1.8715235
3.6840796 5.5982213 -1.8696046
3.7156925 5.5715098 -1.8682339
3.752501 5.5525904 -1.8696046
3.7886736 5.5326347 -1.8707011
3.8181646 5.5029626 -1.8685081
3.8590474 5.4896593 -1.8720717
3.8893116 5.4611769 -1.8704269
3.9244354 5.4395499 -1.8712493
3.9685187 5.4301205 -1.8764577
3.9920359 5.3925271 -1.8717976
4.0244718 5.3671618 -1.8715235
4.0596547 5.3454304 -1.87262
4.0906181 5.3181334 -1.8717976
4.1261277 5.2967272 -1.8731682
4.1585498 5.2713099 -1.8731682
4.1890154 5.2434402 -1.8723458
4.2253432 5.2228723 -1.8742647
4.2603574 5.2005672 -1.8756354
4.2989407 5.1824708 -1.8786508
4.3424101 5.1699877 -1.8838592
4.368444 5.1366525 -1.881392
4.3923502 5.1010056 -1.8781025
4.4159832 5.0652595 -1.874813
4.4476166 5.0387893 -1.8750871
4.4489746 4.9784169 -1.8624773
4.5110507 4.9859705 -1.8759094
4.5467553 4.963871 -1.8781025
4.5908589 4.9506884 -1.8838592
4.6185164 4.9196215 -1.8827627
4.6453032 4.8877044 -1.881392
4.6812072 4.8653469 -1.8838592
4.7123141 4.8379097 -1.8844074
4.7317824 4.7986321 -1.8802955
4.7597785 4.768147 -1.8797473
4.7725406 4.7226162 -1.8731682
4.8138061 4.7053447 -1.8781025
4.8508887 4.6837354 -1.881392
4.8774486 4.6518917 -1.8805697
4.9052005 4.6212168 -1.8802955
4.9193835 4.5779285 -1.874813
4.9530444 4.5528646 -1.8770061
4.9901428 4.5307918 -1.8805697
5.0056787 4.4891715 -1.8759094
5.0432072 4.4673009 -1.8797473
5.0705233 4.4362721 -1.8797473
5.1020136 4.4088497 -1.881392
5.1282387 4.3768368 -1.8811179
5.1594095 4.3490071 -1.8827627
5.1830411 4.3148065 -1.8816662
5.2175899 4.2896414 -1.8846816
5.2393327 4.2539086 -1.8830369
5.2600837 4.2174692 -1.8811179
5.2813392 4.1815329 -1.8794731
5.3122001 4.1531949 -1.881392
5.352808 4.1322761 -1.8868746
5.371944 4.0946898 -1.8846816
5.4038825 4.0668559 -1.8871487
5.4271908 4.0324745 -1.8866005
5.4611363 4.0059242 -1.88989
5.4871712 3.9734683 -1.8904382
5.5122309 3.940284 -1.8907124
5.522161 3.8964067 -1.8857781
5.5554347 3.869046 -1.8890676
5.5862021 3.8397889 -1.8915347
5.6112494 3.80652 -1.892083
5.640893 3.7762988 -1.894276
5.6719818 3.746917 -1.8970172
5.6972823 3.7136195 -1.8978397
5.7240057 3.6811929 -1.8992103
5.735929 3.6393032 -1.8956467
5.7614121 3.6060808 -1.8967432
5.7826118 3.5701563 -1.896469
5.8052306 3.5351079 -1.8967432
5.8177438 3.4939742 -1.8937278
5.8291435 3.4523301 -1.8904382
5.8618431 3.4232886 -1.894276
5.8785706 3.3848569 -1.8929054
5.9042468 3.3515718 -1.8945501
5.9280572 3.3171594 -1.8956467
5.9398789 3.2760782 -1.8929054
5.9632483 3.2414074 -1.8940018
5.9991312 3.2133851 -1.8992103
6.0068288 3.1702297 -1.8953725
6.0270209 3.1337564 -1.8956467
6.0332971 3.0901396 -1.8915347
6.0684576 3.0612924 -1.8967432
6.0922947 3.026567 -1.8983879
6.1098866 2.9887059 -1.8981137
6.1289763 2.9515772 -1.8983879
6.1487098 2.9147389 -1.8989362
6.14992 2.86923 -1.8937278
6.1857629 2.8398681 -1.8994844
6.2083302 2.804235 -1.9011291
