# .PCD v0.7 - Point Cloud Data file format
VERSION 0.7
FIELDS x y z
SIZE 4 4 4
TYPE F F F
COUNT 1 1 1
WIDTH 1566
HEIGHT 1
VIEWPOINT 0 0 0 1 0 0 0
POINTS 1566
DATA ascii
-3.4432325 3.984447 -1.9122262
-3.4156773 4.0019331 -1.9104866
-3.3850167 4.0156465 -1.9070073
-3.3549161 4.0298548 -1.9038761
-3.3289359 4.0489159 -1.9031802
-3.3022571 4.0670819 -1.9021366
-3.2766535 4.0865359 -1.9017886
-3.2497718 4.1043587 -1.9007449
-3.2279906 4.128654 -1.9028324
-3.1980147 4.1424451 -1.900049
-3.1736734 4.1634812 -1.9007449
-3.1486306 4.1836252 -1.9010928
-3.1223421 4.2021132 -1.9007449
-3.0981627 4.2234607 -1.9017886
-3.0672424 4.2355561 -1.8986573
-3.0510066 4.2680273 -1.9049199
-3.0290837 4.2927966 -1.9077032
-3.0005441 4.3082242 -1.9063115
-2.9783001 4.332736 -1.9090949
-2.9448187 4.3408413 -1.904572
-2.9097862 4.3463621 -1.8990053
-2.8825462 4.3633518 -1.8986573
-2.8541834 4.3786001 -1.8976136
-2.8257422 4.3936648 -1.8965698
-2.7962196 4.4069619 -1.8948302
-2.7765849 4.4359579 -1.900049
-2.7498064 4.4537091 -1.9003969
-2.7243772 4.4737015 -1.9017886
-2.6978407 4.491941 -1.9024844
-2.6716607 4.5108304 -1.9035282
-2.6382608 4.5174227 -1.8993531
-2.6095576 4.5319004 -1.8986573
-2.5798507 4.5445652 -1.8972657
-2.5523748 4.5611277 -1.8976136
-2.5256979 4.5791659 -1.8986573
-2.4984484 4.5962248 -1.8993531
-2.4693143 4.6098156 -1.8986573
-2.4414201 4.6257095 -1.8990053
-2.4095325 4.6339474 -1.896222
-2.3801994 4.6469755 -1.8955261
-2.3520634 4.6623302 -1.895874
-2.3254964 4.6808729 -1.8976136
-2.299202 4.7001071 -1.8997011
-2.2735722 4.7208843 -1.9024844
-2.2473726 4.7406764 -1.9049199
-2.2162609 4.7501283 -1.9031802
-2.1859 4.7610817 -1.9021366
-2.1554883 4.771841 -1.9010928
-2.1254072 4.7832632 -1.9003969
-2.0948918 4.7936368 -1.8993531
-2.0680289 4.8124309 -1.9017886
-2.0362735 4.8198471 -1.8997011
-2.0088172 4.8374462 -1.9017886
-1.9776813 4.8462086 -1.9003969
-1.9489543 4.8608632 -1.9014407
-1.9177185 4.8692408 -1.900049
-1.8898333 4.8861628 -1.9021366
-1.8584864 4.8941603 -1.9007449
-1.8280941 4.904593 -1.9003969
-1.797322 4.9139566 -1.8997011
-1.7649217 4.918715 -1.8972657
-1.7356408 4.9321051 -1.8983095
-1.7053453 4.9426618 -1.8983095
-1.669583 4.9370451 -1.8920469
-1.6445628 4.9632168 -1.8983095
-1.6082938 4.9553781 -1.8913511
-1.5818303 4.977663 -1.896222
-1.5520928 4.9899611 -1.8972657
-1.5203547 4.9958029 -1.895874
-1.4886035 5.0014429 -1.8944824
-1.4576255 5.0095825 -1.8941344
-1.4268599 5.0184317 -1.8941344
-1.3940351 5.0198655 -1.8913511
-1.3641881 5.0319443 -1.8927428
-1.3340056 5.0429392 -1.8937865
-1.3032715 5.0519371 -1.8941344
-1.2729342 5.0625668 -1.8951782
-1.2416241 5.0693712 -1.8948302
-1.2115818 5.0814543 -1.8965698
-1.1795332 5.0851398 -1.8951782
-1.1481031 5.0913668 -1.8948302
-1.1162403 5.0955682 -1.8937865
-1.085343 5.1041555 -1.8944824
-1.0545715 5.1134734 -1.8955261
-1.022442 5.1161704 -1.8941344
-0.99174196 5.1260295 -1.8955261
-0.96044278 5.1329398 -1.895874
-0.92942929 5.1415043 -1.8969178
-0.89834684 5.1498814 -1.8979615
-0.86626518 5.1525226 -1.8969178
-0.83478314 5.1586666 -1.8972657
-0.80268282 5.1609125 -1.896222
-0.77044815 5.1620312 -1.8948302
-0.73849505 5.1648049 -1.8941344
-0.7057761 5.161808 -1.8913511
-0.67469603 5.1706896 -1.8930907
-0.64284116 5.1738019 -1.8927428
-0.6117413 5.1832352 -1.8948302
-0.57992607 5.1868916 -1.8948302
-0.54858023 5.195014 -1.8965698
-0.51669389 5.1982822 -1.8965698
-0.48522207 5.2060223 -1.8983095
-0.45335045 5.2098355 -1.8986573
-0.42145032 5.2134538 -1.8990053
-0.38924444 5.2131367 -1.8979615
-0.35795239 5.2257156 -1.9017886
-0.32535815 5.2193923 -1.8986573
-0.29374549 5.2287788 -1.9014407
-0.2609106 5.2155008 -1.895874
-0.22861776 5.2104473 -1.8934386
-0.19653733 5.208941 -1.8923949
-0.16457216 5.2100492 -1.8923949
-0.13252988 5.208149 -1.8913511
-0.10051712 5.2060523 -1.8903073
-0.068607904 5.2093835 -1.8913511
-0.036636051 5.2087688 -1.8910031
-0.0046730535 5.2060828 -1.8899595
0.027276076 5.2069511 -1.8903073
0.059235685 5.207623 -1.8906553
0.091221191 5.2090364 -1.8913511
0.12336051 5.2158766 -1.8941344
0.15555908 5.2215815 -1.8965698
0.18759517 5.2205286 -1.8965698
0.21982232 5.2239628 -1.8983095
0.25164497 5.2178335 -1.8965698
0.28324735 5.2087021 -1.8937865
0.31503144 5.2040586 -1.8927428
0.34689441 5.2010922 -1.8923949
0.37873283 5.1979308 -1.8920469
0.41076776 5.1973782 -1.8927428
0.44185248 5.1854186 -1.8892636
0.47349024 5.1807427 -1.8885678
0.50472218 5.1721416 -1.8864802
0.53780615 5.1820021 -1.8913511
0.56938678 5.1767411 -1.8906553
0.60244101 5.1843247 -1.8948302
0.63549554 5.1907663 -1.8986573
0.66697401 5.18398 -1.8976136
0.69851869 5.1779318 -1.8969178
0.72962052 5.1689067 -1.8951782
0.76187032 5.1680427 -1.8965698
0.79313862 5.1604905 -1.8955261
0.82463956 5.1546011 -1.8951782
0.85656005 5.1512938 -1.895874
0.88863063 5.1487126 -1.8969178
0.91904855 5.1367035 -1.8944824
0.95003653 5.128202 -1.8934386
0.98095483 5.119514 -1.8923949
1.0123491 5.1133986 -1.8923949
1.042014 5.098824 -1.8892636
1.0723124 5.0877481 -1.887524
1.1021158 5.0746598 -1.8850886
1.1348709 5.0751209 -1.8878719
1.1640964 5.0598392 -1.8847407
1.1953369 5.0535135 -1.8850886
1.226987 5.0488167 -1.8861324
1.2597604 5.04847 -1.8889157
1.2893169 5.0351958 -1.8868282
1.3235247 5.0398841 -1.891699
1.356375 5.0389104 -1.8944824
1.3887643 5.0359154 -1.8965698
1.4178531 5.0209842 -1.8941344
1.4496766 5.0157919 -1.8955261
1.4796275 5.0041056 -1.8944824
1.5092181 4.9913435 -1.8930907
1.539539 4.9810934 -1.8927428
1.5706385 4.973341 -1.8934386
1.6034288 4.9707475 -1.896222
1.6341921 4.9617062 -1.8965698
1.6655027 4.9542513 -1.8976136
1.6949568 4.9412785 -1.8965698
1.7215261 4.920167 -1.8923949
1.7494766 4.9033308 -1.8899595
1.7779267 4.8880987 -1.8882198
1.8072339 4.87534 -1.887524
1.8357886 4.860651 -1.8861324
1.8672626 4.8536701 -1.8878719
1.8994042 4.8482313 -1.8903073
1.9322444 4.8443222 -1.8934386
1.9619323 4.832375 -1.8934386
1.9919044 4.8211122 -1.8937865
2.0185406 4.8018856 -1.8910031
2.0475976 4.788548 -1.8906553
2.0732005 4.7672973 -1.887176
2.100137 4.7493424 -1.8850886
2.1315463 4.741497 -1.887176
2.1652775 4.7385602 -1.8913511
2.1943121 4.7251854 -1.8913511
2.2280672 4.7218056 -1.8955261
2.258214 4.7105818 -1.8965698
2.290771 4.7042222 -1.8997011
2.3187609 4.6883969 -1.8990053
2.3462217 4.6715679 -1.8979615
2.3727114 4.6529083 -1.896222
2.3999228 4.6357646 -1.8951782
2.4248316 4.6143131 -1.8923949
2.4513333 4.5960393 -1.8910031
2.4772558 4.5767899 -1.8892636
2.5012283 4.5541086 -1.8861324
2.5309508 4.5419512 -1.887524
2.5624645 4.5328646 -1.8903073
2.5939617 4.5235615 -1.8930907
2.6259127 4.514853 -1.896222
2.6483245 4.4897742 -1.8923949
2.6743791 4.4710264 -1.8913511
2.7085714 4.4657536 -1.896222
2.7354307 4.4482517 -1.895874
2.7591999 4.4258151 -1.8934386
2.7787888 4.3969159 -1.8882198
2.807739 4.3829398 -1.8896115
2.8340685 4.3648434 -1.8892636
2.8633752 4.3512869 -1.8910031
2.8905406 4.3344154 -1.8913511
2.9186568 4.3189278 -1.8923949
2.9456322 4.3017116 -1.8927428
2.9730408 4.2850966 -1.8934386
2.9971204 4.2637062 -1.8920469
3.0254016 4.2482901 -1.8934386
3.0503144 4.2281265 -1.8927428
3.0789669 4.2131143 -1.8944824
3.1075501 4.1979098 -1.896222
3.133812 4.1795135 -1.8965698
3.1610997 4.1624455 -1.8976136
3.1860087 4.1422281 -1.8972657
3.21367 4.1255589 -1.8986573
3.2395043 4.1064987 -1.8990053
3.2652256 4.0872765 -1.8993531
3.2914228 4.0686216 -1.900049
3.3145428 4.046174 -1.8990053
3.3387084 4.0250387 -1.8986573
3.3633428 4.004477 -1.8986573
3.3842053 3.9794803 -1.8965698
3.4067237 3.9565094 -1.8955261
3.4297037 3.9341185 -1.8948302
3.4537785 3.9130001 -1.8948302
3.4795978 3.8938313 -1.895874
3.5059409 3.8751881 -1.8972657
3.5328195 3.857059 -1.8990053
3.5564194 3.8353095 -1.8990053
3.5805273 3.8140988 -1.8993531
3.6045089 3.7927368 -1.8997011
3.6257622 3.7685223 -1.8986573
3.6494715 3.7468755 -1.8990053
3.6710765 3.7230773 -1.8983095
3.6984892 3.7051256 -1.9007449
3.7211537 3.6823623 -1.9007449
3.7436781 3.6594605 -1.9007449
3.7620142 3.6325142 -1.8986573
3.7889822 3.6138911 -1.9010928
3.8131328 3.5925026 -1.9021366
3.8344176 3.5683994 -1.9017886
3.8610733 3.5492449 -1.904224
3.8779187 3.5210767 -1.9017886
3.8931677 3.4915836 -1.8986573
3.9089031 3.4626577 -1.895874
3.944896 3.4515691 -1.9031802
3.9652908 3.4266858 -1.9028324
3.992661 3.4077671 -1.9059637
4.0156465 3.3850167 -1.9070073
4.0341787 3.3585143 -1.9059637
4.0481915 3.3283405 -1.9028324
4.0721774 3.3063927 -1.904572
4.0931201 3.2819302 -1.9049199
4.1131806 3.2567537 -1.9049199
4.128654 3.2279906 -1.9028324
4.1528363 3.2060332 -1.9049199
4.1664639 3.1759462 -1.9021366
4.1933646 3.1559575 -1.9056157
4.2126503 3.130168 -1.9056157
4.2249727 3.0992715 -1.9024844
4.241632 3.07164 -1.9014407
4.265739 3.0493715 -1.9038761
4.284369 3.02314 -1.9038761
4.3043771 2.9978659 -1.904572
4.3250089 2.972991 -1.9056157
4.3377376 2.9427142 -1.9031802
4.3666205 2.9233425 -1.9080511
4.3805637 2.8939114 -1.9063115
4.4021654 2.8695371 -1.9080511
4.4204783 2.842979 -1.9083991
4.4386311 2.816304 -1.908747
4.4447007 2.7820547 -1.9038761
4.4313698 2.7360206 -1.8906553
4.4704981 2.7224274 -1.9003969
4.483099 2.692533 -1.8986573
4.5116372 2.6721382 -1.9038761
4.5400934 2.6514945 -1.9090949
4.5538397 2.622184 -1.9080511
4.5584273 2.5877156 -1.9031802
4.5946755 2.5711381 -1.9118782
4.6111865 2.54335 -1.9122262
4.6267052 2.5150084 -1.9122262
4.6544476 2.4932096 -1.9174449
4.6738043 2.4667907 -1.9191844
4.6871886 2.4372017 -1.9184886
4.7037239 2.4092503 -1.9191844
4.7167439 2.3794992 -1.9184886
4.7287359 2.3492622 -1.9174449
4.7439041 2.3206148 -1.9177928
4.7588987 2.2918696 -1.9181408
4.7686357 2.2606194 -1.9164011
4.7824168 2.231317 -1.9164011
4.7866445 2.1976297 -1.9125741
4.7957664 2.1662893 -1.9108344
4.8012567 2.1333976 -1.9077032
4.8125381 2.103147 -1.9070073
4.8236294 2.0728383 -1.9063115
4.8336663 2.0421081 -1.9052678
4.8495693 2.0138483 -1.9066595
4.8705158 1.9875945 -1.9101386
4.8843603 1.9583695 -1.9108344
4.9023914 1.9307663 -1.9132699
4.9167695 1.9016634 -1.9143137
4.9274688 1.8711263 -1.9139657
4.9432497 1.8424929 -1.9157053
4.9553423 1.8124489 -1.9160533
4.9637227 1.78106 -1.9150095
4.977211 1.7515028 -1.9160533
4.9869781 1.7206246 -1.9157053
4.9956651 1.6893924 -1.9150095
5.0068269 1.6590024 -1.9153574
5.0195875 1.6291176 -1.9164011
5.0277023 1.5977198 -1.9157053
5.0436778 1.5687881 -1.9181408
5.0594878 1.5397204 -1.9205762
5.06884 1.508647 -1.9205762
5.0843034 1.4793489 -1.9230115
5.1004992 1.450174 -1.925795
5.1111083 1.4193519 -1.9264908
5.120626 1.3882091 -1.9268386
5.126328 1.3560448 -1.925795
5.1272893 1.3226928 -1.9230115
5.1353087 1.2912074 -1.9230115
5.1422243 1.2594506 -1.9226637
5.1571512 1.2296127 -1.925447
5.1627722 1.1975226 -1.9247512
5.170023 1.1658219 -1.9247512
5.1880693 1.1364822 -1.9289262
5.1940279 1.1044327 -1.9285783
5.191524 1.0706503 -1.9250991
5.1989155 1.0389591 -1.925447
5.2143974 1.0088184 -1.9289262
5.2214108 0.97697669 -1.9292741
5.2356105 0.94641942 -1.9324054
5.2413192 0.91427654 -1.9324054
5.2412829 0.88116777 -1.9303179
5.2456656 0.84884173 -1.9299699
5.2498484 0.81649506 -1.9296221
5.2733054 0.78703105 -1.9365804
5.2659698 0.75293738 -1.9320575
5.2844243 0.72251379 -1.9372762
5.2999139 0.6915288 -1.9414512
5.3021965 0.65876532 -1.9407554
5.306139 0.62621927 -1.9407554
5.3052225 0.59312975 -1.9390157
5.2985063 0.55948567 -1.9351887
5.2981076 0.52659398 -1.933797
5.2947044 0.49346793 -1.9313616
5.3088408 0.46194375 -1.9355366
5.3078375 0.4290593 -1.934145
5.3290687 0.39787495 -1.9411033
5.3229918 0.36459413 -1.9379721
5.3232574 0.33180976 -1.9372762
5.3139601 0.29851207 -1.9331012
5.3241191 0.26632032 -1.9362324
5.3181601 0.23332001 -1.9334491
5.3297968 0.20107056 -1.9372762
5.3262448 0.16821679 -1.9355366
5.3290515 0.13557969 -1.9362324
5.3269711 0.10282502 -1.9351887
5.3265643 0.070125267 -1.9348408
5.3334565 0.037485465 -1.9372762
0 0 -0
5.3391399 -0.027997784 -1.9393637
0 -0 -0
0 -0 -0
0 -0 -0
5.3583984 -0.15966527 -1.9473659
0 -0 -0
0 -0 -0
5.3461237 -0.25786051 -1.9442346
5.346313 -0.29076108 -1.9449304
0 -0 -0
0 -0 -0
5.3428607 -0.38932496 -1.9459741
5.3469133 -0.42261931 -1.9484096
5.3451538 -0.4554992 -1.9487575
0 -0 -0
0 -0 -0
5.3302689 -0.55322695 -1.9466699
5.3332973 -0.58664137 -1.9491054
0 -0 -0
5.3303494 -0.65261561 -1.950845
5.3067179 -0.68279308 -1.9435388
5.3024287 -0.71534163 -1.9435388
5.2895851 -0.74668205 -1.9404075
5.2709918 -0.77707022 -1.9351887
5.329134 -0.81909627 -1.9588472
5.3249335 -0.85192811 -1.959195
0 -0 -0
5.3085351 -0.91625118 -1.9571075
5.2862024 -0.9458307 -1.950845
5.2913609 -0.98030019 -1.9550201
5.2815633 -1.0120424 -1.9536283
5.2734151 -1.0440658 -1.9529325
5.2613983 -1.0752758 -1.950845
5.233603 -1.1030871 -1.9428428
5.2194071 -1.1335857 -1.9400595
5.1419072 -1.1498209 -1.9132699
5.0470486 -1.1611507 -1.8798698
4.9376512 -1.1679043 -1.840903
4.8702688 -1.1835536 -1.8179405
4.8010635 -1.1979661 -1.7942821
4.7327747 -1.2118073 -1.7709715
4.6808209 -1.2291461 -1.7539237
4.6306443 -1.2463812 -1.7375715
4.5894713 -1.2655416 -1.7246985
4.5590649 -1.2873037 -1.7160006
4.5384717 -1.3116062 -1.7111298
4.5393286 -1.3420894 -1.7146089
4.5722857 -1.3824079 -1.7306131
4.5529695 -1.4071124 -1.7264382
4.5460377 -1.4355874 -1.727134
4.5380359 -1.4637424 -1.7274818
4.5343113 -1.4933206 -1.7295694
4.5223975 -1.5202177 -1.7285256
4.504117 -1.5448941 -1.7250465
4.4954381 -1.5728116 -1.7253944
4.4795222 -1.5981587 -1.7229589
4.4687505 -1.6252939 -1.7226111
4.4736371 -1.6582259 -1.7285256
4.4537311 -1.6819985 -1.7246985
4.440702 -1.708284 -1.7236547
4.4292636 -1.7351573 -1.7233069
4.410697 -1.7591743 -1.7201756
4.3980827 -1.785499 -1.7194798
4.3697162 -1.8052877 -1.7125214
4.3559647 -1.8309753 -1.7114776
4.3282709 -1.8506614 -1.7048672
4.2962022 -1.8682065 -1.6965172
4.2889447 -1.8964291 -1.6982569
4.2797928 -1.9238636 -1.6993005
4.2627921 -1.9477488 -1.6972131
4.2465096 -1.9718927 -1.6954734
4.2250047 -1.9935087 -1.6916463
4.2160745 -2.0210173 -1.6930381
4.1993804 -2.0447953 -1.6912985
4.1909556 -2.0726027 -1.6930381
4.1672697 -2.0928066 -1.6885151
4.1401529 -2.1110935 -1.6826005
4.1296191 -2.1377509 -1.6836443
4.118084 -2.1639221 -1.6843401
4.0964575 -2.1847355 -1.6808609
4.080502 -2.2084906 -1.6798172
4.0578361 -2.2285199 -1.6759901
4.049818 -2.2565722 -1.6784256
4.0456882 -2.2869174 -1.6826005
4.0218215 -2.3060997 -1.6784256
4.0148883 -2.3349776 -1.6815568
4.0069451 -2.3633804 -1.6843401
4.0108709 -2.3989952 -1.6923422
4.0040903 -2.4284239 -1.6958214
3.9779356 -2.446069 -1.6909505
3.9668293 -2.4729121 -1.6926901
3.9523735 -2.4977064 -1.6930381
3.9464452 -2.5279815 -1.6972131
3.9308596 -2.5521488 -1.6972131
3.9096444 -2.5726113 -1.6947776
3.9101629 -2.6074789 -1.7020839
3.887877 -2.6272213 -1.6993005
3.8600819 -2.6430795 -1.6940818
3.8453319 -2.667784 -1.6947776
3.8227553 -2.6870136 -1.6919943
3.7993243 -2.705523 -1.688863
3.7932947 -2.7364659 -1.6937339
3.7771895 -2.7602429 -1.6940818
3.7473741 -2.7738819 -1.6881672
3.7205336 -2.7895095 -1.6836443
3.6839385 -2.797539 -1.6745985
3.69048 -2.8383865 -1.6857318
3.6774313 -2.8644352 -1.6878192
3.6597862 -2.8869455 -1.6878192
3.6529887 -2.9181271 -1.6930381
3.6393871 -2.9440255 -1.6951256
3.6190791 -2.9645181 -1.6940818
3.6044283 -2.9896619 -1.6958214
3.5845807 -3.0105159 -1.6951256
3.5710394 -3.0367064 -1.697561
3.5544703 -3.0603964 -1.6986047
3.5257335 -3.0735214 -1.6937339
2.4575965 -2.1686065 -1.1742929
2.4421473 -2.1817706 -1.1732491
2.4335797 -2.2011182 -1.1756846
3.4561558 -3.1654553 -1.6972131
3.4373553 -3.1872399 -1.697561
3.4197841 -3.2101965 -1.6986047
3.4047785 -3.2356415 -1.7010401
3.3740535 -3.2460694 -1.6954734
3.3567581 -3.2693284 -1.6968652
3.3353 -3.2885466 -1.6961693
3.2944942 -3.2884128 -1.6853839
3.2848036 -3.3192301 -1.6909505
3.2565131 -3.3312759 -1.6867756
3.2373135 -3.3525441 -1.6874714
3.2076249 -3.3628449 -1.6826005
3.1875732 -3.3831456 -1.6829485
3.1520681 -3.3868523 -1.6749463
3.1343992 -3.4095809 -1.6766859
3.1165698 -3.4322202 -1.6784256
3.0916965 -3.4470901 -1.676338
3.0723519 -3.4681013 -1.6773818
3.0522485 -3.4882989 -1.6780776
3.0461085 -3.5246987 -1.6867756
3.0280747 -3.5476024 -1.688863
3.0092707 -3.5697002 -1.6906027
2.9843123 -3.5844944 -1.688863
2.9670241 -3.6085327 -1.6916463
2.9460082 -3.6281261 -1.6923422
2.9242773 -3.6468656 -1.6926901
2.8966091 -3.6581237 -1.6895589
2.0116303 -2.5722039 -1.16977
1.9918005 -2.579303 -1.1673346
1.961732 -2.5728326 -1.1586366
1.9436542 -2.5818243 -1.1572449
1.9249809 -2.5899384 -1.1555053
1.9134879 -2.6077497 -1.1582887
1.8908545 -2.6103282 -1.1541137
1.610456 -2.2519176 -0.98537362
1.6014714 -2.2686522 -0.98850489
1.5837716 -2.2730498 -0.98606944
2.6247137 -3.8181081 -1.6773818
2.5965014 -3.8271575 -1.6742505
2.5635846 -3.8289924 -1.6679879
2.5307434 -3.8305676 -1.6617255
2.5015621 -3.8373833 -1.6578984
2.4850667 -3.8637013 -1.6627692
2.445245 -3.8535411 -1.6516359
2.421057 -3.8676775 -1.6512879
2.3977721 -3.8832579 -1.6516359
2.3734124 -3.8970964 -1.6512879
2.3494556 -3.911586 -1.6512879
2.3211119 -3.9186676 -1.6481566
2.2856808 -3.9134035 -1.6398066
2.2812669 -3.9614823 -1.6544192
2.2578421 -3.977036 -1.655115
2.2297356 -3.9842691 -1.6523317
2.2029836 -3.9937704 -1.6505921
2.1672475 -3.9866176 -1.6418941
2.1436305 -4.0014935 -1.64259
2.1247239 -4.025351 -1.647113
2.0973909 -4.0333214 -1.6450254
2.0713217 -4.043611 -1.6439817
2.0477378 -4.0587559 -1.6450254
2.0227952 -4.0712438 -1.6450254
2.0002472 -4.0886326 -1.647113
1.9787816 -4.1084318 -1.6502442
1.9631696 -4.1408296 -1.6585943
1.941687 -4.1612945 -1.6620734
1.9172902 -4.1756864 -1.6631172
1.8912468 -4.1865177 -1.6627692
1.3929379 -3.1338511 -1.2306556
1.3748084 -3.1449165 -1.2316993
1.3614051 -3.1670759 -1.2372659
1.367838 -3.2366922 -1.2619681
1.7489992 -4.2113881 -1.6502442
1.7185231 -4.2107549 -1.6457212
1.6982335 -4.2351446 -1.6512879
1.6794257 -4.2638049 -1.6585943
1.6525559 -4.2722807 -1.6578984
1.6339611 -4.3025002 -1.6659005
1.6166935 -4.3370447 -1.6756421
1.5877986 -4.3407192 -1.6732067
1.5630331 -4.3556752 -1.6752943
1.5325456 -4.3545704 -1.6711192
1.5070199 -4.3674374 -1.6725109
1.4798933 -4.3757138 -1.672163
1.4512484 -4.3793716 -1.6700755
1.4226145 -4.3828435 -1.6679879
1.3939927 -4.3861284 -1.6659005
1.3662189 -4.3919134 -1.6648567
1.3400631 -4.4029045 -1.6659005
1.3140912 -4.4146385 -1.6672921
1.2890725 -4.4298205 -1.6700755
1.2649418 -4.4484692 -1.6742505
1.2406306 -4.4669876 -1.6784256
1.2129532 -4.4736109 -1.6780776
1.1857204 -4.4818759 -1.6784256
1.1586658 -4.4908824 -1.6791214
1.1281191 -4.4860868 -1.6745985
1.0987891 -4.4856391 -1.671815
0.69628942 -2.9181693 -1.0713092
0.671175 -2.8913336 -1.0594801
0.65074307 -2.8835075 -1.0549572
0.63303792 -2.8874462 -1.0549572
0.61375064 -2.8839395 -1.0521739
0.59377366 -2.8766322 -1.0479988
0.57978225 -2.8986092 -1.0549572
0.55931765 -2.8883047 -1.0497384
0.54072362 -2.8870742 -1.0479988
0.52033359 -2.875576 -1.0424321
0.50541502 -2.8944161 -1.0483468
0.48159149 -2.8614039 -1.0347779
0.4565472 -2.8180292 -1.017382
0.43708935 -2.8068812 -1.0121633
0.42428052 -2.8391833 -1.0232966
0.41506654 -2.8992763 -1.0448675
0.38966101 -2.846034 -1.0239924
0.37364393 -2.8595273 -1.0281675
0.35401413 -2.8450191 -1.0219049
0.33775723 -2.8573797 -1.025732
0.32063419 -2.8631253 -1.0271237
0.30139014 -2.8491886 -1.0212091
0.28603026 -2.872442 -1.0292113
0.26952827 -2.8862784 -1.0337342
0.2497866 -2.8645277 -1.0250362
0.2349176 -2.8996482 -1.0375613
0.21663406 -2.8944905 -1.0351259
0.20084947 -2.9247608 -1.0459113
0.18150476 -2.903481 -1.0375613
0.16410495 -2.9120283 -1.0403446
0.14670035 -2.9223442 -1.0438237
0.12876642 -2.9231894 -1.0438237
0.11072222 -2.9211137 -1.04278
0.093119837 -2.9320459 -1.0466071
0.075340167 -2.9409971 -1.0497384
0.057311021 -2.9423413 -1.0500863
0.039438158 -2.9566994 -1.055305
0.021372087 -2.9681356 -1.0594801
0.0031513039 -2.9560232 -1.0549572
-0.01489444 -2.9391117 -1.0486946
-0.032808628 -2.9286528 -1.0448675
-0.050744642 -2.9265215 -1.0441717
-0.068342499 -2.911159 -1.038605
-0.086034998 -2.9050622 -1.0365175
-0.10429887 -2.9166596 -1.0410404
-0.12286677 -2.9318883 -1.046955
-0.14030977 -2.9198422 -1.04278
-0.15868296 -2.9273515 -1.0459113
-0.17692615 -2.9310017 -1.0476508
-0.1949697 -2.9307964 -1.0479988
-0.21212903 -2.9183245 -1.0438237
-0.23084633 -2.9272485 -1.0476508
-0.2481648 -2.918304 -1.0448675
-0.26606649 -2.9167264 -1.0448675
-0.28404945 -2.915972 -1.0452155
-0.30086932 -2.9039166 -1.0413884
-0.31898987 -2.9048116 -1.0424321
-0.3384338 -2.9167681 -1.0476508
-0.35609612 -2.9127755 -1.046955
-0.37599915 -2.926343 -1.0528697
-0.39708638 -2.9472077 -1.0615675
-0.41437519 -2.939146 -1.0594801
-0.43322328 -2.9421129 -1.0615675
-0.45240858 -2.9468124 -1.064351
-0.47107458 -2.9476838 -1.0657426
-0.48915237 -2.9447379 -1.0657426
-0.50625378 -2.9361379 -1.0636551
-0.52492136 -2.9366677 -1.0650468
-0.54002386 -2.917721 -1.0591321
-0.56021273 -2.9263222 -1.0636551
-0.57979828 -2.9311063 -1.0667863
-0.60059106 -2.9412711 -1.0720052
-0.62036902 -2.9457865 -1.0751363
-0.64142001 -2.9556663 -1.0803552
-0.65749562 -2.9425261 -1.0768759
-0.67322379 -2.9283867 -1.0730488
-0.68966734 -2.9178147 -1.0706134
-0.70290416 -2.894398 -1.0633072
-0.71565253 -2.8700197 -1.055653
-0.72905946 -2.8492274 -1.0493904
-0.7481966 -2.8510475 -1.0518259
-1.0722445 -3.984298 -1.4891583
-0.81206185 -2.9464843 -1.0921843
-0.8393051 -2.9739249 -1.1047094
-0.86066312 -2.9795263 -1.1088843
-0.88238734 -2.9858761 -1.1134073
-1.2230124 -4.0455475 -1.5263855
-1.2613876 -4.0818543 -1.5434334
-1.2881049 -4.0794015 -1.545521
-1.3341364 -4.1365504 -1.5709189
-0.98647648 -2.9965816 -1.1287156
-0.95970464 -2.8562956 -1.0761801
-0.96321064 -2.8095634 -1.0601759
-0.98476917 -2.8159883 -1.0650468
-1.001714 -2.8090098 -1.0646988
-1.0179689 -2.8001676 -1.0636551
-1.0419785 -2.8123279 -1.0709614
-1.058552 -2.8041275 -1.0702655
-1.0821375 -2.8142033 -1.0768759
-1.0945942 -2.7952905 -1.0720052
-1.1141579 -2.7946167 -1.0744405
-1.1284615 -2.7807789 -1.0716572
-1.1451446 -2.7729361 -1.0713092
-1.1599565 -2.7606723 -1.0692217
-1.174661 -2.7483313 -1.0671343
-1.1911283 -2.7402124 -1.0667863
-1.2010913 -2.7174199 -1.0605239
-1.2154348 -2.7048688 -1.0584363
-1.2246019 -2.6811602 -1.0518259
-1.2418202 -2.6752961 -1.0525217
-1.2590127 -2.6693218 -1.0532175
-1.2737458 -2.658165 -1.0518259
-1.283051 -2.6359718 -1.0459113
-1.3091803 -2.648216 -1.0542613
-1.3384544 -2.6661019 -1.0650468
-1.3650142 -2.6778817 -1.0733968
-1.3663275 -2.6403191 -1.0612197
-1.3938464 -2.653461 -1.0702655
-1.4242258 -2.6713264 -1.0813988
-1.4343396 -2.6509957 -1.0765281
-2.0948749 -3.8146298 -1.5730065
-2.1155024 -3.7967908 -1.5709189
-1.4912008 -2.6388338 -1.0827905
-1.4994329 -2.6158099 -1.0768759
-1.500366 -2.5806303 -1.0657426
-1.5180781 -2.5746052 -1.0671343
-1.5309584 -2.5604153 -1.0650468
-1.5471264 -2.5517747 -1.0653946
-1.5617721 -2.5406368 -1.0646988
-1.5803088 -2.535779 -1.0667863
-1.5973413 -2.5284119 -1.0678301
-1.6173784 -2.525667 -1.0709614
-1.6272271 -2.5070472 -1.0671343
-1.643095 -2.4977984 -1.0674822
-1.6573496 -2.48611 -1.0667863
-1.6678469 -2.4689038 -1.0636551
-1.6750164 -2.4470222 -1.0584363
-1.6899996 -2.4366984 -1.0584363
-1.7043797 -2.4255159 -1.0580884
-1.7203183 -2.4165397 -1.0587842
-1.7296267 -2.3983364 -1.055305
-1.7470767 -2.3914626 -1.0570446
-1.7890583 -2.4176145 -1.0740926
-1.8061092 -2.4095914 -1.0754843
-1.8180243 -2.3947315 -1.0737447
-1.8206772 -2.367928 -1.0664384
-1.8357486 -2.3574514 -1.0667863
-1.8432091 -2.337312 -1.0626113
-1.8610278 -2.3303523 -1.0646988
-1.8652649 -2.3065007 -1.0587842
-1.8758166 -2.2906616 -1.0566968
-1.8844482 -2.2726154 -1.0535655
-1.8977541 -2.2602923 -1.0532175
-1.9115872 -2.2486053 -1.0532175
-1.9235127 -2.2347026 -1.0521739
-1.9421183 -2.2285106 -1.0549572
-1.9675462 -2.2299044 -1.0615675
-1.9755678 -2.2114992 -1.0584363
-1.9771466 -2.1861291 -1.0518259
-2.0012908 -2.1857071 -1.0577404
-2.0051003 -2.1630766 -1.0525217
-2.0119166 -2.143899 -1.0490426
-2.0166354 -2.1226809 -1.0445197
-2.0296221 -2.1102672 -1.0445197
-2.0425322 -2.097774 -1.0445197
-2.0547071 -2.0845342 -1.0441717
-2.0648088 -2.0692341 -1.04278
-2.0814657 -2.0604815 -1.0448675
-2.1021163 -2.0555334 -1.0490426
-2.1153638 -2.0432475 -1.0493904
-2.1292183 -2.0315232 -1.0500863
-2.1518812 -2.0280616 -1.055305
-2.1725221 -2.0224822 -1.0594801
-2.1931751 -2.0167255 -1.0636551
-2.2062025 -2.0038607 -1.064003
-2.2170603 -1.9890343 -1.0633072
-2.2481747 -1.9921739 -1.072701
-2.2674131 -1.9845138 -1.0761801
-2.2731619 -1.9650482 -1.0730488
-2.2915955 -1.9565398 -1.0761801
-2.3035574 -1.9424419 -1.0761801
-2.3046229 -1.9192758 -1.0709614
-2.3315666 -1.917599 -1.0782676
-2.3454728 -1.9050289 -1.0793114
-2.3805277 -1.9093637 -1.0904447
-2.4032259 -1.9034483 -1.0956635
-2.4074728 -1.8828937 -1.0921843
-2.4152696 -1.8652225 -1.0904447
-2.4326348 -1.8549131 -1.0932281
-2.4312341 -1.8303705 -1.0873135
-2.43414 -1.8092694 -1.0834864
-2.4383912 -1.7893105 -1.0803552
-2.4424891 -1.7693677 -1.0772239
-2.4578767 -1.7576178 -1.0793114
-2.4555905 -1.7333175 -1.0733968
-2.4477131 -1.7053622 -1.0650468
-2.4643128 -1.6945585 -1.0678301
-2.5002706 -1.6967691 -1.0793114
-2.5028429 -1.6761819 -1.0758322
-2.5169923 -1.6633762 -1.0775717
-2.5640702 -1.671955 -1.0939239
-2.6026719 -1.6744411 -1.1064489
-2.6160641 -1.6604483 -1.1078407
-2.6492522 -1.6587852 -1.1179302
-2.6849113 -1.6582539 -1.1290636
-2.7054465 -1.6480852 -1.1335865
-2.754895 -1.6550977 -1.1506345
-2.7391822 -1.6228801 -1.1395011
-2.7579949 -1.6112411 -1.1433282
-2.7800179 -1.6013029 -1.1485469
-2.8232229 -1.6031837 -1.1628116
-2.864918 -1.6036787 -1.1763804
-2.9683018 -1.6376678 -1.216043
-3.0326648 -1.6489633 -1.2390056
-3.86677 -2.071502 -1.5858794
-3.0899868 -1.6313078 -1.2546618
-3.1357095 -1.6309075 -1.2696223
-3.2299449 -1.6547854 -1.304762
-3.2869172 -1.6585726 -1.3242453
-3.3155057 -1.6475459 -1.3318995
-3.4215691 -1.6741147 -1.3715621
-3.5491989 -1.7096072 -1.4199227
-3.7638073 -1.7845391 -1.5037708
-3.7984774 -1.772505 -1.5135126
-3.6610157 -1.6811326 -1.4529749
-3.7191133 -1.6802396 -1.4724582
-3.8073254 -1.6920136 -1.5041188
-3.8915231 -1.700891 -1.5340397
-3.9191151 -1.6843803 -1.5409981
-3.9872441 -1.6847341 -1.5643085
-4.1022825 -1.7037197 -1.6064066
-4.2220402 -1.7231257 -1.6502442
-4.2360148 -1.6985822 -1.6516359
-4.2707844 -1.6821727 -1.6613775
-4.3396153 -1.6785821 -1.684688
-4.3743763 -1.6612368 -1.6944298
-4.412601 -1.6448367 -1.7055631
-4.4595933 -1.6312481 -1.7201756
-4.5145264 -1.6199923 -1.7379194
-4.5606432 -1.6050129 -1.752184
-4.6058583 -1.5892226 -1.7661008
-4.6892424 -1.5858434 -1.7949779
-4.7834353 -1.5850362 -1.8280301
-4.8804669 -1.5839993 -1.862126
-4.967834 -1.578709 -1.8923949
-5.0418873 -1.5682316 -1.9174449
-5.0810151 -1.5462666 -1.9289262
-5.1038866 -1.5190697 -1.934145
-5.1293159 -1.4924353 -1.9404075
-5.1428857 -1.4622153 -1.942147
-5.1562781 -1.4318849 -1.9438866
-5.1622519 -1.3994843 -1.9428428
-5.1807122 -1.3704181 -1.9466699
-5.1781292 -1.3357962 -1.942495
-5.1971393 -1.3067396 -1.9466699
-5.1713653 -1.2665812 -1.933797
-5.1772156 -1.2343919 -1.9331012
-5.1892586 -1.2036601 -1.9348408
-5.2029486 -1.173239 -1.9372762
-5.2100496 -1.1412922 -1.9372762
-5.2242908 -1.1108608 -1.9400595
-5.2548828 -1.0837024 -1.9491054
-5.2430458 -1.0477682 -1.942147
-5.253058 -1.0162894 -1.9435388
-5.2591949 -0.984038 -1.9435388
-5.2651339 -0.95174968 -1.9435388
-5.2560968 -0.91685098 -1.9379721
-5.2671709 -0.88551438 -1.9400595
-5.2595482 -0.85108513 -1.9351887
-5.2581863 -0.81778997 -1.9327533
-5.2529049 -0.78399086 -1.9289262
-5.2604012 -0.75214237 -1.9299699
-0 -0 -0
-0 -0 -0
-0 -0 -0
-0 -0 -0
-0 -0 -0
-0 -0 -0
-0 -0 -0
-0 -0 -0
-0 -0 -0
-0 -0 -0
-0 -0 -0
-0 -0 -0
-0 -0 -0
-0 -0 -0
-0 -0 -0
-0 -0 -0
-0 -0 -0
-0 -0 -0
-0 -0 -0
-0 -0 -0
-5.3912477 -0.070962846 -1.9588472
-5.3831444 -0.037823956 -1.9557159
-0 -0 -0
-0 0 -0
-0 0 -0
-0 0 -0
-0 0 -0
-0 0 -0
-0 0 -0
-0 0 -0
-0 0 -0
-0 0 -0
-0 0 -0
-0 0 -0
-5.1817584 -0.13256851 -1.9443922
-5.1834078 -0.10078958 -1.9447501
-0 -0 -0
-0 -0 -0
-0 -0 -0
-0 0 -0
-0 0 -0
-0 0 -0
-0 0 -0
-0 0 -0
-0 0 -0
-0 0 -0
-0 0 -0
-0 0 -0
-0 0 -0
-0 0 -0
-0 0 -0
-0 0 -0
-0 0 -0
-0 0 -0
-0 0 -0
-0 0 -0
-0 0 -0
-0 0 -0
-0 0 -0
-0 0 -0
-0 0 -0
-0 0 -0
-0 0 -0
-0 0 -0
-0 0 -0
-0 0 -0
-0 0 -0
-0 0 -0
-0 0 -0
-0 0 -0
-0 0 -0
-0 0 -0
-0 0 -0
-4.992517 1.0835698 -1.9157619
-5.0040007 1.1182544 -1.9229195
-4.9961348 1.1487281 -1.9225616
-4.993536 1.1804359 -1.924351
-4.9852915 1.2108332 -1.9239931
-4.9804864 1.2420772 -1.9250668
-4.9818177 1.2749279 -1.9286456
-4.9748044 1.3057086 -1.9290035
-4.9712076 1.3374215 -1.9307928
-4.9701095 1.3698834 -1.9336559
-4.9553199 1.3985788 -1.9311507
-4.9313941 1.4245534 -1.9250668
-4.9216647 1.4545205 -1.9247088
-4.9046025 1.4822613 -1.921488
-4.8927388 1.5115008 -1.9204143
-4.8735771 1.5384026 -1.9164777
-4.8667121 1.5691367 -1.9175513
-4.8507838 1.5969253 -1.9150462
-4.8444343 1.6278485 -1.9164777
-4.8272882 1.6551205 -1.9136146
-4.8240933 1.6871746 -1.9164777
-4.8145299 1.7170565 -1.9168355
-4.8074141 1.7478416 -1.9182671
-4.7948475 1.7766576 -1.9175513
-4.7917185 1.8090124 -1.9207722
-4.7813997 1.838715 -1.9211301
-4.7717667 1.8686993 -1.9218459
-4.7593436 1.8975973 -1.921488
-4.7424188 1.9246579 -1.9193407
-4.7236156 1.9508697 -1.9164777
-4.7081127 1.9783698 -1.9150462
-4.6967435 2.0075879 -1.9154041
-4.6817679 2.0352523 -1.9143304
-4.6691914 2.0639408 -1.9143304
-4.6598468 2.0940821 -1.9157619
-4.6469097 2.1226351 -1.9157619
-4.6304102 2.1495357 -1.9143304
-4.620512 2.1794999 -1.9157619
-4.5758939 2.1928813 -1.9025204
-4.585022 2.2319503 -1.9121832
-4.593842 2.2712135 -1.9218459
-4.5572872 2.2880476 -1.9121832
-4.5464902 2.3176634 -1.9136146
-4.5296955 2.3442292 -1.912541
-4.5061331 2.3672028 -1.9086044
-4.4898753 2.3939288 -1.9078885
-4.4693527 2.4183228 -1.9053835
-4.4577045 2.4474981 -1.9068149
-4.4458661 2.4766214 -1.9082465
-4.4265213 2.5015574 -1.9064571
-4.4118986 2.5291352 -1.9068149
-4.4003334 2.5585051 -1.9086044
-4.3829432 2.5845084 -1.9078885
-4.3710098 2.6137488 -1.909678
-4.3556886 2.6410036 -1.9100358
-4.346561 2.6720805 -1.9132568
-4.3316689 2.699688 -1.9139725
-4.315022 2.7262156 -1.9139725
-4.302145 2.7551584 -1.9157619
-4.2788925 2.7774374 -1.9128989
-4.2625504 2.804153 -1.9132568
-4.2429328 2.828701 -1.9121832
-4.2301393 2.8578179 -1.9143304
-4.2086716 2.8810828 -1.912541
-4.1893797 2.9057882 -1.9118253
-4.169179 2.9298284 -1.9107516
-4.1488414 2.9537306 -1.909678
-4.1033735 2.95947 -1.8967943
-4.1085119 3.0016668 -1.9078885
-4.0870142 3.0245979 -1.9064571
-4.0736094 3.0535386 -1.9089622
-4.056284 3.0796053 -1.909678
-4.0313892 3.0998833 -1.9068149
-4.0167136 3.1280031 -1.9089622
-3.9915788 3.1479647 -1.9060992
-3.9641619 3.1659882 -1.9021626
-3.9475653 3.1926007 -1.903594
-3.9322364 3.2203119 -1.9057413
-3.9102464 3.2425909 -1.9046676
-3.896713 3.2719264 -1.9078885
-3.8765635 3.2957745 -1.9078885
-3.8555603 3.3188894 -1.9075307
-3.8365314 3.3437111 -1.9082465
-3.8187435 3.3696599 -1.909678
-3.7972994 3.3924057 -1.9093201
-3.7854159 3.4237838 -1.9139725
-3.7643366 3.4469461 -1.9139725
-3.749964 3.4763265 -1.9175513
-3.720392 3.4916029 -1.9132568
-3.7076988 3.5227256 -1.9179091
-3.6819758 3.5415256 -1.9157619
-3.6561618 3.560143 -1.9136146
-3.6315882 3.5798879 -1.9121832
-3.612859 3.605401 -1.9139725
-3.5827854 3.6195383 -1.909678
-3.5592031 3.6401186 -1.9089622
-3.5329082 3.6578593 -1.9068149
-3.5116868 3.680819 -1.9075307
-3.4883952 3.7016177 -1.9071728
-3.4700708 3.7277362 -1.909678
-3.4515569 3.7537692 -1.9121832
-3.4303429 3.7769506 -1.9132568
-3.410845 3.8020978 -1.9154041
-3.3837357 3.8187616 -1.9132568
-3.3540902 3.8324258 -1.909678
-3.329901 3.8522277 -1.9093201
-3.303776 3.8697464 -1.9078885
-3.2781637 3.8878038 -1.9068149
-3.248271 3.9006701 -1.9032362
-3.2248688 3.9212489 -1.903594
-3.1948605 3.9337146 -1.9000152
-3.1700792 3.9525156 -1.8996574
-3.1434481 3.9689646 -1.8982259
-3.1190357 3.9881778 -1.8982259
-3.0967891 4.0101967 -1.8996574
-3.0738235 4.0313501 -1.900731
-3.0512764 4.0531187 -1.9021626
-3.0280209 4.0740128 -1.9032362
-3.0051761 4.0955272 -1.9046676
-2.9794419 4.113133 -1.9043097
-2.9546912 4.1320968 -1.9046676
-2.9303586 4.1516743 -1.9053835
-2.8957541 4.1565523 -1.8992995
-2.8776031 4.1850133 -1.9043097
-2.8492484 4.1987281 -1.9025204
-2.8177156 4.2075977 -1.8985838
-2.7913306 4.2240291 -1.8982259
-2.7617893 4.2356014 -1.8957207
-2.7352428 4.2516828 -1.8953629
-2.7106049 4.270751 -1.8964365
-2.6868269 4.2912593 -1.8982259
-2.6633902 4.3124313 -1.9003731
-2.6417377 4.3366666 -1.9039519
-2.6160407 4.3543949 -1.9046676
-2.5911775 4.3735781 -1.9060992
-2.5633507 4.3877826 -1.9053835
-2.5377779 4.4058557 -1.9064571
-2.5111575 4.4221559 -1.9068149
-2.4835203 4.436666 -1.9064571
-2.4557993 4.4510036 -1.9060992
-2.4262116 4.4618869 -1.9043097
-2.3961418 4.4717517 -1.9021626
-2.3664784 4.4822416 -1.9003731
-2.3397932 4.4983344 -1.9010888
-2.3104446 4.5092821 -1.8996574
-2.2835741 4.5250411 -1.9003731
-2.2570128 4.5414762 -1.9014468
-2.2291045 4.5552397 -1.9014468
-2.1978693 4.5621018 -1.8985838
-2.1750376 4.5864697 -1.9032362
-2.1425097 4.5904217 -1.8992995
-2.1162522 4.6077242 -1.9010888
-2.086786 4.6180696 -1.9000152
-2.0603075 4.6350532 -1.9018047
-2.0310805 4.6458969 -1.9010888
-2.0029044 4.6591296 -1.9014468
-1.9742788 4.6713314 -1.9014468
-1.9455789 4.6833572 -1.9014468
-1.9171587 4.6960716 -1.9018047
-1.8879604 4.7068801 -1.9014468
-1.8583592 4.7166381 -1.900731
-1.8287095 4.7262106 -1.9000152
-1.8010023 4.7408338 -1.9014468
-1.7718792 4.7517953 -1.9014468
-1.744294 4.7669621 -1.9032362
-1.7153273 4.7784543 -1.903594
-1.6869054 4.7915316 -1.9046676
-1.6574733 4.8017921 -1.9046676
-1.6204958 4.7897592 -1.8957207
-1.5957781 4.8137932 -1.9014468
-1.5633267 4.8146133 -1.8978679
-1.5326234 4.8205557 -1.8964365
-1.5010735 4.8236279 -1.8939313
-1.4706318 4.8300676 -1.8928577
-1.4420336 4.8425798 -1.8942891
-1.4135983 4.8558197 -1.8960786
-1.3853104 4.8697906 -1.8982259
-1.356154 4.880898 -1.8992995
-1.327158 4.8927321 -1.900731
-1.2987846 4.9071021 -1.9032362
-1.2681838 4.9131703 -1.9025204
-1.2375575 4.9190483 -1.9018047
-1.2086855 4.9319906 -1.9039519
-1.1779672 4.9374976 -1.9032362
-1.1468043 4.9409943 -1.9018047
-1.1133813 4.9342752 -1.8964365
-1.0834842 4.9428382 -1.8971522
-1.0525519 4.9466534 -1.8960786
-1.0214248 4.9493608 -1.894647
-0.99140322 4.957366 -1.8953629
-0.95812565 4.948688 -1.8896368
-0.92963439 4.96457 -1.8935734
-0.90031898 4.9766126 -1.8960786
-0.86960542 4.981123 -1.8957207
-0.83918047 4.9872861 -1.8960786
-0.80856329 4.992341 -1.8960786
-0.77820301 4.999054 -1.8967943
-0.7480669 5.0074286 -1.8982259
-0.71706307 5.0100756 -1.8975101
-0.68580157 5.0106807 -1.8960786
-0.65504372 5.0147943 -1.8960786
-0.62403047 5.0168662 -1.8953629
-0.59268761 5.015964 -1.8935734
-0.56158721 5.0167222 -1.8924998
-0.53000855 5.0126452 -1.8896368
-0.4993341 5.0167317 -1.8899946
-0.46932432 5.028069 -1.8932155
-0.43951878 5.0429468 -1.8978679
-0.40856758 5.0455489 -1.8978679
-0.37760097 5.0479608 -1.8978679
-0.34706825 5.0567036 -1.9003731
-0.31574288 5.0540786 -1.8985838
-0.28451538 5.0521913 -1.8971522
-0.25346351 5.0529094 -1.8967943
-0.2227426 5.0608997 -1.8992995
-0.19122502 5.0500407 -1.894647
-0.16023494 5.0511193 -1.894647
-0.12897535 5.041739 -1.8907104
-0.098110296 5.0461698 -1.8921419
-0.06705825 5.0401411 -1.8896368
-0.036192179 5.0488615 -1.8928577
-0.0052039549 5.0415182 -1.8899946
0.02574908 5.0451903 -1.8914262
0.056788661 5.0524073 -1.8942891
0.087869324 5.0566316 -1.8960786
0.11900397 5.0606647 -1.8978679
0.15024661 5.0663729 -1.9003731
0.18153045 5.0709548 -1.9025204
0.21260276 5.0688124 -1.9021626
0.24361086 5.065547 -1.9014468
0.27433437 5.0574303 -1.8989416
0.30507991 5.0509915 -1.8971522
0.33538511 5.0387754 -1.8932155
0.36622849 5.0356913 -1.8928577
0.3964597 5.0249715 -1.8896368
0.42728487 5.0224442 -1.8896368
0.45800918 5.0187984 -1.8892789
0.48970026 5.025187 -1.8928577
0.52052498 5.0220876 -1.8928577
0.55214524 5.0262251 -1.8957207
0.58329797 5.0255251 -1.8967943
0.61412299 5.0218515 -1.8967943
0.64468706 5.0161362 -1.8960786
0.67507941 5.0093098 -1.895005
0.70567292 5.004149 -1.894647
0.73622859 4.9988008 -1.8942891
0.76702839 4.9951124 -1.894647
0.79751611 4.9893899 -1.8942891
0.82735056 4.9797964 -1.8924998
0.85804909 4.9755464 -1.8928577
0.88856232 4.9701881 -1.8928577
0.91819263 4.9600515 -1.8910682
0.94843411 4.9534068 -1.8907104
0.98044014 4.9557385 -1.8939313
1.0113899 4.952374 -1.895005
1.0423352 4.9488163 -1.8960786
1.0728788 4.9432402 -1.8964365
1.1031898 4.936564 -1.8964365
1.1313676 4.9206014 -1.8928577
1.1602501 4.9081144 -1.8907104
1.1890219 4.8954587 -1.8885632
1.2203928 4.893507 -1.8907104
1.2497015 4.8832126 -1.8896368
1.2817737 4.8835816 -1.8928577
1.3124422 4.8783298 -1.8939313
1.3445827 4.8782868 -1.8971522
1.3734758 4.8663502 -1.8957207
1.4043456 4.8614197 -1.8971522
1.4338837 4.8518157 -1.8967943
1.4633569 4.8420324 -1.8964365
1.4927639 4.8320699 -1.8960786
1.5206987 4.8174767 -1.8939313
1.5545267 4.8213863 -1.8992995
1.5843728 4.812644 -1.8996574
1.6150622 4.8063726 -1.9010888
1.6466426 4.8025556 -1.903594
1.6770041 4.7950058 -1.9046676
1.704199 4.7784691 -1.9021626
1.7299781 4.7582688 -1.8982259
1.761088 4.7528181 -1.9003731
1.7869202 4.7331862 -1.8967943
1.8145885 4.7186465 -1.8953629
1.8469117 4.7161188 -1.8989416
1.8740857 4.7003608 -1.8971522
1.9032423 4.6896381 -1.8975101
1.9287742 4.670104 -1.8942891
1.9552232 4.6530161 -1.8921419
1.9841037 4.6417904 -1.8924998
2.0095701 4.6226773 -1.8896368
2.0348771 4.6034274 -1.8867737
2.0619366 4.5882998 -1.8857001
2.0935423 4.5832062 -1.888921
2.1180868 4.5626512 -1.8857001
2.1464412 4.5504136 -1.886058
2.177146 4.5430522 -1.8885632
2.2074325 4.5346456 -1.8907104
2.2339735 4.5185041 -1.8896368
2.2641699 4.5097189 -1.8917841
2.2951906 4.5023971 -1.894647
2.3232026 4.4890585 -1.895005
2.352006 4.4771991 -1.8960786
2.3816295 4.4668036 -1.8978679
2.4072151 4.4488206 -1.8964365
2.4344673 4.4339666 -1.8964365
2.4570844 4.4107876 -1.8928577
2.4804273 4.3891244 -1.8899946
2.4984896 4.3584299 -1.8831949
2.5331633 4.356741 -1.8892789
2.5607965 4.3427243 -1.8899946
2.5854781 4.3237243 -1.8885632
2.6163161 4.3149648 -1.8917841
2.6456766 4.3036032 -1.8939313
2.6720333 4.2872887 -1.8939313
2.6987879 4.2716022 -1.8942891
2.7259543 4.2565351 -1.895005
2.7449038 4.2287631 -1.8899946
2.7738781 4.2165217 -1.8921419
2.800216 4.2001991 -1.8924998
2.8233218 4.1790695 -1.8907104
2.8536577 4.1686025 -1.8939313
2.8802462 4.1525488 -1.894647
2.9035242 4.1317415 -1.8932155
2.9266555 4.110805 -1.8917841
2.9501853 4.090498 -1.8907104
2.9741271 4.0708108 -1.8899946
3.0007153 4.0547376 -1.8910682
3.0260983 4.0369964 -1.8914262
3.0530701 4.0213275 -1.8928577
3.081671 4.0077004 -1.8953629
3.103909 3.985769 -1.8939313
3.1311977 3.970315 -1.8957207
3.1531696 3.9481089 -1.8942891
3.1755741 3.9265089 -1.8932155
3.2013814 3.9091175 -1.8942891
3.2264991 3.8908381 -1.895005
3.2485111 3.8688221 -1.8939313
3.2764218 3.853797 -1.8964365
3.2975702 3.8307896 -1.895005
3.3228538 3.8125961 -1.8960786
3.3449492 3.7907352 -1.8953629
3.368768 3.7708359 -1.8957207
3.3955998 3.75425 -1.8978679
3.4173102 3.731967 -1.8971522
3.4420493 3.7129829 -1.8982259
3.4634891 3.6904311 -1.8975101
3.4841385 3.6670792 -1.8964365
3.5039847 3.6429398 -1.895005
3.5243173 3.619364 -1.8939313
3.5503917 3.6016612 -1.8960786
3.5730836 3.5804696 -1.8964365
3.59764 3.561106 -1.8978679
3.6260989 3.5454929 -1.9014468
3.6558447 3.530962 -1.9057413
3.680819 3.5116868 -1.9075307
3.7029767 3.489676 -1.9078885
3.7250025 3.4675255 -1.9082465
3.7475834 3.4458683 -1.9089622
3.7603621 3.4152744 -1.9046676
3.777077 3.3883955 -1.9025204
3.7915072 3.3595822 -1.8992995
3.8141577 3.3380997 -1.9003731
3.8345683 3.3146336 -1.9003731
3.8527038 3.2892237 -1.8992995
3.8770967 3.2691338 -1.9014468
3.9049752 3.2518566 -1.9053835
3.9190853 3.2230895 -1.9025204
3.9409623 3.2007477 -1.903594
3.9663546 3.1811805 -1.9064571
3.9872632 3.1579432 -1.9071728
4.002152 3.1299665 -1.9050256
4.0294108 3.1116295 -1.9089622
4.0484276 3.0868468 -1.9089622
4.0628161 3.058578 -1.9068149
4.083755 3.0352628 -1.9078885
4.0864935 2.9985464 -1.9003731
4.1116209 2.9783461 -1.903594
4.1305776 2.9536049 -1.9039519
4.1562514 2.9335897 -1.9075307
4.1695766 2.9048293 -1.9053835
4.1927075 2.8828943 -1.9078885
4.2110901 2.8576386 -1.9082465
4.2238903 2.8286281 -1.9060992
4.2528515 2.8103805 -1.9114674
4.2340374 2.7607691 -1.895005
4.2720995 2.7483797 -1.9046676
4.2904592 2.7231159 -1.9053835
4.322124 2.7061551 -1.9121832
4.3418245 2.6815469 -1.9136146
4.3526149 2.6514547 -1.9111094
4.3471913 2.6117122 -1.9014468
4.3687582 2.5883212 -1.9039519
4.3773012 2.5572267 -1.900731
4.4131374 2.5419731 -1.909678
4.4392071 2.5208418 -1.9143304
4.4521465 2.4921873 -1.9132568
4.4698071 2.466176 -1.9143304
4.4881363 2.4404879 -1.9157619
4.4997344 2.411139 -1.9143304
4.5119672 2.3821757 -1.9132568
4.5306406 2.3566008 -1.9150462
4.5391984 2.3257759 -1.912541
4.5525498 2.2974591 -1.9121832
4.5791035 2.2757165 -1.9175513
4.601368 2.2516818 -1.9211301
4.6201444 2.2258382 -1.9232774
4.6396208 2.2002487 -1.9257826
4.6454191 2.1681843 -1.9225616
4.6586351 2.1396396 -1.9225616
4.6665707 2.1087072 -1.9204143
4.6649165 2.0735848 -1.9143304
4.6775522 2.0449224 -1.9143304
4.6900115 2.0161831 -1.9143304
4.6919732 1.9830047 -1.9100358
4.7057772 1.9548945 -1.9107516
4.7220058 1.9277487 -1.912541
4.7380786 1.9004772 -1.9143304
4.7522564 1.8723962 -1.9154041
4.7697515 1.8455608 -1.9179091
4.7862234 1.8182495 -1.9200565
4.8007894 1.7901528 -1.921488
4.813437 1.7613039 -1.9222038
4.825911 1.7323672 -1.9229195
4.8434958 1.7052046 -1.9257826
4.8538675 1.6754533 -1.9257826
4.8711329 1.6480336 -1.9286456
4.8802667 1.61782 -1.9282877
4.8892136 1.5875564 -1.9279298
4.8837352 1.5527159 -1.9218459
4.8913875 1.5221657 -1.9211301
4.8934889 1.4899476 -1.9182671
4.9025393 1.4598936 -1.9182671
4.9114046 1.4297848 -1.9182671
4.9218812 1.4001331 -1.9189829
4.9348779 1.3711569 -1.9207722
4.9486055 1.3423184 -1.9229195
4.9576511 1.312168 -1.9232774
4.9656091 1.2817237 -1.9232774
4.9788136 1.2525986 -1.9254247
4.9909401 1.2231373 -1.927214
5.0019841 1.1933575 -1.9286456
5.0110316 1.1630658 -1.9293613
5.0180736 1.1322968 -1.9293613
5.0294871 1.1024852 -1.9311507
5.0379839 1.0719929 -1.9318665
5.0371509 1.0395498 -1.9290035
5.0489283 1.009722 -1.9311507
5.054112 0.97854578 -1.9307928
5.0591035 0.94734401 -1.9304349
5.0639019 0.91611779 -1.9300771
5.0703478 0.88518965 -1.9304349
5.0609508 0.85158169 -1.9247088
5.069768 0.82110971 -1.9261404
5.0940862 0.79300451 -1.9336559
5.1007028 0.76200897 -1.9343716
5.107131 0.73096204 -1.9350874
5.1133704 0.69986486 -1.9358032
5.1138649 0.66799259 -1.9343716
5.1178675 0.63660192 -1.9343716
5.1151857 0.60441977 -1.9318665
5.1160145 0.57271034 -1.9307928
5.1185036 0.54121006 -1.9304349
5.1189404 0.50951558 -1.9293613
5.1238298 0.4782705 -1.9300771
5.1303892 0.44714686 -1.9315087
5.1348977 0.41580987 -1.9322244
5.1364212 0.38422516 -1.9318665
5.1470661 0.35327756 -1.9350874
5.1537967 0.3219806 -1.9368768
5.1612692 0.29066688 -1.9390241
5.1554947 0.25861764 -1.936161
5.1672459 0.22743168 -1.9400977
5.1648116 0.19558015 -1.9386662
5.1687145 0.16397484 -1.9397398
5.1677561 0.1322092 -1.9390241
5.1722045 0.10057086 -1.9404556
5.170857 0.068807922 -1.9397398
5.1721158 0.037085611 -1.9400977
5.172246 0.0053494084 -1.9400977
5.1703138 -0.026377615 -1.939382
5.1709881 -0.058111988 -1.9397398
5.1705341 -0.089839481 -1.9397398
5.1736197 -0.1216511 -1.9411713
5.1718426 -0.15336594 -1.9408134
5.176403 -0.18529686 -1.9429607
5.1816993 -0.21732859 -1.9454659
5.1886625 -0.24952182 -1.9486868
5.1758451 -0.28074813 -1.9443922
5.1796174 -0.31283858 -1.9465395
5.1748052 -0.34442839 -1.9454659
5.1753883 -0.3763769 -1.9465395
5.172051 -0.40805203 -1.9461817
5.1759624 -0.44033301 -1.9486868
5.1750231 -0.47225341 -1.9494026
5.1729574 -0.50408834 -1.9497604
5.1771975 -0.53658909 -1.9526235
5.1710229 -0.56804001 -1.9515499
5.1637301 -0.59932774 -1.9501183
5.1469793 -0.62941474 -1.9451081
5.1337585 -0.65979457 -1.9415293
5.1388679 -0.69252867 -1.9451081
5.1326723 -0.72378653 -1.9443922
5.122592 -0.7544505 -1.942245
5.123404 -0.78671783 -1.9443922
5.1350775 -0.82079118 -1.950834
5.1354718 -0.85320181 -1.9529814
5.1356611 -0.88564807 -1.9551287
5.1190996 -0.91517216 -1.950834
5.118897 -0.94758451 -1.9529814
5.1212401 -0.98055536 -1.9562023
5.101387 -1.009243 -1.950834
5.0886941 -1.0392181 -1.948329
5.0712571 -1.0681137 -1.9440343
5.0490947 -1.0958445 -1.9379504
5.0213156 -1.1221223 -1.9297192
4.9779339 -1.1445448 -1.9154041
4.9353766 -1.1666924 -1.9014468
4.8391995 -1.1753623 -1.8663746
4.7304206 -1.1797346 -1.8262922
4.6670055 -1.1943887 -1.8041036
4.6017842 -1.2078357 -1.7811993
4.5401831 -1.2214979 -1.7597266
4.4821906 -1.2354424 -1.7396854
4.4574504 -1.2581035 -1.7328857
4.4334989 -1.280767 -1.7264439
4.4049606 -1.301861 -1.7182127
4.3772244 -1.3229234 -1.7103393
4.3824077 -1.3538898 -1.7157075
4.4087467 -1.3917139 -1.7296648
4.4001241 -1.4187392 -1.7296648
4.3815794 -1.4425 -1.7257282
4.3611388 -1.4654921 -1.7210757
4.3697309 -1.4982796 -1.7282333
4.3551669 -1.5232143 -1.726086
4.3474979 -1.5505357 -1.7268018
4.3422899 -1.5787772 -1.7285912
4.3132572 -1.5982552 -1.7207178
4.3068638 -1.6260097 -1.7221494
4.292448 -1.65073 -1.7203599
4.2813692 -1.6766965 -1.7200021
4.2822766 -1.7074298 -1.7246546
4.2587404 -1.728407 -1.7192863
4.2394242 -1.7509419 -1.7157075
4.2182703 -1.7725816 -1.711413
4.1995864 -1.7951286 -1.7081921
4.1756473 -1.8152798 -1.7028239
4.1567435 -1.8374699 -1.699603
4.1505013 -1.8652368 -1.7017503
4.133882 -1.8883412 -1.699603
4.1188293 -1.9120983 -1.6981715
4.1053305 -1.9365383 -1.6974556
4.0832653 -1.9568501 -1.6931611
4.072021 -1.9822763 -1.693519
4.0455513 -2.0001903 -1.687435
4.0407128 -2.0287457 -1.6906559
4.0315166 -2.055197 -1.6920875
4.021318 -2.0811825 -1.6931611
3.9919388 -2.0971339 -1.6860036
3.9756999 -2.1198313 -1.684572
3.9560478 -2.1406314 -1.6817091
3.9477499 -2.1675611 -1.6838562
3.9368229 -2.1931062 -1.68493
3.9200404 -2.2153835 -1.6834984
3.922576 -2.2486813 -1.6906559
3.9095118 -2.2731767 -1.6910138
3.8794026 -2.2876375 -1.6838562
3.8668957 -2.3123562 -1.684572
3.8422542 -2.3297467 -1.6799196
3.8358419 -2.3581681 -1.6834984
3.8244703 -2.3836353 -1.68493
3.8145092 -2.410049 -1.6870772
3.804368 -2.4364302 -1.6892245
3.7901299 -2.4602358 -1.6895823
3.7734027 -2.482419 -1.6888666
3.7557688 -2.5039718 -1.6877929
3.740334 -2.5269694 -1.6877929
3.7347758 -2.5567286 -1.6924454
3.7213194 -2.581193 -1.693519
3.7046475 -2.603441 -1.6931611
3.6863213 -2.6244988 -1.6920875
3.6565154 -2.6372375 -1.6856457
3.6402647 -2.6596239 -1.6856457
3.6328845 -2.6885748 -1.6899402
3.6051111 -2.7024152 -1.684572
3.5958991 -2.7301307 -1.6881509
3.5827811 -2.7549889 -1.6899402
3.5746508 -2.7838047 -1.6942347
3.5553026 -2.8039513 -1.6931611
3.5504353 -2.8356187 -1.6992451
3.5271609 -2.8526533 -1.696382
3.5103133 -2.8748333 -1.6967399
3.4947641 -2.8981061 -1.6978135
3.4790614 -2.9212964 -1.6988872
3.4582253 -2.9401693 -1.6974556
2.5080321 -2.159116 -1.2261289
2.4862888 -2.1671028 -1.2218344
2.4855487 -2.1934373 -1.2282763
3.3850284 -3.024153 -1.6974556
3.3733346 -3.0511291 -1.7010344
3.3641918 -3.0805979 -1.7060448
3.3370082 -3.093565 -1.7017503
3.3152399 -3.1114264 -1.7003187
3.291347 -3.127208 -1.6978135
3.2747891 -3.1499336 -1.6992451
3.2560689 -3.1706192 -1.699603
3.2219222 -3.1761181 -1.6917297
3.2056782 -3.1991253 -1.693519
3.179419 -3.2120991 -1.6899402
3.1478984 -3.2195303 -1.6834984
3.1417084 -3.2528882 -1.6910138
3.104285 -3.253864 -1.6813512
3.0855422 -3.2742093 -1.6820669
3.0698481 -3.2978642 -1.684572
3.0495548 -3.3166382 -1.684572
3.0203571 -3.3256111 -1.6795617
2.9986475 -3.3426909 -1.678846
2.9774613 -3.3603287 -1.6784881
2.9610918 -3.3834531 -1.6809932
2.9433291 -3.4050901 -1.6827826
2.9254122 -3.4266365 -1.684572
2.9109535 -3.452374 -1.6885087
2.8938985 -3.4751928 -1.6910138
2.8849773 -3.5080283 -1.6985294
2.8575108 -3.5184164 -1.6949506
2.8364527 -3.5366118 -1.6953084
2.8118 -3.5502896 -1.693519
2.0276875 -2.5929475 -1.2193292
1.9854834 -2.571346 -1.2028668
1.9691024 -2.5827377 -1.2025089
1.9509712 -2.5917876 -1.2010775
1.9322462 -2.5999627 -1.199288
1.9123895 -2.6065001 -1.1967828
