# .PCD v0.7 - Point Cloud Data file format
VERSION 0.7
FIELDS x y z
SIZE 4 4 4
TYPE F F F
COUNT 1 1 1
WIDTH 1504
HEIGHT 1
VIEWPOINT 0 0 0 1 0 0 0
POINTS 1504
DATA ascii
-14.771976 10.79501 -2.0175033
-14.719039 10.895496 -2.0194011
-14.686893 11.011834 -2.0243134
-14.637252 11.115567 -2.0268812
-14.586102 11.218498 -2.0293372
-14.542864 11.327937 -2.0330215
-14.509754 11.445884 -2.0382686
-14.466426 11.556406 -2.042176
-14.419969 11.664952 -2.0457487
-14.370417 11.771473 -2.0489862
-14.311686 11.870846 -2.0509958
-14.254559 11.971859 -2.0533404
-14.18916 12.066178 -2.0545685
-14.129165 12.165334 -2.0566897
-14.070734 12.266166 -2.0591457
-14.014577 12.369369 -2.0620484
-13.971762 12.484923 -2.0670724
-13.911842 12.585751 -2.0696402
-13.846082 12.681614 -2.0714264
-13.803715 12.79944 -2.0768969
-13.728541 12.887299 -2.077455
-13.63336 12.956232 -2.0749991
-13.507772 12.995547 -2.0678539
-13.409981 13.060852 -2.0650628
-13.294914 13.108701 -2.0595922
-13.132643 13.108595 -2.0466418
-13.066642 13.203761 -2.0489862
-12.956203 13.253842 -2.0442972
-12.868423 13.326657 -2.0432925
-12.761717 13.379478 -2.0392735
-12.722315 13.503098 -2.0463068
-12.596569 13.535077 -2.0392735
-12.492433 13.589435 -2.0358126
-12.399462 13.655531 -2.0342495
-12.288898 13.701765 -2.0297837
-12.187462 13.75757 -2.0268812
-12.112634 13.84331 -2.0285559
-12.003422 13.889552 -2.024425
-11.913455 13.957652 -2.0236435
-11.833993 14.038086 -2.02476
-11.7559 14.120362 -2.0262113
-11.648211 14.166899 -2.022527
-11.557933 14.234247 -2.0219688
-11.466023 14.29947 -2.0211873
-11.386087 14.379683 -2.0226388
-11.290296 14.439882 -2.0212989
-11.188121 14.491581 -2.0188429
-11.092967 14.552054 -2.0177264
-10.989723 14.601584 -2.0151587
-10.892811 14.659169 -2.013819
-10.796192 14.716917 -2.0125909
-10.685287 14.754715 -2.0086834
-10.59513 14.820808 -2.008795
-10.498262 14.877421 -2.0076787
-10.401667 14.934218 -2.0066738
-10.303081 14.987933 -2.0053341
-10.204785 15.041824 -2.004106
-10.090736 15.071952 -1.999752
-9.985467 15.114513 -1.9971843
-9.8838549 15.162179 -1.9953979
-9.7782717 15.203317 -1.9928302
-9.6778803 15.252121 -1.9913789
-9.5925493 15.324694 -1.9931651
-9.4899845 15.369735 -1.9913789
-9.3892956 15.417491 -1.9900391
-9.2873554 15.462886 -1.9884762
-9.2039509 15.539246 -1.9910439
-9.0918903 15.56711 -1.9873598
-8.9842997 15.601936 -1.9846803
-8.8800583 15.642077 -1.9827824
-8.7737217 15.67806 -1.9804379
-8.676877 15.730729 -1.9803263
-8.5650034 15.755734 -1.9767537
-8.4667597 15.805365 -1.9764187
-8.3552399 15.829774 -1.9729578
-8.2469492 15.859583 -1.9702784
-8.1277342 15.867433 -1.9649196
-8.0217152 15.900147 -1.9627984
-7.9116216 15.92415 -1.9596725
-7.8054662 15.955435 -1.9575512
-7.6983628 15.984226 -1.9552068
-7.5677853 15.962918 -1.9467219
-7.4995313 16.07299 -1.9546485
-7.4024267 16.122316 -1.9550951
-7.3004985 16.161095 -1.9543135
-7.1911097 16.182882 -1.9515225
-7.0845141 16.210312 -1.949513
-6.9813848 16.245258 -1.9485081
-6.8784804 16.280466 -1.947615
-6.7792177 16.324202 -1.9478383
-6.682682 16.374691 -1.9489547
-6.5828228 16.417233 -1.949178
-6.4761376 16.44252 -1.9473917
-6.371541 16.472679 -1.9462754
-6.2668185 16.502174 -1.945159
-6.1602383 16.526348 -1.9434843
-6.0590601 16.56477 -1.9435959
-5.956635 16.599766 -1.9433726
-5.861927 16.656624 -1.9458288
-5.7635031 16.703552 -1.9471685
-5.6634507 16.746132 -1.9480616
-5.5634055 16.789057 -1.9490664
-5.4569101 16.812479 -1.9478383
-5.3539486 16.846594 -1.94795
-5.24369 16.857304 -1.9453822
-5.1381311 16.882505 -1.9446007
-5.0350122 16.915619 -1.944824
-4.9230728 16.918524 -1.9415864
-4.8208008 16.954149 -1.9422562
-4.7148199 16.976707 -1.9414747
-4.6105638 17.005318 -1.9414747
-4.5046096 17.027523 -1.9408048
-4.3973145 17.044256 -1.9395767
-4.2916808 17.067062 -1.9391302
-4.1835685 17.079561 -1.9375672
-4.0680871 17.060444 -1.9324317
-3.9586136 17.064756 -1.9300872
-3.3378389 14.800945 -1.6666112
-3.1801748 14.516341 -1.6315554
-3.0774002 14.471429 -1.6241871
-2.9321337 14.216553 -1.5928155
-2.8479638 14.249868 -1.5946019
-2.7672715 14.302198 -1.598621
-2.6765378 14.30328 -1.5968347
-2.5669758 14.199153 -1.5831027
-2.4553771 14.074645 -1.5671378
-2.3716073 14.105126 -1.5689241
-2.2805693 14.091945 -1.5657982
-2.1809223 14.021227 -1.5561968
-2.0443716 13.696242 -1.5177919
-1.9576212 13.689837 -1.5156707
-1.8719691 13.689776 -1.514331
-1.7824044 13.658633 -1.5095303
-1.6985631 13.669312 -1.5095303
-1.6218818 13.740664 -1.5164522
-1.5816135 14.144406 -1.5609975
-1.4799708 14.013514 -1.5451443
-1.4052659 14.13605 -1.5579832
-1.3553151 14.5392 -1.6025285
-1.2870228 14.787813 -1.6296575
-1.1884111 14.698361 -1.6187166
-1.1503215 15.403031 -1.6973128
-1.040907 15.192678 -1.6728631
-1.0014919 16.061663 -1.769992
-0.909949 16.19252 -1.7840589
-0.721578 14.420222 -1.5841074
-0.63303995 14.423386 -1.5839958
-0.60881776 16.12907 -1.7753508
-0.47628915 15.071709 -1.6561168
-0.3826372 15.02865 -1.6509812
-0.28928176 14.972095 -1.6443944
-0.2141068 16.237526 -1.7864034
-0.10490368 14.886076 -1.6344582
-0.013820699 15.161708 -1.6653831
0.07880199 15.083002 -1.6565634
0.17312756 15.239237 -1.6742028
0.28027511 16.018854 -1.7619537
0.38496312 16.288052 -1.7924322
0.47922364 16.094667 -1.7709968
0.53113145 14.786478 -1.6242987
0.62222522 14.791877 -1.6253035
0.71565324 14.843366 -1.6315554
0.77619863 14.277062 -1.5683659
0.85676563 14.155974 -1.5553037
0.93435603 14.011634 -1.5396738
1.0448517 14.34262 -1.5776322
1.1084211 14.026852 -1.5427998
1.1886485 13.951466 -1.5350964
1.2735074 13.935992 -1.5342033
1.3584142 13.921982 -1.5335335
1.4508878 13.981586 -1.5412368
1.5427319 14.027738 -1.5474888
1.6200608 13.942987 -1.539004
1.7036514 13.917002 -1.5372176
1.7904069 13.917129 -1.5384457
1.8782905 13.924593 -1.5405669
1.9645281 13.91871 -1.5412368
2.0448234 13.871984 -1.5373293
2.1317129 13.870962 -1.538669
2.2183528 13.867435 -1.5397854
2.3047037 13.861404 -1.5406786
2.4040751 13.930241 -1.5501682
2.5873182 14.462053 -1.6125762
2.5739348 13.894804 -1.54961
2.6585824 13.875821 -1.549275
2.7436726 13.859247 -1.549275
2.8346279 13.871361 -1.5526243
2.9196875 13.853706 -1.5526243
3.0122285 13.870491 -1.5566435
3.1232982 13.968123 -1.5700405
3.5551283 15.45368 -1.7435328
3.2985902 13.946152 -1.5720501
3.7590485 15.46876 -1.7504545
3.8264687 15.335485 -1.7377274
3.9069376 15.25877 -1.7315871
3.7597284 14.317555 -1.6250802
3.8668783 14.366186 -1.6334534
3.955219 14.343147 -1.6335651
4.0401821 14.308088 -1.632337
4.1516247 14.365132 -1.6419382
4.2605381 14.409907 -1.6501998
4.3416858 14.359714 -1.6474087
4.3642836 14.121077 -1.6225125
4.4466572 14.080766 -1.6209494
4.544868 14.090101 -1.6253035
4.7791953 14.511238 -1.6784452
4.8684611 14.482582 -1.6785569
4.9543314 14.443977 -1.6775521
4.9211187 14.065308 -1.6361328
5.0176802 14.063862 -1.6395937
5.1337686 14.114993 -1.6494182
5.4782686 14.779284 -1.7328151
5.5597215 14.721221 -1.7299124
5.617835 14.603355 -1.7198646
5.5819225 14.248461 -1.6812363
5.6732941 14.224095 -1.6824644
5.8980184 14.527861 -1.7235488
6.0003285 14.523544 -1.7274562
6.0527496 14.399423 -1.7168503
6.1702895 14.430543 -1.7252234
6.2702093 14.418839 -1.728461
6.3537412 14.369187 -1.7271214
6.4487157 14.34534 -1.7290193
6.5419841 14.317252 -1.7304707
6.6795135 14.384099 -1.7437561
6.8070827 14.426426 -1.7541388
6.8954735 14.384386 -1.7541388
6.9801245 14.334659 -1.7532457
7.0714726 14.298685 -1.7541388
7.1764674 14.28966 -1.7584928
7.2829714 14.28254 -1.7631818
7.395596 14.286123 -1.7693222
7.4576917 14.192092 -1.7631818
7.589992 14.231119 -1.7740111
7.6681828 14.167675 -1.7718899
7.7980213 14.19875 -1.7819377
7.9256263 14.223556 -1.7913157
8.0191078 14.185904 -1.792767
8.1193466 14.159708 -1.7957814
8.2180662 14.130239 -1.7984608
8.340457 14.140322 -1.8063874
8.4158411 14.070117 -1.8039312
8.519021 14.046253 -1.8076155
8.6341953 14.041122 -1.8138674
8.7596149 14.051128 -1.8222406
8.8695555 14.034919 -1.8272645
8.989274 14.03295 -1.834298
9.1120062 14.034206 -1.8418897
9.2350912 14.034482 -1.8494813
9.3778172 14.062712 -1.8609805
9.509552 14.072424 -1.8701352
9.6338959 14.069567 -1.8777269
9.7579966 14.064896 -1.8852069
9.8938284 14.075488 -1.8949199
10.024969 14.077657 -1.903628
10.145461 14.06343 -1.9102148
10.276708 14.062695 -1.9188113
10.415421 14.070461 -1.9287474
10.540306 14.05797 -1.9360043
10.682858 14.067425 -1.9464986
10.815622 14.062266 -1.9550951
10.973149 14.087365 -1.9681572
11.109848 14.083749 -1.9773118
11.259318 14.094512 -1.9886994
11.405586 14.099332 -1.9994171
11.554224 14.105191 -2.0104697
11.705265 14.112049 -2.0218573
11.837649 14.094752 -2.0298955
11.952879 14.05592 -2.0349193
12.040844 13.984572 -2.0352542
12.118589 13.901439 -2.0339146
12.176699 13.796271 -2.0293372
12.243906 13.70203 -2.0264347
12.302416 13.598641 -2.0221922
12.34334 13.47673 -2.0151587
12.423772 13.398553 -2.0148237
12.491467 13.306854 -2.0124793
12.541392 13.196821 -2.0073438
12.609729 13.10673 -2.0053341
12.656632 12.994939 -1.9999753
12.697059 12.877407 -1.9937234
12.750561 12.773936 -1.9897043
12.787027 12.654218 -1.9831173
12.842402 12.553985 -1.9796563
12.900604 12.457001 -1.9767537
12.964572 12.36595 -1.9748558
13.029355 12.275946 -1.9731811
13.084792 12.177488 -1.9701668
13.13366 12.073433 -1.9662594
13.194987 11.981262 -1.9643614
13.234225 11.869552 -1.9592259
13.293417 11.776262 -1.9572163
13.347476 11.678768 -1.9545369
13.409862 11.588853 -1.9531971
13.446705 11.477321 -1.9481733
13.505478 11.384989 -1.9464986
13.554461 11.284739 -1.9434843
13.605793 11.186841 -1.9409165
13.646406 11.080596 -1.9368974
13.698633 10.984221 -1.9346645
13.744739 10.883305 -1.9316502
13.783858 10.777339 -1.9277427
13.819051 10.668875 -1.9233886
13.87398 10.57605 -1.9219372
13.906853 10.466818 -1.9174716
13.946088 10.362915 -1.9140106
13.994988 10.266568 -1.9120011
14.045647 10.17176 -1.9103265
14.089202 10.072093 -1.9077587
14.163729 9.9946213 -1.9095449
14.219895 9.9041185 -1.9088751
14.257469 9.8009176 -1.9057491
14.286911 9.6926069 -1.9016184
14.312259 9.5820942 -1.8970411
14.350056 9.4804001 -1.89425
14.382982 9.3758907 -1.8909007
14.421853 9.2756357 -1.8884445
14.460876 9.1757889 -1.8861001
14.483212 9.065794 -1.8816344
14.503053 8.9548283 -1.8769454
14.53481 8.8517141 -1.8739311
14.554774 8.7418957 -1.8694654
14.573939 8.6321669 -1.8649997
14.607753 8.5315542 -1.8625436
14.639158 8.4298601 -1.8598641
14.656904 8.3207426 -1.8555101
14.699011 8.2257996 -1.8543936
14.733544 8.1268139 -1.8523841
14.742098 8.0139494 -1.8471369
14.800629 7.9285045 -1.8483649
14.827028 7.825943 -1.8455739
14.834211 7.7137284 -1.8404384
14.87861 7.6212029 -1.8401034
14.912671 7.5234995 -1.8385404
14.939864 7.4225693 -1.8361959
14.964597 7.3207159 -1.8336282
14.992223 7.2205639 -1.831507
15.015593 7.1186457 -1.8289392
15.023869 7.0099897 -1.8245851
15.03228 6.9019156 -1.8203428
15.083403 6.8136406 -1.8214592
15.120386 6.7189445 -1.8209009
15.14949 6.6208673 -1.8194495
15.175222 6.5215087 -1.8176633
15.214037 6.427886 -1.8175516
15.255944 6.335557 -1.8178866
15.296371 6.2425799 -1.8181099
15.350067 6.1548934 -1.8200078
15.378298 6.0569491 -1.8188914
15.426295 5.9667778 -1.8202311
15.480268 5.878715 -1.8223523
15.504873 5.7794538 -1.8210126
15.563375 5.6927438 -1.8238037
15.60456 5.5994911 -1.8245851
15.638623 5.5036383 -1.8245851
15.679614 5.410171 -1.8254783
15.718163 5.3157711 -1.8261482
15.751428 5.2195387 -1.8262597
15.793554 5.1261668 -1.8274878
15.837023 5.0330758 -1.8289392
15.858118 4.9328551 -1.8278228
15.855763 4.8256202 -1.8240269
15.913648 4.7367458 -1.8273762
15.950046 4.6412339 -1.8282694
15.987782 4.5459971 -1.8293858
16.026865 4.4510036 -1.8307254
16.070179 4.3570018 -1.8326234
16.087965 4.2560277 -1.8316185
16.119549 4.1587234 -1.8322885
16.162111 4.0640998 -1.834298
16.195431 3.9669824 -1.8353028
16.220432 3.8677649 -1.8354144
16.251604 3.7699621 -1.8363075
16.285093 3.6725783 -1.8375356
16.314117 3.5740745 -1.8383172
16.336712 3.4741123 -1.8384287
16.362587 3.3748107 -1.838987
16.390781 3.2759063 -1.8398801
16.416428 3.1764057 -1.8405499
16.442448 3.0768962 -1.8413315
16.462973 2.9763029 -1.8415548
16.481903 2.8754029 -1.8416665
16.497276 2.7738881 -1.8414432
16.549301 2.6783266 -1.8454622
16.576225 2.5784121 -1.8466903
16.602545 2.4782679 -1.8479184
16.61252 2.3756464 -1.8473601
16.627769 2.2738037 -1.8474718
6.6485701 0.86740696 -0.71530646
6.6508088 0.82622808 -0.71497154
6.572854 0.77561647 -0.70559359
6.5419359 0.73129505 -0.7015745
6.5403705 0.69051433 -0.70090461
6.54844 0.65076369 -0.70135117
6.5414257 0.60955608 -0.70012313
6.5400925 0.56897622 -0.69956493
6.5325651 0.527955 -0.69833684
6.5198259 0.48667744 -0.69655055
6.5177321 0.44632363 -0.69599235
6.5134053 0.40589011 -0.69521087
6.5157733 0.36591694 -0.69521087
6.5129333 0.32568157 -0.69465268
6.5187802 0.28588724 -0.69509923
6.5184255 0.24580836 -0.69487596
6.5198112 0.20580742 -0.69487596
6.5219445 0.16582406 -0.6949876
6.5268135 0.12587993 -0.69543415
6.5254755 0.085803539 -0.69521087
6.519917 0.045720175 -0.69454104
6.5220623 0.0057157208 -0.69476432
6.5338993 -0.034364991 -0.69610399
6.5345592 -0.074466862 -0.69621563
6.5419278 -0.11469964 -0.69710881
6.5579901 -0.15523674 -0.69900668
6.5648608 -0.1957093 -0.69989985
6.5744605 -0.23637894 -0.70112789
6.5857935 -0.27725723 -0.70257926
6.6127539 -0.31904873 -0.70581686
6.6116638 -0.35967174 -0.7059285
6.6371064 -0.40191358 -0.70905453
6.6870675 -0.4461334 -0.71497154
6.6970892 -0.48809436 -0.71642292
14.386462 -1.1368277 -1.583326
14.734685 -1.2553551 -1.6234056
14.71186 -1.3443857 -1.6217309
14.625199 -1.4270091 -1.6129112
14.571688 -1.5121063 -1.6078873
14.534477 -1.5984471 -1.6047612
10.60063 -1.2318035 -1.1609828
10.599777 -1.2976696 -1.1617644
10.576831 -1.3607826 -1.1600897
10.566312 -1.4253896 -1.1598665
10.589839 -1.4947786 -1.1635506
10.583418 -1.5601633 -1.1638856
13.846407 -2.1279399 -1.5358779
13.796782 -2.2070529 -1.5317472
13.822192 -2.2981853 -1.5362129
14.020333 -2.419621 -1.5604392
13.956312 -2.4968536 -1.5548571
13.879169 -2.5710392 -1.5478237
14.282813 -2.7365494 -1.59583
14.265754 -2.8241355 -1.59583
13.297891 -2.7174556 -1.486867
14.1921 -2.9909942 -1.5914758
14.179307 -3.0792842 -1.5921457
14.168874 -3.1681802 -1.5931505
14.154978 -3.2563958 -1.5938203
14.146336 -3.3459322 -1.59516
8.2843161 -2.0133562 -0.91983533
8.2583075 -2.060782 -0.91827232
13.841677 -3.544136 -1.5672494
13.872534 -3.6428807 -1.5733898
7.6374574 -2.0559337 -0.85061705
7.6160769 -2.1003802 -0.8496123
14.068998 -3.9726772 -1.6044264
14.035766 -4.0564451 -1.6034216
8.0163994 -2.3703732 -0.90119106
7.9646068 -2.4083009 -0.896837
7.952528 -2.4580057 -0.89717191
7.9372964 -2.5067551 -0.89717191
8.4684229 -2.7317221 -0.96170121
13.688171 -4.5081468 -1.5810931
13.631993 -4.5825524 -1.5777439
13.576359 -4.6567612 -1.5745062
7.7581768 -2.7145941 -0.88544947
13.472328 -4.8066521 -1.5690358
13.430441 -4.8848104 -1.5675844
13.382511 -4.9605646 -1.5654632
13.337876 -5.0373182 -1.5637885
13.28724 -5.1115708 -1.561444
13.23527 -5.1850295 -1.558988
13.121055 -5.2333784 -1.5490518
13.086854 -5.3130417 -1.5488285
13.027372 -5.3822374 -1.5455909
12.991354 -5.4609156 -1.5452559
12.957602 -5.5405264 -1.5452559
12.912426 -5.6151729 -1.5439162
12.86864 -5.6902781 -1.5427998
12.818074 -5.7622051 -1.5409019
12.752649 -5.8271184 -1.5372176
12.682405 -5.8893542 -1.5329752
12.625359 -5.9573078 -1.5304074
12.567957 -6.0247841 -1.5278397
12.543262 -6.1078768 -1.5294027
12.511784 -6.1878095 -1.5301841
12.414968 -6.2350297 -1.5228158
12.333982 -6.2894216 -1.517457
12.281038 -6.3576736 -1.5156707
12.228602 -6.4259758 -1.513996
12.183681 -6.4980822 -1.5133262
12.116488 -6.5580544 -1.5098653
12.068181 -6.6279712 -1.5088605
12.022945 -6.6994772 -1.5083023
11.971231 -6.7672544 -1.5069625
11.924309 -6.837615 -1.5062927
11.880412 -6.9096532 -1.5060694
11.841215 -6.9844394 -1.506516
11.771698 -7.0411515 -1.5030551
11.70703 -7.1003661 -1.500264
11.653085 -7.1658192 -1.4989244
11.582754 -7.2208896 -1.4954634
11.524789 -7.2833304 -1.4936771
11.46733 -7.3458676 -1.4920025
11.404537 -7.4047279 -1.489658
11.348927 -7.4680104 -1.4883183
11.289661 -7.5286846 -1.486532
11.249017 -7.6017094 -1.4873135
11.182483 -7.657115 -1.484634
11.13039 -7.7221866 -1.4839642
11.073855 -7.78405 -1.4827362
11.015362 -7.844358 -1.4812849
10.96541 -7.9106364 -1.4810616
10.903828 -7.968389 -1.4792752
10.840352 -8.0245018 -1.4772657
10.779778 -8.0825195 -1.4757028
10.747394 -8.1617327 -1.4781588
10.696324 -8.2269182 -1.4780473
10.651132 -8.296669 -1.4788287
10.58676 -8.3514042 -1.4769307
10.521341 -8.4050426 -1.4749212
10.472661 -8.4719419 -1.4753678
10.408181 -8.5259666 -1.4735816
10.337314 -8.5744429 -1.4709021
10.270809 -8.6262064 -1.4688926
10.210873 -8.6832714 -1.4678878
10.162673 -8.7502995 -1.4686693
10.102798 -8.8072672 -1.4677761
10.026216 -8.8493643 -1.4644269
9.9665403 -8.9060822 -1.4636453
9.919076 -8.9737349 -1.4647617
9.8557663 -9.0270452 -1.4635336
9.7841597 -9.072484 -1.4610776
9.7109194 -9.116025 -1.4583981
9.6475973 -9.1685934 -1.4572817
9.5911589 -9.2276173 -1.4572817
9.5400534 -9.2918406 -1.4581748
9.4807377 -9.3481092 -1.45784
9.4189806 -9.4018936 -1.4571701
9.3653078 -9.463748 -1.45784
9.3077583 -9.5217457 -1.4579515
9.2505388 -9.5801067 -1.4581748
6.9877706 -7.3262949 -1.0994679
9.128191 -9.6885643 -1.457505
9.0706024 -9.7465734 -1.45784
9.0106277 -9.8020468 -1.45784
8.9523182 -9.8593569 -1.4581748
8.8956347 -9.918541 -1.4588447
6.7430286 -7.6120033 -1.1044918
6.6693654 -7.6225719 -1.0999144
6.5262985 -7.5520749 -1.0833914
2.1326849 -2.4991357 -0.33114508
2.1153889 -2.5098953 -0.33081016
2.1012204 -2.5243552 -0.33103344
2.0837982 -2.5348978 -0.33069852
2.0669522 -2.546093 -0.33047521
2.0494258 -2.556402 -0.33014029
2.0411043 -2.5782776 -0.33148
2.0013733 -2.5602221 -0.32712594
1.9716582 -2.5543628 -0.32455817
1.9312468 -2.5340104 -0.31998083
1.9049051 -2.5315208 -0.31797129
1.8970414 -2.5535307 -0.31942263
1.8707569 -2.5507002 -0.31741306
1.8620656 -2.571789 -0.31875277
1.8664782 -2.6114602 -0.32266027
1.8555763 -2.6301711 -0.32366502
1.9013125 -2.7303898 -0.33583406
1.873827 -2.7264454 -0.33371285
1.8710108 -2.7584503 -0.33650392
1.8595787 -2.7781363 -0.33762032
1.8403062 -2.7861774 -0.33717376
1.8258893 -2.8015792 -0.33773199
7.2183208 -11.223285 -1.4611892
7.12749 -11.232963 -1.4566119
7.0515771 -11.265534 -1.4551605
6.975533 -11.297598 -1.4537091
6.911767 -11.349523 -1.4549372
6.8302288 -11.372125 -1.4523695
6.7486739 -11.394156 -1.4498017
6.674624 -11.428485 -1.4489086
6.6326418 -11.518311 -1.4552722
6.5657668 -11.565704 -1.4561653
6.4961333 -11.608376 -1.4565002
6.415184 -11.630613 -1.4542674
6.3422751 -11.667138 -1.4539324
6.2621207 -11.690066 -1.4519229
6.1698627 -11.689601 -1.4470106
6.0893092 -11.710487 -1.4448894
6.0209651 -11.754705 -1.4457825
5.9478312 -11.789654 -1.4455593
5.8780322 -11.831267 -1.4462291
5.8367696 -11.931382 -1.4542674
5.7712121 -11.983087 -1.4562769
5.7060909 -12.036231 -1.4585098
5.6317105 -12.070116 -1.4583981
5.5550556 -12.099026 -1.4577283
5.4815311 -12.134694 -1.4579515
5.3908281 -12.131775 -1.4534858
5.2963886 -12.119096 -1.4479038
5.199954 -12.100238 -1.4416518
5.0896401 -12.046784 -1.431269
5.014102 -12.074117 -1.4308225
4.9463062 -12.120296 -1.4327204
4.8662963 -12.136582 -1.4310458
4.7626004 -12.092245 -1.4221144
4.6750493 -12.086947 -1.4179837
4.6007972 -12.115405 -1.4179837
4.5145698 -12.111748 -1.4141878
4.4319749 -12.116822 -1.4115083
4.355866 -12.139112 -1.4109502
4.2819595 -12.167485 -1.4111735
4.205924 -12.189773 -1.4107269
4.1323233 -12.219115 -1.4111735
4.0622721 -12.259334 -1.4129597
3.9894283 -12.29159 -1.4138528
3.9043014 -12.285531 -1.4102802
3.8261886 -12.300716 -1.4092755
3.7497725 -12.32111 -1.4089406
3.6718328 -12.336267 -1.4080474
3.600235 -12.372876 -1.4097221
3.5285976 -12.410028 -1.4115083
3.4502573 -12.423785 -1.4106152
3.3721409 -12.438008 -1.4098337
3.2998261 -12.473836 -1.41162
3.2351429 -12.540036 -1.4169788
3.1598344 -12.566397 -1.4177604
3.0814869 -12.580722 -1.4172021
3.004235 -12.599393 -1.4172021
2.9378746 -12.665023 -1.4226726
2.8631692 -12.696383 -1.4242356
2.7815959 -12.697209 -1.4223377
2.6951592 -12.674186 -1.4177604
2.6105154 -12.657393 -1.4139645
2.5277374 -12.647837 -1.4110618
2.4487624 -12.65628 -1.4102802
2.3688653 -12.659345 -1.4089406
2.2900834 -12.667774 -1.4082707
2.2112875 -12.675714 -1.4076009
2.1344578 -12.694923 -1.4082707
2.0558879 -12.703857 -1.4078242
1.9760668 -12.70445 -1.4064845
1.897783 -12.71437 -1.4062612
1.818045 -12.71397 -1.4049214
0.38703936 -2.8327899 -0.28325048
0.36977902 -2.8360968 -0.28336215
0.35187984 -2.8343678 -0.28291556
0.33471489 -2.8384473 -0.28313884
0.32038507 -2.8681002 -0.28626484
0.86068279 -8.1512175 -0.8828817
0.19047113 -1.9195325 -0.17875323
0.27058312 -2.9061635 -0.28994903
0.25731418 -2.9602394 -0.29586607
0.63042021 -7.7994323 -0.84112746
0.14611939 -1.9612863 -0.18299565
0.13333492 -1.9512403 -0.18176758
0.1233396 -1.98376 -0.18534014
0.11110938 -1.9834872 -0.1852285
0.098638684 -1.9781767 -0.18455863
0.1024134 -2.3411136 -0.22530811
0.089809582 -2.3883708 -0.2305553
0.11602382 -3.6810975 -0.37580201
0.092194177 -3.6330621 -0.37033156
0.070150301 -3.6464758 -0.3717829
0.047551468 -3.6299453 -0.36988497
0.025193291 -3.6182442 -0.36854526
0.0030243159 -3.6531117 -0.37245277
-0.068280295 -13.058764 -1.4291478
-0.041895315 -3.6608233 -0.37334588
-0.064027086 -3.641619 -0.3712247
-0.087238297 -3.677916 -0.37535545
-0.10829681 -3.6266527 -0.36966169
-0.13051185 -3.6249268 -0.36955005
-0.55260557 -13.135767 -1.4390841
-0.63434261 -13.155951 -1.4417634
-0.72184795 -13.276839 -1.4558303
-0.2290338 -3.7793417 -0.38741285
-0.25109553 -3.761009 -0.38551491
-0.27330181 -3.747504 -0.38417521
-0.29550838 -3.7358499 -0.38305879
-0.31690758 -3.7161434 -0.38104922
-0.34160197 -3.7349112 -0.3833937
-1.2984058 -13.306789 -1.4640919
-1.3765438 -13.264965 -1.460296
-1.4523712 -13.205892 -1.4546024
-1.5324564 -13.188834 -1.4537091
-0.36245078 -2.9582238 -0.29687086
-0.38984951 -3.027895 -0.30502075
-1.8005935 -13.348465 -1.4752561
-1.8773266 -13.300757 -1.4711254
-1.9596276 -13.293904 -1.4716836
-2.0470464 -13.319937 -1.4760376
-0.48615587 -3.037081 -0.30758855
-0.50282633 -3.0222774 -0.30624881
-2.3003249 -13.328964 -1.4816197
-2.3799667 -13.30286 -1.48028
-2.4591942 -13.275304 -1.4788287
-2.5400426 -13.257036 -1.4784938
-0.55535549 -2.8036401 -0.28313884
-0.57612866 -2.8177049 -0.28514841
-0.58357155 -2.767442 -0.2797896
-0.59505874 -2.7385602 -0.27688688
-0.59623981 -2.6650312 -0.26884863
-3.044543 -13.233974 -1.4876485
-3.126374 -13.217946 -1.4879833
-3.2205586 -13.25259 -1.4942354
-3.3015738 -13.231616 -1.4941237
-3.3765376 -13.187041 -1.4913327
-0.73254097 -2.7883382 -0.28592992
-0.74808651 -2.7780335 -0.28526005
-3.6144695 -13.107328 -1.4895464
-3.7040071 -13.11742 -1.4933422
-0.79661131 -2.7552009 -0.28425527
-0.80645853 -2.7264366 -0.28146422
-0.92497498 -3.0581717 -0.32098562
-4.0297971 -13.038709 -1.4952401
-4.1363568 -13.098076 -1.5051763
-4.2349496 -13.129195 -1.5118748
-4.3247542 -13.13128 -1.5152241
-4.4071445 -13.110148 -1.5158939
-4.5184536 -13.1731 -1.5266117
-4.6103544 -13.177019 -1.5304074
-4.6684146 -13.084836 -1.5228158
-1.1762532 -3.2331302 -0.34856129
-1.1435734 -3.0842178 -0.33159164
-1.1628274 -3.0780725 -0.33170328
-1.1706321 -3.0421274 -0.32824236
-5.1317482 -13.099252 -1.5425766
-1.3105838 -3.285063 -0.35939059
-1.2548373 -3.0900431 -0.3367272
-1.2312777 -2.9794178 -0.32422325
-5.4212546 -12.896995 -1.5337567
-1.320097 -3.0865242 -0.33918333
-1.348125 -3.0993264 -0.3417511
-5.6026735 -12.670506 -1.5184617
-5.6925354 -12.663082 -1.521811
-5.7684755 -12.624299 -1.5213645
-5.8412247 -12.578753 -1.5201364
-5.9149041 -12.535484 -1.5192432
-1.3268412 -2.7671208 -0.30680704
-1.3655468 -2.8036005 -0.31238917
-1.3602576 -2.7497394 -0.3066954
-1.3490081 -2.6853936 -0.29966193
-6.3219228 -12.397724 -1.5254952
-6.3786879 -12.321634 -1.5208062
-1.4629222 -2.7832656 -0.31529185
-1.4495767 -2.717242 -0.30803511
-6.6204906 -12.231851 -1.5246021
-6.7485161 -12.287683 -1.5369943
-6.8353934 -12.266878 -1.5396738
-6.9071097 -12.218651 -1.5388923
-6.9839292 -12.179488 -1.5393388
-4.9462852 -8.5043821 -1.0673149
-7.1429615 -12.109986 -1.5415717
-7.2222333 -12.074458 -1.5426881
-7.2977309 -12.032466 -1.5430231
-7.3698616 -11.984921 -1.5426881
-7.4506207 -11.951282 -1.5442511
-5.1715484 -8.1829891 -1.0495638
-5.2248769 -8.1561232 -1.0502336
-5.2683301 -8.1139088 -1.0488939
-5.3557072 -8.138711 -1.0565972
-5.6382027 -8.4546013 -1.1037103
-8.00175 -11.841035 -1.5675844
-8.0860443 -11.808933 -1.5699289
-8.1657143 -11.769711 -1.5713803
-8.2412071 -11.724263 -1.5720501
-8.3216372 -11.685618 -1.5737247
-5.6653471 -7.8528843 -1.0498987
-1.7229712 -2.3571537 -0.29006067
-1.7385845 -2.348135 -0.29028398
-8.7585154 -11.68142 -1.6023052
-8.6833868 -11.434351 -1.5750644
-1.7463734 -2.2700474 -0.28380871
-1.7077533 -2.1918659 -0.27420747
-1.6682416 -2.1142464 -0.26460621
-1.6861447 -2.110182 -0.26549935
-8.5369396 -10.553014 -1.4869787
-8.6412029 -10.548865 -1.4940121
-1.6612595 -2.0022991 -0.25433511
-1.659454 -1.9753263 -0.25187898
-8.8358402 -10.390293 -1.494347
-1.6816242 -1.9525542 -0.25154406
-1.6968381 -1.9459448 -0.25210229
-1.6877038 -1.9116542 -0.24852972
-9.1106815 -10.195517 -1.4981428
-2.4143722 -2.6682763 -0.36631241
-2.452848 -2.6775956 -0.36999661
-1.7327586 -1.8682027 -0.24830644
-2.5093257 -2.672653 -0.37390411
-2.5407376 -2.6730535 -0.37636024
-9.5224924 -9.8976698 -1.5050646
-9.5712576 -9.826952 -1.5031668
-9.6850967 -9.8225279 -1.5117632
-3.2388008 -3.244313 -0.47706166
-9.8027859 -9.70084 -1.5114282
-3.2790802 -3.2050183 -0.4771733
-3.1099625 -3.0025978 -0.44769973
-3.350522 -3.1954033 -0.4821972
-10.071175 -9.4886932 -1.5165638
-10.129934 -9.4273968 -1.5166755
-3.1651554 -2.9092298 -0.44502029
-3.5316648 -3.2064102 -0.49793878
-3.5586703 -3.1913152 -0.49905521
-3.5335548 -3.1298811 -0.49235666
-3.4360259 -3.0060549 -0.47494045
-3.4062865 -2.9433284 -0.46779534
-3.4144564 -2.9139853 -0.466344
-10.597028 -8.9330797 -1.5191315
-3.405664 -2.8349862 -0.45986873
-3.8397942 -3.1567492 -0.52049053
-3.8914921 -3.1594391 -0.52517951
-10.673516 -8.558423 -1.499036
-10.667397 -8.4465017 -1.4906628
-10.706498 -8.3710947 -1.4888765
-3.9245944 -3.0295839 -0.51903921
-10.773645 -8.2125711 -1.4839642
-10.827804 -8.1492987 -1.4845225
-10.870424 -8.0773726 -1.4835176
-10.924589 -8.0140476 -1.4841875
-10.983215 -7.9538593 -1.4855273
-11.085167 -7.9244623 -1.4928956
-11.200161 -7.9032793 -1.5020503
-11.31694 -7.8821177 -1.5114282
-11.430603 -7.8575668 -1.5203596
-11.546034 -7.8330321 -1.5295143
-11.713614 -7.842206 -1.5457025
-11.852715 -7.8304424 -1.5579832
-12.015421 -7.8324604 -1.5733898
-5.6970415 -3.6638496 -0.72300982
-5.7236104 -3.6314864 -0.72356802
-3.1497426 -1.9712156 -0.37948623
-3.3968394 -2.0969968 -0.41052282
-12.242388 -7.4555516 -1.572385
-3.4632077 -2.0797155 -0.41588163
-12.415037 -7.3533769 -1.5831027
-7.5841885 -4.4292669 -0.94875067
-7.6017504 -4.377193 -0.94752264
-7.7045135 -4.3736424 -0.95734715
-7.8179231 -4.3748174 -0.9685114
-8.0142975 -4.4203625 -0.99028164
-7.7976823 -4.2386808 -0.95913345
-7.8314271 -4.1949787 -0.9601382
-7.9765406 -4.2099357 -0.97532159
-7.9061213 -4.1109381 -0.96315259
-7.9179296 -4.0555539 -0.96147794
-7.9364543 -4.0037603 -0.96069646
-7.6707478 -3.810837 -0.92430103
-7.6948791 -3.7641351 -0.92441267
-8.1923447 -3.9453995 -0.98358309
-8.1975422 -3.8861177 -0.9812386
-8.1185713 -3.7878418 -0.9685114
-8.2211332 -3.774447 -0.97833592
-5.7600136 -2.6017034 -0.6721009
-5.7876744 -2.571558 -0.67355222
-8.105279 -3.5420914 -0.95578414
-8.4080648 -3.6131465 -0.99017
-8.1893282 -3.4597654 -0.9608081
-8.7408609 -3.6297574 -1.0253373
-8.4271431 -3.4389937 -0.98458791
-8.4324055 -3.3809333 -0.98268998
-8.2967329 -3.2675805 -0.96382242
-8.1127253 -3.137738 -0.93926108
-8.514576 -3.2332623 -0.98525774
-8.5137691 -3.1733205 -0.98280162
-8.5228138 -3.1172659 -0.98157358
-8.3986731 -3.013556 -0.96449226
-8.581048 -3.0197012 -0.98402971
-8.5787487 -2.9598608 -0.98157358
-8.5995731 -2.9081218 -0.9819085
-7.7928114 -2.5820837 -0.88433307
-8.7830086 -2.8505425 -0.99943632
-8.6980515 -2.7640886 -0.98737895
-8.7281322 -2.7147989 -0.98894197
-8.713253 -2.651644 -0.98525774
-8.7188816 -2.5950119 -0.98402971
-8.7499075 -2.5459077 -0.98581594
-8.8313179 -2.5109265 -0.99351931
-8.9193287 -2.4769032 -1.0020041
-8.8135099 -2.3893604 -0.98793715
-8.9038992 -2.3553166 -0.99675691
-9.0124826 -2.3249698 -1.0076978
-9.0448904 -2.2742314 -1.009819
-9.0741177 -2.2224734 -1.0116054
-9.0624504 -2.1607602 -1.0087026
-9.102644 -2.1114018 -1.0118287
-9.0747128 -2.0463264 -1.0071397
-9.4355869 -2.0669618 -1.0472193
-9.2964582 -1.9767774 -1.029803
-9.4106054 -1.9407781 -1.0415255
-9.4681368 -1.8921541 -1.0467727
-9.7146997 -1.8795244 -1.0736785
-10.143138 -1.8979415 -1.1213498
-10.367773 -1.8742143 -1.1456878
-10.82842 -1.8889661 -1.1969317
-11.383699 -1.9139534 -1.2588933
-11.984798 -1.9394983 -1.3259903
-13.211129 -2.0548925 -1.4640919
-13.550779 -2.0226548 -1.5012689
-14.652916 -2.0953684 -1.6249685
-15.365535 -2.1011658 -1.7043463
-15.878716 -2.0721836 -1.7610606
-17.015354 -2.1144452 -1.888333
-17.373421 -2.0507822 -1.9274077
-17.423206 -1.9483397 -1.9316502
-17.259912 -1.8229178 -1.9118894
-17.450748 -1.7348751 -1.9322084
-17.479864 -1.6295196 -1.9343296
-17.426174 -1.5167184 -1.9271845
-17.437132 -1.4099251 -1.9274077
-17.432573 -1.3019439 -1.9259564
-17.456097 -1.1960423 -1.9277427
-17.457155 -1.08854 -1.9270729
-17.455568 -0.98095816 -1.9261796
-17.451334 -0.87333745 -1.9250633
-17.447428 -0.76584923 -1.9240584
-17.444849 -0.65851682 -1.923277
-17.452534 -0.5515905 -1.9237236
-15.577435 1.148236 -1.9129242
-15.560205 1.2430048 -1.9116846
-15.520648 1.335732 -1.9077183
-15.508208 1.4305749 -1.9072225
-15.491238 1.5249263 -1.9062309
-15.469747 1.6187099 -1.9047436
-15.450647 1.7126155 -1.903628
-15.427036 1.8058859 -1.9020168
-15.406801 1.899417 -1.9009012
-15.389936 1.993278 -1.9002814
-15.370533 2.0867364 -1.8994138
-15.349581 2.1798921 -1.8984222
-15.327083 2.2727239 -1.8973067
-15.31579 2.3671811 -1.8976785
-15.301957 2.4612701 -1.8978025
-15.277759 2.5536418 -1.8966869
-15.251048 2.6454701 -1.8953235
-15.194488 2.731797 -1.8902416
-15.174513 2.8244321 -1.8898698
-15.162743 2.9186139 -1.8906136
-15.158175 3.0143063 -1.8923488
-15.142309 3.107857 -1.8927206
-15.115189 3.1990657 -1.891729
-15.06716 3.2856174 -1.8881346
-15.038971 3.3762665 -1.887143
-15.004436 3.465353 -1.8854077
-14.975167 3.5555189 -1.8844161
-14.936681 3.6433392 -1.882309
-14.917894 3.7358849 -1.8828048
-14.902379 3.8293252 -1.8837963
-14.876683 3.9201865 -1.8835485
-14.846601 4.0098414 -1.8828048
-14.81885 4.100069 -1.8824329
-14.767636 4.1836143 -1.8790864
-14.747406 4.2758064 -1.87983
-14.69711 4.359158 -1.8767314
-14.671036 4.449544 -1.8768553
-14.633032 4.5362473 -1.8754919
-14.597355 4.6235509 -1.8745003
-14.563046 4.7111983 -1.8737566
-14.531038 4.7995334 -1.8733847
-14.507896 4.8908229 -1.8742524
-14.475738 4.979104 -1.8740045
-14.446787 5.0684891 -1.8742524
-14.389256 5.1476765 -1.8707819
-14.360195 5.2368908 -1.8711537
-14.322211 5.3228302 -1.87041
-14.295777 5.4130692 -1.8712777
-14.264146 5.501399 -1.8715255
-14.234739 5.5906329 -1.8721453
-14.204775 5.6797128 -1.8727651
-14.174253 5.7686353 -1.8733847
-14.154175 5.8619537 -1.8754919
-14.135313 5.9560142 -1.8778468
-14.132247 6.0571003 -1.8824329
-14.122103 6.1555972 -1.8861514
-14.101303 6.2497735 -1.8885064
-14.083497 6.3455567 -1.8913572
-14.052416 6.4355712 -1.8924727
-14.01986 6.5250244 -1.8934643
-14.015439 6.6278968 -1.8984222
-14.009389 6.7305303 -1.9032562
-13.977636 6.8211513 -1.9046196
-13.942632 6.9103136 -1.9056112
-13.906173 6.998857 -1.9064789
-13.829391 7.0668917 -1.9017688
-13.828928 7.1740074 -1.9078423
-13.807475 7.2707477 -1.9110649
-13.793232 7.3717041 -1.9154031
-13.773035 7.4699202 -1.9189975
-13.746066 7.564816 -1.9217244
-13.724514 7.6630483 -1.925319
-13.69623 7.7578764 -1.9280457
-13.66902 7.8536348 -1.9310205
-13.642006 7.9498501 -1.9341192
-13.616034 8.047039 -1.9374658
-13.597892 8.1493101 -1.9420519
-13.574768 8.2490835 -1.9460182
-13.541637 8.343153 -1.9486212
-13.520486 8.445013 -1.9530833
-13.483503 8.5373697 -1.9553143
-13.451742 8.6333427 -1.958413
-13.415151 8.7265415 -1.960892
-13.379578 8.8207083 -1.9636188
-13.340879 8.9131126 -1.9659739
-13.306479 9.0087118 -1.9690725
-13.263226 9.0986099 -1.9709318
-13.225887 9.1928473 -1.9737825
-13.191948 9.2898254 -1.9772531
-13.151661 9.3826981 -1.979856
-13.104297 9.4707756 -1.9814672
-13.059548 9.5609694 -1.9835744
-13.014984 9.6515617 -1.9858055
-12.973765 9.7449465 -1.9886563
-12.929521 9.8363857 -1.9911352
-12.887 9.9294662 -1.993986
-12.842258 10.021173 -1.9965889
-12.798433 10.113935 -1.9994397
-12.751629 10.204675 -2.0019188
-12.703421 10.294597 -2.0042737
-12.653822 10.38368 -2.0065048
-12.590634 10.461761 -2.0066288
-12.578593 10.582903 -2.0151811
-12.522485 10.667606 -2.0166686
-12.462053 10.748779 -2.0175362
-12.398108 10.827001 -2.0179079
-12.351511 10.920618 -2.0212545
-12.298318 11.008776 -2.0236096
-12.24083 11.093359 -2.0253448
-12.189348 11.183689 -2.0281956
-12.129221 11.266376 -2.0296831
-12.066369 11.346705 -2.0307984
-12.01808 11.441056 -2.034517
-11.971229 11.537308 -2.0386074
-11.917256 11.627176 -2.0415821
-11.860514 11.714725 -2.0441849
-11.798935 11.797805 -2.0460441
-11.736782 11.880569 -2.0479033
-11.668514 11.957332 -2.0487709
-11.602501 12.036563 -2.0501344
-11.536637 12.116152 -2.0516217
-11.469555 12.194663 -2.0529852
-11.403294 12.274261 -2.0545964
-11.339841 12.35716 -2.0568275
-11.269135 12.432388 -2.0578191
-11.199921 12.509434 -2.0591826
-11.132155 12.588326 -2.0609179
-11.060579 12.663121 -2.0620334
-10.987208 12.73601 -2.062901
-10.917864 12.813761 -2.0646362
-10.844785 12.887343 -2.0657518
-10.780725 12.97196 -2.0687265
-10.740585 13.08619 -2.0765352
-10.605108 13.084006 -2.0656278
-10.507886 13.127914 -2.0622814
-10.402527 13.161001 -2.0573235
-10.310588 13.210502 -2.0550923
-10.217829 13.258583 -2.0527372
-10.128472 13.310762 -2.051126
-10.035881 13.358378 -2.0488949
-9.9348116 13.394201 -2.0449286
-9.8430605 13.442098 -2.0429454
-9.7633018 13.506262 -2.0435653
-9.6664143 13.546527 -2.0405905
-9.5842543 13.607206 -2.0408382
-9.4920864 13.653537 -2.0389791
-9.4098158 13.713977 -2.039351
-9.3444061 13.799393 -2.0435653
-9.2457771 13.835843 -2.0404665
-9.1639843 13.897284 -2.0412102
-9.0888214 13.969055 -2.0435653
-9.0024014 14.023725 -2.0434413
-8.9002581 14.053548 -2.0397227
-8.8028202 14.090221 -2.0371199
-8.6943369 14.108487 -2.031914
-8.6039972 14.155633 -2.0310464
-8.4970837 14.174966 -2.0262125
-8.4023743 14.214023 -2.0243533
-8.3179979 14.270455 -2.0250969
-8.2421446 14.341874 -2.0280716
-8.1334476 14.355914 -2.0228658
-8.0273094 14.373494 -2.0182798
-7.9313087 14.408569 -2.0162966
-7.8365998 14.445624 -2.0146854
-7.7412672 14.481185 -2.0129499
-7.640245 14.505584 -2.0097275
-7.5437851 14.538098 -2.0077443
-7.4472141 14.569975 -2.0057611
-7.3478599 14.595896 -2.0030341
-7.2414169 14.606922 -1.9983242
-7.1560063 14.659997 -1.9995637
-7.0633411 14.698263 -1.9988199
-6.9781122 14.75209 -2.0003073
-6.8903947 14.800927 -2.0011749
-6.7969689 14.837514 -2.0004313
-6.6858249 14.834611 -1.9943578
-6.6284513 14.951557 -2.0047696
-6.5175524 14.948285 -1.9988199
-6.4167175 14.967018 -1.9959692
-6.3209076 14.996964 -1.9947298
-6.2306676 15.040051 -1.9953494
-6.1397624 15.081675 -1.9958452
-6.0482125 15.121827 -1.9962171
-5.9520483 15.150341 -1.9951016
-5.8539758 15.173616 -1.9933662
-5.7611136 15.210177 -1.9934902
-5.6676774 15.245241 -1.9934902
-5.5747075 15.281594 -1.9937382
-5.4821734 15.31925 -1.994234
-5.3884015 15.353536 -1.9943578
-5.293447 15.384433 -1.99411
-5.1973653 15.411922 -1.9934902
-5.1011457 15.438811 -1.9928705
-5.0072351 15.472652 -1.9932424
-4.9140005 15.50876 -1.993986
-4.818748 15.538621 -1.993986
-4.7172656 15.547955 -1.9913831
-4.6166968 15.559483 -1.9891521
-4.5175462 15.575128 -1.9875407
-4.4202709 15.596826 -1.9867971
-4.3226347 15.61696 -1.9859294
-4.226212 15.641273 -1.9856815
-4.1301594 15.66691 -1.9856815
-4.0304937 15.678503 -1.9839462
-3.9320464 15.694275 -1.9828308
-3.8429646 15.747991 -1.9866731
-3.4862888 14.676463 -1.8461162
-3.3867905 14.656971 -1.8409104
-3.295054 14.669731 -1.8399189
-3.1578279 14.473475 -1.8122785
-3.032794 14.321721 -1.7904637
-2.9193203 14.215642 -1.7745984
-2.8397825 14.272216 -1.7795563
-2.7497177 14.276705 -1.7779449
-2.6506245 14.23185 -1.7701362
-2.5247891 14.033965 -1.7429916
-2.4320157 14.011063 -1.7381576
-2.3273468 13.914149 -1.7240276
-2.2602105 14.041812 -1.7384056
-2.1844692 14.12308 -1.7469579
-2.1249936 14.319768 -1.7701362
-1.9500085 13.719502 -1.6927928
-1.859782 13.686963 -1.6872151
-1.7742356 13.686308 -1.6857277
-1.6931392 13.720572 -1.6887025
-1.6099581 13.739573 -1.689818
-1.5411512 13.889239 -1.7074186
-1.4543499 13.883631 -1.7055594
-1.3681618 13.882419 -1.7043198
-1.2906141 13.973552 -1.7147315
-1.2971134 15.052884 -1.8490909
-1.2001415 15.00319 -1.841902
-1.1080612 15.010271 -1.841902
-1.0164742 15.024708 -1.8428936
-0.92621166 15.062356 -1.8468599
-0.83355433 15.063792 -1.8463641
-0.70855027 14.405581 -1.763443
-0.62001818 14.406683 -1.7630712
-0.55018818 14.914949 -1.8261607
-0.45601517 14.831757 -1.8153771
-0.36543858 14.852131 -1.8176082
-0.27448317 14.864015 -1.8188477
-0.18354154 14.887248 -1.8215746
-0.091912575 14.842449 -1.8158729
-0.00083883258 14.863572 -1.8184758
0.08476539 13.954378 -1.7049396
0.18269458 14.954739 -1.830003
0.27450657 14.956313 -1.8303748
0.36634472 14.957323 -1.8307467
0.45774871 14.942892 -1.8292593
0.54972035 14.947735 -1.8302509
0.64117175 14.938132 -1.8295072
0.73150319 14.907157 -1.8261607
0.77337193 14.005736 -1.7139878
0.85314715 13.900696 -1.7014691
0.93808943 13.890248 -1.7008493
1.0567434 14.337467 -1.7576175
1.1585371 14.503812 -1.7793083
1.2004172 13.949718 -1.7107651
1.2883601 13.96778 -1.7139878
1.373165 13.950725 -1.7128723
1.4618394 13.971643 -1.7165908
1.550494 13.989039 -1.7199373
1.6338756 13.958566 -1.7173344
1.714026 13.90396 -1.7117567
1.7962462 13.869564 -1.708782
1.8846534 13.882863 -1.7118807
1.9808297 13.948649 -1.7216725
2.065506 13.930343 -1.7209289
2.1507905 13.916427 -1.7208049
2.2506437 13.993098 -1.7322081
2.3251686 13.911495 -1.7236557
2.4106538 13.897943 -1.7237797
2.5120454 13.972739 -1.7351829
2.5884693 13.907311 -1.7288616
2.6716902 13.880448 -1.7274982
2.767457 13.917321 -1.7343153
2.8653734 13.961315 -1.742124
2.9415298 13.898815 -1.7364224
3.0309856 13.899895 -1.7389014
3.1329591 13.955585 -1.7484453
3.2221038 13.951568 -1.7504284
3.322782 13.995253 -1.7586091
3.4678674 14.217531 -1.7898439
3.5740883 14.272026 -1.7996358
3.673203 14.294996 -1.8054613
3.7509823 14.234768 -1.8006274
3.8499007 14.254592 -1.806205
3.933852 14.218268 -1.8045937
3.9993763 14.117488 -1.7946779
4.1044426 14.156534 -1.8029823
4.1971555 14.151061 -1.8055853
4.2879386 14.138335 -1.8073206
4.3578572 14.057735 -1.8002555
4.4386373 14.013705 -1.7980244
4.5303445 14.004144 -1.8003795
4.6392221 14.045805 -1.8095516
4.72405 14.013314 -1.8090558
4.8218899 14.018782 -1.8136419
4.9065022 13.985186 -1.8131461
5.004591 13.989385 -1.8177322
5.0913539 13.96121 -1.818104
5.1769228 13.929708 -1.818104
5.270731 13.919951 -1.8210788
5.363543 13.906791 -1.8236817
5.4716296 13.931805 -1.8314904
5.5717497 13.934822 -1.8364483
5.6732345 13.939892 -1.841778
5.7613196 13.911237 -1.8426456
5.85813 13.903056 -1.8463641
5.9577932 13.900594 -1.8509502
6.0679569 13.921081 -1.8587589
6.1705527 13.922594 -1.8640887
6.2770643 13.931513 -1.8705339
6.3768916 13.924311 -1.8748721
6.4844041 13.932599 -1.8814414
6.588439 13.932017 -1.8868951
6.7030249 13.952147 -1.8953235
6.8033061 13.941075 -1.8995378
6.9120765 13.946188 -1.9061069
7.0095654 13.927444 -1.9094536
7.1246958 13.942489 -1.9176341
7.2379885 13.952237 -1.925195
7.3479686 13.954096 -1.9317642
7.45263 13.944626 -1.936846
7.5664411 13.950969 -1.9442829
7.6849155 13.964261 -1.9528353
7.7946444 13.960162 -1.9590328
7.9051003 13.956103 -1.9653541
8.0182714 13.955516 -1.9722952
8.1312323 13.953205 -1.9791123
8.2394161 13.94149 -1.98469
8.3482714 13.929823 -1.9903915
8.4897614 13.970763 -2.003902
8.6070786 13.96994 -2.0114627
8.7362709 13.986715 -2.0217505
8.8500643 13.977279 -2.0283196
8.9699659 13.976155 -2.0362523
9.0945158 13.98074 -2.0451765
9.2167263 13.980178 -2.0534811
9.3365145 13.974514 -2.0611658
9.4376621 13.93997 -2.0646362
9.5297556 13.891618 -2.0661237
9.6000872 13.811699 -2.062901
9.639514 13.688443 -2.0531092
9.7152538 13.61773 -2.051374
9.8102541 13.573946 -2.0538528
9.8523216 13.457454 -2.0451765
9.9217052 13.379213 -2.0424497
9.9869232 13.295869 -2.0389791
10.04909 13.20907 -2.0350127
10.107539 13.11808 -2.0304267
10.172578 13.036258 -2.027328
10.241915 12.960361 -2.0252209
10.313805 12.887977 -2.0237336
10.382693 12.812116 -2.0217505
10.442856 12.725924 -2.0181558
10.505523 12.643291 -2.0151811
10.562458 12.554297 -2.0112147
10.617411 12.46357 -2.0070004
10.676187 12.377901 -2.003654
10.731047 12.288245 -1.9996877
10.789153 12.202842 -1.996465
10.84794 12.118669 -1.9934902
10.912766 12.041585 -1.991755
10.979737 11.967088 -1.9905155
11.043504 11.889315 -1.9887803
11.104691 11.809041 -1.9866731
11.157782 11.720559 -1.9832026
11.208829 11.630443 -1.9794841
11.258497 11.539432 -1.9756417
11.315143 11.456015 -1.9731628
11.390836 11.391984 -1.9741544
11.416046 11.277946 -1.9663457
11.485742 11.208379 -1.9664696
11.541438 11.125298 -1.9642385
11.587924 11.033745 -1.9605201
11.632277 10.940682 -1.9565538
11.681012 10.852219 -1.9534551
11.726177 10.760885 -1.9498606
11.775073 10.673407 -1.9470098
11.82038 10.583085 -1.9436632
11.883608 10.509043 -1.9434153
11.938898 10.428096 -1.9419279
11.956824 10.315108 -1.9343671
12.022158 10.243479 -1.934739
12.055931 10.145244 -1.9300289
12.104218 10.059664 -1.9277979
12.150373 9.9726143 -1.925319
12.194375 9.8841286 -1.922592
12.243947 9.8004389 -1.9208568
12.289838 9.7140522 -1.9186257
12.336694 9.6286926 -1.9166425
12.372748 9.5352507 -1.913048
12.408911 9.4423304 -1.9095775
12.438846 9.3451548 -1.9052393
12.474432 9.252696 -1.9018928
12.514157 9.1636696 -1.8992898
12.546826 9.0698557 -1.8956953
12.586086 8.9811726 -1.8932164
12.626354 8.8934927 -1.8909854
12.653798 8.7971611 -1.8868951
12.684628 8.7036352 -1.8834245
12.714787 8.6100636 -1.879954
12.74675 8.5181026 -1.8768553
12.777237 8.4255285 -1.8736327
12.812891 8.3366899 -1.8712777
12.848771 8.2482662 -1.8690466
12.886564 8.1613102 -1.8671874
12.927983 8.076829 -1.8659478
12.962936 7.988503 -1.8638408
12.983726 7.8918076 -1.8597505
13.011477 7.7997499 -1.8567758
13.04884 7.7137074 -1.8552884
13.080493 7.6245022 -1.8530573
13.114124 7.5366831 -1.8511981
13.150624 7.4506946 -1.8498347
13.184831 7.3635745 -1.8482233
13.214986 7.2744017 -1.8461162
13.23931 7.1822977 -1.8432654
13.262128 7.0897017 -1.8402907
13.28782 6.9989462 -1.8378117
13.317303 6.9104276 -1.8359525
13.344433 6.8209076 -1.8338454
13.371852 6.731761 -1.8318622
13.394235 6.6403322 -1.8292593
13.422243 6.5519285 -1.8275241
13.458614 6.4677291 -1.8270283
13.49087 6.3816328 -1.8260367
13.521676 6.2949657 -1.8249211
13.569971 6.2164249 -1.8262845
13.618715 6.1379361 -1.8277719
13.677893 6.0639081 -1.8307467
13.728486 5.9858155 -1.832606
13.776813 5.9065485 -1.8342172
13.816453 5.8234458 -1.834713
13.852841 5.7389398 -1.834837
13.893309 5.6560769 -1.8355807
13.933281 5.5729332 -1.8363243
13.975526 5.4906001 -1.8374399
14.016358 5.4076014 -1.8384315
14.04742 5.3207941 -1.8381835
14.083523 5.2358832 -1.8386793
14.132165 5.1554899 -1.8409104
14.161663 5.0680108 -1.8406625
14.190621 4.9803643 -1.8404146
14.223728 4.8941669 -1.8407865
14.245028 4.8039465 -1.8396709
14.27612 4.7170725 -1.8399189
14.301019 4.6281652 -1.8394231
14.328201 4.540029 -1.8392991
14.351049 4.4505582 -1.8386793
14.377138 4.3621302 -1.8385555
14.407438 4.27496 -1.8390512
14.442928 4.1892409 -1.8402907
14.465497 4.0997305 -1.8399189
14.488467 4.0103655 -1.8396709
14.530045 3.926048 -1.841902
14.565375 3.839854 -1.8433894
14.581935 3.7486813 -1.8425218
14.625837 3.6644416 -1.8452486
14.648046 3.57463 -1.8452486
14.678393 3.4867475 -1.8463641
14.708213 3.3986268 -1.8474797
14.76074 3.3154888 -1.8515699
14.742995 3.2166097 -1.846736
14.765367 3.1267045 -1.8471078
14.781358 3.0354483 -1.846736
14.80749 2.946243 -1.8477275
14.83211 2.8566437 -1.8485951
14.866919 2.7688506 -1.8508263
14.898277 2.6802111 -1.8526855
14.929108 2.591291 -1.8545446
14.948642 2.5002933 -1.8550404
14.964681 2.4086807 -1.8551644
14.987024 2.3180265 -1.856156
15.008818 2.2271888 -1.8571476
15.03399 2.1367292 -1.8586349
7.024363 0.95504051 -0.8473444
6.4908228 0.84205967 -0.77942097
6.4850345 0.80088097 -0.77805752
6.4632163 0.75795871 -0.77471095
6.4411168 0.71533442 -0.77136433
6.4207125 0.67321658 -0.76826566
6.4089222 0.63225132 -0.7662825
6.4008241 0.59182084 -0.76479512
6.3934598 0.55159873 -0.76343167
6.3947458 0.51220071 -0.76318377
6.4294353 0.47528887 -0.7671501
6.3946095 0.43328738 -0.76244009
6.4169559 0.39525914 -0.76491904
6.3746758 0.35341436 -0.75934142
6.3588843 0.3134174 -0.75711036
6.352757 0.27405342 -0.75611877
6.3691931 0.23561603 -0.75797796
6.3705187 0.19653095 -0.75797796
6.3845005 0.15775478 -0.75958931
6.3942776 0.11874144 -0.76070482
6.3988547 0.079553276 -0.76120061
6.3972378 0.040277008 -0.76095271
6.3963723 0.0010235582 -0.76082879
6.4002271 -0.038248304 -0.76132458
6.4028487 -0.077555232 -0.7616964
6.4141579 -0.11706036 -0.76318377
6.4242306 -0.15668279 -0.76454723
6.4380255 -0.19655508 -0.76640642
6.4505811 -0.23656599 -0.76814169
6.4618959 -0.27669573 -0.76975304
6.4739518 -0.31702194 -0.77148831
6.4887276 -0.35767081 -0.77359539
6.5012674 -0.39839122 -0.77545464
6.5135508 -0.43927893 -0.77731383
6.5790153 -0.48427537 -0.78586626
13.638321 -1.0893338 -1.670854
13.517688 -1.1632034 -1.6566
13.469785 -1.2423843 -1.6515181
13.334519 -1.3124605 -1.6355288
13.261081 -1.3874345 -1.6273483
13.235552 -1.4669172 -1.6252412
10.607694 -1.2413688 -1.2959117
10.594954 -1.3058256 -1.2952919
10.581821 -1.3701727 -1.2946723
10.559449 -1.433206 -1.2929369
10.583858 -1.5027168 -1.2971512
10.579347 -1.5683578 -1.2977709
12.953444 -2.0018797 -1.5990882
12.919364 -2.0778544 -1.5963613
12.870159 -2.1510315 -1.5917752
12.83521 -2.2262282 -1.5890484
12.843771 -2.3089819 -1.5918992
12.84497 -2.3906527 -1.5938823
12.830059 -2.4694228 -1.5938823
12.815639 -2.5482938 -1.5940063
12.82309 -2.631671 -1.596981
12.808642 -2.7107134 -1.5972289
12.799524 -2.7909467 -1.5982205
12.779254 -2.8687782 -1.5978487
12.756577 -2.9460194 -1.5972289
12.755638 -3.0283642 -1.59946
8.2715349 -2.0170496 -1.0253335
12.791631 -3.2032342 -1.609004
12.792878 -3.2870965 -1.6117308
12.816606 -3.3771646 -1.6174325
7.5920887 -2.0499191 -0.94414765
12.664219 -3.503752 -1.6031784
12.616705 -3.5740876 -1.5998318
12.451585 -3.6099761 -1.5812397
8.0180006 -2.3775852 -1.0064934
7.9757242 -2.4183841 -1.0028989
7.9389367 -2.4605172 -1.0000482
7.936933 -2.5133791 -1.0017834
8.4887609 -2.7456353 -1.0762761
12.56561 -4.1501961 -1.6148295
12.539908 -4.2272191 -1.6148295
12.453683 -4.283422 -1.6068969
12.403758 -4.3515415 -1.6037982
7.7147856 -2.7593489 -0.98529834
12.338238 -4.4993467 -1.6023108
12.300167 -4.5711646 -1.6009474
12.264463 -4.6437392 -1.5999558
12.215371 -4.7110481 -1.5972289
12.134515 -4.765594 -1.5902878
12.082011 -4.8307486 -1.5871892
12.04479 -4.9017982 -1.5861976
11.986068 -4.9638395 -1.5823551
11.941669 -5.0315104 -1.580496
11.902363 -5.1011696 -1.5793804
11.854466 -5.1669669 -1.5771494
11.808931 -5.2335753 -1.5752902
11.76574 -5.3010426 -1.5738028
11.722167 -5.3681774 -1.5723155
11.658422 -5.4257641 -1.5681012
11.603382 -5.4870138 -1.5651264
11.550714 -5.5490828 -1.5625235
11.509314 -5.6163697 -1.5615319
11.455966 -5.677629 -1.5589291
11.420913 -5.7478147 -1.5589291
11.371293 -5.8105583 -1.5569459
11.323094 -5.8738236 -1.5552106
11.2526 -5.9251566 -1.5503767
11.189778 -5.9800563 -1.5466582
11.138047 -6.0405598 -1.5445511
11.083387 -6.0992179 -1.5420722
11.033626 -6.160336 -1.5403368
11.000799 -6.2308559 -1.5410806
10.993333 -6.3160367 -1.5455427
10.881501 -6.3408995 -1.5350071
