# .PCD v0.7 - Point Cloud Data file format
VERSION 0.7
FIELDS x y z
SIZE 4 4 4
TYPE F F F
COUNT 1 1 1
WIDTH 1512
HEIGHT 1
VIEWPOINT 0 0 0 1 0 0 0
POINTS 1512
DATA ascii
10.724293 -2.8961341 -1.6236151
10.736822 -2.970324 -1.6283505
10.716491 -3.0356088 -1.6280545
10.703362 -3.1029596 -1.6289425
10.692655 -3.1711075 -1.6302743
7.9672432 -2.4158113 -1.2071937
7.93999 -2.460844 -1.2052699
7.9360547 -2.5131009 -1.2070457
7.927072 -2.5638797 -1.2080816
10.556543 -3.4864414 -1.624947
10.513398 -3.5438814 -1.6215434
10.506418 -3.6134715 -1.623911
10.490581 -3.6801622 -1.624947
10.381204 -3.713474 -1.6111846
7.6823902 -2.8010461 -1.1849964
10.393253 -3.8622978 -1.6205075
10.448899 -3.9561214 -1.6332339
10.489017 -4.0450768 -1.6435927
10.455715 -4.1061058 -1.6422608
10.41655 -4.1646748 -1.6400411
10.3679 -4.2191892 -1.6363416
10.318974 -4.2732635 -1.632642
10.249725 -4.3184471 -1.6256869
10.203037 -4.372684 -1.6224313
10.137032 -4.418211 -1.616068
10.109732 -4.4803276 -1.616068
10.044181 -4.525209 -1.6098528
10.007234 -4.5826349 -1.6083729
9.9878931 -4.6481256 -1.6098528
9.9493504 -4.7046714 -1.608225
9.8890963 -4.7506385 -1.6030456
9.8428745 -4.8029852 -1.6002339
9.81499 -4.8641682 -1.6005299
9.7946768 -4.9291916 -1.6021577
9.7651281 -4.9896479 -1.6023057
9.723794 -5.0440059 -1.6005299
9.667285 -5.09021 -1.5962384
9.6201706 -5.1410394 -1.5935748
9.5849676 -5.1980848 -1.5929828
9.5320988 -5.2453537 -1.5894313
9.4816008 -5.2936163 -1.5863236
9.4644308 -5.3604698 -1.5889874
9.4176416 -5.4105573 -1.5866196
9.370594 -5.4602728 -1.5842519
9.3181839 -5.5065956 -1.5809963
9.2519865 -5.5443454 -1.5753729
9.1991997 -5.5897098 -1.5721173
9.1773586 -5.6538324 -1.5743371
9.1181698 -5.6948414 -1.5700456
9.0805483 -5.749095 -1.5696017
9.0500956 -5.8079095 -1.5704895
8.9952221 -5.8509254 -1.567086
8.9541979 -5.9027424 -1.5661981
8.896431 -5.9432869 -1.5623505
8.8728991 -6.0066347 -1.5647182
8.8326139 -6.0587268 -1.5641264
8.8001442 -6.1161957 -1.5650142
8.74547 -6.1581178 -1.5619066
8.6704874 -6.1852393 -1.5550994
8.6355782 -6.2406411 -1.5556914
8.6098909 -6.3028593 -1.5580591
8.5527859 -6.3420191 -1.5546554
8.5192451 -6.3985367 -1.5556914
8.4585743 -6.4345202 -1.5516958
8.4158001 -6.4838853 -1.5511039
8.3509083 -6.5159302 -1.5463685
8.2851648 -6.5468106 -1.5414851
8.2996597 -6.6414022 -1.5519918
8.2410812 -6.6778803 -1.5485882
8.1823683 -6.7138901 -1.5451846
8.1166782 -6.7437425 -1.5404491
8.066823 -6.7864141 -1.5388213
8.0182552 -6.8300109 -1.5374895
7.9642143 -6.8687453 -1.5351218
7.8883986 -6.8882074 -1.5284626
7.8726563 -6.9600649 -1.53379
7.8327494 -7.0108786 -1.534382
7.7771268 -7.0475163 -1.5318662
7.7351952 -7.0964403 -1.5321622
7.6958542 -7.1478081 -1.5330501
7.6410446 -7.184731 -1.5308304
7.5882211 -7.2232966 -1.5290546
7.5387726 -7.2649164 -1.5280187
7.4883909 -7.3055115 -1.5268348
7.4420171 -7.3499317 -1.5265388
7.1002731 -7.098938 -1.4637945
7.0704808 -7.1564431 -1.4667542
6.9995008 -7.1720853 -1.4609828
6.9457536 -7.2049289 -1.4589111
6.8850474 -7.2302208 -1.4553596
6.8385215 -7.2701693 -1.4549156
6.7776299 -7.2946024 -1.451364
6.7474532 -7.3520832 -1.4546196
6.6656866 -7.3530421 -1.4464806
6.5947175 -7.3650656 -1.4407094
2.1877036 -2.4724612 -0.45544499
2.1731422 -2.486583 -0.45559299
2.1597817 -2.5021169 -0.45603693
6.4581614 -7.5788941 -1.451364
6.4032593 -7.6085401 -1.4494402
6.3671989 -7.6606178 -1.4519559
6.3031344 -7.6789002 -1.4479604
6.2247648 -7.6790133 -1.4405613
6.1874175 -7.7294178 -1.442929
6.1496854 -7.7796526 -1.4452968
2.0204129 -2.587146 -0.45263332
1.9966532 -2.5893102 -0.45070958
1.973542 -2.5920675 -0.44893378
1.9498783 -2.5938485 -0.44701001
1.9274458 -2.5970256 -0.44538221
1.8290968 -2.4962885 -0.42451674
1.8137455 -2.5074646 -0.42451674
1.8781676 -2.6304536 -0.44508624
5.9193301 -8.4031725 -1.4994582
5.9015265 -8.488059 -1.5083371
5.8370247 -8.5061684 -1.5050815
5.7897124 -8.5491943 -1.5064133
5.7343993 -8.5804472 -1.5056734
5.676199 -8.607214 -1.5041935
5.6211219 -8.6385641 -1.5036017
5.5514507 -8.6470909 -1.4990143
1.7793213 -2.807817 -0.4588486
1.7667749 -2.8262308 -0.46018043
1.7473251 -2.8336504 -0.4595885
5.3570857 -8.8128424 -1.5046376
5.2617283 -8.7768345 -1.492651
5.1982145 -8.792778 -1.4898393
5.1571126 -8.8467245 -1.4936869
5.0978055 -8.869627 -1.4922071
5.0423117 -8.8990183 -1.4919111
4.9909887 -8.9358339 -1.492947
4.940834 -8.9749546 -1.4944268
4.8861432 -9.005971 -1.4945748
4.8335886 -9.0410156 -1.4954627
4.7775626 -9.0696287 -1.4953147
4.7236443 -9.1022844 -1.4959066
4.6605039 -9.1170063 -1.4935389
4.5991392 -9.1348305 -1.4917631
4.5535436 -9.184145 -1.4953147
4.4966712 -9.2110224 -1.4951667
4.4336443 -9.225069 -1.492947
4.3735743 -9.2449474 -1.4917631
4.3121753 -9.2617464 -1.4901353
4.2569122 -9.2916279 -1.4907272
4.2026639 -9.323884 -1.4917631
4.1453748 -9.3494959 -1.4917631
4.0851626 -9.3684092 -1.4907272
4.0276022 -9.3932991 -1.4907272
3.9668179 -9.4105444 -1.4895434
3.9105151 -9.4383612 -1.4901353
3.8525288 -9.4621782 -1.4901353
3.7929285 -9.481966 -1.4895434
3.7364848 -9.5096626 -1.4902833
3.6777084 -9.5314875 -1.4901353
3.6170535 -9.5483246 -1.4892474
3.5577087 -9.5684853 -1.4889514
3.4996085 -9.5919924 -1.4892474
3.4396877 -9.6104918 -1.4888035
3.3793445 -9.6276836 -1.4882115
3.3140941 -9.6304684 -1.4853998
3.25652 -9.6553078 -1.4861398
3.2003169 -9.6844988 -1.4876196
3.1356583 -9.6879568 -1.485104
3.0737658 -9.6994724 -1.4839201
3.0127287 -9.7134266 -1.4831802
2.951349 -9.7260513 -1.4822923
2.8949907 -9.7553549 -1.484068
2.8378327 -9.7824335 -1.4855479
2.7785642 -9.802516 -1.4859918
2.7207386 -9.8279591 -1.4873236
2.6639948 -9.8578348 -1.4893954
2.6062305 -9.8845148 -1.4910232
2.5440543 -9.8945732 -1.4901353
2.4830542 -9.9090376 -1.4899874
2.4226754 -9.9260092 -1.4902833
2.3624105 -9.943574 -1.4907272
2.3024662 -9.9626999 -1.4914671
2.2402096 -9.9718151 -1.4907272
2.1779277 -9.9805422 -1.4899874
2.1164424 -9.9927502 -1.4898393
0.53811294 -2.6156251 -0.36103246
0.52166784 -2.6169376 -0.36073649
0.51120973 -2.649224 -0.36517596
0.49367777 -2.645505 -0.36414009
0.48163676 -2.6718454 -0.36769167
0.4725031 -2.716651 -0.37405488
0.46332663 -2.7643697 -0.38086206
0.44651315 -2.7681372 -0.38101003
0.43057743 -2.7776666 -0.38204592
0.40453008 -2.7196023 -0.37287101
0.38547081 -2.7053874 -0.37035534
0.36833128 -2.7037818 -0.3697634
0.35719791 -2.7481651 -0.37612662
0.34359691 -2.7768071 -0.38012215
0.3206864 -2.7287667 -0.37257507
0.30197522 -2.7129898 -0.36991137
0.28841156 -2.7442999 -0.37435085
1.0040623 -10.184828 -1.492799
0.7252667 -7.8469582 -1.1406018
0.6748994 -7.8256416 -1.1367543
0.62537259 -7.8109045 -1.1339426
0.57772493 -7.8185401 -1.1345345
0.53240758 -7.8614073 -1.1404538
0.63262922 -10.282008 -1.5028617
0.20268083 -3.6468437 -0.50797862
0.17928177 -3.627275 -0.50487101
0.15489966 -3.5789027 -0.4974719
0.13199112 -3.5540895 -0.49362436
0.10918074 -3.5222111 -0.48874095
0.086839318 -3.493154 -0.48430148
0.065531373 -3.5005429 -0.48533738
0.12637165 -10.220562 -1.4908752
0.022073558 -3.4199877 -0.47320282
0.00094013184 -10.220354 -1.4907272
-0.061965678 -10.251815 -1.4954627
-0.12472257 -10.239375 -1.4936869
-0.18740204 -10.230506 -1.492503
-0.25005025 -10.22422 -1.4917631
-0.31271946 -10.220516 -1.4914671
-0.37517053 -10.211487 -1.4904313
-0.43794742 -10.211957 -1.4908752
-0.50059855 -10.209078 -1.4908752
-0.56339467 -10.208776 -1.4913192
-0.62602395 -10.205127 -1.4913192
-0.69036448 -10.226748 -1.4951667
-0.75914204 -10.304184 -1.5074492
-0.84994233 -10.644377 -1.559243
-0.91583312 -10.645859 -1.5602788
-0.98204684 -10.649887 -1.5617586
-1.0481505 -10.651535 -1.5629425
-1.1136934 -10.646871 -1.5632384
-1.1791095 -10.64082 -1.5633864
-1.2439178 -10.629455 -1.5627944
-1.3085101 -10.616714 -1.5620546
-1.3729929 -10.603582 -1.5613147
-1.3773265 -10.148083 -1.4938349
-1.4399854 -10.142378 -1.4942788
-1.5004492 -10.121612 -1.492503
-0.45137244 -2.926564 -0.40453917
-0.47450632 -2.9559615 -0.40942258
-1.6834015 -10.073745 -1.4896914
-0.51886159 -2.9966884 -0.41652572
-0.54459238 -3.0343299 -0.42274097
-0.55559653 -2.9900954 -0.41652572
-1.9372228 -10.066302 -1.4953147
-1.998952 -10.054226 -1.4953147
-2.0612028 -10.044678 -1.4957587
-2.1217725 -10.027003 -1.4950187
-0.62281537 -2.8605249 -0.39950779
-0.64057219 -2.8576145 -0.39965576
-0.65831679 -2.8545938 -0.39980376
-2.3720078 -9.9921198 -1.4981264
-2.4339769 -9.9802589 -1.4985703
-2.5011771 -9.9891205 -1.5022699
-0.9436056 -3.6756999 -0.52928805
-0.7622084 -2.8961742 -0.40957057
-0.77790111 -2.8838048 -0.40838671
-0.78819484 -2.852289 -0.4042432
-0.80082774 -2.8302715 -0.40157953
-0.8140468 -2.8110569 -0.39935979
-2.9227223 -9.8554449 -1.4996061
-2.9687836 -9.7900066 -1.4922071
-0.99804699 -3.2225642 -0.46624768
-1.0231781 -3.23335 -0.46891135
-3.1612709 -9.773222 -1.4984223
-3.2137327 -9.7311029 -1.4948708
-3.2749612 -9.7158871 -1.4956106
-3.3358021 -9.6993494 -1.4962026
-1.1254812 -3.2107079 -0.47053915
-1.1454939 -3.2046728 -0.47068715
-3.4893689 -9.5694094 -1.4855479
-3.5717976 -9.611783 -1.4957587
-1.1643549 -3.0776088 -0.45381719
-1.1832168 -3.0704067 -0.45381719
-3.7557077 -9.5637398 -1.4988662
-1.2083199 -3.0244341 -0.44878581
-1.2372953 -3.0426111 -0.45292929
-3.9617665 -9.5669994 -1.5108528
-4.0107918 -9.5197258 -1.5071533
-4.0702972 -9.4976645 -1.5075972
-4.1328444 -9.4824829 -1.509225
-4.1873431 -9.4488087 -1.5078932
-4.2460537 -9.4247408 -1.5081891
-4.3103929 -9.4128962 -1.5105568
-1.3270838 -2.8536069 -0.43235978
-1.3432996 -2.8427284 -0.43191585
-1.3637154 -2.8406725 -0.43295172
-1.3889283 -2.8482492 -0.43561539
-4.6019349 -9.2859936 -1.5121846
-4.6601601 -9.260232 -1.5126286
-4.7213931 -9.2402697 -1.5141084
-4.7884774 -9.2313166 -1.517512
-4.857934 -9.2262621 -1.5216554
-4.9107242 -9.1893034 -1.5204716
-4.966073 -9.1572599 -1.5201757
-4.726016 -8.5885735 -1.4282788
-4.7492113 -8.5067415 -1.4192519
-4.7671943 -8.4172058 -1.4088932
-4.7813015 -8.3226271 -1.3976465
-4.8208241 -8.2734814 -1.394243
-4.8579106 -8.2207584 -1.3902475
-4.8904648 -8.1611061 -1.3850681
-4.9183612 -8.0946045 -1.3787049
-4.9570403 -8.0465918 -1.3755972
-4.9319139 -7.8969193 -1.3545837
-5.0818677 -8.0269327 -1.3829963
-5.2084894 -8.1162796 -1.4044538
-5.2635851 -8.0924587 -1.4059335
-5.3174958 -8.0666142 -1.4071174
-5.4520597 -8.1612921 -1.4300547
-5.4244027 -8.0130367 -1.4093372
-5.4398966 -7.9306726 -1.4004582
-5.4980526 -7.9109497 -1.4029739
-5.571547 -7.9126425 -1.4094851
-5.6314821 -7.8944082 -1.4124447
-5.6861882 -7.8685222 -1.4140725
-5.6730127 -7.7496996 -1.3985344
-6.293119 -8.4868546 -1.5423729
-6.350421 -8.4551973 -1.5437047
-6.436317 -8.4609346 -1.5521398
-1.6979132 -2.2052236 -0.37790242
-1.727841 -2.2158146 -0.38189793
-1.7438575 -2.2082746 -0.38248986
-1.7684983 -2.2114313 -0.38515353
-1.7739388 -2.1905501 -0.38322976
-6.7778873 -8.2603455 -1.5602788
-6.8202271 -8.2087135 -1.558355
-6.8647356 -8.1599007 -1.5570232
-6.9223709 -8.1266594 -1.558799
-6.9895468 -8.1042509 -1.5627944
-7.0358891 -8.0574865 -1.5620546
-7.0878172 -8.017127 -1.5626465
-7.1395144 -7.9764333 -1.5632384
-7.1883225 -7.932476 -1.5632384
-7.2468901 -7.8991504 -1.5654582
-7.3032994 -7.8632302 -1.5672339
-7.3554749 -7.8225927 -1.5681218
-7.3951516 -7.7687182 -1.566346
-7.4419942 -7.7224841 -1.5661981
-7.499599 -7.6872931 -1.5684178
-7.568172 -7.6629429 -1.5730052
-7.6066566 -7.6079693 -1.5712295
-7.6588235 -7.5667124 -1.5724133
-3.492599 -3.409389 -0.69177228
-3.4244416 -3.3021052 -0.67327452
-3.3622653 -3.2026088 -0.65625662
-7.8897638 -7.4211931 -1.5821801
-7.9409475 -7.3780274 -1.583364
-3.5233946 -3.2344551 -0.67712206
-3.2551811 -2.9517646 -0.61896515
-3.3513396 -3.0016575 -0.63465124
-3.5756652 -3.163157 -0.67579025
-3.4534743 -3.0175536 -0.64767367
-3.4344802 -2.9640083 -0.64027452
-3.4277587 -2.9217141 -0.63539112
-3.7611892 -3.1661417 -0.69709963
-3.7942371 -3.1543813 -0.6997633
-3.8846204 -3.1893883 -0.71352565
-5.2179928 -4.2302914 -0.96657491
-5.3341932 -4.2704964 -0.9838888
-5.3346906 -4.2174497 -0.9790054
-5.3682647 -4.190722 -0.9804852
-5.4706507 -4.2168612 -0.99498743
-5.4570675 -4.1532731 -0.98758835
-5.5243583 -4.1511922 -0.99543142
-5.540987 -4.1107368 -0.99380362
-5.4831161 -4.0158997 -0.97841346
-5.6880021 -4.1125298 -1.0117095
-5.701858 -4.06951 -1.0096377
-5.6458611 -3.9775023 -0.99483949
-5.7879109 -4.0246344 -1.0162969
-5.7562256 -3.9504404 -1.0060861
-5.6157498 -3.8035977 -0.97634172
-5.7376618 -3.8350008 -0.99409956
-5.761085 -3.7997229 -0.99409956
-5.7818041 -3.7626843 -0.99365562
-5.6624594 -3.6357877 -0.96835071
-5.7347951 -3.6327205 -0.9772296
-5.6496115 -3.5303981 -0.95828789
-5.6198058 -3.4640198 -0.94926101
-5.8387222 -3.549659 -0.9838888
-5.795074 -3.4746177 -0.97249418
-5.9610229 -3.5245402 -0.99765116
-5.9363952 -3.4610069 -0.98966008
-5.9738126 -3.4338784 -0.99247175
-5.8312716 -3.3045433 -0.96435517
-5.8954759 -3.2932913 -0.97190225
-5.9502296 -3.2761295 -0.97782153
-5.923275 -3.2140954 -0.96983051
-5.8870625 -3.1478543 -0.96035969
-5.9535203 -3.1365573 -0.96835071
-5.9217367 -3.0735521 -0.95976776
-5.9730687 -3.0538111 -0.96524304
-5.8909864 -2.9664145 -0.94837314
-6.1757965 -3.0624154 -0.99291569
-6.0344892 -2.9463856 -0.96627897
-6.2209349 -2.990253 -0.99424756
-6.2436361 -2.9541399 -0.99498743
-6.3871722 -2.974201 -1.015705
-6.2713251 -2.8735919 -0.99365562
-6.2653956 -2.8244939 -0.98980808
-5.7889409 -2.5671821 -0.90900987
-5.8499136 -2.5513737 -0.91640902
-6.3045068 -2.7036247 -0.98788434
-6.351964 -2.6779478 -0.99291569
-6.3573117 -2.6343811 -0.99113995
-6.5693846 -2.6751108 -1.0228081
-6.6279163 -2.651643 -1.0296153
-6.6385388 -2.6087556 -1.0287274
-6.5575342 -2.5306025 -1.0131892
-6.452702 -2.4447868 -0.99395156
-6.5037355 -2.4185855 -0.9997229
-6.5277443 -2.3820226 -1.0012027
-6.5226827 -2.3349278 -0.9980951
-6.5564842 -2.3017378 -1.0012027
-6.5789008 -2.26436 -1.0025345
-6.5973563 -2.2255299 -1.0032744
-6.5864716 -2.1769419 -0.9994269
-6.6335797 -2.1474469 -1.0047543
-6.7861686 -2.1509054 -1.0266556
-6.7869582 -2.1054184 -1.0247319
-6.7912312 -2.061151 -1.0233999
-6.8340917 -2.0284424 -1.0281354
-6.9034009 -2.0029969 -1.0370144
-6.8965302 -1.9552088 -1.0340548
-6.7015595 -1.8556206 -1.0019426
-6.8369393 -1.847993 -1.0211803
-6.906486 -1.8213819 -1.0302072
-6.9290261 -1.7819242 -1.031983
-7.1863842 -1.8011279 -1.0700144
-7.3491087 -1.7940333 -1.0933955
-7.3811474 -1.7539331 -1.0966511
-7.7637267 -1.7945279 -1.1537721
-8.1229439 -1.825074 -1.2071937
-8.2035608 -1.7903717 -1.2178484
-8.2618017 -1.7500374 -1.2250996
-8.9650688 -1.8415027 -1.3309066
-9.5484943 -1.9002829 -1.418216
-9.8445234 -1.8964397 -1.4615748
-10.313921 -1.9212517 -1.5312743
-11.265798 -2.0270135 -1.674225
-11.322847 -1.9656264 -1.6810322
-11.579534 -1.9370458 -1.7181756
-11.728878 -1.8881081 -1.7390411
-12.288553 -1.900869 -1.822059
-12.930982 -1.9190174 -1.9175074
-13.058054 -1.8560507 -1.9349693
-13.029017 -1.7704369 -1.928902
-13.078867 -1.6955415 -1.9348212
-13.052707 -1.6107806 -1.929346
-13.056451 -1.5299703 -1.9284581
-13.065593 -1.4498286 -1.9284581
-13.119489 -1.3743682 -1.9352652
-13.118817 -1.2929704 -1.9339334
-13.146199 -1.2142681 -1.936893
-13.157344 -1.133921 -1.937485
-13.149266 -1.051986 -1.9352652
-13.151528 -0.9709928 -1.9346733
-13.154279 -0.89007825 -1.9342294
-13.151595 -0.80886334 -1.9330455
-13.120762 -0.72618705 -1.9277182
-13.121019 -0.64547187 -1.9271263
-13.104971 -0.56410182 -1.9241666
-13.120046 -0.48411715 -1.9259424
-13.143528 -0.40424159 -1.92905
-13.145761 -0.32358679 -1.92905
-13.131678 -0.24262892 -1.9266822
-13.135886 -0.16208623 -1.9271263
-13.136633 -0.081482902 -1.9271263
-13.139853 -0.00087643828 -1.9275702
-13.143567 0.079772562 -1.9281621
-13.120085 0.16013883 -1.9247586
-13.104023 0.24036576 -1.9225388
-13.099336 0.32069314 -1.9220948
-13.13765 0.40230781 -1.9281621
-13.117145 0.48225573 -1.9254985
-13.10801 0.56247699 -1.9246105
-13.083569 0.64187616 -1.9215029
-13.073459 0.72181565 -1.9206151
-13.044106 0.80050266 -1.9169154
-13.054736 0.88159227 -1.9192832
-12.091751 -0.30567452 -1.9138325
-12.084516 -0.23130485 -1.9123982
-12.100514 -0.15734433 -1.9147887
-12.08447 -0.082978211 -1.9120796
-12.080803 -0.0088247154 -1.911442
-12.098399 0.06539733 -1.9143106
-12.139231 0.14010765 -1.9210039
-12.078918 0.21354486 -1.911442
-12.124754 0.28878245 -1.9190916
-12.12078 0.36311403 -1.9187728
-12.108459 0.43712309 -1.9171792
-12.096671 0.51103622 -1.9157449
-12.09035 0.58510733 -1.9152668
-12.054002 0.65750796 -1.9100078
-12.03496 0.73056078 -1.9076173
-12.055861 0.80610377 -1.9117608
-12.029027 0.87848073 -1.9082547
-12.026362 0.95250666 -1.9087329
-12.025209 1.0267009 -1.9095297
-12.044245 1.1028064 -1.9136732
-12.008758 1.1739033 -1.9090515
-12.010166 1.2484839 -1.9104859
-11.97971 1.3196679 -1.9068205
-11.967464 1.3926929 -1.906183
-11.970452 1.4675388 -1.9080954
-11.92989 1.5369251 -1.9029957
-11.86447 1.6025661 -1.893912
-11.909154 1.6830693 -1.9028364
-11.888836 1.7546698 -1.9012427
-11.85638 1.824283 -1.8977367
-11.825467 1.8938764 -1.8945495
-11.829205 1.9689934 -1.8970993
-11.842194 2.045908 -1.9012427
-11.843022 2.1209676 -1.9034739
-11.797752 2.1876566 -1.8982148
-11.771503 2.2575881 -1.8961431
-11.796165 2.3374486 -1.9025177
-11.754519 2.4042461 -1.8980554
-11.714431 2.4710283 -1.893912
-11.70773 2.5447471 -1.8953463
-11.660104 2.6094229 -1.8900872
-11.611163 2.6733887 -1.8846688
-11.620479 2.7507222 -1.8889717
-11.628324 2.828037 -1.8931152
-11.591596 2.894551 -1.8899279
-11.609001 2.9746869 -1.8958243
-11.597214 3.0476184 -1.8969399
-11.536352 3.107424 -1.8899279
-11.543715 3.1855035 -1.8943901
-11.510652 3.2525165 -1.892159
-11.504703 3.3271968 -1.8945495
-11.445258 3.3862438 -1.8880155
-11.420485 3.4552634 -1.8873781
-11.408501 3.5281897 -1.8889717
-11.379107 3.5957451 -1.8876967
-11.353071 3.6642854 -1.8870593
-11.321935 3.731097 -1.885625
-11.291343 3.7979791 -1.8843502
-11.270627 3.8681514 -1.8848282
-11.295134 3.9541943 -1.8931152
-11.249273 4.0157924 -1.8894498
-11.217 4.0820403 -1.8881749
-11.216734 4.160058 -1.8924778
-11.126352 4.2043791 -1.8813221
-11.108637 4.2757611 -1.8827565
-11.071162 4.339519 -1.8808441
-11.060832 4.4139543 -1.8837126
-11.026223 4.4787674 -1.8824377
-10.965689 4.532763 -1.8767006
-10.999552 4.6259847 -1.8875374
-10.980945 4.6976604 -1.8892905
-10.899408 4.7421079 -1.8800473
-10.804199 4.7797422 -1.8684137
-10.818786 4.8657856 -1.8762225
-10.797705 4.9361811 -1.8778162
-10.765424 5.0015101 -1.8774974
-10.713106 5.0573573 -1.8736727
-10.693445 5.1285458 -1.8757445
-10.604974 5.1663938 -1.8655452
-10.612892 5.2510672 -1.8727165
-10.601645 5.3267245 -1.8765413
-10.586349 5.4006467 -1.8797286
-10.543368 5.4605079 -1.8779756
-10.493936 5.5168295 -1.875107
-10.450307 5.5760036 -1.873354
-10.407215 5.6353197 -1.8717604
-10.416569 5.7233148 -1.8798879
-10.376081 5.7842379 -1.8789318
-10.312036 5.831759 -1.8736727
-10.269208 5.8909931 -1.8723978
-10.228601 5.9514108 -1.871601
-10.246308 6.0461679 -1.8818003
-10.203087 6.1053758 -1.8806847
-10.176405 6.1745229 -1.8827565
-10.135804 6.2352962 -1.8822784
-10.108245 6.304162 -1.8843502
-10.096075 6.382947 -1.8894498
-10.047577 6.4389162 -1.8876967
-10.01533 6.5052853 -1.8891311
-9.9892445 6.5758433 -1.8918402
-9.9971628 6.6693349 -1.9012427
-9.8669024 6.6702881 -1.883872
-9.8762865 6.7652931 -1.8937526
-9.787549 6.7931194 -1.8845094
-9.7747555 6.8734884 -1.8902466
-9.7790327 6.966557 -1.8994898
-9.7096844 7.0073647 -1.8942307
-9.6959944 7.0883665 -1.9001272
-9.6301031 7.1312771 -1.895665
-9.6209154 7.2162952 -1.9026771
-9.5410805 7.2483191 -1.8955057
-9.5300703 7.3326111 -1.9023583
-9.4934654 7.3976231 -1.9041113
-9.4858704 7.4857001 -1.9119202
-9.4258785 7.5326705 -1.9090515
-9.402504 7.608995 -1.9138325
-9.359457 7.6696725 -1.9146293
-9.2901878 7.7086759 -1.9100078
-9.2888222 7.8042712 -1.919729
-9.2287292 7.8508849 -1.9171792
-9.1938486 7.9189601 -1.9200478
-9.1488056 7.9784675 -1.9208446
-9.1167002 8.0494814 -1.9245099
-9.0686092 8.1065845 -1.9248286
-9.0289459 8.1713495 -1.9270598
-9.0077534 8.2532721 -1.9334344
-8.950429 8.3023453 -1.932
-8.9014769 8.3591347 -1.9324782
-8.8442945 8.4081545 -1.9312032
-8.8295259 8.4978609 -1.9394902
-8.8047943 8.5787458 -1.9457054
-8.7470703 8.6277571 -1.9445899
-8.6883783 8.6756849 -1.9433149
-8.6085978 8.7021637 -1.9372591
-8.5964394 8.7971849 -1.946821
-8.5422993 8.8497658 -1.946821
-8.4953318 8.909873 -1.9485739
-8.44524 8.9668617 -1.9496895
-8.3994751 9.0286312 -1.9519206
-8.3626232 9.1003523 -1.9563828
-8.3092813 9.154417 -1.9570203
-8.2634983 9.2169905 -1.9595701
-8.2133341 9.2749109 -1.9611638
-8.1582193 9.3273621 -1.9616418
-8.0976076 9.3735085 -1.960845
-8.0354548 9.4177618 -1.9597294
-7.9737 9.4623594 -1.9587733
-7.8921227 9.4830313 -1.9528768
-7.8381758 9.5366173 -1.9539924
-7.8137321 9.626688 -1.9627573
-7.7631612 9.685235 -1.9649885
-7.7189059 9.752038 -1.9689726
-7.6747303 9.8194399 -1.973116
-7.6288109 9.8851032 -1.9769408
-7.5967355 9.9694166 -1.9845903
-7.5128665 9.9858646 -1.9785345
-7.4508643 10.030982 -1.9783751
-7.3815856 10.066162 -1.9763033
-7.3219976 10.114464 -1.9769408
-7.2529106 10.149562 -1.9750284
-7.1870828 10.189034 -1.9740722
-7.1362753 10.249954 -1.9774189
-7.0749254 10.29599 -1.9778969
-7.0160503 10.345743 -1.9791719
-6.9612236 10.401725 -1.9817218
-6.8891082 10.431886 -1.9793313
-6.836288 10.491329 -1.9826779
-6.7728539 10.534739 -1.9829966
-6.7080865 10.576098 -1.9829966
-6.64359 10.617896 -1.983156
-6.5860925 10.671062 -1.9855465
-6.5204921 10.711272 -1.9855465
-6.4510889 10.745155 -1.9844309
-6.3845334 10.783687 -1.9842715
-6.3167529 10.820101 -1.9837935
-6.2467952 10.852667 -1.9826779
-6.1810617 10.892509 -1.9829966
-6.1117001 10.925922 -1.9821998
-6.0559855 10.983966 -1.9860245
-5.9946027 11.032194 -1.9880962
-5.9305258 11.075731 -1.9893712
-5.8679829 11.122389 -1.9912835
-5.7941632 11.147674 -1.9893712
-5.7297025 11.190925 -1.9908055
-5.6649294 11.233804 -1.9922397
-5.5967717 11.270121 -1.9925585
-5.5231771 11.295381 -1.9909649
-5.4563355 11.334394 -1.9919211
-5.3938732 11.382827 -1.9946302
-5.3251801 11.418393 -1.9951084
-5.2570767 11.455338 -1.9959052
-5.1984711 11.513473 -2.0005267
-5.1185107 11.524402 -1.9968613
-5.0536304 11.569161 -1.9992518
-4.9907308 11.619 -2.0025985
-4.9170394 11.643948 -2.0016422
-4.83566 11.650192 -1.9974988
-4.7707968 11.696098 -2.0003674
-4.7128973 11.759973 -2.0064232
-4.6464372 11.803367 -2.0089731
-4.5835376 11.856516 -2.0132759
-4.5170074 11.90103 -2.0161445
-4.447001 11.936848 -2.0175786
-4.3804541 11.982453 -2.020766
-4.3091817 12.015611 -2.0218816
-4.2304602 12.027856 -2.019491
-4.1633382 12.073186 -2.0228376
-4.0986643 12.126561 -2.0276186
-4.037837 12.192717 -2.0346308
-3.9659941 12.226653 -2.0362244
-3.8908982 12.250758 -2.0362244
-3.8182933 12.282886 -2.0376587
-3.745441 12.314584 -2.0390928
-3.6731875 12.348688 -2.0410051
-3.6006563 12.382369 -2.0429175
-3.5283899 12.417524 -2.0451486
-3.4579396 12.459867 -2.0486548
-3.3891678 12.509437 -2.0534356
-3.3136094 12.534769 -2.0542324
-3.237128 12.556777 -2.0545511
-3.1706069 12.61853 -2.0615633
-3.0928864 12.636788 -2.0614038
-3.0258169 12.699703 -2.0687346
-2.9420397 12.693026 -2.0645912
-2.8677909 12.727211 -2.0673003
-2.7911222 12.751319 -2.0684159
-2.7136497 12.772067 -2.0690534
-2.6318431 12.77204 -2.0663443
-2.568506 12.863461 -2.0787747
-2.4790349 12.824699 -2.0698502
-2.4010231 12.843551 -2.0704877
-2.3239262 12.867756 -2.0720813
-2.2506912 12.91484 -2.0774996
-2.1717319 12.930354 -2.0778184
-2.0780127 12.854751 -2.0633163
-1.9983405 12.862382 -2.0625193
-1.91676 12.856826 -2.0596509
-1.84705 12.932846 -2.070169
-1.7675271 12.942958 -2.0700095
-1.6842492 12.924191 -2.0652287
-1.6185347 13.044009 -2.0830774
-1.5307238 12.988007 -2.0724001
-1.4490299 12.979494 -2.0695314
-1.3816833 13.104972 -2.0884957
-1.3020269 13.121062 -2.0897708
-1.2190229 13.102264 -2.0854678
-1.1409132 13.136052 -2.0897708
-1.0575902 13.109348 -2.0843523
-0.97786671 13.125436 -2.0859461
-0.89663881 13.12134 -2.0843523
-0.81653988 13.133492 -2.0854678
-0.73461312 13.114598 -2.0816431
-0.65201432 13.076462 -2.0747905
-0.57254297 13.097969 -2.0776591
-0.49168238 13.08841 -2.0755873
-0.41123998 13.087234 -2.0749497
-0.33143011 13.109249 -2.0781372
-0.25113845 13.118933 -2.079412
-0.17099777 13.147866 -2.0838742
-0.090266272 13.14077 -2.0825994
-0.0096328137 13.139102 -2.0822806
0.071029812 13.146811 -2.0835555
0.15160491 13.138231 -2.0822806
0.23293085 13.177524 -2.0888145
0.31382918 13.17782 -2.0891333
0.39367685 13.142096 -2.083715
0.47366732 13.121675 -2.0808463
0.55084056 13.039614 -2.0680971
0.63145971 13.048807 -2.070169
0.70995545 13.0161 -2.0655472
0.78956825 13.007557 -2.0649099
0.8694979 13.004437 -2.0652287
0.94913149 12.996888 -2.0649099
1.0272249 12.970153 -2.0615633
1.1076283 12.973442 -2.0631568
1.1918002 13.016541 -2.0712845
1.2683814 12.975576 -2.065866
1.3499129 12.986206 -2.0688939
1.4252467 12.938428 -2.0625193
1.5055213 12.937284 -2.0637944
1.5831933 12.914083 -2.0615633
1.6703476 12.965812 -2.0716033
1.750005 12.956297 -2.0717626
1.8243601 12.909147 -2.065866
1.9005085 12.877201 -2.0625193
1.9868407 12.913109 -2.0703282
2.0682218 12.914322 -2.0725594
2.1409411 12.862435 -2.0661848
2.2245283 12.876295 -2.070647
2.3000138 12.842968 -2.0674598
2.3704953 12.783962 -2.0601289
2.4522381 12.786629 -2.0629976
2.5289226 12.762626 -2.0615633
2.605998 12.741065 -2.060607
2.6810708 12.710345 -2.0582166
2.7598481 12.697515 -2.0588541
2.8374913 12.679378 -2.0586946
2.9314044 12.731958 -2.0703282
2.9792306 12.585962 -2.0491328
3.0438044 12.515644 -2.0405271
3.1169546 12.482366 -2.0381367
3.1974065 12.478306 -2.0406866
3.2844486 12.498554 -2.0473797
3.3477263 12.428597 -2.0390928
3.4176219 12.384982 -2.0352681
3.5096552 12.42078 -2.0448301
3.580591 12.380993 -2.0418022
3.6475303 12.328496 -2.0367024
3.7185342 12.290765 -2.0341525
3.8020451 12.294126 -2.0386147
3.8738399 12.259269 -2.0367024
3.9635417 12.280365 -2.0443518
4.0190449 12.195806 -2.0341525
4.1022983 12.19618 -2.0384555
4.1735306 12.160507 -2.0367024
4.243175 12.120693 -2.034312
4.3048549 12.059099 -2.0282562
4.3794422 12.034313 -2.0285747
4.4545741 12.010918 -2.0292122
4.5142307 11.946419 -2.0228376
4.5941849 11.936 -2.0258656
4.6662555 11.904829 -2.0253875
4.7329946 11.860385 -2.0226784
4.7989926 11.814657 -2.0198097
4.8581972 11.753057 -2.0142319
4.9325171 11.728486 -2.0151882
5.0040007 11.697092 -2.015029
5.0634699 11.638104 -2.0100884
5.1375804 11.613136 -2.011204
5.2168384 11.599401 -2.0143914
5.2587729 11.503425 -2.0030766
5.3392401 11.492429 -2.0069013
5.3936419 11.425527 -2.0008454
5.4657807 11.396667 -2.0016422
5.5503058 11.393091 -2.0070605
5.5767684 11.271221 -1.9912835
5.6484818 11.242084 -1.9922397
5.7061405 11.185227 -1.9882556
5.7655849 11.132472 -1.9850683
5.842052 11.112615 -1.987937
5.9143105 11.084398 -1.9893712
5.9775109 11.039219 -1.9877776
6.0498877 11.010986 -1.9893712
6.1091647 10.958999 -1.986662
6.1714334 10.912714 -1.9850683
6.2353292 10.869503 -1.9841121
6.2984304 10.825066 -1.9829966
6.3592148 10.776863 -1.9812436
6.4226861 10.733405 -1.9804468
6.4833035 10.685353 -1.9788531
6.543056 10.636122 -1.9771001
6.5972247 10.578183 -1.9737535
6.6614795 10.53667 -1.9735942
6.7180161 10.48313 -1.9712037
6.774147 10.429292 -1.9688132
6.8314991 10.377635 -1.9669008
6.8775153 10.309242 -1.9618012
6.929585 10.25049 -1.9586139
6.9951396 10.211851 -1.9594107
7.0554152 10.165493 -1.9587733
7.1153855 10.11878 -1.9581358
7.1687474 10.06287 -1.9557453
7.2344007 10.024298 -1.9568609
7.2870336 9.9677649 -1.9544704
7.3410077 9.9133434 -1.952558
7.3916268 9.8546877 -1.9498489
7.4585242 9.8177948 -1.9516019
7.5222363 9.7765408 -1.952558
7.5784416 9.7255287 -1.9516019
7.6202393 9.6563702 -1.9469802
7.6664042 9.593235 -1.9436337
7.7114606 9.5291309 -1.9401276
7.7603998 9.4701805 -1.9377372
7.809536 9.4117489 -1.9355061
7.855073 9.3492918 -1.9324782
7.8911829 9.276103 -1.9272192
7.9273353 9.2035723 -1.9221195
7.9817114 9.1525259 -1.9216413
8.0220394 9.0856171 -1.9178166
8.0710573 9.0288639 -1.9162229
8.1302795 8.9835625 -1.9171792
8.1765795 8.9240437 -1.9151075
8.2211123 8.8628483 -1.912717
8.2699327 8.8064804 -1.911442
8.3278933 8.7598648 -1.9123982
8.3801165 8.7071781 -1.9120796
8.4251184 8.647109 -1.9101671
8.4586067 8.5755701 -1.905705
8.4908381 8.5032482 -1.9010834
8.5253077 8.4336319 -1.8970993
8.5684223 8.3728828 -1.8951869
8.624608 8.3249502 -1.8963025
8.6719542 8.2684669 -1.8955057
8.7038403 8.1975031 -1.8913622
8.7257872 8.1177168 -1.885147
8.7572603 8.0473232 -1.8811629
8.7955084 7.9834857 -1.8787724
8.8480034 7.932662 -1.8795692
8.8854246 7.8684049 -1.8771788
8.9082727 7.7916379 -1.8717604
8.9730959 7.7516751 -1.8754257
8.9942064 7.6740432 -1.869848
9.0433884 7.6206198 -1.870326
9.0755606 7.5529881 -1.8672981
9.1285973 7.5028014 -1.8687325
9.1729288 7.4454036 -1.8684137
9.1953316 7.3704557 -1.8636328
9.2427053 7.3157334 -1.8641108
9.2664194 7.2424684 -1.859808
9.2927084 7.1716013 -1.8561426
9.3294706 7.1090622 -1.8547083
9.3863268 7.0617738 -1.8574176
9.4548397 7.0228858 -1.8625172
9.4722786 6.9460573 -1.8574176
9.5003262 6.8773851 -1.8545491
9.5254793 6.8069091 -1.8512024
9.5275383 6.7204494 -1.8433934
9.5750761 6.6663756 -1.8446684
9.6027822 6.5985527 -1.8421186
9.6725025 6.5594554 -1.8478557
9.6846743 6.4813132 -1.8424373
9.7127275 6.4141502 -1.8402063
9.7519007 6.3544335 -1.8402063
9.7948599 6.2971468 -1.8410031
9.8599911 6.2538495 -1.8461027
9.890646 6.188519 -1.8446684
9.9166708 6.1204553 -1.8424373
9.9321136 6.046145 -1.8382938
9.9901848 5.9977937 -1.842278
10.039541 5.9439268 -1.8446684
10.092022 5.8916707 -1.8476963
10.133971 5.8330836 -1.8488119
10.135228 5.7513027 -1.8424373
10.159987 5.6832223 -1.8405249
10.203313 5.6255417 -1.8421186
10.216821 5.5515165 -1.8382938
10.266357 5.4971113 -1.8411624
10.314737 5.4418464 -1.8438716
10.370708 5.3902926 -1.8480151
10.395679 5.3225079 -1.8465807
10.480147 5.2848492 -1.8559833
10.485852 5.2072706 -1.8512024
10.453753 5.1116071 -1.8397281
10.580986 5.0936179 -1.8569394
10.636127 5.0400128 -1.8612423
10.641801 4.9629722 -1.8567801
10.646931 4.8860517 -1.8523179
10.647919 4.8076301 -1.8472183
10.691652 4.7486172 -1.849768
10.704305 4.6758113 -1.8468995
10.72735 4.6077051 -1.8459433
10.795437 4.5586958 -1.8529553
10.805882 4.4851794 -1.8499274
10.835027 4.4195371 -1.8502462
10.918755 4.3757424 -1.8601267
10.987654 4.3252993 -1.8674575
10.982679 4.2456946 -1.8620391
10.973451 4.1649137 -1.8559833
11.018227 4.1047411 -1.8593299
11.02188 4.0292606 -1.8556645
11.036174 3.9578896 -1.8539115
11.10309 3.9051673 -1.8612423
11.110977 3.8314948 -1.8585331
11.130537 3.7619827 -1.8578956
11.115924 3.6812005 -1.8515211
11.162717 3.6208456 -1.8556645
11.178138 3.5501924 -1.8545491
11.233648 3.4920888 -1.8602861
11.219918 3.4124646 -1.8543897
11.234021 3.3415859 -1.8532741
11.323514 3.2927172 -1.8649076
11.338757 3.2218261 -1.8641108
11.34214 3.1477036 -1.8614017
11.343136 3.0731449 -1.8583738
11.370369 3.0057578 -1.859808
11.352272 2.9265678 -1.8537521
11.403525 2.8652778 -1.8593299
11.441988 2.8004172 -1.862836
11.492567 2.738167 -1.8684137
11.49665 2.6647 -1.8663419
11.485818 2.5880308 -1.8618797
11.529449 2.523629 -1.8665013
11.581411 2.4606359 -1.8725572
11.597259 2.3897266 -1.8727165
11.605894 2.3173621 -1.8717604
11.593724 2.2410464 -1.8674575
11.640251 2.1760356 -1.8728759
11.632982 2.1008861 -1.8695292
11.643709 2.029129 -1.8692105
11.692936 1.9638612 -1.8752663
11.671631 1.8867203 -1.869848
11.667379 1.8126435 -1.8672981
6.0697041 0.90468836 -0.9519096
0 0 -0
0 0 -0
5.911077 0.77009833 -0.92354274
5.8990359 0.73174703 -0.92083353
5.8838062 0.6932258 -0.91764629
0 0 -0
0 0 -0
0 0 -0
0 0 -0
0 0 -0
0 0 -0
0 0 -0
0 0 -0
0 0 -0
0 0 -0
0 0 -0
0 0 -0
0 0 -0
0 0 -0
0 0 -0
0 0 -0
0 0 -0
0 0 -0
0 0 -0
0 -0 -0
0 -0 -0
0 -0 -0
0 -0 -0
0 -0 -0
0 -0 -0
0 -0 -0
0 -0 -0
0 -0 -0
0 -0 -0
5.9615264 -0.39881447 -0.92577386
5.9629054 -0.43567368 -0.92641133
5.9788189 -0.47373351 -0.92943925
5.9905539 -0.51166916 -0.93182969
0 -0 -0
6.0565319 -0.59224904 -0.94362265
10.36543 -1.077565 -1.6435506
10.259513 -1.1302313 -1.6274549
10.355349 -1.2051399 -1.6441882
10.385974 -1.2733402 -1.6504034
10.392653 -1.338935 -1.6527938
10.38522 -1.4028101 -1.6529531
10.365664 -1.4649869 -1.6512002
10.327181 -1.5242386 -1.6464192
10.307877 -1.5860753 -1.6448256
10.279429 -1.6463279 -1.6417977
10.267186 -1.7090461 -1.6414789
10.259425 -1.7725163 -1.641957
10.228921 -1.8319535 -1.6387697
10.212634 -1.8937827 -1.637973
10.192096 -1.9547374 -1.6365386
10.168289 -2.014936 -1.6346263
10.1538 -2.0768938 -1.6343075
10.131206 -2.13712 -1.6327139
10.112113 -2.1979856 -1.6317577
8.3238583 -1.8629194 -1.3382087
10.058404 -2.3159316 -1.6274549
10.06706 -2.3830621 -1.6312796
10.06376 -2.4475868 -1.6331919
10.061004 -2.5123997 -1.6352637
10.055919 -2.5767808 -1.6370168
7.4590664 -1.960307 -1.206255
10.02354 -2.6999881 -1.6370168
10.004881 -2.7609155 -1.636698
10.001053 -2.8260102 -1.6389291
9.9892149 -2.8889678 -1.6398853
9.9713001 -2.950206 -1.6398853
7.9875579 -2.4167583 -1.3084075
7.9414544 -2.456099 -1.3031485
7.9243517 -2.5041859 -1.3028297
7.9088373 -2.5527616 -1.3028297
8.7096996 -2.8703427 -1.4416361
9.8138475 -3.3010609 -1.6327139
9.78407 -3.358011 -1.6311202
9.7604856 -3.4170034 -1.6306422
9.7318974 -3.4741733 -1.6293672
9.7076139 -3.532809 -1.6288892
7.6716013 -2.8453753 -1.2821125
9.6108913 -3.6317811 -1.6198053
9.5828981 -3.6885564 -1.6188492
9.5058556 -3.7260325 -1.6094466
9.4461374 -3.7696543 -1.6030722
9.4155121 -3.8245718 -1.6017972
9.5305462 -3.9395909 -1.6260206
9.5362244 -4.0106239 -1.6312796
9.515975 -4.071003 -1.6320764
9.4953432 -4.1312842 -1.6328733
9.4905806 -4.1986542 -1.6365386
9.465539 -4.2572136 -1.636698
9.4096098 -4.3016686 -1.631439
9.3364811 -4.3376961 -1.623152
9.2820148 -4.3818383 -1.6182117
9.2264681 -4.4250488 -1.6131121
9.1884928 -4.4763904 -1.6111997
9.1537743 -4.5291834 -1.6099248
9.1161079 -4.5803895 -1.6081718
9.1054201 -4.6452107 -1.6113591
9.0758696 -4.7005391 -1.6111997
9.0442352 -4.7547607 -1.6107216
8.9800501 -4.7915773 -1.604347
8.9409304 -4.8414173 -1.602594
8.8773117 -4.8776479 -1.5963788
8.8204842 -4.9171257 -1.5914385
8.8047562 -4.9794154 -1.5941477
8.7680435 -5.0299082 -1.5930321
8.68923 -5.0558119 -1.5841078
8.6648464 -5.1130462 -1.5853827
8.6383934 -5.169158 -1.5863389
8.629302 -5.2358909 -1.5906417
8.6087847 -5.2959819 -1.5928729
8.5518341 -5.3335552 -1.5882512
8.5005894 -5.3743224 -1.5847453
8.4599724 -5.4215865 -1.583311
8.4546957 -5.4916763 -1.5887294
8.4274378 -5.5477924 -1.5900042
8.36203 -5.5785794 -1.5839484
8.3137388 -5.6203842 -1.5812392
8.2668791 -5.6629224 -1.5788487
8.204402 -5.6944027 -1.5734304
8.1701145 -5.7452049 -1.5735897
8.1113911 -5.7786169 -1.5689682
8.0653744 -5.8207688 -1.5668964
8.0406647 -5.8783035 -1.5691276
8.0155516 -5.9357543 -1.5713587
7.9655538 -5.9747553 -1.5686494
7.9326739 -6.0265045 -1.5694462
7.9080658 -6.0846968 -1.5719961
7.8129559 -6.0882039 -1.5602031
7.8103271 -6.163548 -1.5673746
7.7191463 -6.1688318 -1.5563784
7.6404757 -6.183166 -1.547932
7.6169014 -6.2418189 -1.5509601
7.5769391 -6.2871771 -1.5506413
7.5351958 -6.3310099 -1.5500038
7.4916959 -6.3732882 -1.5490476
7.4808736 -6.4436178 -1.5551034
7.4285469 -6.4783683 -1.5523943
7.3842158 -6.5199065 -1.5514381
7.3249345 -6.547987 -1.5472946
7.2838869 -6.5921459 -1.5471352
7.2061777 -6.6027036 -1.5390077
7.1966524 -6.6756635 -1.5458603
7.1591539 -6.7230744 -1.5466572
7.131362 -6.779799 -1.5496851
7.0754013 -6.8097377 -1.5464978
7.0200491 -6.8399339 -1.5434699
6.9540505 -6.8593092 -1.5380515
6.897161 -6.8872013 -1.5347048
6.8394971 -6.9139519 -1.5311989
6.8072953 -6.9663787 -1.5335892
6.7287683 -6.9710822 -1.5253024
6.7035813 -7.0308142 -1.5294458
6.6765599 -7.0890613 -1.5332706
6.6053658 -7.1002607 -1.5267366
6.5235987 -7.0992241 -1.5176529
6.3996282 -7.0506706 -1.4983698
2.1884956 -2.4414575 -0.49054992
2.1721649 -2.453362 -0.49023122
2.1590204 -2.468873 -0.4907093
6.185945 -7.1607795 -1.4888079
6.1322789 -7.187336 -1.4864174
6.0874267 -7.2240729 -1.4862581
6.0600371 -7.281776 -1.4905609
6.0534821 -7.3653445 -1.5002822
6.0486164 -7.4521708 -1.5106409
6.03859 -7.5338206 -1.519884
5.9885731 -7.5660868 -1.5189278
2.0218909 -2.5873883 -0.49134675
1.9951197 -2.5856783 -0.48847821
1.9630606 -2.5766709 -0.48417535
1.9495877 -2.5918229 -0.48481283
1.9336479 -2.6037366 -0.48481283
1.8224729 -2.4857895 -0.45883644
1.8205013 -2.5153172 -0.46250182
1.8050333 -2.5264404 -0.46250182
5.5316715 -7.8423381 -1.5104815
5.5347815 -7.9498587 -1.5249836
5.4680057 -7.957634 -1.519884
5.4229546 -7.9967542 -1.5209996
5.3655491 -8.0175724 -1.518609
5.3244138 -8.0627003 -1.5209996
5.268374 -8.0852928 -1.5190872
5.2229357 -8.1241102 -1.520362
5.1407318 -8.1051521 -1.5106409
1.7765839 -2.8399184 -0.50202417
1.7591251 -2.8507659 -0.50202417
1.7416 -2.861506 -0.50202417
1.7321402 -2.8856804 -0.504574
4.8811383 -8.2445869 -1.5079316
4.8628125 -8.3297977 -1.5182903
4.8185058 -8.3714571 -1.5205214
4.7592525 -8.3871279 -1.5179716
4.6816735 -8.369648 -1.5093659
4.6187901 -8.3774681 -1.5055412
4.584269 -8.4368773 -1.5112783
4.5272889 -8.4552746 -1.5095253
4.4794693 -8.4907522 -1.5109595
4.4172692 -8.498807 -1.5074536
4.3600893 -8.5160847 -1.5057006
4.3179779 -8.5629511 -1.5093659
4.2482295 -8.5548019 -1.5031507
4.1965256 -8.5824814 -1.5034695
4.1544914 -8.6303062 -1.5074536
4.1061091 -8.6654491 -1.5092065
4.0299106 -8.6412725 -1.5004416
3.9801075 -8.6730146 -1.5017165
3.9304724 -8.7053699 -1.5031507
3.8757811 -8.7266169 -1.5026727
3.8221626 -8.7502337 -1.5026727
3.7668417 -8.7698936 -1.5020351
3.7068143 -8.7782898 -1.4994854
3.6506112 -8.7953987 -1.4985292
3.5965748 -8.8176327 -1.4985292
3.5449741 -8.8459492 -1.4996448
3.4852049 -8.853756 -1.4972543
3.4343736 -8.884182 -1.4988478
3.3847015 -8.9180088 -1.501079
3.3199224 -8.9117813 -1.4964575
3.272975 -8.95331 -1.5001228
3.2056451 -8.9388409 -1.4942263
3.1654785 -9.0002499 -1.5013977
3.0992508 -8.987772 -1.4959793
3.0478382 -9.0178423 -1.4978917
2.9958627 -9.0466824 -1.4996448
2.9412107 -9.0677118 -1.5001228
2.8747578 -9.0517159 -1.4943857
2.8226805 -9.0804968 -1.4962981
2.7723691 -9.115591 -1.499326
2.7065322 -9.0993118 -1.4937482
2.6512003 -9.1176443 -1.494067
2.596555 -9.1384878 -1.4948637
2.5391133 -9.1494913 -1.494067
2.4842162 -9.1696634 -1.4948637
2.4281578 -9.185688 -1.4950231
2.3687921 -9.1889429 -1.4931108
2.311162 -9.1985168 -1.492314
2.2565553 -9.2201958 -1.4935888
2.1949043 -9.2127409 -1.4900829
2.1405642 -9.2356529 -1.4916764
2.0827699 -9.2437973 -1.4908797
2.0277007 -9.2641182 -1.4921546
1.973897 -9.2908707 -1.494545
1.920439 -9.3202114 -1.4974136
0.52242774 -2.6180229 -0.39222217
0.50953972 -2.6376567 -0.39493135
0.49116847 -2.6290889 -0.39301899
0.47871259 -2.6524546 -0.39636564
0.46327603 -2.6602046 -0.39716247
0.43909425 -2.6162655 -0.38951296
0.42744491 -2.6461983 -0.39397517
0.41908273 -2.6994977 -0.40226212
0.40323904 -2.7069006 -0.40305895
0.39122924 -2.7415745 -0.40831795
1.0273405 -7.5240793 -1.1871313
0.35372835 -2.7168009 -0.40353703
0.33851084 -2.7306767 -0.40544939
1.109432 -9.4143372 -1.4915171
0.92159492 -8.2563763 -1.3023517
0.993613 -9.4252787 -1.4911984
0.82576537 -8.32306 -1.3114355
0.74970514 -8.0596189 -1.267929
0.67947334 -7.8250732 -1.2292035
0.6309703 -7.8231907 -1.2282473
0.58368999 -7.83676 -1.229841
0.53848892 -7.8825455 -1.2366936
0.58492714 -9.4099846 -1.4832302
0.19964477 -3.5693409 -0.53835922
0.17754318 -3.5665548 -0.53772175
0.15539701 -3.5616593 -0.53676558
0.35433763 -9.4353161 -1.4854612
0.25726923 -8.1920576 -1.2843435
0.23904972 -9.4596796 -1.4888079
0.18071784 -9.4461622 -1.4864174
0.12281822 -9.4520292 -1.4872143
0.064730808 -9.4397707 -1.4851426
0.0068150242 -9.4488754 -1.4865768
-0.051151708 -9.4467649 -1.4862581
-0.10912637 -9.4472609 -1.4864174
-0.16721354 -9.4533224 -1.487533
-0.22533226 -9.4570532 -1.4883299
-0.2836507 -9.4653606 -1.4899235
-0.34215072 -9.4752808 -1.4918358
-0.40074152 -9.4838524 -1.4935888
-0.45892578 -9.4812155 -1.4935888
-0.51687783 -9.4742775 -1.4929514
-0.57518053 -9.4738846 -1.4934295
-0.63336623 -9.4711618 -1.4935888
-0.69233072 -9.4789124 -1.4955013
-0.75195956 -9.493185 -1.4985292
-0.80927104 -9.4775715 -1.4967761
-0.8671391 -9.4694786 -1.4962981
-0.92589855 -9.4708576 -1.4974136
-0.98276871 -9.4532146 -1.4955013
-1.0472379 -9.5058842 -1.5050631
-1.1024649 -9.4728031 -1.5007602
-1.1608084 -9.4678192 -1.501079
-1.2181233 -9.4546442 -1.5001228
-1.2742634 -9.4332952 -1.4978917
-1.3306018 -9.414546 -1.4961387
-1.3959811 -9.4579668 -1.504585
-1.4523368 -9.4384899 -1.5028319
-1.5027308 -9.3826103 -1.4951825
-0.49455377 -2.969327 -0.44720283
-0.51511639 -2.979856 -0.44943395
-0.53495675 -2.9853852 -0.45086822
-0.556144 -2.9975772 -0.45341805
-0.57657135 -3.0047736 -0.45517105
-1.8729612 -9.4516745 -1.5166967
-1.9127231 -9.3510218 -1.5020351
-1.9702677 -9.3400755 -1.5021945
-2.0296366 -9.3374577 -1.5037881
-0.65187234 -2.9114919 -0.4429
-0.66551667 -2.889158 -0.43987209
-0.65526497 -2.7668567 -0.42027026
-2.2609773 -9.2963467 -1.5057006
-2.3244328 -9.3081598 -1.5100033
-2.3827279 -9.2985039 -1.5108002
-0.76436478 -2.907486 -0.44656539
-0.78193361 -2.9017878 -0.44640604
-0.79315948 -2.8731439 -0.44242191
-0.80835813 -2.8596728 -0.44098765
-0.82588959 -2.8546591 -0.44098765
-2.7345674 -9.2423677 -1.5171747
-2.7980866 -9.2480936 -1.5209996
-2.8509877 -9.2184896 -1.5189278
-1.0131816 -3.2053642 -0.50393653
-1.0297983 -3.189692 -0.50234288
-3.0065928 -9.1231947 -1.5119158
-3.0637739 -9.1083174 -1.5125532
-3.1202447 -9.0912142 -1.512872
-1.1305984 -3.2286837 -0.51349843
-1.1271569 -3.1566021 -0.50234288
-3.2880683 -9.0350237 -1.51335
-3.3547719 -9.0452242 -1.518609
-1.1602944 -3.0697517 -0.49102804
-1.1982561 -3.1123269 -0.4996337
-1.1899524 -3.0350606 -0.48752201
-1.210748 -3.0332036 -0.48847821
-3.6157939 -8.901474 -1.5122344
-3.680526 -8.9037542 -1.5165373
-3.736237 -8.8837337 -1.5170155
-3.7895117 -8.8579187 -1.5165373
-3.8520617 -8.8535099 -1.519884
-3.901521 -8.8188734 -1.5179716
-3.9486756 -8.7794619 -1.5152624
-1.3072294 -2.8588064 -0.46871704
-1.3251621 -2.8516269 -0.46887639
-1.3434772 -2.8452277 -0.46919513
-4.1804471 -8.7164087 -1.5217963
-4.2252049 -8.6728439 -1.518609
-4.2779031 -8.6458702 -1.5184497
-4.332202 -8.6221056 -1.5189278
-4.3886137 -8.602396 -1.5202026
-4.451756 -8.5954695 -1.5238681
-4.501657 -8.5627489 -1.5229119
-4.5722356 -8.5689354 -1.5291271
-4.6251974 -8.5415878 -1.5292865
-4.6575556 -8.4767075 -1.5225931
-4.6489167 -8.3393192 -1.5025133
-4.6805606 -8.2762632 -1.4961387
-4.7042384 -8.2002897 -1.4873736
-4.7286501 -8.1268978 -1.4790868
-4.7372894 -8.0280104 -1.4660188
-4.7753077 -7.9801545 -1.4625129
-4.7939706 -7.9009056 -1.4531103
-4.8387389 -7.8654556 -1.4519948
-4.8811631 -7.8264031 -1.4502418
-4.913795 -7.7721062 -1.4456202
-4.9512711 -7.7260165 -1.4425923
-4.9915934 -7.6847277 -1.4405205
-5.0413661 -7.6580782 -1.4413173
-5.1041474 -7.6508174 -1.4459389
-5.163712 -7.6381664 -1.4496043
-5.2288918 -7.6332164 -1.4548633
-5.3268509 -7.6747932 -1.4693655
-5.3914452 -7.6669984 -1.4743057
-5.4859281 -7.7005105 -1.487533
-5.5509825 -7.6915216 -1.4924734
-5.6056461 -7.6676774 -1.494545
-5.6649261 -7.6497984 -1.4978917
-5.723012 -7.6299009 -1.5009196
-5.7864413 -7.616653 -1.5053818
-5.9257727 -7.7015009 -1.5299239
-6.0530109 -7.7677889 -1.5509601
-1.7286514 -2.1900485 -0.41166461
-1.7494521 -2.1886551 -0.41357699
-6.1266546 -7.5706391 -1.53343
-6.2899981 -7.6756992 -1.5632311
-6.3338251 -7.6331611 -1.5624342
-6.3894324 -7.6047359 -1.5646653
-6.4052706 -7.529294 -1.5570159
-6.461657 -7.5018187 -1.5595657
-6.5231376 -7.4798865 -1.5633904
-6.5767512 -7.4486012 -1.5653028
-6.6203575 -7.405899 -1.5648247
-6.6895213 -7.391489 -1.5705618
-6.7334151 -7.3488483 -1.5702431
-6.7844224 -7.3139086 -1.5716773
-6.8305235 -7.273582 -1.5719961
-6.8682227 -7.2243786 -1.5704025
-6.8864083 -7.1550694 -1.5643466
-6.9887385 -7.1727848 -1.5778925
-7.0319252 -7.129065 -1.5777332
-7.083209 -7.0934682 -1.5794863
-7.1315131 -7.0547333 -1.5806018
-3.499639 -3.4194431 -0.75111055
-3.4353211 -3.3156281 -0.73198688
-3.3441432 -3.1882081 -0.70712602
-3.434788 -3.2346396 -0.72290307
-7.4161143 -6.8992286 -1.5963788
-3.5069335 -3.2223063 -0.73007447
-3.528101 -3.2020545 -0.73039323
-3.4749138 -3.1151016 -0.71461612
-3.3816247 -2.994235 -0.69039279
-3.4088502 -2.9812291 -0.69230515
-3.4203551 -2.954448 -0.69087088
-3.4406717 -2.935328 -0.69134897
-3.775677 -3.1813567 -0.75828195
-3.8307896 -3.1878119 -0.7657721
-4.8783336 -4.0092649 -0.98059517
-4.8691168 -3.9518807 -0.97358316
-4.8740163 -3.9064934 -0.96959901
-4.8731241 -3.8569064 -0.96449935
-4.9169211 -3.8427398 -0.96864283
-5.0037103 -3.8613553 -0.98155135
-5.0390873 -3.839556 -0.98394179
-5.0294189 -3.7836356 -0.97724849
-5.1238647 -3.8056867 -0.99159127
-5.2323012 -3.8366442 -1.0086433
-5.2181602 -3.7772579 -1.0011531
-5.2002754 -3.7158945 -0.9930256
-5.2374988 -3.6941595 -0.99589413
-5.0607634 -3.5231833 -0.95669055
-5.313355 -3.6508558 -1.00195
-5.3871298 -3.6530945 -1.01199
-5.2740731 -3.5293701 -0.98569483
-5.2717404 -3.4811649 -0.98107326
-5.2326226 -3.4094064 -0.96943969
-5.3040977 -3.4098036 -0.9791609
-5.3682699 -3.4046915 -0.98744786
-5.3631163 -3.3554544 -0.98250753
-5.2970762 -3.2690756 -0.966093
-5.5227866 -3.3617723 -1.0049779
-5.5585451 -3.3369691 -1.0078465
-5.3809867 -3.1856062 -0.97071457
-5.3740029 -3.1370988 -0.9657743
-5.3341146 -3.0700819 -0.95477813
-5.3949232 -3.0611701 -0.962587
-5.4136047 -3.0280099 -0.962587
-5.7190995 -3.1529939 -1.0154959
-5.3792272 -2.9226964 -0.9495191
-5.5798211 -2.9875028 -0.98298562
-5.6338453 -2.9720976 -0.9895196
-5.6353331 -2.928822 -0.98649162
-5.6795592 -2.9076872 -0.99127257
-5.4830966 -2.7647605 -0.95254707
-5.6502686 -2.8057156 -0.97963899
-5.6656041 -2.7701259 -0.97932023
-5.663815 -2.7263174 -0.97597361
-5.8080087 -2.7519698 -0.99876267
-5.8059969 -2.7075176 -0.99541605
-5.7390575 -2.6335452 -0.98059517
-5.7713041 -2.6055944 -0.9834637
-5.8034229 -2.5773468 -0.9863323
-5.9132133 -2.5827909 -1.0029062
-5.9733958 -2.5655522 -1.010715
-6.0372257 -2.5492079 -1.0191613
-6.0536656 -2.5124946 -1.0193207
-6.066226 -2.474184 -1.0188426
-5.9731627 -2.3935778 -1.0000377
-6.1236892 -2.4104052 -1.0236236
-5.9845905 -2.3133337 -0.99700969
-5.9663682 -2.2643075 -0.99143195
-6.0819101 -2.2655699 -1.008962
-6.09477 -2.2278702 -1.0088027
-6.0776596 -2.1794329 -1.0035436
-6.144001 -2.1607723 -1.0126274
-6.128212 -2.113055 -1.0076871
-6.0101295 -2.0311546 -0.98537612
-6.2830086 -2.0805268 -1.0296794
-6.3491817 -2.0592999 -1.0387632
-6.3381753 -2.0128317 -1.0347791
-6.2523646 -1.9434226 -1.0182052
-6.2122245 -1.889221 -1.0094401
-6.3590117 -1.8913217 -1.0322292
-6.4643435 -1.8795607 -1.0480063
-6.4786034 -1.8406705 -1.0484843
-6.4926295 -1.8016759 -1.0489625
-6.5959892 -1.7868483 -1.0644208
-6.7204056 -1.7763705 -1.0833851
-6.817215 -1.7572843 -1.0977279
-6.9006352 -1.7337077 -1.1098396
-7.154706 -1.7509542 -1.1503181
-7.4409304 -1.7726973 -1.1960557
-8.1614141 -1.8915383 -1.3136666
-8.1198988 -1.8294882 -1.3049015
-8.3354197 -1.8243891 -1.3386867
-9.032074 -1.9189029 -1.4518354
-9.0185394 -1.8582659 -1.4476919
-9.5573874 -1.9082625 -1.5345455
-9.9808569 -1.9292253 -1.6022753
-10.468974 -1.9570355 -1.6805232
-10.616796 -1.91733 -1.7028341
-10.80731 -1.883342 -1.7321572
-10.990012 -1.8457788 -1.7602054
-11.563455 -1.8692298 -1.8521585
-12.072217 -1.8755531 -1.9334344
-12.080569 -1.8010073 -1.9329562
-11.996594 -1.7133065 -1.9174979
-12.013728 -1.6405998 -1.9186134
-12.11461 -1.5787212 -1.9334344
-12.05353 -1.4956028 -1.9219601
-12.069343 -1.4224247 -1.9230757
-12.077844 -1.3483418 -1.9230757
-12.094726 -1.27514 -1.9245099
-12.151442 -1.2057799 -1.9324782
-12.11536 -1.127172 -1.9254661
-12.106312 -1.0514451 -1.9229163
-12.115488 -0.97738063 -1.9233943
-12.138978 -0.90434378 -1.926263
-12.147253 -0.8300454 -1.926741
-12.173795 -0.75684398 -1.9302471
-12.180181 -0.68224323 -1.9305657
-12.183151 -0.607445 -1.9304065
-12.129445 -0.53017688 -1.9211633
-12.133456 -0.45577914 -1.9213227
-12.146878 -0.38166246 -1.9230757
-11.301118 0.8307218 -1.9346812
-11.225101 0.89440727 -1.922327
-11.195844 0.96124136 -1.918209
-11.180906 1.0291061 -1.9166647
-11.168498 1.097113 -1.9156352
-11.154697 1.164904 -1.9144341
-11.148319 1.2334344 -1.9146056
