# .PCD v0.7 - Point Cloud Data file format
VERSION 0.7
FIELDS x y z
SIZE 4 4 4
TYPE F F F
COUNT 1 1 1
WIDTH 1510
HEIGHT 1
VIEWPOINT 0 0 0 1 0 0 0
POINTS 1510
DATA ascii
4.2417569 24.554802 -1.5349276
4.394629 24.541084 -1.5357461
4.5434904 24.504826 -1.5351795
4.6937637 24.476486 -1.5351795
4.8473511 24.464848 -1.5363128
5.0057716 24.47571 -1.5389574
5.1620364 24.473831 -1.5408462
5.318254 24.469978 -1.5426723
5.4724393 24.455391 -1.5438685
5.6253023 24.433996 -1.5446872
5.7748909 24.398048 -1.5446242
5.9214201 24.349548 -1.5438056
6.0658798 24.29339 -1.5425463
6.2145791 24.254747 -1.5424833
6.3554244 24.186235 -1.5405314
4.2983899 15.958418 -1.0055203
4.3911843 15.913464 -1.004324
6.8046927 24.083403 -1.5417278
5.9168644 20.460316 -1.3065546
4.3314462 14.640368 -0.92605889
7.2705326 24.032402 -1.5468909
7.4305339 24.028337 -1.5495983
7.5706129 23.959454 -1.5480872
7.7328086 23.960039 -1.5512354
7.8940463 23.955744 -1.5541319
8.0501137 23.934288 -1.5559578
8.218524 23.947689 -1.5601765
8.3817968 23.943909 -1.5633247
8.5493574 23.950304 -1.5672284
8.7203817 23.963984 -1.571699
8.8755865 23.932484 -1.5732101
9.0289688 23.895311 -1.5744065
9.1980009 23.89814 -1.5783732
9.3666792 23.897934 -1.5822141
9.5297823 23.881723 -1.5850475
9.705431 23.894924 -1.5899588
9.8819809 23.907787 -1.5949329
10.047834 23.8927 -1.5980812
6.3150744 14.762056 -0.97580099
6.3868217 14.680017 -0.97284162
10.556977 23.864342 -1.6091629
10.71344 23.821871 -1.6107371
10.875588 23.791086 -1.6131927
11.039022 23.761921 -1.6158372
11.216567 23.761429 -1.6205596
11.398834 23.768648 -1.6259116
11.575056 23.761065 -1.6303191
11.786574 23.82288 -1.6397009
11.941487 23.767946 -1.6409601
12.114764 23.748457 -1.644801
12.288249 23.727736 -1.6486418
8.3912029 15.961925 -1.1005341
12.642861 23.695786 -1.657268
12.810351 23.659014 -1.6602273
8.9680796 16.322588 -1.1378092
13.244522 23.759806 -1.6789908
8.3566418 14.777023 -1.0338545
9.2928276 16.199766 -1.1410834
9.3865318 16.132952 -1.1403908
9.4762163 16.059582 -1.1392573
14.222307 23.768848 -1.7103473
9.6099396 15.83884 -1.1316386
14.585076 23.709837 -1.7190363
9.9577894 15.966997 -1.1500243
14.959194 23.662357 -1.7289848
15.120256 23.595333 -1.7308737
15.273447 23.515505 -1.7318811
10.183668 15.470225 -1.1313238
10.288368 15.422392 -1.1324571
15.941802 23.582615 -1.7587042
16.102558 23.508232 -1.7605301
16.258448 23.426205 -1.7618524
10.532873 14.979118 -1.1181012
16.676722 23.410257 -1.7762084
16.839321 23.334196 -1.7782862
16.913271 23.136168 -1.7709193
16.969986 22.917257 -1.7619153
17.080343 22.772779 -1.7587671
17.236656 22.6898 -1.7605301
17.36825 22.57412 -1.7597746
17.548761 22.521444 -1.7641191
0 0 -0
11.937477 14.938133 -1.1692286
0 0 -0
12.08447 14.747288 -1.1657026
12.126935 14.615256 -1.1609802
17.480543 20.806515 -1.6772908
17.589775 20.67758 -1.6755278
17.740417 20.59724 -1.6778575
17.976006 20.613617 -1.6883726
18.232935 20.651064 -1.7008396
18.39522 20.578981 -1.7042397
18.983212 20.976316 -1.7476853
19.11763 20.866066 -1.748252
19.248695 20.752029 -1.7485669
19.377031 20.634985 -1.7486928
19.506718 20.519318 -1.7490076
15.675138 16.287413 -1.3889754
19.773071 20.294838 -1.7504557
19.897226 20.17313 -1.7504557
20.044607 20.074675 -1.7525966
20.214231 19.997631 -1.7567523
16.273014 15.902152 -1.3982942
16.309248 15.743086 -1.3929422
16.459709 15.694372 -1.3976645
17.170315 16.171982 -1.4509326
20.77211 19.325325 -1.7527854
20.905727 19.211687 -1.7541077
17.246346 15.654639 -1.4322951
21.151056 18.96369 -1.7550522
21.2715 18.837523 -1.75543
21.378422 18.699421 -1.7547374
21.473122 18.550928 -1.7531003
21.587303 18.419472 -1.7531632
21.707548 18.293098 -1.7537929
21.731936 18.086777 -1.7466149
21.937336 18.03104 -1.7543596
22.056084 17.903013 -1.7550522
21.962275 17.604424 -1.7386184
21.903202 17.337397 -1.725207
0 0 -0
0 0 -0
21.943962 16.721992 -1.7034211
21.994316 16.548029 -1.6993284
22.059387 16.385983 -1.6964951
22.087887 16.197792 -1.6908911
22.147247 16.033281 -1.6878059
22.221663 15.880259 -1.68598
22.350489 15.766046 -1.6884356
22.536901 15.691339 -1.6953616
22.706783 15.603631 -1.7010285
22.85083 15.497062 -1.7047434
23.080681 15.447042 -1.7150066
23.228325 15.340331 -1.7190363
23.280207 15.170272 -1.7158881
23.813576 15.310505 -1.7489446
23.971121 15.204728 -1.7537299
24.102882 15.08171 -1.7566264
23.944435 14.778895 -1.7380518
24.2367 14.754694 -1.7529744
24.49876 14.708963 -1.7656302
24.899426 14.742434 -1.7884235
25.196264 14.710143 -1.803535
25.408873 14.625967 -1.812476
25.748985 14.612143 -1.8306729
26.398205 14.767175 -1.8711591
26.84577 14.802015 -1.8969117
27.185129 14.772346 -1.9147936
27.604307 14.781467 -1.9383425
28.032555 14.790186 -1.9624579
28.195391 14.655647 -1.9676211
28.275902 14.477819 -1.9669914
28.394503 14.319328 -1.9691322
28.379036 14.093782 -1.9618913
28.381599 13.878613 -1.9560355
28.352921 13.649657 -1.948102
0 0 -0
28.390757 13.241214 -1.939224
28.273733 12.976009 -1.9254977
28.204557 12.735333 -1.9152344
28.247511 12.546638 -1.9128418
28.242567 12.337521 -1.9072379
28.096743 12.069063 -1.8920634
28.294386 11.948854 -1.9005636
0 0 -0
27.988857 11.417157 -1.8698999
28.050047 11.241864 -1.8693331
28.138927 11.077584 -1.8707184
27.994131 10.822663 -1.8563625
28.01709 10.634398 -1.853466
28.024767 10.441033 -1.8496252
28.035812 10.249689 -1.8460991
28.033356 10.054223 -1.8417546
28.012613 9.8532133 -1.8362767
0 0 -0
27.908289 9.4332895 -1.821417
27.876589 9.2323742 -1.8154984
27.894739 9.0488348 -1.8129797
27.915495 8.8666286 -1.8107131
27.944595 8.6874723 -1.809076
27.957272 8.5036449 -1.8064314
27.947702 8.3137302 -1.8024017
27.980938 8.1370726 -1.8012683
27.829699 7.9082136 -1.7881087
27.642092 7.6719103 -1.7726823
27.624105 7.4846692 -1.7684637
27.639601 7.3071222 -1.7665118
27.642361 7.1266766 -1.7638043
27.672985 6.9537702 -1.7629857
27.715132 6.7838411 -1.7629857
27.786331 6.6208282 -1.7649376
27.853655 6.4565206 -1.7667006
27.93948 6.2960238 -1.7697229
28.014633 6.1325822 -1.7721156
28.081997 5.9670029 -1.7740675
28.143496 5.7998204 -1.7757046
28.189318 5.6291761 -1.7763972
28.227247 5.4568615 -1.7766491
28.241558 5.2800746 -1.7754527
28.332352 5.1173325 -1.7792306
28.304228 4.9331098 -1.7754527
28.357584 4.7633133 -1.7769639
28.40204 4.5917735 -1.7779714
28.473074 4.4241581 -1.7807418
28.51745 4.252017 -1.7818751
28.599319 4.0850019 -1.7854642
28.662411 3.9147103 -1.7879198
28.694798 3.7399285 -1.7884865
28.723148 3.5645275 -1.7888643
28.764301 3.3905554 -1.7901236
28.748857 3.2100098 -1.7878568
28.744192 3.0310376 -1.7863457
7.5925832 0.7532565 -0.44418997
7.5602946 0.70323312 -0.44186026
7.4958625 0.65087014 -0.43751571
7.4350543 0.59964567 -0.43342301
7.4107265 0.55193675 -0.43166
7.3960509 0.50522971 -0.43052661
7.3571763 0.45723659 -0.42788211
7.3448963 0.41124752 -0.42693764
7.3343234 0.36552581 -0.42611909
7.3304458 0.32025468 -0.42574131
7.3362622 0.27541989 -0.42599317
7.3477893 0.23071399 -0.42662281
7.3540549 0.18575074 -0.42693764
7.345078 0.14043228 -0.42630798
7.3268409 0.095113918 -0.42511165
7.3183045 0.050093502 -0.42454499
7.3713689 0.0052286782 -0.42788211
7.4341364 -0.040339075 -0.43184888
7.488636 -0.086585 -0.43531194
7.5258822 -0.1332019 -0.43770459
7.5738125 -0.18054013 -0.44078988
7.5955062 -0.22769538 -0.44223806
7.6717606 -0.27710211 -0.44714931
25.070793 -1.0587119 -1.5459464
25.009995 -1.2099202 -1.5425463
24.990141 -1.3627039 -1.5417907
20.27434 -1.2304434 -1.2442825
24.935688 -1.666873 -1.539524
24.947886 -1.8215152 -1.5409722
24.97106 -1.9773151 -1.5431759
24.97238 -2.1316855 -1.5440575
19.950762 -1.8264867 -1.2267783
19.921301 -1.9471207 -1.2256449
19.902029 -2.0685968 -1.2252042
25.159555 -2.7710986 -1.5597357
10.591345 -1.2325957 -0.63553971
10.583582 -1.2975597 -0.63553971
10.577401 -1.3627299 -0.63566566
10.554994 -1.4257362 -0.63478416
10.574704 -1.4945227 -0.63661009
10.577184 -1.5611279 -0.6373657
13.853147 -2.1314476 -0.84710115
13.871342 -2.2214582 -0.84911597
24.68866 -4.1090331 -1.5418537
14.401638 -2.4880006 -0.88487995
13.633589 -2.4415791 -0.836649
24.351744 -4.5151095 -1.525357
24.285355 -4.657114 -1.5229013
24.2201 -4.7988625 -1.5205716
24.155977 -4.9403853 -1.5183679
24.086147 -5.0802722 -1.5158492
23.985279 -5.2129183 -1.5113788
23.958685 -5.361299 -1.5117565
23.811546 -5.4820099 -1.5043898
23.725018 -5.6155992 -1.5009896
23.601866 -5.7396088 -1.4952598
23.422897 -5.8485384 -1.4859411
23.375935 -5.9894242 -1.4852484
23.392799 -6.146946 -1.4887744
8.1988878 -2.2085667 -0.49852851
23.230944 -6.4101896 -1.4832336
7.8244567 -2.2110572 -0.47579825
8.0216646 -2.3200171 -0.48965049
8.0139771 -2.3711753 -0.49009123
7.9792166 -2.4142349 -0.48876897
7.9833226 -2.4690456 -0.49002826
8.2449512 -2.6054819 -0.50835103
22.231438 -7.1749535 -1.4366397
7.8550048 -2.5887134 -0.4846133
22.172932 -7.457726 -1.4387175
22.129587 -7.5946078 -1.4389064
22.058079 -7.7216768 -1.4372693
18.922607 -6.7547474 -1.2304302
21.971039 -7.9951944 -1.437899
21.882267 -8.1152811 -1.4352545
18.266651 -6.9022508 -1.1947923
18.549952 -7.1396675 -1.2168299
18.482565 -7.2442489 -1.2152557
18.634279 -7.4359326 -1.2286043
21.315123 -8.6576376 -1.4142872
21.242231 -8.7802553 -1.4129649
21.175997 -8.9054012 -1.4121464
21.094345 -9.0237837 -1.4103204
21.022106 -9.1458807 -1.4091871
20.969244 -9.2763119 -1.409439
20.945608 -9.4199476 -1.4117687
21.268641 -9.7225523 -1.4382138
21.090014 -9.7977896 -1.4299654
20.988884 -9.9078407 -1.427132
20.793612 -9.9721384 -1.4177502
20.679995 -10.074188 -1.4140983
20.580219 -10.182302 -1.4114538
20.511112 -10.305251 -1.411013
20.453718 -10.434086 -1.4114538
20.385765 -10.557555 -1.411202
20.2941 -10.66851 -1.409313
20.195679 -10.775449 -1.4069833
12.953669 -7.0140672 -0.89218384
19.952589 -10.9624 -1.3991127
19.857054 -11.069071 -1.3970978
19.761829 -11.175474 -1.3951459
12.49195 -7.1659832 -0.87140548
12.59957 -7.3308282 -0.8824873
12.604206 -7.4374151 -0.88613927
19.329176 -11.565876 -1.3839382
18.477968 -11.211105 -1.3263885
12.352963 -7.5991349 -0.87782788
18.853878 -11.758102 -1.364671
18.765348 -11.863434 -1.3634747
18.659431 -11.957353 -1.361019
18.573156 -12.063466 -1.3600746
18.472944 -12.160191 -1.3581227
18.358131 -12.246726 -1.3551004
18.194998 -12.299893 -1.3484261
18.054136 -12.36675 -1.3434519
17.967257 -12.469897 -1.3426334
17.858564 -12.55752 -1.3401778
17.743786 -12.640226 -1.3372813
17.60034 -12.701556 -1.3321812
17.446339 -12.753948 -1.3262626
17.314816 -12.821559 -1.3221068
17.128033 -12.846719 -1.3136066
17.015507 -12.926217 -1.3109621
16.931128 -13.026728 -1.3105843
16.823324 -13.108901 -1.3083806
16.711233 -13.187151 -1.3058619
16.578547 -13.248321 -1.3017063
16.448067 -13.310245 -1.2977395
16.319769 -13.372965 -1.2939616
16.182106 -13.426966 -1.2894282
15.981738 -13.427141 -1.2797316
15.895249 -13.521717 -1.2794168
15.79459 -13.604014 -1.2779686
15.677723 -13.671811 -1.2751982
15.567354 -13.744632 -1.2729944
15.43436 -13.79666 -1.2689017
15.325735 -13.869675 -1.2668868
15.21606 -13.941202 -1.264809
15.119256 -14.024124 -1.2638645
15.019097 -14.103649 -1.2626683
14.922873 -14.186601 -1.2618496
14.8075 -14.250909 -1.259394
14.676888 -14.29971 -1.2556162
14.530605 -14.33203 -1.250453
14.402137 -14.380724 -1.2468641
14.313627 -14.468823 -1.2468641
14.206443 -14.53782 -1.245227
14.083009 -14.589531 -1.2421417
13.951212 -14.631608 -1.2383008
13.84338 -14.698047 -1.2366638
13.80256 -14.836052 -1.2412602
6.9203258 -7.530921 -0.60808712
13.091547 -14.422745 -1.191707
12.989479 -14.48794 -1.1904477
6.7448034 -7.6166801 -0.60468698
6.6815143 -7.639142 -0.60311288
6.6149421 -7.6573391 -0.60122395
13.211099 -15.483355 -1.246927
13.098481 -15.543519 -1.245227
12.999669 -15.619762 -1.2449121
6.5042448 -7.9137459 -0.60909456
12.776192 -15.740144 -1.2418269
12.679996 -15.819019 -1.2418898
12.536856 -15.838617 -1.2372304
2.0064073 -2.5675793 -0.16840455
1.9900054 -2.579052 -0.16834158
1.9705137 -2.5864511 -0.1679638
1.948006 -2.5897207 -0.16727118
1.9296987 -2.5984201 -0.16701932
1.9308345 -2.6335506 -0.1688453
1.9187359 -2.6510074 -0.16928606
11.417312 -15.976738 -1.2017183
11.242552 -15.938027 -1.193344
11.143976 -16.005892 -1.1932811
10.039433 -14.609879 -1.0812039
10.952882 -16.150526 -1.1939737
10.832484 -16.185909 -1.191581
10.655966 -16.135483 -1.182766
10.567112 -16.21645 -1.1839623
10.456616 -16.264193 -1.182703
10.322946 -16.274952 -1.1787362
10.218125 -16.330372 -1.1781696
10.421242 -16.884487 -1.2146261
9.8488092 -16.178335 -1.157769
9.746273 -16.233328 -1.1573912
9.6439409 -16.288532 -1.1570764
9.5478401 -16.354294 -1.1575801
9.448308 -16.414301 -1.157706
9.6409941 -16.989285 -1.195233
9.5390043 -17.052475 -1.1955478
8.940733 -16.215746 -1.1310719
8.9225521 -16.42025 -1.1418389
8.7193956 -16.28377 -1.1281756
8.596961 -16.294596 -1.1251533
8.4917536 -16.337297 -1.1244607
8.3940792 -16.394424 -1.1248385
8.5391493 -16.933058 -1.1592802
8.0435486 -16.196758 -1.1037452
7.9308624 -16.21891 -1.1018564
7.9861817 -16.589193 -1.1243978
7.8906527 -16.651411 -1.1253421
6.9079247 -14.811874 -0.99393481
7.489645 -16.319769 -1.0956858
7.7791433 -17.228613 -1.1554393
7.5412107 -16.97868 -1.1349128
7.4560666 -17.068531 -1.1379352
7.3500142 -17.111208 -1.1377462
7.280993 -17.241488 -1.1436019
7.1601419 -17.249889 -1.1411463
7.2999449 -17.896002 -1.1821992
7.1888857 -17.937677 -1.1820104
7.0717406 -17.963806 -1.180814
6.9322324 -17.931459 -1.1757139
6.7232623 -17.713333 -1.1581467
6.6228113 -17.776699 -1.159658
6.5228639 -17.84231 -1.161358
6.4702053 -18.040758 -1.171999
6.1851926 -17.584908 -1.1388795
6.0241394 -17.46874 -1.1286163
5.9117265 -17.490248 -1.1276089
6.0901532 -18.389277 -1.1849698
5.9562626 -18.361746 -1.1806881
5.7900076 -18.229588 -1.1695434
5.635674 -18.12849 -1.1605394
5.5069075 -18.105438 -1.1567615
5.3843279 -18.100624 -1.154243
5.2645235 -18.103613 -1.1522911
5.2572846 -18.501337 -1.1762806
5.1596789 -18.590946 -1.1800585
4.030694 -14.877024 -0.93525171
3.9375489 -14.894722 -0.93481094
4.6596279 -18.073931 -1.1403908
4.5763698 -18.212524 -1.1475687
4.4324989 -18.109394 -1.1390685
4.3097315 -18.087709 -1.1359203
4.1997929 -18.118673 -1.1362351
4.1300082 -18.328112 -1.1481354
4.0343328 -18.430128 -1.1531096
3.9278097 -18.485773 -1.1551244
0.49518558 -2.4046888 -0.11771796
0.48100773 -2.4106181 -0.11790685
0.47018567 -2.4341013 -0.11922912
3.3950071 -18.159668 -1.1283644
0.50645143 -2.8060195 -0.14271495
0.49607939 -2.848402 -0.14523354
0.47032571 -2.802181 -0.1420853
0.45168933 -2.7961471 -0.14151862
0.43222529 -2.7840734 -0.14057414
0.40968826 -2.7501502 -0.13824445
0.40155622 -2.8138673 -0.14214827
0.37928557 -2.7796915 -0.13981856
0.36067456 -2.7700906 -0.139063
0.24299601 -1.9611003 -0.087494902
0.22885513 -1.9447136 -0.086361535
0.21791515 -1.9550079 -0.086928219
0.20497328 -1.9473757 -0.086361535
0.19183758 -1.936679 -0.085605957
0.17995073 -1.9378197 -0.085605957
0.16779794 -1.9359045 -0.085417062
0.1543909 -1.9179969 -0.084220737
0.14232267 -1.914927 -0.083968878
0.13043408 -1.9137728 -0.083842948
0.11893678 -1.9185215 -0.084094808
0.10721856 -1.9202117 -0.084157772
0.095683001 -1.9258173 -0.084472597
0.083864607 -1.9263681 -0.084472597
0.072530493 -1.9398115 -0.085291132
0.05999916 -1.9202696 -0.084031843
0.048038695 -1.9136177 -0.083591089
0.03635345 -1.9168699 -0.083779983
0.024031678 -1.8741459 -0.081072502
0.012511026 -1.8712641 -0.080883607
0.0010114029 -1.8483512 -0.079435416
-0.010388864 -1.8593006 -0.080128029
-0.03037655 -2.6046703 -0.12716267
-0.046146635 -2.5924606 -0.12640709
-0.046176974 -1.9246448 -0.084283702
-0.057030234 -1.8924031 -0.082268827
-0.076266922 -2.1034594 -0.095617346
-0.77766567 -18.41297 -1.1255311
-0.86927426 -17.966248 -1.0976377
-0.95151943 -17.447359 -1.0652108
-1.1165169 -18.396532 -1.125594
-1.1579671 -17.320848 -1.0580329
-0.24932908 -3.4101257 -0.17854187
-0.23803377 -3.0016165 -0.15278929
-0.28394404 -3.3222852 -0.17318986
-0.35499287 -3.8740611 -0.20826121
-0.28751659 -2.9381227 -0.14907439
-0.30430129 -2.924391 -0.14831881
-0.42646 -3.8688545 -0.20838714
-0.44765356 -3.8443558 -0.20700191
-0.44719419 -3.6453972 -0.1945349
-0.46317914 -3.5930927 -0.19138667
-0.48628569 -3.5980954 -0.19189039
-0.37110305 -2.6236427 -0.12999608
-0 -0 -0
-0.46700239 -3.0331845 -0.15644126
-0.48670939 -3.0371602 -0.156882
-0.63886076 -3.8364649 -0.20819825
-0.53532475 -3.0968502 -0.16110064
-0.55343711 -3.0885952 -0.16078582
-3.6556842 -19.716112 -1.2279117
-3.2148232 -16.763613 -1.0397102
-3.315295 -16.731825 -1.0389546
-0.53668725 -2.622349 -0.13169612
-0.5540033 -2.6248658 -0.13207391
-0.85876489 -3.9497097 -0.21783185
-4.0857964 -18.258257 -1.1432241
-3.8565342 -16.750635 -1.0472659
-4.2670217 -18.027073 -1.1315757
-4.0891542 -16.814539 -1.0545698
-0.69303322 -2.7740834 -0.14321867
-0.71028936 -2.7707455 -0.14328162
-0.74147981 -2.8203893 -0.14680766
-1.0995486 -4.0810947 -0.22948031
-0.62101233 -2.2492309 -0.11003626
-0.94305199 -3.3364148 -0.18156417
-0.95019877 -3.2845464 -0.17854187
-0.76139748 -2.5723751 -0.13207391
-0.70521104 -2.3297944 -0.1163957
-0.78406209 -2.5342338 -0.13018498
-1.0551752 -3.3382728 -0.18370497
-6.0463705 -18.734341 -1.2048036
-1.3487409 -4.0919099 -0.23464341
-1.373505 -4.0826116 -0.23458046
-0.72828919 -2.1210151 -0.10430647
-0.73040873 -2.0854213 -0.10222864
-1.1917593 -3.3375897 -0.18641245
-1.4951245 -4.107697 -0.23861019
-1.527588 -4.1180964 -0.23993246
-1.5528274 -4.1086459 -0.23993246
-1.5844609 -4.1158061 -0.24106582
-1.1795907 -3.0086231 -0.16670451
-1.1665899 -2.9225383 -0.1613525
-1.3805392 -3.3979974 -0.19422008
-1.3967882 -3.3783946 -0.1934645
-1.2364353 -2.9392092 -0.16399702
-1.6249758 -3.7977722 -0.2234357
-1.2970951 -2.9805551 -0.16790083
-1.3206075 -2.9844053 -0.16871937
-1.7539583 -3.8991988 -0.23256558
-1.5695654 -3.4327073 -0.2009573
-1.4459562 -3.1116514 -0.17929745
-1.5020853 -3.1812401 -0.18477537
-7.3539405 -15.333979 -1.0357434
-1.9199427 -3.9404619 -0.23936577
-0.88769889 -1.793372 -0.089069016
-0.90137434 -1.7932423 -0.089446805
-0.90374398 -1.7707863 -0.088250473
-0.9279018 -1.7909083 -0.090076454
-1.6776977 -3.1906645 -0.1902533
-0.93994355 -1.7608955 -0.088754192
-0.949305 -1.7524621 -0.088565297
-0.95859832 -1.7439802 -0.088376403
-1.9498621 -3.4972243 -0.21543919
-1.4947648 -2.6425207 -0.15436342
-10.088346 -17.586626 -1.2419528
-10.321535 -17.740055 -1.257694
-10.411934 -17.645445 -1.2554272
-10.389339 -17.362841 -1.2393713
-5.0942683 -8.3958721 -0.58239752
-1.5392486 -2.5015554 -0.14812991
-1.5825585 -2.5369463 -0.15146704
-11.06403 -17.500814 -1.2690907
-1.3427272 -2.0946655 -0.11979579
-1.3348975 -2.0545821 -0.11740313
-1.3716232 -2.0830324 -0.12017358
-1.3738557 -2.0588024 -0.11897726
-1.4071424 -2.0809264 -0.12130695
-1.4193203 -2.0714297 -0.12124398
-1.4086738 -2.0290658 -0.11866243
-1.3298246 -1.8905764 -0.10865104
-1.3471903 -1.8905097 -0.10928069
-1.4002302 -1.9396679 -0.11375118
-1.4280076 -1.9527936 -0.11545123
-1.5433023 -2.0835545 -0.12640709
-1.5853996 -2.1131678 -0.12949236
-1.4504287 -1.908694 -0.114066
-1.466373 -1.9052954 -0.11450676
-1.5669805 -2.0104134 -0.12363664
-1.5799049 -2.0015442 -0.12369961
-1.633276 -2.0432703 -0.12785527
-1.6508049 -2.0394168 -0.12835899
-2.9018109 -3.5407467 -0.2516439
-1.6808056 -2.0251498 -0.12886271
-1.691274 -2.012506 -0.12867382
-1.6997108 -1.9975296 -0.12829603
-1.7184484 -1.9946249 -0.12892568
-1.7273753 -1.9802821 -0.12861085
-1.7355304 -1.9651569 -0.12823306
-2.277647 -2.5475087 -0.17841594
-2.1834109 -2.4121265 -0.16808972
-2.2339025 -2.437685 -0.17142685
-2.2596767 -2.4356396 -0.17243429
-2.3012226 -2.4501028 -0.17488991
-2.3334033 -2.45402 -0.17646404
-2.4501476 -2.5453644 -0.18571985
-3.0388937 -3.1185982 -0.2375398
-16.105099 -16.328312 -1.4097538
-3.2327764 -3.2371509 -0.25145501
-2.4991055 -2.4718339 -0.18458648
-2.5078013 -2.4501753 -0.18401979
-2.5249422 -2.436821 -0.18420869
-2.5485141 -2.4295471 -0.18496427
-3.4947422 -3.29111 -0.26568502
-2.5781364 -2.3980901 -0.18496427
-3.0770614 -2.8272567 -0.22645801
-3.2569244 -2.9558969 -0.24031024
-3.326272 -2.981828 -0.2446548
-2.6840293 -2.3764441 -0.18899401
-17.442932 -15.257003 -1.4248652
-3.6403859 -3.144541 -0.26631466
-17.568871 -14.990626 -1.4198911
-3.3619893 -2.8327293 -0.24018432
-3.4521809 -2.8726993 -0.24616596
-3.4072921 -2.8001313 -0.24106582
-3.4213097 -2.7766559 -0.24081396
-4.1149831 -3.2980533 -0.29553029
-4.1343594 -3.2721226 -0.29546732
-4.1480684 -3.2417762 -0.2949636
-3.8115602 -2.9412546 -0.26656651
-18.194071 -13.864369 -1.4059758
-3.0530641 -2.2966256 -0.20385368
-11.315838 -8.4052992 -0.85213828
-3.0061712 -2.2040982 -0.19799796
-3.0034707 -2.1739061 -0.19673866
-3.0427363 -2.1740053 -0.19875354
-3.0804842 -2.1725531 -0.20064248
-3.0773761 -2.1422052 -0.19938318
-3.0904624 -2.1232824 -0.19938318
-3.1075623 -2.1070807 -0.199698
-19.74402 -13.213869 -1.4616996
-19.794746 -13.072673 -1.459433
-19.838633 -12.927539 -1.4567255
-3.6553049 -2.3497093 -0.23697312
-5.7040987 -3.617712 -0.38896993
-5.7312651 -3.5858207 -0.3893477
-3.6877449 -2.2757385 -0.23621754
-3.7084589 -2.25722 -0.23672126
-3.7299397 -2.2390463 -0.23728794
-3.7582073 -2.224762 -0.23835833
-3.7821298 -2.2076986 -0.23911391
-3.8180935 -2.1973956 -0.240751
-3.8827157 -2.2029893 -0.24446592
-3.8778691 -2.1688917 -0.24314366
-3.9042134 -2.1522851 -0.24408813
-3.8708704 -2.1030331 -0.240751
-3.8546677 -2.063695 -0.23867317
-3.8999171 -2.0572362 -0.24100286
-3.9682548 -2.0622668 -0.24496964
-3.9755039 -2.0351503 -0.24459185
-4.3488154 -2.1927254 -0.27009255
-4.3738084 -2.1717715 -0.2709111
-4.4031897 -2.1527851 -0.27204445
-4.4334011 -2.1339526 -0.27324077
-17.62994 -8.3543768 -1.1936588
-5.7390866 -2.6763103 -0.36233586
-5.7427011 -2.6352174 -0.36145434
-22.477819 -10.149424 -1.5188086
-22.533287 -10.008475 -1.5183679
-5.8414493 -2.5514402 -0.36498037
-5.7955561 -2.4891577 -0.36076173
-5.7748642 -2.4384072 -0.35830611
-22.733408 -9.4363956 -1.5157233
-22.792728 -9.2974825 -1.5158492
-9.6095181 -3.8510077 -0.61595768
-9.6283226 -3.7901444 -0.61564285
-22.780346 -8.8069086 -1.503697
-22.811562 -8.6584654 -1.5021859
-22.882963 -8.5253019 -1.5034453
-22.933907 -8.3843918 -1.5033823
-23.386992 -8.3877239 -1.5303311
-13.403845 -4.7144742 -0.85925329
-14.124093 -4.8706489 -0.90540642
-7.7945385 -2.6343303 -0.48190582
-7.7916074 -2.5801785 -0.48064652
-7.7959008 -2.528626 -0.47989094
-14.432462 -4.5838923 -0.91818827
-14.48986 -4.5044351 -0.92014021
-14.543006 -4.4232841 -0.92184025
-14.523956 -4.3203068 -0.91881794
-14.553067 -4.2319441 -0.91900682
-14.68532 -4.1728511 -0.92599589
-9.7119379 -2.6952257 -0.59870535
-9.6926517 -2.6259263 -0.59637564
-9.6921787 -2.562067 -0.59530526
-12.913301 -3.3290513 -0.80415922
-13.241282 -3.3271034 -0.82418197
-13.089865 -3.2037928 -0.81303722
-13.080152 -3.1164744 -0.81114829
-13.180696 -3.0550895 -0.8164373
-13.318946 -3.0011442 -0.82418197
-11.495473 -2.516191 -0.70524162
-15.202752 -3.2301693 -0.94337416
-15.110854 -3.1138606 -0.93619621
-15.082699 -3.0117018 -0.93317389
-15.102854 -2.9194784 -0.93329984
-15.296085 -2.8595872 -0.94457048
-15.306468 -2.7644365 -0.94412977
-15.320193 -2.6699517 -0.94394082
-15.503605 -2.6040058 -0.95464486
-15.528158 -2.5102623 -0.95521152
-15.518614 -2.4111047 -0.95363742
-15.44329 -2.3024445 -0.94790763
-15.291145 -2.1839323 -0.93732953
-15.586075 -2.128561 -0.95527452
-15.948187 -2.0784233 -0.97750103
-16.183483 -2.0081859 -0.99166811
-16.715855 -1.9701915 -1.0247246
-27.203554 -3.0374444 -1.6897578
-27.202822 -2.8684804 -1.6885614
-27.392717 -2.7186663 -1.6995174
-0 -0 -0
-0 -0 -0
-0 -0 -0
-30.88183 -2.30129 -1.9165567
-30.913292 -2.1129847 -1.91769
-30.925674 -1.9232645 -1.91769
-30.905008 -1.7316848 -1.9156752
-30.911064 -1.5418237 -1.9154233
-30.895016 -1.3510376 -1.9138492
-30.885771 -1.1608065 -1.9127787
-0 -0 -0
-25.558258 1.8891671 -1.8986036
-25.539227 2.0453966 -1.8980763
-25.517256 2.201292 -1.8973984
-25.498302 2.3573623 -1.8970218
-25.463512 2.5118139 -1.8955152
-25.425802 2.6657193 -1.8938581
-25.376263 2.8180454 -1.8913722
-25.349581 2.9726527 -1.8906943
-25.321957 3.1270385 -1.8900163
-25.291414 3.2809405 -1.8891878
-25.254999 3.4339137 -1.8879825
-25.236414 3.5892322 -1.8882085
-25.190245 3.7404962 -1.8864007
-25.150066 3.8923967 -1.8851202
-25.10602 4.0434694 -1.8836136
-25.08172 4.1976056 -1.8836889
-25.036827 4.3481822 -1.8822577
-25.005751 4.5010166 -1.8819563
-24.978642 4.6545472 -1.8820317
-24.953527 4.8084807 -1.882333
-24.923553 4.9615021 -1.882333
-24.901432 5.1161432 -1.883011
-24.883228 5.2717333 -1.8840655
-24.873795 5.429419 -1.8858734
-24.870173 5.5887184 -1.8882085
-24.886902 5.7531195 -1.8922008
-24.904491 5.9183969 -1.8963438
-24.922924 6.0845795 -1.9006374
-24.934448 6.2497554 -1.9044791
-24.9613 6.4195247 -1.9096013
-24.960009 6.5827365 -1.9126143
-24.983641 6.7532005 -1.9176613
-24.988823 6.9194112 -1.9213523
-25.050463 7.1022615 -1.9295629
-25.054295 7.2697306 -1.9333292
-25.14209 7.4627705 -1.9437997
-25.135902 7.6290641 -1.9469634
-25.176235 7.8103371 -1.9538935
-25.155403 7.9734073 -1.9560779
-25.178104 8.1509523 -1.9618028
-25.210934 8.3328304 -1.9684316
-25.296329 8.5335884 -1.9793539
-25.310436 8.7116871 -1.9847021
-25.224516 8.8555937 -1.982141
-25.310526 9.0606184 -1.99344
-25.366861 9.2567749 -2.0024793
-25.370335 9.434844 -2.0073755
-25.369778 9.6122427 -2.0120459
-25.389393 9.7982473 -2.0184486
-25.386333 9.9764643 -2.0231187
-25.389448 10.157975 -2.0283916
-25.39221 10.340275 -2.0337398
-25.397373 10.524518 -2.0393894
-25.380096 10.700301 -2.0433064
-25.362534 10.87666 -2.0472987
-25.341932 11.052409 -2.0511403
-25.384846 11.257017 -2.0603302
-25.360748 11.433057 -2.0640967
-25.354481 11.617948 -2.0694449
-25.372208 11.814978 -2.0769022
-25.359623 11.999013 -2.081949
-25.290915 12.156982 -2.082401
-25.224804 12.316312 -2.0831542
-25.113918 12.453578 -2.0802166
-24.997845 12.587705 -2.0769022
-0 0 -0
-24.695463 12.817718 -2.0644732
-24.574886 12.947158 -2.0609329
-24.441343 13.069019 -2.0563378
-24.336153 13.205425 -2.0542288
-24.183916 13.31554 -2.0481274
-24.03734 13.427691 -2.0425532
-23.940617 13.567061 -2.041348
-0 0 -0
-23.719778 13.829189 -2.0367529
-23.620745 13.96635 -2.0355477
-23.512369 14.097688 -2.0335894
-23.400715 14.226668 -2.0314047
-23.290913 14.35638 -2.0294464
-23.174479 14.481581 -2.0269604
-23.038857 14.594153 -2.0228176
-22.907761 14.708841 -2.0191264
-22.786991 14.829542 -2.0164146
-22.628147 14.924607 -2.0103133
-22.466509 15.016621 -2.0039859
-22.350004 15.137973 -2.0018013
-22.167086 15.213318 -1.9935907
-22.030752 15.319441 -1.9896737
-21.94286 15.458925 -1.9902763
-21.835419 15.584583 -1.9891465
-21.69898 15.689055 -1.9853801
-21.591043 15.813653 -1.9843255
-21.460773 15.921474 -1.9812372
-21.345139 16.039677 -1.9795799
-21.207441 16.140753 -1.975889
-21.054302 16.229176 -1.9707667
-20.926029 16.335966 -1.9680549
-0 0 -0
-20.62513 16.512381 -1.9584885
-20.495539 16.616014 -1.9557767
-20.365454 16.718681 -1.9530649
-20.244083 16.828028 -1.9512571
-20.130531 16.943579 -1.9502778
-20.008734 17.051901 -1.9485453
-19.891649 17.163927 -1.94734
-19.784456 17.284346 -1.9471895
-19.667574 17.396166 -1.9461348
-19.539663 17.497889 -1.9440256
-19.423805 17.610085 -1.9431971
-19.291145 17.706684 -1.9407113
-19.14196 17.787384 -1.9365684
-18.989611 17.864187 -1.932124
-18.859423 17.961113 -1.9300148
-18.723019 18.051579 -1.9273031
-18.596918 18.151493 -1.9257213
-18.486612 18.266663 -1.925872
-18.368542 18.374107 -1.9252692
-18.254755 18.48576 -1.925194
-18.128452 18.584572 -1.9238381
-18.004391 18.685402 -1.9227835
-17.877028 18.782522 -1.9214276
-17.743685 18.872971 -1.9194691
-17.611265 18.963951 -1.9176613
-17.479744 19.055489 -1.9160041
-17.363831 19.16386 -1.9161547
-17.206684 19.226202 -1.9117105
-17.07122 19.311993 -1.909752
-16.928795 19.389334 -1.9070402
-16.795179 19.476227 -1.905383
-16.661783 19.562971 -1.9038012
-16.529238 19.650339 -1.90237
-16.389877 19.729145 -1.9001855
-16.256496 19.814693 -1.8987542
-16.121428 19.897797 -1.8971725
-15.971002 19.961304 -1.8937827
-15.828441 20.033884 -1.8913722
-15.684363 20.103897 -1.8888111
-15.546109 20.180798 -1.8870033
-15.402674 20.250408 -1.8845928
-15.260765 20.321411 -1.8824084
-12.450994 16.793156 -1.5418558
-14.978439 20.463703 -1.8783407
-14.834492 20.530167 -1.8760055
-14.702452 20.612684 -1.8752522
-14.569384 20.693541 -1.8744237
-14.447826 20.790735 -1.875177
-14.318293 20.876528 -1.874951
-14.202782 20.982983 -1.8766835
-14.075427 21.072222 -1.8769095
-13.955194 21.172344 -1.87819
-13.828281 21.26259 -1.878642
-13.707788 21.362984 -1.8800732
-11.492798 18.154818 -1.5857714
-11.438752 18.317188 -1.593982
-11.44485 18.579762 -1.6110812
-11.436245 18.823492 -1.6264479
-11.451212 19.111433 -1.6456562
-11.434667 19.352182 -1.6606462
-12.710094 21.815552 -1.869904
-12.567554 21.878429 -1.8686235
-9.6000795 16.951906 -1.4342892
-12.274312 21.98834 -1.8649325
-12.127627 22.042273 -1.8631247
-11.977892 22.089973 -1.8608649
-11.229396 21.016174 -1.7626387
-11.244684 21.359098 -1.7860653
-11.485251 22.144711 -1.8470801
-10.520401 20.592375 -1.709458
-10.614793 21.095692 -1.7465941
-10.484267 21.158638 -1.7464435
-10.564533 21.653646 -1.7826756
-10.744011 22.368845 -1.8372123
-10.605704 22.432545 -1.8370616
-9.2930584 19.97204 -1.6266738
-10.085979 22.028791 -1.7928448
-9.9584026 22.107538 -1.794276
-9.8112564 22.142698 -1.7921668
-9.8377171 22.575457 -1.8229002
-9.7979698 22.866373 -1.8418826
-9.6563187 22.923304 -1.8416566
-9.5170078 22.985807 -1.8419578
-9.3821783 23.059473 -1.8432384
-9.2593861 23.16383 -1.8470801
-9.1218176 23.232275 -1.8480593
-8.9751501 23.277573 -1.8472307
-8.8342705 23.337801 -1.8476827
-8.6950731 23.402784 -1.8485866
-8.5489225 23.449139 -1.8480593
-8.4058876 23.503969 -1.8482853
-8.2667913 23.57016 -1.8494905
-8.0850525 23.512939 -1.8409033
-7.8995533 23.440207 -1.8311862
-7.7290068 23.407751 -1.8247833
-7.549953 23.345623 -1.8161207
-7.3737602 23.287888 -1.8079101
-7.1962004 23.221252 -1.7990969
-7.0333328 23.198172 -1.7938241
-6.8761215 23.191175 -1.789907
-6.7187066 23.181211 -1.7858394
-6.5600433 23.164434 -1.7813197
-6.4079523 23.16869 -1.7785327
-6.2589149 23.182541 -1.7765741
-6.1129961 23.20701 -1.7755196
-5.9717259 23.248911 -1.7758962
-5.8294449 23.287048 -1.7760469
-5.6866846 23.323349 -1.7761222
-5.5434685 23.357801 -1.7761222
-5.3955579 23.371944 -1.7746156
-5.2492113 23.391962 -1.7736365
-5.103034 23.412039 -1.7727325
-4.9436035 23.368765 -1.7670077
-4.7907062 23.352749 -1.7634673
-4.6389694 23.339649 -1.7602283
-4.4932241 23.354944 -1.759249
-2.7223825 14.631486 -1.086882
-2.6263833 14.613564 -1.0842456
-2.4884765 14.351353 -1.0629281
-2.3790188 14.238492 -1.0531355
-2.2886021 14.234116 -1.0517043
-2.1971116 14.221282 -1.0496705
-2.1095178 14.232523 -1.0495199
-2.1469469 15.124859 -1.116636
-1.8957089 13.969797 -1.0275998
-1.8125149 14.000944 -1.0291063
-1.7656924 14.329491 -1.0532862
-1.6683558 14.259831 -1.0471847
-1.5825831 14.285657 -1.0483899
-1.4985253 14.32981 -1.0510263
-1.4152532 14.38637 -1.0546421
-1.346067 14.60231 -1.0703853
-1.2691619 14.758327 -1.0816091
-1.1833384 14.825476 -1.0861287
-1.0921292 14.829474 -1.0859027
-1.0175457 15.079647 -1.1043577
-0.93133843 15.189117 -1.1121918
-0.8385061 15.201516 -1.1127191
-0.70764267 14.438484 -1.0546421
-0.61907911 14.44355 -1.0547174
-0.54701763 14.899484 -1.0889158
-0.46129954 15.089938 -1.1030772
-0.35306713 14.450504 -1.0545667
-0.26551971 14.514213 -1.059237
-0.17772146 14.620263 -1.0671463
-0.086700961 14.40071 -1.0504991
0.00165746 14.379033 -1.048842
0.094463341 15.101678 -1.1034539
0.17865722 14.421802 -1.0521563
0.2692962 14.536084 -1.0608943
0.35658348 14.4574 -1.055094
0.45664477 14.822717 -1.0828897
0.5382883 14.568523 -1.0639073
0.63347554 14.699438 -1.0740764
0.72935605 14.810804 -1.0828143
0.8210482 14.820985 -1.0839442
0.93012983 15.110268 -1.106241
1.017836 15.030656 -1.1006668
1.1073954 14.988327 -1.097955
1.1967924 14.949443 -1.0955446
1.2879834 14.935858 -1.0950925
1.3629804 14.747954 -1.0814584
1.4571679 14.777023 -1.0843209
1.5499949 14.78863 -1.0859027
1.6427991 14.797671 -1.0873339
1.7292662 14.750669 -1.0845468
1.8043376 14.615087 -1.0750556
1.9098928 14.726359 -1.0843961
2.0043821 14.744993 -1.0867313
2.0920091 14.712673 -1.0852247
2.1664221 14.593035 -1.0770894
2.2743819 14.698704 -1.0862041
2.3516819 14.60473 -1.0801026
2.4619949 14.713943 -1.0895938
2.570152 14.801716 -1.0975031
2.6554477 14.755244 -1.0951679
2.7263839 14.633783 -1.0871079
2.8495278 14.790087 -1.1004407
2.941977 14.781125 -1.1011187
2.9922712 14.566469 -1.085978
3.0894482 14.584904 -1.0888405
3.2135508 14.724469 -1.1011187
3.3031819 14.701555 -1.1008928
3.3630011 14.549854 -1.0907236
3.4628212 14.573571 -1.0941887
3.5389316 14.497803 -1.0899704
3.6270943 14.472914 -1.0897443
3.7389324 14.540197 -1.0967498
3.8153625 14.468773 -1.0929835
3.888715 14.388297 -1.0885391
3.9726684 14.348789 -1.0873339
4.0660768 14.34333 -1.0888405
4.1548429 14.320984 -1.0890664
4.3008132 14.491185 -1.1045084
4.3968897 14.488378 -1.1063915
4.4765453 14.431602 -1.1040565
4.5686278 14.41527 -1.1049604
4.6683574 14.422067 -1.1077474
4.7808609 14.466052 -1.1135477
4.8759084 14.455341 -1.1150541
4.9904785 14.50058 -1.1210803
5.0869565 14.491325 -1.1228129
5.1999784 14.527433 -1.1282364
5.2681651 14.438113 -1.1236415
5.3319759 14.33916 -1.1182933
5.4357591 14.348134 -1.1216829
5.5355444 14.345209 -1.1241688
5.6883874 14.476167 -1.1375769
5.785254 14.461359 -1.1392341
5.8945646 14.476381 -1.1433771
5.989006 14.453758 -1.1445069
6.092689 14.452573 -1.1474447
6.1926522 14.441493 -1.1496292
6.2297192 14.285318 -1.139912
6.3285742 14.272347 -1.1420212
6.4570141 14.32415 -1.1495539
6.5800948 14.361314 -1.1559566
6.673563 14.33242 -1.1569359
6.7805729 14.331762 -1.1603256
6.8761601 14.306065 -1.1616815
6.9769373 14.290485 -1.1639413
7.0968323 14.312619 -1.1694402
7.300683 14.49947 -1.1889498
7.3418465 14.361178 -1.1810404
7.4399338 14.33533 -1.1826977
7.55053 14.332637 -1.1863886
7.6609025 14.328246 -1.1900043
7.7700772 14.320409 -1.1933941
7.871748 14.297793 -1.1955786
8.012826 14.344981 -1.2038645
8.1336365 14.353669 -1.2089114
8.2826843 14.409824 -1.2181766
8.324234 14.278619 -1.2111712
8.5187826 14.40838 -1.2270651
8.607543 14.356693 -1.2271404
8.685111 14.286568 -1.225634
8.7815046 14.247437 -1.2269145
8.890955 14.228803 -1.2300782
9.0010405 14.210202 -1.2333173
9.2157593 14.353562 -1.2511697
9.331399 14.339368 -1.2550114
9.4340324 14.304316 -1.2570453
9.5570898 14.299216 -1.2618661
9.6278715 14.215538 -1.2596064
10.895966 15.876925 -1.4172653
13.857428 19.928438 -1.7962345
13.985188 19.851187 -1.7969878
10.569963 14.810123 -1.3371176
14.278574 19.748371 -1.8035412
14.412442 19.678085 -1.8051984
14.545985 19.606901 -1.8068556
14.664819 19.515684 -1.8067049
14.798783 19.444378 -1.8085128
14.89894 19.328728 -1.8061776
0 0 -0
11.89743 15.049589 -1.4118418
11.942806 14.917925 -1.4061923
11.993923 14.794792 -1.4013714
12.052207 14.681616 -1.3975297
12.109554 14.568282 -1.3936881
15.681107 18.630733 -1.8021853
15.797715 18.537201 -1.8024867
15.905296 18.433125 -1.8018087
16.022038 18.339691 -1.8022606
16.131622 18.238049 -1.8019593
16.238569 18.133524 -1.801432
16.338142 18.020987 -1.8001515
16.441666 17.913052 -1.7993982
16.563488 17.824978 -1.8007541
16.684164 17.735357 -1.8020346
16.131769 16.938757 -1.7296456
16.301153 16.90765 -1.7368016
16.415039 16.818012 -1.7379315
16.491989 16.690731 -1.7351445
16.261925 16.257189 -1.6996655
16.345051 16.140987 -1.697933
16.418085 16.015327 -1.6952212
16.323595 15.728868 -1.6750337
16.429911 15.638036 -1.6760882
16.594576 15.601814 -1.6832442
16.856594 15.654402 -1.7004188
17.074318 15.662565 -1.712923
17.209265 15.592988 -1.7169154
17.326166 15.506385 -1.7190999
17.457596 15.43214 -1.7227908
17.586512 15.354898 -1.7262559
17.692478 15.257119 -1.7274611
17.811573 15.170255 -1.7300222
17.922636 15.076084 -1.7318301
18.115286 15.049296 -1.7416979
18.330637 15.03905 -1.7537502
18.502375 14.990945 -1.7615088
18.689781 14.953755 -1.770774
18.822655 14.871557 -1.7747663
18.925343 14.764983 -1.7758962
19.032963 14.661968 -1.7775534
19.14876 14.564828 -1.7800392
19.342226 14.525496 -1.789907
19.549541 14.494431 -1.8010554
19.786974 14.483155 -1.8149909
0 0 -0
0 0 -0
0 0 -0
0 0 -0
21.193956 14.535982 -1.9040271
21.547832 14.585074 -1.928207
21.880709 14.61541 -1.9503531
22.152313 14.601049 -1.9668497
22.439608 14.593686 -1.9847021
22.636995 14.525187 -1.9944193
22.730749 14.389216 -1.9948713
22.866823 14.279575 -1.9991649
22.835995 14.066311 -1.9886944
22.800005 13.851894 -1.9779228
22.768236 13.642038 -1.9676783
22.704706 13.415345 -1.9547974
22.782286 13.273269 -1.9544208
22.814878 13.105418 -1.9502025
22.848873 12.939141 -1.9462101
22.876465 12.770026 -1.9417659
22.918568 12.609712 -1.9386774
22.959568 12.449363 -1.9355891
22.954609 12.265021 -1.928659
22.964138 12.089573 -1.9230849
22.983889 11.920437 -1.9184899
22.996214 11.748341 -1.9133676
23.016201 11.581024 -1.9089987
23.039473 11.416119 -1.9050064
23.049936 11.245682 -1.9000348
23.074461 11.082886 -1.8963438
23.073515 10.908706 -1.8906189
23.087578 10.742528 -1.88625
23.091404 10.572438 -1.8811278
23.11311 10.411307 -1.8775874
23.118208 10.243442 -1.8727665
23.118464 10.074313 -1.8676443
23.125765 9.9091024 -1.8632001
23.149372 9.7515364 -1.8601869
23.158096 9.5883331 -1.8560439
23.142601 9.4159966 -1.8500178
23.054569 9.2157164 -1.8381915
23.057774 9.0533123 -1.8338978
23.074743 8.8969555 -1.8308095
23.086933 8.7393208 -1.8274198
23.105536 8.5846491 -1.8246326
23.116554 8.4276886 -1.8213183
23.111494 8.2655439 -1.8167987
23.126019 8.1110401 -1.8139362
23.106514 7.945322 -1.8084375
23.081123 7.7785578 -1.8025619
23.068764 7.617094 -1.7978164
23.072371 7.4615979 -1.7944267
23.069237 7.3045392 -1.7905849
23.079332 7.1522269 -1.7878733
23.081749 6.9980416 -1.7846341
23.106089 6.8508978 -1.783203
23.135241 6.7053847 -1.7822237
23.168272 6.56113 -1.7816211
23.201366 6.4169884 -1.7810938
23.251856 6.2776251 -1.7819977
23.303438 6.1383915 -1.7830523
23.350321 5.9977689 -1.7838056
23.404095 5.8587389 -1.7851615
23.454136 5.7185664 -1.7862914
23.492662 5.5754676 -1.7865926
23.532261 5.43256 -1.7870446
23.570017 5.2891579 -1.7874212
23.607872 5.145709 -1.7878733
23.647781 5.002614 -1.7885511
23.691708 4.8602247 -1.7896057
23.74749 4.7200108 -1.7916396
23.787754 4.5764704 -1.7925435
23.836956 4.4344363 -1.7942007
23.877457 4.2905602 -1.7952552
23.923965 4.1475463 -1.7968371
23.955849 4.0018234 -1.7973644
24.010473 3.8596623 -1.7996995
24.037645 3.7128727 -1.8000008
24.087593 3.569402 -1.80211
24.149519 3.4272788 -1.8051984
24.184916 3.2810457 -1.8063283
24.225361 3.1352749 -1.8079101
24.245132 2.9866936 -1.8079854
24.271915 2.8389142 -1.8086634
7.2190804 0.80031908 -0.51130986
7.0641818 0.73932397 -0.49918222
7.0388141 0.6930387 -0.4969224
7.0310187 0.64873886 -0.4960185
7.0060554 0.60310978 -0.49383402
6.9986901 0.5592382 -0.49300542
6.9980116 0.51599187 -0.49270412
6.9851279 0.47197023 -0.49149889
6.9749532 0.42830905 -0.49051964
6.9804373 0.38566801 -0.4907456
6.9737082 0.34239098 -0.49006769
6.975678 0.29959467 -0.49006769
6.9833641 0.25700614 -0.49051964
6.9778323 0.21393943 -0.48999235
6.9839983 0.17124161 -0.49036899
6.9689655 0.12809484 -0.48916376
6.9805884 0.085464112 -0.48999235
6.9949412 0.042713333 -0.49104694
7.0060406 -0.00020977625 -0.49187553
7.0158787 -0.04326117 -0.49262878
7.0174751 -0.086333841 -0.49277943
7.0377502 -0.12978019 -0.49436131
7.0547647 -0.17340457 -0.4957172
7.0804782 -0.21751969 -0.497751
7.0849891 -0.26118198 -0.49820298
7.1629519 -0.30809069 -0.50422913
7.1758657 -0.3527728 -0.50535899
21.171101 -1.1733302 -1.5643786
21.087862 -1.2985495 -1.5586537
21.065569 -1.4269735 -1.5575992
19.439453 -1.4366089 -1.4351177
20.064426 -1.6066775 -1.4831762
21.045668 -1.8153374 -1.5583525
19.92107 -1.8414813 -1.473911
19.880617 -1.9608399 -1.4717267
19.877138 -2.0837243 -1.4724046
20.943243 -2.3255517 -1.5544355
10.583203 -1.2403698 -0.76757163
10.594196 -1.3076066 -0.76900285
10.582018 -1.3720734 -0.76870155
10.56846 -1.4363058 -0.76832491
10.590052 -1.5054796 -0.77066004
10.591464 -1.5720421 -0.77148861
13.850257 -2.1430306 -1.0213476
13.836846 -2.2279739 -1.0213476
21.284531 -3.5619395 -1.5928521
14.476526 -2.5136604 -1.0725698
21.189167 -3.8138537 -1.5890105
13.504505 -2.5158994 -1.0003314
20.808842 -4.009613 -1.5634747
20.778957 -4.1362443 -1.5630981
20.733652 -4.2596493 -1.5615915
20.683712 -4.3818274 -1.5597837
20.621365 -4.5010004 -1.5570719
20.558336 -4.6195741 -1.5543602
20.492685 -4.7370944 -1.5514977
20.389503 -4.845221 -1.5457729
20.331297 -4.963378 -1.5435884
20.235657 -5.0717888 -1.5385414
20.154903 -5.183188 -1.5346998
8.2006435 -2.1619573 -0.60328388
19.960793 -5.395257 -1.524606
7.7958283 -2.1578345 -0.57368046
7.7757263 -2.2037239 -0.57315314
19.636885 -5.697557 -1.5072055
8.0128889 -2.3775873 -0.5940187
7.9828825 -2.4220743 -0.59281343
7.9602518 -2.4686468 -0.59221083
8.2101545 -2.6015158 -0.61322701
19.287804 -6.2437873 -1.4940987
7.8301477 -2.5872087 -0.58558208
7.8141255 -2.635205 -0.58558208
18.980093 -6.5325165 -1.478958
18.775946 -6.591372 -1.4658511
18.521101 -6.6298203 -1.4486766
18.247766 -6.6585546 -1.4299955
18.132732 -6.7429342 -1.4240447
18.081692 -6.8505344 -1.4232914
18.074669 -6.9749966 -1.4261539
18.029675 -7.0850396 -1.4260032
18.014561 -7.2070184 -1.4283384
17.995859 -7.327949 -1.4304475
18.009512 -7.4626656 -1.4352684
18.008406 -7.5920129 -1.4389595
17.994474 -7.7165174 -1.4416713
18.020821 -7.8590765 -1.4477727
17.957676 -7.9630337 -1.4465674
17.897568 -8.0681515 -1.4456636
17.845913 -8.1769867 -1.4455129
17.784557 -8.2812815 -1.4446089
17.722593 -8.3851309 -1.4437051
17.660025 -8.488533 -1.4428011
17.603128 -8.5945454 -1.4424245
17.485741 -8.670495 -1.437001
17.43132 -8.777174 -1.4369256
17.360268 -8.8753405 -1.4354944
17.271852 -8.9642363 -1.432632
17.171532 -9.04634 -1.4287903
17.110424 -9.1487103 -1.4283384
12.969843 -7.0371518 -1.0773154
16.998615 -9.3589544 -1.428489
16.930424 -9.4572439 -1.4275851
16.855593 -9.5516071 -1.4261539
12.44312 -7.1520505 -1.0468081
12.593682 -7.3417802 -1.0638319
12.594747 -7.4463234 -1.0678996
17.019758 -10.204434 -1.4617082
16.947453 -10.302975 -1.4608796
16.866089 -10.39578 -1.4592977
12.292363 -7.6807714 -1.0575799
16.694288 -10.574754 -1.455456
16.621536 -10.67214 -1.4547781
16.523148 -10.752713 -1.4518403
16.405251 -10.819854 -1.44717
16.268087 -10.873207 -1.4407673
16.036774 -10.861535 -1.4257772
15.919677 -10.925308 -1.4211823
15.844153 -11.017091 -1.4204291
15.754247 -11.098595 -1.4183953
15.633096 -11.157396 -1.413499
15.512627 -11.215714 -1.4086781
15.405707 -11.282992 -1.4051377
15.252102 -11.31492 -1.3972284
15.143327 -11.378939 -1.3935374
15.036723 -11.44386 -1.3900723
14.938581 -11.5146 -1.3874359
14.820488 -11.569226 -1.3829163
14.707765 -11.627168 -1.378924
14.612793 -11.698497 -1.3766642
14.532992 -11.781659 -1.3759109
14.45118 -11.863017 -1.375007
14.371216 -11.945727 -1.3743291
14.288493 -12.025977 -1.3734251
14.193944 -12.095959 -1.3713913
14.027356 -12.103345 -1.3622015
13.916032 -12.157039 -1.3585104
13.805326 -12.210485 -1.3548948
13.692261 -12.261035 -1.3510531
13.549547 -12.283867 -1.3441983
13.43866 -12.334407 -1.3405826
13.35469 -12.409166 -1.339754
13.282654 -12.494975 -1.340206
13.176854 -12.548732 -1.3371929
13.088123 -12.618273 -1.3359877
12.987618 -12.676053 -1.3335773
12.880515 -12.726768 -1.3304888
12.709833 -12.713176 -1.320621
12.562226 -12.720677 -1.3131636
12.493685 -12.807512 -1.3142183
12.414172 -12.883213 -1.3141429
12.348638 -12.973589 -1.3156495
12.278362 -13.059286 -1.316704
12.200715 -13.137301 -1.3170054
6.9042511 -7.5256038 -0.73412651
11.976987 -13.218048 -1.3100753
11.879698 -13.273455 -1.3082675
6.7566347 -7.6424479 -0.7332226
6.6794481 -7.6492081 -0.72975755
6.5991778 -7.6515341 -0.72591591
11.523219 -13.529115 -1.3051037
11.431004 -13.588881 -1.3040491
11.32001 -13.625782 -1.3008101
11.195083 -13.644873 -1.2959138
6.4486132 -7.9580593 -0.73638636
10.972601 -13.713484 -1.2893604
10.835708 -13.714045 -1.2829577
2.012027 -2.577323 -0.20962597
1.9973921 -2.5912001 -0.20977664
1.9766262 -2.5970573 -0.20917402
1.9606537 -2.6091368 -0.20917402
1.9446074 -2.6211181 -0.20917402
1.9326104 -2.6386335 -0.2097013
1.9222233 -2.6585248 -0.21045457
1.9099278 -2.675952 -0.21098186
1.9181551 -2.7226818 -0.21422091
1.8985679 -2.7303059 -0.21384428
1.8896748 -2.7534168 -0.21489885
9.7505322 -14.404642 -1.2766302
9.6182108 -14.398691 -1.2706794
9.5241938 -14.449111 -1.2699261
9.4266586 -14.493902 -1.2687209
9.3423948 -14.559024 -1.2693988
9.2646189 -14.63461 -1.2710561
9.1746483 -14.691181 -1.2710561
9.0811949 -14.742105 -1.270604
8.9916039 -14.799253 -1.2707547
8.9031897 -14.858423 -1.2711313
8.8108387 -14.911056 -1.2709807
8.710145 -14.949327 -1.2696248
8.6063347 -14.981738 -1.2678169
8.506876 -15.021248 -1.266687
8.4184351 -15.080129 -1.2672896
8.3281507 -15.135867 -1.2676663
8.2379732 -15.191942 -1.2681183
8.1446018 -15.242204 -1.2681183
8.0564985 -15.30248 -1.2690222
7.961534 -15.349855 -1.2688715
7.84724 -15.359344 -1.2655572
7.7250633 -15.351977 -1.2608869
7.5948625 -15.326715 -1.2547854
7.4823146 -15.335386 -1.2516217
7.3880773 -15.381008 -1.2516217
7.3250985 -15.492763 -1.2571958
6.9001298 -14.828601 -1.1981397
7.0999761 -15.506233 -1.2509438
7.0042887 -15.548596 -1.2508684
6.9140029 -15.603133 -1.2518476
6.8292866 -15.670859 -1.2539568
6.7620625 -15.780295 -1.259531
6.7835503 -16.102695 -1.282581
6.5801105 -15.89157 -1.2619414
6.4903684 -15.951042 -1.2635233
6.4005141 -16.010937 -1.2651805
6.22891 -15.863341 -1.2500398
6.1271524 -15.890098 -1.2491359
6.0715413 -16.038374 -1.2580998
5.9903798 -16.122063 -1.2618661
5.8981738 -16.177252 -1.2633727
5.8061876 -16.233795 -1.2650299
5.718349 -16.30299 -1.2677416
5.6272855 -16.364174 -1.2698507
5.5286813 -16.404064 -1.2703028
5.4419913 -16.480289 -1.2736925
5.2766485 -16.315073 -1.2579491
5.1812572 -16.362352 -1.2591543
5.106143 -16.47575 -1.2656325
5.0214419 -16.561165 -1.2699261
4.9069767 -16.548643 -1.2665364
4.8050661 -16.577482 -1.266461
4.6823401 -16.532776 -1.2606609
4.7243228 -17.080185 -1.3013374
4.4923582 -16.638088 -1.2645025
3.9335783 -14.931566 -1.1290649
4.2479119 -16.536467 -1.252375
4.1606503 -16.619293 -1.2568192
4.0699334 -16.691011 -1.2604349
3.9423497 -16.609915 -1.2522243
3.8358738 -16.614361 -1.2507178
3.7360408 -16.647314 -1.251471
3.6340368 -16.670898 -1.2515464
3.5283763 -16.677273 -1.2503412
3.4333928 -16.734753 -1.2531282
3.3228719 -16.716383 -1.2501152
3.2211812 -16.741352 -1.2504917
3.1340778 -16.845112 -1.2569699
3.0382402 -16.906227 -1.260209
0.48236954 -2.7763813 -0.17550294
0.46302536 -2.7655191 -0.17444836
0.43449816 -2.6964376 -0.1689495
0.41551024 -2.6832852 -0.16774428
0.39786914 -2.6778932 -0.16714166
0.38143039 -2.680284 -0.16714166
0.3645753 -2.6796095 -0.16691568
0.34927809 -2.6906962 -0.16759363
0.24136031 -1.950526 -0.11109852
0.22834541 -1.9430566 -0.11042058
0.21477303 -1.9295545 -0.10929067
0.20272219 -1.9288524 -0.10914002
0.19059053 -1.9270829 -0.10891404
0.17803097 -1.9202725 -0.10831143
0.16607432 -1.9193417 -0.10816077
0.15429434 -1.9203246 -0.10816077
0.14302066 -1.9281964 -0.10868806
0.13152207 -1.9340122 -0.10906469
0.11977462 -1.9367734 -0.10921535
0.10816276 -1.94245 -0.10959198
0.096193343 -1.9420812 -0.10951666
0.08350797 -1.9247024 -0.10816077
0.071477607 -1.9191997 -0.10770881
0.05842381 -1.8777409 -0.10454509
0.046561249 -1.864108 -0.10349051
0.035158738 -1.8663526 -0.10364117
0.02367023 -1.8635418 -0.10341518
0.012235306 -1.863652 -0.10341518
0.00078543293 -1.9374818 -0.10898937
-0.015030203 -2.5576706 -0.15584265
-0.042409994 -3.4947867 -0.22664984
-0.06242444 -3.4176927 -0.22084968
-0.41213411 -16.702314 -1.22473
-0.51448667 -16.695486 -1.2244287
-0.12849566 -3.5016615 -0.22732778
-0.14890374 -3.4759014 -0.22544461
-0.17263573 -3.5237238 -0.22913562
-0.19464029 -3.5295677 -0.22966291
-1.0299331 -16.729572 -1.2287977
-1.1333739 -16.734877 -1.2297016
-1.2373596 -16.745508 -1.2310574
-1.3431116 -16.775372 -1.2339199
-0.35889709 -4.1716623 -0.27892664
-0.27629635 -2.9997215 -0.19019167
-0.29352188 -2.9860616 -0.18928774
-0.30923799 -2.9594114 -0.18740457
