# .PCD v0.7 - Point Cloud Data file format
VERSION 0.7
FIELDS x y z
SIZE 4 4 4
TYPE F F F
COUNT 1 1 1
WIDTH 1518
HEIGHT 1
VIEWPOINT 0 0 0 1 0 0 0
POINTS 1518
DATA ascii
-3.2127304 -4.0198278 -1.0467794
-3.1591692 -3.9034424 -1.0205481
-3.1421318 -3.8340347 -1.006916
-3.1830914 -3.8357668 -1.0126994
-3.2569172 -3.8760953 -1.029223
-3.2578168 -3.8292084 -1.0217873
-3.3131771 -3.8462152 -1.0321146
-3.3688676 -3.8626854 -1.042442
-3.3983333 -3.8485429 -1.0443008
-3.4127548 -3.8174059 -1.0414091
-3.4439919 -3.8050995 -1.0438877
-3.4441411 -3.7586458 -1.0366586
-3.4458468 -3.7144864 -1.0300492
-3.4946945 -3.7210908 -1.0381044
-3.5154386 -3.6974502 -1.0374848
-3.5584135 -3.69696 -1.0436811
-3.5871756 -3.6813638 -1.0455401
-3.6096966 -3.6592841 -1.0455401
-3.6030457 -3.6079862 -1.0368651
-3.6452875 -3.6057663 -1.042855
-3.6393523 -3.5559773 -1.0345932
-3.4921529 -3.3704889 -0.98502219
-3.4539945 -3.2929554 -0.96787888
-3.4406593 -3.2401698 -0.95817125
-3.4927113 -3.2489886 -0.96746582
-3.4931297 -3.2096207 -0.96188909
-3.5091355 -3.1848388 -0.96085632
-3.4273505 -3.0724561 -0.93214649
-3.402189 -3.0124469 -0.91975373
-3.5841019 -3.1345239 -0.96560687
-3.6676817 -3.168123 -0.98357636
-3.7376645 -3.1887457 -0.99762148
-3.9920905 -3.363735 -1.0624769
-3.9103773 -3.2540519 -1.0343866
-3.9665518 -3.259819 -1.0443008
-3.9849596 -3.2341862 -1.0438877
-3.9986217 -3.2047782 -1.0422354
-4.0097718 -3.1735027 -1.0399634
-4.0176053 -3.1398013 -1.0368651
-3.9694073 -3.0630808 -1.0188957
-3.9857926 -3.0368881 -1.0182761
-4.018425 -3.0229635 -1.0219939
-3.9355757 -2.9229844 -0.99534947
-3.9763179 -2.9155612 -1.0013393
-3.9735265 -2.8761899 -0.99596912
-4.0293097 -2.8790619 -1.0058833
-4.0564942 -2.8610523 -1.0083618
-4.0595193 -2.8260448 -1.004644
-4.2283835 -2.9052627 -1.0434747
-4.243701 -2.8776157 -1.042855
-4.1173549 -2.755197 -1.0062964
-4.1317334 -2.7282641 -1.0056767
-4.1442971 -2.7001898 -1.004644
-4.1854773 -2.6905847 -1.0108404
-4.2035604 -2.6659007 -1.0112535
-4.2273035 -2.6447289 -1.0131124
-4.2068172 -2.5961287 -1.0040244
-4.2510829 -2.5875664 -1.011047
-4.3222437 -2.5946748 -1.0246789
-4.3170352 -2.5556428 -1.0195153
-4.2878518 -2.5029595 -1.0085684
-4.3446798 -2.5005212 -1.0186892
-4.3471766 -2.4665718 -1.0155909
-4.3255115 -2.419311 -1.0067095
-4.3625517 -2.4050081 -1.0120797
-4.4184923 -2.400619 -1.0219939
-4.4667788 -2.3914762 -1.0300492
-4.422523 -2.3329754 -1.0160041
-4.4133148 -2.293611 -1.0104274
-4.5100412 -2.3088522 -1.0300492
-4.5512056 -2.2947938 -1.0364521
-4.5932426 -2.2807517 -1.0430615
-4.5588074 -2.2288847 -1.0317016
-4.4868832 -2.1597009 -1.0116665
-4.5336494 -2.1480515 -1.0195153
-4.4518638 -2.0759404 -0.99741495
-4.4956417 -2.0628695 -1.004644
-4.640192 -2.0948405 -1.0352128
-4.5662217 -2.0278025 -1.0151778
-4.603683 -2.0107138 -1.0209612
-4.7840471 -2.0546443 -1.0595852
-4.7803397 -2.0183995 -1.0558674
-4.8233595 -2.0017841 -1.0628899
-4.9080276 -2.0017164 -1.0794137
-4.7712717 -1.911867 -1.0455401
-4.7501378 -1.8696517 -1.0381044
-4.8628192 -1.8796345 -1.061031
-4.8687725 -1.8476781 -1.0597918
-4.8222556 -1.796248 -1.0467794
-4.8212399 -1.7622577 -1.0440943
-4.8163052 -1.7270263 -1.040583
-4.8988056 -1.7227659 -1.0566936
-4.9573827 -1.7092631 -1.067434
-5.193944 -1.7552631 -1.1178311
-5.3968821 -1.7870395 -1.1605861
-5.5445566 -1.7982738 -1.1909482
-5.5704064 -1.7689584 -1.194253
-5.595171 -1.739103 -1.1973512
-5.5973115 -1.7021762 -1.1954923
-5.8467941 -1.7389424 -1.2481614
-5.9249988 -1.7227072 -1.2630328
-6.2149854 -1.7657557 -1.3243768
-6.2162752 -1.7249712 -1.3223114
-7.6395383 -2.0696104 -1.6313038
-6.7941308 -1.7958624 -1.4439669
-6.796495 -1.751942 -1.4421079
-7.180047 -1.8039235 -1.5232804
-7.5131588 -1.838698 -1.5932994
-7.5709372 -1.8036768 -1.6034201
-7.5856743 -1.7580723 -1.6042463
-7.8521247 -1.7691427 -1.6596006
-8.1390581 -1.7814014 -1.7192923
-8.2799969 -1.7590867 -1.7473825
-8.4161711 -1.7341211 -1.7744401
-8.8411531 -1.765226 -1.8636677
-9.0698853 -1.7531041 -1.9105537
-9.1872272 -1.7173802 -1.9334803
-9.1687069 -1.6557584 -1.9272839
-9.1709824 -1.598125 -1.9256315
-9.170002 -1.5400398 -1.9233595
-9.2246752 -1.4910847 -1.9330671
-9.2404184 -1.4355068 -1.934513
-9.255827 -1.3797917 -1.9359587
-9.2524958 -1.3213128 -1.9334803
-9.2420101 -1.2619996 -1.9295559
-9.2262936 -1.2022327 -1.9245987
-9.2762203 -1.1509012 -1.9336867
-9.2937965 -1.0952218 -1.9359587
-9.2974243 -1.0378498 -1.9353391
-9.301671 -0.98057705 -1.934926
-9.3036184 -0.92309803 -1.9340999
-9.2535763 -0.86082649 -1.9223268
-9.3191195 -0.80928224 -1.9351326
-9.3092804 -0.75090533 -1.9320344
-9.28932 -0.69195247 -1.9268707
-9.3353653 -0.63781083 -1.9357523
-9.2941818 -0.57772386 -1.9262512
-9.3014593 -0.520904 -1.9270773
-9.3279343 -0.46499163 -1.9320344
-9.3286562 -0.40766224 -1.9316213
-9.3045826 -0.34942248 -1.9260446
-9.3124199 -0.29250863 -1.9272839
-8.7832146 0.64229977 -1.930431
-8.7538147 0.69417143 -1.9247549
-8.7416124 0.74720484 -1.9230083
-8.7349195 0.80064988 -1.9225717
-8.7696629 0.85813308 -1.9315225
-8.7739382 0.91293776 -1.9337057
-8.7478018 0.96450782 -1.9291211
-8.756259 1.0198606 -1.9323958
-8.7023745 1.0677391 -1.9216985
-8.672431 1.1181179 -1.9164588
-8.6924849 1.1749737 -1.9225717
-8.6754494 1.2269199 -1.9203886
-8.6503811 1.2775595 -1.9164588
-8.6336985 1.3292756 -1.914494
-8.6533232 1.3867077 -1.9208251
-8.6379128 1.4386542 -1.919297
-8.6087294 1.4881349 -1.9147124
-8.5965548 1.5404123 -1.9140575
-8.5840626 1.5925964 -1.9134026
-8.576046 1.6456052 -1.9138391
-8.5744028 1.699905 -1.9158039
-8.5523376 1.7501353 -1.9131842
-8.5108843 1.7961261 -1.9061981
-8.5302172 1.8549539 -1.9131842
-8.5700979 1.9187796 -1.9249731
-8.4934988 1.9564246 -1.9101278
-8.4632921 2.0042276 -1.9059799
-8.454628 2.0570431 -1.9068531
-8.4475269 2.1103008 -1.908163
-8.4410372 2.1637914 -1.9096912
-8.4455328 2.2202604 -1.9138391
-8.3884077 2.260354 -1.9037967
-8.4298792 2.3271105 -1.9166772
-8.3760023 2.3676374 -1.907508
-8.4175606 2.4352667 -1.9206069
-8.3566093 2.4732933 -1.9099095
-8.3057842 2.5137751 -1.9016136
-8.3265619 2.5759442 -1.9101278
-8.3022251 2.6243382 -1.908163
-8.302681 2.6806295 -1.9120927
-8.2703218 2.7263272 -1.9083813
-8.2423391 2.7732856 -1.9057615
-8.2168608 2.8209546 -1.9037967
-8.2012386 2.8719645 -1.9042333
-8.2137899 2.9330661 -1.9114376
-8.1644611 2.9720562 -1.9040151
-8.1790075 3.0343204 -1.9118743
-8.1200724 3.0692616 -1.9022685
-8.1256742 3.1284978 -1.908163
-8.1008749 3.1761591 -1.9068531
-8.0540447 3.2149484 -1.9003037
-8.0558643 3.2731254 -1.9055432
-8.0257092 3.3183908 -1.9031417
-7.9971018 3.3641663 -1.9011769
-7.9798975 3.4147084 -1.9020503
-7.9838486 3.474515 -1.908163
-7.9356084 3.5115869 -1.9016136
-7.9005632 3.5542054 -1.8983389
-7.8644075 3.5961206 -1.8948458
-7.8634324 3.654181 -1.9000853
-7.8761582 3.7190332 -1.9088179
-7.8162384 3.7495577 -1.8996488
-7.7878208 3.7948811 -1.8983389
-7.7862535 3.8534193 -1.9037967
-7.7642069 3.9019988 -1.9042333
-7.7322955 3.9455726 -1.9022685
-7.708807 3.9933918 -1.9024868
-7.6755219 4.0360742 -1.9003037
-7.6480298 4.0817156 -1.8996488
-7.6297054 4.1322851 -1.9013953
-7.6016412 4.1776118 -1.9007403
-7.5886488 4.2313061 -1.9040151
-7.5438576 4.2672167 -1.8992121
-7.5158396 4.3124533 -1.8987755
-7.4774303 4.351615 -1.8957192
-7.4489079 4.3964214 -1.8952825
-7.4184422 4.4400392 -1.8944092
-7.368536 4.4718013 -1.8885148
-7.3742018 4.5373902 -1.8972473
-7.3387709 4.5779023 -1.8952825
-7.3361096 4.6390181 -1.9020503
-7.289434 4.6723566 -1.8972473
-7.2720833 4.7244401 -1.9003037
-7.2185082 4.7528687 -1.8937542
-7.194891 4.8008637 -1.8952825
-7.177423 4.8531213 -1.8985572
-7.0976014 4.8628654 -1.8850218
-7.0948834 4.9252486 -1.8924444
-7.0485659 4.957459 -1.8880781
-7.033114 5.0113764 -1.8922261
-7.0220122 5.0687184 -1.897684
-6.9899912 5.1111331 -1.8974656
-6.9310541 5.133594 -1.8898246
-6.9228406 5.1935973 -1.8963741
-6.8675351 5.2182622 -1.8898246
-6.8400269 5.2638736 -1.8911345
-6.7960553 5.2967443 -1.8878598
-6.7779799 5.349834 -1.8920078
-6.7534103 5.3980255 -1.8944092
-6.6792049 5.4062023 -1.8826203
-6.6549635 5.4545078 -1.8852401
-6.6386399 5.5095758 -1.8902613
-6.6121793 5.5564857 -1.8924444
-6.5772176 5.5963202 -1.8922261
-6.5412769 5.6352978 -1.8917894
-6.5131941 5.6811023 -1.8937542
-6.4621224 5.7067456 -1.8889514
-6.4240751 5.7436872 -1.8880781
-6.3699031 5.7659664 -1.8824019
-6.3696532 5.8372545 -1.8930993
-6.3251328 5.8682623 -1.8904796
-6.2634025 5.8829069 -1.8826203
-6.2399158 5.9333334 -1.8865499
-6.2160459 5.9836931 -1.8904796
-6.1582494 6.001286 -1.8839302
-6.1317291 6.0492411 -1.8872049
-6.0924253 6.0846815 -1.8865499
-6.0783048 6.1455431 -1.8939726
-6.0145707 6.1561947 -1.8856767
-5.9882026 6.2049222 -1.889388
-5.9432845 6.2344842 -1.8872049
-5.9169588 6.2836242 -1.8911345
-5.8962345 6.339107 -1.897029
-5.8823133 6.4024773 -1.9053249
-5.8383274 6.4333906 -1.9037967
-5.7896252 6.4589186 -1.9007403
-5.7582936 6.5038209 -1.9035784
-5.6913013 6.5081735 -1.8944092
-5.6742215 6.5695624 -1.9022685
-5.6287384 6.5983152 -1.900522
-5.5912895 6.6364603 -1.9016136
-5.5492153 6.6691422 -1.9011769
-5.5038538 6.6977878 -1.8996488
-5.466342 6.7359796 -1.9009587
-5.4267383 6.7716784 -1.9016136
-5.398407 6.8216863 -1.9064165
-5.3624558 6.8623719 -1.9085996
-5.3196521 6.8943734 -1.9083813
-5.2784314 6.9284372 -1.9088179
-5.2410989 6.9677143 -1.9107827
-5.2011557 7.0036592 -1.9118743
-5.1534686 7.0291448 -1.9101278
-5.1068091 7.0558896 -1.9088179
-5.0895104 7.123621 -1.9188603
-5.0361457 7.1411567 -1.915149
-4.9816422 7.1567039 -1.9110011
-4.9437132 7.1959848 -1.9134026
-4.9076796 7.2383003 -1.9166772
-4.857748 7.2601657 -1.914494
-4.8168721 7.2955365 -1.9160223
-4.7762775 7.3314972 -1.9177688
-4.7475567 7.3861165 -1.9245365
-4.6754994 7.3730731 -1.9134026
-4.6306882 7.4024501 -1.9136208
-4.5949154 7.4465046 -1.9177688
-4.5780511 7.5220785 -1.9302126
-4.5333166 7.5525379 -1.9308676
-4.4858956 7.5785317 -1.930431
-4.4289823 7.5882134 -1.9258463
-4.3803921 7.6118627 -1.9249731
-4.3644156 7.692924 -1.9389452
-4.3042727 7.6965604 -1.9330508
-4.2301207 7.674108 -1.9206069
-4.2071714 7.744513 -1.9319592
-4.1586518 7.7684612 -1.9315225
-4.1004381 7.7739778 -1.9265013
-4.0679564 7.8284349 -1.933924
-4.0358486 7.8845234 -1.9417833
-3.9764142 7.887352 -1.9363254
-3.9314144 7.9185953 -1.938072
-3.8934646 7.9644885 -1.9435297
-3.824214 7.9460173 -1.9330508
-3.7891695 7.9984379 -1.940255
-3.7350736 8.0109234 -1.9376353
-3.6919518 8.0469961 -1.94091
-3.6489289 8.0837297 -1.9444031
-3.5854023 8.074748 -1.9367621
-3.5545299 8.1395264 -1.9472411
-3.4995155 8.1495247 -1.9444031
-3.4558954 8.1861286 -1.9481144
-3.4070969 8.2107859 -1.9489876
-3.3548105 8.2270184 -1.947896
-3.3002763 8.237483 -1.9454947
-3.2260914 8.1976404 -1.9310859
-3.2042162 8.2910166 -1.9487693
-3.1640117 8.3388071 -1.9555371
-3.1104028 8.3516626 -1.9540088
-3.0547464 8.358674 -1.9511708
-3.0001087 8.3680735 -1.9489876
-2.9542077 8.4019756 -1.9526989
-2.9029164 8.420867 -1.9529172
-2.8505678 8.4366713 -1.9524807
-2.8030398 8.4669733 -1.9555371
-2.7516365 8.4858704 -1.9559736
-2.6995163 8.502594 -1.9559736
-2.648742 8.5236578 -1.9570652
-2.601783 8.5574903 -1.9612132
-2.5445001 8.5573912 -1.9575019
-2.4875886 8.5578489 -1.9540088
-2.4400957 8.5907879 -1.9581568
-2.3878591 8.6074791 -1.9585934
-2.3296452 8.6021872 -1.9540088
-2.2835474 8.6417952 -1.9599034
-2.2285323 8.6480837 -1.9581568
-2.1816041 8.686204 -1.963833
-2.1273384 8.6956348 -1.9629596
-2.0737169 8.7075748 -1.9627414
-2.0114441 8.682106 -1.9540088
-1.9607053 8.7057095 -1.9566286
-1.9055835 8.7099495 -1.9548821
-1.8549408 8.7348423 -1.9579384
-1.7993425 8.7365007 -1.9557554
-1.7424577 8.7311077 -1.952044
-1.6910717 8.7531328 -1.9546638
-1.6358988 8.7556696 -1.9529172
-1.5795461 8.7511368 -1.9496425
-1.5264896 8.7645102 -1.9505159
-1.4780097 8.8054714 -1.9577202
-1.4297063 8.8500214 -1.9657978
-1.3704401 8.8268032 -1.9585934
-1.3222884 8.8755865 -1.9677626
-1.2686305 8.8893299 -1.9690725
-1.2078671 8.8515005 -1.9588118
-1.159701 8.9061632 -1.9695091
-1.100594 8.8772783 -1.9614315
-1.0504353 8.9206934 -1.9697274
-0.99395037 8.9114532 -1.9662344
-0.94098765 8.9338827 -1.9699457
-0.88615268 8.9394884 -1.9699457
-0.83263701 8.9593334 -1.9732205
-0.77545828 8.9389954 -1.9675443
-0.71840411 8.9163485 -1.9614315
-0.66230762 8.9020977 -1.9572835
-0.60674459 8.8923635 -1.9542271
-0.55168802 8.8881264 -1.9524807
-0.50045663 8.9507809 -1.9657978
-0.44654211 8.9741516 -1.9703823
-0.39007041 8.9445486 -1.963178
-0.33521676 8.9477491 -1.9633963
-0.2803081 8.9496374 -1.9633963
-0.22631755 8.9882603 -1.9716922
-0.17057188 8.9582577 -1.9647062
-0.11538993 8.9425468 -1.9609948
-0.060446069 8.9323521 -1.9585934
-0.0056394972 8.9374342 -1.959685
0.049414106 8.975359 -1.9681993
0.10397957 8.9319515 -1.9585934
0.15995373 8.9965191 -1.9732205
0.21360397 8.9309788 -1.9588118
0.26940057 8.9626646 -1.9662344
0.32378703 8.9442635 -1.9625231
0.37750235 8.9148083 -1.9564103
0.43300119 8.928895 -1.9601216
0.48783308 8.9270439 -1.9603399
0.54176825 8.9102459 -1.9572835
0.59682232 8.9125957 -1.9585934
0.65228206 8.9194727 -1.9609948
0.70638043 8.9075193 -1.9592483
0.75844222 8.8728752 -1.9524807
0.81287086 8.8680553 -1.9524807
0.87002873 8.8910656 -1.9588118
0.92466801 8.8865309 -1.95903
0.9776783 8.8671103 -1.9559736
1.0316154 8.8570671 -1.9551004
1.0858229 8.8496017 -1.9548821
1.1540928 8.9511719 -1.9793332
1.1901522 8.8046646 -1.947896
1.2466162 8.8145885 -1.9518257
1.3019624 8.8154621 -1.9537905
1.3543937 8.7966976 -1.9513891
1.4088073 8.7911129 -1.952044
1.4627221 8.7823029 -1.952044
1.5190771 8.7875862 -1.9553187
1.5693507 8.7579279 -1.9507341
1.6291157 8.780757 -1.9581568
1.6803864 8.7571783 -1.9551004
1.7331383 8.7419167 -1.9540088
1.7863535 8.7292051 -1.9535722
1.830606 8.6741581 -1.9435297
1.8867 8.6761131 -1.9465861
1.9452336 8.68818 -1.952044
2.003767 8.6989031 -1.9572835
2.0553045 8.6788473 -1.9555371
2.0992851 8.6281462 -1.9468045
2.1495838 8.6046886 -1.9444031
2.1982191 8.5752668 -1.9406917
2.2587383 8.5918179 -1.9476777
2.2999828 8.5353966 -1.9378536
2.3388019 8.472209 -1.9265013
2.420752 8.5638113 -1.9511708
2.4515467 8.4738045 -1.9337057
2.5106988 8.4829311 -1.9393818
2.5553486 8.4430828 -1.9337057
2.6131656 8.4468212 -1.9382902
2.6543519 8.3971319 -1.930431
2.6938276 8.3435411 -1.9216985
2.7691183 8.4000711 -1.9389452
2.8190513 8.3782969 -1.9378536
2.8723085 8.3663797 -1.9391636
2.9077795 8.3034697 -1.9284662
2.9507945 8.2634153 -1.9232266
3.0171373 8.2882519 -1.9334874
3.0682759 8.2704973 -1.9337057
3.0999808 8.2013111 -1.9216985
3.1548047 8.1939745 -1.9245365
3.1996775 8.1608353 -1.9212618
3.2344911 8.1029844 -1.9120927
3.291131 8.1001625 -1.9162406
3.3474848 8.0960484 -1.9201702
3.387635 8.0528688 -1.9147124
3.4473517 8.0561543 -1.9206069
3.4885383 8.0160599 -1.9160223
3.5609643 8.0471525 -1.9289027
3.5866449 7.9726467 -1.9160223
3.6513283 7.9850993 -1.9245365
3.6805091 7.9200683 -1.9140575
3.7252853 7.8893943 -1.9120927
3.7791121 7.8778257 -1.9149307
3.8149781 7.8290501 -1.9085996
3.8672743 7.81424 -1.9107827
3.9033139 7.7668223 -1.9048883
3.9624321 7.7653251 -1.9105644
3.9929428 7.7079406 -1.9022685
4.0483403 7.6988416 -1.9061981
4.0950437 7.6729956 -1.9059799
4.1341443 7.6331377 -1.9022685
4.1799622 7.605917 -1.9018319
4.2303557 7.5869441 -1.9035784
4.2797122 7.5659404 -1.9048883
4.3270268 7.5412312 -1.9053249
4.3653622 7.5010448 -1.9018319
4.4187474 7.4867234 -1.9051065
4.459589 7.4510965 -1.9029235
4.4966149 7.4094114 -1.8992121
4.5348325 7.3700461 -1.8961557
4.5794525 7.3412542 -1.8959374
4.6176295 7.3022957 -1.8930993
4.6813107 7.3033996 -1.9009587
4.7377343 7.2925401 -1.9057615
4.7721925 7.247848 -1.9016136
4.7651072 7.1413198 -1.8808738
4.7907939 7.0852718 -1.8736694
4.8490734 7.077477 -1.8795639
4.9180126 7.0844626 -1.8896064
4.9512825 7.0397863 -1.8856767
4.9683299 6.9727178 -1.8756343
5.0087347 6.9389367 -1.874761
5.0794468 6.9466691 -1.8854584
5.0975757 6.8824382 -1.8762892
5.1397095 6.8510303 -1.8762892
5.1952319 6.8372345 -1.8813105
5.2275624 6.7928557 -1.8778174
5.2595439 6.7483377 -1.8743244
5.3177838 6.7373853 -1.8804371
5.3547578 6.6992936 -1.878909
5.3656735 6.6291471 -1.8682116
5.4081044 6.5983629 -1.8688666
5.4397631 6.554543 -1.8658102
5.4905534 6.5337415 -1.8695215
5.5362325 6.5066175 -1.8714863
5.5722299 6.4680896 -1.8701764
5.6124539 6.4345126 -1.8703947
5.6563525 6.4050741 -1.871923
5.6825356 6.3556986 -1.8675567
5.7076716 6.3055196 -1.862972
5.7449355 6.2689409 -1.8625355
5.7866116 6.2371492 -1.8636271
5.8247733 6.2015257 -1.8636271
5.8680959 6.1713257 -1.8653735
5.8814845 6.1098967 -1.8575143
5.9386172 6.0939589 -1.8638453
5.9752121 6.0567107 -1.8636271
6.0226083 6.0302896 -1.8669018
6.0705991 6.0042005 -1.8703947
6.0738158 5.9341087 -1.8599157
6.1087079 5.8953733 -1.8594791
6.1539497 5.8665328 -1.8623171
6.1841459 5.8233109 -1.8605707
6.2512054 5.814496 -1.8701764
6.2910771 5.7799907 -1.8714863
6.3350968 5.7491493 -1.874106
6.3455439 5.6880264 -1.8666834
6.3759413 5.645103 -1.8653735
6.4156017 5.6103706 -1.8669018
6.4654164 5.5842934 -1.8714863
6.5077271 5.5514827 -1.8738878
6.5573421 5.5246496 -1.8784723
6.6008706 5.4924235 -1.8813105
6.6118255 5.4332342 -1.874761
6.6518593 5.3980961 -1.8767258
6.6482997 5.3278909 -1.8662468
6.7022948 5.3039513 -1.8723595
6.7354822 5.2633276 -1.8725779
6.7390604 5.1998467 -1.8645003
6.8119855 5.1897373 -1.8760709
6.8686595 5.1666107 -1.8830569
6.8892627 5.1162238 -1.8800006
6.868577 5.0357804 -1.8655919
6.917531 5.0066981 -1.8706131
6.9640036 4.9755025 -1.8749794
7.0047703 4.9399891 -1.8778174
7.0077147 4.8779635 -1.8703947
7.0688863 4.85642 -1.878909
7.0928969 4.8091221 -1.8773807
7.1368723 4.7752767 -1.8813105
7.1513782 4.7217193 -1.8773807
7.1483235 4.6569796 -1.8688666
7.2161713 4.6383533 -1.8793455
7.2601557 4.6039157 -1.8834935
7.2675834 4.5463457 -1.8780357
7.2820535 4.4934692 -1.8745427
7.3303299 4.4613843 -1.8800006
7.362587 4.4193349 -1.8813105
7.3618498 4.3576756 -1.874106
7.4196362 4.3306189 -1.8821837
7.4562197 4.2908511 -1.8848034
7.5070243 4.2589817 -1.8911345
7.5151277 4.2028384 -1.8865499
7.5296631 4.1505246 -1.8837118
7.5438404 4.0981908 -1.8808738
7.588634 4.0624161 -1.885895
7.6160073 4.0171423 -1.8865499
7.6231923 3.9613383 -1.8821837
7.6664677 3.9242687 -1.8869866
7.708703 3.8863776 -1.8915712
7.7131729 3.8294599 -1.8867682
7.7435393 3.7854886 -1.8885148
7.7815704 3.7450964 -1.8922261
7.7841182 3.6876724 -1.8872049
7.8357878 3.6534452 -1.8944092
7.8509612 3.6020422 -1.8926628
7.878252 3.55621 -1.8939726
7.9043841 3.5097828 -1.8950641
7.9114614 3.4549694 -1.8915712
7.9343052 3.4071302 -1.8920078
7.9298868 3.3477583 -1.885895
7.9628987 3.3042729 -1.8889514
7.9974823 3.2612453 -1.8924444
7.9983177 3.204493 -1.8878598
8.0423498 3.1650019 -1.8937542
8.0242949 3.1011767 -1.8848034
8.0723715 3.0629568 -1.8917894
8.097415 3.0157514 -1.8933177
8.0717688 2.9499366 -1.8828386
8.0887985 2.9000244 -1.8826203
8.0935507 2.8458078 -1.8795639
8.1652956 2.8148508 -1.8924444
8.1796398 2.7637596 -1.8917894
8.1705027 2.7049341 -1.8856767
8.2380047 2.6712987 -1.897684
8.2681932 2.625129 -1.9009587
8.2897367 2.5760837 -1.9022685
8.3081884 2.5260215 -1.9029235
8.3151121 2.4724939 -1.9009587
8.3516808 2.4276888 -1.9059799
8.3448277 2.3702683 -1.9009587
8.371439 2.3224106 -1.9037967
8.3827057 2.2702358 -1.9031417
8.3936472 2.2180102 -1.9024868
8.4174938 2.1691434 -1.9048883
8.4344311 2.1184042 -1.9057615
8.4690742 2.0719426 -1.9107827
8.4493494 2.0122557 -1.9033601
8.4482269 1.9572916 -1.9003037
8.5143452 1.9176322 -1.9127476
8.4716101 1.8534715 -1.9003037
8.5630112 1.8184737 -1.918642
8.5281277 1.7564547 -1.908163
8.5358734 1.7035214 -1.907508
8.5404158 1.6500043 -1.9061981
8.553257 1.5981075 -1.9068531
8.5552187 1.5442098 -1.9051065
8.599144 1.4977105 -1.9129659
8.5879612 1.4415292 -1.9083813
8.6592665 1.3989154 -1.9225717
5.9318414 0.92135465 -1.3032161
5.8524413 0.87229675 -1.2840044
5.8122764 0.82989615 -1.2737437
5.8182263 0.7943489 -1.273962
5.8094425 0.75687158 -1.2709057
5.7965446 0.71905231 -1.266976
5.7775869 0.68073583 -1.2617365
5.7729259 0.64429998 -1.2597717
5.7728887 0.60845745 -1.2588984
5.765831 0.57196665 -1.256497
5.7634015 0.53603637 -1.2551872
5.7529707 0.49948367 -1.2521307
5.7345271 0.46245325 -1.2473278
5.7353106 0.42711359 -1.2468911
5.7631373 0.39363828 -1.2525673
0 0 -0
0 0 -0
0 0 -0
0 0 -0
0 0 -0
0 0 -0
0 0 -0
0 0 -0
0 0 -0
0 0 -0
0 0 -0
0 -0 -0
0 -0 -0
0 -0 -0
0 -0 -0
0 -0 -0
0 -0 -0
0 -0 -0
0 -0 -0
0 -0 -0
0 -0 -0
0 -0 -0
0 -0 -0
0 -0 -0
0 -0 -0
0 -0 -0
0 -0 -0
0 -0 -0
8.6731129 -0.95626295 -1.912311
8.5846901 -0.99985486 -1.8937542
8.328495 -1.021816 -1.8374294
8.0036459 -1.031803 -1.7656043
7.8714452 -1.0638827 -1.7372235
7.7584825 -1.097115 -1.7132089
7.6849928 -1.1348528 -1.6981454
7.5322461 -1.1595429 -1.66518
7.7128844 -1.2358739 -1.7077512
7.7090063 -1.2838179 -1.7086244
7.700984 -1.3310952 -1.7086244
7.7041984 -1.3803896 -1.7112441
7.7176514 -1.431733 -1.7162653
7.7068043 -1.4786925 -1.7158288
7.6650405 -1.5194961 -1.7084061
7.6441002 -1.56415 -1.7057863
7.6057143 -1.6049747 -1.6992369
7.5928626 -1.6509899 -1.6985819
7.5673532 -1.6941342 -1.695089
7.5435023 -1.7374663 -1.6920326
7.5203547 -1.7807945 -1.6891944
7.3974004 -1.7996671 -1.6634334
7.2631412 -1.8142591 -1.6350527
7.3227682 -1.8769743 -1.6514262
7.3781219 -1.939496 -1.6669265
7.4094253 -1.9964162 -1.6769689
7.3923326 -2.0405431 -1.6758773
7.3693433 -2.0829418 -1.6734759
7.3582988 -2.1286626 -1.6739125
7.3394847 -2.1721098 -1.6726027
7.3372269 -2.2204969 -1.6752224
7.2610035 -2.2461433 -1.6605954
7.2889552 -2.3038952 -1.6704195
7.2561088 -2.3425767 -1.6660533
7.2425251 -2.387361 -1.6662716
7.2092428 -2.4255288 -1.6619053
7.1849947 -2.4665482 -1.6597221
7.1678829 -2.5099428 -1.6592855
7.1468334 -2.5519071 -1.6579757
7.1200371 -2.5917039 -1.6553559
7.1040006 -2.6353428 -1.6553559
7.0949988 -2.6816437 -1.6571023
7.0693045 -2.7216198 -1.6549193
7.0488381 -2.7635198 -1.6540459
7.0109038 -2.7983947 -1.6490247
6.9782324 -2.8351133 -1.6453135
6.9561963 -2.8760126 -1.6442219
6.9402175 -2.9193978 -1.6446586
6.9221735 -2.9619274 -1.6446586
6.8967113 -3.0012288 -1.642912
6.86835 -3.0391448 -1.6405106
6.8540225 -3.0832334 -1.6416022
6.816339 -3.1167059 -1.6370175
6.7944322 -3.1572375 -1.6363626
6.7669902 -3.1951168 -1.6343977
6.7402196 -3.2332003 -1.6326512
6.7088504 -3.2689381 -1.6298132
6.7017846 -3.3165357 -1.6330879
6.6996183 -3.3667996 -1.6376724
6.6744881 -3.4056258 -1.6365809
6.6439352 -3.4415767 -1.6341795
6.6080103 -3.4745553 -1.6304681
6.5900097 -3.5168741 -1.6313413
6.5623002 -3.5539894 -1.6298132
6.5343838 -3.5908973 -1.6282851
6.5181932 -3.6342514 -1.6298132
6.4906754 -3.6712945 -1.6285033
6.4561772 -3.7042503 -1.6254469
6.4392304 -3.7472317 -1.6269751
6.410234 -3.7831986 -1.6254469
6.3818765 -3.819452 -1.624137
6.3599892 -3.8595514 -1.6245737
6.3469915 -3.9051528 -1.6274117
6.3866606 -3.9838026 -1.6442219
6.3554983 -4.0187421 -1.6424754
6.3849401 -4.0924268 -1.6568841
6.4088058 -4.1634331 -1.6699829
6.3741741 -4.1967735 -1.6675814
6.355608 -4.2406816 -1.6695462
6.3157263 -4.2703047 -1.6658349
6.2942352 -4.3122869 -1.6671448
6.2620459 -4.34693 -1.6656166
6.2320633 -4.3830256 -1.6647433
6.2042575 -4.4206157 -1.664525
6.1730604 -4.4557447 -1.6634334
6.1140971 -4.4704938 -1.6547009
6.0802789 -4.5032773 -1.6529545
6.0540938 -4.5416718 -1.653391
6.0307741 -4.5822768 -1.6547009
5.9971313 -4.6150279 -1.6531727
5.9556174 -4.6415386 -1.6494614
5.9101748 -4.6646905 -1.6446586
5.8479042 -4.6740527 -1.6350527
5.8752403 -4.7552881 -1.6512079
5.83916 -4.7856798 -1.6492431
5.8089347 -4.8207951 -1.6490247
5.7680402 -4.8469281 -1.64575
5.7218418 -4.8683143 -1.6409472
5.6829915 -4.8956866 -1.6383274
5.6550512 -4.9323893 -1.6389824
5.6217546 -4.9644108 -1.6381091
5.5700927 -4.9799461 -1.631778
5.550283 -5.0238547 -1.6350527
5.5092812 -5.048584 -1.6319963
5.4753389 -5.079638 -1.6311231
5.4561586 -5.1244979 -1.6348344
5.4210768 -5.1545172 -1.6337428
5.3773966 -5.1761761 -1.6300315
5.3574147 -5.220654 -1.6337428
5.3169451 -5.2452025 -1.6311231
5.2604971 -5.2535882 -1.6234821
5.2521782 -5.3100548 -1.6311231
5.2215428 -5.344276 -1.631778
2.2614882 -2.3422987 -0.68866342
2.2470734 -2.3561311 -0.68866342
2.2312365 -2.3684533 -0.68822676
2.2199845 -2.3856726 -0.68931836
4.9996991 -5.4415588 -1.6134397
4.9649048 -5.4706883 -1.613003
4.9527359 -5.5250325 -1.6202074
4.9200354 -5.5567794 -1.620644
4.8691468 -5.5677614 -1.6149678
4.8763485 -5.6455441 -1.6291583
4.8143868 -5.6434298 -1.6197708
4.7758965 -5.6683855 -1.6184609
4.7322888 -5.6870799 -1.6154045
4.6824374 -5.6979127 -1.610165
4.6436982 -5.7219892 -1.6088551
4.6005692 -5.7404737 -1.606017
4.5531502 -5.7532878 -1.6016507
2.0179284 -2.581187 -0.69324797
1.9925157 -2.581157 -0.68975496
1.9730928 -2.588676 -0.68844509
1.9518931 -2.5937145 -0.68648028
1.933033 -2.6017244 -0.68538868
1.8876107 -2.5733945 -0.67425472
1.7859753 -2.4663351 -0.64150769
1.7418813 -2.4367473 -0.63037366
4.2410259 -6.0133762 -1.6064537
4.1951303 -6.0264692 -1.6029606
4.1641507 -6.0609455 -1.6053621
4.1208601 -6.0774961 -1.6029606
4.0867472 -6.1075339 -1.6042705
4.0534959 -6.1390104 -1.606017
4.0120234 -6.1580424 -1.6044888
3.9741628 -6.1825438 -1.6044888
3.919955 -6.1812615 -1.5977211
3.8804014 -6.2027154 -1.5970662
3.8366332 -6.2172723 -1.5946647
3.8080502 -6.2565365 -1.5988127
3.760551 -6.2647223 -1.594883
3.7185616 -6.2817998 -1.5933548
3.6696193 -6.2867975 -1.5887703
3.6324351 -6.3117332 -1.5894252
1.6722322 -2.9461107 -0.71813571
1.6526949 -2.9537606 -0.71748078
1.6199394 -2.93735 -0.71071309
3.50951 -6.4598646 -1.6049254
3.4311285 -6.4090018 -1.5865871
3.3821805 -6.4118066 -1.5820025
3.3481731 -6.4428306 -1.5846223
3.3005757 -6.4476156 -1.5806926
3.2622695 -6.4703608 -1.5813476
3.2246759 -6.4946265 -1.5824392
3.1770523 -6.4985085 -1.5785094
3.1345799 -6.5126038 -1.5771996
3.1037493 -6.5511179 -1.5820025
3.0721517 -6.588614 -1.5865871
3.0385828 -6.6224198 -1.5902984
2.9970884 -6.6391606 -1.5898618
2.9543154 -6.6529655 -1.5887703
2.9149997 -6.6745448 -1.5896435
2.8743756 -6.693202 -1.5898618
2.8332527 -6.7107129 -1.5898618
2.7905276 -6.7243657 -1.5889885
2.7488468 -6.7404575 -1.5887703
2.7081621 -6.7590094 -1.5892068
2.664495 -6.77005 -1.5878969
2.6144645 -6.7644243 -1.5826575
2.5625272 -6.7529655 -1.5761081
2.5152555 -6.7530141 -1.5723968
2.5039093 -6.8508172 -1.5920449
2.4545834 -6.8458409 -1.587242
2.4199743 -6.8819489 -1.5922632
2.3722973 -6.8809829 -1.5885519
2.330344 -6.8963342 -1.5887703
2.2950363 -6.9318118 -1.5937915
2.2500532 -6.9383368 -1.5920449
2.2059619 -6.9473615 -1.5909534
2.1580818 -6.9439912 -1.5870237
2.1043673 -6.9206872 -1.5785094
2.0629752 -6.9372106 -1.5793828
2.0348008 -6.9994059 -1.5909534
1.9816874 -6.9760861 -1.5826575
1.9372811 -6.9824715 -1.5813476
1.894401 -6.9942274 -1.5813476
1.855935 -7.0227027 -1.5852772
1.8042907 -7.0008821 -1.5776362
1.7503707 -6.9682817 -1.5675938
1.7180114 -7.0215483 -1.577418
1.6776072 -7.0433502 -1.5800377
1.6297357 -7.033546 -1.5754532
1.5824764 -7.0253243 -1.5713052
1.5424668 -7.049202 -1.5745798
1.5006028 -7.0652161 -1.5761081
1.4631252 -7.1029658 -1.5826575
1.4139795 -7.0840559 -1.5763264
1.3730758 -7.1060133 -1.5793828
1.3292693 -7.1133451 -1.5791644
1.2829993 -7.1069617 -1.5758897
1.2378618 -7.1060476 -1.5739249
1.1895554 -7.0855985 -1.5675938
1.1418579 -7.066752 -1.5616994
1.0998219 -7.0823045 -1.5636642
1.0570635 -7.0937457 -1.5647558
1.0165477 -7.1213522 -1.5695586
0.97072357 -7.1119847 -1.5660657
0.92832583 -7.1274843 -1.5682487
0.88313562 -7.1214247 -1.565629
0.83714277 -7.1073256 -1.5612627
0.79448974 -7.121057 -1.5632275
0.75118917 -7.1296802 -1.5641009
0.70723587 -7.1322126 -1.5636642
0.66210741 -7.1218424 -1.5603895
0.61957514 -7.1393824 -1.5634458
0.57661784 -7.1537499 -1.5658473
0.53459162 -7.1824565 -1.5715234
0.48852167 -7.1563926 -1.5649741
0.44695455 -7.1972418 -1.5734882
0.40142587 -7.1754899 -1.5680305
0.35768056 -7.1836658 -1.5693403
0.31478265 -7.2130241 -1.5754532
0.26920775 -7.1797128 -1.5675938
0.22508793 -7.1792784 -1.5671571
0.18144792 -7.1971092 -1.5708685
0.13761602 -7.2156496 -1.5747982
0.093264252 -7.2105036 -1.5734882
0.048948422 -7.2002058 -1.5710869
0.004779622 -7.2237916 -1.5763264
-0.039473344 -7.2109985 -1.5734882
-0.083718456 -7.2106209 -1.5734882
-0.12822251 -7.224607 -1.576763
-0.17210372 -7.2051477 -1.572615
-0.21598653 -7.1932263 -1.5702136
-0.26065072 -7.2063942 -1.5734882
-0.30511191 -7.2105093 -1.5747982
-0.34811676 -7.1831584 -1.569122
-0.39127785 -7.1643224 -1.5654107
-0.43439901 -7.1481495 -1.5623543
-0.48106018 -7.1872182 -1.5717418
-0.52515107 -7.1841311 -1.5717418
-0.5691449 -7.179801 -1.5715234
-0.61618525 -7.2111773 -1.5793828
-0.65961778 -7.1985145 -1.577418
-0.70225197 -7.178792 -1.5739249
-0.74851167 -7.1957016 -1.5787278
-0.78997266 -7.1667237 -1.57327
-0.83517528 -7.1724038 -1.5756714
-0.87940657 -7.1690817 -1.5761081
-0.92113024 -7.1461296 -1.5721784
-0.96509153 -7.1413102 -1.5723968
-1.0094388 -7.1391191 -1.57327
-1.0555079 -7.1482368 -1.576763
-1.1049966 -7.1782765 -1.5850589
-1.1420665 -7.1280012 -1.5752348
-1.1966923 -7.186316 -1.5900801
-1.2400987 -7.1749916 -1.5892068
-1.2842726 -7.1682076 -1.5894252
-1.3239563 -7.1371651 -1.5841856
-1.3647797 -7.1135731 -1.5806926
-1.4152386 -7.1395254 -1.5885519
-1.4643052 -7.1565204 -1.5944464
-1.4995189 -7.1063433 -1.5850589
-1.539567 -7.0807981 -1.5813476
-1.5812782 -7.0636001 -1.579601
-1.6324803 -7.0879989 -1.5874604
-0.71245551 -3.0117283 -0.65264165
-0.73046005 -3.0054035 -0.65220505
-0.74581075 -2.9885573 -0.64936697
-1.8035123 -7.0363479 -1.5852772
-1.8349851 -6.980792 -1.5750165
-0.79561335 -2.9554782 -0.6450007
-0.81035537 -2.9383123 -0.64216262
-0.82916594 -2.9361019 -0.64281756
-2.0100911 -6.9486551 -1.5785094
-2.0601704 -6.9614549 -1.584404
-2.1017151 -6.9449468 -1.5835307
-2.1422691 -6.9253945 -1.5820025
-1.084211 -3.4322035 -0.76550978
-2.2393913 -6.9366584 -1.5909534
-2.2730479 -6.8959103 -1.5846223
-1.093654 -3.2525852 -0.72795981
-1.0990089 -3.2033572 -0.71791744
-1.1160624 -3.1891856 -0.71617091
-2.4563708 -6.879405 -1.5944464
-2.482841 -6.821106 -1.5841856
-1.1450344 -3.088506 -0.69717765
-1.1860541 -3.1398411 -0.71114969
-1.2280966 -3.1916978 -0.72534007
-1.2487264 -3.1868277 -0.725995
-2.7003183 -6.7652993 -1.5898618
-2.7428808 -6.7513151 -1.5905167
-2.7797785 -6.7235365 -1.5878969
-1.2652377 -3.0095074 -0.69062823
-1.2779193 -2.9882305 -0.68735349
-1.2915562 -2.9695959 -0.68473375
-1.3069879 -2.9553685 -0.68320554
-2.990721 -6.6484523 -1.5911717
-3.0436368 -6.6565995 -1.5977211
-3.0757849 -6.619215 -1.5931365
-3.1596887 -6.691987 -1.6158412
-1.9902271 -4.150032 -0.98993611
-3.2522616 -6.6746392 -1.6212989
-2.0470662 -4.1375403 -0.99299252
-2.07899 -4.1379805 -0.9962672
-2.1087778 -4.1338382 -0.99845034
-2.1350007 -4.1225538 -0.998887
-2.1584389 -4.1059213 -0.99801373
-2.1835916 -4.0926003 -0.99801373
-2.2091272 -4.0799828 -0.99823201
-2.2463431 -4.0885859 -1.0039082
-2.2837474 -4.0968847 -1.0095843
-2.3136482 -4.0912881 -1.0117675
-2.3435662 -4.0854783 -1.0139506
-2.3725178 -4.0777688 -1.0156971
-2.4019592 -4.0706978 -1.0176619
-2.4389219 -4.0759778 -1.0229014
-2.4724948 -4.0751176 -1.0266128
-2.5143328 -4.0872955 -1.0338172
-2.5176671 -4.0370183 -1.024648
-2.5267401 -3.996752 -1.0180986
-2.5454221 -3.9721363 -1.0156971
-2.6106923 -4.0194502 -1.0325073
-2.6449678 -4.0180254 -1.0364369
-2.6208136 -3.9286687 -1.0167887
-2.6437767 -3.9108973 -1.0163521
-2.6837225 -3.9179459 -1.0226831
-2.6642964 -3.8388822 -1.0056547
-2.7445145 -3.9030747 -1.0277044
-2.7604821 -3.8750358 -1.024648
-2.7990599 -3.8785958 -1.0303241
-2.8740799 -3.9314511 -1.049754
-2.9080248 -3.9270723 -1.0534654
-2.9291375 -3.9052522 -1.0523738
-2.9317858 -3.8592362 -1.0445145
-2.923861 -3.8001897 -1.0329438
-2.8943231 -3.7144501 -1.0137323
-2.8844054 -3.6552603 -1.0019433
-2.9311554 -3.6679816 -1.0106759
-2.9523785 -3.6484103 -1.0102392
-2.9443922 -3.5932472 -0.99954194
-3.0187445 -3.6381857 -1.0178802
-3.0328481 -3.6098833 -1.0150422
-3.1087031 -3.6543746 -1.0335988
-3.1495419 -3.6566699 -1.03993
-3.2078474 -3.6784549 -1.0521555
-3.2096832 -3.635298 -1.0451695
-3.2540472 -3.6402674 -1.0525922
-3.2979372 -3.644105 -1.0597965
-3.249017 -3.546108 -1.0362186
-3.3278034 -3.5876229 -1.0549935
-3.3591089 -3.5770934 -1.0580499
-3.3796492 -3.5550008 -1.0576134
-3.438627 -3.5728602 -1.0696206
-3.4754708 -3.5670679 -1.0744234
-3.5260816 -3.5748494 -1.0835927
-3.5127752 -3.5179362 -1.0724586
-3.5155587 -3.4777899 -1.0665642
-3.4844725 -3.4050124 -1.0501907
-3.4968722 -3.375437 -1.0475709
-3.4991503 -3.3364122 -1.0418948
-3.4421053 -3.2419672 -1.0180986
-3.4719379 -3.2300894 -1.021155
-3.4945669 -3.2113659 -1.0220282
-3.5120375 -3.187896 -1.0213733
-3.4087095 -3.0562208 -0.98447829
-3.4040143 -3.0145502 -0.97749227
-3.6274276 -3.1728108 -1.0384017
-3.6556907 -3.1581471 -1.0410215
-3.7863786 -3.2306433 -1.0737685
-3.8031445 -3.2048349 -1.0728953
-3.8137345 -3.17395 -1.0702755
-3.7615027 -3.09164 -1.0495358
-3.6659679 -2.9756622 -1.0165703
-3.8037281 -3.0489087 -1.0508456
-3.7833326 -2.9946325 -1.0397116
-3.7078145 -2.8980672 -1.0130774
-3.7626166 -2.9038723 -1.0235564
-3.8121936 -2.9049735 -1.0325073
-3.7355716 -2.8105588 -1.0060914
-3.7762527 -2.8050365 -1.0126407
-3.800477 -2.7870052 -1.0146055
-3.8198781 -2.7653496 -1.0152605
-3.8065977 -2.7203057 -1.0069646
-3.8399668 -2.7087061 -1.0115491
-3.8917594 -2.70962 -1.021155
-3.9211829 -2.6945293 -1.024648
-3.9174473 -2.6567302 -1.0191902
-4.0001888 -2.6771343 -1.0370919
-4.0654073 -2.6847947 -1.0501907
-3.9354291 -2.5644672 -1.0111126
-3.9978869 -2.5703421 -1.0235564
-4.0597386 -2.5750234 -1.035782
-4.0332646 -2.5236754 -1.024648
-4.0835576 -2.5203991 -1.0338172
-4.0530925 -2.467397 -1.0218099
-4.0999537 -2.4615617 -1.0301058
-4.1040626 -2.4298978 -1.0272677
-4.0969796 -2.3918829 -1.0215915
-4.1310344 -2.3778918 -1.0266128
-4.1430006 -2.3510551 -1.0259578
-4.1599035 -2.3270187 -1.0266128
-4.1604285 -2.2939146 -1.0231198
-4.136692 -2.2478514 -1.013514
-4.1297565 -2.2113757 -1.0082744
-4.1518798 -2.190546 -1.0104576
-4.1435928 -2.1537828 -1.0049998
-4.1541238 -2.1269839 -1.0043448
-4.1758108 -2.1058469 -1.0065279
-4.1973948 -2.0845232 -1.0087111
-4.1776652 -2.0428758 -1.0006335
-4.1971569 -2.0205884 -1.00238
-4.2482829 -2.013175 -1.0119858
-4.2879758 -1.9998504 -1.0187535
-4.3285508 -1.9865209 -1.0257396
-4.3451061 -1.9619309 -1.0268312
-4.3909569 -1.9502776 -1.035127
-4.4055238 -1.9244697 -1.035782
-4.4280105 -1.9020211 -1.0384017
-4.4422946 -1.8759537 -1.0390567
-4.5672989 -1.8957731 -1.0665642
-4.5137801 -1.8411905 -1.0508456
-4.6092439 -1.8472016 -1.0711488
-4.6277561 -1.821743 -1.0728953
-4.7435331 -1.8337555 -1.0980014
-4.6807866 -1.7765828 -1.080318
-4.7409859 -1.7662143 -1.0921068
-4.7444005 -1.734412 -1.0903604
-4.8137484 -1.7263386 -1.1043324
-4.7625651 -1.6750896 -1.0897055
-4.8271894 -1.6645931 -1.1025859
-4.9380908 -1.6689789 -1.1263821
-5.3762679 -1.7802881 -1.2272429
-5.3778071 -1.7442575 -1.2250599
-5.4051514 -1.7165405 -1.2289895
-5.560967 -1.7285008 -1.2630464
-5.5752034 -1.6954819 -1.2639196
-5.6893353 -1.692101 -1.2881525
-6.0660276 -1.7636182 -1.3735131
-6.224123 -1.7682077 -1.4077883
-6.2141666 -1.7242473 -1.4029853
-6.4601245 -1.7498295 -1.4575638
-6.6179299 -1.7490319 -1.4916207
-6.8458958 -1.7643735 -1.5418328
-6.9001327 -1.733264 -1.5518752
-6.9362326 -1.6971511 -1.5577697
-7.3414483 -1.748559 -1.6485882
-7.6448631 -1.7712804 -1.7158288
-7.7898278 -1.7545545 -1.746611
-7.8919692 -1.726735 -1.7675691
-8.0990667 -1.7200128 -1.8125416
-8.4583511 -1.7420931 -1.8922261
-8.71101 -1.7384496 -1.9474595
-8.6975584 -1.6803424 -1.9420016
-8.7038679 -1.6262271 -1.9411284
-8.7444143 -1.5783335 -1.9481144
-8.7827768 -1.5296687 -1.9546638
-8.8093214 -1.4786553 -1.9585934
-8.7777653 -1.4180431 -1.9494243
-8.7400122 -1.3569765 -1.9389452
-8.7539654 -1.3041853 -1.940255
-8.7560062 -1.2496209 -1.9389452
-8.7267656 -1.1908624 -1.9306493
-8.7706823 -1.1420772 -1.9389452
-8.8056107 -1.0917182 -1.9452763
-8.8324966 -1.0400614 -1.9498609
-8.7572422 -0.9767704 -1.9315225
-8.7291021 -0.91944516 -1.9238815
-8.785079 -0.87086636 -1.9352338
-8.8096905 -0.81874937 -1.9396001
-8.8281603 -0.7658577 -1.9426565
-8.8132381 -0.71010977 -1.9382902
-8.7794752 -0.65320051 -1.9297761
-8.7638454 -0.59799224 -1.9254098
-8.7994919 -0.54619795 -1.9326141
-8.8270369 -0.49355385 -1.938072
-8.8542662 -0.4405922 -1.9435297
-8.8070793 -0.38409317 -1.9323958
-8.8590059 -0.33190358 -1.9435297
-8.8179579 -0.2762008 -1.933924
-8.8682652 -0.22331157 -1.9448397
-8.839222 -0.1683207 -1.938072
-8.8000803 -0.11357001 -1.9291211
-8.8230562 -0.059720583 -1.9341424
-8.8086185 -0.0055748597 -1.9308676
-8.8192215 0.04853439 -1.933269
-8.7972898 0.10239451 -1.9284662
-8.8462572 0.15726286 -1.9396001
-8.8539066 0.21175066 -1.9415649
-8.8231773 0.26518986 -1.9350156
-8.7735977 0.31758678 -1.9243182
-8.7841587 0.37195298 -1.9271562
-8.7612419 0.42484924 -1.9225717
-8.8315516 0.48260236 -1.9389452
-8.7729015 0.53339952 -1.9265013
-8.7801743 0.58793759 -1.9289027
-8.3912239 -0.21054155 -1.9365922
-8.3641348 -0.1585138 -1.9299455
-8.3328314 -0.10677634 -1.9223818
-8.3693438 -0.055887237 -1.9308622
-8.3773165 -0.0045374408 -1.9326959
-8.3450651 0.04668672 -1.9251322
-8.3397551 0.097833343 -1.9239862
-8.3389978 0.14900328 -1.9239862
-8.3233309 0.19981788 -1.9205482
-8.3511362 0.25176367 -1.9274242
-8.3504066 0.3030358 -1.9276534
-8.3094902 0.35261834 -1.9184854
-8.319809 0.40421122 -1.921465
-8.2753792 0.45296741 -1.9116094
-8.3297672 0.50722349 -1.9251322
-8.3274698 0.55838948 -1.9253614
-8.3015585 0.60784161 -1.9200898
-8.3025246 0.65915251 -1.9212358
-8.3002634 0.7102493 -1.9216942
-8.2821789 0.7599209 -1.9184854
-8.2579851 0.80882835 -1.9139014
-8.2906246 0.86341357 -1.9228402
-8.2280874 0.90797126 -1.9093174
-8.2803717 0.96519995 -1.9230694
-8.2984467 1.0189537 -1.9287994
-8.2679033 1.0667402 -1.9230694
-8.2448044 1.1152337 -1.919173
-8.2088928 1.1617115 -1.912297
-8.2401266 1.2177486 -1.921465
-8.2219172 1.2666564 -1.9189438
-8.2255239 1.31893 -1.9216942
-8.1961527 1.365857 -1.9166518
-8.1856995 1.4157903 -1.9161934
-8.1797333 1.4665053 -1.916881
-8.1772795 1.5179108 -1.9184854
-8.1515617 1.5649381 -1.914589
-8.1666298 1.6198484 -1.9205482
-8.1231613 1.6630957 -1.9125261
-8.1080418 1.711902 -1.9113802
-8.1030912 1.7628611 -1.9127554
-8.0930719 1.8127602 -1.9129846
-8.0884371 1.863914 -1.914589
-8.0190706 1.8998233 -1.9006078
-8.0536051 1.9602693 -1.9118385
-8.0225391 2.0049293 -1.9072546
-7.9987712 2.0512159 -1.9045042
-7.9860344 2.1002569 -1.9045042
-7.9889746 2.1535249 -1.9084005
-7.9164991 2.186183 -1.893961
-7.9525795 2.2487516 -1.9061086
-7.9414368 2.298317 -1.9067962
-7.946785 2.3528035 -1.9116094
-7.8995919 2.3916495 -1.9035873
-7.8736095 2.4366229 -1.9008369
-7.8603668 2.4854753 -1.9012954
-7.877388 2.5441277 -1.9093174
-7.8699493 2.5951576 -1.9113802
-7.8206658 2.6322215 -1.903129
-7.7887173 2.6747849 -1.8992325
-7.7528663 2.7157683 -1.8944193
-7.7415571 2.7652524 -1.8957945
-7.7335906 2.8160315 -1.8980865
-7.713428 2.8624151 -1.8973989
-7.6975408 2.9103782 -1.8978573
-7.692255 2.9624517 -1.9010662
-7.6721206 3.008884 -1.9006078
-7.6372418 3.0494063 -1.8964821
-7.6319137 3.1017067 -1.8999202
-7.5857534 3.1373179 -1.8930441
-7.6175008 3.2053206 -1.9061086
-7.5824771 3.2454896 -1.9022121
-7.5642056 3.2927308 -1.9026706
-7.530508 3.3331728 -1.8992325
-7.5072513 3.3781183 -1.8985449
-7.478415 3.420475 -1.8964821
-7.4581695 3.4667075 -1.8967113
-7.4895678 3.537344 -1.9104633
-7.4510479 3.5752327 -1.9061086
-7.4193454 3.6161935 -1.9035873
-7.3865485 3.6564682 -1.9008369
-7.3552771 3.697351 -1.8985449
-7.3445902 3.7486069 -1.9017538
-7.3067579 3.78599 -1.8978573
-7.2963128 3.837548 -1.9012954
-7.2399974 3.8648281 -1.8925858
-7.2067323 3.9040794 -1.8900646
-7.2073793 3.9618223 -1.8967113
-7.1803842 4.004549 -1.8960238
-7.1548305 4.0480523 -1.8957945
-7.1399879 4.0976911 -1.8985449
-7.0793777 4.1208591 -1.8889185
-7.0673714 4.1721368 -1.8925858
-7.0408034 4.2149229 -1.8923565
-7.0198011 4.261075 -1.8937317
-6.9902077 4.3020272 -1.892815
-6.9562464 4.3402004 -1.8907522
-6.9451156 4.3926864 -1.8951069
-6.8827949 4.4126301 -1.8852513
-6.8670168 4.4622035 -1.8884602
-6.8362565 4.5021133 -1.8875433
-6.8060741 4.5423541 -1.8868557
-6.7877507 4.5905733 -1.8896061
-6.7570467 4.6304851 -1.8889185
-6.7365031 4.6774092 -1.8912106
-6.7084723 4.7192159 -1.8914398
-6.6801825 4.7608542 -1.8916689
-6.6524229 4.8028927 -1.8921274
-6.608685 4.8332787 -1.8880018
-6.5781217 4.8731585 -1.8877726
-6.549654 4.9145975 -1.8882309
-6.5333252 4.9652939 -1.8923565
-6.4849944 4.9916334 -1.887085
-6.4580827 5.0343227 -1.8882309
-6.4308915 5.0768695 -1.889377
-6.4026604 5.1186643 -1.8902937
-6.3597836 5.1486673 -1.8868557
-6.3371062 5.1949983 -1.8896061
-6.3103538 5.2381358 -1.8912106
-6.2549944 5.2573428 -1.8841053
-6.2337379 5.3050861 -1.8875433
-6.2010689 5.343236 -1.8875433
-6.1769691 5.3888626 -1.8902937
-6.1131454 5.3995996 -1.8806673
-6.0907826 5.4467397 -1.8841053
-6.0442586 5.4722509 -1.8799797
-6.0234842 5.5210729 -1.8841053
-5.9916348 5.5599146 -1.8847929
-5.9545693 5.5939078 -1.8838761
-5.9314194 5.6410718 -1.8875433
-5.8791637 5.6604829 -1.8818133
-5.8394418 5.6916947 -1.880209
-5.8016367 5.7246828 -1.8792921
-5.7581372 5.7519188 -1.8765417
-5.7391624 5.8037519 -1.8820425
-5.7156868 5.8513904 -1.8861681
-5.6776481 5.8842497 -1.8854805
-5.6441226 5.9217949 -1.8863974
-5.6110172 5.9598584 -1.8875433
-5.5624104 5.9813452 -1.8834177
-5.5229707 6.0124955 -1.8825009
-5.4840121 6.0441079 -1.8818133
-5.4435749 6.0740194 -1.8806673
-5.4074931 6.1087637 -1.8811257
-5.3788791 6.1520872 -1.8843346
-5.3454828 6.1901321 -1.885939
-5.3377213 6.2583623 -1.8969406
-5.2747622 6.2619634 -1.8880018
-5.2256565 6.2814903 -1.8841053
-5.2129698 6.3450232 -1.8937317
-5.1671925 6.3685756 -1.8912106
-5.1341052 6.4077568 -1.8935026
-5.0916715 6.4353218 -1.8923565
-5.034709 6.4441996 -1.8857098
-5.0224247 6.5104213 -1.896253
-4.9800234 6.5380187 -1.8953362
-4.9392281 6.5676746 -1.8951069
-4.897676 6.5962944 -1.8946486
-4.8628645 6.6340723 -1.8969406
-4.7998114 6.6330318 -1.8880018
-4.7629819 6.6679025 -1.8896061
-4.7365637 6.7176847 -1.8955654
-4.7130494 6.7721868 -1.9028997
-4.6796741 6.8130126 -1.9063377
-4.6159339 6.809371 -1.8971697
-4.5719004 6.8343296 -1.896253
-4.5212994 6.8492565 -1.8925858
-4.4983144 6.9062309 -1.9008369
-4.4584851 6.9377966 -1.901983
-4.4299049 6.9872184 -1.9081714
-4.3776579 6.9994135 -1.9040458
-4.3392277 7.0335984 -1.9061086
-4.302567 7.0709004 -1.9090881
-4.2450743 7.0737987 -1.9026706
-4.2224131 7.1348944 -1.912297
-4.162364 7.132926 -1.9047334
-4.1107512 7.1448326 -1.9010662
-4.0745187 7.1834674 -1.9047334
-4.0346403 7.2159791 -1.9067962
-4.0175395 7.2900424 -1.9200898
-3.9648345 7.3000159 -1.9161934
-3.912159 7.309617 -1.912297
-3.8867598 7.3705063 -1.9221526
-3.8513353 7.4132185 -1.9271951
-3.793802 7.4133153 -1.9210066
-3.7381659 7.4164624 -1.915735
-3.7133641 7.4811091 -1.9267366
-3.6652536 7.4993806 -1.9255906
-3.6086173 7.4998016 -1.9198606
-3.5812826 7.561388 -1.9301746
-3.5319402 7.5770445 -1.9285703
-3.4756413 7.5773396 -1.9230694
-3.440294 7.6233649 -1.929487
-3.3827889 7.6203103 -1.9232986
-3.3312936 7.630219 -1.9205482
-3.2940135 7.6728759 -1.9262782
-3.2419508 7.6812854 -1.9232986
-3.2014728 7.7172165 -1.9274242
-3.1503854 7.7277017 -1.9251322
-3.0989282 7.7369471 -1.922611
-3.0385659 7.723208 -1.9143598
-2.9995406 7.7634978 -1.9198606
-2.9546103 7.7890372 -1.9216942
-2.9037049 7.79881 -1.9196314
-2.8608088 7.830194 -1.9230694
-2.817965 7.8622603 -1.9267366
-2.7735441 7.8904228 -1.929487
-2.7253945 7.9082127 -1.9297162
-2.6830499 7.9432297 -1.9343002
-2.6373196 7.9687839 -1.9365922
-2.5799687 7.95889 -1.9301746
-2.5299072 7.9708595 -1.9292579
-2.4913487 8.0196962 -1.9375091
-2.4358656 8.0143433 -1.9324666
-2.3885863 8.0356703 -1.9340711
-2.3419521 8.0595217 -1.936363
-2.2903283 8.0662489 -1.9345294
-2.2431331 8.0885925 -1.9365922
-2.1970217 8.1153574 -1.939801
-2.1412184 8.1060991 -1.9343002
-2.1038256 8.1671572 -1.9459895
-2.0520139 8.1733036 -1.9443851
-1.9958117 8.1611576 -1.9384258
-1.9438945 8.1656752 -1.9365922
-1.8865057 8.1461554 -1.9290286
-1.8439703 8.190814 -1.9370506
-1.7897258 8.1839066 -1.9326959
-1.7439241 8.215682 -1.9377382
-1.6928918 8.2233677 -1.9370506
-1.6334507 8.188736 -1.9262782
-1.5870514 8.2186747 -1.9310914
-1.5407035 8.2502642 -1.936363
-1.4881505 8.2490253 -1.9338418
-1.4428506 8.2886877 -1.9411763
-1.3930926 8.3041048 -1.9427806
-1.3386991 8.2913561 -1.9377382
-1.2894413 8.3099947 -1.9402595
-1.2361336 8.3023462 -1.9365922
-1.1872303 8.3242283 -1.9400302
-1.1361314 8.331357 -1.9400302
-1.0851154 8.3391361 -1.9402595
-1.0333284 8.340807 -1.9391134
-0.98395145 8.3624582 -1.9427806
-0.92960185 8.3412514 -1.936363
-0.88064563 8.3680944 -1.9414054
-0.82976329 8.3781843 -1.9425515
-0.77797997 8.379241 -1.9416347
-0.72865337 8.4081001 -1.9473647
-0.67447013 8.3803949 -1.939801
-0.6236859 8.3931122 -1.9418639
-0.56959242 8.3589067 -1.932925
-0.51919627 8.3768177 -1.936363
-0.46925339 8.406086 -1.9425515
-0.41723078 8.4000568 -1.9404886
-0.36606246 8.411211 -1.9425515
-0.31422693 8.4074631 -1.9411763
-0.26327285 8.4296637 -1.9459895
-0.21112862 8.4145775 -1.942093
-0.15895756 8.3874922 -1.9354463
-0.10787794 8.4184818 -1.9425515
-0.056286536 8.4287186 -1.9448434
-0.0045724162 8.4366922 -1.9466771
0.04708086 8.4161215 -1.9418639
0.098367803 8.3855009 -1.9347587
0.15039076 8.4168558 -1.9423223
0.20149654 8.3933935 -1.9370506
0.25319865 8.3988094 -1.938655
0.30412868 8.3805618 -1.9347587
0.35603979 8.3902073 -1.9375091
0.40760881 8.3898096 -1.9379674
0.45870796 8.3803473 -1.936363
0.50887871 8.3569717 -1.9315498
0.56073225 8.3624325 -1.9336126
0.61245883 8.3646593 -1.9349878
0.66692847 8.400527 -1.9443851
0.71613818 8.3691216 -1.9379674
0.76738781 8.3636007 -1.9377382
0.81897593 8.3616409 -1.9384258
0.87389463 8.3913116 -1.9466771
0.91971028 8.3345137 -1.9345294
0.97240973 8.3422489 -1.9377382
1.0215626 8.3197012 -1.9338418
1.0719695 8.3084497 -1.9326959
1.1217551 8.2930346 -1.9306331
1.1707103 8.2725019 -1.9274242
1.2214473 8.2651634 -1.9274242
1.2697679 8.2421198 -1.923757
1.323552 8.2543573 -1.9285703
1.3690562 8.2153559 -1.9212358
1.4323748 8.2816143 -1.9391134
1.4783546 8.2458429 -1.9326959
1.5283895 8.2337456 -1.9320083
1.5814506 8.2375956 -1.935217
1.6306405 8.2210531 -1.9336126
1.6732455 8.1727486 -1.9244446
1.7356244 8.2204237 -1.9384258
1.7742393 8.1554041 -1.9253614
1.8299897 8.1700106 -1.9315498
1.8752778 8.1377602 -1.9265074
1.927194 8.1346254 -1.9285703
1.9717772 8.100894 -1.9232986
2.0266373 8.1094189 -1.928341
2.0736983 8.0864592 -1.9258198
2.1210492 8.0651102 -1.923757
2.1813877 8.0923576 -1.9336126
2.2110527 8.0065737 -1.9159642
2.276557 8.0509291 -1.9301746
2.3183382 8.0106287 -1.923757
2.3566716 7.9598517 -1.9148182
2.408288 7.9545584 -1.9171102
2.4570508 7.9396315 -1.9171102
2.5092423 7.9355431 -1.9198606
2.5489135 7.8922086 -1.9129846
2.5954623 7.8708739 -1.9116094
2.6527114 7.8815536 -1.9182562
2.6909063 7.835669 -1.9109218
2.7373257 7.8144169 -1.9097757
2.7770381 7.7745571 -1.9040458
2.8286855 7.7683468 -1.9067962
2.8878105 7.7818723 -1.914589
2.9213927 7.7266765 -1.9051918
2.9628015 7.6931634 -1.9012954
3.0095947 7.673933 -1.9010662
3.0577071 7.6580338 -1.9017538
3.1152651 7.6652794 -1.9084005
3.1592641 7.638824 -1.906567
3.2068305 7.6210899 -1.9070253
3.2466385 7.5851622 -1.9028997
3.2783577 7.5311828 -1.8941902
3.344203 7.5554309 -1.9056501
3.3685331 7.4859471 -1.8930441
3.4212847 7.4801855 -1.8969406
3.4667075 7.4581695 -1.8967113
3.5153143 7.4429188 -1.8983158
3.5449171 7.3878603 -1.8896061
3.5995629 7.3852201 -1.8946486
3.6379013 7.3490367 -1.8909813
3.6798658 7.3204889 -1.889377
3.7278113 7.3038406 -1.8909813
3.7631536 7.2626801 -1.8861681
3.8189723 7.2609906 -1.8918982
3.8561196 7.2236819 -1.8882309
3.8994434 7.1981735 -1.8877726
3.9346292 7.1579041 -1.8834177
3.9794233 7.1353269 -1.8838761
4.0202541 7.1056924 -1.8825009
4.0628095 7.0792022 -1.8820425
4.1017632 7.0465684 -1.8799797
4.1340375 7.0028267 -1.8749373
4.1954255 7.0082307 -1.8834177
4.2317829 6.971539 -1.8804381
4.2765203 6.9487581 -1.8813549
4.300529 6.8926563 -1.8731037
