# .PCD v0.7 - Point Cloud Data file format
VERSION 0.7
FIELDS x y z
SIZE 4 4 4
TYPE F F F
COUNT 1 1 1
WIDTH 1536
HEIGHT 1
VIEWPOINT 0 0 0 1 0 0 0
POINTS 1536
DATA ascii
-38.197124 -2.5756772 -1.9224875
-0 -0 -0
-0 -0 -0
-38.088436 -1.8648355 -1.9148201
-37.999382 -1.6268256 -1.9097085
-38.132404 -1.3981689 -1.9160469
-0 -0 -0
-38.011909 -0.9268381 -1.9091463
-0 -0 -0
-0 -0 -0
-37.946629 -0.22655532 -1.9052614
-0 0 -0
-0 0 -0
-37.888447 0.47125912 -1.9023989
-0 0 -0
-37.792953 0.9340238 -1.8979518
-0 0 -0
-0 0 -0
-0 0 -0
-0 0 -0
-0 0 -0
-37.588428 2.3155363 -1.8905401
-0 0 -0
-30.851795 -0.78054148 -1.9098824
-30.886936 -0.59181684 -1.9118344
-30.844082 -0.40168858 -1.9089379
-30.802053 -0.21212232 -1.9061675
-30.796787 -0.023115899 -1.9057897
-30.743456 0.16556591 -1.9024526
-30.705935 0.35378763 -1.9001858
-0 0 -0
-30.644405 0.72926486 -1.8967228
-30.610424 0.91641593 -1.8948969
-30.618189 1.1047244 -1.8957783
-30.55998 1.2904266 -1.8925672
-30.581392 1.4793611 -1.894456
-30.57473 1.6671401 -1.894645
-30.503157 1.851025 -1.8908041
-30.453384 2.035625 -1.8884114
-30.451271 2.2232444 -1.889104
-30.424122 2.4090242 -1.8882855
-30.366009 2.5920084 -1.885578
-30.345558 2.7779181 -1.8853261
-30.319002 2.9631891 -1.8847595
-30.307198 3.1498892 -1.8852003
-30.2873 3.3357913 -1.8852003
-30.268244 3.5217986 -1.8853261
-30.232197 3.705755 -1.8844447
-30.235615 3.8946288 -1.8861448
-30.160707 4.073266 -1.8829335
-30.062021 4.24792 -1.8782741
-30.021566 4.4302573 -1.8773926
-29.915892 4.6023955 -1.8724184
-29.827961 4.776402 -1.8686405
-29.917213 4.9791565 -1.8762592
-29.821192 5.1514201 -1.8721036
-30.043461 5.3798614 -1.8884114
-30.05895 5.5731997 -1.8915597
-29.992823 5.7515187 -1.8895448
-30.015707 5.9470801 -1.8933227
-0 0 -0
-30.195341 6.3687258 -1.9097565
-30.382929 6.6032634 -1.9244273
-30.467478 6.8176775 -1.9325497
-30.349211 6.98703 -1.9276384
-30.280518 7.1671414 -1.9260014
-30.660723 7.4560905 -1.9535799
-30.750925 7.6781688 -1.9624579
-0 0 -0
-30.723885 8.0732126 -1.9669914
-30.720991 8.2742968 -1.9700767
-30.705238 8.4724627 -1.9724064
-30.684368 8.6696615 -1.9744842
-30.654564 8.8647051 -1.9760584
-30.881914 9.1361494 -1.994633
-30.59601 9.2561102 -1.9795214
-30.8981 9.554822 -2.0032592
-31.03017 9.8046665 -2.0159149
-0 0 -0
-30.864861 10.170661 -2.0130816
-31.240795 10.507472 -2.0422971
-31.156855 10.692486 -2.0410378
-0 0 -0
-31.101309 11.10187 -2.0462639
-31.329905 11.400676 -2.0662239
-31.418438 11.65169 -2.0769279
-31.220318 11.796629 -2.0684276
-31.120337 11.977576 -2.0666015
-31.073204 12.178863 -2.0684276
-30.922808 12.339335 -2.0633273
-30.744801 12.487531 -2.0564013
-30.539394 12.622952 -2.0476491
-30.502766 12.827511 -2.0504825
-30.288597 12.956732 -2.0412269
-30.135313 13.110484 -2.0361896
-29.941126 13.245081 -2.0283821
-29.812872 13.407671 -2.0251708
-29.64472 13.551345 -2.0192521
-0 0 -0
-29.293884 13.828055 -2.0065331
-29.142794 13.976036 -2.0019369
-28.984711 14.119625 -1.9968996
-28.798237 14.248082 -1.9899106
-28.695108 14.4169 -1.9888401
-28.576771 14.577732 -1.9867623
-28.450449 14.733985 -1.9841808
-28.332123 14.893881 -1.9822289
-28.243725 15.069322 -1.9824808
-28.130545 15.231409 -1.9810325
-27.872988 15.313864 -1.9692582
-27.961563 15.586643 -1.9824808
-27.475336 15.537345 -1.9542096
-27.389006 15.711101 -1.9549022
-27.206688 15.829174 -1.9486687
-27.087561 15.983134 -1.9470946
-26.941877 16.120855 -1.9436315
-26.839041 16.283794 -1.9433796
-26.712269 16.431959 -1.9414277
-26.621103 16.601891 -1.9421833
-26.508612 16.758522 -1.9414277
-26.396042 16.914938 -1.9407351
-26.281712 17.070059 -1.9399796
-26.148134 17.212341 -1.9378388
-25.963156 17.319845 -1.9318571
-25.803478 17.443056 -1.9278274
-25.659735 17.576239 -1.9250569
-25.495651 17.69466 -1.9207753
-25.347412 17.823212 -1.917753
-25.194492 17.947716 -1.9144158
-25.033716 18.06576 -1.9105121
-24.856329 18.170727 -1.905349
-24.728327 18.311022 -1.9040897
-24.599539 18.450432 -1.9028304
-24.449308 18.573254 -1.8999339
-24.306408 18.701014 -1.8976673
-24.194353 18.852257 -1.8979192
-23.985773 18.927404 -1.8904893
-23.823185 19.037464 -1.8867744
-23.677219 19.160053 -1.8844447
-23.529102 19.280304 -1.881989
-23.378099 19.397549 -1.8793446
-23.222723 19.510456 -1.8763852
-23.080526 19.633827 -1.8745592
-22.907444 19.730137 -1.8702147
-22.760376 19.848022 -1.8680738
-22.609732 19.962204 -1.8656812
-22.442921 20.061317 -1.8619663
-22.240225 20.126993 -1.855229
-0 0 -0
-21.769117 20.192076 -1.8360878
-21.774315 20.446873 -1.8472955
-21.717161 20.645416 -1.8532771
-21.614525 20.801811 -1.855418
-21.493628 20.94101 -1.8560476
-21.350521 21.058481 -1.8547883
-21.079659 21.048056 -1.8421954
-0 0 -0
-20.870001 21.356543 -1.8467288
-20.807188 21.555283 -1.8529624
-20.713793 21.723719 -1.8565513
-20.530157 21.797373 -1.8519549
-20.407581 21.935354 -1.8530253
-20.269903 22.05722 -1.8527734
-20.15028 22.198914 -1.8542845
-20.035009 22.345915 -1.8562994
-19.904137 22.475897 -1.8569291
-19.794765 22.630657 -1.8596995
-19.661406 22.758486 -1.8602662
-19.546656 22.908306 -1.8627218
-19.378714 22.995758 -1.8600774
-19.231503 23.107327 -1.8595107
-19.07605 23.208704 -1.8581884
-18.93643 23.329189 -1.8585032
-18.772953 23.420023 -1.8564883
-18.622702 23.526945 -1.8558587
-18.44173 23.594378 -1.8521438
-18.266733 23.668377 -1.8490585
-18.108459 23.763344 -1.8477362
-17.957508 23.867628 -1.8472326
-17.810127 23.976562 -1.8471695
-17.65205 24.070906 -1.8460362
-17.511045 24.188463 -1.8467917
-17.326321 24.245111 -1.842888
-17.12948 24.283279 -1.8376619
-16.94252 24.33387 -1.8335062
-16.772543 24.407759 -1.8312395
-16.602297 24.480478 -1.8289728
-16.425131 24.542076 -1.8259505
-16.263784 24.626574 -1.8247541
-0 0 -0
-15.950098 24.808352 -1.8235579
-11.495279 18.123146 -1.3168179
-11.40292 18.223795 -1.3190845
-11.319192 18.339279 -1.3224846
-11.41508 18.75108 -1.3477964
-11.464206 19.09457 -1.3679452
-11.44954 19.338026 -1.3806641
-11.332682 19.411364 -1.3809159
-14.733513 25.595701 -1.8260764
-9.6272011 16.964981 -1.19347
-0 0 -0
-0 0 -0
-0 0 -0
-11.209805 20.934454 -1.461007
-10.856664 20.577389 -1.430658
-10.923985 21.016422 -1.4571662
-10.812565 21.117701 -1.4596218
-10.932202 21.678213 -1.4945672
-0 0 -0
-10.693852 21.869011 -1.49866
-10.554271 21.923426 -1.4979043
-10.40673 21.960716 -1.4960154
-9.3192406 19.981853 -1.3538411
-10.120219 22.051395 -1.4935597
-9.9773312 22.096704 -1.4924264
-9.8302164 22.131969 -1.4906634
-9.7010241 22.207417 -1.4917338
-0 0 -0
-0 0 -0
-10.260577 24.718866 -1.6513493
-10.04802 24.632582 -1.641212
-9.9156237 24.741016 -1.6444232
-9.9541054 25.285213 -1.6772279
-10.229921 26.460993 -1.7526596
-10.097471 26.602575 -1.7580116
-10.241377 27.48889 -1.8135464
-10.086224 27.588705 -1.816065
-9.924839 27.672619 -1.8175762
-9.8783817 28.084164 -1.8410619
-9.6814709 28.073486 -1.8363396
-9.486661 28.066181 -1.8319321
-9.3083105 28.10586 -1.8307358
-9.1452274 28.191875 -1.8326877
-8.9711666 28.244604 -1.8324988
-8.8056917 28.32485 -1.8341988
-8.6151733 28.323923 -1.8306098
-8.416461 28.293028 -1.8251319
-8.2516184 28.374805 -1.8271468
-7.4828978 26.333052 -1.6899467
-7.3289208 26.406359 -1.6917727
-7.1534448 26.401703 -1.6885614
-6.7994795 25.719522 -1.641212
-6.6592307 25.829374 -1.6456825
-6.4699712 25.747789 -1.637749
-6.2570491 25.563074 -1.6232041
-6.066535 25.460215 -1.6140742
-5.909749 25.495014 -1.6139483
-5.7558365 25.542479 -1.6147039
-5.6045513 25.602663 -1.616341
-5.447351 25.63657 -1.616341
-5.296392 25.700792 -1.6183559
-5.1415267 25.747486 -1.6193002
-2.8537421 14.762839 -0.91145104
-2.7212842 14.556399 -0.89709508
-2.6106281 14.454968 -0.88953936
-2.5080037 14.391076 -0.88443917
-2.4064276 14.327456 -0.87940204
-2.30955 14.286779 -0.87587601
-2.2183199 14.278 -0.8744278
-2.1250768 14.253833 -0.87203515
-2.0323548 14.230048 -0.86970544
-1.9075886 13.968344 -0.85226423
-1.8251985 14.005516 -0.85390133
-1.7713112 14.27495 -0.8703351
-1.6884789 14.326187 -0.87291664
-1.5999895 14.331319 -0.87260181
-1.5138035 14.357739 -0.87367225
-1.426762 14.377682 -0.87436485
-1.34092 14.412003 -0.87600195
-1.2608438 14.516403 -0.88210952
-1.1766465 14.584548 -0.88595033
-1.0960366 14.710923 -0.89350611
-1.0112652 14.798023 -0.89860624
-1.5766001 25.352549 -1.5654025
-1.1281505 20.136351 -1.2352155
-0.72125489 14.464262 -0.87650567
-0.63406038 14.504309 -0.87877238
-0.56653672 15.079386 -0.91485113
-0.45846972 14.588804 -0.88368362
-0.36950147 14.613293 -0.88506883
-0.27961859 14.604308 -0.88437623
-0.18818168 14.466039 -0.87556118
-0.099202745 14.435984 -0.87360924
-0.01061039 14.419354 -0.87253886
0.078165554 14.475036 -0.8760649
0.16699272 14.475282 -0.87612784
0.25577301 14.471989 -0.87600195
0.34634647 14.544977 -0.88072425
0.43609372 14.559537 -0.88179469
0.52624851 14.579526 -0.88324285
0.62053746 14.690693 -0.8904838
0.7187171 14.853083 -0.90099889
0.81185037 14.885264 -0.9033286
1.5102732 24.886671 -1.535809
1.662281 24.866978 -1.5351795
1.8135228 24.838394 -1.5340461
1.9651065 24.816851 -1.5334164
2.1159849 24.788414 -1.532409
2.2668614 24.762045 -1.5315905
2.4175911 24.73575 -1.5308349
2.5699401 24.726406 -1.5312127
2.7229211 24.722076 -1.5319682
2.8772142 24.727703 -1.5334164
3.0294936 24.714537 -1.5337312
3.1790421 24.679646 -1.5327238
3.3292117 24.650774 -1.5321572
2.241235 15.859601 -0.97334534
2.3417106 15.867272 -0.97473061
3.791189 24.642529 -1.535809
2.3410633 14.618323 -0.89684325
4.0885539 24.565599 -1.5339831
4.2405677 24.547918 -1.5344869
4.3941011 24.538137 -1.5355573
4.5451274 24.513657 -1.5357461
4.6965828 24.491188 -1.5361239
4.8475451 24.465826 -1.5363758
5.0023723 24.459087 -1.537887
5.160183 24.465042 -1.5402796
5.3184662 24.470953 -1.5427352
5.4737468 24.461235 -1.5442463
5.6273174 24.442749 -1.5452538
5.7751207 24.399019 -1.5446872
5.9188266 24.338881 -1.543113
6.0595942 24.268215 -1.5409093
6.2031851 24.210274 -1.539587
6.3490839 24.162104 -1.5389574
4.2952752 15.946854 -1.0047648
4.4057841 15.966377 -1.0077871
6.7962809 24.053631 -1.5397758
5.9157557 20.45648 -1.3063028
4.3297477 14.634625 -0.92568105
7.252327 23.972221 -1.542924
7.4561844 24.11129 -1.5550762
7.5721164 23.964212 -1.5484021
7.7328086 23.960039 -1.5512354
7.89186 23.949108 -1.553691
8.0523405 23.94091 -1.5563985
8.2262993 23.970345 -1.5616876
8.3926773 23.974995 -1.5654025
8.5513697 23.955944 -1.5676062
8.7121916 23.941475 -1.5701878
8.8682995 23.912832 -1.5718879
9.0335541 23.907448 -1.575225
9.1980009 23.89814 -1.5783732
9.3666792 23.897934 -1.5822141
9.537919 23.902117 -1.5864327
9.7133179 23.914341 -1.5912811
9.8766441 23.894875 -1.5940515
10.039323 23.872461 -1.596696
6.3095794 14.74921 -0.9749195
6.39359 14.695575 -0.97391206
10.548903 23.846087 -1.6079037
10.706482 23.806398 -1.6096667
10.871439 23.782009 -1.612563
11.041125 23.766447 -1.616152
11.228069 23.785797 -1.6222596
11.396245 23.76325 -1.6255338
11.569374 23.749401 -1.6295006
8.2956772 16.766853 -1.1430353
11.960305 23.805401 -1.6436046
12.125195 23.768906 -1.6462492
12.316704 23.782682 -1.6525457
8.3851662 15.95044 -1.0997156
12.654136 23.716919 -1.6587791
12.840288 23.714304 -1.6641941
9.0079651 16.395187 -1.1430353
9.1526136 16.418936 -1.1487651
8.3669586 14.795267 -1.0351768
9.2933235 16.200632 -1.1411463
9.3388529 16.051001 -1.1344091
9.4665794 16.043251 -1.138061
14.227431 23.777412 -1.710977
14.422755 23.77158 -1.7170215
14.611221 23.75234 -1.7221847
14.793127 23.720673 -1.7265292
14.961328 23.665731 -1.7292367
15.120256 23.595333 -1.7308737
15.296279 23.550657 -1.7345257
10.158975 15.432712 -1.1284904
10.29003 15.424883 -1.1326461
15.955775 23.603287 -1.7602782
16.121733 23.536228 -1.7626709
16.286329 23.466379 -1.7649376
10.532873 14.979118 -1.1181012
16.640242 23.359047 -1.7722416
16.748798 23.208755 -1.7685267
16.770741 22.941189 -1.7556819
16.912376 22.839457 -1.7558078
17.039024 22.71769 -1.7544225
17.204056 22.646885 -1.75713
17.366425 22.571747 -1.7595856
0 0 -0
11.869705 15.041655 -1.1716841
11.910065 14.903828 -1.1664581
11.961738 14.781591 -1.1624913
12.015523 14.663144 -1.1588393
12.077228 14.555347 -1.1560689
17.472198 20.796581 -1.6764723
17.580076 20.666176 -1.6745833
17.70134 20.551868 -1.6740795
18.013393 20.65649 -1.6919615
18.201891 20.6159 -1.6978803
18.387239 20.570051 -1.7034841
0 0 -0
19.167519 20.920521 -1.7529114
19.301632 20.809103 -1.7534781
19.405041 20.664814 -1.7512743
19.53216 20.546082 -1.7513373
15.661298 16.273031 -1.3877161
19.757053 20.278397 -1.7490076
19.890217 20.166025 -1.7498261
20.020632 20.050663 -1.7504557
20.182304 19.966045 -1.7539189
16.246605 15.876343 -1.3959645
16.324327 15.757642 -1.3942645
16.457542 15.692307 -1.3974756
17.113647 16.118608 -1.4460214
20.816681 19.366795 -1.7566264
20.940266 19.243427 -1.7570671
17.247822 15.65598 -1.4324211
21.168148 18.979013 -1.7565004
21.282707 18.847446 -1.7563745
21.394947 18.713877 -1.7561226
21.505594 18.578985 -1.7558078
21.626781 18.453157 -1.7564374
21.745705 18.325254 -1.7569412
21.847765 18.183182 -1.7561226
21.999016 18.081738 -1.7593968
22.149067 17.978491 -1.7626079
22.230152 17.819153 -1.7602782
22.007278 17.419781 -1.7335812
0 0 -0
0 0 -0
21.986034 16.754053 -1.7067583
21.989532 16.54443 -1.6989506
22.06179 16.387768 -1.6966839
22.120079 16.221399 -1.6934098
22.165842 16.046741 -1.689254
22.246021 15.897667 -1.6878688
22.359459 15.772374 -1.6891282
22.497587 15.663966 -1.6923393
22.687866 15.590631 -1.6995803
22.869827 15.509946 -1.7061915
23.043358 15.422062 -1.7121732
23.217499 15.33318 -1.7182178
23.316162 15.193702 -1.7185956
23.769922 15.282438 -1.7456704
23.939939 15.184948 -1.7514002
24.15449 15.114003 -1.7604672
24.336796 15.021074 -1.7671415
24.330471 14.811782 -1.7599005
24.515017 14.718724 -1.7668266
24.802385 14.684976 -1.7813085
25.160067 14.68901 -1.8008906
25.340542 14.586633 -1.8075018
25.740305 14.607217 -1.8300432
26.310236 14.717963 -1.8647997
26.814306 14.784667 -1.894645
27.295618 14.832389 -1.9227272
27.672934 14.818216 -1.9432538
27.939873 14.741284 -1.9558467
28.21133 14.663933 -1.9687544
28.243921 14.461444 -1.9647247
28.430145 14.337304 -1.9716508
28.483616 14.145721 -1.9692582
28.475739 13.924647 -1.9626468
28.545355 13.742302 -1.9615765
28.367598 13.442947 -1.9433167
28.203531 13.153891 -1.9261903
28.16398 12.925638 -1.917879
28.20183 12.734101 -1.9150455
28.22562 12.536915 -1.9113306
28.223362 12.32913 -1.9059156
28.178354 12.104121 -1.8976673
28.241062 11.926334 -1.8969117
28.251951 11.72719 -1.892693
28.242056 11.520446 -1.8871522
0 0 -0
28.036777 11.037369 -1.8637923
28.021126 10.833099 -1.8581884
28.046015 10.645378 -1.855418
27.939661 10.409326 -1.8438954
27.982386 10.230156 -1.8425102
28.011749 10.046474 -1.8403064
27.783836 9.7727394 -1.8209763
27.795158 9.5854816 -1.817765
27.826033 9.4054852 -1.8159391
27.765741 9.1956615 -1.8081315
27.727661 8.9946327 -1.801898
27.73477 8.8092232 -1.7987497
27.742556 8.6246586 -1.7957274
27.740528 8.4377155 -1.7921385
27.750645 8.2551079 -1.789431
27.763401 8.0738087 -1.7869753
27.678978 7.8653822 -1.7782232
27.707485 7.6900606 -1.7769639
27.676123 7.498764 -1.7718638
27.704247 7.3242135 -1.7707304
27.725471 7.1481056 -1.7692193
0 0 -0
27.777172 6.7990279 -1.7670155
27.834873 6.6323953 -1.768086
27.843933 6.4542665 -1.7660711
27.93656 6.2953653 -1.7695341
27.949312 6.1182823 -1.767897
28.028305 5.9555936 -1.7706045
28.074095 5.7855172 -1.7712342
28.130596 5.6174488 -1.7726194
28.163555 5.4445477 -1.7725564
28.235672 5.2789741 -1.775075
0 0 -0
28.343555 4.9399643 -1.7779714
28.422543 4.7742257 -1.7811196
28.495638 4.6069064 -1.783953
28.557884 4.4373374 -1.7861568
28.611225 4.2660003 -1.7878568
28.618092 4.0876832 -1.7866604
28.647577 3.9126844 -1.7869753
0 0 -0
28.668674 3.5577669 -1.7854012
28.67609 3.3801563 -1.7845197
28.746874 3.2097883 -1.7877309
28.806721 3.037632 -1.7903124
7.5945692 0.75345361 -0.44431588
7.568244 0.703973 -0.44236398
7.4580803 0.64758748 -0.43512306
7.4171481 0.59820056 -0.43228963
7.3987832 0.55104661 -0.43090442
7.3542318 0.50237077 -0.42788211
7.3511996 0.45686483 -0.42750433
7.3538647 0.41175014 -0.42750433
7.3393073 0.36577448 -0.42643392
7.3304458 0.32025468 -0.42574131
7.3063426 0.274295 -0.42410421
7.3587618 0.23105912 -0.42731541
7.3650298 0.18602853 -0.42763025
7.3740149 0.14098711 -0.42813396
7.3647618 0.095608264 -0.42750433
7.3502402 0.050313849 -0.42655984
7.3963194 0.0052477298 -0.42945623
7.3992062 -0.040151417 -0.42964512
7.4696751 -0.08636678 -0.43411562
7.5408502 -0.13346602 -0.43864906
7.5847874 -0.18080117 -0.44148248
7.6573553 -0.22954622 -0.44614187
7.699687 -0.27810934 -0.44891232
25.084751 -1.0593011 -1.5468279
25.044884 -1.2116075 -1.5447501
25.024023 -1.3645509 -1.5439315
20.238478 -1.2282676 -1.2420157
24.934692 -1.6668065 -1.539461
24.998648 -1.8252208 -1.5441834
25.012846 -1.9806231 -1.5458205
24.999228 -2.1339769 -1.5457575
19.919952 -1.8236667 -1.2248265
19.902428 -1.9452765 -1.2244486
19.91394 -2.0698347 -1.2259598
25.178404 -2.7731743 -1.560932
10.577466 -1.230981 -0.63465822
10.583582 -1.2975597 -0.63553971
10.554635 -1.3597977 -0.63421744
10.561917 -1.426671 -0.63522488
10.586563 -1.4961982 -0.6373657
10.586069 -1.5624391 -0.63793236
13.861037 -2.1326616 -0.84760487
13.812214 -2.2119906 -0.84533811
24.935762 -4.1501555 -1.5576578
14.397704 -2.4873211 -0.88462812
13.621799 -2.4394681 -0.83589339
13.671341 -2.5350113 -0.84004909
24.237328 -4.6479049 -1.519816
24.174088 -4.7897463 -1.5176123
24.126642 -4.9343863 -1.5164789
24.076382 -5.0782127 -1.5152197
23.976501 -5.2110109 -1.5108122
23.907066 -5.3497491 -1.5084194
23.826134 -5.4853683 -1.5053341
23.712391 -5.6126113 -1.5001711
23.643564 -5.7497487 -1.4979674
23.471312 -5.8606267 -1.4890893
23.365301 -5.9866996 -1.4845558
23.443956 -6.160388 -1.4921116
8.2104521 -2.2116811 -0.49928409
7.8734727 -2.1728272 -0.47812796
7.8138919 -2.2080722 -0.47510564
8.0245409 -2.3208489 -0.48983938
8.0158911 -2.3717415 -0.49021718
7.9897246 -2.4174137 -0.4894616
7.9871364 -2.4702251 -0.49028012
8.245903 -2.6057825 -0.50841397
22.345411 -7.2117352 -1.4441954
7.8455262 -2.5855901 -0.48398367
22.227797 -7.4761786 -1.4423695
22.140915 -7.5984955 -1.439662
22.059963 -7.7223363 -1.4373952
18.935766 -6.7594442 -1.2313118
21.870689 -7.9586792 -1.4311618
21.793371 -8.0823154 -1.4292728
21.72003 -8.2070656 -1.4276987
18.540638 -7.1360826 -1.2162002
18.473272 -7.2406073 -1.2146261
18.649111 -7.4418507 -1.2296118
21.331768 -8.6643972 -1.4154205
21.2533 -8.7848301 -1.4137205
21.187956 -8.91043 -1.4129649
21.125544 -9.0371294 -1.4124613
21.066034 -9.1649904 -1.4122094
21.000275 -9.2900391 -1.4115797
20.945608 -9.4199476 -1.4117687
21.075304 -9.6341772 -1.4248023
21.092728 -9.7990513 -1.4301543
20.991592 -9.9091187 -1.427321
20.817009 -9.9833593 -1.4193873
20.698835 -10.083367 -1.4154205
20.602583 -10.193366 -1.4130279
20.522707 -10.311076 -1.4118316
20.453718 -10.434086 -1.4114538
20.39197 -10.560768 -1.4116427
20.314419 -10.679191 -1.4107612
20.246748 -10.802697 -1.4106352
12.946648 -7.0102658 -0.89168012
19.944715 -10.958075 -1.398546
19.86577 -11.07393 -1.3977275
19.787024 -11.189721 -1.3969719
12.478099 -7.1580377 -0.87039804
12.615961 -7.340364 -0.88368362
12.609364 -7.4404583 -0.88651705
19.350586 -11.578687 -1.3855124
18.478821 -11.211623 -1.3264514
12.345313 -7.5944285 -0.87726122
18.878437 -11.773417 -1.366497
18.783907 -11.875167 -1.3648599
18.659431 -11.957353 -1.361019
18.559765 -12.054769 -1.3590672
18.458773 -12.150863 -1.3570523
18.348167 -12.24008 -1.3543448
18.200785 -12.303805 -1.3488668
18.086248 -12.388745 -1.3459076
17.931181 -12.44486 -1.3398629
17.84387 -12.547188 -1.3390443
17.716961 -12.621118 -1.3352035
17.597103 -12.699221 -1.3319293
17.376242 -12.702707 -1.3207846
17.218569 -12.75029 -1.3145511
17.129631 -12.847917 -1.3137326
17.015507 -12.926217 -1.3109621
16.909769 -13.010297 -1.3088843
16.803642 -13.093565 -1.3068064
16.706533 -13.183441 -1.3054842
16.580885 -13.25019 -1.3018953
16.462032 -13.321545 -1.2988729
16.315138 -13.369169 -1.2935839
16.186716 -13.430789 -1.289806
16.037521 -13.474005 -1.2843281
15.918815 -13.541763 -1.2813687
15.796859 -13.605968 -1.2781575
15.679228 -13.673122 -1.2753241
15.517976 -13.701036 -1.2688388
15.419478 -13.783359 -1.2676424
15.321295 -13.865657 -1.2665091
15.221211 -13.945922 -1.2652497
15.12072 -14.025481 -1.2639904
15.016915 -14.1016 -1.2624793
14.916364 -14.180411 -1.2612829
14.805343 -14.248833 -1.2592051
14.657588 -14.280907 -1.2539161
14.527763 -14.329226 -1.2502012
14.392249 -14.370852 -1.2459825
14.310118 -14.465276 -1.2465492
14.202257 -14.533537 -1.2448492
14.086474 -14.593121 -1.2424566
13.9519 -14.632331 -1.2383639
13.824904 -14.678432 -1.2349638
13.723702 -14.751292 -1.2339563
6.9426107 -7.555171 -0.61016494
6.9222832 -7.6264472 -0.61262053
12.999473 -14.499085 -1.1913922
6.7388482 -7.6099558 -0.60412031
6.6847997 -7.6428981 -0.60342771
6.6168995 -7.6596045 -0.60141283
13.220816 -15.494742 -1.2478715
13.115203 -15.563361 -1.2468641
13.027761 -15.653514 -1.2476826
6.4928374 -7.899868 -0.60796118
12.823995 -15.799033 -1.2466122
12.721818 -15.871193 -1.2461085
12.523229 -15.821402 -1.2358452
2.0107095 -2.5730834 -0.1688453
1.993664 -2.5837924 -0.16871937
1.975353 -2.5928013 -0.16846751
1.9570066 -2.6016831 -0.16821565
1.9463623 -2.6208525 -0.16878234
1.934966 -2.6391842 -0.16928606
1.9099571 -2.6388812 -0.16834158
11.433559 -15.999473 -1.2034813
11.262688 -15.966571 -1.1955478
11.166217 -16.037834 -1.1957368
10.048477 -14.62304 -1.0822114
10.960165 -16.161263 -1.1947923
10.819717 -16.166834 -1.1901329
10.678515 -16.169626 -1.1853476
10.569292 -16.219793 -1.1842141
10.487381 -16.312042 -1.1862921
10.421843 -16.430864 -1.1903847
10.284829 -16.436974 -1.1861031
10.309588 -16.703594 -1.2012147
9.8654156 -16.205614 -1.1597838
10.01136 -16.674837 -1.189881
9.6398735 -16.281662 -1.1565727
9.5342541 -16.331022 -1.1558801
9.4224176 -16.369324 -1.1544318
9.578928 -16.879917 -1.1872995
9.2520151 -16.539461 -1.1584616
8.9397688 -16.213997 -1.130946
8.9139748 -16.404465 -1.1407056
8.7943058 -16.423658 -1.1381869
8.6169872 -16.33255 -1.1278608
8.4466448 -16.250515 -1.1182901
8.4172773 -16.43973 -1.1280496
8.4101715 -16.677309 -1.1412092
8.0084782 -16.126144 -1.0987711
7.9264784 -16.209946 -1.1012267
7.8571711 -16.321222 -1.1056342
7.993228 -16.867859 -1.1404537
6.9134088 -14.823632 -0.99475336
7.5366864 -16.422266 -1.1028008
7.8970208 -17.489662 -1.1735102
7.5322976 -16.958614 -1.1335276
7.4488754 -17.052069 -1.1368017
7.3358335 -17.078196 -1.1354795
7.2774987 -17.233213 -1.1430353
7.1670289 -17.266481 -1.1422796
7.2822275 -17.85257 -1.17924
7.169579 -17.889505 -1.1787362
7.0505362 -17.909945 -1.1771622
6.9210758 -17.902603 -1.1737621
6.7207832 -17.706802 -1.157706
6.6228113 -17.776699 -1.159658
6.5595322 -17.942604 -1.1680952
6.4638033 -18.022909 -1.1708027
6.1401539 -17.456867 -1.1303164
5.9473486 -17.246078 -1.1137567
5.8359838 -17.266172 -1.1126863
6.0942326 -18.401594 -1.1857883
5.943944 -18.323774 -1.1781696
5.7736921 -18.178225 -1.1661433
5.6270819 -18.100853 -1.1587135
5.5112638 -18.119761 -1.157706
5.390873 -18.122625 -1.1556911
5.2673106 -18.113197 -1.1529207
5.2507372 -18.478296 -1.1747695
5.1452651 -18.539017 -1.1766584
4.0372195 -14.901106 -0.93682581
3.9370387 -14.892792 -0.93468505
4.6431828 -18.010149 -1.1362351
4.5668836 -18.174776 -1.1451131
4.4158883 -18.041536 -1.134661
4.313664 -18.104212 -1.1369907
4.2074561 -18.15173 -1.1383759
4.1207933 -18.28722 -1.1454909
4.0590906 -18.543219 -1.1604135
3.9282246 -18.487726 -1.1552504
3.6527448 -17.725594 -1.1046268
0.4825713 -2.4184477 -0.11841057
0.46166077 -2.3900073 -0.1163957
3.3950071 -18.159668 -1.1283644
0.50946724 -2.8227155 -0.14378534
0.49453703 -2.8395531 -0.14466685
0.47082174 -2.8051336 -0.1422742
0.45168933 -2.7961471 -0.14151862
0.43176556 -2.7811148 -0.14038526
0.41439843 -2.7817373 -0.14025933
0.39958036 -2.8000355 -0.14126676
0.38225707 -2.8014457 -0.14120379
0.36493152 -2.8027489 -0.14114083
0.24188969 -1.9521866 -0.086928219
0.22967306 -1.9516517 -0.086802289
0.21713981 -1.9480649 -0.086487465
0.20434524 -1.9414206 -0.085983746
0.19213332 -1.9396584 -0.085794851
0.18041316 -1.9427882 -0.085920781
0.16779794 -1.9359045 -0.085417062
0.15415005 -1.9150125 -0.084031843
0.14172925 -1.906965 -0.083465159
0.13009372 -1.9087944 -0.083528124
0.11881286 -1.9165294 -0.083968878
0.10716271 -1.9192152 -0.084094808
0.096528433 -1.9427625 -0.085542992
0.084387973 -1.9383329 -0.085228167
0.07279297 -1.9467926 -0.085731886
0.060689423 -1.9422151 -0.085417062
0.048619546 -1.9365647 -0.085039273
0.036965679 -1.9488006 -0.085794851
0.023953624 -1.8681582 -0.080694713
0.012469712 -1.8652761 -0.080505818
0.0010220719 -1.8623234 -0.080316924
-0.01044248 -1.8692807 -0.080757678
-0.02971041 -2.5467892 -0.12351071
-0.046762925 -2.6273856 -0.12861085
-0.045322672 -1.8887265 -0.082016967
-0.056940679 -1.8894104 -0.082079932
-0.072633691 -2.0027254 -0.089257911
-0.78052795 -18.480776 -1.1298127
-0.85596853 -17.691116 -1.0802594
-0.95450729 -17.502169 -1.068674
-1.1180279 -18.421438 -1.1271682
-1.15058 -17.210316 -1.0510439
-0.24584147 -3.3623481 -0.17551956
-0.23771872 -2.9976368 -0.15253744
-0.28428349 -3.3262627 -0.17344172
-0.3450774 -3.7657304 -0.20139806
-0.35856763 -3.6652069 -0.19516455
-0.30316657 -2.9134717 -0.14762619
-0.42318264 -3.8390939 -0.20649819
-0.44765356 -3.8443558 -0.20700191
-0.4367528 -3.5602055 -0.18911994
-0.47108334 -3.6544628 -0.19529048
-0.47453254 -3.51106 -0.1863495
-0.36509919 -2.5811501 -0.12728859
-0.39680967 -2.6864798 -0.13415174
-0.46958199 -3.0499535 -0.15751165
-0.4884451 -3.0480003 -0.15757462
-0.65163988 -3.913254 -0.21310949
-0.53855234 -3.1155357 -0.16229697
-0.54921544 -3.0650177 -0.15927467
-3.671876 -19.803446 -1.2335155
-3.2082453 -16.729307 -1.0375063
-3.3112218 -16.711266 -1.0376323
-0.53388786 -2.60866 -0.13081461
-0.55009019 -2.6063116 -0.13087758
-0.86046046 -3.9575117 -0.21833555
-4.0694518 -18.185211 -1.1385018
-3.8545194 -16.741882 -1.0466993
-4.7274275 -19.972357 -1.257694
-4.8654504 -20.006979 -1.2618496
-0.69400024 -2.7779565 -0.14347053
-0.71004164 -2.7697787 -0.14321867
-0.72626245 -2.7624741 -0.14302976
-1.0930601 -4.057003 -0.2279062
-0.62313592 -2.2569275 -0.11053998
-0.93871039 -3.3210483 -0.18055674
-0.91693062 -3.169498 -0.1709861
-0.75800014 -2.5608909 -0.13131833
-0.71012372 -2.346034 -0.1174661
-0.84892583 -2.7439976 -0.1440372
-1.0479589 -3.3154335 -0.18219382
-6.032577 -18.691601 -1.2019702
-1.3474916 -4.0881186 -0.23439156
-1.3684146 -4.0674763 -0.23357302
-0.72245824 -2.1040235 -0.10317311
-0.73634386 -2.1023769 -0.10336201
-1.1998115 -3.3601482 -0.18792361
-1.4910294 -4.0964427 -0.23785461
-1.5234238 -4.1068673 -0.23917688
-1.5552967 -4.115181 -0.24037321
-1.58231 -4.1102176 -0.24068803
-1.1730355 -2.9918976 -0.16557114
-1.218742 -3.0532377 -0.17023052
-1.3692726 -3.3702576 -0.19233114
-1.39107 -3.3645594 -0.19252004
-1.2426252 -2.9539289 -0.16500445
-1.2650445 -2.9563422 -0.16569707
-1.3042614 -2.9970281 -0.1690342
-1.3242412 -2.9926195 -0.16928606
-1.7637824 -3.9210439 -0.23407674
-1.5450857 -3.3791542 -0.19724238
-1.4535247 -3.1279435 -0.18043081
-1.8769809 -3.9754586 -0.24018432
-7.348762 -15.32318 -1.0349878
-1.9251875 -3.9512286 -0.24012135
-0.89345217 -1.8050009 -0.089887559
-0.90227044 -1.7950258 -0.089572735
-0.91054648 -1.7841216 -0.089194946
-0.9279018 -1.7909083 -0.090076454
-1.6191862 -3.0793567 -0.18231975
-0.94605082 -1.7723424 -0.089572735
-0.9564327 -1.7656265 -0.08950977
-0.96148169 -1.7492284 -0.088754192
-1.9129324 -3.4309726 -0.21065387
-1.4893609 -2.6329646 -0.1536708
-10.124596 -17.649822 -1.2465492
-10.251774 -17.620148 -1.2489419
-10.354117 -17.547457 -1.2482493
-10.443144 -17.452765 -1.2459825
-5.1066928 -8.4163504 -0.58390868
-1.5648707 -2.5432086 -0.15121518
-1.5624905 -2.5047662 -0.14907439
-5.0879583 -8.0476055 -0.56350809
-5.1943183 -8.1053066 -0.57018232
-1.3348975 -2.0545821 -0.11740313
-1.3633922 -2.070528 -0.11922912
-1.3577945 -2.0347252 -0.11715128
-1.3769609 -2.0362778 -0.11790685
-1.4165003 -2.067313 -0.12092916
-1.4485053 -2.0864594 -0.12306996
-1.3194917 -1.8758812 -0.10751767
-1.3448741 -1.8872583 -0.10902883
-1.4043182 -1.945333 -0.11419193
-1.4344863 -1.9616562 -0.11614385
-1.4999473 -2.0250037 -0.12181067
-1.480607 -1.9734462 -0.11847354
-1.4353362 -1.888826 -0.11249189
-1.4359446 -1.8657454 -0.11135852
-1.5148406 -1.9434971 -0.11828464
-1.5391017 -1.9498351 -0.11954393
-1.6052399 -2.0081854 -0.12502186
-1.6420157 -2.0285552 -0.12747748
-2.937866 -3.5847483 -0.25523287
-1.6712464 -2.013629 -0.12791824
-1.6932 -2.0147984 -0.12886271
-1.7016507 -1.9998101 -0.12848492
-1.715192 -1.9908438 -0.12861085
-1.7280312 -1.9810343 -0.12867382
-1.740154 -1.970394 -0.12867382
-2.1851971 -2.4440804 -0.16966385
-2.1345255 -2.3581071 -0.16349331
-2.2190702 -2.4214959 -0.17004164
-2.2637489 -2.4400301 -0.17281207
-2.2814107 -2.4290042 -0.17306393
-2.3210261 -2.441 -0.17533067
-2.4238501 -2.5180385 -0.18332718
-2.435076 -2.4988296 -0.18294939
-16.138739 -16.362419 -1.4127761
-3.2440588 -3.248451 -0.25246245
-2.4735639 -2.4465654 -0.18231975
-2.5320697 -2.4738915 -0.18616059
-2.522788 -2.4347417 -0.18401979
-2.5369575 -2.4185276 -0.18395683
-3.4903834 -3.2870042 -0.26530722
-2.586174 -2.4055679 -0.18565688
-3.0770614 -2.8272567 -0.22645801
-3.21702 -2.9196742 -0.23691015
-3.326272 -2.981828 -0.2446548
-2.6646035 -2.3592408 -0.18735692
-17.430914 -15.24649 -1.4238578
-3.6456723 -3.1491082 -0.26675543
-17.55065 -14.975079 -1.4183799
-3.3490157 -2.8217959 -0.23911391
-3.4652214 -2.8835528 -0.24723636
-3.4805365 -2.8603351 -0.24704747
-3.4368072 -2.7892356 -0.24207325
-4.1071959 -3.2918112 -0.29490066
-4.0983634 -3.2436292 -0.29257095
-4.1213341 -3.2208796 -0.29282281
-3.8249915 -2.9516208 -0.26763692
-18.222647 -13.886147 -1.4082426
-3.0865588 -2.3218272 -0.20649819
-11.291001 -8.3868504 -0.85018641
-3.0222673 -2.2159023 -0.19925725
-3.009938 -2.1785882 -0.19724238
-3.0329926 -2.1670418 -0.19799796
-3.0755911 -2.1691015 -0.20026469
-3.097033 -2.1558919 -0.20089434
-3.09622 -2.1272392 -0.19982393
-3.1100402 -2.1087613 -0.1998869
-3.1403382 -2.1012959 -0.20120916
-19.747278 -13.041324 -1.4558439
-19.816893 -12.913372 -1.4550884
-3.6494286 -2.3459311 -0.23653236
-5.7040987 -3.617712 -0.38896993
-5.7236509 -3.5810559 -0.38878101
-3.6936898 -2.279408 -0.23665829
-3.7084589 -2.25722 -0.23672126
-3.7290843 -2.2385328 -0.23722497
-3.7513371 -2.2206941 -0.23785461
-3.780406 -2.206692 -0.23898798
-3.8336625 -2.2063577 -0.24188437
-3.8766398 -2.1995411 -0.24402516
-3.8595781 -2.1586595 -0.24182139
-3.9208188 -2.1614411 -0.24528445
-3.8621013 -2.0982678 -0.24012135
-3.861706 -2.0674639 -0.23917688
-3.9211016 -2.0684135 -0.24251401
-3.9106956 -2.0323474 -0.24087693
-3.9506304 -2.0224142 -0.24282883
-4.3104978 -2.1734014 -0.26738507
-4.3791714 -2.1744349 -0.27128887
-7.6254144 -3.7285049 -0.49833962
-4.4468899 -2.1404464 -0.27418527
-4.3886919 -2.0793562 -0.26921105
-5.722806 -2.6687169 -0.36120248
-5.7563071 -2.6414618 -0.3623988
-22.299541 -10.068922 -1.5064676
-5.7791677 -2.5665729 -0.36176917
-5.8606548 -2.5598304 -0.36630261
-5.7762995 -2.4808855 -0.35943946
-5.7748642 -2.4384072 -0.35830611
-22.727877 -9.4341002 -1.5153456
-22.771475 -9.2888126 -1.5144011
-9.6076651 -3.8502653 -0.61583173
-9.6394663 -3.7945316 -0.61639845
-22.785 -8.8087082 -1.5040119
-22.816227 -8.6602364 -1.5025008
-22.87174 -8.521121 -1.5026896
-22.90766 -8.3747959 -1.5016192
-23.286472 -8.3516712 -1.5235939
-13.315347 -4.6833448 -0.85333461
-14.219385 -4.9035125 -0.91176587
-7.8106112 -2.6397634 -0.48297623
-7.785923 -2.5782959 -0.48026875
-7.7987485 -2.5295498 -0.48007986
-14.430559 -4.5832877 -0.91806233
-14.493671 -4.50562 -0.92039204
-14.574514 -4.4328685 -0.92391807
-14.526826 -4.3211608 -0.91900682
-14.582774 -4.2405839 -0.92095876
-14.67572 -4.1701231 -0.92536628
-9.6936665 -2.6901543 -0.59750903
-9.693615 -2.6261871 -0.59643865
-9.6912146 -2.5618119 -0.59524232
-12.9162 -3.3297987 -0.80434811
-13.218053 -3.3212657 -0.82267082
-13.111192 -3.2090135 -0.81442243
-13.104423 -3.1222579 -0.81272238
-13.185556 -3.0562162 -0.81675214
-13.318946 -3.0011442 -0.82418197
-11.506197 -2.518539 -0.70593423
-15.14906 -3.2187598 -0.93991113
-15.140179 -3.119904 -0.93808514
-15.100315 -3.0152199 -0.93430722
-15.130291 -2.9247828 -0.93506283
-15.256845 -2.8522501 -0.94205189
-15.26522 -2.7569857 -0.94148523
-15.261202 -2.6596692 -0.94016296
-15.380577 -2.5833387 -0.94677424
-15.514365 -2.5080321 -0.95433003
-15.515656 -2.410645 -0.95344853
-15.442303 -2.3022971 -0.94784468
-15.378088 -2.196352 -0.94287044
-15.599919 -2.1304522 -0.95615602
-15.981834 -2.0828092 -0.97964185
-16.282524 -2.0204782 -0.99796456
-16.662333 -1.9638819 -1.0213245
-27.229343 -3.0403242 -1.6913949
-27.286194 -2.8772731 -1.6938505
-27.37484 -2.7168918 -1.6983839
-0 -0 -0
-30.774706 -2.6734326 -1.9117084
-30.867128 -2.4907341 -1.9165567
-30.845007 -2.2985454 -1.914227
-30.886408 -2.1111467 -1.91599
-30.937628 -1.924008 -1.9184456
-30.987713 -1.73632 -1.9209013
-30.896112 -1.5410777 -1.9144789
-31.017654 -1.3564022 -1.9215939
-30.925663 -1.1623063 -1.9152974
-30.909269 -0.97180653 -1.9138492
-25.59207 1.8916678 -1.9011648
-25.579981 2.0486622 -1.9011648
-25.543085 2.2035215 -1.8993568
-25.486387 2.3562601 -1.8961178
-25.450611 2.5105407 -1.894536
-25.403984 2.6634309 -1.8922008
-25.391129 2.8196971 -1.8925022
-25.350571 2.9727688 -1.8907696
-25.317009 3.1264272 -1.8896397
-25.274605 3.278759 -1.8879071
-25.263891 3.4351232 -1.8886604
-25.196926 3.5836141 -1.8851955
-25.145859 3.7339034 -1.883011
-25.108679 3.8859894 -1.8819563
-25.067627 4.0372839 -1.8806758
-25.017796 4.186904 -1.8787926
-24.955284 4.3340168 -1.8760055
-24.928221 4.4870582 -1.8760055
-24.861988 4.6328044 -1.8730679
-24.821344 4.7830029 -1.8721639
-24.800331 4.9369664 -1.8728418
-24.807665 5.0968738 -1.8757796
-24.780802 5.2500281 -1.8761562
-24.830929 5.4200606 -1.8825591
-24.85655 5.5856571 -1.887154
-24.88496 5.7526703 -1.8920501
-24.870537 5.910326 -1.8937074
-24.900642 6.0791392 -1.8989049
-24.922842 6.2468457 -1.9035752
-24.957438 6.4185309 -1.9093
-24.980255 6.5880775 -1.9141963
-25.030809 6.7659526 -1.9213523
-25.03495 6.9321861 -1.924968
-25.023602 7.0946445 -1.9274538
-25.063871 7.2725096 -1.9340825
-25.106722 7.45227 -1.9410126
-0 0 -0
-25.318138 7.8543658 -1.9651172
-25.311293 8.0228262 -1.9684316
-25.288151 8.1865826 -1.9705408
-25.301823 8.3628759 -1.9756629
-25.277433 8.5272121 -1.9778475
-25.287807 8.7038975 -1.9828943
-25.244274 8.8625307 -1.9837229
-25.253258 9.0401154 -1.9888451
-25.269442 9.221221 -1.9946452
-25.257246 9.3927832 -1.998261
-25.299843 9.585742 -2.0063963
-25.303808 9.7652149 -2.0115185
-25.310234 9.9465542 -2.016942
-25.317236 10.129081 -2.0225163
-25.275848 10.292885 -2.0242488
-25.30065 10.484431 -2.0314801
-25.293728 10.663883 -2.0362258
-25.258062 10.831852 -2.0387115
-25.287092 11.028489 -2.0466208
-25.333801 11.234378 -2.0561121
-25.278934 11.39617 -2.0573173
-25.348135 11.615039 -2.0689175
-25.353224 11.806137 -2.0753202
-25.33709 11.98835 -2.080066
-25.304394 12.163464 -2.0835309
-25.217636 12.312811 -2.0825517
-25.129105 12.461109 -2.0814972
-24.980034 12.578734 -2.0753956
-24.841122 12.700449 -2.0701981
-24.722898 12.831959 -2.0668085
-24.566948 12.942974 -2.0602551
-24.453653 13.075603 -2.0573926
-24.307232 13.18973 -2.051743
-24.171686 13.308806 -2.0470726
-24.032116 13.424772 -2.0421011
-23.936279 13.564603 -2.0409713
-23.783438 13.671459 -2.0349452
-23.670677 13.800559 -2.0324593
-23.557228 13.928791 -2.0299735
-23.45507 14.06333 -2.0285423
-23.338518 14.18885 -2.0259058
-23.21282 14.308239 -2.0225163
-23.075542 14.41975 -2.0181472
-22.984104 14.559466 -2.0179212
-22.862452 14.679746 -2.0150588
-22.720968 14.786571 -2.010464
-22.598181 14.904841 -2.0076015
-22.475628 15.022717 -2.0048144
-22.352482 15.13965 -2.0020273
-22.218882 15.248868 -1.9983363
-22.103613 15.370111 -1.9963778
-21.985247 15.488791 -1.9941933
-21.863012 15.60428 -1.9917076
-21.737766 15.717101 -1.9889958
-0 0 -0
-21.490402 15.943459 -1.9840242
-21.33956 16.035482 -1.9790527
-21.212202 16.144377 -1.9763409
-21.034557 16.213957 -1.9688835
-20.917383 16.329216 -1.9672264
-20.774557 16.423859 -1.9631587
-20.650816 16.532948 -1.9609742
-20.516453 16.632971 -1.9578105
-20.407072 16.75285 -1.9571326
-20.282423 16.859901 -1.9550234
-20.135872 16.948072 -1.9508051
-20.027706 17.068071 -1.9504285
-19.900709 17.171745 -1.948244
-19.759676 17.262695 -1.9447036
-19.626495 17.359829 -1.9419918
-19.518866 17.479261 -1.9419166
-19.376528 17.567219 -1.9383762
-19.250742 17.669596 -1.9365684
-19.131004 17.777201 -1.9354384
-18.989611 17.864187 -1.932124
-18.855089 17.956987 -1.9295629
-18.730196 18.058498 -1.9280564
-18.59906 18.153584 -1.9259472
-18.471008 18.251242 -1.9242147
-18.347393 18.352951 -1.9230095
-18.219023 18.449572 -1.9213523
-18.096424 18.551735 -1.9203731
-17.973949 18.653807 -1.9194691
-17.854342 18.758684 -1.9189419
-17.730709 18.859165 -1.9180379
-17.609228 18.96176 -1.9174353
-17.470982 19.045935 -1.9150249
-17.344416 19.142429 -1.9139702
-17.20602 19.225458 -1.9116352
-17.056692 19.295555 -1.9080948
-16.925516 19.385576 -1.9066635
-16.783459 19.462633 -1.9040271
-16.644327 19.542473 -1.9017674
-16.506773 19.623629 -1.8997335
-16.37331 19.709202 -1.898227
-16.245745 19.801586 -1.8974737
-16.108873 19.882301 -1.8956659
-15.976608 19.968311 -1.8944607
-15.843894 20.053446 -1.8932554
-15.710737 20.137705 -1.8920501
-15.56984 20.211607 -1.889941
-15.420782 20.27422 -1.8868526
-15.272141 20.336561 -1.8838396
-12.50741 16.869255 -1.5490119
-14.979617 20.465311 -1.8784914
-14.836827 20.5334 -1.8763069
-14.720401 20.637852 -1.8775874
-14.596362 20.731863 -1.877964
-14.473431 20.827585 -1.8785667
-14.35213 20.925869 -1.8794706
-14.219549 21.007757 -1.8789433
-14.088165 21.091295 -1.878642
-13.954096 21.170679 -1.8780394
-13.81904 21.248379 -1.8773614
-13.675479 21.312628 -1.8755536
-11.490664 18.151447 -1.5854701
-11.408648 18.268976 -1.5896884
-11.446941 18.583158 -1.6113825
-11.442975 18.83457 -1.6274271
-11.447624 19.105446 -1.645129
-11.434159 19.351324 -1.6605709
-12.671445 21.749208 -1.8641039
-12.530306 21.813578 -1.862974
-9.5877972 16.930214 -1.4324061
-12.270424 21.981375 -1.8643299
-12.123302 22.034409 -1.8624468
-11.994527 22.120653 -1.8635013
-11.264167 21.081257 -1.7682129
-11.267908 21.403217 -1.7898318
-11.321828 21.829576 -1.8202637
-10.512236 20.576391 -1.7081021
-10.631823 21.129541 -1.7494565
-10.511271 21.213142 -1.7510384
-10.552292 21.628553 -1.7805665
-10.750486 22.382328 -1.8383422
-10.627012 22.477621 -1.8408279
-9.2884321 19.962095 -1.6258452
-10.142427 22.152098 -1.8030893
-9.9891148 22.175728 -1.7999254
-9.8136797 22.148169 -1.7926188
-9.749691 22.373428 -1.806253
-9.7732306 22.808628 -1.837137
-9.6574802 22.926062 -1.8418826
-9.513957 22.978437 -1.8413552
-9.393075 23.086258 -1.8454229
-9.2538347 23.14994 -1.8459501
-9.1170807 23.220207 -1.8470801
-8.9712048 23.267338 -1.8464022
-8.8310938 23.329407 -1.8470048
-0 0 -0
-8.5448236 23.437897 -1.8471555
-8.3944721 23.472044 -1.8457242
-8.2582111 23.545694 -1.847532
-8.0993176 23.55443 -1.8442177
-7.9533644 23.599905 -1.8439163
-7.728694 23.406803 -1.824708
-7.5407495 23.31716 -1.813861
-7.3809834 23.310703 -1.809718
-7.2189245 23.294594 -1.8048971
-7.0333328 23.198172 -1.7938241
-6.8772554 23.195 -1.7902083
-6.724535 23.201324 -1.7874212
-6.5755281 23.219122 -1.7856134
-6.4199119 23.211939 -1.7819223
-6.2667108 23.211422 -1.778834
-6.1175675 23.224367 -1.7768755
-5.9719739 23.249876 -1.7759715
-5.8289609 23.285114 -1.7758962
-5.6788912 23.291378 -1.7736365
-5.5324183 23.311232 -1.7725066
-5.389503 23.345711 -1.7725818
-5.2465916 23.380287 -1.7727325
-5.0983634 23.390604 -1.7710754
-4.9481425 23.390228 -1.7686648
-4.7943125 23.370331 -1.7648232
-4.6414962 23.352364 -1.7612075
-4.4958611 23.368652 -1.7603036
-2.7211063 14.624623 -1.0863546
-2.63132 14.641045 -1.0863546
-2.482687 14.317947 -1.0603669
-2.3836179 14.266031 -1.0552447
-2.2855961 14.215409 -1.0502732
-2.1980247 14.227195 -1.0501225
-2.1092257 14.23055 -1.0493692
-2.1491878 15.140655 -1.1178412
-1.9009351 14.008333 -1.0305375
-1.8154575 14.023689 -1.0308388
-1.767033 14.340377 -1.0541148
-1.6705558 14.278649 -1.0486159
-1.5833511 14.292595 -1.0489173
-1.4971781 14.316917 -1.0500472
-1.4133998 14.367515 -1.0532109
-1.3496337 14.641036 -1.0733231
-1.2667719 14.730508 -1.0795
-1.1794546 14.77677 -1.0824376
-1.0886174 14.78174 -1.0822871
-1.0180821 15.087606 -1.1049604
-0.9315213 15.192103 -1.1124177
-0.83779317 15.188572 -1.1117398
-0.70817876 14.449439 -1.0554707
-0.61848241 14.429603 -1.0536628
-0.5493176 14.962262 -1.0936614
-0.46105641 15.081964 -1.1024746
-0.35350409 14.468449 -1.0559226
-0.26521099 14.497264 -1.0579565
-0.17704716 14.564425 -1.0629281
-0.086677268 14.396721 -1.0501978
0.0016570684 14.377039 -1.0486913
0.094551742 15.115638 -1.1045084
0.17890587 14.441743 -1.0536628
0.26801622 14.467293 -1.0556966
0.35685483 14.468366 -1.0559226
0.45673713 14.825706 -1.0831156
0.53747654 14.546601 -1.0622501
0.63489491 14.732313 -1.0765622
0.72974902 14.818772 -1.0834169
0.8212139 14.823972 -1.0841702
0.93019116 15.111263 -1.1063163
1.0203991 15.06846 -1.1035292
1.1090871 15.011199 -1.0996875
1.1997395 14.98622 -1.0983317
1.2878977 14.934864 -1.0950172
1.3673887 14.795615 -1.0850741
1.455503 14.760153 -1.0830402
1.5451061 14.742019 -1.0823623
1.638395 14.758029 -1.0843209
1.7262455 14.724919 -1.0825883
1.8005477 14.584408 -1.0727205
1.9098928 14.726359 -1.0843961
2.0008881 14.719304 -1.0847728
2.0903237 14.700827 -1.0843209
2.1746266 14.64827 -1.0813078
2.2777381 14.720383 -1.0878612
2.3513649 14.60276 -1.0799519
2.4313724 14.531016 -1.075583
2.552573 14.700524 -1.0897443
2.6490867 14.719914 -1.0924561
2.7505019 14.76318 -1.097051
2.8540573 14.813586 -1.1022487
2.9511294 14.827089 -1.1046591
2.9619617 14.418981 -1.0746037
3.0890348 14.582952 -1.0886898
3.2086589 14.702062 -1.0993862
3.2988086 14.682097 -1.0993862
3.3681676 14.5722 -1.0924561
3.4695084 14.601706 -1.0963731
3.5469739 14.530738 -1.0925314
3.6324289 14.494192 -1.0914016
3.7322252 14.514123 -1.094716
3.8067153 14.435991 -1.0904223
3.899385 14.427764 -1.0916276
3.9732008 14.350712 -1.0874846
4.058188 14.31551 -1.086656
4.1567883 14.327688 -1.0895938
4.3073401 14.513172 -1.106241
4.3992066 14.496011 -1.1069943
4.4774318 14.43446 -1.1042825
4.5683265 14.414319 -1.1048851
4.6619067 14.402144 -1.1061656
4.7611432 14.406405 -1.1088021
4.8644323 14.421328 -1.1123425
4.9959965 14.516608 -1.1223608
5.0922422 14.506379 -1.1240181
5.1841807 14.48331 -1.124696
5.2603021 14.416569 -1.1219089
5.3375378 14.354114 -1.1194985
5.4410596 14.362121 -1.1228129
5.560678 14.410329 -1.1294416
5.6836452 14.464103 -1.1365976
5.785995 14.46321 -1.1393847
5.9088573 14.511475 -1.1462395
5.9985504 14.476788 -1.1463901
6.0826163 14.428683 -1.1454862
6.2099466 14.481815 -1.1529436
6.2205496 14.264296 -1.1381795
6.3184676 14.249558 -1.140138
6.4811954 14.377784 -1.1539981
6.5792642 14.359501 -1.1558059
6.6685114 14.321573 -1.156032
6.7741752 14.318242 -1.1591957
6.8774562 14.308761 -1.1619074
6.9839382 14.304822 -1.1651465
7.1167688 14.352819 -1.1728299
7.2746696 14.447815 -1.1845808
7.3445702 14.366506 -1.1814924
7.4302859 14.316745 -1.1811157
7.5542488 14.339695 -1.1869913
7.6641941 14.334401 -1.1905316
7.778163 14.335308 -1.1946746
7.8731909 14.300414 -1.1958045
7.9996953 14.321478 -1.2018306
8.1474028 14.37796 -1.2110206
8.3159819 14.467745 -1.2232234
8.3312654 14.290679 -1.2122258
8.5294418 14.426404 -1.228647
8.601903 14.347286 -1.2263119
8.6908102 14.295939 -1.2264625
8.7767944 14.239799 -1.2262366
8.8994102 14.242332 -1.2312834
9.0079784 14.221152 -1.2342966
9.1915131 14.315804 -1.24778
9.317256 14.317638 -1.2530528
9.4170113 14.278512 -1.2547101
10.289128 15.394323 -1.3613728
9.642971 14.237829 -1.2616402
10.870573 15.83993 -1.4138756
13.86426 19.938261 -1.7971385
13.992655 19.861784 -1.797967
10.596611 14.847458 -1.3405826
14.296687 19.77342 -1.8058764
14.411263 19.676477 -1.8050478
14.529348 19.584478 -1.8047464
14.636064 19.477421 -1.8030893
14.751676 19.382488 -1.8026372
14.867891 19.28845 -1.802336
0 0 -0
11.83744 14.973715 -1.4045351
11.894194 14.85721 -1.4003168
11.966291 14.760712 -1.398057
12.037654 14.66389 -1.3957971
12.106367 14.564447 -1.3933114
15.715783 18.671928 -1.806253
15.828115 18.57287 -1.8060269
15.939173 18.472382 -1.8057257
16.045 18.365973 -1.8048971
16.152103 18.261202 -1.8042945
16.251875 18.14838 -1.8029386
16.352879 18.037237 -1.8018087
16.457176 17.929947 -1.8011308
16.572313 17.834475 -1.8017334
16.684847 17.736084 -1.80211
16.105637 16.91132 -1.7267832
16.295616 16.901907 -1.736199
16.427576 16.830856 -1.7392874
16.523529 16.722649 -1.7385341
16.30706 16.302305 -1.7044865
16.347179 16.143089 -1.698159
16.430935 16.027859 -1.6965771
16.286972 15.693583 -1.6711919
16.46386 15.670346 -1.6796286
16.574959 15.583373 -1.6812104
16.727991 15.534982 -1.6871613
17.106651 15.692223 -1.7162374
17.213699 15.597005 -1.7173673
17.320965 15.50173 -1.7185725
17.426964 15.405065 -1.7197025
17.552708 15.325388 -1.7228662
17.693233 15.257771 -1.7275364
17.816128 15.174133 -1.7304742
17.944004 15.094055 -1.7339392
18.103781 15.039739 -1.7405679
18.378435 15.078261 -1.7584205
18.548088 15.027979 -1.7659531
18.71937 14.977427 -1.7736365
18.855516 14.897519 -1.77793
18.933992 14.771729 -1.7767248
19.021902 14.653449 -1.7764989
19.107489 14.53344 -1.7761222
19.335049 14.520107 -1.789229
19.624039 14.549659 -1.8080608
19.898823 14.565016 -1.8254613
0 0 -0
0 0 -0
0 0 -0
0 0 -0
21.241653 14.568692 -1.9083961
21.599031 14.619726 -1.9328773
21.838419 14.587165 -1.9465115
22.057398 14.538494 -1.9582624
22.434591 14.590425 -1.9842502
22.627764 14.519264 -1.9935907
22.697889 14.368417 -1.9919336
22.714577 14.184512 -1.9856061
22.808826 14.049577 -1.986284
22.797449 13.850341 -1.9776968
22.778502 13.648189 -1.9685823
22.852371 13.502586 -1.9677536
22.835707 13.304389 -1.9590911
22.88924 13.148129 -1.9566805
22.907011 12.97206 -1.9512571
22.937414 12.804046 -1.9470388
22.946526 12.625093 -1.941088
22.983236 12.462195 -1.9376229
22.998585 12.288516 -1.9324254
23.034727 12.126731 -1.929111
23.026379 11.942472 -1.9221056
23.073469 11.787805 -1.919921
23.087463 11.616877 -1.9150249
23.134184 11.463043 -1.912991
23.113567 11.276722 -1.905383
23.165247 11.126486 -1.9039518
23.128508 10.934702 -1.895214
23.129166 10.761877 -1.8897151
23.178444 10.612286 -1.8883592
23.160387 10.432601 -1.8815044
23.170174 10.266464 -1.8770602
23.180626 10.101398 -1.8727665
23.147762 9.9185266 -1.8650079
23.148453 9.7511492 -1.8601116
23.113873 9.5700245 -1.8524283
23.112122 9.4035969 -1.847532
23.099939 9.2338505 -1.8418826
23.069841 9.0580492 -1.8348771
23.080326 8.8991079 -1.8312614
23.078539 8.7361441 -1.8267418
23.079363 8.5749264 -1.8225236
23.088448 8.4174433 -1.8190585
0 0 -0
0 0 -0
0 0 -0
23.05372 7.7693238 -1.8003775
23.060242 7.6142807 -1.7971385
23.069525 7.4606776 -1.7942007
23.068285 7.3042383 -1.7905097
23.076475 7.1513414 -1.7876472
23.094154 7.001802 -1.7856134
23.123299 6.8559995 -1.7845588
23.155354 6.7112131 -1.7838056
23.194178 6.5684648 -1.7836549
23.242693 6.4284163 -1.7843329
23.283625 6.2862005 -1.7844836
23.32658 6.1444864 -1.7848601
23.370604 6.0029778 -1.7853874
23.409899 5.8601918 -1.7856134
23.459948 5.7199831 -1.7867433
23.497515 5.5766187 -1.7869693
23.554607 5.4377179 -1.7887771
23.604071 5.2967978 -1.7900577
23.651714 5.1552634 -1.7912629
23.691683 5.011899 -1.7919408
23.731756 4.8684387 -1.7926941
23.769007 4.7242866 -1.7932967
23.803423 4.5794835 -1.7937487
23.846758 4.4362597 -1.7949539
23.88727 4.2923236 -1.7960085
23.926912 4.148057 -1.7970631
23.971586 4.0044513 -1.7985696
23.998659 3.8577638 -1.7987956
24.040602 3.7133293 -1.8002268
24.069839 3.566772 -1.8007541
24.111015 3.4218163 -1.8022606
24.126617 3.2731395 -1.8018839
24.15317 3.1259353 -1.8024113
24.193668 2.9803565 -1.8040684
24.217442 2.8325455 -1.8045205
7.1328545 0.79077393 -0.50475639
7.0929432 0.74232924 -0.50136667
7.0467534 0.69381905 -0.49752504
7.0032158 0.64617819 -0.49390933
6.9981074 0.60242689 -0.49323142
6.9897442 0.55852485 -0.49232748
6.977128 0.5144555 -0.49112225
