# .PCD v0.7 - Point Cloud Data file format
VERSION 0.7
FIELDS x y z
SIZE 4 4 4
TYPE F F F
COUNT 1 1 1
WIDTH 1524
HEIGHT 1
VIEWPOINT 0 0 0 1 0 0 0
POINTS 1524
DATA ascii
-4.4922028 4.3771462 -1.9004694
-4.4604993 4.3999314 -1.8983995
-4.45505 4.4488168 -1.9078621
-4.4088569 4.4570541 -1.8995823
-4.3834291 4.4860721 -1.9004694
-4.365109 4.5225058 -1.9046093
-4.333322 4.5450563 -1.902835
-4.3079724 4.5743413 -1.9040179
-4.2798238 4.600688 -1.9040179
-4.2411714 4.6156082 -1.8992865
-4.2102027 4.6387153 -1.8981037
-4.176559 4.6587715 -1.895738
-4.1485281 4.6850257 -1.8960338
-4.1266212 4.7183018 -1.8992865
-4.0919719 4.7370276 -1.8966252
-4.060349 4.7591395 -1.8954424
-4.032918 4.7861552 -1.8963295
-4.0004191 4.8071394 -1.894851
-3.9757004 4.8374987 -1.8972166
-3.9405248 4.8551269 -1.8945552
-3.91783 4.8881583 -1.8981037
-3.8978422 4.924839 -1.9031308
-3.8499019 4.926084 -1.8942596
-3.8330278 4.9670072 -1.9010608
-3.7995837 4.9866338 -1.8995823
-3.7752323 5.0182505 -1.902835
-3.7381039 5.0328851 -1.8995823
-3.7065873 5.0549564 -1.8992865
-3.6710193 5.071414 -1.8969209
-3.6392772 5.0930662 -1.8966252
-3.6035531 5.109056 -1.8942596
-3.5710449 5.1295028 -1.8936681
-3.5405858 5.1528926 -1.8942596
-3.4869177 5.1421051 -1.8821355
-3.4590199 5.168961 -1.8842055
-3.428818 5.1924791 -1.8850926
-3.4057593 5.227026 -1.8901196
-3.3824055 5.2614846 -1.8951466
-3.3423827 5.2700396 -1.8907111
-3.3165708 5.3009763 -1.8945552
-3.2874944 5.3269172 -1.8966252
-3.2458057 5.3323011 -1.8913025
-3.2223692 5.3676777 -1.8969209
-3.1918066 5.3914585 -1.8983995
-3.1581836 5.4101167 -1.8981037
-3.1268346 5.4327044 -1.8992865
-3.0915554 5.4484649 -1.8981037
-3.0543349 5.4606624 -1.895738
-3.0175426 5.4734449 -1.8936681
-2.9816208 5.4876604 -1.8921895
-2.9384229 5.4881668 -1.8859797
-2.9113796 5.5187669 -1.8904153
-2.8748186 5.5314412 -1.8886411
-2.8408241 5.5489764 -1.8886411
-2.8114545 5.5756855 -1.8918939
-2.7750654 5.5885534 -1.8904153
-2.7386241 5.6011848 -1.8889368
-2.7054474 5.6204658 -1.8898239
-2.6655917 5.6257377 -1.8859797
-2.6285999 5.6367931 -1.8842055
-2.5939639 5.6528158 -1.8842055
-2.5615888 5.6738496 -1.8859797
-2.5271142 5.6903334 -1.8862754
-2.4810612 5.680346 -1.8776999
-2.4450295 5.6928296 -1.8768127
-2.4059646 5.6980443 -1.87356
-2.3720555 5.7153468 -1.8744471
-2.3383856 5.7333317 -1.8756299
-2.3028071 5.7466855 -1.8753341
-2.2612038 5.7447071 -1.8700114
-2.2503705 5.8217349 -1.8910067
-2.2179966 5.8443642 -1.8939638
-2.1814275 5.8560734 -1.8933724
-2.1470945 5.8738341 -1.894851
-2.1061752 5.8734097 -1.8904153
-2.066293 5.8754086 -1.8868668
-2.0330064 5.8961043 -1.8895282
-1.998014 5.9120874 -1.8907111
-1.9607995 5.9215155 -1.8898239
-1.9300295 5.9506998 -1.8954424
-1.8882749 5.9460421 -1.8901196
-1.8435305 5.9310622 -1.8815441
-1.8059915 5.9386067 -1.8803612
-1.7673398 5.9422512 -1.8779956
-1.7295119 5.9483972 -1.8765171
-1.6927195 5.9579782 -1.8762213
-1.658685 5.977457 -1.8791784
-1.6184791 5.9746137 -1.8750385
-1.5817891 5.9844322 -1.8750385
-1.539554 5.9727497 -1.8682373
-1.5007815 5.9737453 -1.8655758
-1.4647804 5.9856253 -1.8664629
-1.4293543 6.0000758 -1.8682373
-1.3905702 6.0003576 -1.8655758
-1.3554065 6.0162325 -1.8679415
-1.3186704 6.0253692 -1.8682373
-1.2822703 6.03615 -1.8691243
-1.2459804 6.047647 -1.8703072
-1.2079139 6.0504942 -1.8688287
-1.1702219 6.0549784 -1.8679415
-1.1325206 6.0592275 -1.8670543
-1.096679 6.0735831 -1.8694201
-1.0626723 6.0990195 -1.8753341
-1.0214312 6.0828152 -1.8682373
-0.99171221 6.1361198 -1.8830227
-0.95448303 6.1449213 -1.8839097
-0.91802859 6.1591654 -1.886571
-0.87927371 6.1580629 -1.8845011
-0.84173059 6.165235 -1.8850926
-0.80400902 6.1712308 -1.8853883
-0.76671624 6.180788 -1.8868668
-0.72855353 6.1834788 -1.8862754
-0.68996263 6.1821365 -1.8845011
-0.65402055 6.2052536 -1.8904153
-0.61536735 6.2034464 -1.8886411
-0.57746917 6.2090077 -1.8892325
-0.53886443 6.2067242 -1.8874582
-0.4998484 6.1984873 -1.8839097
-0.46187678 6.2023902 -1.8842055
-0.42459282 6.2165442 -1.887754
-0.38549191 6.2037773 -1.8830227
-0.34800699 6.2165174 -1.8862754
-0.30961862 6.2137656 -1.8847969
-0.27152759 6.2165027 -1.8850926
-0.23373762 6.2275977 -1.8880496
-0.19639233 6.2566042 -1.8966252
-0.15741868 6.2347722 -1.8895282
-0.11892182 6.2232041 -1.885684
-0.080772065 6.2266822 -1.886571
-0.042570934 6.2280159 -1.8868668
-0.0043462622 6.2157412 -1.8830227
0.033875003 6.2309351 -1.887754
0.071809843 6.2048192 -1.8797698
0.10988055 6.2042618 -1.8797698
0.14835598 6.2206612 -1.8850926
0.18703677 6.2368207 -1.8904153
0.22313243 6.1754127 -1.8717858
0.26025435 6.1557927 -1.8661673
0.29778996 6.1493092 -1.8646888
0.33535981 6.144505 -1.8638016
0.37317118 6.1442385 -1.864393
0.41099191 6.1437392 -1.8649844
0.44868144 6.1411018 -1.8649844
0.48673105 6.1429949 -1.8664629
0.52522695 6.1494107 -1.8694201
0.56225252 6.1384621 -1.8670543
0.59981394 6.1339455 -1.8667587
0.63704485 6.126349 -1.8655758
0.67462343 6.1223249 -1.8655758
0.71681309 6.1579232 -1.8779956
0.75098133 6.1240153 -1.8688287
0.79464483 6.1666646 -1.8836141
0.8272264 6.1228585 -1.87149
0.86584914 6.1252346 -1.8738557
0.90411383 6.1245317 -1.8753341
0.94356441 6.1311431 -1.8791784
0.98433834 6.1450467 -1.8853883
1.0176342 6.1125064 -1.8771085
1.0544703 6.1023817 -1.8759257
1.0927358 6.1004987 -1.8774042
1.1292765 6.0889826 -1.8759257
1.1671562 6.084753 -1.8768127
1.20744 6.0924702 -1.8815441
1.2426946 6.0746517 -1.8782912
1.2773818 6.0547609 -1.8744471
1.3159292 6.0533438 -1.8765171
1.3534641 6.04702 -1.8771085
1.3905425 6.0386014 -1.8771085
1.4262484 6.0243778 -1.8753341
1.4652178 6.0238671 -1.8779956
1.5049289 6.0258851 -1.8815441
1.5421118 6.0174632 -1.8818398
1.5787624 6.0069637 -1.8815441
1.6141002 5.9916291 -1.8797698
1.6493093 5.9760871 -1.8779956
1.6843885 5.9603391 -1.8762213
1.7206633 5.9489737 -1.8759257
1.7590301 5.9447165 -1.8779956
1.7938135 5.9283252 -1.8762213
1.8293085 5.9144688 -1.8753341
1.8690183 5.9140639 -1.8788826
1.8967628 5.8761201 -1.8703072
1.9453387 5.9024777 -1.8827269
1.9809099 5.8886194 -1.8821355
2.0154543 5.8718362 -1.880657
2.0432394 5.8359165 -1.8729686
2.0844686 5.8385639 -1.8779956
2.1192741 5.8229709 -1.8771085
2.1569564 5.8152318 -1.8788826
2.1925974 5.8018875 -1.8788826
2.2312438 5.7963486 -1.8815441
2.2643275 5.7763228 -1.8794742
2.301852 5.7676439 -1.8812484
2.3354008 5.7489862 -1.8797698
2.3684425 5.7292509 -1.8779956
2.4013302 5.7093272 -1.8762213
2.4370682 5.6962423 -1.8768127
2.4712117 5.6794295 -1.8762213
2.5067863 5.6659064 -1.8768127
2.5426798 5.6530323 -1.8776999
2.5769212 5.6364555 -1.8774042
2.6054204 5.6075425 -1.8729686
2.6434486 5.599225 -1.8756299
2.6822987 5.5923748 -1.8788826
2.7132156 5.5689406 -1.8765171
2.7464876 5.5504756 -1.8759257
2.7809219 5.5343723 -1.8762213
2.8152618 5.5180559 -1.8765171
2.8486278 5.4998293 -1.8762213
2.8849874 5.4873204 -1.8779956
2.9186027 5.4695153 -1.8779956
2.9480145 5.4439435 -1.8753341
2.9841223 5.4307761 -1.8771085
3.0090168 5.3973441 -1.8717858
3.0378456 5.3712959 -1.8691243
3.079777 5.368299 -1.8747427
3.1025703 5.3319607 -1.8685329
3.136199 5.3144689 -1.8691243
3.1716919 5.3000441 -1.8708986
3.2175312 5.3025346 -1.8788826
3.2520084 5.2859468 -1.8800656
3.2869086 5.2699466 -1.8815441
3.3145885 5.2424121 -1.8788826
3.3446314 5.2187581 -1.8776999
3.3755493 5.1965356 -1.8771085
3.408947 5.1781192 -1.8779956
3.4342937 5.1475687 -1.8744471
3.4733036 5.1374793 -1.878587
3.5015223 5.111342 -1.8768127
3.5290065 5.0842671 -1.8747427
3.5398064 5.0336046 -1.8638016
3.5927951 5.0429125 -1.8756299
3.6225522 5.0192232 -1.8750385
3.6572278 5.0022993 -1.8771085
3.6901262 4.9828358 -1.8782912
3.704582 4.9387016 -1.8700114
3.7521513 4.9386983 -1.8788826
3.7852964 4.9193683 -1.8803612
3.8142354 4.8945427 -1.8797698
3.8406456 4.8665471 -1.8779956
3.8704338 4.8428898 -1.8779956
3.8976727 4.8160796 -1.8768127
3.9368377 4.803896 -1.8815441
3.9650197 4.7781792 -1.8809526
3.9961069 4.7559543 -1.8818398
4.0245948 4.7306175 -1.8815441
4.0510516 4.7029386 -1.8803612
4.0923891 4.6923933 -1.8862754
4.1090913 4.6535883 -1.880657
4.1337481 4.6240144 -1.8788826
4.1735802 4.6113124 -1.8842055
4.2017961 4.5856171 -1.8842055
4.2175112 4.5464416 -1.878587
4.2492514 4.5246563 -1.8803612
4.2973375 4.5199614 -1.8895282
4.3024688 4.4701056 -1.8794742
4.3144836 4.4278851 -1.8726728
4.3616958 4.4217324 -1.8815441
4.3887448 4.394886 -1.8815441
4.4135914 4.365859 -1.880657
4.4348311 4.333354 -1.8782912
4.469584 4.3140225 -1.8818398
4.4800692 4.2713542 -1.8750385
4.5263596 4.2627788 -1.8836141
4.5412397 4.2245145 -1.8788826
4.5874734 4.2153158 -1.8874582
4.6047635 4.1793833 -1.8839097
4.6288986 4.149775 -1.8833183
4.6771588 4.141561 -1.892781
4.6873837 4.099577 -1.886571
4.7189555 4.0763593 -1.8892325
4.740972 4.0448475 -1.8880496
4.7657018 4.0156813 -1.8880496
4.7873149 3.9839194 -1.8868668
4.8072414 3.9508305 -1.8850926
4.8351016 3.9242694 -1.886571
4.8538718 3.8903456 -1.8845011
4.8769021 3.8598967 -1.8842055
4.9027519 3.8316648 -1.8850926
4.9307079 3.805012 -1.8868668
4.950923 3.7723701 -1.885684
5.0014567 3.7625968 -1.8963295
5.0091124 3.7204449 -1.8904153
5.0071959 3.6715617 -1.8809526
5.0613551 3.6637368 -1.8930767
5.0666413 3.6203926 -1.886571
5.1129589 3.6063063 -1.895738
5.1138234 3.5601277 -1.887754
5.1544671 3.5416677 -1.894851
5.1879601 3.5180168 -1.8992865
5.2189751 3.4924939 -1.902835
5.2411036 3.4609315 -1.9031308
5.2566385 3.4250567 -1.9010608
5.289608 3.4004874 -1.9054965
5.3006935 3.3618269 -1.901948
5.3042154 3.3185978 -1.895738
5.3236656 3.2854874 -1.8954424
5.3461723 3.2542505 -1.8963295
5.3406506 3.2061419 -1.8871626
5.3865266 3.1888864 -1.8966252
5.4134164 3.16011 -1.8992865
5.4376721 3.129694 -1.9010608
5.4542809 3.0948558 -1.9001737
5.4831719 3.0669272 -1.9037222
5.5102525 3.037838 -1.9066793
5.5346642 3.0071633 -1.9087492
5.5471168 2.96999 -1.9066793
5.5762191 2.9416926 -1.9105234
5.5916214 2.9061005 -1.9096364
5.6238027 2.8791378 -1.9146633
5.601274 2.8243592 -1.9007651
5.629621 2.7954612 -1.9046093
5.6406603 2.7579281 -1.9025394
5.6497302 2.7195365 -1.899878
5.6309175 2.6680462 -1.887754
5.6792145 2.6483855 -1.8986951
5.7049084 2.617872 -1.901948
5.7234755 2.5839975 -1.902835
5.739223 2.5488303 -1.902835
5.7547541 2.513567 -1.902835
5.7876234 2.48575 -1.9087492
5.7966065 2.4475894 -1.9066793
5.8194561 2.4152722 -1.9093406
5.8350511 2.3798802 -1.9096364
5.8477702 2.3433213 -1.9090449
5.8691497 2.3101954 -1.9114106
5.8725224 2.2700059 -1.9078621
5.8845539 2.233252 -1.9072707
5.9062023 2.2001047 -1.909932
5.9133105 2.1615274 -1.9078621
5.9381518 2.129396 -1.9117063
5.9610181 2.0964069 -1.9149591
5.9737692 2.0597913 -1.9149591
5.9962502 2.026463 -1.9182118
6.0058508 1.9887316 -1.9173248
6.0079455 1.9486004 -1.9140719
6.0316243 1.9154592 -1.9179162
6.0359664 1.876145 -1.9155505
6.0491924 1.8396297 -1.9161419
6.0493789 1.7992092 -1.9125934
6.0694776 1.7647247 -1.9155505
6.0746779 1.7258831 -1.9137763
6.0777898 1.6865332 -1.9114106
6.0944777 1.6509577 -1.9134805
6.0961814 1.611334 -1.9108192
6.1216788 1.5779527 -1.9158462
6.1377311 1.5419909 -1.9179162
6.1517162 1.5054371 -1.9193947
6.1664133 1.4689912 -1.9211689
6.1753106 1.4311271 -1.9211689
6.1839757 1.3932091 -1.9211689
6.1905417 1.3548301 -1.9205775
6.1968694 1.3164231 -1.9199861
6.2067013 1.2787607 -1.9205775
6.2228618 1.2423368 -1.9232389
6.2341189 1.2048559 -1.9244218
6.2432728 1.1669326 -1.9250132
6.2512555 1.1287724 -1.9253088
6.2561817 1.0900661 -1.9247174
6.2580419 1.0508671 -1.9232389
6.2681441 1.0130585 -1.9244218
6.2685785 0.97369874 -1.9226475
6.27349 0.93507624 -1.9223518
6.2677617 0.89494419 -1.9188033
6.2693486 0.85595191 -1.9176204
6.2811136 0.81833214 -1.9196904
6.2831726 0.77942353 -1.9188033
6.2792983 0.73984951 -1.9161419
6.3008084 0.70321482 -1.9214647
6.3211551 0.66624379 -1.9264917
6.3241735 0.62735105 -1.926196
6.3298059 0.58871186 -1.9267874
6.3390093 0.55035794 -1.9285617
6.3127494 0.50906992 -1.9193947
6.3081331 0.46975803 -1.917029
6.3480659 0.43358427 -1.9285617
6.3401189 0.39397272 -1.9253088
6.3414631 0.35500962 -1.9250132
6.3416138 0.31599724 -1.9244218
6.34057 0.27695465 -1.9235346
6.3392863 0.23793676 -1.9226475
6.3559041 0.19951567 -1.9273788
6.3550987 0.16046447 -1.9267874
6.3530984 0.12141236 -1.9259002
6.3537235 0.082428202 -1.9259002
6.3646173 0.043513432 -1.9291531
6.3819599 0.0044731833 -1.9344758
6.3742251 -0.034644812 -1.9321102
6.3796234 -0.073821627 -1.9338844
6.395288 -0.1132514 -1.9389114
6.3839674 -0.15224016 -1.9356587
6.3876872 -0.19155145 -1.9371371
6.3921199 -0.23094854 -1.9389114
6.3753114 -0.26952088 -1.9341801
6.3744917 -0.30868012 -1.9344758
6.3801088 -0.34820345 -1.9368415
6.4026437 -0.3888486 -1.9445299
6.4106221 -0.42882788 -1.9477826
6.3945317 -0.46718097 -1.9436427
6.4077339 -0.50768995 -1.9486698
6.4083052 -0.54732245 -1.9498526
6.4048262 -0.58663279 -1.9498526
6.4068108 -0.62647843 -1.9516269
6.414248 -0.66696298 -1.9551754
6.4109845 -0.70641208 -1.955471
6.3894496 -0.74374878 -1.9501483
6.4037294 -0.78526396 -1.9560626
6.3817363 -0.8223452 -1.9507397
6.3765702 -0.86148733 -1.9507397
6.3617058 -0.89926058 -1.9477826
6.3589034 -0.93869668 -1.9486698
6.3568006 -0.97827744 -1.9498526
6.3336992 -1.0145451 -1.9445299
6.2783546 -1.0452342 -1.9291531
6.2567616 -1.0811362 -1.9244218
6.127768 -1.0976185 -1.8859797
6.0570474 -1.1233559 -1.8658715
5.8943014 -1.1306372 -1.816784
5.7860498 -1.1467324 -1.7848475
5.7161989 -1.1693898 -1.7650352
5.6350737 -1.188868 -1.7416742
5.5660625 -1.2100326 -1.7221575
5.529634 -1.2376962 -1.7129905
5.4828367 -1.2626013 -1.7005707
5.451746 -1.2907192 -1.6931781
5.5263362 -1.3442347 -1.719496
5.5087161 -1.3758043 -1.716539
5.4899912 -1.4069713 -1.7132862
5.4914179 -1.4433012 -1.716539
5.4547863 -1.4695159 -1.7076677
5.4364581 -1.5004174 -1.7047106
5.4326653 -1.5353049 -1.7064849
5.4130478 -1.5656912 -1.7032322
5.3950949 -1.5964367 -1.7005707
5.3797116 -1.6278507 -1.6987965
5.3668842 -1.6599827 -1.6979094
5.3365579 -1.6865504 -1.6914037
5.3324728 -1.7213168 -1.6934737
5.2827969 -1.7411486 -1.6807584
5.2738252 -1.7741394 -1.6813498
5.2709718 -1.8092563 -1.6840111
5.2642794 -1.8431424 -1.6854897
5.2555699 -1.8763721 -1.6863768
5.2197199 -1.8997648 -1.6783926
5.1900516 -1.9251136 -1.6724784
5.1647372 -1.9518582 -1.6680429
5.1508808 -1.9828255 -1.6674515
5.1377277 -2.0140448 -1.6671557
5.1394691 -2.0511959 -1.671887
5.1329823 -2.0852087 -1.673957
5.1094966 -2.1122861 -1.6704085
5.083231 -2.1380432 -1.6659729
5.0726514 -2.17032 -1.66686
5.057487 -2.2006423 -1.6662686
5.0325322 -2.2266092 -1.6624244
5.0283585 -2.2617562 -1.6656772
5.0100422 -2.2905812 -1.6641986
5.0062895 -2.3261087 -1.6677471
4.9979696 -2.3596375 -1.6698171
4.9584174 -2.3782809 -1.6612415
4.9420137 -2.4078238 -1.6606501
4.9374213 -2.4431853 -1.6641986
4.92063 -2.4725771 -1.6636072
4.8806882 -2.4901347 -1.6550317
4.86871 -2.5217922 -1.6562146
4.8632917 -2.5569525 -1.659763
4.8652105 -2.5961881 -1.6659729
4.8542295 -2.6287205 -1.6677471
4.8447065 -2.6621361 -1.6701128
4.7932358 -2.6722779 -1.657693
4.7825694 -2.7049298 -1.659763
4.7468238 -2.7232919 -1.6529617
4.7432356 -2.7600529 -1.657693
4.7163382 -2.7832794 -1.6541445
4.7106481 -2.8190329 -1.6582845
4.7014294 -2.8528388 -1.6612415
4.6870904 -2.8836346 -1.6624244
4.6709299 -2.9133508 -1.6630158
4.652966 -2.9419563 -1.6630158
4.6332183 -2.96942 -1.6624244
4.6109052 -2.9951913 -1.6609459
4.5924406 -3.023427 -1.6609459
4.5594983 -3.0420067 -1.6556231
4.5359983 -3.066716 -1.6538489
4.5249772 -3.099889 -1.656806
4.5199976 -3.1373992 -1.6621287
4.4920664 -3.1590302 -1.6588759
4.4694858 -3.1843166 -1.657693
4.4390182 -3.2038548 -1.6535531
4.4131064 -3.2265217 -1.6511875
4.3832455 -3.2461491 -1.6473433
4.3556027 -3.2672515 -1.6443862
4.3453622 -3.3014274 -1.6482304
4.3333516 -3.3344355 -1.6514832
4.3218532 -3.3680074 -1.6550317
4.2928567 -3.387953 -1.6517789
4.2958689 -3.4333129 -1.6612415
4.2650676 -3.4517953 -1.6573974
4.2445464 -3.4785058 -1.657693
4.2120953 -3.4953346 -1.6532575
4.1905689 -3.5211136 -1.6532575
4.1987181 -3.5721376 -1.6653814
4.1506629 -3.5753903 -1.654736
4.1286469 -3.600791 -1.654736
4.1043267 -3.6241593 -1.6538489
4.0834365 -3.6505482 -1.6544403
4.0609603 -3.675535 -1.6544403
4.038331 -3.7003834 -1.6544403
4.0246549 -3.7335377 -1.6582845
3.9835646 -3.7411604 -1.6505961
2.3750291 -2.2583125 -0.97342467
2.357686 -2.269531 -0.97194612
2.34919 -2.2892876 -0.97431177
3.8810303 -3.8284037 -1.6464561
3.8615227 -3.8561952 -1.6482304
3.8297267 -3.8716671 -1.6446819
3.8058984 -3.895093 -1.6446819
3.7872345 -3.9238706 -1.6470476
3.7617683 -3.945652 -1.6464561
3.7335577 -3.9644873 -1.6446819
3.7007027 -3.9782293 -1.6408377
3.66782 -3.9917176 -1.6369935
3.6368375 -4.0070744 -1.6340364
3.6102691 -4.0271807 -1.6331493
3.6082909 -4.0750022 -1.6437948
3.5825903 -4.0963469 -1.6434991
3.5392771 -4.0972886 -1.6349236
3.5246112 -4.1312819 -1.6399506
3.4887307 -4.1404128 -1.6349236
3.5280368 -4.2395706 -1.6662686
3.4631352 -4.2139077 -1.6473433
3.4384181 -4.2365613 -1.6479347
3.4278929 -4.2769589 -1.6556231
3.4009926 -4.2971625 -1.6553274
1.9979577 -2.5567691 -0.96337056
1.9810648 -2.5674677 -0.96277916
1.9646947 -2.5788152 -0.96248347
1.9465371 -2.5877683 -0.96130061
1.9311918 -2.6004303 -0.96159631
1.8971219 -2.5875802 -0.95213366
1.6655354 -2.301265 -0.83828604
1.6580491 -2.3207676 -0.84183455
1.6360687 -2.3199692 -0.83769464
3.1480086 -4.5219302 -1.6644944
3.1180391 -4.5380116 -1.6633115
3.0874548 -4.5531049 -1.661833
3.0546775 -4.5648189 -1.6591716
3.0255578 -4.5818815 -1.6585802
2.9916499 -4.5915561 -1.6553274
2.9603205 -4.6050048 -1.6535531
2.9279156 -4.6166291 -1.6511875
2.896493 -4.6296487 -1.6494132
2.8855927 -4.6757855 -1.659763
2.8642995 -4.7056427 -1.6641986
2.8358641 -4.723948 -1.6644944
2.8009846 -4.7313957 -1.6609459
2.7666025 -4.7394185 -1.657693
2.731751 -4.7463698 -1.6541445
2.7002189 -4.7588882 -1.6526661
2.675632 -4.7837038 -1.6556231
2.6494582 -4.8058867 -1.657693
2.6044118 -4.7935152 -1.647639
2.5920868 -4.8414063 -1.6588759
2.5757053 -4.8825665 -1.6677471
2.5417325 -4.8906503 -1.6650858
2.51037 -4.9036031 -1.6641986
2.4793746 -4.9172087 -1.6636072
1.5092474 -3.0398016 -1.009501
1.4893081 -3.0464306 -1.0086139
1.46893 -3.0520685 -1.007431
2.3149986 -4.8859334 -1.6325579
2.3031461 -4.9390044 -1.6458647
2.2727976 -4.953043 -1.6458647
2.2309625 -4.9416471 -1.6372892
2.2114573 -4.9796877 -1.6455691
2.1797135 -4.9905372 -1.6446819
2.1509364 -5.0082064 -1.6461605
2.1194227 -5.0195498 -1.6455691
2.0915134 -5.0395184 -1.6479347
2.0630779 -5.0584483 -1.6500046
2.0323565 -5.0718985 -1.6503004
1.9945487 -5.0673847 -1.6446819
1.9613514 -5.0741816 -1.6429076
1.9325529 -5.0923724 -1.6449777
1.9016038 -5.1050296 -1.6452733
1.8702441 -5.1166015 -1.6452733
1.8401041 -5.1315775 -1.6464561
1.8095337 -5.1454749 -1.6473433
1.7751245 -5.1483536 -1.6446819
1.7431955 -5.1582437 -1.6443862
1.7112119 -5.1679358 -1.6440905
1.6797646 -5.1792469 -1.6443862
1.6465079 -5.1849041 -1.6429076
1.6126776 -5.1885238 -1.6408377
1.5827571 -5.2047191 -1.6429076
1.5505193 -5.2134171 -1.642612
1.5219692 -5.2347569 -1.6464561
1.4851203 -5.227457 -1.6411334
1.4553167 -5.2447557 -1.6437948
1.4166124 -5.2296138 -1.6361064
1.3854741 -5.2419014 -1.6372892
1.3518533 -5.2447538 -1.635515
1.3222077 -5.2631412 -1.6387677
1.2894344 -5.269299 -1.6381763
1.2561927 -5.2733946 -1.6369935
1.2242435 -5.2828646 -1.6375849
1.1911753 -5.2874813 -1.6366978
0.74195325 -3.3910072 -1.0334533
0.72192675 -3.3992336 -1.0346363
0.70124865 -3.4045348 -1.0349319
0.68015856 -3.4078367 -1.0346363
0.65579039 -3.3941257 -1.0290178
0.63565439 -3.4018416 -1.0302006
0.61459929 -3.4047379 -1.0299048
0.59008789 -3.3877409 -1.0233994
0.56944823 -3.39224 -1.023695
0.55014789 -3.4051006 -1.0266521
0.53217787 -3.4272909 -1.0325663
0.511702 -3.4342711 -1.0337491
0.49129549 -3.4420748 -1.0352277
0.46783894 -3.4279876 -1.0299048
0.44568515 -3.4222684 -1.0272435
0.42491344 -3.4268346 -1.0278349
0.40488532 -3.4379156 -1.0304964
0.38484323 -3.4498291 -1.0334533
0.36487052 -3.4635255 -1.0370018
0.34502727 -3.4799583 -1.0414375
0.32446486 -3.4905703 -1.0440989
0.3063485 -3.5305631 -1.0559272
0.28329638 -3.5152371 -1.0506045
0.262716 -3.5302463 -1.0547444
0.23948611 -3.5089185 -1.0476474
0.21783268 -3.508415 -1.047056
0.19539261 -3.4934711 -1.0420289
0.17281096 -3.4717062 -1.0349319
0.1517562 -3.4784274 -1.0367062
0.13023065 -3.47452 -1.0352277
0.10944953 -3.4924402 -1.0405504
0.088018261 -3.493046 -1.0405504
0.066638611 -3.4963856 -1.0414375
0.045022063 -3.4843111 -1.0375932
0.023648474 -3.485477 -1.037889
0.0022768611 -3.5056174 -1.0440989
-0.019171661 -3.4941022 -1.0405504
-0.040511768 -3.4853218 -1.037889
-0.061795413 -3.4792769 -1.0361148
-0.082892835 -3.468327 -1.0328619
-0.10440112 -3.4753921 -1.0352277
-0.12551716 -3.4689581 -1.0334533
-0.14635675 -3.457624 -1.0302006
-0.16733885 -3.45189 -1.028722
-0.18690415 -3.4212284 -1.0195551
-0.20847139 -3.4295526 -1.0225122
-0.2284916 -3.4129584 -1.0177809
-0.24963747 -3.4143503 -1.0186679
-0.27148753 -3.4241819 -1.0222164
-0.29265526 -3.4243553 -1.0228078
-0.31522852 -3.4396186 -1.0281307
-0.33261138 -3.3995895 -1.0163023
-0.36067259 -3.4668465 -1.037889
-0.38005576 -3.4474766 -1.0325663
-0.40053958 -3.4393864 -1.030792
-0.41570887 -3.3885067 -1.0157109
-0.43698063 -3.3896818 -1.0168937
-0.4557257 -3.3717899 -1.0121624
-0.47640604 -3.3689301 -1.0121624
-0.50041515 -3.3886247 -1.0192595
-0.51960027 -3.3751044 -1.0160066
-0.53803426 -3.3577037 -1.0115709
-0.56113571 -3.3694162 -1.0163023
-0.58716518 -3.3969741 -1.0260607
-0.61439562 -3.4290397 -1.0372976
-0.64047426 -3.4524441 -1.0458732
-0.66524392 -3.4672129 -1.0517873
-0.68947619 -3.4780588 -1.0565186
-0.71042144 -3.4718909 -1.0559272
-0.73742807 -3.4945734 -1.0645027
-0.76047945 -3.4974508 -1.0668684
-0.77775329 -3.4740741 -1.0609542
-0.80034101 -3.474822 -1.0627285
-0.81900686 -3.4586906 -1.05918
-0.83502209 -3.432251 -1.0523787
-0.85560346 -3.4252093 -1.0517873
-0.86498672 -3.3745508 -1.0372976
-0.79269832 -3.0153193 -0.92404139
-0.8094461 -3.0039418 -0.92197144
-0.83650148 -3.0302281 -0.93202555
-0.8527413 -3.0167649 -0.92936414
-0.85955983 -2.9710977 -0.91635299
-0.91435742 -3.0894325 -0.95627356
-1.0353637 -3.4211612 -1.0653899
-1.0927411 -3.5324748 -1.1035362
-1.1250442 -3.5594063 -1.1144774
-1.149797 -3.5615273 -1.1174345
-1.0825382 -3.2840321 -1.0293134
-1.0658211 -3.1677697 -0.99353278
-1.0815172 -3.1503277 -0.98998427
-1.0951459 -3.1274028 -0.98466158
-1.0979367 -3.0747404 -0.96958047
-1.1177622 -3.0706389 -0.97046757
-1.1345894 -3.0583484 -0.96869332
-1.1816957 -3.1263931 -0.99353278
-1.2176695 -3.1627686 -1.0080225
-1.3426737 -3.4247282 -1.097622
-1.3657863 -3.4217486 -1.0993962
-1.3986186 -3.4425111 -1.1091547
-1.4244587 -3.4453413 -1.1129988
-1.4355739 -3.4127605 -1.1050147
-1.4609956 -3.4144273 -1.1085632
-1.4857295 -3.4141583 -1.1115203
-1.4861685 -3.3586757 -1.0958477
-1.4938194 -3.3207431 -1.0860894
-1.511387 -3.3054328 -1.0840194
-1.5183588 -3.2675071 -1.0742611
-1.5338938 -3.2486265 -1.0710083
-1.5463629 -3.2236493 -1.0656855
-1.5598385 -3.2012181 -1.06125
-1.5887709 -3.2104237 -1.0677555
-1.6148726 -3.213419 -1.0721911
-1.6449772 -3.2238727 -1.0792881
-1.6572596 -3.1992979 -1.0742611
-1.673303 -3.1823044 -1.0718955
-1.6892004 -3.1652348 -1.0695298
-1.6926708 -3.1254086 -1.05918
-1.7021565 -3.0973816 -1.0529702
-1.7146182 -3.0751975 -1.0488302
-1.740038 -3.0762603 -1.0529702
-1.7579302 -3.0638685 -1.0523787
-1.7704517 -3.0422902 -1.0485345
-1.8070469 -3.061811 -1.0594757
-1.8061805 -3.0178759 -1.0476474
-1.8038526 -2.9724343 -1.0352277
-1.8250601 -2.966192 -1.0370018
-1.8204789 -2.9184618 -1.023695
-1.8822511 -2.9766784 -1.0491259
-1.9004803 -2.9650731 -1.0491259
-1.9352882 -2.9789925 -1.0585886
-1.940925 -2.9479113 -1.0514916
-1.9033141 -2.852504 -1.0204422
-1.9716043 -2.915957 -1.0485345
-1.9894593 -2.9038045 -1.0485345
-2.0007033 -2.8821251 -1.044986
-2.014504 -2.8643248 -1.0429161
-2.0270529 -2.8449078 -1.0402547
-2.0355265 -2.8200221 -1.0355233
-2.0488453 -2.8020809 -1.0334533
-2.0569046 -2.777173 -1.028722
-2.083077 -2.7767274 -1.0334533
-2.0966084 -2.7593296 -1.0316792
-2.1263149 -2.7630699 -1.0381848
-2.1308987 -2.7341466 -1.0319748
-2.1505938 -2.7247698 -1.0334533
-2.1595197 -2.7018211 -1.0296092
-2.1814654 -2.6952031 -1.0322706
-2.207649 -2.6935897 -1.0370018
-2.2351148 -2.6932261 -1.0423247
-2.2595863 -2.6889696 -1.0461688
-2.2692344 -2.6670504 -1.0429161
-2.301765 -2.6718957 -1.0506045
-2.3275337 -2.6685219 -1.0550401
-2.3672566 -2.6806865 -1.0659813
-2.3683815 -2.6490173 -1.0588843
-2.3942058 -2.6450601 -1.0633199
-2.4084544 -2.6282065 -1.0624328
-2.4310319 -2.620383 -1.0653899
-2.4156766 -2.5719905 -1.0511959
-2.4412851 -2.5675051 -1.0556315
-2.4603052 -2.5559189 -1.0571101
-2.4072797 -2.470299 -1.0266521
-2.4478824 -2.4813266 -1.037889
-2.4448373 -2.4480078 -1.0299048
-2.4829016 -2.4558032 -1.039959
-2.515687 -2.4578815 -1.0476474
-2.5369065 -2.4483705 -1.0503087
-2.5428941 -2.4241881 -1.0464646
-2.5605023 -2.4111595 -1.0476474
-2.5815432 -2.4012594 -1.0503087
-2.6004486 -2.3892527 -1.052083
-2.6101086 -2.368757 -1.0500131
-2.6359739 -2.3629007 -1.0547444
-2.6768832 -2.3701155 -1.0656855
-2.6863425 -2.3492434 -1.0636156
-2.6855264 -2.3196013 -1.0574057
-2.6924417 -2.2968788 -1.0544486
-2.6999102 -2.2747748 -1.0517873
-2.725565 -2.2679431 -1.0565186
-2.7313118 -2.2445045 -1.0532658
-2.7368739 -2.2210805 -1.0500131
-2.7511959 -2.204843 -1.0503087
-2.7624259 -2.186142 -1.0494217
-2.7652507 -2.1609147 -1.0452816
-2.773164 -2.1398211 -1.0432117
-2.7908003 -2.1262391 -1.044986
-2.8083744 -2.1125212 -1.0467602
-2.8189831 -2.0935404 -1.0458732
-2.832546 -2.0767691 -1.0461688
-2.8583899 -2.0688729 -1.0511959
-2.8617039 -2.0446301 -1.0476474
-2.8765376 -2.0286846 -1.0485345
-2.8818755 -2.0060835 -1.0458732
-2.9366446 -2.0175786 -1.0618414
-2.9639902 -2.0097094 -1.0674598
-2.968327 -1.9861716 -1.0645027
-2.9557471 -1.951601 -1.0553358
-2.9884753 -1.9469883 -1.0630242
-2.9722421 -1.9105328 -1.0526744
-2.9782622 -1.8886777 -1.0506045
-2.9938438 -1.8729016 -1.052083
-3.0125954 -1.8590121 -1.0547444
-3.0655596 -1.8658266 -1.0698255
-3.0687604 -1.8420641 -1.0668684
-3.0693192 -1.8168728 -1.0630242
-3.0845344 -1.8004138 -1.0645027
-3.099663 -1.7838365 -1.0659813
-3.1130426 -1.7661983 -1.0668684
-3.116318 -1.7428663 -1.0642071
-3.1478667 -1.7352436 -1.0715997
-3.1727238 -1.72365 -1.0766268
-3.2270312 -1.7275999 -1.0920036
-3.2443299 -1.7113329 -1.0943693
-3.3013878 -1.7156264 -1.1106331
-3.3628702 -1.72146 -1.1283756
-3.3878698 -1.7081059 -1.1334027
-3.409409 -1.6928102 -1.137247
-3.519279 -1.7205386 -1.1715491
-3.5900202 -1.7279191 -1.1922486
-3.6083243 -1.7095405 -1.1949099
-3.6074913 -1.6821188 -1.1910658
-3.6854646 -1.6910325 -1.214131
-3.9247477 -1.7717816 -1.2919022
-4.0272131 -1.7883838 -1.3229516
-4.0022197 -1.7479603 -1.3108275
-4.0409565 -1.7354356 -1.3202902
-4.1280909 -1.7429416 -1.3460168
-4.1537066 -1.7238054 -1.3510438
-4.201355 -1.7134409 -1.3634635
-4.2782927 -1.7142838 -1.3856417
-4.3562851 -1.7145959 -1.4081155
-4.3943448 -1.6985129 -1.4172825
-4.4439802 -1.686434 -1.4302936
-4.4819946 -1.6694736 -1.4394605
-4.5253501 -1.654078 -1.4504018
-4.6666961 -1.6733663 -1.4935751
-4.9346056 -1.7353587 -1.5781476
-4.9794774 -1.7168831 -1.5893846
-5.1184249 -1.7297357 -1.6313751
-5.1996751 -1.721724 -1.6544403
-5.3119116 -1.7228019 -1.6875596
-5.3760991 -1.7072388 -1.7050064
-5.4238739 -1.6858473 -1.7171304
-5.487124 -1.6686592 -1.7342814
-5.5393777 -1.6474893 -1.747884
-5.6099224 -1.6310757 -1.7674007
-5.7273359 -1.6271756 -1.8019986
-5.8099298 -1.6121862 -1.8253596
-6.0244036 -1.6319702 -1.8910067
-6.1460528 -1.6245193 -1.9267874
-6.1707053 -1.5905933 -1.9315187
-6.1859074 -1.5540975 -1.933293
-6.1943989 -1.5158851 -1.9329972
-6.218452 -1.4813914 -1.9377286
-6.2125349 -1.4397562 -1.9329972
-6.2240477 -1.4022398 -1.9338844
-6.2344007 -1.3644319 -1.9344758
-6.2463932 -1.3269469 -1.9356587
-6.2469325 -1.2870522 -1.933293
-6.2575226 -1.2492588 -1.9341801
-6.2660079 -1.2110211 -1.9344758
-6.2798939 -1.1737798 -1.9365457
-6.2550159 -1.1294516 -1.9264917
-6.283473 -1.0948231 -1.933293
-6.306088 -1.0589381 -1.93832
-6.3096375 -1.0197674 -1.9374329
-6.3299351 -0.98323327 -1.9418685
-6.319787 -0.94197989 -1.9368415
-6.339633 -0.90521097 -1.9412771
-6.3460145 -0.86642396 -1.9415728
-6.3559475 -0.82808661 -1.9430513
-6.341001 -0.78660083 -1.9368415
-0 -0 -0
-0 -0 -0
-6.3202052 -0.6661436 -1.926196
-6.3175192 -0.62669051 -1.924126
-6.3326597 -0.58897746 -1.9276745
-6.3513813 -0.55143285 -1.9324058
-6.3879719 -0.51514077 -1.9427556
-6.4014912 -0.47671622 -1.9460084
-0 -0 -0
-0 -0 -0
-0 -0 -0
-0 -0 -0
-0 -0 -0
-0 -0 -0
-0 -0 -0
-6.1018043 0.44479197 -1.9300833
-6.0980115 0.48214838 -1.9297765
-6.0939898 0.51947498 -1.9294698
-0 0 -0
-0 0 -0
-0 0 -0
-0 0 -0
-0 0 -0
-0 0 -0
-0 0 -0
-0 0 -0
-0 0 -0
-0 0 -0
-0 0 -0
-0 0 -0
-6.0623255 1.0082535 -1.9389772
-6.0419559 1.0430008 -1.934377
-6.023263 1.077872 -1.9303899
-6.0137281 1.114289 -1.9294698
-6.0077128 1.1513469 -1.9297765
-5.9977341 1.1876327 -1.9288565
-5.990334 1.2244117 -1.9288565
-5.9882965 1.2623237 -1.9306966
-5.9860187 1.3002567 -1.9325367
-5.9677105 1.3346747 -1.9291631
-5.9436407 1.3676354 -1.9239494
-5.9175396 1.3999125 -1.9181222
-5.9106879 1.4366454 -1.9187356
-5.9165368 1.4765761 -1.9236426
-5.9064431 1.5126151 -1.923336
-5.9044151 1.5507636 -1.9257895
-5.8984652 1.5879536 -1.9270163
-5.8913627 1.6248758 -1.9279364
-5.8785343 1.6602173 -1.9270163
-5.8609219 1.6941402 -1.9245628
-5.8431153 1.7279096 -1.9221092
-5.8369579 1.7651081 -1.9236426
-5.8178339 1.7983584 -1.9208825
-5.7994294 1.8317274 -1.9184289
-5.8016677 1.8716636 -1.9230293
-5.7792263 1.9036512 -1.919349
-5.7755561 1.9418076 -1.9221092
-5.7554307 1.9744279 -1.919349
-5.7342238 2.0065601 -1.9162821
-5.7253895 2.0429869 -1.9175088
-5.7038021 2.0748234 -1.9144419
-5.6820402 2.106472 -1.911375
-5.6681175 2.1409602 -1.9110683
-5.6770806 2.1842475 -1.9187356
-5.6937008 2.2308517 -1.9291631
-5.6454291 2.2519855 -1.9172021
-5.6350322 2.2880158 -1.9184289
-5.6050544 2.3160028 -1.9129084
-5.5731912 2.3429706 -1.9067746
-5.5963383 2.3932228 -1.9199624
-5.575439 2.4248576 -1.9178156
-5.5447879 2.45209 -1.9122951
-5.531374 2.4868469 -1.9129084
-5.5142794 2.5199485 -1.9122951
-5.4961243 2.5525329 -1.911375
-5.493269 2.592304 -1.9159753
-5.4558048 2.6156702 -1.908308
-5.4687448 2.6632717 -1.9187356
-5.4420633 2.6917114 -1.9150553
-5.4177904 2.7212062 -1.9122951
-5.4018393 2.7548306 -1.9126017
-5.3873701 2.789237 -1.9135219
-5.3541474 2.8138249 -1.9076947
-5.352736 2.8551383 -1.9135219
-5.3393011 2.8901947 -1.9150553
-5.3214669 2.9229016 -1.9150553
-5.3017693 2.9545715 -1.9144419
-5.2802267 2.9851725 -1.9132152
-5.2527294 3.012305 -1.9098415
-5.2283888 3.0411274 -1.9076947
-5.2153683 3.0765374 -1.9098415
-5.2102771 3.1167893 -1.9150553
-5.1918683 3.1491942 -1.915362
-5.1683941 3.1784978 -1.9138285
-5.1592927 3.2166991 -1.9178156
-5.1402626 3.2488041 -1.9181222
-5.1194305 3.2797694 -1.9178156
-5.082448 3.3002312 -1.911375
-5.0668721 3.3344948 -1.9132152
-5.0415664 3.3623521 -1.911375
-5.0192633 3.3921571 -1.9107616
-5.0030665 3.4261186 -1.9126017
-4.989769 3.4621797 -1.9156687
-4.9645386 3.4899936 -1.9141352
-4.9476819 3.5237036 -1.9159753
-4.9105325 3.5428545 -1.9098415
-4.8986897 3.5802214 -1.9138285
-4.8804541 3.6130443 -1.915362
-4.8551474 3.6406374 -1.9141352
-4.8365068 3.6732385 -1.9156687
-4.8123689 3.7016847 -1.9150553
-4.7775531 3.721782 -1.9101483
-4.7538795 3.7504368 -1.9098415
-4.7270603 3.7765644 -1.908308
-4.7082376 3.8090906 -1.9101483
-4.6781516 3.8324783 -1.907388
-4.6596751 3.8653655 -1.9095348
-4.6293116 3.8883731 -1.9067746
-4.6118903 3.9222558 -1.9095348
-4.5812464 3.9448891 -1.9067746
-4.5548029 3.9710481 -1.9058546
-4.533205 4.001441 -1.9070814
-4.5185018 4.0380621 -1.911375
-4.5028133 4.0740147 -1.915362
-4.4665031 4.0912781 -1.9104549
-4.4692268 4.1445003 -1.9227226
-4.4256735 4.1549034 -1.9147487
-4.3897495 4.172143 -1.9101483
-4.3620095 4.1970191 -1.9092282
-4.3286767 4.2163978 -1.9058546
-4.3006911 4.2408733 -1.9049344
-4.277956 4.270545 -1.9064679
-4.242301 4.28724 -1.9021742
-4.2199063 4.3172746 -1.9040143
-4.1953197 4.3451405 -1.9049344
-4.1639819 4.3659782 -1.9027876
-4.145597 4.400454 -1.9067746
-4.1081462 4.4146576 -1.9018675
-4.0925727 4.4523969 -1.907388
-4.0709333 4.483768 -1.9101483
-4.0319085 4.4959054 -1.9046278
-4.0010915 4.5169973 -1.9030943
-3.9789398 4.5479107 -1.9058546
-3.9434934 4.5635958 -1.9021742
-3.9160352 4.5884309 -1.902481
-3.8871939 4.6116447 -1.9021742
-3.8576066 4.6339459 -1.9015609
-3.8309135 4.6597347 -1.902481
-3.8172448 4.7016292 -1.9101483
-3.7746336 4.7078805 -1.9030943
-3.7456756 4.7309527 -1.9030943
-3.7095432 4.7448468 -1.8994139
-3.6774523 4.7637515 -1.8978806
-3.6568058 4.7975826 -1.902481
-3.6335936 4.8282967 -1.9058546
-3.6067369 4.854322 -1.907388
-3.5690041 4.8656149 -1.9030943
-3.5301526 4.8750858 -1.8981873
-3.5073667 4.9067221 -1.9021742
-3.476645 4.9273729 -1.9018675
-3.4523277 4.9572053 -1.9052411
-3.3992078 4.9453464 -1.8923601
-3.3757441 4.9763517 -1.896347
-3.3446169 4.9961801 -1.8960404
-3.3196671 5.0253453 -1.8994139
-3.2856522 5.0408349 -1.8975738
-3.2500281 5.0536947 -1.8948137
-3.2215068 5.0775604 -1.896347
-3.1892812 5.0956178 -1.8957337
-3.1569555 5.1134706 -1.8951203
-3.1210663 5.1254277 -1.8923601
-3.0949473 5.1534586 -1.8957337
-3.0681167 5.1805425 -1.8988006
-3.0305138 5.1894064 -1.8951203
-2.9924431 5.1971793 -1.8911333
-2.9666035 5.2262044 -1.8951203
-2.9358742 5.2468009 -1.8960404
-2.9004085 5.2588816 -1.8938936
-2.874902 5.2891245 -1.8984939
-2.8374527 5.2974348 -1.8951203
-2.8084474 5.3214798 -1.8975738
-2.7739871 5.3352337 -1.896347
-2.7403309 5.3504601 -1.8957337
-2.7057354 5.3637738 -1.8945069
-2.6753128 5.3853898 -1.896347
-2.6413822 5.3999939 -1.8957337
-2.6131523 5.4263911 -1.8994139
-2.5757322 5.4337215 -1.896347
-2.5270576 5.4166436 -1.8846928
-2.5052855 5.4571347 -1.8935869
-2.4694042 5.4671988 -1.8917466
-2.4369705 5.484858 -1.8926668
-2.4070797 5.50843 -1.8957337
-2.3589628 5.4898624 -1.8840793
-2.3300459 5.5156326 -1.8880664
-2.3009017 5.541254 -1.8920534
-2.2668579 5.5552678 -1.8920534
-2.2284806 5.5584702 -1.8883731
-2.1974697 5.5800099 -1.8911333
-2.1673079 5.6040421 -1.8948137
-2.1295044 5.608336 -1.8917466
-2.0973778 5.6275406 -1.8938936
-2.064769 5.6456676 -1.8957337
-2.0217361 5.6349359 -1.8877597
-1.9890172 5.6526222 -1.8895998
-1.953055 5.6611209 -1.8883731
-1.9137115 5.6594725 -1.8837727
-1.8780521 5.6683974 -1.8828527
-1.8405936 5.6716657 -1.8800924
-1.8135359 5.7073464 -1.8883731
-1.7861096 5.7429075 -1.8966538
-1.7472383 5.7419205 -1.8926668
-1.7122449 5.7534456 -1.8929734
-1.6729245 5.7501335 -1.8883731
-1.6394315 5.7666993 -1.89052
-1.6024899 5.7711473 -1.8886797
-1.5625695 5.7643347 -1.8831593
-1.5300893 5.7848563 -1.8868396
-1.5002666 5.8162565 -1.8942002
-1.458753 5.8022742 -1.8865329
-1.4238021 5.8138895 -1.887453
-1.3861171 5.8141832 -1.8846928
-1.3478374 5.8114519 -1.8810124
-1.3146638 5.8307552 -1.8846928
-1.276624 5.8284841 -1.8813192
-1.2428147 5.8455181 -1.8843861
-1.2071159 5.8539658 -1.8846928
-1.170615 5.8584623 -1.8837727
-1.1393414 5.8898325 -1.8917466
-1.1037052 5.899519 -1.8926668
-1.068162 5.9099269 -1.8938936
-1.029919 5.9051175 -1.8902133
-0.99303609 5.9075713 -1.8889865
-0.9578321 5.9201303 -1.8911333
-0.92075849 5.9211936 -1.8895998
-0.88426906 5.9257903 -1.8892932
-0.8468163 5.9235663 -1.8868396
-0.8107115 5.9305372 -1.887453
-0.77418423 5.9344559 -1.8871464
-0.73810798 5.9419284 -1.8880664
-0.70130104 5.9435096 -1.8871464
-0.6645025 5.9448628 -1.8862263
-0.62811273 5.9497747 -1.8865329
-0.59309673 5.9686718 -1.89144
-0.55417132 5.9475574 -1.883466
-0.5179143 5.9536905 -1.8843861
-0.48099098 5.952013 -1.8828527
-0.44453171 5.9558015 -1.8831593
-0.40726602 5.9479713 -1.8797857
-0.37064427 5.9484582 -1.8791723
-0.33429778 5.9534717 -1.8800924
-0.29790372 5.9582624 -1.8810124
-0.26171252 5.9685364 -1.8837727
-0.22529939 5.9757366 -1.8856128
-0.18815129 5.9617853 -1.8807058
-0.15161492 5.9647303 -1.8813192
-0.11504949 5.9674516 -1.8819325
-0.078283846 5.9566245 -1.8782523
-0.041674852 5.9484267 -1.875492
-0.0051790713 5.9542813 -1.8773322
0.031329826 5.9494419 -1.8757987
0.068010911 5.9643655 -1.8807058
0.10506194 5.989531 -1.8889865
0.1416066 5.9802098 -1.8862263
0.1782407 5.9773254 -1.8856128
0.21453524 5.9656563 -1.8822392
0.25057262 5.9509139 -1.8779455
0.2865293 5.9378562 -1.8742652
0.32425523 5.9597464 -1.8819325
0.36116377 5.9633446 -1.8837727
0.39704829 5.9505701 -1.8803991
0.43417722 5.9565649 -1.8831593
0.46921384 5.9348121 -1.8770255
0.50659257 5.9432015 -1.8807058
0.54313672 5.9409294 -1.8810124
0.57791156 5.9204335 -1.875492
0.61826479 5.9555912 -1.8880664
0.65542161 5.9573617 -1.8899065
0.69240326 5.9570098 -1.8911333
0.72755128 5.9413123 -1.887453
0.76362777 5.9339042 -1.8865329
0.80015063 5.9300504 -1.8868396
0.8366549 5.9259715 -1.8871464
0.8723051 5.9160185 -1.8856128
0.90873349 5.9114952 -1.8859196
0.94303125 5.8935905 -1.8819325
0.97948855 5.8895707 -1.8825459
1.0144732 5.8768845 -1.8803991
1.0478286 5.8555589 -1.875492
1.0846058 5.8536987 -1.8770255
1.1190684 5.8394556 -1.8745719
1.1532121 5.8240762 -1.8718117
1.1900709 5.8224854 -1.8736519
1.2269536 5.8206615 -1.875492
1.2634543 5.8167439 -1.8767188
1.3001609 5.8135262 -1.8782523
1.3362348 5.8072939 -1.8788656
1.3714039 5.7971334 -1.8782523
1.4098734 5.8006325 -1.8822392
1.4456694 5.7927957 -1.8825459
1.4828403 5.7902703 -1.8846928
1.5147114 5.7672548 -1.8800924
1.5522985 5.7661233 -1.8828527
1.5861301 5.7509851 -1.8810124
1.6221642 5.7438922 -1.8819325
1.6576421 5.734745 -1.8822392
1.6946892 5.730855 -1.8843861
1.7314752 5.7258148 -1.8862263
1.769107 5.7232666 -1.8889865
1.8053383 5.7159338 -1.8902133
1.8415463 5.7083721 -1.89144
1.8765374 5.6969652 -1.89144
1.9102441 5.681735 -1.8902133
1.9453796 5.6708074 -1.89052
1.9766785 5.6488824 -1.8871464
2.0135424 5.6429219 -1.8892932
2.0451989 5.6224113 -1.8865329
2.0809832 5.6133261 -1.8877597
2.1150501 5.5995612 -1.887453
2.1480007 5.5829248 -1.8862263
2.1832588 5.5722985 -1.8871464
2.214586 5.5517254 -1.8846928
2.2478926 5.5362687 -1.8840793
2.2814565 5.521492 -1.8837727
2.3138168 5.50388 -1.8825459
2.3490419 5.4930797 -1.8837727
2.3800442 5.4724531 -1.8816259
2.4158885 5.4629688 -1.883466
2.4497535 5.4489107 -1.8837727
2.4847245 5.4372392 -1.8849995
2.518441 5.4227538 -1.8853061
2.551667 5.4071989 -1.8853061
2.5815039 5.3845749 -1.8828527
2.6157451 5.3712006 -1.8837727
2.6499193 5.3576088 -1.8846928
2.68488 5.3455009 -1.8862263
2.7154658 5.324687 -1.8846928
2.7458975 5.303699 -1.8831593
2.7783887 5.2867508 -1.8831593
2.8170488 5.2813597 -1.887453
2.8398833 5.2463989 -1.8810124
2.8720212 5.2288752 -1.8810124
2.8989525 5.2020097 -1.8776388
2.9303482 5.1832952 -1.8773322
2.959729 5.1610894 -1.8757987
2.9946921 5.1485906 -1.8779455
3.0281618 5.1333976 -1.8791723
3.063513 5.121254 -1.8816259
3.09636 5.1048017 -1.8825459
3.1311154 5.0913811 -1.8846928
3.1638079 5.0744958 -1.8856128
3.1959021 5.0565968 -1.8862263
3.2335455 5.0473094 -1.8902133
3.2634172 5.0257773 -1.8895998
3.3015211 5.0167885 -1.8938936
3.3306565 4.994061 -1.8929734
3.367101 4.982204 -1.896347
3.3949182 4.9575238 -1.8948137
3.4111617 4.9162703 -1.8868396
3.4390731 4.8921332 -1.8856128
3.4673688 4.8686137 -1.8846928
3.498291 4.8487902 -1.8853061
3.5313473 4.8318439 -1.8871464
3.5694256 4.821558 -1.8917466
3.599514 4.8003273 -1.8920534
3.624294 4.7720876 -1.8895998
3.6494436 4.7444792 -1.887453
3.6819971 4.7265019 -1.8892932
3.7109289 4.7038207 -1.8892932
3.7474463 4.6906281 -1.8932801
3.7695701 4.6594076 -1.8899065
3.7968822 4.6347175 -1.8892932
3.8234253 4.6091356 -1.8883731
3.8461237 4.5790305 -1.8856128
3.8692136 4.5495458 -1.8831593
3.9014046 4.530767 -1.8853061
3.9322596 4.5103297 -1.8868396
3.9611204 4.4875436 -1.887453
3.9873121 4.4617352 -1.8868396
4.0203624 4.4435363 -1.8895998
4.0436935 4.4145737 -1.8877597
4.0687623 4.3875856 -1.8868396
4.0975623 4.3646193 -1.8877597
4.1275454 4.3428435 -1.8892932
4.1501546 4.3133211 -1.887453
4.1911559 4.3027725 -1.8942002
4.2114625 4.2708764 -1.89144
4.2443147 4.2516899 -1.8945069
4.2709994 4.2262368 -1.8948137
4.2927661 4.1959596 -1.8929734
4.314322 4.165575 -1.8911333
4.3439336 4.1429648 -1.8929734
4.3623433 4.1097078 -1.8899065
4.3832965 4.0789738 -1.8880664
4.4138489 4.0571537 -1.89052
4.4478226 4.0383101 -1.8945069
4.4796047 4.0172958 -1.8975738
4.4998946 3.9859481 -1.8957337
4.5128036 3.9482369 -1.8908266
4.5311823 3.9154949 -1.8883731
4.5645351 3.8956492 -1.8923601
4.587625 3.8669553 -1.8920534
4.6207767 3.846648 -1.8960404
4.6406155 3.8152013 -1.8945069
4.666894 3.7890544 -1.8957337
4.68857 3.7591572 -1.8951203
4.7160258 3.7338619 -1.8969605
4.7350974 3.7019241 -1.895427
4.7471733 3.6646597 -1.8911333
4.7680559 3.6343091 -1.89052
4.7872233 3.6026955 -1.8892932
4.8046541 3.5698488 -1.887453
4.8402843 3.5504315 -1.8929734
4.8673754 3.5245719 -1.8951203
4.8935571 3.4979599 -1.8969605
4.9195948 3.4711592 -1.8988006
4.9540806 3.4501524 -1.9040143
4.9822173 3.4245408 -1.9067746
4.9984097 3.3907011 -1.9049344
5.0159564 3.3578501 -1.9037077
5.0412307 3.3301566 -1.9055479
5.0607719 3.2986417 -1.9052411
5.0729103 3.2623806 -1.9021742
5.0976553 3.2342508 -1.9040143
5.0923901 3.1872621 -1.8945069
5.1321006 3.1684523 -1.9021742
5.1343713 3.1265101 -1.8957337
5.1591711 3.0983765 -1.8978806
5.1772661 3.0661771 -1.8975738
5.1943383 3.0333927 -1.8969605
5.2145028 3.0024133 -1.8975738
5.2477283 2.9788158 -1.9030943
5.2733836 2.950742 -1.9058546
5.2863884 2.9155724 -1.9040143
5.3066878 2.884444 -1.9049344
5.3368731 2.8585672 -1.9095348
5.3080101 2.801342 -1.8926668
5.3267884 2.7695978 -1.8932801
5.3690991 2.7498729 -1.902481
5.4054184 2.726733 -1.9095348
5.4339828 2.6994407 -1.9138285
5.4376178 2.6597767 -1.9092282
5.4452591 2.6222341 -1.9061612
5.4629664 2.5895882 -1.9067746
5.4761653 2.5548127 -1.9058546
5.5012541 2.5255299 -1.9092282
5.5227194 2.4944687 -1.911375
5.5466199 2.4643979 -1.9144419
5.5616369 2.4303181 -1.9144419
5.5659494 2.3916397 -1.9107616
5.5805197 2.3574426 -1.9107616
5.597517 2.3242512 -1.9116817
5.6284184 2.2966909 -1.9175088
5.6424046 2.2621124 -1.9175088
5.6526356 2.2260544 -1.9162821
5.6653004 2.1909854 -1.9159753
5.6813068 2.1571956 -1.9168955
5.7051396 2.126282 -1.9205757
5.7252307 2.0938499 -1.9230293
5.7308025 2.0561111 -1.9205757
5.7460046 2.0218561 -1.9214958
5.7565026 1.9859407 -1.9208825
5.7658749 1.9496679 -1.9199624
5.7659826 1.9103632 -1.9159753
5.7821231 1.876416 -1.9175088
5.7971563 1.8420545 -1.9187356
5.8110766 1.8072965 -1.9196557
5.8165927 1.769945 -1.9178156
5.8455896 1.7396481 -1.9239494
5.8543258 1.7032161 -1.923336
5.8628354 1.6667423 -1.9227226
5.8775377 1.6320096 -1.9242561
5.8727417 1.5919335 -1.919349
5.8814788 1.5556258 -1.9190423
5.8872266 1.5185583 -1.9178156
5.9102802 1.4858848 -1.922416
5.9174371 1.4491396 -1.9218025
5.9326987 1.4143474 -1.9239494
5.9366293 1.376844 -1.922416
5.9496083 1.3414376 -1.9239494
5.9614463 1.3057201 -1.9251761
5.9805183 1.2714899 -1.9288565
5.9854107 1.234194 -1.9279364
5.9984713 1.1985629 -1.9297765
6.0057125 1.1617345 -1.9297765
6.0033717 1.1231136 -1.9267097
6.0138969 1.086933 -1.9279364
6.0063877 1.0475615 -1.923336
6.0258436 1.0128938 -1.9276297
6.0375829 0.97681183 -1.9294698
6.047225 0.94033182 -1.9306966
6.0528808 0.90320903 -1.9306966
6.0573668 0.86591774 -1.9303899
6.0531354 0.82744682 -1.927323
6.0524354 0.78955221 -1.9254829
6.0543323 0.75204885 -1.9245628
6.0607233 0.71510875 -1.9251761
6.0668888 0.67811847 -1.9257895
6.0860806 0.6424759 -1.9306966
6.0766482 0.60380524 -1.9264029
6.0954022 0.56791818 -1.9313099
6.1110992 0.53157675 -1.935297
6.1170921 0.4942992 -1.9362171
6.1029243 0.45548421 -1.9306966
6.1207981 0.41906616 -1.9356037
6.1232543 0.38150176 -1.9356037
6.1188273 0.34355077 -1.9334568
6.1246228 0.30618927 -1.9346836
6.1178284 0.2682299 -1.9319234
6.1279192 0.23100767 -1.9346836
6.1358805 0.19361199 -1.9368304
6.1360016 0.15593529 -1.9365238
6.135891 0.11826439 -1.9362171
6.1355495 0.080600724 -1.9359103
6.1197481 0.042841956 -1.9306966
6.1179924 0.0052897916 -1.9300833
6.1236205 -0.03228078 -1.9319234
6.1109343 -0.06971053 -1.9279364
6.1218114 -0.10740772 -1.9316167
6.1238918 -0.14503656 -1.9325367
6.1162271 -0.18240947 -1.9303899
6.127358 -0.22038156 -1.934377
6.1401548 -0.25857756 -1.9389772
6.130847 -0.29587948 -1.9365238
6.1450729 -0.33437428 -1.9417375
6.1467056 -0.37230432 -1.9429643
6.1547523 -0.41071185 -1.9463379
6.1511669 -0.4483996 -1.9460312
6.1378627 -0.4853068 -1.9426576
6.1376143 -0.52320194 -1.9435776
6.1456628 -0.56189388 -1.947258
6.1695704 -0.60227931 -1.9561521
6.158185 -0.63933599 -1.9536985
6.1579309 -0.67752695 -1.9549253
6.1810746 -0.71849072 -1.9638194
6.1623788 -0.75466543 -1.959219
6.1519685 -0.79173291 -1.9573789
6.1771784 -0.83354437 -1.967193
6.1596956 -0.869699 -1.9632059
6.1297617 -0.90386325 -1.955232
6.1457372 -0.94478804 -1.9622859
6.114449 -0.97841448 -1.9540052
6.0961251 -1.0138813 -1.9500182
6.0682173 -1.0475394 -1.9429643
6.0532436 -1.0832429 -1.940204
5.9922037 -1.1102966 -1.922416
0 -0 -0
5.7699246 -1.1424787 -1.8540236
5.6014848 -1.1448555 -1.8009658
5.5086746 -1.1611259 -1.7727501
0 -0 -0
5.3871965 -1.2047282 -1.7374805
5.3323989 -1.2268667 -1.7218392
5.2895751 -1.2512293 -1.7101849
5.2660756 -1.2798374 -1.7049712
5.239655 -1.3075124 -1.6988373
5.3062162 -1.3587786 -1.7236794
5.3115873 -1.3949409 -1.7282797
5.2946568 -1.4252774 -1.7255195
5.2748017 -1.454699 -1.7218392
5.2685242 -1.4878138 -1.7227592
5.2437525 -1.5156168 -1.7175455
5.2069736 -1.5396608 -1.7083448
5.1846743 -1.5677217 -1.704051
5.1795039 -1.600911 -1.7055845
5.1605077 -1.6297934 -1.7025176
5.1504102 -1.6614269 -1.7025176
5.1129999 -1.6840594 -1.6933168
5.099864 -1.7144899 -1.6923968
5.0811458 -1.7429687 -1.6896366
5.0676608 -1.7731695 -1.6887164
5.0593743 -1.8051909 -1.6896366
5.0321035 -1.8303409 -1.6841161
5.0234551 -1.8621759 -1.6850362
5.0128245 -1.8933007 -1.6853428
4.9993367 -1.9233392 -1.6847295
4.9803519 -1.9511993 -1.6822759
4.9638662 -1.9799572 -1.6807425
4.9463329 -2.0082283 -1.6789023
4.9515095 -2.0458136 -1.6850362
4.925703 -2.0706213 -1.6804358
4.9050298 -2.0974362 -1.6776755
4.8999224 -2.1309114 -1.6804358
4.8841438 -2.1597812 -1.6795157
4.8612514 -2.1854141 -1.6761421
4.8451538 -2.2140138 -1.675222
4.8219829 -2.2392895 -1.6718484
4.8090124 -2.2692409 -1.672155
4.7864165 -2.2945893 -1.6690881
4.7756696 -2.3255825 -1.6703149
4.7502203 -2.3493538 -1.666328
4.7331638 -2.3771744 -1.6654079
4.7108583 -2.4022784 -1.6626476
4.6943393 -2.430263 -1.6620343
4.6911335 -2.4652226 -1.666328
4.6834764 -2.4979935 -1.6690881
4.6563435 -2.5203381 -1.6647944
4.6341181 -2.5451944 -1.6623409
4.6317148 -2.5809968 -1.667248
4.6356745 -2.6206138 -1.6746086
4.6054726 -2.6409562 -1.6693949
4.5842452 -2.6662929 -1.6675547
4.5825534 -2.7030787 -1.6730752
4.5536308 -2.7238142 -1.6684748
4.5457826 -2.7571349 -1.6718484
4.5409398 -2.7924569 -1.6764488
4.5277581 -2.8227856 -1.6779822
4.4990897 -2.8433928 -1.6736885
4.4863663 -2.8740268 -1.6755286
4.4766288 -2.9066856 -1.6785957
4.4531446 -2.9304352 -1.6764488
4.4263706 -2.9518931 -1.6730752
4.4136944 -2.9827292 -1.675222
4.392169 -3.0076032 -1.6739953
4.3540845 -3.0209277 -1.666328
4.3245664 -3.0399215 -1.6620343
4.3035069 -3.0647423 -1.6611142
4.2884798 -3.0938759 -1.6626476
4.2747941 -3.1240635 -1.6647944
4.2593689 -3.1530669 -1.666328
4.2292824 -3.1711462 -1.6620343
4.2097449 -3.197037 -1.6620343
4.1953297 -3.2268705 -1.6641811
4.1747003 -3.2519667 -1.6638744
4.160645 -3.2822382 -1.666328
4.1434011 -3.3100827 -1.6675547
4.1326313 -3.3432281 -1.6715417
4.1024694 -3.3606794 -1.6675547
4.0817714 -3.3857884 -1.6675547
4.0674782 -3.4162807 -1.6703149
4.04354 -3.4387069 -1.6690881
3.9956822 -3.4404683 -1.6577406
3.9716275 -3.4624181 -1.6565138
3.9524481 -3.4886124 -1.6574339
3.9352255 -3.5166047 -1.659274
3.924159 -3.5502653 -1.6638744
3.9128273 -3.5839221 -1.6684748
3.9026253 -3.6188681 -1.6736885
2.3921468 -2.245065 -1.0158337
2.3783264 -2.2597005 -1.0158337
2.3774455 -2.2867925 -1.0216609
3.796278 -3.6976111 -1.666328
3.7660649 -3.7134824 -1.6629543
3.7432084 -3.7365205 -1.6629543
3.7061548 -3.7452075 -1.6565138
