# .PCD v0.7 - Point Cloud Data file format
VERSION 0.7
FIELDS x y z
SIZE 4 4 4
TYPE F F F
COUNT 1 1 1
WIDTH 1548
HEIGHT 1
VIEWPOINT 0 0 0 1 0 0 0
POINTS 1548
DATA ascii
-10.37235 8.1964464 -1.9395567
-10.338849 8.273531 -1.9428123
-10.31478 8.3586092 -1.9479917
-10.278588 8.4342899 -1.9509513
-10.228165 8.4984636 -1.9512473
-10.174313 8.5597897 -1.9509513
-10.126117 8.625905 -1.9518392
-10.088724 8.7014408 -1.9549469
-10.056 8.7813969 -1.9590904
-10.008596 8.8488302 -1.9604222
-9.9651651 8.9199705 -1.962642
-9.9102459 8.9809475 -1.962642
-9.8666124 9.0522852 -1.9650096
-9.8174038 9.1187134 -1.9663415
-9.7670317 9.1842003 -1.9675254
-9.7219543 9.2548685 -1.969893
-9.6664085 9.3157196 -1.970189
-9.618268 9.3838358 -1.9721128
-9.5689526 9.4510155 -1.9738885
-9.5093832 9.508153 -1.9735926
-9.4751883 9.5909491 -1.9787719
-9.4403343 9.6736822 -1.9839513
-9.3856039 9.7364101 -1.9849873
-9.3345518 9.8031273 -1.9869109
-9.2681274 9.853734 -1.9855791
-9.212203 9.9154892 -1.9866151
-9.1578751 9.9791145 -1.9880948
-9.1130762 10.053439 -1.9917943
-9.0531969 10.111377 -1.9922383
-8.9955702 10.171923 -1.9932742
-8.9277821 10.220967 -1.9920903
-8.8791103 10.29203 -1.995346
-8.8228483 10.354599 -1.9969738
-8.762331 10.412324 -1.9977137
-8.7001734 10.468174 -1.9981576
-8.6401701 10.526712 -1.9991934
-8.5797749 10.584908 -2.0002294
-8.5319691 10.658973 -2.0043728
-8.4743776 10.72121 -2.0062966
-8.4120846 10.777685 -2.0071845
-8.3554544 10.841632 -2.0095522
-8.3007507 10.908438 -2.012512
-8.2461348 10.97577 -2.0156195
-8.1774549 11.024572 -2.0153234
-8.1248465 11.095288 -2.019171
-8.0444479 11.1281 -2.0160635
-7.9587836 11.153098 -2.0116239
-7.9141169 11.235682 -2.0178392
-7.8427687 11.280784 -2.0172472
-7.7789984 11.336848 -2.0187271
-7.7148352 11.392555 -2.0202069
-7.6475339 11.44379 -2.0209467
-7.578805 11.492976 -2.0213907
-7.5081429 11.539263 -2.0213907
-7.4355955 11.582618 -2.0209467
-7.3691478 11.635543 -2.0222788
-7.3028541 11.688929 -2.0237584
-7.2320323 11.735202 -2.0240545
-7.1568084 11.774285 -2.0231667
-7.0808692 11.812038 -2.0221307
-7.0057425 11.851007 -2.0213907
-6.9343882 11.896334 -2.0218346
-6.8681612 11.950664 -2.0239065
-6.7981162 11.998604 -2.0249424
-6.7315989 12.053043 -2.0271621
-6.6651454 12.107984 -2.0295298
-6.5992146 12.1643 -2.0321934
-6.5207219 12.197585 -2.0310097
-6.4485211 12.242617 -2.0318975
-6.3737359 12.282831 -2.0320456
-6.3036504 12.332276 -2.0338213
-6.2345324 12.383974 -2.036041
-6.1632595 12.431743 -2.0376687
-6.0877314 12.471103 -2.0379648
-6.0128088 12.511787 -2.0385566
-5.9388843 12.554705 -2.0395925
-5.8638248 12.595391 -2.0403326
-5.7814889 12.620344 -2.0385566
-5.702724 12.652876 -2.0381126
-5.6305909 12.700287 -2.0401845
-5.5525575 12.734596 -2.0401845
-5.4747043 12.769336 -2.0403326
-5.3958659 12.801776 -2.0401845
-5.3202419 12.841953 -2.0413682
-5.2376165 12.865196 -2.0398886
-5.1633525 12.909029 -2.0418122
-5.0992327 12.97913 -2.0480275
-5.032311 13.043392 -2.053355
-4.9612899 13.098071 -2.0572023
-4.8866858 13.144026 -2.0597181
-4.8069606 13.17655 -2.0601621
-4.7306843 13.218834 -2.0622339
-4.6524329 13.256011 -2.0635657
-4.5661826 13.27028 -2.0613458
-4.4834075 13.294299 -2.0607541
-4.3992696 13.314046 -2.0595701
-4.3184066 13.343612 -2.060014
-4.2367487 13.3708 -2.0601621
-4.1534562 13.392766 -2.0595701
-4.0726366 13.422731 -2.0603101
-3.9991999 13.477809 -2.0650456
-3.92524 13.53249 -2.0697808
-3.8415933 13.554417 -2.0694849
-3.7583525 13.577733 -2.0694849
-3.6775494 13.610085 -2.0709648
-3.590694 13.619962 -2.069041
-3.5105021 13.655148 -2.0711126
-3.4309747 13.693699 -2.0737765
-3.3630602 13.780789 -2.0839872
-3.2640445 13.740545 -2.0746644
-3.1843469 13.78055 -2.0777719
-3.1055813 13.825884 -2.0817676
-3.0139449 13.813758 -2.0770321
-2.9160206 13.770068 -2.0675611
-2.8115873 13.690822 -2.052763
-2.7219343 13.679687 -2.0484715
-2.6269152 13.638832 -2.0397406
-2.5353963 13.612885 -2.0333774
-2.4470956 13.601905 -2.0293818
-2.3566585 13.576712 -2.0233145
-2.2715151 13.580187 -2.0216868
-2.1872034 13.58801 -2.0207989
-2.1037877 13.601174 -2.0207989
-2.0184066 13.60111 -2.0188751
-1.9315757 13.589739 -2.0153234
-1.8436296 13.568015 -2.0102921
-1.759962 13.576129 -2.0098481
-1.6757799 13.579802 -2.0088122
-1.5919642 13.585899 -2.0082204
-1.5078099 13.588531 -2.0071845
-1.423683 13.590641 -2.0061486
-1.3395873 13.592232 -2.0051126
-1.2546169 13.583453 -2.0025971
-1.1712466 13.590896 -2.0025971
-1.0877537 13.596841 -2.002449
-1.0038682 13.597342 -2.0015612
-0.91988409 13.595351 -2.0003774
-0.83608353 13.594817 -1.9994894
-0.75281525 13.602654 -1.9999334
-0.66977334 13.615907 -2.0012653
-0.58685178 13.634582 -2.003485
-0.50310773 13.635949 -2.0031891
-0.41949028 13.640757 -2.003485
-0.33607528 13.654938 -2.0052607
-0.25221109 13.652787 -2.0046687
-0.16834962 13.647156 -2.003633
-0.084590934 13.644965 -2.0031891
-0.00086489489 13.668962 -2.0067406
0.083000213 13.667722 -2.0065925
0.16682574 13.663988 -2.0061486
0.25055391 13.656775 -2.0052607
0.33444273 13.658935 -2.0058527
0.41912651 13.685293 -2.0101442
0.50363636 13.697289 -2.0123639
0.58754438 13.690976 -2.01192
0.67115116 13.679211 -2.010736
0.75523645 13.677797 -2.0111799
0.84042162 13.693636 -2.0142877
0.92522901 13.700062 -2.0160635
1.0104381 13.709908 -2.0184312
1.0949355 13.708379 -2.019171
1.1787734 13.698447 -2.0187271
1.2646216 13.710652 -2.0216868
1.3489187 13.704603 -2.0219827
1.4339101 13.704921 -2.0233145
1.5189563 13.704711 -2.0246463
1.6058947 13.719689 -2.0283458
1.6916209 13.722338 -2.0302696
1.7728645 13.689142 -2.0268662
1.8606865 13.706426 -2.0311575
1.9455873 13.700625 -2.0320456
2.0326641 13.708974 -2.0351532
2.120672 13.721656 -2.0390007
2.2063978 13.718149 -2.0404804
2.2919974 13.713132 -2.0418122
2.3781257 13.710504 -2.0435882
2.4692099 13.734588 -2.0495074
2.5577824 13.742514 -2.0530589
2.6386907 13.70908 -2.0503953
2.7293191 13.725611 -2.0554266
2.816669 13.724106 -2.0577943
2.9098392 13.749137 -2.0643055
2.9962552 13.740685 -2.0657854
3.0857112 13.745201 -2.0693369
3.176003 13.752027 -2.0733325
3.2669516 13.760184 -2.0776238
3.3557751 13.758135 -2.0804355
3.4444561 13.754554 -2.0830994
3.5359278 13.760938 -2.0873907
3.6283634 13.769585 -2.0921261
3.7176845 13.765203 -2.0949378
3.8044503 13.750711 -2.0962696
3.8925266 13.74043 -2.0983415
3.9806197 13.729585 -2.1004131
4.0678821 13.715331 -2.102041
4.1327248 13.626704 -2.0921261
4.1966338 13.537801 -2.0822115
4.2876863 13.537251 -2.0862069
4.367928 13.502219 -2.0848751
4.4631038 13.512727 -2.0907943
4.5351882 13.453224 -2.085763
4.6182938 13.427014 -2.0860589
4.7068157 13.416155 -2.0888705
4.7917128 13.394471 -2.0900545
4.9093947 13.462374 -2.1055925
4.9443507 13.30407 -2.085171
5.0185337 13.254059 -2.0820634
5.0873065 13.190721 -2.076884
5.157299 13.131642 -2.0724447
5.2341037 13.090568 -2.0709648
5.3150735 13.060038 -2.0712607
5.381104 12.993372 -2.0657854
5.4545832 12.945528 -2.0634177
5.5237813 12.888182 -2.0595701
5.577857 12.796931 -2.0502472
5.6558719 12.761561 -2.0500994
5.7263484 12.709486 -2.0472877
5.7968111 12.657926 -2.0446239
5.8656049 12.60329 -2.0415163
5.944941 12.571532 -2.0422564
6.0125427 12.515207 -2.0390007
6.0870523 12.473636 -2.0382607
6.1586428 12.426304 -2.036633
6.2303267 12.379448 -2.0351532
6.304368 12.337463 -2.0345612
6.3772173 12.293282 -2.0336733
6.4474578 12.244294 -2.0320456
6.5098782 12.180954 -2.0280499
6.5821385 12.136434 -2.0273101
6.6536212 12.090619 -2.0264223
6.7228603 12.040932 -2.0249424
6.792716 11.99257 -2.0237584
6.864202 11.947235 -2.0231667
6.9418616 11.912582 -2.0244985
7.0027475 11.84933 -2.0209467
7.0631185 11.785781 -2.0173953
7.1255422 11.726163 -2.0145836
7.1932077 11.675485 -2.0133998
7.2626162 11.627773 -2.0128078
7.3306513 11.577978 -2.01192
7.3930063 11.519464 -2.0095522
7.4522233 11.456476 -2.0064447
7.5131235 11.396498 -2.0039289
7.5763159 11.340316 -2.0021532
7.6302299 11.270686 -1.9980096
7.6858134 11.204083 -1.9944581
7.7521577 11.153465 -1.9938661
7.8187399 11.103263 -1.9934222
7.8821254 11.048638 -1.9922383
7.9422383 10.989647 -1.9903146
8.0013399 10.929536 -1.9882429
8.0547018 10.861965 -1.9848392
8.1027832 10.787826 -1.9802518
8.1628351 10.730034 -1.9787719
8.2242937 10.674262 -1.9777361
8.2847672 10.617361 -1.9765522
8.340559 10.554688 -1.9743325
8.3909502 10.485554 -1.9709289
8.4395628 10.414662 -1.9672294
8.4995422 10.358095 -1.9663415
8.5509281 10.291296 -1.9635298
8.6049995 10.228041 -1.9614581
8.6650295 10.172037 -1.9608661
8.7169447 10.106697 -1.9584985
8.7670841 10.039613 -1.9558347
8.8167286 9.9722939 -1.953171
8.8652172 9.9040079 -1.9503595
8.9098797 9.8318386 -1.9468079
8.9733829 9.7806273 -1.9475478
9.0312071 9.7232094 -1.9471039
9.080534 9.656806 -1.9448841
9.1123381 9.5722561 -1.9389648
9.1523695 9.4969387 -1.9349693
9.1980362 9.4278603 -1.9323056
9.2466764 9.3620987 -1.9303819
9.293457 9.2946959 -1.9281621
9.3383512 9.2256823 -1.9256464
9.3848734 9.1585407 -1.9235747
9.4380445 9.0980387 -1.9229827
9.4901094 9.0365467 -1.9222429
9.5417757 8.9747581 -1.9215029
9.5879688 8.9079657 -1.9197271
9.6322451 8.8396063 -1.9176553
9.6731119 8.768383 -1.9149917
9.7105198 8.6943521 -1.9117361
9.7525711 8.6247797 -1.9095163
9.7792368 8.5420074 -1.904337
9.8172369 8.4695692 -1.9015254
9.8517046 8.3944206 -1.8981217
9.891675 8.3242626 -1.895902
9.9395227 8.2608843 -1.89531
9.9892597 8.1991129 -1.8951621
10.022476 8.1239672 -1.8919065
10.053604 8.0474863 -1.8883549
10.083395 7.9703164 -1.8846554
10.119635 7.8985605 -1.8822876
10.165559 7.8345079 -1.8818437
10.211864 7.7707882 -1.8815478
10.24512 7.6972914 -1.8788841
10.277858 7.6236796 -1.8762205
10.322846 7.5593038 -1.8759245
10.352202 7.4836555 -1.8728168
10.372164 7.4016142 -1.8680815
10.389083 7.3179016 -1.862902
10.410239 7.2376475 -1.8586105
10.44222 7.1652431 -1.8563908
10.485169 7.1004815 -1.8562429
10.520316 7.0305176 -1.854763
10.552523 6.9587569 -1.8528392
10.5801 6.8841696 -1.8501756
10.6288 6.8233953 -1.8513595
10.646236 6.7427063 -1.847068
10.697474 6.6835427 -1.8488437
10.726494 6.6105151 -1.846772
10.757557 6.5389242 -1.8451442
10.778813 6.4616089 -1.8418885
10.815704 6.3938398 -1.8414446
10.853024 6.3263597 -1.8411486
10.903643 6.2665458 -1.8432205
10.942748 6.2000117 -1.8433684
11.002172 6.1448059 -1.847068
11.041402 6.078136 -1.8473639
11.078488 6.0102725 -1.8473639
11.094225 5.9309945 -1.8438123
11.133034 5.8641925 -1.8442563
11.184608 5.8039694 -1.84692
11.237623 5.7442336 -1.8498796
11.26559 5.6716156 -1.8486958
11.303722 5.6041412 -1.8492876
11.350339 5.54075 -1.8513595
11.359163 5.4590087 -1.8472159
11.425525 5.4048524 -1.8526913
11.45937 5.335062 -1.8528392
11.493688 5.2654719 -1.8531352
11.523074 5.1936302 -1.8526913
11.541162 5.1168165 -1.8504715
11.575062 5.0470905 -1.8509154
11.621265 4.9825964 -1.8534312
11.650707 4.9108114 -1.8532832
11.685189 4.8411241 -1.8540231
11.72933 4.7752995 -1.8563908
11.7529 4.7010365 -1.855503
11.788888 4.6317258 -1.8566868
11.814318 4.5582356 -1.8562429
11.834665 4.4828568 -1.855059
11.854532 4.4073997 -1.8538752
11.881352 4.3345785 -1.8538752
11.914244 4.2639265 -1.854911
11.93365 4.1884499 -1.8538752
11.947903 4.1112871 -1.8520993
11.99727 4.0461135 -1.8559469
12.01248 3.9693215 -1.854467
12.047901 3.899193 -1.8562429
12.080084 3.827883 -1.8575747
12.104289 3.7539818 -1.8577226
12.134666 3.6819372 -1.8589065
12.165564 3.6099422 -1.8602383
12.177986 3.5324733 -1.8587586
12.204189 3.4590323 -1.8594985
12.248059 3.3904138 -1.86305
12.257175 3.3121023 -1.8612742
12.326997 3.2499375 -1.8689693
12.364905 3.1789165 -1.871781
12.309348 3.0842447 -1.8602383
12.325158 3.0079548 -1.8597944
12.381872 2.9414122 -1.8657137
12.38716 2.8624895 -1.8637899
12.392911 2.7838295 -1.8620142
12.401063 2.7058387 -1.8606822
12.446459 2.6358407 -1.8651217
12.471117 2.5612109 -1.8664536
12.479807 2.4832909 -1.8654177
12.488982 2.4055476 -1.8645298
12.508369 2.3297765 -1.8652698
12.538003 2.2557831 -1.8676375
12.578892 2.1835427 -1.871781
12.581324 2.1045251 -1.8701532
12.623293 2.0320005 -1.8745927
12.645297 1.9560181 -1.8760724
6.4889493 0.96357584 -0.94304579
6.1481166 0.87450504 -0.89066011
5.9975476 0.8156051 -0.86713099
5.9416299 0.77091163 -0.85795611
5.9217095 0.73141396 -0.85425657
5.9152808 0.69380009 -0.85262877
5.9086137 0.65629268 -0.85100096
5.8967915 0.61837846 -0.84863323
5.8827586 0.58044028 -0.84596956
5.8783312 0.54360646 -0.84478569
5.873673 0.50684881 -0.84360182
5.8707576 0.47032636 -0.84271395
5.8745193 0.43436795 -0.84286195
5.8829942 0.39871448 -0.84374982
0 0 -0
0 0 -0
5.8735318 0.28958416 -0.84138209
0 0 -0
0 0 -0
0 0 -0
5.8719487 0.14518352 -0.84034622
5.8687735 0.10907846 -0.83975428
0 0 -0
0 0 -0
0 -0 -0
0 -0 -0
0 -0 -0
0 -0 -0
0 -0 -0
0 -0 -0
0 -0 -0
0 -0 -0
0 -0 -0
0 -0 -0
0 -0 -0
0 -0 -0
0 -0 -0
0 -0 -0
0 -0 -0
6.2399435 -0.57491368 -0.89909512
11.503874 -1.1321174 -1.6910949
11.49376 -1.2023735 -1.6906509
11.480268 -1.2722211 -1.6897631
10.5882 -1.2390853 -1.5565792
10.570581 -1.3028191 -1.5550994
10.552581 -1.3663834 -1.5536196
10.542038 -1.4308408 -1.5533236
10.553622 -1.4984204 -1.5564313
10.563795 -1.5660508 -1.5593909
11.099362 -1.7151735 -1.6419649
11.084723 -1.7826171 -1.6413729
11.050166 -1.8466833 -1.6378213
11.035704 -1.9139438 -1.6373774
11.023752 -1.9816215 -1.6373774
11.011386 -2.0492246 -1.6373774
10.992778 -2.1156287 -1.6364895
10.973769 -2.1818814 -1.6356016
10.957269 -2.2485774 -1.6351577
10.93746 -2.3145385 -1.6342698
10.912424 -2.3792872 -1.632642
10.898584 -2.4464166 -1.63279
8.3143921 -1.9197201 -1.2382699
10.848498 -2.5754042 -1.6298304
10.838256 -2.6433275 -1.6307182
10.830467 -2.7119429 -1.63205
10.808834 -2.7771153 -1.6313101
7.4980083 -1.9752196 -1.1216601
7.486702 -2.0214472 -1.1218081
10.752072 -2.9745448 -1.6307182
10.725055 -3.0380356 -1.6293864
10.703362 -3.1029596 -1.6289425
10.686018 -3.1691384 -1.6292384
7.9804931 -2.4198308 -1.2092655
7.9381008 -2.4602582 -1.2049739
7.9313407 -2.5116074 -1.2063057
7.9176626 -2.5608349 -1.2066017
10.567812 -3.4901643 -1.6267227
10.519021 -3.5457773 -1.6224313
10.503613 -3.6125064 -1.6234671
10.461652 -3.6700103 -1.6203595
10.397964 -3.7194717 -1.6138483
7.6935396 -2.8051131 -1.1867721
10.435896 -3.8781495 -1.6273147
10.438725 -3.9522684 -1.6316061
10.440114 -4.0262113 -1.6357496
10.449272 -4.1035743 -1.641225
10.433079 -4.1712852 -1.6427047
10.37706 -4.222918 -1.6378213
10.333593 -4.2793193 -1.6350098
10.261573 -4.3234401 -1.6276106
10.170314 -4.3586559 -1.6171039
10.148817 -4.4233489 -1.6179918
10.10069 -4.4763193 -1.6145881
10.035164 -4.5211453 -1.6083729
10.003637 -4.5809875 -1.6077811
9.9708576 -4.6401958 -1.6070411
9.9421978 -4.7012882 -1.6070411
9.9149475 -4.7630606 -1.6073371
9.8730927 -4.8177347 -1.6052654
9.8318262 -4.8725138 -1.6033416
9.7840767 -4.9238558 -1.600382
9.7466345 -4.980196 -1.5991981
9.7071152 -5.0353518 -1.5977182
9.6489096 -5.0805316 -1.5931308
9.5992384 -5.1298499 -1.5900232
9.5736666 -5.1919541 -1.5910591
9.550293 -5.2553682 -1.5925388
9.5092325 -5.3090467 -1.5910591
9.4506626 -5.3526697 -1.5866196
9.4133539 -5.4080935 -1.5858797
9.3791389 -5.4652529 -1.5857317
9.3709698 -5.5377965 -1.5901712
9.2944002 -5.5697684 -1.582772
9.2220182 -5.6035786 -1.5761129
9.1748323 -5.652276 -1.5738932
9.115654 -5.6932693 -1.5696017
9.088069 -5.7538571 -1.5709335
9.0542574 -5.8105807 -1.5712295
9.010973 -5.8611732 -1.5698977
8.9525471 -5.9016538 -1.5659021
8.8939638 -5.9416385 -1.5619066
8.854064 -5.9938812 -1.5613147
8.8171196 -6.0480957 -1.5613147
8.7879639 -6.107728 -1.5627944
8.7357674 -6.1512842 -1.5601308
8.680953 -6.1927071 -1.5570232
8.6387844 -6.2429585 -1.5562832
8.5947304 -6.2917581 -1.5552474
8.5631123 -6.349678 -1.5565792
8.5239897 -6.402101 -1.5565792
8.4727411 -6.4452996 -1.5543596
8.4165831 -6.484489 -1.5512519
8.3548059 -6.5189729 -1.5471084
8.3084421 -6.565208 -1.5459245
8.3390379 -6.6729198 -1.5595388
8.2357025 -6.673521 -1.5475523
8.1999512 -6.7283206 -1.5485882
8.1402578 -6.7633376 -1.5450367
8.1054163 -6.8188887 -1.5463685
8.042345 -6.8505354 -1.542225
7.980689 -6.8829575 -1.5383774
7.9189391 -6.9148812 -1.5345299
7.8407989 -6.9318943 -1.5274268
7.8393812 -7.0168157 -1.5357138
7.79105 -7.0601358 -1.5346779
7.7410245 -7.10179 -1.5333461
7.692956 -7.1451154 -1.5324582
7.6504102 -7.1935391 -1.5327542
7.5903697 -7.2253423 -1.5294986
7.535212 -7.2614851 -1.5272788
7.489099 -7.3062019 -1.5269828
7.4399066 -7.3478465 -1.5260949
7.1653085 -7.1639762 -1.4775568
7.0836859 -7.1698117 -1.4695659
7.0133142 -7.1862426 -1.4639425
6.9478121 -7.2070651 -1.459355
6.8911848 -7.2366672 -1.4566914
6.8263264 -7.2572007 -1.4522519
6.7776299 -7.2946024 -1.451364
6.724051 -7.3265781 -1.4494402
6.6836185 -7.372828 -1.4504762
6.5736094 -7.341486 -1.4359739
2.1693606 -2.4517159 -0.45130149
2.1490719 -2.4590213 -0.45011765
2.1423407 -2.4818971 -0.45204142
6.4658575 -7.5879283 -1.4531398
6.4287281 -7.6388106 -1.4553596
6.3785758 -7.6743093 -1.4546196
6.3119183 -7.6896033 -1.4500322
6.210443 -7.6613412 -1.4371578
6.1657887 -7.7023921 -1.4377496
6.1619496 -7.7951708 -1.4482564
2.0137203 -2.5785694 -0.45100555
1.9906167 -2.581476 -0.44922975
1.966356 -2.5826225 -0.44715801
1.9451264 -2.5875225 -0.44582617
1.9345152 -2.6065581 -0.44715801
1.8390288 -2.5098543 -0.42703244
1.8218561 -2.5186863 -0.42658851
1.8207275 -2.5499449 -0.43028805
5.9751363 -8.4824142 -1.5139604
5.9049134 -8.4929314 -1.509225
5.8622017 -8.5428677 -1.5117407
5.7930393 -8.5541077 -1.5073012
5.7404432 -8.5894928 -1.5073012
5.6968856 -8.6385899 -1.5098169
5.624897 -8.6443672 -1.5046376
5.5669427 -8.6712275 -1.5033057
1.7914903 -2.827035 -0.46225217
1.776206 -2.8413291 -0.4628441
1.7566633 -2.8488064 -0.46225217
5.3560586 -8.8111525 -1.5043416
5.2678294 -8.787014 -1.4944268
5.2238779 -8.8361998 -1.4973865
5.16259 -8.8561239 -1.4953147
5.0854874 -8.8481884 -1.4885075
5.0457239 -8.9050417 -1.492947
4.9967747 -8.9461956 -1.4947227
4.937973 -8.9697561 -1.4935389
4.8946309 -9.0216198 -1.4972384
4.8452435 -9.0628214 -1.4991622
4.7844748 -9.0827551 -1.4975344
4.7291093 -9.1128187 -1.4976825
4.6726551 -9.1407833 -1.4975344
4.6160359 -9.1683989 -1.4973865
4.5544219 -9.1859169 -1.4956106
4.4910321 -9.1994686 -1.493243
4.4302177 -9.2179375 -1.4917631
4.3718829 -9.2413712 -1.4911712
4.3205218 -9.2796783 -1.4930949
4.2647371 -9.308712 -1.4935389
4.2014451 -9.3211794 -1.4913192
4.1389623 -9.3350296 -1.4893954
4.0808153 -9.3584366 -1.4890994
4.0256543 -9.3887539 -1.4899874
3.9656658 -9.4078102 -1.4890994
3.9052167 -9.4255695 -1.4880636
3.8484275 -9.4521017 -1.4885075
3.7925613 -9.4810476 -1.4893954
3.7346768 -9.5050602 -1.4895434
3.6759288 -9.5268745 -1.4893954
3.6156526 -9.5446253 -1.4886554
3.5539186 -9.5582876 -1.4873236
3.4975753 -9.5864182 -1.4883596
3.4426863 -9.6188726 -1.4901353
3.381309 -9.6332827 -1.4890994
3.325032 -9.6622658 -1.4904313
3.2678947 -9.6890459 -1.4914671
3.2043495 -9.6967068 -1.4895434
3.1441824 -9.714304 -1.4892474
3.0854135 -9.7362423 -1.4896914
3.0270793 -9.7597132 -1.4904313
2.9662766 -9.7752647 -1.4899874
2.9045534 -9.7875919 -1.4890994
2.843066 -9.8004808 -1.4883596
2.7817993 -9.8139343 -1.4877676
2.724695 -9.8422565 -1.4895434
2.6637368 -9.8568802 -1.4892474
2.6034582 -9.8739958 -1.4893954
2.5425773 -9.8888264 -1.4892474
2.4840152 -9.9128752 -1.4905792
2.4245505 -9.9336948 -1.4914671
2.362639 -9.9445362 -1.4908752
2.3000178 -9.9521008 -1.4898393
2.2371762 -9.9583063 -1.4886554
2.1743453 -9.9641151 -1.4874716
2.1086597 -9.9559832 -1.484216
0.53214687 -2.5865614 -0.35659301
0.51935273 -2.6052978 -0.35896072
0.50148749 -2.5987239 -0.35748088
0.48933369 -2.62217 -0.36058852
0.47516051 -2.6358304 -0.36221632
0.46658605 -2.6825457 -0.3688755
0.4546836 -2.7126708 -0.37301901
0.44415683 -2.7534907 -0.37879032
0.41954759 -2.7063177 -0.37124321
0.4017733 -2.7010148 -0.37005937
0.38310629 -2.6887417 -0.36783963
0.36766589 -2.6988819 -0.3690235
0.35478374 -2.7295299 -0.37331498
0.33839211 -2.7346001 -0.37375891
0.32160655 -2.736625 -0.37375891
0.30230218 -2.7159386 -0.37035534
0.28810269 -2.7413492 -0.37390691
1.0091989 -10.236992 -1.5006421
0.72653896 -7.8607454 -1.1426735
0.67430556 -7.8187442 -1.1357183
0.62608165 -7.819777 -1.1352744
0.57917958 -7.8382664 -1.1374941
0.53314108 -7.8722615 -1.1420816
0.63117421 -10.258317 -1.4993103
0.20600934 -3.7070804 -0.5170055
0.38126031 -7.7404733 -1.1210681
0.15485722 -3.5779147 -0.4973239
0.13126351 -3.534323 -0.49066472
0.10684644 -3.4460948 -0.47734633
0.085675344 -3.4456968 -0.47719836
0.064931348 -3.4679117 -0.48045397
0.12637165 -10.220562 -1.4908752
0.022025183 -3.412076 -0.47201899
0.00093972188 -10.239145 -1.4935389
-0.06184388 -10.232036 -1.492503
-0.12468609 -10.236408 -1.493243
-0.18747494 -10.234462 -1.4930949
-0.25007454 -10.225209 -1.4919111
-0.31247661 -10.212608 -1.4902833
-0.37509766 -10.20951 -1.4901353
-0.43748006 -10.201088 -1.4892474
-0.50016165 -10.200188 -1.4895434
-0.56372237 -10.214701 -1.4922071
-0.62681264 -10.217959 -1.493243
-0.69003081 -10.221815 -1.4944268
-0.75535768 -10.252896 -1.4997542
-0.84923291 -10.635505 -1.557911
-0.91489953 -10.63502 -1.558651
-0.98177409 -10.646933 -1.5613147
-1.0502837 -10.673188 -1.5661981
-1.1180192 -10.688182 -1.5694537
-1.1809629 -10.65753 -1.5659021
-1.2439178 -10.629455 -1.5627944
-1.3103263 -10.631438 -1.5642743
-1.3188462 -10.185766 -1.4982743
-1.3774596 -10.149062 -1.4939828
-1.4388723 -10.134544 -1.4930949
-1.4966756 -10.096176 -1.4886554
-0.4507679 -2.9226544 -0.40394726
-0.47544909 -2.9618199 -0.41031048
-1.6837276 -10.075696 -1.4899874
-0.517847 -2.9908419 -0.41563782
-0.54284161 -3.0245962 -0.42126116
-0.56030369 -3.0153747 -0.42037326
-1.9375968 -10.068244 -1.4956106
-2.0003028 -10.061016 -1.4963505
-2.0639875 -10.058241 -1.4978304
-2.1246405 -10.040549 -1.4970905
-0.62176144 -2.8556936 -0.39876789
-0.63992208 -2.8547196 -0.39921182
-0.65074748 -2.8218312 -0.39477235
-2.3736076 -9.9988546 -1.4991622
-2.4358525 -9.9879456 -1.4997542
-2.4975722 -9.9747305 -1.5000501
-0.94138974 -3.6670792 -0.52795619
-0.7596876 -2.886611 -0.40809074
-0.77583754 -2.8761668 -0.40720284
-0.78529304 -2.8418043 -0.4026154
-0.79139036 -2.7969682 -0.39640015
-0.80963922 -2.7958591 -0.39699209
-2.916815 -9.8355341 -1.4964986
-2.9791195 -9.8240767 -1.4975344
-0.99189585 -3.2027273 -0.46314007
-1.0178015 -3.2163796 -0.46624768
-3.1895876 -9.8607311 -1.5121846
-3.2159045 -9.7376766 -1.4959066
-3.2771733 -9.7224464 -1.4966465
-3.3386979 -9.7077665 -1.4975344
-1.128756 -3.2200398 -0.47201899
-1.1464934 -3.2074664 -0.47113109
-3.4832685 -9.5526857 -1.4828842
-3.5831695 -9.642374 -1.5006421
-1.1580498 -3.060961 -0.45115352
-1.1885561 -3.0842474 -0.45603693
-3.7596855 -9.5738659 -1.500494
-1.2020767 -3.0088234 -0.44627011
-1.2387867 -3.0462751 -0.45352122
-3.9670653 -9.5797911 -1.5129246
-4.0104074 -9.518815 -1.5070052
-4.0695176 -9.4958458 -1.5073012
-4.1296825 -9.4752302 -1.5080411
-4.18574 -9.4451914 -1.5073012
-4.2363014 -9.403101 -1.5046376
-4.2988605 -9.3877201 -1.5064133
-1.3249969 -2.849124 -0.43161988
-1.3441453 -2.8445163 -0.43221182
-1.3662854 -2.8460209 -0.43383962
-1.3798183 -2.8295851 -0.43250778
-4.6098413 -9.3019428 -1.5148484
-4.673945 -9.2876167 -1.517216
-4.7366962 -9.2702112 -1.5191398
-4.791666 -9.2374611 -1.5185479
-4.8450298 -9.2017612 -1.517512
-4.8990684 -9.1674986 -1.516772
-4.9420228 -9.1129246 -1.5126286
-4.726016 -8.5885735 -1.4282788
-4.7439075 -8.4972439 -1.4176241
-4.7681689 -8.4189272 -1.4091891
-4.7758813 -8.3131952 -1.3960187
-4.8043895 -8.2452841 -1.3893596
-4.852375 -8.2113924 -1.3886197
-4.8863969 -8.1543198 -1.3838842
-4.9147654 -8.0886879 -1.377669
-4.9767561 -8.0785866 -1.3812206
-4.9303417 -7.894403 -1.3541398
-5.0802803 -8.0244255 -1.3825524
-5.198873 -8.1012993 -1.40179
-5.2533379 -8.0767078 -1.4031218
-5.3381839 -8.0979891 -1.4127407
-5.4635987 -8.1785603 -1.4331622
-5.3611894 -7.9196806 -1.3924671
-5.4315038 -7.9184403 -1.3982384
-5.5070848 -7.9239426 -1.4053416
-5.5499067 -7.881917 -1.4038618
-5.6326308 -7.8960185 -1.4127407
-5.6798153 -7.8597054 -1.4124447
-5.6870356 -7.7688503 -1.402086
-6.3013673 -8.4979753 -1.5444447
-6.3545794 -8.4607325 -1.5447407
-6.4057751 -8.4207945 -1.5445927
-1.7220604 -2.2365587 -0.3838217
-1.7400106 -2.2314076 -0.38485757
-1.759802 -2.2284482 -0.3863374
-1.7771503 -2.2222412 -0.38722527
-1.7951113 -2.2166731 -0.38826117
-6.7734952 -8.2549944 -1.559243
-6.8183308 -8.2064314 -1.557911
-6.8742867 -8.1712513 -1.559243
-6.9364815 -8.1432209 -1.5620546
-6.9830871 -8.0967617 -1.5613147
-7.0300341 -8.0507832 -1.5607227
-7.0825763 -8.0112 -1.5614626
-7.1315985 -7.9675913 -1.5614626
-7.1856661 -7.9295449 -1.5626465
-7.2575889 -7.9108095 -1.5678259
-7.3039727 -7.863955 -1.567382
-7.3520875 -7.8189907 -1.567382
-7.4012895 -7.7751646 -1.5676779
-7.4529757 -7.7338772 -1.5685657
-7.5051246 -7.6929555 -1.5696017
-7.566782 -7.6615353 -1.5727093
-7.6346297 -7.6359415 -1.5771488
-7.6637492 -7.5715775 -1.5734491
-3.4904754 -3.4073169 -0.69132835
-3.4173207 -3.2952421 -0.67179471
-3.3579676 -3.1985171 -0.65536869
-7.8710318 -7.4035778 -1.5783325
-7.9141374 -7.3531232 -1.5778886
-3.5408838 -3.2505023 -0.68067366
-3.2830279 -2.9770021 -0.62458843
-3.3682876 -3.016829 -0.63805479
-3.5860379 -3.1723285 -0.67786199
-3.4311268 -2.9980371 -0.64323419
-3.4367268 -2.9659462 -0.64071846
-3.4443212 -2.9358239 -0.63864672
-3.7490809 -3.1559541 -0.69473195
-3.7957585 -3.1556454 -0.70005929
-3.8708591 -3.1780953 -0.71086198
-5.2533369 -4.258935 -0.97338206
-5.3450036 -4.2791476 -0.98596054
-5.3370185 -4.2192893 -0.97944933
-5.3643661 -4.1876798 -0.97974533
-5.4941525 -4.2349706 -0.9994269
-5.482254 -4.1724358 -0.99232376
-5.5093341 -4.1399064 -0.99261975
-5.5354266 -4.1066132 -0.99276775
-5.5166316 -4.0404377 -0.98462874
-5.6623526 -4.0939913 -1.006974
-5.7912226 -4.1332684 -1.0260637
-5.65799 -3.9860442 -0.99705923
-5.7879109 -4.0246344 -1.0162969
-5.7635655 -3.9554758 -1.0074179
-5.6534209 -3.8291035 -0.98314887
-5.740129 -3.8366492 -0.99454349
-5.6033797 -3.6957467 -0.96583498
-5.7478147 -3.7405727 -0.98758835
-5.675776 -3.644335 -0.97071838
-5.7147417 -3.6200223 -0.97367805
-5.6529665 -3.5324938 -0.95887983
-5.6425395 -3.4780271 -0.95325655
-5.7516708 -3.4967561 -0.96864665
-5.9537053 -3.5696931 -1.0001668
-5.9737935 -3.5320883 -0.99987084
-5.9261413 -3.4550312 -0.98788434
-6.0003953 -3.4491529 -0.99705923
-5.8364344 -3.3074679 -0.96524304
-5.8609362 -3.2740047 -0.96598297
-5.936367 -3.2684999 -0.97545385
-5.9015417 -3.202307 -0.96613097
-5.8713627 -3.1394629 -0.95769596
-5.9771471 -3.1489997 -0.97234619
-5.8883777 -3.0562451 -0.95414442
-6.0672989 -3.1019669 -0.98107713
-5.9227891 -2.9824216 -0.95370048
-6.0481968 -2.9991686 -0.97160631
-6.0273786 -2.9429154 -0.9650951
-6.2271752 -2.9932511 -0.99528342
-6.2436361 -2.9541399 -0.99498743
-6.3109589 -2.9387274 -1.0031265
-6.2749219 -2.8752394 -0.99424756
-6.280724 -2.8314011 -0.99232376
-5.8043113 -2.5739951 -0.91152561
-5.8789248 -2.5640204 -0.92114443
-6.2935987 -2.6989491 -0.98610854
-6.3720145 -2.6863968 -0.9961713
-6.3838091 -2.6453562 -0.99543142
-6.5739646 -2.676975 -1.023548
-6.660975 -2.6648626 -1.0349426
-6.6228895 -2.6026089 -1.0262116
-6.5575342 -2.5306025 -1.0131892
-6.4665756 -2.4500403 -0.9961713
-6.488903 -2.4130726 -0.99735516
-6.4942961 -2.3698235 -0.99587536
-6.5096459 -2.3302636 -0.99602336
-6.5462189 -2.298136 -0.9995749
-6.5751595 -2.2630732 -1.0019426
-6.6198483 -2.2331131 -1.006826
-6.6184006 -2.187489 -1.0044583
-6.6674547 -2.1584067 -1.0100816
-6.762598 -2.1434388 -1.022956
-6.7822351 -2.1039541 -1.0239919
-6.785553 -2.0594287 -1.0225121
-6.7857356 -2.0140982 -1.0205884
-6.8796544 -1.996111 -1.0333148
-6.8451476 -1.9406503 -1.0260637
-6.711091 -1.8582582 -1.0034224
-6.7997031 -1.8379349 -1.015409
-6.9361324 -1.8291951 -1.0347946
-6.9223213 -1.7802011 -1.0309471
-7.1576037 -1.7939194 -1.0655749
-7.3654428 -1.798018 -1.0959111
-7.3898077 -1.7559896 -1.097983
-7.767581 -1.7954183 -1.1543641
-8.0071478 -1.7990738 -1.1894358
-8.1861677 -1.7865782 -1.2151847
-8.2279377 -1.7428691 -1.2199202
-8.9834757 -1.8452811 -1.3337183
-9.3350964 -1.8578402 -1.3856601
-9.8250999 -1.8927003 -1.4586152
-10.334338 -1.9250528 -1.534382
-11.283319 -2.0301642 -1.6768886
-11.31895 -1.9649502 -1.6804402
-11.634159 -1.9461781 -1.7264626
-11.844098 -1.9066445 -1.756503
-12.302237 -1.9029843 -1.8241308
-12.957396 -1.922935 -1.9215029
-13.06295 -1.8567462 -1.9357092
-13.003537 -1.7669768 -1.9250544
-13.000403 -1.6853765 -1.9229827
-13.061541 -1.6118701 -1.9306778
-13.067256 -1.5312355 -1.9300859
-13.08132 -1.4515724 -1.9308258
-13.084079 -1.3706619 -1.9299378
-13.098148 -1.2909352 -1.9308258
-13.109762 -1.2109057 -1.9314177
-13.121872 -1.130867 -1.9321576
-13.147295 -1.0518284 -1.9349693
-13.155474 -0.97128373 -1.9352652
-13.157239 -0.89027828 -1.9346733
-13.148634 -0.80868149 -1.9326016
-13.148411 -0.7277149 -1.9318616
-13.170409 -0.64789718 -1.9345254
-13.166232 -0.5667333 -1.9333415
-13.160566 -0.48560876 -1.9320096
-13.152425 -0.40451443 -1.9303819
-13.155648 -0.32382929 -1.9305298
-13.159365 -0.24313803 -1.9308258
-13.13193 -0.16203777 -1.9265343
-13.130699 -0.081446625 -1.9262383
-13.185347 -0.00087544578 -1.9343773
-13.119832 0.079626404 -1.9246105
-13.124041 0.16018747 -1.9253504
-13.105012 0.24038398 -1.9226868
-13.100324 0.32071742 -1.9222429
-13.099098 0.40112382 -1.9223908
-13.101332 0.48167294 -1.9231308
-13.078368 0.56120241 -1.920171
-13.077642 0.64158481 -1.9206151
-13.073459 0.72181565 -1.9206151
-13.078655 0.80262601 -1.9220948
-13.069537 0.8825931 -1.9215029
-12.112476 -0.30619913 -1.9171792
-12.092412 -0.23145625 -1.9136732
-12.112361 -0.15749875 -1.9167011
-12.104214 -0.08311443 -1.9152668
-12.111406 -0.0088480841 -1.9163823
-12.100374 0.065407939 -1.9146293
-12.11159 0.13978954 -1.9165417
-12.095698 0.21384096 -1.9141512
-12.102055 0.28824255 -1.9154261
-12.125714 0.36326167 -1.9195696
-12.097606 0.43673167 -1.9154261
-12.081876 0.51041168 -1.9133544
-12.065698 0.58391511 -1.9112827
-12.036259 0.65654069 -1.9071392
-12.073391 0.73289239 -1.9138325
-12.059801 0.80636704 -1.9123982
-12.035919 0.87898386 -1.9093703
-12.057855 0.95499986 -1.9138325
-12.042915 1.028212 -1.9123982
-12.0177 1.1003768 -1.9093703
-12.014652 1.1744794 -1.9100078
-11.996419 1.2470554 -1.9082547
-11.983635 1.3201002 -1.9074579
-11.99296 1.3956591 -1.9103265
-11.983191 1.4691001 -1.9101671
-11.95241 1.5398256 -1.9066612
-11.92317 1.6104929 -1.9034739
-11.923817 1.6851411 -1.9052268
-11.895673 1.7556785 -1.9023583
-11.868089 1.8260843 -1.8996491
-11.867383 1.900588 -1.9014021
-11.811676 1.9660764 -1.8942307
-11.813009 2.0408669 -1.8964618
-11.843022 2.1209676 -1.9034739
-11.800665 2.1881964 -1.898693
-11.777321 2.2587037 -1.8970993
-11.789387 2.3361056 -1.9014021
-11.727437 2.3987079 -1.8935933
-11.67386 2.462472 -1.8872187
-11.727989 2.5491498 -1.898693
-11.711164 2.6208477 -1.8985336
-11.696786 2.6930997 -1.8988522
-11.6493 2.7575433 -1.8937526
-11.634079 2.8294368 -1.8940713
-11.613626 2.9000514 -1.8935933
-11.613783 2.9759119 -1.8966212
-11.523693 3.0283008 -1.8846688
-11.531586 3.1061404 -1.8891311
-11.542763 3.1852407 -1.8942307
-11.49355 3.2476852 -1.8892905
-11.478148 3.3195183 -1.8900872
-11.431058 3.3820431 -1.885625
-11.427099 3.4572644 -1.8884935
-11.41133 3.5290644 -1.8894498
-11.408288 3.6049652 -1.892637
-11.362466 3.6673174 -1.8886529
-11.322873 3.731406 -1.8857844
-11.302571 3.8017557 -1.8862625
-11.2837 3.8726375 -1.8870593
-11.24109 3.9352767 -1.883872
-11.204645 3.9998624 -1.8818003
-11.20494 4.077652 -1.8861032
-11.185263 4.148387 -1.8870593
-11.139281 4.2092638 -1.8835533
-11.181423 4.3037739 -1.8953463
-11.136422 4.3650961 -1.892159
-11.132352 4.4424925 -1.8961431
-11.070127 4.4965987 -1.8900872
-10.998534 4.5463386 -1.8824377
-10.969522 4.6133561 -1.8822784
-10.932838 4.6770825 -1.8808441
-10.898503 4.7417145 -1.8798879
-10.877329 4.8120914 -1.8813221
-10.858402 4.8836017 -1.8832346
-10.798603 4.9365916 -1.8779756
-10.773481 5.0052533 -1.8789318
-10.741674 5.0708423 -1.8787724
-10.705017 5.1340952 -1.8778162
-10.615624 5.1715817 -1.8674575
-10.615547 5.2523804 -1.8731946
-10.535483 5.2934852 -1.864589
-10.550293 5.3822541 -1.8731946
-10.530219 5.4536977 -1.8755851
-10.478207 5.5085611 -1.8722384
-10.428532 5.5643859 -1.8693699
-10.395061 5.6287394 -1.8695292
-10.380228 5.7033496 -1.8731946
-10.355386 5.7727017 -1.875107
-10.310317 5.8307872 -1.873354
-10.284622 5.8998351 -1.8752663
-10.239695 5.9578648 -1.8736727
-10.215699 6.0281072 -1.8760632
-10.193768 6.0998001 -1.8789318
-10.175561 6.1740108 -1.8825971
-10.132441 6.2332273 -1.8816409
-10.091491 6.293714 -1.8811629
-10.061028 6.3607912 -1.8827565
-10.036771 6.4319921 -1.885625
-9.9772463 6.4805498 -1.8818003
-9.937294 6.5416474 -1.8818003
-9.9421377 6.6326294 -1.8905653
-9.8660851 6.669735 -1.8837126
-9.8673267 6.7591562 -1.8919996
-9.8645973 6.8465915 -1.8996491
-9.8191719 6.9047194 -1.8990116
-9.7742081 6.9631205 -1.8985336
-9.7761297 7.0553141 -1.9074579
-9.7382336 7.1192446 -1.9085735
-9.7015085 7.1841507 -1.9100078
-9.6643524 7.2488737 -1.911442
-9.6118307 7.3020649 -1.9098485
-9.556674 7.3530788 -1.9077767
-9.5316229 7.4273548 -1.9119202
-9.4649458 7.4691887 -1.9076173
-9.4436169 7.546845 -1.912717
-9.4232254 7.625762 -1.9181354
-9.3571663 7.6677957 -1.9141512
-9.3684425 7.7736049 -1.9264224
-9.29109 7.8061762 -1.9202071
-9.2558002 7.8739123 -1.9229163
-9.2297535 7.9498844 -1.9276972
-9.167407 7.994688 -1.9248286
-9.1270609 8.0586281 -1.926741
-9.1017313 8.1361904 -1.932
-9.0640812 8.203146 -1.9347092
-8.9502487 8.2005873 -1.9208446
-8.9026575 8.2580366 -1.921482
-8.8935604 8.3517017 -1.9307251
-8.8378553 8.4020329 -1.9297689
-8.8337936 8.5019684 -1.9404464
-8.7913599 8.5656567 -1.9426775
-8.7470703 8.6277571 -1.9445899
-8.6820908 8.6694069 -1.9418806
-8.6301212 8.7239199 -1.9421993
-8.5826397 8.7830639 -1.9436337
-8.5470991 8.8547382 -1.9479365
-8.4966936 8.9113016 -1.9488927
-8.4472704 8.969018 -1.9501675
-8.4014931 9.0307999 -1.9523987
-8.3559427 9.0930834 -1.9547892
-8.3205614 9.1668434 -1.9597294
-8.2634983 9.2169905 -1.9595701
-8.2074432 9.26826 -1.9597294
-8.1569195 9.3258753 -1.9613231
-8.1072884 9.3847141 -1.9632355
-8.0405807 9.423769 -1.9610044
-7.9794254 9.4691534 -1.9602076
-7.9154897 9.5111074 -1.9587733
-7.8782954 9.5854263 -1.9641917
-7.8205762 9.6351194 -1.9645103
-7.7650137 9.6875458 -1.9654665
-7.716455 9.7489424 -1.9683352
-7.6996565 9.8513298 -1.97965
-7.6378589 9.8968258 -1.9793313
-7.5763907 9.9427195 -1.9791719
-7.507525 9.9787645 -1.9771001
-7.4485097 10.027812 -1.9777377
-7.3693256 10.049444 -1.9729567
-7.3237343 10.116862 -1.9774189
-7.2752967 10.180886 -1.9812436
-7.2104144 10.222108 -1.9806062
-7.1486855 10.267778 -1.9809248
-7.0900221 10.317958 -1.9821998
-7.0310116 10.367804 -1.9834747
-6.9689112 10.413211 -1.9839528
-6.9070616 10.45907 -1.9845903
-6.8486848 10.510352 -1.9863433
-6.7845998 10.553008 -1.9865026
-6.7244792 10.601941 -1.987937
-6.6629658 10.648861 -1.9890524
-6.5938706 10.683663 -1.987937
-6.5297327 10.726451 -1.988415
-6.4648099 10.768007 -1.9887338
-6.4026408 10.814268 -1.9900087
-6.3306899 10.843972 -1.9882556
-6.2600932 10.875768 -1.9869808
-6.187396 10.903671 -1.9850683
-6.1218214 10.944016 -1.9855465
-6.0559855 10.983966 -1.9860245
-5.996017 11.034797 -1.9885744
-5.9328561 11.080083 -1.990168
-5.868444 11.123262 -1.9914429
-5.7946181 11.14855 -1.9895306
-5.7144046 11.161048 -1.9853871
-5.6698194 11.243501 -1.9939928
-5.6033583 11.283383 -1.994949
-5.5266466 11.302476 -1.9922397
-5.4584765 11.338842 -1.9927179
-5.3862634 11.366769 -1.9917617
-5.3281012 11.424656 -1.9962238
-5.2690187 11.481359 -2.0005267
-5.1972523 11.510774 -2.0000486
-5.1249228 11.538837 -1.9994111
-5.0552111 11.57278 -1.9998893
-4.9848857 11.605394 -2.0002079
-4.9043651 11.613936 -1.9963832
-4.8504214 11.685752 -2.0037141
-4.7763901 11.709809 -2.0027578
-4.7132649 11.760889 -2.0065825
-4.6467986 11.804285 -2.0091324
-4.5967097 11.890585 -2.0191724
-4.5254154 11.923182 -2.0199692
-4.4473457 11.937773 -2.0177381
-4.3685894 11.950002 -2.0151882
-4.297183 11.982157 -2.0161445
-4.2334085 12.036237 -2.0209253
-4.1601195 12.063852 -2.021244
-4.0910769 12.104115 -2.0237939
-4.0167303 12.12899 -2.0237939
-3.9489348 12.174067 -2.0272999
-3.8747594 12.199949 -2.0276186
-3.8097939 12.255548 -2.0330369
-3.740844 12.299472 -2.0365431
-3.6655869 12.32314 -2.0367024
-3.5959697 12.366254 -2.0402083
-3.5273104 12.413726 -2.0445113
-3.452131 12.43894 -2.0451486
-3.3775494 12.466558 -2.0462642
-3.3062916 12.507091 -2.0496109
-3.2388532 12.563468 -2.0556667
-3.1641104 12.59268 -2.0572603
-3.0945296 12.643501 -2.0625193
-3.0001872 12.592147 -2.0508859
-2.9384725 12.677639 -2.0620413
-2.8556368 12.67328 -2.0583758
-2.7852106 12.724316 -2.0639536
-2.7021585 12.717991 -2.0601289
-2.6318431 12.77204 -2.0663443
-2.5830061 12.936069 -2.0907269
-2.4786601 12.822761 -2.0695314
-2.4039264 12.859077 -2.0730374
-2.3260322 12.879415 -2.0739937
-2.2474704 12.896361 -2.0744717
-2.1645358 12.887517 -2.0708063
-2.0928247 12.94636 -2.0782964
-2.0138025 12.961884 -2.0787747
-1.9339409 12.972044 -2.0784559
-1.8617086 13.035462 -2.0869021
-1.7707337 12.966434 -2.0738342
-1.6954783 13.010338 -2.0792527
-1.6154948 13.019517 -2.0790932
-1.5380054 13.049773 -2.0824399
-1.4590001 13.068776 -2.0840335
-1.374539 13.03723 -2.0774996
-1.2977362 13.077837 -2.0827587
-1.2206696 13.119958 -2.0883365
-1.1393751 13.118349 -2.0869021
-1.0572727 13.105412 -2.083715
-0.97639918 13.105746 -2.0827587
-0.89300275 13.068154 -2.0757465
-0.81286252 13.074372 -2.075906
-0.73273486 13.081085 -2.0762248
-0.65275222 13.091251 -2.0771809
-0.57297438 13.107832 -2.0792527
-0.49342561 13.134777 -2.0830774
-0.41397119 13.174067 -2.088974
-0.33310387 13.175372 -2.0888145
-0.25225502 13.177168 -2.0888145
-0.17103638 13.150827 -2.0843523
-0.090409309 13.161501 -2.0859461
-0.0096426131 13.151937 -2.0843523
0.071146496 13.16853 -2.0870614
0.15185484 13.159948 -2.0857866
0.23289602 13.17555 -2.0884957
0.31350055 13.164002 -2.0869021
0.39400169 13.15295 -2.0854678
0.473952 13.129567 -2.0821211
0.55233949 13.075122 -2.0738342
0.63379639 13.097124 -2.0779777
0.71360958 13.083132 -2.0763841
0.79267704 13.058799 -2.0731969
0.87351352 13.064524 -2.0749497
0.95215017 13.038241 -2.0716033
1.0336137 13.050853 -2.0746312
1.1090555 12.990165 -2.065866
1.1865813 12.95952 -2.0620413
1.2644447 12.935292 -2.0593321
1.3449129 12.938091 -2.0610852
1.4276242 12.960016 -2.0660255
0 0 -0
1.5837938 12.918983 -2.06236
1.6639161 12.915876 -2.0634756
1.7362652 12.854549 -2.0551887
1.8182832 12.866137 -2.0588541
1.9006526 12.878178 -2.0626788
1.9776846 12.853588 -2.060607
2.0627589 12.880203 -2.0669816
2.1386724 12.848802 -2.0639536
2.2226799 12.865594 -2.0688939
2.3014059 12.850742 -2.0687346
2.3760741 12.814054 -2.0650692
2.4498212 12.774024 -2.0609257
2.5233586 12.734542 -2.0569417
2.6012509 12.717853 -2.0567822
2.6680324 12.648523 -2.0480173
2.742028 12.615515 -2.0453081
2.806881 12.542576 -2.0360649
2.8806872 12.511648 -2.0338337
2.9580851 12.496619 -2.034312
3.0494027 12.538667 -2.0443518
3.124368 12.512057 -2.043077
3.2250934 12.586371 -2.0586946
3.2887137 12.514786 -2.0500889
3.3592794 12.471494 -2.0462642
3.4357398 12.450646 -2.0462642
3.4946241 12.367579 -2.0359056
3.5800426 12.379096 -2.0414834
3.6433296 12.314297 -2.034312
3.7256806 12.314388 -2.0381367
3.7967956 12.277148 -2.0357461
3.8693783 12.245149 -2.034312
3.9456532 12.224934 -2.0349493
4.0264597 12.218308 -2.0379772
4.0796394 12.128808 -2.0269811
4.1549449 12.106349 -2.0274594
4.2311068 12.086218 -2.0284154
4.3005409 12.047011 -2.0261843
4.3696527 12.007409 -2.0239532
4.4473658 11.991479 -2.0258656
4.5246987 11.974123 -2.0276186
4.595603 11.939686 -2.0265031
4.6662555 11.904829 -2.0253875
4.7366533 11.869555 -2.024272
4.8138523 11.851243 -2.0261843
4.8796916 11.80506 -2.0233159
4.947825 11.764887 -2.0215628
5.0055537 11.700723 -2.0156662
5.0748911 11.664357 -2.0147102
5.1248002 11.584246 -2.0061045
5.1961884 11.553483 -2.0062637
5.2398934 11.462123 -1.9957458
5.3288417 11.470046 -2.0029171
5.401649 11.44249 -2.0038733
5.4781599 11.422482 -2.0062637
5.5360389 11.363804 -2.0018017
5.589026 11.295997 -1.9957458
5.6569023 11.258844 -1.9952676
5.7312617 11.234475 -1.9971801
5.7900996 11.179811 -1.993674
5.8682351 11.162424 -1.9970207
5.9198866 11.094851 -1.9912835
5.9869118 11.056581 -1.9909649
6.042757 10.998008 -1.9869808
6.1158938 10.97107 -1.9888932
6.1719193 10.913573 -1.9852277
6.2333641 10.866077 -1.9834747
6.2974377 10.823359 -1.9826779
6.3426595 10.748805 -1.9759846
6.3973417 10.691047 -1.9724786
6.4694777 10.662565 -1.9745504
6.5332284 10.620146 -1.9740722
6.5967021 10.577346 -1.9735942
6.6730847 10.555028 -1.9771001
6.7323971 10.505571 -1.9755065
6.771996 10.425981 -1.9681758
6.8304133 10.375986 -1.9665821
6.8786111 10.310884 -1.9621199
6.9317966 10.253762 -1.9592514
6.9945817 10.211037 -1.9592514
7.0464091 10.152516 -1.9562234
7.1108427 10.11232 -1.9568609
7.1618743 10.053221 -1.953833
7.2222691 10.007486 -1.9535142
7.2870336 9.9677649 -1.9544704
7.3374829 9.9085836 -1.9516019
7.3821497 9.8420515 -1.947299
7.4513578 9.808362 -1.9496895
7.5029726 9.751502 -1.9474584
7.5584183 9.6998301 -1.9463428
7.6153469 9.6501694 -1.9457054
7.6602411 9.5855227 -1.94204
7.7083554 9.5252934 -1.9393308
7.7610254 9.4709444 -1.9378965
7.8259258 9.4315023 -1.9396496
7.8690438 9.365921 -1.9359841
7.9065347 9.2941504 -1.9310439
7.9653463 9.2477055 -1.931522
7.994688 9.167407 -1.9248286
8.0390272 9.1048584 -1.9219601
8.0809259 9.0399036 -1.9186134
8.132267 8.9857588 -1.9176573
8.1765795 8.9240437 -1.9151075
8.2217836 8.8635721 -1.9128764
8.2773657 8.8143969 -1.913195
8.3380957 8.7705975 -1.9147887
8.3910694 8.7185593 -1.9146293
8.4333858 8.6555948 -1.9120796
8.4710855 8.5882225 -1.9085735
8.5006037 8.5130291 -1.9033145
8.5498714 8.4579325 -1.9026771
8.5641861 8.3687429 -1.8942307
8.5990381 8.3002672 -1.8905653
8.6362305 8.2344036 -1.8875374
8.6865931 8.1812572 -1.8875374
8.7301245 8.1217518 -1.8861032
8.779067 8.0673637 -1.8859438
8.8247471 8.0100269 -1.885147
8.8627043 7.9458427 -1.8827565
8.9053793 7.8860765 -1.8814815
8.9588013 7.8358355 -1.8825971
9.0037251 7.7781363 -1.8819597
9.0257473 7.7009568 -1.8765413
9.0660353 7.6397052 -1.875107
9.1081886 7.5801444 -1.8741508
9.1423254 7.5140848 -1.871601
9.1575994 7.43296 -1.8652264
9.199954 7.3741603 -1.864589
9.2125168 7.2918372 -1.8578956
9.246974 7.2272696 -1.8558239
9.3184986 7.1915064 -1.8614017
9.3357525 7.1138492 -1.8559833
9.3902702 7.0647416 -1.8582144
9.4041204 6.9852095 -1.8523179
9.4452114 6.9262075 -1.8519992
9.473938 6.8582811 -1.84929
9.5078087 6.794281 -1.8476963
9.5396385 6.7289853 -1.8457839
9.5742655 6.6658115 -1.844509
9.6068497 6.6013484 -1.8429154
9.6479912 6.5428319 -1.8430748
9.6756496 6.4752731 -1.8406843
9.690485 6.3994608 -1.8359034
9.7163363 6.3312569 -1.8333535
9.7475271 6.2667146 -1.8319193
9.8291454 6.2342844 -1.8402063
9.8688869 6.1749039 -1.8405249
9.9191914 6.1220112 -1.8429154
9.9160929 6.0363913 -1.8352659
9.988492 5.9967771 -1.8419592
10.025949 5.9358792 -1.8421186
10.070708 5.8792267 -1.8437122
10.112582 5.8207712 -1.8448278
10.150682 5.7600737 -1.8453059
10.169465 5.6885242 -1.842278
10.218874 5.6341219 -1.8449872
10.254987 5.5722566 -1.8453059
10.266357 5.4971113 -1.8411624
10.308625 5.4386215 -1.842756
10.346181 5.3775434 -1.8435528
10.344712 5.2964115 -1.8373376
10.417563 5.2532868 -1.8446684
10.461979 5.1954145 -1.8468995
10.483906 5.1263528 -1.8451465
10.553411 5.0803423 -1.8519992
10.549593 4.9990044 -1.8457839
10.585436 4.9366827 -1.8467401
10.61463 4.8712268 -1.8465807
10.64072 4.8043799 -1.8459433
10.67812 4.7426062 -1.8473777
10.707018 4.6769972 -1.8473777
10.745492 4.6154981 -1.8491306
10.812716 4.5659933 -1.8559833
10.82047 4.4912353 -1.8524773
10.85605 4.4281135 -1.8539115
10.889431 4.3639894 -1.8550271
10.903143 4.292028 -1.852796
10.900728 4.2140107 -1.8478557
10.98268 4.168417 -1.857577
10.991399 4.0947456 -1.8547083
11.017244 4.027566 -1.8548677
11.031528 3.9562232 -1.8531147
11.090983 3.9009087 -1.8591706
11.136175 3.8401852 -1.862836
11.118379 3.7578728 -1.8558239
11.169342 3.6988926 -1.8606049
11.173047 3.6241965 -1.8574176
11.188488 3.5534799 -1.856302
11.20631 3.4835892 -1.8556645
11.260531 3.4248185 -1.8612423
11.265247 3.3508751 -1.8585331
11.324462 3.2929928 -1.865067
11.315966 3.2153494 -1.8602861
11.344994 3.1484959 -1.8618797
11.325985 3.0684974 -1.8555052
11.396138 3.0125709 -1.8641108
11.403893 2.9398775 -1.8623579
11.434164 2.8729773 -1.8644296
11.451577 2.8027644 -1.8644296
11.475282 2.7340479 -1.8655452
11.523578 2.6709425 -1.8708042
11.530119 2.5980146 -1.8692105
11.51209 2.5198288 -1.8636328
11.555339 2.4550953 -1.8682543
11.610795 2.3925164 -1.8749477
11.615576 2.3192954 -1.873354
11.646066 2.2511656 -1.8760632
11.663541 2.1803901 -1.8767006
11.693215 2.1117661 -1.8794098
11.6972 2.0384526 -1.8779756
11.70754 1.9663144 -1.8776568
11.73985 1.8977503 -1.8810035
11.710302 1.8193134 -1.8743101
6.0433407 0.90075713 -0.94760674
0 0 -0
0 0 -0
5.9267402 0.77213997 -0.92609257
5.9078536 0.73284137 -0.92226785
5.8955712 0.6946128 -0.91955864
0 0 -0
0 0 -0
0 0 -0
0 0 -0
0 0 -0
0 0 -0
0 0 -0
0 0 -0
0 0 -0
0 0 -0
0 0 -0
0 0 -0
0 0 -0
0 0 -0
0 0 -0
0 0 -0
0 0 -0
0 0 -0
0 0 -0
0 -0 -0
0 -0 -0
0 -0 -0
0 -0 -0
0 -0 -0
0 -0 -0
0 -0 -0
0 -0 -0
0 -0 -0
0 -0 -0
5.9536462 -0.39828783 -0.92449892
5.9638901 -0.43574554 -0.92657065
5.9748821 -0.47342187 -0.92880177
5.9807177 -0.51082969 -0.93023604
0 -0 -0
6.062427 -0.59282511 -0.94457883
10.383104 -1.0794017 -1.6464192
10.238906 -1.1279619 -1.6241082
10.361232 -1.2058244 -1.6451443
10.356578 -1.2697374 -1.6456224
10.409298 -1.3410789 -1.655503
10.390112 -1.4034706 -1.6537499
10.365664 -1.4649869 -1.6512002
10.336947 -1.5256797 -1.6480129
10.309828 -1.5863755 -1.6451443
10.284303 -1.6471082 -1.6425945
10.277899 -1.7108288 -1.643232
10.261371 -1.7728523 -1.6422757
10.240582 -1.8340416 -1.6406821
10.211663 -1.8936027 -1.6378136
10.191126 -1.9545515 -1.6363792
10.172162 -2.0157032 -1.6352637
10.151865 -2.0764983 -1.6339889
10.129273 -2.1367126 -1.6323951
10.10922 -2.1973567 -1.6312796
8.3354187 -1.8655062 -1.340121
10.069948 -2.3185892 -1.6293672
10.069942 -2.3837442 -1.6317577
10.0628 -2.4473536 -1.6330327
10.059088 -2.5119214 -1.634945
10.041574 -2.5731053 -1.6346263
7.4533372 -1.9588017 -1.2052988
10.000662 -2.6938267 -1.6331919
9.9982195 -2.7590775 -1.6355824
9.9915524 -2.8233261 -1.6373354
9.9863691 -2.888145 -1.6394072
9.9675131 -2.9490857 -1.6392478
7.9951172 -2.419045 -1.3096825
7.9376817 -2.4549325 -1.3025111
7.9215279 -2.5032935 -1.3023517
7.9060187 -2.551852 -1.3023517
8.7059498 -2.869107 -1.4409987
9.8082333 -3.2991729 -1.6317577
9.7794008 -3.3564088 -1.6303234
9.7511683 -3.4137416 -1.6290485
9.7253895 -3.4718502 -1.6282517
9.7141085 -3.535172 -1.6300046
7.6558657 -2.83954 -1.2794032
9.6035032 -3.6289897 -1.6185305
9.5828981 -3.6885564 -1.6188492
9.5159655 -3.7299953 -1.6111997
9.4653921 -3.7773378 -1.6064187
9.4941721 -3.8565202 -1.6155026
9.479454 -3.9184737 -1.6170962
9.5307646 -4.008328 -1.6303234
9.5123444 -4.0694499 -1.631439
9.487196 -4.1277399 -1.631439
9.4815521 -4.1946607 -1.634945
9.434927 -4.2434468 -1.6312796
9.3736954 -4.2852521 -1.6250644
9.3552828 -4.3464303 -1.6264987
9.2829075 -4.3822598 -1.6183711
9.2371502 -4.4301715 -1.6150244
9.1991434 -4.4815784 -1.6131121
9.1528893 -4.5287457 -1.6097654
9.1064043 -4.5755143 -1.6064187
9.0834341 -4.6339955 -1.607375
9.0408039 -4.6823797 -1.6048251
9.0092812 -4.7363868 -1.604347
8.9783077 -4.790648 -1.6040283
8.9357214 -4.8385973 -1.6016378
8.9075947 -4.8942852 -1.6019566
8.8679113 -4.943562 -1.6002036
8.8374109 -4.9978814 -1.6002036
8.7706118 -5.0313821 -1.5935103
8.7438412 -5.087585 -1.5943071
8.6827011 -5.1235814 -1.5887294
8.6155195 -5.1554718 -1.582036
8.597229 -5.2164321 -1.5845859
8.5389929 -5.2530508 -1.5796456
8.5149765 -5.3105702 -1.5812392
8.4663763 -5.352694 -1.5782113
8.4583101 -5.4205213 -1.5829922
8.4025364 -5.4577999 -1.5786893
8.3458014 -5.4940557 -1.5742272
8.3250732 -5.5539265 -1.576777
8.3472729 -5.6430521 -1.5877732
8.2440739 -5.6473017 -1.5743866
8.1849365 -5.6808939 -1.5696056
8.1458874 -5.7281699 -1.5688088
8.0945053 -5.7665887 -1.5656215
8.0829859 -5.833478 -1.5704025
8.0438519 -5.8806343 -1.569765
8.0052376 -5.9281173 -1.5692869
