# .PCD v0.7 - Point Cloud Data file format
VERSION 0.7
FIELDS x y z
SIZE 4 4 4
TYPE F F F
COUNT 1 1 1
WIDTH 1515
HEIGHT 1
VIEWPOINT 0 0 0 1 0 0 0
POINTS 1515
DATA ascii
-3.1759229 -2.2407045 -1.0672346
-3.1982923 -2.2272215 -1.07025
-3.1928782 -2.1944799 -1.063671
-3.1760421 -2.15433 -1.0532541
-3.1588347 -2.1144702 -1.0428374
-3.1853898 -2.1040602 -1.0474975
-3.2336876 -2.107584 -1.0595591
-3.2328084 -2.0788586 -1.054899
-3.2649913 -2.0713499 -1.061478
-3.291497 -2.0599518 -1.0661381
-3.3548074 -2.071043 -1.0831341
-3.3822362 -2.0594234 -1.0880682
-3.3972824 -2.0401173 -1.0888907
-3.443661 -2.0393283 -1.1001298
-3.3971491 -1.9837229 -1.0806669
-3.3884225 -1.950843 -1.0738137
-3.4036741 -1.9319144 -1.0749102
-3.4137857 -1.9100542 -1.0743619
-3.4245992 -1.8886071 -1.0740879
-3.4428823 -1.8712333 -1.0762808
-3.4704056 -1.8587015 -1.0814892
-3.4868481 -1.8400661 -1.0831341
-3.5074582 -1.8235172 -1.0861495
-3.5707927 -1.8287072 -1.1028712
-3.6248763 -1.8284225 -1.1165775
-3.6411946 -1.8087138 -1.1182222
-3.6738205 -1.7969034 -1.1250755
-3.6882427 -1.7759967 -1.1261719
-3.6990705 -1.7533326 -1.1261719
-3.7402611 -1.7448354 -1.1357664
-3.8015866 -1.745128 -1.1516658
-3.863055 -1.7447329 -1.1675651
-3.957176 -1.7580982 -1.1936072
-4.0154738 -1.7545822 -1.20841
-5.2825723 -2.2698846 -1.5982188
-4.0995994 -1.7317493 -1.2278731
-4.1998506 -1.7438166 -1.2555599
-4.2825928 -1.7474495 -1.2777642
-4.3173347 -1.7308033 -1.2851657
-4.3439794 -1.710624 -1.2901
-4.373229 -1.6912236 -1.2958566
-4.3889184 -1.6664068 -1.2975013
-4.4224896 -1.6481794 -1.3046287
-4.5282545 -1.6560329 -1.3336861
-4.6469512 -1.667197 -1.3665814
-4.7414584 -1.668345 -1.3920752
-4.8361511 -1.6683948 -1.417569
-5.016654 -1.6963073 -1.4688308
-5.1730275 -1.7138973 -1.5126911
-5.231926 -1.6978605 -1.5272199
-5.3513107 -1.7003903 -1.559841
-5.575604 -1.734084 -1.6237125
-5.6974616 -1.7337235 -1.6568819
-5.7835736 -1.7212309 -1.6793604
-5.8660502 -1.706671 -1.7007422
-5.9615135 -1.6948457 -1.725962
-6.0172048 -1.6708455 -1.7393942
-6.0876751 -1.6502521 -1.7572125
-6.1599765 -1.629348 -1.775579
-6.358891 -1.6402944 -1.8312268
-6.5805483 -1.6544884 -1.8934536
-6.69239 -1.6390213 -1.9233335
-6.733191 -1.6052884 -1.9323797
-6.7597771 -1.5678563 -1.9373139
-6.7908468 -1.531216 -1.9436189
-6.8132663 -1.492401 -1.9474567
-6.8345237 -1.4531683 -1.9510204
-6.8386021 -1.4102336 -1.9496497
-6.8329806 -1.3654187 -1.9455378
-6.7893004 -1.3134174 -1.9304608
-6.7887239 -1.2701421 -1.9279937
-6.7803016 -1.2255545 -1.9233335
-6.7933784 -1.1849201 -1.9249783
-6.8375077 -1.1494343 -1.9356692
-6.855824 -1.1093025 -1.9389588
-6.8453965 -1.064554 -1.9340245
-6.8498974 -1.0222474 -1.9334762
-6.8522329 -0.9796533 -1.9323797
-6.8600206 -0.93785101 -1.932928
-6.8665996 -0.89586556 -1.933202
-6.879602 -0.85466492 -1.9353951
-6.8866267 -0.81266195 -1.9359434
-6.875236 -0.76857382 -1.9312831
-6.8807788 -0.72647476 -1.9315573
-6.8908486 -0.68481237 -1.933202
-6.8872604 -0.64180374 -1.9310091
-6.902566 -0.60053313 -1.9342985
-6.8965349 -0.55739319 -1.9315573
-6.9055796 -0.51549619 -1.933202
-6.892302 -0.47199675 -1.9285419
-6.9133053 -0.43083507 -1.9337503
-6.9283009 -0.38910949 -1.9373139
-6.9392023 -0.3470237 -1.9397811
-6.9383187 -0.30431244 -1.9389588
-6.9419775 -0.26180658 -1.939507
-6.9453754 -0.21926729 -1.9400553
-6.5966506 0.48442182 -1.9259479
-6.6097975 0.52618492 -1.9307932
-6.6054893 0.56664985 -1.9305083
-6.6095238 0.60787332 -1.9327884
-6.602808 0.64813572 -1.9319333
-6.6015668 0.68893659 -1.9327884
-6.6000733 0.72974658 -1.9336435
-6.5830951 0.76878262 -1.9299382
-6.5696921 0.80810654 -1.9273731
-6.5570049 0.84741801 -1.9250928
-6.5288863 0.88454258 -1.9182523
-6.5337749 0.92606795 -1.9213876
-6.5146956 0.96417397 -1.9173973
-6.5332861 1.0079335 -1.9248078
-6.5354962 1.0493711 -1.9273731
-6.5327158 1.0900841 -1.9285131
-6.4928489 1.1244172 -1.9185374
-6.4848843 1.1640658 -1.9182523
-6.4851584 1.2052368 -1.9205326
-6.4785824 1.2451874 -1.9208175
-6.4830418 1.2873449 -1.9245228
-6.4806547 1.3282557 -1.9262329
-6.4780092 1.3691854 -1.927943
-6.4629302 1.407479 -1.9259479
-6.4653955 1.4496268 -1.9293681
-6.4582472 1.4897016 -1.9299382
-6.4303327 1.524874 -1.9242377
-6.4217863 1.5645281 -1.9245228
-6.4027672 1.6015744 -1.9216726
-6.3816791 1.6379694 -1.9182523
-6.3965349 1.6836879 -1.9259479
-6.374979 1.7199066 -1.9225277
-6.356915 1.7569463 -1.9202476
-6.3432484 1.795135 -1.9193925
-6.3256698 1.8321549 -1.9173973
-6.3418779 1.8791081 -1.9259479
-6.3247252 1.9163171 -1.9242377
-6.3146787 1.9556563 -1.9248078
-6.2979913 1.9929188 -1.9233828
-6.2838202 2.0309353 -1.9228127
-6.2694201 2.0688527 -1.9222426
-6.2620578 2.1091189 -1.9239528
-6.2453728 2.1462557 -1.9228127
-6.2103777 2.1769226 -1.9159722
-6.2284927 2.226285 -1.9259479
-6.1750913 2.2500148 -1.9134071
-6.1225333 2.2735074 -1.9011512
-6.1012964 2.3083172 -1.8988711
-6.1397843 2.3660555 -1.9156872
-6.124259 2.4033337 -1.9154022
-6.1138473 2.4426451 -1.9168273
-6.0765481 2.471082 -1.9097018
-6.0665851 2.5105207 -1.9114119
-6.0546002 2.5491855 -1.912552
-6.0397258 2.5866654 -1.912837
-6.0096807 2.6175492 -1.9082767
-5.9952598 2.6551511 -1.9088467
-5.9736114 2.6895254 -1.9071367
-5.9543815 2.7249312 -1.9062816
-5.9584069 2.7711201 -1.9131221
-5.9300265 2.8023019 -1.9094168
-5.9023519 2.8336551 -1.9059966
-5.8796849 2.8672962 -1.9042864
-5.8628397 2.9037449 -1.9045714
-5.8723121 2.9534507 -1.9136921
-5.8523722 2.9885547 -1.9131221
-5.8517933 3.0336752 -1.9191074
-5.8144093 3.0597007 -1.912837
-5.7938352 3.0944161 -1.912267
-5.7781096 3.1317358 -1.9134071
-5.7579451 3.1666687 -1.9131221
-5.7367325 3.2010047 -1.912552
-5.7103109 3.2323658 -1.9102719
-5.6787338 3.2606587 -1.9062816
-5.676012 3.3055744 -1.912267
-5.659749 3.3427775 -1.9136921
-5.6424203 3.3794127 -1.9148321
-5.6256742 3.4164588 -1.9162573
-5.5882831 3.4408588 -1.9105569
-5.5768213 3.4811757 -1.9139771
-5.5213408 3.4937961 -1.9020063
-5.5151272 3.5374439 -1.9074216
-5.4965324 3.5733078 -1.9085617
-5.468101 3.6027465 -1.9062816
-5.4339361 3.6282444 -1.9020063
-5.4163342 3.6647418 -1.9037164
-5.3858409 3.6924853 -1.9008662
-5.3685927 3.7292917 -1.9028614
-5.3495278 3.7649214 -1.9042864
-5.3271065 3.7982314 -1.9045714
-5.3021469 3.8297236 -1.9040014
-5.2793217 3.862751 -1.9042864
-5.2670708 3.9036345 -1.9085617
-5.2276897 3.9243677 -1.9028614
-5.2103782 3.9615927 -1.9054265
-5.2049561 4.008112 -1.912552
-5.1840434 4.0429215 -1.9139771
-5.1471052 4.0651464 -1.9094168
-5.1198196 4.0948558 -1.9085617
-5.0841713 4.1177454 -1.9045714
-5.0751123 4.1622391 -1.9108418
-5.0620117 4.2037139 -1.9156872
-5.0309882 4.2303753 -1.9136921
-4.9866934 4.2456279 -1.9065666
-4.9620004 4.2773976 -1.9071367
-4.9407158 4.3121762 -1.9091318
-4.8983641 4.3284445 -1.9028614
-4.8488574 4.3379636 -1.8937408
-4.8491406 4.3920903 -1.9045714
-4.8072667 4.408155 -1.898586
-4.7885566 4.4453959 -1.9020063
-4.7618885 4.4753509 -1.9022913
-4.733644 4.5038238 -1.9020063
-4.7086811 4.5354447 -1.9031464
-4.6787052 4.5622435 -1.9022913
-4.6519876 4.5922122 -1.9028614
-4.6216893 4.6186371 -1.9020063
-4.6080842 4.6619081 -1.9082767
-4.5686803 4.6791201 -1.9037164
-4.5458713 4.7132754 -1.9062816
-4.5234761 4.7480206 -1.9091318
-4.4883471 4.7694035 -1.9065666
-4.4668274 4.8052793 -1.9099869
-4.4229994 4.8170614 -1.9037164
-4.3856335 4.8355885 -1.9002962
-4.3501253 4.8559804 -1.8977309
-4.3208828 4.8832989 -1.898016
-4.2864237 4.9046664 -1.8960209
-4.2531176 4.9272466 -1.8945957
-4.2371039 4.9700298 -1.9011512
-4.2157874 5.0069346 -1.9054265
-4.1825352 5.0297599 -1.9042864
-4.1515942 5.0553284 -1.9042864
-4.1084247 5.0658154 -1.898586
-4.0664811 5.0774603 -1.8934557
-4.0281162 5.0932932 -1.8900355
-4.008585 5.1330247 -1.8957359
-3.967066 5.1446185 -1.8908905
-3.9336829 5.166575 -1.8900355
-3.8984525 5.1860166 -1.8883253
-3.8768382 5.2236958 -1.8934557
-3.8379169 5.2381058 -1.8900355
-3.8023343 5.2568955 -1.8883253
-3.7588704 5.2645235 -1.882625
-3.7204247 5.2788692 -1.8794898
-3.6896057 5.3039584 -1.8803449
-3.6732633 5.3502069 -1.8888954
-3.6290779 5.355979 -1.88291
-3.6131907 5.4036465 -1.8920306
-3.5767999 5.4209137 -1.8903205
-3.5471303 5.4483824 -1.8923156
-3.517776 5.4764972 -1.8945957
-3.4692316 5.4744964 -1.8863302
-3.4477663 5.5151892 -1.8931707
-3.4128549 5.5346084 -1.8926007
-3.3823166 5.5611782 -1.8945957
-3.348623 5.5826492 -1.8948808
-3.3089392 5.5940146 -1.8917456
-3.2682765 5.6034479 -1.8880403
-3.233355 5.6225653 -1.8877553
-3.1893432 5.6256204 -1.8820549
-3.1514928 5.6392264 -1.8800598
-3.127465 5.6777697 -1.8866153
-3.0966825 5.7044349 -1.8891804
-3.0571027 5.7148757 -1.8863302
-3.0215325 5.7326779 -1.8860452
-2.981885 5.7426023 -1.883195
-2.9374297 5.7428684 -1.8772095
-2.9275713 5.8112946 -1.8940257
-2.8897297 5.8248544 -1.8926007
-2.8509908 5.8364468 -1.8906054
-2.8155406 5.8546939 -1.8908905
-2.7758744 5.8640618 -1.8883253
-2.7325575 5.8653431 -1.883195
-2.7013085 5.8924561 -1.8866153
-2.6556478 5.887948 -1.8797748
-2.6303499 5.9286666 -1.8877553
-2.5992873 5.9569945 -1.8917456
-2.5664647 5.9816408 -1.8945957
-2.5192873 5.9725451 -1.8866153
-2.4913998 6.0091429 -1.8934557
-2.4439979 5.9985723 -1.8851901
-2.405009 6.0081158 -1.8834801
-2.3740585 6.0379252 -1.8883253
-2.3366206 6.0514846 -1.8880403
-2.2916343 6.0450921 -1.8814849
-2.2615154 6.0779061 -1.8874702
-2.2215509 6.0844646 -1.8851901
-2.1806219 6.0880542 -1.8820549
-2.150528 6.1221209 -1.8886104
-2.1107392 6.1288567 -1.8866153
-2.0724807 6.1398764 -1.8860452
-2.0356705 6.1552072 -1.8869003
-2.0019977 6.1803493 -1.8908905
-1.9643277 6.1934304 -1.8911755
-1.9243006 6.1989584 -1.8891804
-1.8848363 6.2060628 -1.8877553
-1.8461757 6.2156734 -1.8871853
-1.8096049 6.2324076 -1.8888954
-1.7728982 6.2489271 -1.8906054
-1.7345221 6.2596879 -1.8906054
-1.6963309 6.2711382 -1.8908905
-1.6534201 6.2647457 -1.8857602
-1.6094581 6.2534213 -1.8792048
-1.5701253 6.2594604 -1.8780646
-1.5346438 6.2810817 -1.8817699
-1.4967397 6.2931776 -1.882625
-1.4546431 6.2873006 -1.8780646
-1.4158275 6.2951727 -1.8777796
-1.3769699 6.3028049 -1.8774946
-1.3470119 6.3523946 -1.8900355
-1.3033793 6.338006 -1.883195
-1.2693311 6.370326 -1.8906054
-1.2342098 6.3987012 -1.896876
-1.1954516 6.4089808 -1.8977309
-1.1499914 6.3822341 -1.8874702
-1.1132693 6.403336 -1.8917456
-1.0753821 6.4185548 -1.8943107
-1.0352163 6.4203005 -1.8928857
-0.99638903 6.4303207 -1.8940257
-0.95606983 6.4306245 -1.8923156
-0.91753906 6.4430127 -1.8943107
-0.87669677 6.4390235 -1.8914605
-0.83951408 6.4623423 -1.896876
-0.80019855 6.4702258 -1.8977309
-0.76126438 6.4816775 -1.8997262
-0.71851695 6.4595523 -1.8917456
-0.6813671 6.4876719 -1.8988711
-0.63938242 6.4697909 -1.8923156
-0.60293746 6.5089068 -1.9028614
-0.56290579 6.511529 -1.9025763
-0.5234769 6.5215487 -1.9045714
-0.4813318 6.4959602 -1.8960209
-0.44379681 6.5332193 -1.9062816
-0.40305319 6.5252957 -1.9031464
-0.36502314 6.564014 -1.9139771
-0.32384384 6.5479403 -1.9085617
-0.28295818 6.5335245 -1.9037164
-0.24275762 6.5322638 -1.9028614
-0.2034992 6.5604563 -1.9108418
-0.16293345 6.5491247 -1.9071367
-0.12212308 6.5164585 -1.897161
-0.082207993 6.5228357 -1.8988711
-0.042080607 6.5069227 -1.8940257
-0.0021558448 6.5185609 -1.8974459
0.037956033 6.5376215 -1.9031464
0.078534059 6.5756035 -1.9145471
0.11793489 6.5232463 -1.8991561
0.15784167 6.5176086 -1.8977309
0.19864917 6.5433435 -1.9057115
0.23925138 6.5544538 -1.9094168
0.27901313 6.5423284 -1.9062816
0.31868199 6.5309196 -1.9034314
0.35795757 6.5144854 -1.8991561
0.3974539 6.5045123 -1.896876
0.43684137 6.4943004 -1.8945957
0.47724435 6.499145 -1.896876
0.51810437 6.5085158 -1.9005812
0.55597782 6.4813395 -1.8934557
0.5981108 6.5035768 -1.9011512
0.63603479 6.4797521 -1.8951658
0.67079896 6.428061 -1.8809148
0.71244377 6.443831 -1.8869003
0.75219166 6.4412422 -1.8874702
0.79357523 6.4517269 -1.8920306
0.83339339 6.4486375 -1.8926007
0.87127072 6.4310546 -1.8888954
0.9138121 6.4474149 -1.8954508
0.95068604 6.4236712 -1.8900355
0.99315566 6.4376101 -1.8960209
1.0286821 6.4067893 -1.8886104
1.0654472 6.3852301 -1.88405
1.1039513 6.3747945 -1.88291
1.1469445 6.3895993 -1.8894655
1.1836745 6.3692489 -1.8854752
1.2249062 6.3731608 -1.8888954
1.2675383 6.3833876 -1.8943107
1.303215 6.3585887 -1.8891804
1.3455784 6.3664145 -1.8940257
1.3805342 6.3393078 -1.8883253
1.4173068 6.3213649 -1.8854752
1.4575765 6.3190875 -1.8874702
1.5056182 6.3491945 -1.8994411
1.536828 6.3081746 -1.8897505
1.5701518 6.2772398 -1.883195
1.603631 6.2479916 -1.8772095
1.6363223 6.2167153 -1.8706541
1.6739368 6.2047071 -1.8700842
1.7140208 6.2017102 -1.8723643
1.7494298 6.1818538 -1.8695141
1.7878617 6.1728444 -1.8700842
1.8385099 6.2049499 -1.8834801
1.8771044 6.1953869 -1.88405
1.9082738 6.1617789 -1.8772095
1.9469138 6.1526957 -1.8780646
1.9787307 6.1223931 -1.8723643
2.0186639 6.1174183 -1.8746444
2.05708 6.1076417 -1.8754995
2.0926471 6.0894661 -1.8737894
2.1309235 6.0792251 -1.8746444
2.1662483 6.0606203 -1.8729343
2.2070062 6.0571203 -1.8760695
2.2404583 6.0335808 -1.8729343
2.2821882 6.03227 -1.8769246
2.3150206 6.007421 -1.8735044
2.35429 5.9993486 -1.8754995
2.3924801 5.9883504 -1.8766396
2.4277339 5.9700065 -1.8754995
2.4646862 5.955883 -1.8757845
2.5019286 5.9424148 -1.8763546
2.5375884 5.9251895 -1.8757845
2.5758116 5.9139009 -1.8772095
2.6124384 5.8988609 -1.8774946
2.6489775 5.8835945 -1.8777796
2.6854279 5.8681011 -1.8780646
2.722192 5.8532515 -1.8786347
2.7580557 5.8364382 -1.8786347
2.7942305 5.8202691 -1.8789197
2.8286295 5.8004303 -1.8780646
2.8620391 5.7786708 -1.8766396
2.8974426 5.7610006 -1.8766396
2.933609 5.7448211 -1.8772095
2.9661553 5.7216072 -1.8754995
3.0047789 5.7100849 -1.8777796
3.0420172 5.6957674 -1.8792048
3.0727966 5.6694112 -1.8766396
3.1070635 5.6496105 -1.8763546
3.1374655 5.6229067 -1.8737894
3.1733251 5.6060519 -1.8746444
3.2110054 5.5922933 -1.8766396
3.2433286 5.5691729 -1.8754995
3.2735384 5.5425658 -1.8732194
3.3079782 5.5231977 -1.8735044
3.3408101 5.5011578 -1.8729343
3.3800313 5.4895325 -1.8760695
3.4095893 5.4621859 -1.8737894
3.4445784 5.4435916 -1.8746444
3.4753268 5.4183202 -1.8732194
3.5090301 5.3976974 -1.8735044
3.5452487 5.3808665 -1.8752145
3.5792632 5.3606062 -1.8757845
3.610476 5.3361621 -1.8749294
3.6518245 5.3265557 -1.8794898
3.6817038 5.3001127 -1.8780646
3.7141554 5.2774224 -1.8780646
3.7420144 5.2482905 -1.8757845
3.7786379 5.2314463 -1.8780646
3.8140631 5.2128034 -1.8797748
3.8368425 5.1769829 -1.8752145
3.8794718 5.1679058 -1.8806298
3.904145 5.1348495 -1.8772095
3.9408429 5.1176319 -1.8797748
3.9692221 5.0895762 -1.8783497
3.9985936 5.0628691 -1.8774946
4.0343742 5.0442266 -1.8797748
4.0664558 5.0208669 -1.8803449
4.0941467 4.9921155 -1.8789197
4.135726 4.9801717 -1.88405
4.1550994 4.9414983 -1.8789197
4.1872063 4.9180994 -1.8797748
4.2122965 4.8865075 -1.8774946
4.2497654 4.8692336 -1.8809148
4.2884502 4.8531203 -1.8849051
4.2996101 4.8060021 -1.8766396
4.3322363 4.7830811 -1.8780646
4.3783493 4.7747746 -1.8854752
4.393867 4.7330699 -1.8794898
4.4254522 4.7088137 -1.8806298
4.4602089 4.68782 -1.883195
4.4908843 4.6624351 -1.88405
4.5194077 4.6347919 -1.88405
4.5619049 4.6212964 -1.8900355
4.5800095 4.5830498 -1.8857602
4.6019082 4.5487976 -1.883195
4.6379638 4.5285096 -1.8866153
4.6732531 4.5072846 -1.8897505
4.7098446 4.4871187 -1.8934557
4.7268162 4.4482837 -1.8891804
4.7561278 4.421154 -1.8900355
4.7725739 4.3821654 -1.8857602
4.7759385 4.331553 -1.8763546
4.809567 4.3085613 -1.8792048
4.8631959 4.3031011 -1.8900355
4.893117 4.2763333 -1.8914605
4.9112811 4.2393413 -1.8883253
4.9240694 4.1979351 -1.883195
4.9541345 4.1713462 -1.8849051
4.9818478 4.1427078 -1.8857602
5.0160632 4.11936 -1.8891804
5.0524135 4.097559 -1.8934557
5.0774603 4.0664811 -1.8934557
5.0955491 4.0298996 -1.8908905
5.1216912 3.9997377 -1.8914605
5.1468959 3.9688215 -1.8917456
5.1688628 3.9354246 -1.8908905
5.1783533 3.8926942 -1.8854752
5.2082996 3.865416 -1.8877553
5.228826 3.8311203 -1.8866153
5.2607794 3.8051424 -1.8897505
5.2902699 3.777246 -1.8920306
5.3047276 3.738642 -1.8888954
5.3338633 3.7104003 -1.8911755
5.35811 3.6786871 -1.8917456
5.3837557 3.6478913 -1.8928857
5.3988652 3.6099946 -1.8903205
5.4385171 3.5884104 -1.8965909
5.4564161 3.5523586 -1.8951658
5.4926286 3.5281339 -1.9002962
5.4680185 3.4651282 -1.88405
5.5208788 3.4513221 -1.8951658
5.5721426 3.4359908 -1.9057115
5.5710068 3.3882918 -1.898016
5.5933361 3.3550308 -1.898586
5.616292 3.3221111 -1.8994411
5.6498194 3.2953122 -1.9040014
5.6632848 3.256762 -1.9017212
5.6739879 3.216753 -1.898586
5.6911087 3.180475 -1.8977309
5.7231112 3.1524298 -1.9020063
5.739819 3.1158829 -1.9011512
5.7444601 3.0729218 -1.8963059
5.7572708 3.0344892 -1.8943107
5.7570653 2.9893916 -1.8880403
5.7889547 2.9609921 -1.8926007
5.8207116 2.9323134 -1.897161
5.8454642 2.8999496 -1.8994411
5.8605638 2.8627663 -1.898586
5.8521023 2.8142948 -1.8900355
5.9030509 2.7943223 -1.9011512
5.9096584 2.7531936 -1.8977309
5.9307976 2.7188773 -1.8991561
5.9526114 2.684799 -1.9008662
5.9873738 2.6563838 -1.9068516
5.9965315 2.6165304 -1.9045714
6.020402 2.5830872 -1.9071367
6.0220065 2.5401402 -1.9025763
6.0365934 2.502775 -1.9022913
6.0562754 2.4674957 -1.9037164
6.0793109 2.4334931 -1.9062816
6.1084018 2.4017546 -1.9108418
6.1122928 2.3600876 -1.9074216
6.1356225 2.3259351 -1.9102719
6.1587629 2.291585 -1.9131221
6.1628027 2.2501378 -1.9099869
6.1801033 2.2135735 -1.9111269
6.1944733 2.1759288 -1.9114119
6.1950192 2.133512 -1.9074216
6.223434 2.1006684 -1.912267
6.2380261 2.0630443 -1.912837
6.2678938 2.0303388 -1.9182523
6.2802339 1.9918416 -1.9182523
6.2868447 1.9515651 -1.9165423
6.2913632 1.9107261 -1.9142621
6.3048067 1.8726325 -1.9148321
6.3401122 1.8408564 -1.9222426
6.3310003 1.7961676 -1.9159722
6.35853 1.7618917 -1.9211025
6.3396111 1.7148396 -1.9119819
6.3648434 1.6798192 -1.9165423
6.385242 1.6433598 -1.9196775
6.4045029 1.6064802 -1.9225277
6.3946848 1.5623786 -1.9165423
6.4097462 1.5244418 -1.9182523
6.424583 1.486379 -1.9199625
6.4186192 1.4435681 -1.9154022
6.4133086 1.4010907 -1.9111269
6.4367881 1.3648916 -1.9156872
6.4628811 1.3290359 -1.9211025
6.4953561 1.294221 -1.9285131
6.485292 1.2508959 -1.9230977
6.4919033 1.2109038 -1.9228127
6.5095878 1.1729152 -1.9259479
6.530828 1.1354113 -1.9302232
6.5291634 1.0938935 -1.927658
6.5556254 1.0570115 -1.9336435
6.555357 1.0157408 -1.9316483
6.5624142 0.97563952 -1.9319333
6.5502467 0.93279052 -1.926518
6.5596461 0.893098 -1.927658
6.559299 0.85209209 -1.9259479
6.5586963 0.81112403 -1.9242377
6.5578375 0.77019554 -1.9225277
6.5795879 0.73184723 -1.927658
6.5658422 0.68956286 -1.9222426
6.5565948 0.64794528 -1.9182523
6.5757184 0.60911441 -1.9228127
6.5697823 0.56793129 -1.9199625
6.5731435 0.52760917 -1.9199625
6.5944195 0.4886097 -1.9253778
6.6020751 0.44846186 -1.926803
6.6314902 0.4095937 -1.9347835
6.6434493 0.36942646 -1.9376336
6.6254864 0.3276653 -1.9316483
6.6158805 0.28651029 -1.928228
6.6203876 0.24601689 -1.9290831
6.6188984 0.20530167 -1.928228
6.6085348 0.16440098 -1.9248078
6.624753 0.1241333 -1.9293681
6.6225142 0.083446525 -1.9285131
6.6334453 0.042876273 -1.9316483
6.6412516 0.0021745816 -1.9339285
6.6401815 -0.038569678 -1.9336435
6.6570721 -0.079521433 -1.9387738
6.6612506 -0.12045445 -1.9401989
6.6575112 -0.1612547 -1.9393438
6.6420255 -0.20166256 -1.9350685
6.6540732 -0.24290533 -1.9390588
6.6524577 -0.2837294 -1.9390588
6.6668668 -0.32533982 -1.9439042
6.6599598 -0.36597702 -1.942479
6.6642857 -0.40724531 -1.9444741
6.6654868 -0.44838694 -1.9456142
6.6626101 -0.48927715 -1.9456142
6.6652155 -0.53060633 -1.9473244
6.6455994 -0.57009774 -1.942479
6.6610656 -0.61262268 -1.9481794
6.6657667 -0.65432692 -1.9507446
6.6692529 -0.69601226 -1.9530247
6.6639042 -0.73681539 -1.9527397
6.6859145 -0.78080827 -1.9607203
6.6695819 -0.82041126 -1.9573001
6.648262 -0.85922825 -1.9524547
6.6447644 -0.90026271 -1.9530247
6.6372175 -0.94074792 -1.9524547
6.6294236 -0.98117441 -1.9518846
6.6090693 -1.0196387 -1.9476093
6.5790291 -1.0563688 -1.9404839
6.5119166 -1.0866096 -1.9222426
6.3993502 -1.1082082 -1.8903205
6.2263889 -1.1176178 -1.8401572
6.0676951 -1.1275773 -1.794269
0 -0 -0
5.8945189 -1.1703738 -1.7461008
5.8402781 -1.1968889 -1.7318498
5.7953134 -1.2247665 -1.720449
0 -0 -0
0 -0 -0
0 -0 -0
5.7644434 -1.3668431 -1.720734
5.7280107 -1.3953758 -1.7121835
5.707253 -1.4274701 -1.7084782
5.6965303 -1.4619853 -1.7079082
5.6679873 -1.4917839 -1.7019228
5.6707573 -1.5297818 -1.705628
5.6353965 -1.5573938 -1.6976475
5.617434 -1.5895921 -1.6950823
5.6130986 -1.6256311 -1.6967924
5.5929093 -1.6570446 -1.6936572
5.595479 -1.6952243 -1.6976475
5.5575047 -1.7210138 -1.6890969
5.5623751 -1.7600005 -1.6939422
5.5532951 -1.7946873 -1.6945122
5.5303464 -1.824821 -1.690807
5.4890704 -1.8486185 -1.6814014
5.4640279 -1.8775889 -1.677126
5.4460726 -1.9088595 -1.675131
5.4441853 -1.9457905 -1.6782662
5.4231386 -1.9758757 -1.675416
5.4037247 -2.0064437 -1.6731358
5.3948975 -2.0409198 -1.6742759
5.3733292 -2.0705357 -1.6714257
5.3578472 -2.1024158 -1.6705706
5.3510761 -2.1377418 -1.6725658
5.3387465 -2.1708963 -1.6728508
5.3200121 -2.2014134 -1.6711407
5.3223042 -2.2407129 -1.6762711
5.2952399 -2.2676649 -1.6719958
5.2618942 -2.2916892 -1.6657254
5.2512388 -2.3254855 -1.6668653
5.2429891 -2.3604186 -1.6688606
5.2371221 -2.3965347 -1.6717107
5.2240567 -2.4294326 -1.6722808
5.2099185 -2.4618509 -1.6725658
5.1912584 -2.4921119 -1.6714257
5.1930985 -2.5323238 -1.677126
5.1946402 -2.5726519 -1.6828265
5.1761885 -2.6031845 -1.6819714
5.1626787 -2.6362042 -1.6828265
5.1515112 -2.67048 -1.6845366
5.1435103 -2.7065041 -1.6873868
5.1141257 -2.7312374 -1.6831114
5.0871592 -2.7570829 -1.6796912
5.0777044 -2.7924037 -1.6822565
5.0604753 -2.8235073 -1.6822565
5.0363827 -2.8507261 -1.6799762
4.9955239 -2.868207 -1.6719958
4.970377 -2.8944621 -1.6694306
4.9582996 -2.9283185 -1.6714257
4.9262609 -2.9503119 -1.6665803
4.9187145 -2.9869533 -1.6702856
4.9011106 -3.0175805 -1.6705706
4.8646164 -3.0364268 -1.6643002
4.8402243 -3.0626295 -1.6623051
4.8148875 -3.0881298 -1.6600249
4.7886167 -3.1129119 -1.6574597
4.767025 -3.1406534 -1.6566046
4.7452736 -3.168247 -1.6557497
4.7074871 -3.1849461 -1.6491942
4.721056 -3.2365408 -1.661165
4.6963854 -3.262166 -1.6594549
4.6754966 -3.2903693 -1.6591699
4.6435142 -3.3106465 -1.6548946
4.6200051 -3.3368306 -1.6537545
4.6048579 -3.3690786 -1.6557497
4.5902591 -3.4018371 -1.6580298
4.5700655 -3.4305139 -1.6583148
4.5420642 -3.4532683 -1.6557497
4.5253458 -3.4845824 -1.6574597
4.5076585 -3.5152318 -1.6588849
4.4762273 -3.5350993 -1.6551796
4.4671755 -3.5726786 -1.6600249
4.4578309 -3.6102793 -1.6648703
4.4192915 -3.6241887 -1.6585999
4.3785386 -3.6359241 -1.6514744
4.3634815 -3.6688921 -1.6543245
4.3525634 -3.7055409 -1.6588849
4.3268409 -3.7296741 -1.6577448
4.3017087 -3.7542617 -1.6568897
4.2778735 -3.7799509 -1.6566046
4.2431717 -3.7959008 -1.6520444
4.1999116 -3.8038442 -1.6440638
4.1976833 -3.8489811 -1.6526145
4.1711779 -3.872056 -1.6514744
4.1620064 -3.9113648 -1.6574597
4.1212649 -3.9209688 -1.6506193
2.3805027 -2.2921252 -0.94177639
2.3636491 -2.3040113 -0.94063628
2.3481033 -2.3171241 -0.94006628
3.9587216 -3.9558721 -1.6232574
3.931006 -3.9766788 -1.6218324
3.9138961 -4.0082693 -1.6249676
3.9377944 -4.082582 -1.645774
3.8789568 -4.0712676 -1.631238
3.8742628 -4.1166344 -1.6400735
3.8613279 -4.1536698 -1.645489
3.8539171 -4.1970568 -1.6534694
3.8332424 -4.226306 -1.6557497
3.8078775 -4.2504606 -1.6560347
3.7887111 -4.2816429 -1.6591699
3.7598455 -4.3019223 -1.6580298
3.7502859 -4.3445053 -1.6657254
3.7185841 -4.3615985 -1.6634451
3.6899002 -4.382133 -1.6625901
3.670295 -4.4135365 -1.6660104
3.6467943 -4.4404192 -1.6677204
3.6080105 -4.448565 -1.6623051
3.592628 -4.4855852 -1.6680055
3.5632539 -4.5052886 -1.6671504
1.9972707 -2.5565746 -0.9238202
1.9815463 -2.5687814 -0.9238202
1.9640057 -2.5786035 -0.92296511
1.9481467 -2.5906057 -0.92296511
1.9339277 -2.60482 -0.9238202
1.9201739 -2.6197305 -0.92496026
1.7176061 -2.3735805 -0.83033383
1.7002255 -2.3801739 -0.82890874
1.6850369 -2.3897779 -0.82862371
3.2748084 -4.7074418 -1.6643002
3.2469471 -4.7290277 -1.6648703
3.2167943 -4.7472744 -1.6643002
3.1817458 -4.7581573 -1.661165
3.1440465 -4.7647882 -1.6566046
3.1163197 -4.7863998 -1.6574597
3.082231 -4.798172 -1.6548946
3.0655553 -4.8372374 -1.6620201
3.0434361 -4.8681488 -1.6662953
3.0089819 -4.8793879 -1.6637301
2.9859569 -4.9092255 -1.6677204
2.9533138 -4.9233441 -1.6662953
2.91378 -4.9256959 -1.66088
2.8791566 -4.936029 -1.6583148
2.8402171 -4.9386444 -1.6531844
2.799464 -4.9376321 -1.646914
2.7681797 -4.953043 -1.6463439
2.7372739 -4.9690952 -1.646059
2.7044468 -4.9815845 -1.6446339
2.6747334 -4.9997759 -1.6452039
2.6448987 -5.0177894 -1.645774
2.6175928 -5.04073 -1.6480541
2.5791965 -5.0421877 -1.6432087
1.5278124 -3.031508 -0.96856821
1.5096085 -3.0416842 -0.96885324
1.490496 -3.0500283 -0.96856821
2.4260249 -5.0443568 -1.6235424
2.4282339 -5.1293283 -1.646629
2.3950968 -5.1406555 -1.645489
2.3579192 -5.143055 -1.6414987
2.3302569 -5.1661644 -1.6443489
2.2992911 -5.1821179 -1.6449189
2.2624698 -5.1847067 -1.6412137
2.2279699 -5.1923251 -1.6392186
2.1975579 -5.2094307 -1.6403586
2.1688545 -5.2307863 -1.6429237
2.1226194 -5.209374 -1.631808
2.0888352 -5.2178502 -1.6303829
2.060636 -5.2403817 -1.6335181
2.0256822 -5.2457733 -1.631238
2.0036449 -5.2849941 -1.6397885
1.9748541 -5.3070712 -1.6429237
1.944225 -5.3244915 -1.6446339
1.9050568 -5.3182716 -1.6389335
1.8758812 -5.3398094 -1.6420687
1.8384022 -5.3376241 -1.6377934
1.8074548 -5.3542533 -1.6395035
1.7745677 -5.365243 -1.6395035
1.7457469 -5.3887973 -1.6434938
1.7094631 -5.3893566 -1.6403586
1.6760786 -5.3988285 -1.6400735
1.6459826 -5.4191008 -1.6432087
1.6083366 -5.4143958 -1.6386485
1.5734816 -5.4186392 -1.6369383
1.5399424 -5.4272695 -1.6366533
1.5053333 -5.4319978 -1.6352283
1.4734756 -5.4466839 -1.6369383
1.4412498 -5.4602566 -1.6383635
1.4058092 -5.4615703 -1.6360834
1.3718051 -5.4682341 -1.6355133
1.3414094 -5.4895849 -1.6395035
1.3063711 -5.4921169 -1.6377934
1.2732952 -5.502831 -1.6386485
1.2350932 -5.490901 -1.6326631
1.1989254 -5.4871383 -1.6292429
0.73612022 -3.4689417 -1.0136012
0.71732914 -3.485599 -1.0173064
0.69648981 -3.4927552 -1.0181615
0.67413872 -3.4922569 -1.0167365
0.65252233 -3.4953852 -1.0164515
0.63089299 -3.4983799 -1.0161664
0.61351579 -3.5257947 -1.0232919
0.59345257 -3.5389466 -1.0261421
0.57279372 -3.5491457 -1.0281372
0.55628353 -3.5866942 -1.0383979
0.53877079 -3.6203799 -1.0475185
0.51884091 -3.6397502 -1.0523639
0.49365687 -3.6219699 -1.0460935
0.46081862 -3.5431831 -1.0215818
0.43695477 -3.5288205 -1.0164515
0.41786182 -3.5533311 -1.0230069
0.3966859 -3.5615442 -1.024717
0.37572476 -3.5724909 -1.0272821
0.35417366 -3.5785446 -1.0284222
0.33318013 -3.5911493 -1.0315574
0.31492868 -3.6370549 -1.0446683
0.29283577 -3.6417851 -1.0455234
0.2694248 -3.6291747 -1.0412481
0.24540211 -3.6049387 -1.0335525
0.22145139 -3.5767186 -1.024717
0.19950089 -3.5780101 -1.024717
0.17810902 -3.5906551 -1.0281372
0.15557818 -3.5801888 -1.024717
0.13389103 -3.5887389 -1.0269971
0.11201617 -3.5942833 -1.0284222
0.090101972 -3.6006522 -1.0301324
0.067740247 -3.586762 -1.0258571
0.045754831 -3.5890272 -1.0264271
0.023732113 -3.5892403 -1.0264271
0.0017162599 -3.64012 -1.0415331
-0.020578984 -3.6333525 -1.039538
-0.042814348 -3.6283655 -1.0381129
-0.065636672 -3.6587021 -1.0472335
-0.090048477 -3.7387223 -1.0711751
-0.11450847 -3.7879193 -1.0859962
-0.13423513 -3.6913576 -1.0574942
-0.15716942 -3.6971681 -1.0594894
-0.17661671 -3.6300752 -1.0398231
-0.19646016 -3.584898 -1.0267122
-0.21710446 -3.5616205 -1.0201566
-0.23830907 -3.5506577 -1.0173064
-0.26093543 -3.5605998 -1.0207267
-0.2827017 -3.5579762 -1.0204417
-0.30452773 -3.5561748 -1.0204417
-0.3271338 -3.5628295 -1.0230069
-0.34955162 -3.5664787 -1.024717
-0.37391996 -3.5881 -1.0318425
-0.39497954 -3.5771637 -1.0292773
-0.42271131 -3.6241786 -1.0440983
-0.44787058 -3.6452999 -1.0512238
-0.46875301 -3.6310761 -1.0478035
-0.48522565 -3.5853896 -1.0349777
-0.52863002 -3.7332377 -1.0802958
-0.52806336 -3.5715797 -1.0326976
-0.55201662 -3.5815344 -1.0366879
-0.57078749 -3.5582061 -1.0307024
-0.58771372 -3.5253286 -1.0218668
-0.61260819 -3.540545 -1.0275671
-0.65262902 -3.638608 -1.0583493
-0.66705412 -3.592129 -1.0455234
-0.68745273 -3.5794971 -1.0429583
-0.70828205 -3.5695708 -1.0412481
-0.73055643 -3.5670357 -1.0418181
-0.75262797 -3.5634236 -1.0421032
-0.77345788 -3.5540557 -1.040678
-0.79504079 -3.5483079 -1.040393
-0.82132548 -3.5629759 -1.0463785
-0.84538537 -3.5671954 -1.0492287
-0.86816555 -3.565666 -1.0503687
-0.94076937 -3.7629752 -1.1125029
-0.94261783 -3.6745057 -1.0871361
-0.78789157 -2.9957194 -0.88021225
-0.80925614 -3.0019333 -0.88363248
-0.82817143 -2.9987588 -0.88420248
-0.84890646 -3.0019212 -0.88676769
-0.86277384 -2.9810052 -0.88192236
-1.0682359 -3.6069942 -1.0777305
-1.1003597 -3.6333942 -1.0879912
-1.128875 -3.6467166 -1.0942616
-1.1584631 -3.6625664 -1.1013871
-1.1800295 -3.6526532 -1.1005321
-1.2003158 -3.6389728 -1.098537
-1.0698723 -3.1782835 -0.95631236
-1.0902888 -3.1743784 -0.95716745
-1.1068907 -3.1594882 -0.95460224
-1.1214144 -3.1390989 -0.95032698
-1.1301485 -3.1033416 -0.94120634
-1.1418247 -3.0765815 -0.93493593
-1.1616988 -3.0722067 -0.93579096
-1.1905278 -3.0909569 -0.94405651
-1.1993121 -3.0577195 -0.93579096
-1.3728155 -3.4374738 -1.0597744
-1.3909917 -3.4218829 -1.0574942
-1.4137951 -3.4177115 -1.0589193
-1.4358555 -3.4116225 -1.0597744
-1.4578944 -3.4053912 -1.0606294
-1.4779962 -3.394624 -1.0600594
-1.503457 -3.3960075 -1.0634797
-1.5191485 -3.3753572 -1.0597744
-1.5434219 -3.373816 -1.0623395
-1.5786513 -3.3955681 -1.0726002
-1.590853 -3.3676202 -1.0666149
-1.6214463 -3.3785322 -1.0734553
-1.6333199 -3.3504288 -1.0674698
-1.6385266 -3.3094246 -1.0572091
-1.6419995 -3.2659152 -1.0460935
-1.6554667 -3.2429748 -1.0418181
-1.6832776 -3.2480719 -1.0469484
-1.711213 -3.2529495 -1.0520788
-1.728882 -3.2381613 -1.0506537
-1.7468908 -3.2241216 -1.0495137
-1.7731096 -3.2250996 -1.053504
-1.797537 -3.2225287 -1.0563542
-1.8229442 -3.2214475 -1.0597744
-1.8326501 -3.1927471 -1.0537889
-1.8560661 -3.1880677 -1.0560691
-1.8682789 -3.1642406 -1.0517938
-1.8733722 -3.1288729 -1.0435283
-1.8616786 -3.0665295 -1.0258571
-1.8910162 -3.0721874 -1.0318425
-1.9078004 -3.0572743 -1.0307024
-1.920884 -3.036602 -1.0275671
-1.9529388 -3.0457335 -1.0349777
-2.004513 -3.0843158 -1.0529339
-2.0350053 -3.0895653 -1.0592043
-2.0454059 -3.0642676 -1.054644
-2.1076894 -3.1159558 -1.0777305
-2.1186368 -3.0911076 -1.0734553
-2.0730193 -2.9851685 -1.0398231
-2.1216462 -3.0154991 -1.0554991
-2.1562505 -3.0250545 -1.0637646
-2.1815078 -3.0210903 -1.0671848
-2.1966071 -3.0030069 -1.0654747
-2.1932986 -2.9602132 -1.054644
-2.1993334 -2.930604 -1.0486586
-2.2137923 -2.9124763 -1.0469484
-2.2187524 -2.8821325 -1.040678
-2.2246029 -2.8533494 -1.0349777
-2.2307787 -2.825356 -1.0295624
-2.2564564 -2.8220932 -1.0335525
-2.2586448 -2.7895758 -1.0264271
-2.269031 -2.767513 -1.0232919
-2.2988322 -2.7690215 -1.0292773
-2.3015878 -2.737993 -1.0227219
-2.3487983 -2.7595756 -1.0366879
-2.373198 -2.7538226 -1.0401081
-2.3982458 -2.7485957 -1.0438132
-2.4074478 -2.7252107 -1.040393
-2.4356301 -2.723244 -1.0455234
-2.469671 -2.7274265 -1.053219
-2.4902472 -2.7164598 -1.054929
-2.5212181 -2.7165806 -1.0611994
-2.5463746 -2.7101381 -1.0649047
-2.5662599 -2.6979344 -1.0663298
-2.5787752 -2.6779959 -1.0646197
-2.5630319 -2.6291876 -1.0509387
-2.5878716 -2.6222777 -1.054644
-2.5774837 -2.5799122 -1.0435283
-2.6007652 -2.5714593 -1.0466635
-2.5904286 -2.5300114 -1.0358328
-2.6128042 -2.5207222 -1.0386829
-2.6504331 -2.5257964 -1.0478035
-2.6847312 -2.5272188 -1.0554991
-2.6833355 -2.4950387 -1.0486586
-2.7077742 -2.486953 -1.0523639
-2.7244031 -2.4715793 -1.0529339
-2.7416594 -2.4567344 -1.0537889
-2.758836 -2.4417708 -1.054644
-2.7759321 -2.4266889 -1.0554991
-2.7958496 -2.4139938 -1.0574942
-2.812068 -2.3980367 -1.0580642
-2.804729 -2.36222 -1.0495137
-2.8140109 -2.340677 -1.0475185
-2.8223932 -2.3185008 -1.0452384
-2.841778 -2.3053648 -1.0472335
-2.8641009 -2.2944741 -1.0503687
-2.8901563 -2.2863684 -1.054929
-2.8822198 -2.2514868 -1.0466635
-2.8967395 -2.2343445 -1.0469484
-2.9035299 -2.2113037 -1.0443833
-2.9208751 -2.1963255 -1.0458084
-3.0528464 -2.2663128 -1.0897014
-3.0983999 -2.2707596 -1.1013871
-3.0144036 -2.1809413 -1.0654747
-3.1408558 -2.2431464 -1.1068026
-3.0793359 -2.170836 -1.0794407
-3.0713499 -2.1371255 -1.0717452
-3.0844052 -2.1182399 -1.0717452
-3.087821 -2.0928242 -1.0683249
-3.1029949 -2.0754361 -1.06918
-3.1092699 -2.0521355 -1.0668999
-3.1089492 -2.0246534 -1.0623395
-3.1309924 -2.0117538 -1.0657598
-3.1554234 -2.0001986 -1.0700351
-3.1578827 -1.9747041 -1.0666149
-3.1658599 -1.9527758 -1.0651897
-3.1523921 -1.9178776 -1.0563542
-3.1460149 -1.8876549 -1.0500838
-3.136086 -1.8556316 -1.0426732
-3.1672864 -1.8479407 -1.0495137
-3.2076509 -1.845191 -1.0594894
-3.2914639 -1.866589 -1.084286
-3.2317264 -1.8066242 -1.0600594
-3.2721388 -1.8029416 -1.0700351
-3.281455 -1.7819158 -1.069465
-3.3371263 -1.7857022 -1.084571
-3.3641329 -1.7736812 -1.0899864
-3.4404607 -1.7870065 -1.1119329
-3.4914727 -1.7863704 -1.1253288
-3.5160658 -1.771811 -1.1298891
-3.5285888 -1.7510551 -1.1304592
-3.5582159 -1.7386234 -1.1367296
-3.5869589 -1.7254783 -1.142715
-3.6702588 -1.7378727 -1.1666566
-3.7347267 -1.7404068 -1.1843277
-3.7714772 -1.7294369 -1.1928784
-3.8431859 -1.7338384 -1.2128297
-3.993073 -1.7720065 -1.2581477
-5.0371022 -2.1980951 -1.5933304
-4.0515165 -1.7387389 -1.2701186
-4.1813459 -1.7641168 -1.3085961
-4.1841221 -1.7351248 -1.306031
-4.2532806 -1.7332782 -1.3248422
-4.3385906 -1.7370563 -1.3487839
-4.3732538 -1.7198682 -1.3564794
-4.4284368 -1.7102573 -1.3707304
-4.4639449 -1.6925617 -1.3787109
-4.5119791 -1.679172 -1.3906817
-4.5816269 -1.6731421 -1.409493
-4.6324167 -1.6595356 -1.4223188
-4.7528496 -1.6698167 -1.4570912
-4.8391385 -1.6668266 -1.4810328
-5.0572605 -1.7072659 -1.5463022
-5.2924352 -1.7505029 -1.616702
-5.2620397 -1.7047113 -1.6038761
-5.4112859 -1.716414 -1.647199
-5.5205874 -1.7138515 -1.6779811
-5.5695224 -1.6916376 -1.6899519
-5.6597409 -1.6811612 -1.7147486
-5.7279449 -1.6632298 -1.7327049
-5.8062835 -1.6474001 -1.7537962
-5.8809457 -1.6296477 -1.7737476
-6.0101995 -1.6257975 -1.810515
-6.1711354 -1.6287321 -1.8569733
-6.3824573 -1.6426436 -1.9188224
-6.3896265 -1.6027515 -1.9179673
-6.4161019 -1.5676073 -1.9230977
-6.4507785 -1.534193 -1.9307932
-6.4750133 -1.4980371 -1.9353535
-6.5046573 -1.4629024 -1.9416239
-6.5181932 -1.4239851 -1.9430491
-6.5427494 -1.3873408 -1.9478943
-6.5689778 -1.3508343 -1.9533098
-6.5743227 -1.3099409 -1.9524547
-6.5229406 -1.2581507 -1.9344984
-6.5474987 -1.2212636 -1.9396288
-6.553926 -1.1808962 -1.9393438
-6.5818248 -1.1442682 -1.9456142
-6.5773773 -1.1019627 -1.942194
-6.5745521 -1.0600598 -1.9393438
-6.5733547 -1.0185262 -1.9370637
-6.6060281 -0.98211581 -1.9450442
-6.6052871 -0.94061875 -1.9430491
-6.5919385 -0.89748889 -1.9373487
-6.6134806 -0.85912091 -1.942194
-6.6252866 -0.81934756 -1.9441891
-6.6216216 -0.77767539 -1.9416239
-6.631032 -0.73756021 -1.9430491
-6.6373391 -0.69705898 -1.9436191
-6.6529379 -0.65744907 -1.9470394
-6.6511202 -0.61608559 -1.9453292
-6.6633701 -0.57600492 -1.9478943
-6.6629572 -0.53480232 -1.9467543
-6.668025 -0.49405044 -1.9473244
-6.6680617 -0.45293254 -1.9464693
-6.6640186 -0.4115971 -1.9444741
-6.6673756 -0.37075275 -1.9447591
-0 -0 -0
-6.6771688 -0.2891537 -1.9464693
-0 -0 -0
-6.6859632 -0.20737009 -1.9481794
-6.7101068 -0.16690995 -1.9550198
-6.7081299 -0.125681 -1.9541649
-0 -0 -0
-6.7005405 -0.043298215 -1.9515996
-0 -0 -0
-6.664144 0.038713053 -1.940769
-6.6704903 0.079684056 -1.942764
-6.6535835 0.12031447 -1.9379187
-6.6651773 0.16144173 -1.9416239
-6.6602287 0.20221841 -1.9404839
-6.6128845 0.24139456 -1.926803
-6.6428809 0.28331929 -1.9362086
-6.6324015 0.32365194 -1.9336435
-6.6235909 0.36397216 -1.9316483
-6.6336703 0.4053691 -1.9353535
-6.6176696 0.44516191 -1.9313632
-0 -0 -0
-0 -0 -0
-0 -0 -0
-0 -0 -0
-0 -0 -0
-0 0 -0
-0 0 -0
-0 0 -0
-0 0 -0
-6.4258814 0.1926944 -1.9489655
-6.4159861 0.23180935 -1.9463041
-6.3924913 0.27024609 -1.9395028
-6.3783083 0.30886471 -1.9356587
-6.3934627 0.34893143 -1.9409814
-6.3826199 0.38763377 -1.93832
-6.3581986 0.42532438 -1.9315187
-6.3649964 0.46502501 -1.9344758
-6.370594 0.50474966 -1.9371371
-6.3654733 0.54366696 -1.9365457
-6.3848491 0.58480424 -1.9436427
-0 0 -0
-6.3971453 0.66518569 -1.9498526
-6.4052873 0.70578468 -1.9536968
-0 0 -0
-6.3838177 0.7828235 -1.9498526
-0 0 -0
-6.36237 0.85956973 -1.9463041
-6.3513007 0.89779043 -1.9445299
-6.3201561 0.93297935 -1.9365457
-6.31148 0.97130579 -1.9356587
-6.2846498 1.0066913 -1.9291531
-6.2792969 1.0453911 -1.9294487
-6.2614679 1.0819492 -1.9259002
-6.2575326 1.1208537 -1.9267874
-6.2599301 1.1609694 -1.9297445
-6.2545648 1.1997175 -1.9303359
-6.2414637 1.2369584 -1.9285617
-6.2234612 1.2731266 -1.9253088
-6.2099242 1.3101063 -1.9235346
-6.1924334 1.3461564 -1.9205775
-6.1849895 1.3843356 -1.9208733
-6.1754479 1.4220456 -1.9205775
-6.1721835 1.4612308 -1.9223518
-6.1547475 1.4970436 -1.9196904
-6.1510067 1.5361687 -1.9214647
-6.1303606 1.5710366 -1.9179162
-6.0697899 1.5952703 -1.9016522
-6.1161547 1.6476378 -1.9196904
-6.0948792 1.6820859 -1.9161419
-6.0899591 1.72101 -1.9179162
-6.0701079 1.7556913 -1.9149591
-6.0610528 1.7934457 -1.9155505
-6.0517631 1.8311551 -1.9161419
-6.0404134 1.8682535 -1.9161419
-6.0261035 1.9044182 -1.9152548
-6.0170321 1.942238 -1.9161419
-5.9968362 1.9764307 -1.9134805
-5.9873123 2.0141029 -1.9143677
-5.96942 2.0489421 -1.9125934
-5.9567356 2.085531 -1.9125934
-5.9411278 2.1210783 -1.9117063
-5.9217172 2.1552057 -1.9096364
-5.904799 2.1901717 -1.9084535
-5.89393 2.2273746 -1.9093406
-5.876586 2.2621245 -1.9081578
-5.8510332 2.2936084 -1.9043136
-5.8430605 2.3319447 -1.9063835
-5.8525386 2.377459 -1.9143677
-5.8325434 2.4111354 -1.9125934
-5.8158779 2.4461372 -1.912002
-5.8095422 2.4855337 -1.9149591
-5.791554 2.5199902 -1.9140719
-5.784719 2.5593436 -1.917029
-5.7662926 2.5936146 -1.9161419
-5.7389755 2.6237841 -1.9122977
-5.7305651 2.6625705 -1.9149591
-5.7037535 2.6927893 -1.9114106
-5.6810942 2.7248447 -1.9093406
-5.6556797 2.7554684 -1.9063835
-5.6343851 2.7880011 -1.904905
-5.6214399 2.8246648 -1.9063835
-5.6074061 2.8608406 -1.9075664
-5.5863538 2.893436 -1.9063835
-5.5744138 2.9307702 -1.9084535
-5.5613832 2.9676168 -1.9102278
-5.5405493 3.0003204 -1.9093406
-5.5186863 3.0324204 -1.9081578
-5.5033135 3.0680857 -1.9093406
-5.4777322 3.0980339 -1.9069749
-5.4611058 3.1330123 -1.9078621
-5.439302 3.1650207 -1.9069749
-5.4181342 3.1973653 -1.9063835
-5.4082503 3.2364359 -1.909932
-5.3686891 3.2576673 -1.902835
-5.3510399 3.2920492 -1.9037222
-5.3453302 3.3339193 -1.9090449
-5.3166986 3.3615503 -1.9060879
-5.305624 3.4002945 -1.9096364
-5.2870636 3.4343462 -1.9105234
-5.2571144 3.4609449 -1.9072707
-5.2365742 3.4936669 -1.9075664
-5.2205787 3.5294769 -1.9096364
-5.1925187 3.5571249 -1.9072707
-5.1721644 3.5900078 -1.9078621
-5.1516023 3.6227748 -1.9084535
-5.1300545 3.6548705 -1.9087492
-5.1059828 3.6851611 -1.9081578
-5.0817323 3.7152941 -1.9075664
-5.0580726 3.7458365 -1.9072707
-5.0319362 3.7745092 -1.9060879
-5.0117245 3.8076248 -1.9072707
-4.9958382 3.8441296 -1.9102278
-4.9661288 3.870014 -1.9078621
-4.9482884 3.9051468 -1.9102278
-4.9257264 3.9366281 -1.9108192
-4.903707 3.9685805 -1.9117063
-4.8770471 3.996778 -1.9108192
-4.8568425 4.0302877 -1.9125934
-4.8312902 4.0593982 -1.9122977
-4.7953768 4.0796819 -1.9078621
-4.7651873 4.1046648 -1.9057921
-4.7341523 4.1288037 -1.9034264
-4.7223353 4.1697869 -1.9090449
-4.6752944 4.179585 -1.9001737
-4.6467276 4.2056293 -1.8989909
-4.6194263 4.2327714 -1.8983995
-4.6073751 4.2740288 -1.9043136
-4.5706177 4.2924099 -1.899878
-4.5483479 4.3243227 -1.9016522
-4.5237937 4.3541369 -1.9025394
-4.5017819 4.3864789 -1.9046093
-4.4679809 4.4073105 -1.9016522
-4.4395022 4.4332924 -1.9010608
-4.4128881 4.4611287 -1.9013565
-4.3927765 4.4956369 -1.9046093
-4.3564839 4.5135708 -1.9007651
-4.3260703 4.5374513 -1.8995823
-4.2988029 4.5646057 -1.899878
-4.2674603 4.5874 -1.8983995
-4.2476354 4.622642 -1.9022436
-4.2166233 4.6457887 -1.9010608
-4.1842113 4.6673064 -1.8992865
-4.1561279 4.6936073 -1.8995823
-4.1234765 4.7147064 -1.897808
-4.0919719 4.7370276 -1.8966252
-4.0690298 4.7693129 -1.8995823
-4.032918 4.7861552 -1.8963295
-4.0089746 4.8174186 -1.8989909
-3.9793398 4.8419266 -1.8989909
-3.9652088 4.8855362 -1.9066793
-3.9202199 4.89114 -1.8992865
-3.8919132 4.9173489 -1.9001737
-3.8687272 4.9501686 -1.9037222
-3.8330278 4.9670072 -1.9010608
-3.8018997 4.9896727 -1.9007651
-3.7717865 5.0136704 -1.9010608
-3.7295592 5.0213823 -1.8951466
-3.6969836 5.0418606 -1.8942596
-3.6626165 5.0598073 -1.8924853
-3.6315012 5.0821857 -1.8924853
-3.6024518 5.1074948 -1.8936681
-3.5470273 5.0950084 -1.880657
-3.527601 5.133997 -1.8871626
-3.4922795 5.1500111 -1.8850926
-3.4638019 5.176106 -1.8868668
-3.4456644 5.2179871 -1.8945552
-3.4057593 5.227026 -1.8901196
-3.3694899 5.2413969 -1.887754
-3.3372657 5.2619729 -1.887754
-3.3079565 5.2872095 -1.8895282
-3.2754524 5.3074074 -1.8895282
-3.2453089 5.3314853 -1.8910067
-3.2130263 5.3521166 -1.8913025
-3.1801257 5.3717308 -1.8913025
-3.143734 5.3853674 -1.8892325
-3.1068182 5.3979325 -1.8868668
-3.0726957 5.4152322 -1.8862754
-3.033814 5.4239798 -1.8827269
-3.0097013 5.4592237 -1.8886411
-2.9784279 5.4817848 -1.8901196
-2.9438343 5.4982724 -1.8895282
-2.910042 5.516232 -1.8895282
-2.8730562 5.5280509 -1.8874582
-2.8390827 5.5455756 -1.8874582
-2.8080134 5.568862 -1.8895282
-2.7712412 5.5808535 -1.887754
-2.7398829 5.6037593 -1.8898239
-2.7046187 5.6187439 -1.8892325
-2.6692736 5.6335073 -1.8886411
-2.6314266 5.6428533 -1.8862754
-2.5979486 5.6614981 -1.8871626
-2.5560849 5.6616607 -1.8818398
-2.5127661 5.6580315 -1.8753341
-2.4737952 5.6637135 -1.8720814
-2.4401278 5.6814189 -1.8729686
-2.4044781 5.6945243 -1.8723772
-2.3713231 5.713582 -1.8738557
-2.3365815 5.7289095 -1.8741513
-2.3081379 5.7599859 -1.8797698
-2.2699523 5.7669291 -1.8774042
-2.23418 5.7798576 -1.8771085
-2.2081654 5.8184643 -1.8853883
-2.1750906 5.8390651 -1.887754
-2.1402059 5.8549929 -1.8886411
-2.1013374 5.8599219 -1.8859797
-2.0681951 5.8808155 -1.8886411
-2.0358095 5.904232 -1.8921895
-1.9977081 5.9111829 -1.8904153
-1.9614002 5.9233289 -1.8904153
-1.9259026 5.9379783 -1.8913025
-1.8827802 5.9287434 -1.8845011
-1.8466502 5.9410963 -1.8847969
-1.8073816 5.9431763 -1.8818398
-1.7692466 5.9486604 -1.8800656
-1.7345803 5.9658256 -1.8821355
-1.6955919 5.9680862 -1.8794742
-1.6538308 5.9599681 -1.87356
-1.6184791 5.9746137 -1.8750385
-1.5751964 5.9594965 -1.8670543
-1.5386 5.9690495 -1.8670543
-1.5033425 5.9839368 -1.8688287
-1.4665974 5.9930482 -1.8688287
-1.4280257 5.9945002 -1.8664629
-1.3963948 6.0254841 -1.87356
-1.3600268 6.0367346 -1.8744471
-1.3205091 6.0337677 -1.8708986
-1.2852488 6.0501661 -1.87356
-1.2488728 6.0616808 -1.8747427
-1.2103459 6.0626721 -1.8726728
-1.1729419 6.069047 -1.8723772
-1.13849 6.0911536 -1.8771085
-1.0990562 6.0867438 -1.87356
-1.061524 6.092432 -1.8732642
-1.0245963 6.1016569 -1.8741513
-0.98759538 6.1106582 -1.8750385
-0.95154935 6.1260424 -1.8779956
-0.91774678 6.1572757 -1.8859797
-0.88075972 6.1684651 -1.887754
-0.84185988 6.1661816 -1.8853883
-0.80437946 6.1740727 -1.8862754
-0.76871645 6.1969042 -1.8918939
-0.72967196 6.192966 -1.8892325
-0.6913408 6.1944785 -1.8883454
-0.65301865 6.1957536 -1.8874582
-0.61480117 6.1977429 -1.8868668
-0.57658392 6.1994963 -1.8862754
-0.53969133 6.2162409 -1.8904153
-0.50361383 6.2451444 -1.8983995
-0.46372285 6.227159 -1.8918939
-0.42478827 6.2194033 -1.8886411
-0.38667804 6.222846 -1.8889368
-0.34891576 6.2327318 -1.8913025
-0.30961862 6.2137656 -1.8847969
-0.27131885 6.211731 -1.8836141
-0.23316339 6.2123241 -1.8833183
-0.19450031 6.1964512 -1.8779956
-0.15664515 6.2042127 -1.8800656
-0.11879362 6.2165184 -1.8836141
-0.080734715 6.2238169 -1.885684
-0.042472072 6.2136869 -1.8824311
-0.0043426151 6.2109652 -1.8815441
0.033726174 6.2032328 -1.8791784
0.071809843 6.2048192 -1.8797698
0.10993111 6.2071271 -1.880657
0.14944628 6.2665014 -1.8992865
0.18500802 6.1690264 -1.8694201
0.22302914 6.1725483 -1.8708986
0.26146305 6.1844258 -1.8750385
0.29931274 6.1807966 -1.8744471
0.33660778 6.1673975 -1.8708986
0.37461743 6.1680765 -1.8717858
0.41181999 6.1561303 -1.8688287
0.44944644 6.1515822 -1.8682373
0.48650485 6.1401377 -1.8655758
0.5244146 6.1398926 -1.8664629
0.56268787 6.1432185 -1.8685329
0.60037136 6.1396503 -1.8685329
0.63734108 6.1291995 -1.8664629
0.67734224 6.1470127 -1.8732642
0.71261817 6.1218657 -1.8667587
0.7528407 6.1391864 -1.87356
0.79049587 6.1344514 -1.87356
0.82582021 6.1124449 -1.8682373
0.8653146 6.1214514 -1.8726728
0.90327716 6.1188617 -1.87356
0.93935233 6.1037621 -1.8706028
0.978297 6.107316 -1.87356
1.0190456 6.1209874 -1.8797698
1.0562588 6.1127367 -1.8791784
1.095093 6.1136632 -1.8815441
1.1296247 6.0908608 -1.8765171
1.1781299 6.1419826 -1.894851
1.2059548 6.0849738 -1.8791784
1.2436515 6.0793314 -1.8797698
1.2821131 6.0771942 -1.8815441
1.3193779 6.0692129 -1.8815441
1.3570102 6.0628676 -1.8821355
1.3939714 6.0534964 -1.8818398
1.4277885 6.0308847 -1.8774042
1.4616064 6.0090156 -1.8732642
1.5000694 6.006422 -1.8753341
1.5361845 5.9943285 -1.8744471
1.57415 5.9894094 -1.8759257
1.6126096 5.9860945 -1.8779956
1.6505797 5.9806914 -1.8794742
1.6890635 5.9768863 -1.8815441
1.7259706 5.9673276 -1.8818398
1.76174 5.9538765 -1.8809526
1.7971327 5.9392972 -1.8797698
1.8307196 5.9190321 -1.8768127
1.8626866 5.8940244 -1.8723772
1.9008703 5.8888478 -1.8744471
1.9315865 5.8607421 -1.8691243
1.9720788 5.8623614 -1.87356
2.0111132 5.8591862 -1.8765171
2.0438704 5.8377194 -1.87356
2.0825419 5.8331656 -1.8762213
2.1202543 5.825664 -1.8779956
2.1589491 5.8206058 -1.880657
2.195636 5.8099298 -1.8815441
2.2329595 5.800806 -1.8830227
2.2709506 5.7932215 -1.8850926
2.3043301 5.7738547 -1.8833183
2.3354008 5.7489862 -1.8797698
2.3640637 5.718657 -1.8744471
2.4013302 5.7093272 -1.8762213
2.435941 5.6936073 -1.8759257
2.468544 5.6732974 -1.8741513
2.5021489 5.6554232 -1.8732642
2.5313175 5.6277666 -1.8691243
2.5741413 5.630374 -1.8753341
2.6098475 5.6170721 -1.8762213
2.6418173 5.5957694 -1.8744471
2.6798203 5.5872064 -1.8771085
2.7140522 5.5706582 -1.8771085
2.7456405 5.5487628 -1.8753341
2.7817795 5.5360794 -1.8768127
2.8100529 5.5078444 -1.8729686
2.8459921 5.49474 -1.8744471
2.8760977 5.4704094 -1.8720814
2.9096093 5.4526587 -1.8720814
2.9416468 5.4321828 -1.8711942
2.9772227 5.4182172 -1.8726728
3.0215747 5.4198732 -1.8797698
3.04725 5.3879266 -1.8750385
3.0835795 5.374928 -1.8771085
3.1189034 5.3600349 -1.878587
3.1444516 5.3284554 -1.8741513
3.1805205 5.3147993 -1.8762213
3.2125762 5.2943673 -1.8759257
3.2424989 5.2704873 -1.8744471
3.2747769 5.2504926 -1.8744471
3.3059108 5.2286854 -1.8738557
3.346693 5.2219753 -1.8788826
3.3734682 5.1933308 -1.8759257
3.406846 5.1749277 -1.8768127
3.4422455 5.1594892 -1.8788826
3.4749086 5.1398535 -1.8794742
3.5080001 5.1207995 -1.8803612
3.5322742 5.0889759 -1.8765171
3.5579386 5.0593925 -1.87356
3.5911324 5.0405779 -1.8747427
3.6326144 5.0331664 -1.8803612
3.6600463 5.0061555 -1.878587
3.6827362 4.9728556 -1.8744471
3.7148993 4.9524574 -1.8753341
3.7440612 4.9280486 -1.8747427
3.7736461 4.9042258 -1.8744471
3.7983828 4.874197 -1.8717858
3.834728 4.8590479 -1.8750385
3.8650668 4.8361731 -1.8753341
3.8970718 4.8153372 -1.8765171
3.9295721 4.7950287 -1.8779956
3.9631896 4.7759733 -1.8800656
3.9948778 4.7544913 -1.8812484
4.0314031 4.7386217 -1.8847969
4.0510516 4.7029386 -1.8803612
4.0766931 4.6743937 -1.8788826
4.1002398 4.6435623 -1.8765171
4.1261086 4.6154675 -1.8753341
4.1639657 4.600688 -1.8797698
4.1998601 4.5835042 -1.8833183
4.2207589 4.5499434 -1.8800656
4.2459822 4.5211744 -1.8788826
4.2775927 4.4991903 -1.880657
4.3044562 4.4721708 -1.8803612
4.3264828 4.4402013 -1.8779956
4.3630371 4.4230924 -1.8821355
4.3907695 4.396914 -1.8824311
4.418345 4.3705621 -1.8827269
4.4532776 4.3513813 -1.8862754
4.472333 4.3166766 -1.8830227
4.4994268 4.2898126 -1.8833183
4.5319223 4.2680187 -1.8859797
4.5580254 4.2401309 -1.8859797
