# .PCD v0.7 - Point Cloud Data file format
VERSION 0.7
FIELDS x y z
SIZE 4 4 4
TYPE F F F
COUNT 1 1 1
WIDTH 1549
HEIGHT 1
VIEWPOINT 0 0 0 1 0 0 0
POINTS 1549
DATA ascii
-3.171088 12.620445 -2.061882
-3.0938253 12.640624 -2.0620413
-3.0200961 12.675695 -2.0647504
-2.9453838 12.707452 -2.0669816
-2.8701782 12.737805 -2.0690534
-2.7839439 12.71853 -2.0629976
-2.7033896 12.723784 -2.0610852
-2.6390169 12.806849 -2.0720813
-2.5615458 12.828609 -2.0730374
-2.4788475 12.82373 -2.0696907
-2.4068294 12.874603 -2.0755873
-2.3186617 12.838612 -2.0673003
-2.248318 12.901224 -2.0752685
-2.1565218 12.839811 -2.0629976
-2.0769098 12.847929 -2.0622008
-2.0033429 12.894574 -2.0677783
-1.9214191 12.888071 -2.0647504
-1.8363001 12.857594 -2.0578978
-1.7668591 12.938067 -2.0692127
-1.6942023 13.000549 -2.0776591
-1.6235201 13.084177 -2.0896113
-1.5385833 13.054675 -2.0832367
-1.4586715 13.065832 -2.0835555
-1.3760922 13.051956 -2.07989
-1.2979312 13.079802 -2.0830774
-1.2177421 13.088503 -2.0832367
-1.1368115 13.088843 -2.0821211
-1.0556843 13.085732 -2.0805275
-0.97713292 13.115591 -2.0843523
-0.89785081 13.139069 -2.0872209
-0.81580442 13.121668 -2.0835555
-0.73511028 13.123469 -2.0830774
-0.65580219 13.152383 -2.0870614
-0.57500207 13.154186 -2.0867429
-0.49364814 13.140697 -2.0840335
-0.41322631 13.150385 -2.085149
-0.33252928 13.152673 -2.085149
-0.25181973 13.154466 -2.085149
-0.17131948 13.172544 -2.0878584
-0.090531908 13.179271 -2.0888145
-0.0096637206 13.179579 -2.0888145
0.07123135 13.184325 -2.0896113
0.15203662 13.175743 -2.0883365
0.23247799 13.151859 -2.084671
0.31307802 13.146237 -2.0840335
0.3934111 13.133215 -2.0822806
0.47341824 13.114768 -2.0797307
0.55412984 13.117535 -2.080687
0.63293803 13.079375 -2.0751092
0.71436191 13.096932 -2.0786152
0.79184002 13.045003 -2.0709658
0.87140697 13.033004 -2.0698502
0.95179081 13.033319 -2.0708063
1.0329125 13.041995 -2.0731969
1.1097271 12.998034 -2.0671411
1.1892807 12.989014 -2.0668223
1.2672292 12.963786 -2.0639536
1.3414434 12.904706 -2.0556667
1.4248145 12.934503 -2.061882
1.5056354 12.938264 -2.0639536
1.584034 12.920943 -2.0626788
1.6655555 12.928605 -2.0655472
1.7455132 12.923034 -2.0663443
1.8218741 12.891552 -2.0629976
1.9045436 12.904547 -2.0669816
1.9803864 12.871152 -2.0634756
2.066817 12.905548 -2.071125
2.1467755 12.897492 -2.0719218
2.2166307 12.830573 -2.0631568
2.3008838 12.847827 -2.0682566
2.3721149 12.792699 -2.0615633
2.4498212 12.774024 -2.0609257
2.524318 12.739385 -2.0577385
2.5978885 12.70141 -2.0540731
2.6729217 12.671707 -2.051842
2.7510428 12.656997 -2.0521607
2.8299463 12.645658 -2.053117
2.9172301 12.670387 -2.0601289
2.9689989 12.542731 -2.0419614
3.0498693 12.540586 -2.0446706
3.1274769 12.524509 -2.0451486
3.2081871 12.520385 -2.0476985
3.2995014 12.555843 -2.0569417
3.3610766 12.478167 -2.0473797
3.4320638 12.437324 -2.0440331
3.5109973 12.42553 -2.0456269
3.5827849 12.388579 -2.043077
3.6553719 12.355003 -2.0411646
3.7325411 12.337067 -2.0419614
3.7889211 12.251683 -2.0314434
3.8693783 12.245149 -2.034312
3.9441371 12.220237 -2.0341525
4.0085402 12.163926 -2.0287342
4.0865631 12.149394 -2.0304873
4.1555858 12.108216 -2.0277779
4.2255621 12.070377 -2.0257063
4.2995453 12.044223 -2.0257063
4.3753915 12.023181 -2.0266623
4.4514847 12.002586 -2.0277779
4.5323753 11.99444 -2.0311246
4.5874476 11.918495 -2.0228376
4.6619325 11.893799 -2.0234752
4.7245793 11.839296 -2.0190129
4.7859902 11.782644 -2.0142319
4.853672 11.742107 -2.0123196
4.9428496 11.753057 -2.019491
4.993906 11.673492 -2.0108855
5.0512614 11.610042 -2.0051482
5.0976429 11.522853 -1.9952676
5.1872807 11.533675 -2.0027578
5.2616458 11.50971 -2.0041921
5.3342485 11.481685 -2.0049889
5.4109197 11.46213 -2.0073793
5.481575 11.429604 -2.0075388
5.5390649 11.370016 -2.0029171
5.5899019 11.297767 -1.9960645
5.6498113 11.24473 -1.9927179
5.7083836 11.189625 -1.9890524
5.7746644 11.150005 -1.9882556
5.8438897 11.11611 -1.9885744
5.9143105 11.084398 -1.9893712
5.9996033 11.080022 -1.9952676
6.0475106 11.00666 -1.9885744
6.0990705 10.94089 -1.9833153
6.1340156 10.846544 -1.9727973
6.1862082 10.783869 -1.9681758
6.2790689 10.791787 -1.9767814
6.3536963 10.76751 -1.9794906
6.4125485 10.716462 -1.9772595
6.4833035 10.685353 -1.9788531
6.545125 10.639485 -1.9777377
6.6040158 10.589073 -1.9758252
6.648819 10.516643 -1.9697694
6.7105594 10.471493 -1.9689726
6.7617793 10.41025 -1.9651479
6.8135867 10.350423 -1.9616418
6.8884721 10.325667 -1.9649885
6.9566755 10.290567 -1.9664228
7.012434 10.2371 -1.9643511
7.0621696 10.175225 -1.9606856
7.1312847 10.141393 -1.962598
7.1739025 10.070107 -1.9571797
7.2424889 10.035505 -1.959092
7.2986856 9.9837036 -1.9576577
7.3380704 9.9093771 -1.9517612
7.3963656 9.8610058 -1.9511237
7.4424005 9.7965698 -1.947299
7.4975548 9.7444601 -1.9460241
7.551744 9.6912642 -1.9445899
7.6141238 9.6486197 -1.9453866
7.6657877 9.5924644 -1.9434743
7.7058716 9.5222244 -1.9386934
7.7578969 9.4671268 -1.9370997
7.8114271 9.4140282 -1.9359841
7.853168 9.347024 -1.932
7.8783898 9.2610636 -1.9240319
7.9286237 9.2050686 -1.9224381
8.0083141 9.183032 -1.9281753
8.0527477 9.1204004 -1.9253068
8.0953999 9.056097 -1.9221195
8.1448526 8.9996662 -1.9206852
8.1852484 8.933507 -1.9171792
8.2217836 8.8635721 -1.9128764
8.2679052 8.8043213 -1.910964
8.3136091 8.7448387 -1.9090515
8.3506813 8.6765909 -1.9052268
8.3954954 8.616703 -1.9033145
8.4253311 8.5418329 -1.8980554
8.4671211 8.479496 -1.895665
8.5119734 8.4204397 -1.8940713
8.5592432 8.3639135 -1.8931152
8.6260281 8.3263216 -1.8966212
8.6612368 8.2582483 -1.8931152
8.6822815 8.1771965 -1.8865812
8.6954308 8.0894737 -1.8784536
8.7412691 8.0326271 -1.8776568
8.78162 7.9708781 -1.8757445
8.8340378 7.9201403 -1.8765413
8.8676872 7.8526964 -1.873354
8.9275932 7.808537 -1.8759038
8.9843016 7.7613559 -1.8778162
9.015234 7.6919856 -1.8743101
9.0501823 7.6263456 -1.8717604
9.083148 7.5593033 -1.8688918
9.1247845 7.4996667 -1.8679357
9.1637316 7.4379373 -1.8665013
9.2061157 7.3790998 -1.8658639
9.2667017 7.3347278 -1.8690511
9.2944202 7.2643552 -1.8655452
9.3247509 7.196332 -1.8626766
9.3907175 7.155735 -1.8671387
9.3792267 7.0564322 -1.8559833
9.4033279 6.9846206 -1.8521585
9.4412308 6.9232888 -1.8512024
9.4667406 6.8530707 -1.8478557
9.4885321 6.7805047 -1.8438716
9.5033369 6.7033772 -1.8386126
9.5580626 6.6545296 -1.8413217
9.5930185 6.5918431 -1.8402063
9.6373701 6.5356283 -1.8410031
9.6625223 6.4664874 -1.8381345
9.6962519 6.4032693 -1.837019
9.7428026 6.3485045 -1.8384532
9.7815733 6.2886043 -1.8384532
9.84165 6.2422161 -1.8425967
9.888135 6.1869483 -1.8441904
9.9023895 6.1116405 -1.8397281
9.9371738 6.0492253 -1.83925
9.9554834 5.9769583 -1.835744
9.9758301 5.9062033 -1.8327161
10.034901 5.8583212 -1.837019
10.08007 5.8020554 -1.8387719
10.147248 5.7581244 -1.8446684
10.175496 5.6918979 -1.8433934
10.212823 5.630785 -1.8438716
10.271468 5.581213 -1.8483338
10.30291 5.516685 -1.8478557
10.294655 5.4312506 -1.8402063
10.33567 5.3720794 -1.8416405
10.400072 5.3247576 -1.8473777
10.458992 5.2741799 -1.8521585
10.475242 5.2020016 -1.84929
10.520267 5.144134 -1.8516804
10.548964 5.0782013 -1.8512024
10.567435 5.0074596 -1.8489712
10.580068 4.9341788 -1.8457839
10.665772 4.8946991 -1.8556645
10.635322 4.8019423 -1.8449872
10.738568 4.7694564 -1.858055
10.765821 4.7026858 -1.8577362
10.797195 4.6377082 -1.8582144
10.810897 4.5652251 -1.8556645
10.847823 4.5025897 -1.8572582
10.832284 4.4184184 -1.849768
10.865605 4.3544407 -1.8508836
10.891201 4.2873268 -1.8507242
10.97255 4.2417789 -1.8602861
10.989141 4.1708694 -1.8586925
10.984923 4.0923333 -1.8535929
11.004263 4.02282 -1.8526366
11.053829 3.9642222 -1.8569394
11.105884 3.9061501 -1.8617204
11.112844 3.8321385 -1.8588518
11.137083 3.7641954 -1.8590112
11.18996 3.7057211 -1.8641108
11.196523 3.6318123 -1.8614017
11.244942 3.5714116 -1.8658639
11.2657 3.5020537 -1.8657045
11.265254 3.426255 -1.8620391
11.263355 3.3503122 -1.8582144
11.324462 3.2929928 -1.865067
11.366295 3.2296522 -1.8687325
11.369727 3.1553607 -1.8660232
11.391732 3.0863125 -1.8665013
11.404728 3.014842 -1.8655452
11.411541 2.9418495 -1.8636328
11.446611 2.8761051 -1.8665013
11.473632 2.8081632 -1.8680949
11.472401 2.7333615 -1.865067
11.498573 2.6651461 -1.8666607
11.507968 2.5930226 -1.8655452
11.529449 2.523629 -1.8665013
11.55727 2.4555058 -1.8685731
11.574053 2.384944 -1.8688918
11.585565 2.313302 -1.8684137
11.549138 2.2324264 -1.8601267
11.610168 2.1704109 -1.8679357
11.660184 2.1057997 -1.8739915
11.657325 2.0315022 -1.8714416
11.703646 1.9656602 -1.8770194
11.689173 1.8895565 -1.8727165
11.705424 1.8185555 -1.8735133
6.0697041 0.90468836 -0.9519096
0 0 -0
0 0 -0
5.9130349 0.7703535 -0.9238615
5.908833 0.73296297 -0.92242718
5.8975325 0.69484395 -0.91987735
0 0 -0
0 0 -0
0 0 -0
0 0 -0
0 0 -0
0 0 -0
0 0 -0
0 0 -0
0 0 -0
0 0 -0
0 0 -0
0 0 -0
0 0 -0
0 0 -0
0 0 -0
0 0 -0
0 0 -0
0 0 -0
0 0 -0
0 -0 -0
0 -0 -0
0 -0 -0
0 -0 -0
0 -0 -0
0 -0 -0
0 -0 -0
0 -0 -0
0 -0 -0
0 -0 -0
5.9516764 -0.39815617 -0.92418021
5.9609361 -0.43552995 -0.92609257
5.9670091 -0.47279856 -0.92752683
5.9817014 -0.51091361 -0.93039542
0 -0 -0
6.0752001 -0.5940733 -0.94665056
10.33008 -1.0738915 -1.6378136
10.270307 -1.13142 -1.6292078
10.361232 -1.2058244 -1.6451443
10.365396 -1.2708182 -1.6470567
10.401464 -1.34007 -1.6542281
10.39696 -1.4043955 -1.6548655
10.353934 -1.4633296 -1.6492878
10.322297 -1.5235181 -1.6456224
10.310803 -1.5865256 -1.6453037
10.287228 -1.6475765 -1.6430726
10.263291 -1.7083979 -1.6408415
10.247751 -1.7704998 -1.6400447
10.226006 -1.8314315 -1.6382916
10.214575 -1.8941426 -1.6382916
10.197913 -1.9558529 -1.6374948
10.17991 -2.0172381 -1.6365386
10.156701 -2.0774872 -1.6347857
10.109954 -2.132638 -1.6292078
10.099572 -2.1952603 -1.629686
8.3238583 -1.8629194 -1.3382087
10.049745 -2.3139384 -1.6260206
10.05265 -2.3796515 -1.6288892
10.053207 -2.4450209 -1.631439
10.045679 -2.5085733 -1.6327139
10.044442 -2.5738404 -1.6351043
7.46384 -1.9615614 -1.2070519
10.022587 -2.6997316 -1.6368574
10.015349 -2.763804 -1.638451
10.003902 -2.8268154 -1.6394072
9.9892149 -2.8889678 -1.6398853
9.9570999 -2.9460051 -1.6374948
7.9875579 -2.4167583 -1.3084075
7.939568 -2.4555159 -1.3028297
7.9215279 -2.5032935 -1.3023517
7.9116559 -2.5536711 -1.3033079
8.7040739 -2.868489 -1.4406799
9.8054256 -3.2982287 -1.6312796
9.7794008 -3.3564088 -1.6303234
9.7334642 -3.4075446 -1.6260206
9.705864 -3.4648807 -1.624905
9.6964817 -3.528758 -1.6269767
7.664196 -2.8426292 -1.2808375
9.6275139 -3.638062 -1.622674
9.5782909 -3.6867836 -1.6180524
9.5269957 -3.734318 -1.6131121
9.4589739 -3.7747767 -1.6053033
9.4493542 -3.8383172 -1.6076937
9.4548206 -3.9082921 -1.6127933
9.5207539 -4.004118 -1.6285704
9.5196056 -4.072556 -1.6327139
9.4736166 -4.1218324 -1.6290485
9.418354 -4.1667047 -1.6237895
9.4034147 -4.2292747 -1.6257019
9.3710022 -4.2840204 -1.6245863
9.3132029 -4.3268819 -1.6190085
9.2802286 -4.3809953 -1.617893
9.2371502 -4.4301715 -1.6150244
9.2018051 -4.4828753 -1.6135901
9.1697016 -4.5370631 -1.6127933
9.1011114 -4.5728555 -1.6054626
9.0816755 -4.6330986 -1.6070563
9.0653496 -4.6950912 -1.6092874
9.0276318 -4.7460332 -1.6076937
8.9983406 -4.8013363 -1.6076937
8.9487438 -4.8456478 -1.6040283
8.898077 -4.8890562 -1.6002036
8.8739471 -4.9469266 -1.6013191
8.8356924 -4.9969096 -1.5998849
8.786026 -5.0402236 -1.5963788
8.7549343 -5.094039 -1.5963788
8.7124605 -5.1411405 -1.5943071
8.6943054 -5.2026124 -1.596857
8.629302 -5.2358909 -1.5906417
8.6079435 -5.295465 -1.5927135
8.5953941 -5.3607197 -1.5965382
8.4864035 -5.3653545 -1.582036
8.4200745 -5.3960199 -1.5756614
8.3901176 -5.4497337 -1.576299
8.3540468 -5.4994836 -1.5758208
8.3571024 -5.5752926 -1.5829922
8.2867489 -5.6021395 -1.5759802
8.2367439 -5.6422811 -1.5729523
8.2092676 -5.6977801 -1.5743866
8.1361961 -5.7213559 -1.5668964
8.1322966 -5.793509 -1.5731117
8.1110048 -5.8536978 -1.5759802
8.0653706 -5.8963642 -1.5740678
8.0250731 -5.9428043 -1.573271
7.9560766 -5.9676476 -1.5667371
7.9468241 -6.0372539 -1.5723149
7.8705087 -6.0558014 -1.5643466
7.8503351 -6.1173291 -1.5678526
7.7646022 -6.1274672 -1.5579721
7.7206888 -6.1700644 -1.5566971
7.6750102 -6.2111111 -1.5551034
7.6337004 -6.2555847 -1.554466
7.5944138 -6.3016758 -1.5543066
7.5246134 -6.3221197 -1.5477728
7.5044789 -6.3841619 -1.5517569
7.4816217 -6.444262 -1.5552628
7.4337549 -6.4829102 -1.5535098
7.3819957 -6.5179467 -1.5509601
7.3337669 -6.555882 -1.549207
7.2509475 -6.5623374 -1.5399638
7.2105455 -6.6067047 -1.5399638
7.2342901 -6.7105737 -1.5541472
7.1541166 -6.7183442 -1.5455416
7.1120434 -6.7614341 -1.5453823
7.0384126 -6.7741404 -1.5382109
6.998836 -6.8192663 -1.5386889
6.951942 -6.8572297 -1.5375735
6.8755045 -6.8655777 -1.5297645
6.8172793 -6.8914938 -1.5260992
6.7893553 -6.9480214 -1.5294458
6.7171125 -6.9590073 -1.5225931
6.7117567 -7.0393877 -1.5313582
6.6684375 -7.0804377 -1.5313582
6.6040211 -7.098815 -1.5264179
6.5443068 -7.1217575 -1.5225931
6.3936563 -7.0440917 -1.4969355
2.1786101 -2.4304321 -0.48815948
2.1636562 -2.443754 -0.48815948
2.1551206 -2.4644146 -0.48975313
6.1556115 -7.1256685 -1.4813178
6.10921 -7.1603007 -1.4806803
6.0677047 -7.2006707 -1.4813178
6.0436172 -7.2620473 -1.4864174
6.0378103 -7.3462782 -1.4962981
6.0349288 -7.435308 -1.5071348
6.0515566 -7.5499969 -1.5232307
5.9922495 -7.5707312 -1.519884
2.0103395 -2.5726099 -0.48831883
1.9806434 -2.5669217 -0.48465344
1.9720362 -2.588449 -0.48656583
1.9578973 -2.6028669 -0.48704392
1.9377687 -2.6092839 -0.48592836
1.8318141 -2.4985268 -0.46138626
1.823396 -2.5193155 -0.46329865
1.8285675 -2.5593712 -0.46903574
5.5760589 -7.905261 -1.5229119
5.5336533 -7.9482384 -1.5246649
5.4730377 -7.9649563 -1.5213182
5.4079933 -7.9746943 -1.5166967
5.3952003 -8.0618753 -1.5272148
5.307548 -8.0371628 -1.5160593
5.2769976 -8.098527 -1.521637
5.2272067 -8.1307535 -1.521637
5.1232815 -8.0776415 -1.5053818
1.775013 -2.8374078 -0.50154608
1.7560139 -2.8457253 -0.501068
1.7405733 -2.8598194 -0.50170541
1.7240094 -2.8721385 -0.50202417
4.8886828 -8.2573299 -1.5103221
4.8369293 -8.2854652 -1.5100033
4.7973275 -8.3346672 -1.5136688
4.7563291 -8.3819761 -1.5170155
4.6889033 -8.3825712 -1.5117564
4.6388106 -8.4137774 -1.5122344
4.5823836 -8.4334078 -1.5106409
4.5352116 -8.4700689 -1.5122344
4.4790087 -8.4898787 -1.5108002
4.4281974 -8.5198298 -1.5112783
4.3731375 -8.5415678 -1.5103221
4.3099761 -8.5470848 -1.5064974
4.24296 -8.5441914 -1.5012383
4.1956582 -8.5807076 -1.5031507
4.1416445 -8.6036215 -1.5026727
4.0921578 -8.6360092 -1.5039475
4.0294933 -8.640377 -1.5002822
3.9677536 -8.6460972 -1.4969355
3.912596 -8.665782 -1.4961387
3.8633578 -8.6986475 -1.4977323
3.811492 -8.7258081 -1.4983698
3.7656727 -8.7671719 -1.5015571
3.7175686 -8.8037548 -1.5039475
3.669914 -8.8418999 -1.5066568
3.6085072 -8.8468838 -1.5036288
3.5431378 -8.8413677 -1.4988478
3.4743557 -8.8261976 -1.4924734
3.4340177 -8.8832607 -1.4986885
3.3878546 -8.9263153 -1.5025133
3.3144076 -8.8969793 -1.4939076
3.2648394 -8.931057 -1.4962981
3.2059784 -8.9397707 -1.4943857
3.1504095 -8.9574108 -1.494067
3.0873418 -8.9532413 -1.4900829
3.0399349 -8.994462 -1.4939076
2.9899652 -9.0288763 -1.4966167
2.9412107 -9.0677118 -1.5001228
2.8804362 -9.0695925 -1.4974136
2.817991 -9.0654135 -1.4937482
2.7611644 -9.0787563 -1.4931108
2.7115993 -9.1163445 -1.4966167
2.6506491 -9.1157484 -1.4937482
2.5943961 -9.1308908 -1.4935888
2.5467701 -9.1770782 -1.4986885
2.4821508 -9.1620407 -1.4935888
2.4266438 -9.1799612 -1.494067
2.3658342 -9.1774712 -1.4911984
2.3162148 -9.2186232 -1.4956605
2.2570248 -9.2221136 -1.4939076
2.1974216 -9.2233047 -1.4918358
2.1396723 -9.2318058 -1.491039
2.0799484 -9.2312775 -1.4888079
0.56715053 -2.5925331 -0.38967234
0.54897511 -2.5853419 -0.38791934
0.5333007 -2.5896287 -0.38807869
0.51817435 -2.5967245 -0.38871616
0.50448012 -2.6114864 -0.39062852
0.48953548 -2.6203551 -0.39158469
0.48116937 -2.6660554 -0.39859673
0.45988563 -2.6407535 -0.39397517
0.44056618 -2.6250277 -0.39094725
0.42649946 -2.6403508 -0.39301899
0.41347393 -2.6634037 -0.39636564
0.40498623 -2.7186177 -0.4049713
0.39248571 -2.7503703 -0.40975225
0.37413266 -2.7419672 -0.40799922
0.35704604 -2.7422535 -0.40768051
0.33595735 -2.710103 -0.40210274
0.98194647 -8.332922 -1.3157383
0.92323834 -8.2710924 -1.3047422
0.99237055 -9.4134979 -1.4892861
0.82283998 -8.2935886 -1.3066546
0.74586278 -8.0183344 -1.2612357
0.6797297 -7.8280234 -1.2296816
0.63073206 -7.8202386 -1.2277693
0.58361661 -7.8357754 -1.2296816
0.53795022 -7.8746662 -1.2354187
0.58112717 -9.3488951 -1.4733496
0.19887137 -3.5555415 -0.5361281
0.1766085 -3.547821 -0.53469384
0.15613043 -3.5784261 -0.53947479
0.35478273 -9.447155 -1.4873736
0.25708303 -8.1861372 -1.2833873
0.23850013 -9.4379673 -1.485302
0.18079355 -9.4501104 -1.4870549
0.1228697 -9.4559774 -1.4878517
0.064846598 -9.4565535 -1.4878517
0.006821055 -9.4567738 -1.4878517
-0.05121005 -9.4576244 -1.4880111
-0.10933086 -9.4650297 -1.4892861
-0.16724837 -9.4552965 -1.4878517
-0.22505057 -9.4452105 -1.4864174
-0.28303057 -9.4446383 -1.4865768
-0.34190163 -9.4683752 -1.4907203
-0.40074152 -9.4838524 -1.4935888
-0.45892578 -9.4812155 -1.4935888
-0.51757646 -9.487093 -1.4950231
-0.57631648 -9.4926071 -1.4964575
-0.6344853 -9.4879074 -1.4962981
-0.69233072 -9.4789124 -1.4955013
-0.7510246 -9.4813747 -1.4966167
-0.80809575 -9.4638004 -1.494545
-0.86506951 -9.446867 -1.4926326
-0.92215395 -9.432538 -1.4911984
-0.98185033 -9.4443769 -1.494067
-1.0417266 -9.4558382 -1.4969355
-1.1004114 -9.4551516 -1.4978917
-1.1586466 -9.450182 -1.4982104
-1.2186278 -9.4585609 -1.5007602
-1.2786232 -9.46558 -1.5031507
-1.3335022 -9.4350739 -1.4994854
-1.3942518 -9.4462471 -1.5026727
-1.4508357 -9.4287329 -1.5012383
-1.5114715 -9.4371996 -1.5041069
-0.49244696 -2.9566672 -0.44513112
-0.51192373 -2.9613726 -0.44640604
-0.53321671 -2.9756675 -0.44927457
-0.55704379 -3.0024307 -0.45421487
-0.57657135 -3.0047736 -0.45517105
-1.8660543 -9.4168129 -1.5109595
-1.9119319 -9.3471537 -1.5013977
-1.9708788 -9.3429737 -1.5026727
-2.0325718 -9.3509636 -1.5060192
-0.65165675 -2.9105284 -0.44274065
-0.66795284 -2.8997407 -0.44162509
-0.68800646 -2.9051945 -0.44321874
-2.2656424 -9.3155317 -1.5088879
-2.3184543 -9.284214 -1.5060192
-2.3758674 -9.2717266 -1.506338
-0.76662266 -2.9160793 -0.44799966
-0.78219038 -2.9027412 -0.44656539
-0.79289693 -2.8721921 -0.44226256
-0.80567402 -2.8501725 -0.439394
-0.82479262 -2.8508656 -0.44035017
-2.7382081 -9.2546749 -1.5192465
-2.7800777 -9.1885624 -1.5109595
-2.8378637 -9.1760473 -1.5117564
-1.0152636 -3.2119536 -0.50505209
-1.0346494 -3.2047241 -0.50489271
-3.0174062 -9.1560116 -1.5174935
-3.0518153 -9.0727606 -1.5064974
-3.1160791 -9.0790758 -1.5108002
-1.12962 -3.2258883 -0.51302028
-1.1414274 -3.1965818 -0.50919557
-3.2863805 -9.030385 -1.5125532
-3.3540854 -9.0433731 -1.5182903
-1.1529669 -3.0503581 -0.48768139
-1.1716617 -3.0432262 -0.48768139
-1.1845487 -3.0212734 -0.48513156
-1.2056258 -3.0203667 -0.48624709
-3.6068783 -8.8795223 -1.5084097
-3.6684589 -8.8745594 -1.5114377
-3.7331758 -8.8764534 -1.5157405
-3.7930059 -8.866087 -1.5179716
-3.8473358 -8.8426466 -1.5179716
-3.888741 -8.7899828 -1.512872
-3.9470561 -8.7758608 -1.514625
-1.3326756 -2.914474 -0.47859761
-1.3388876 -2.8811729 -0.4741354
-1.3594908 -2.8791525 -0.47525096
-4.1693482 -8.693265 -1.5176529
-4.2208815 -8.663969 -1.5170155
-4.2897229 -8.6697617 -1.5227525
-4.3410659 -8.6397486 -1.5221151
-4.4016228 -8.6278992 -1.5248243
-4.4599276 -8.611249 -1.5267366
-4.5131407 -8.5845947 -1.526896
-4.5768828 -8.5776453 -1.5307207
-4.6242576 -8.5398512 -1.5289677
-4.6537528 -8.4697847 -1.5213182
-4.6691046 -8.375536 -1.5092065
-4.6732717 -8.2633734 -1.4937482
-4.6875372 -8.171174 -1.4819553
-4.7202106 -8.1123915 -1.4763775
-4.754848 -8.0577688 -1.4715966
-4.7824039 -7.9920144 -1.464744
-4.8062606 -7.9211626 -1.456935
-4.8433938 -7.8730235 -1.4534291
-4.8816853 -7.8272409 -1.4504012
-4.9111571 -7.7679338 -1.4448234
-4.9395533 -7.7077298 -1.4390863
-4.9937444 -7.6880393 -1.4411581
-5.0543928 -7.6778688 -1.4451421
-5.1003127 -7.6450686 -1.4448234
-5.163712 -7.6381664 -1.4496043
-5.2406073 -7.6503205 -1.45821
-5.3319168 -7.6820927 -1.4707998
-5.3846312 -7.6573076 -1.4723934
-5.4819183 -7.6948824 -1.4864174
-5.5509825 -7.6915216 -1.4924734
-5.6044812 -7.6660833 -1.4942263
-5.6666884 -7.6521788 -1.4983698
-5.7549982 -7.6725483 -1.5095253
-5.8061481 -7.6425948 -1.5106409
-5.9570761 -7.742188 -1.5382109
-6.0712142 -7.791151 -1.555741
-1.7573938 -2.2264733 -0.41915473
-1.7734872 -2.2187331 -0.41979218
-6.1651568 -7.6182199 -1.5433105
-6.2831154 -7.6672993 -1.561478
-6.3306732 -7.6293621 -1.5616374
-6.3659363 -7.5767689 -1.5587689
-6.4001532 -7.5232782 -1.555741
-6.4597244 -7.4995742 -1.5590876
-6.5075655 -7.4620295 -1.5595657
-6.5728307 -7.4441609 -1.5643466
-6.6236467 -7.4095788 -1.5656215
-6.6822348 -7.3834372 -1.5688088
-6.7514215 -7.3685017 -1.574546
-6.7998633 -7.3305559 -1.5753428
-6.867691 -7.3131638 -1.5807611
-6.9035921 -7.2615852 -1.5786893
-6.9274817 -7.1977491 -1.5739084
-6.9701381 -7.1536932 -1.5735897
-7.034698 -7.1318765 -1.5783707
-7.085999 -7.0962629 -1.5801237
-7.1462507 -7.0693135 -1.5839484
-3.4911664 -3.4111633 -0.7491982
-3.4303491 -3.3108284 -0.73087132
-3.3655775 -3.2086463 -0.71190697
-3.4412556 -3.2407315 -0.72433734
-7.3900948 -6.8750205 -1.5906417
-3.5192904 -3.2336624 -0.73278368
-3.5178673 -3.192765 -0.72816211
-3.4756489 -3.1157606 -0.7147755
-3.3668435 -2.9811449 -0.68720549
-3.3865581 -2.96173 -0.6875242
-3.4084024 -2.9441218 -0.68832105
-4.8758039 -4.1598964 -0.99589413
-3.7673731 -3.1743586 -0.75652897
-3.8087847 -3.1694973 -0.76115054
-5.0232377 -4.1283698 -1.0108744
-4.8560867 -3.9413037 -0.97087395
-4.8755569 -3.9077284 -0.96991777
-4.870028 -3.8544555 -0.96386194
-4.8928089 -3.8238931 -0.96370256
-5.0162148 -3.8710063 -0.98410118
-5.0940518 -3.8814421 -0.99509734
-5.0365191 -3.7889776 -0.97868282
-5.1183171 -3.8015659 -0.99047577
-5.2426505 -3.8442338 -1.010715
-5.232554 -3.7876785 -1.0040218
-5.2058978 -3.7199125 -0.99414116
-5.2423387 -3.6975739 -0.99685031
-5.0575223 -3.520927 -0.95605308
-5.3174233 -3.6536515 -1.0027468
-5.3356562 -3.6181848 -1.00195
-5.284739 -3.5365083 -0.98776656
-5.2321987 -3.4550505 -0.97342378
-5.245029 -3.4174912 -0.97183013
-5.2667303 -3.385778 -0.97198951
-5.2974095 -3.3597438 -0.97390187
-5.4585209 -3.415153 -1.0006751
-5.296236 -3.2685571 -0.96593362
-5.5278463 -3.3648524 -1.0059341
-5.5763192 -3.3476408 -1.0111932
-5.4030733 -3.1986835 -0.97485805
-5.3970218 -3.1505382 -0.9700771
-5.3478041 -3.0779622 -0.95732796
-5.3854785 -3.0558105 -0.96083397
-5.4118814 -3.027046 -0.96226829
-5.7337961 -3.1610975 -1.0182052
-5.4364767 -2.9538069 -0.96003717
-5.6050596 -3.001018 -0.98760718
-5.6478157 -2.9794688 -0.99206942
-5.6405888 -2.9315538 -0.98744786
-5.5995955 -2.8667428 -0.9767704
-5.5007262 -2.7736514 -0.95573431
-5.6193223 -2.7903464 -0.97406125
-5.6744723 -2.7744629 -0.98091388
-5.6326823 -2.711329 -0.97039586
-5.7981954 -2.7473195 -0.99700969
-5.7523155 -2.6824803 -0.98585421
-5.7264962 -2.62778 -0.97836405
-5.8036947 -2.6202204 -0.98920083
-5.81425 -2.5821557 -0.98824465
-5.8987384 -2.5764675 -1.0003563
-5.9253211 -2.5449007 -1.0022687
-5.9617419 -2.5173295 -1.0059341
-5.9807229 -2.4822154 -1.0065715
-6.0369749 -2.4622517 -1.0137429
-5.9814095 -2.3968832 -1.0014719
-6.1402235 -2.4169147 -1.0264921
-5.9385505 -2.2955337 -0.98904145
-5.9672914 -2.2646577 -0.99159127
-6.1503673 -2.2910755 -1.0207549
-6.1791444 -2.2587183 -1.0233048
-6.1055374 -2.1894317 -1.0083245
-6.1719398 -2.1705999 -1.0174084
-6.1795425 -2.1307576 -1.0164522
-6.0101295 -2.0311546 -0.98537612
-6.283946 -2.0808372 -1.0298387
-6.3923779 -2.073313 -1.0460939
-6.3776932 -2.0253839 -1.0414723
-6.3126984 -1.9621801 -1.0284045
-6.1829453 -1.8803147 -1.0044998
-6.4006462 -1.9037075 -1.0392412
-6.4131546 -1.8646737 -1.0394006
-6.4558125 -1.8341937 -1.0446596
-6.4926295 -1.8016759 -1.0489625
-6.6045651 -1.7891719 -1.065855
-6.7013173 -1.7713238 -1.0801978
-6.8372903 -1.7624604 -1.1010746
-6.9025502 -1.7341889 -1.1101583
-7.2026515 -1.7626904 -1.1582863
-7.4198031 -1.7676629 -1.1925497
-8.1277542 -1.8837353 -1.3080888
-8.0380373 -1.81104 -1.2913556
-8.3132391 -1.8195332 -1.3350214
-9.0175896 -1.9158249 -1.4494449
-9.0137043 -1.8572695 -1.4468951
-9.5786858 -1.9125159 -1.5380515
-9.9886112 -1.9307245 -1.6035502
-10.520406 -1.9666519 -1.6889695
-10.596394 -1.9136448 -1.6994876
-10.781052 -1.8787651 -1.7278544
-11.154548 -1.8734186 -1.7871379
-11.51765 -1.8618239 -1.8446684
-11.990274 -1.8628196 -1.9200478
-12.008313 -1.7902328 -1.9211633
-12.045459 -1.7202868 -1.9254661
-12.008838 -1.6399318 -1.9178166
-12.108736 -1.5779556 -1.9324782
-12.068226 -1.4974267 -1.9243506
-12.081108 -1.4238117 -1.924988
-12.112183 -1.3521765 -1.9286534
-12.116324 -1.2774179 -1.9280159
-12.084639 -1.1991489 -1.9216413
-12.112411 -1.1268976 -1.924988
-12.097461 -1.0506761 -1.921482
-12.10368 -0.97642767 -1.921482
-12.131102 -0.9037568 -1.924988
-12.137403 -0.82937205 -1.9251474
-12.131426 -0.75420856 -1.9233943
-12.116112 -0.67865247 -1.9202071
-12.132866 -0.60493612 -1.9222789
-12.173827 -0.53211832 -1.9283347
-12.118659 -0.45522279 -1.9189322
-12.141945 -0.38150728 -1.9222789
-11.249044 0.82688862 -1.9255872
-11.19171 0.89174336 -1.9164931
-11.169342 0.95896322 -1.9135761
-11.228975 1.0335355 -1.9250724
-11.183205 1.0985591 -1.918209
-11.201729 1.1698204 -1.9226701
-11.225675 1.2420011 -1.9281609
-11.161089 1.3042192 -1.918209
-11.112788 1.3677397 -1.9111739
-11.130566 1.4393146 -1.9158068
-11.139097 1.5099672 -1.9188954
-11.102311 1.5744112 -1.9140909
-11.074901 1.6399047 -1.9110024
-11.059761 1.7070763 -1.9101444
-11.018926 1.7700586 -1.9048253
-11.007857 1.8376361 -1.9048253
-11.025496 1.9101928 -1.9099729
-11.002901 1.9758915 -1.9080855
-10.988633 2.0430064 -1.9077423
-10.973955 2.1100209 -1.9073991
-10.955005 2.1761637 -1.9063696
-10.927935 2.2405696 -1.9039674
-10.894704 2.3035023 -1.9005357
-10.884215 2.3711467 -1.901222
-10.867538 2.4374549 -1.9008789
-10.883096 2.5111823 -1.9063696
-10.835851 2.5704052 -1.9007072
-10.829446 2.639178 -1.9024231
-10.806359 2.703902 -1.901222
-10.794335 2.7713833 -1.9020799
-10.789513 2.840826 -1.9043106
-10.766171 2.9054351 -1.9032811
-10.754788 2.9732788 -1.9044821
-10.735394 3.0389445 -1.9043106
-10.711814 3.1033871 -1.9034526
-10.69446 3.1696153 -1.9037958
-10.671982 3.234318 -1.9032811
-10.622764 3.290699 -1.8979619
-10.608947 3.357899 -1.899163
-10.576895 3.4192932 -1.897104
-10.541683 3.4794943 -1.8945302
-10.530404 3.5475721 -1.8964176
-10.50378 3.610517 -1.8955597
-10.488866 3.6775074 -1.8969324
-10.458683 3.7391427 -1.8955597
-10.466087 3.8143809 -1.901222
-10.413857 3.8678913 -1.8959029
-10.379793 3.9278803 -1.8940154
-10.374801 3.9989383 -1.8976188
-10.396835 4.0808845 -1.9063696
-10.354219 4.1376534 -1.9031094
-10.271147 4.1777177 -1.8922997
-10.245319 4.2406616 -1.8922997
-10.273581 4.3263927 -1.9025947
-10.223297 4.3792601 -1.8981335
-10.217006 4.4509587 -1.9020799
-10.17329 4.5063815 -1.8989915
-10.119399 4.5569849 -1.8940154
-10.101996 4.6239123 -1.8960744
-10.062716 4.6808224 -1.8940154
-10.044494 4.7475309 -1.8960744
-10.004518 4.8039551 -1.8940154
-9.9854774 4.8704348 -1.8960744
-9.9651155 4.9364243 -1.8979619
-9.9179173 4.9890628 -1.8947018
-9.8783455 5.045342 -1.8929859
-9.8367071 5.1004167 -1.890927
-9.7659979 5.1400256 -1.8832055
-9.721242 5.1928878 -1.8806318
-9.6562862 5.2345939 -1.8741115
-9.6144905 5.2885213 -1.8722241
-9.5801392 5.3464546 -1.871881
-9.567728 5.4167876 -1.875999
-9.5590849 5.4896226 -1.880975
-9.5328827 5.5526361 -1.8825192
-9.5028734 5.6135302 -1.8833772
-9.4420528 5.6560364 -1.8780581
-9.4694757 5.751718 -1.8907553
-9.4121962 5.7962794 -1.8862941
-9.3864813 5.8601842 -1.8883531
-9.318716 5.897645 -1.8818328
-9.271574 5.9477959 -1.8796023
-9.2514219 6.0153155 -1.883034
-9.2365484 6.0866065 -1.8876668
-9.1965694 6.1415248 -1.8871521
-9.1701345 6.2055693 -1.8895543
-9.1383848 6.2661772 -1.890927
-9.1167536 6.3339372 -1.8945302
-9.0857735 6.3954287 -1.8962461
-9.0583916 6.4596391 -1.8988198
-9.0121975 6.5104828 -1.8974471
-8.9728746 6.5662398 -1.8976188
-8.9332075 6.6217594 -1.8977903
-8.896348 6.6794057 -1.8986483
-8.8567648 6.7350597 -1.8989915
-8.8144922 6.7886758 -1.8988198
-8.8029642 6.8662663 -1.9055116
-8.7614412 6.9207621 -1.9056833
-8.7034264 6.9620814 -1.9022515
-8.6643715 7.0184546 -1.9031094
-8.6310453 7.0796094 -1.9053401
-8.6207857 7.1601343 -1.9128898
-8.6143856 7.2446041 -1.9214691
-8.5105209 7.246861 -1.9079138
-8.4733553 7.3053775 -1.9096297
-8.4639921 7.3883328 -1.9178658
-8.3845453 7.4101138 -1.9099729
-8.378562 7.4968987 -1.9192384
-8.3302135 7.5461826 -1.9187237
-8.2844801 7.5978198 -1.9188954
-8.2499771 7.6599064 -1.9218123
-8.1963615 7.7043095 -1.9202679
-8.1382303 7.7442684 -1.9176942
-8.0756617 7.7797031 -1.9140909
-8.0475197 7.8483691 -1.9188954
-8.030756 7.9287505 -1.9266167
-7.9979801 7.993897 -1.9305631
-7.9612436 8.0554352 -1.9336517
-7.9192362 8.1118879 -1.9355391
-7.8706808 8.1617451 -1.9358822
-7.8224916 8.2120247 -1.936397
-7.7800565 8.2684793 -1.9384561
-7.7378936 8.3254433 -1.9406866
-7.6913271 8.3778458 -1.9418877
-7.6417623 8.4270706 -1.9424025
-7.5918822 8.4760027 -1.9429172
-7.5436478 8.5268536 -1.9439467
-7.5028529 8.5863342 -1.9470353
-7.4558196 8.6389227 -1.9485795
-7.4173689 8.7017536 -1.952526
-7.3638363 8.7471018 -1.952526
-7.3087668 8.7906055 -1.9521829
-7.2584419 8.8398542 -1.9532124
-7.2040648 8.8842249 -1.9532124
-7.1475697 8.9259539 -1.9526976
-7.0932775 8.9704151 -1.9528692
-7.0453773 9.0230885 -1.9549282
-6.979054 9.052104 -1.9518397
-6.9269595 9.0994596 -1.9528692
-6.8751388 9.1473045 -1.9540703
-6.8294482 9.2035589 -1.9571588
-6.7856545 9.2627764 -1.9609337
-6.7425451 9.3233976 -1.9650518
-6.6966572 9.3806314 -1.9684834
-6.6327314 9.4126854 -1.966596
-6.5900373 9.4750452 -1.9712288
-6.5139365 9.4893093 -1.9657381
-6.4550362 9.5282841 -1.9655665
-6.3800263 9.5431404 -1.9604189
-6.3278599 9.5919762 -1.9624779
-6.2704973 9.6331005 -1.9629927
-6.2400155 9.7161598 -1.9722583
-6.1902971 9.7700768 -1.9755185
-6.1417184 9.8262568 -1.9792933
-6.0957842 9.8872385 -1.9840977
-6.017602 9.895834 -1.9782637
-5.956769 9.9325714 -1.9782637
-5.8997231 9.9757185 -1.9796364
-5.8607311 10.050029 -1.9873579
-5.7906084 10.07128 -1.9844408
-5.7277317 10.104908 -1.9840977
-5.6598558 10.129541 -1.9820386
-5.5923691 10.154586 -1.9801512
-5.537004 10.201697 -1.982725
-5.4682646 10.224186 -1.9804944
-5.4045086 10.255802 -1.9801512
-5.3423862 10.29052 -1.9804944
-5.2737627 10.31258 -1.9784354
-5.2161465 10.356184 -1.980666
-5.1529417 10.388878 -1.9808376
-5.0921254 10.426497 -1.9820386
-5.0357366 10.473528 -1.9851272
-4.9629502 10.486419 -1.9816955
-4.9093261 10.539894 -1.9861567
-4.8593364 10.60206 -1.9923338
-4.7885232 10.619103 -1.9899316
-4.7252722 10.652788 -1.9907895
-4.6661205 10.696031 -1.9935349
-4.5953555 10.712689 -1.9913043
-4.5318332 10.746131 -1.9923338
-4.4612851 10.762814 -1.9902748
-4.4118819 10.831044 -1.9979961
-4.3471704 10.862484 -1.998854
-4.2757535 10.877033 -1.9966234
-4.2149625 10.918689 -1.9995403
-4.1506801 10.951716 -2.0009131
-4.0899277 10.994522 -2.0041733
-4.0348854 11.053654 -2.0105219
-3.9646611 11.071711 -2.0093207
-3.9048102 11.119067 -2.0136104
-3.8374732 11.145612 -2.0141251
-3.7734215 11.182017 -2.0165274
-3.7112315 11.224604 -2.0201306
-3.643806 11.25185 -2.0209885
-3.5741019 11.272119 -2.0206454
-3.5069137 11.300423 -2.0218465
-3.440943 11.33304 -2.0239055
-3.3752646 11.367163 -2.0263076
-3.312866 11.413205 -2.0309405
-3.25191 11.465543 -2.0367744
-3.1743991 11.459645 -2.0321414
-3.1055667 11.484613 -2.0331712
-3.0332813 11.496784 -2.03197
-2.9675891 11.534263 -2.0354016
-2.8977184 11.556077 -2.036088
-2.8314302 11.59278 -2.0395198
-2.7616115 11.615686 -2.0405493
-2.6913965 11.637212 -2.0414071
-2.6218853 11.662158 -2.0429513
-2.5498581 11.676101 -2.0426083
-2.4783709 11.692491 -2.0427799
-2.3940897 11.646682 -2.03197
-2.3308527 11.702699 -2.0393481
-2.2565789 11.704205 -2.0371175
-2.1886914 11.739138 -2.0408924
-2.116271 11.750407 -2.0405493
-2.0422778 11.752494 -2.0386617
-1.9748433 11.792982 -2.0436378
-1.9002526 11.791261 -2.0412357
-1.8257574 11.789068 -2.0388334
-1.755702 11.81564 -2.0415788
-1.685389 11.841797 -2.0443242
-1.615352 11.871439 -2.0477557
-1.5417194 11.875265 -2.0467262
-1.4696704 11.891345 -2.0479274
-1.4018422 11.94417 -2.0556488
-1.3252656 11.923172 -2.0505011
-1.2519788 11.930099 -2.0503297
-1.1774962 11.924811 -2.048099
-1.1040328 11.928869 -2.0475843
-1.0298864 11.924623 -2.0456967
-0.95591235 11.920897 -2.0439808
-0.87919056 11.878396 -2.0355732
-0.80862033 11.917969 -2.0415788
-0.73572004 11.92664 -2.0422652
-0.66514301 11.978145 -2.0505011
-0.59294319 12.008568 -2.0551341
-0.51695645 11.95883 -2.0458684
-0.4446975 11.992296 -2.0511875
-0.37043762 11.973136 -2.0474126
-0.29784068 12.010639 -2.0535898
-0.22437687 12.025045 -2.0558202
-0.14998859 11.977926 -2.0474126
-0.076465815 11.97468 -2.0467262
-0.002989271 11.975909 -2.0468979
0.070540741 11.983583 -2.0482705
0.14403348 11.97997 -2.0477557
0.21725075 11.9631 -2.0450103
0.29009825 11.93889 -2.041064
0.36325821 11.933931 -2.0405493
0.43557385 11.906865 -2.0362597
0.50845617 11.900031 -2.0355732
0.58189756 11.905543 -2.0371175
0.65602213 11.921422 -2.0405493
0.72976089 11.927006 -2.0422652
0.80312872 11.925252 -2.0427799
0.87433285 11.893572 -2.038147
0.94862598 11.904678 -2.041064
1.0214851 11.89667 -2.0407207
1.0931969 11.876444 -2.0383186
1.1662416 11.871474 -2.0386617
1.2381399 11.855276 -2.0371175
1.3089073 11.82983 -2.034029
1.3821558 11.827447 -2.0350585
1.4547015 11.818744 -2.0350585
1.5275719 11.812527 -2.0355732
1.5967126 11.778525 -2.0312836
1.6728301 11.795817 -2.036088
1.7444544 11.780458 -2.0352302
1.8201638 11.791926 -2.0391765
1.8917017 11.775673 -2.0383186
1.9585638 11.731778 -2.0326562
2.0308483 11.72148 -2.0329995
2.0954139 11.668074 -2.0257928
2.1702118 11.672431 -2.0288815
2.2445834 11.673407 -2.0314553
2.3165517 11.661347 -2.0317984
2.3856852 11.635332 -2.0297394
2.4558101 11.614692 -2.0287099
2.52724 11.600368 -2.0288815
2.5968609 11.577913 -2.0276804
2.6647503 11.548323 -2.0252781
2.7339671 11.525044 -2.0240769
2.7999647 11.48891 -2.0206454
2.8689711 11.465779 -2.0196159
2.9453971 11.471814 -2.0239055
3.0177391 11.461147 -2.0252781
3.0821004 11.42054 -2.0213318
3.1555314 11.413757 -2.0235622
3.2196002 11.373326 -2.0197873
3.2885022 11.350518 -2.0192726
3.3544452 11.317848 -2.0170422
3.422112 11.291396 -2.0160124
3.4878309 11.258893 -2.0139534
3.554172 11.228827 -2.0124092
3.6239133 11.20962 -2.012924
3.6935527 11.18998 -2.0134387
3.7681215 11.184844 -2.0166988
3.8248267 11.127042 -2.0103502
3.8747699 11.051304 -2.0007415
3.9557767 11.064425 -2.0076048
4.0195427 11.028838 -2.0055459
4.087482 11.00489 -2.0057175
4.1503959 10.967626 -2.0034869
4.2105255 10.923569 -2.0000551
4.2670302 10.870934 -1.9950792
4.3329215 10.842718 -1.994736
4.4015975 10.821403 -1.9957654
4.452085 10.755961 -1.9885589
4.528707 10.753862 -1.9933633
4.5860701 10.705951 -1.9895884
4.6552162 10.685738 -1.9911327
4.7266812 10.670484 -1.9937065
4.7888284 10.634094 -1.9923338
4.8552179 10.607198 -1.9928485
4.9231205 10.58346 -1.9940497
4.9841771 10.545036 -1.9925053
5.0440946 10.504487 -1.9906179
5.1114774 10.479538 -1.991819
5.168684 10.433853 -1.9890736
5.2303939 10.397542 -1.9882157
5.2882667 10.353848 -1.9859852
5.3467078 10.311584 -1.9840977
5.4002404 10.260278 -1.9804944
5.4366312 10.177421 -1.9707141
5.512125 10.16812 -1.9755185
5.5715623 10.128928 -1.974489
5.6187215 10.067884 -1.9691697
5.6726236 10.019503 -1.9664245
5.7335048 9.9836531 -1.9662528
5.8050699 9.9661608 -1.9698561
5.8590956 9.9184799 -1.967454
5.9056664 9.8586798 -1.9626496
5.9686046 9.8264675 -1.9635074
6.0267196 9.7863045 -1.9628211
6.0668244 9.7173872 -1.9563009
6.1252813 9.6783142 -1.9559578
6.1866794 9.6438646 -1.9566441
6.2419767 9.5999413 -1.9554429
6.293715 9.5507679 -1.9532124
6.3439908 9.4996815 -1.9506385
6.3944292 9.4491549 -1.9482363
6.4472728 9.4024296 -1.9466921
6.5093412 9.3691654 -1.9480648
6.5667067 9.3290482 -1.9480648
6.6163883 9.2781534 -1.9458342
6.6633844 9.2238064 -1.9429172
6.7152004 9.1763868 -1.9415445
6.7678585 9.1302624 -1.940515
6.8202038 9.0838375 -1.9394855
6.8710418 9.0355453 -1.9381129
6.9191389 8.9838495 -1.9360539
6.9735265 8.9404488 -1.9358822
7.0148163 8.8804855 -1.9321073
7.061173 8.8272762 -1.9298768
7.1009388 8.7661772 -1.9259303
7.1514692 8.7186337 -1.9250724
7.1985354 8.6670113 -1.9233565
7.2490435 8.6196632 -1.9226701
7.2890205 8.5600214 -1.9192384
7.3323994 8.5046902 -1.9168363
7.3792615 8.4536028 -1.9154636
7.421206 8.3970938 -1.9128898
7.4640489 8.341856 -1.9106592
7.5117855 8.2922506 -1.9098012
7.554533 8.2372913 -1.9077423
7.5955482 8.1806755 -1.9053401
7.6395273 8.1274567 -1.9037958
7.6790648 8.0697241 -1.901222
7.7243338 8.018198 -1.9001925
7.7720113 7.9692407 -1.8998493
7.8179941 7.9185987 -1.899163
7.8385744 7.8426099 -1.8922997
7.8739343 7.7819018 -1.8892111
7.9299951 7.7416992 -1.89127
7.978766 7.6942635 -1.8916132
8.0194063 7.6390471 -1.890069
8.0553646 7.5795717 -1.8874952
8.0887299 7.517931 -1.8844067
8.1296263 7.4634948 -1.8832055
8.1774578 7.4154572 -1.8837203
8.2161989 7.3592267 -1.882176
8.2368479 7.2871351 -1.8765137
8.2836323 7.2384019 -1.8770285
8.3144646 7.1758537 -1.87394
8.3605871 7.1266189 -1.8744547
8.3973742 7.0694757 -1.8729105
8.4330177 7.0115194 -1.8711946
8.4583673 6.9452662 -1.8672482
8.4969978 6.8901339 -1.8663902
8.5268097 6.8280163 -1.8636448
8.5546341 6.7645707 -1.8605564
8.5703535 6.6919475 -1.854894
8.6143742 6.6416407 -1.8555803
8.659668 6.5922389 -1.8566098
8.7141304 6.549633 -1.8596984
8.7533627 6.4954538 -1.8595269
8.7731838 6.4270687 -1.8552372
8.7964878 6.3615718 -1.8518054
8.8273373 6.3017545 -1.8500897
8.8674488 6.2486072 -1.8504328
8.9217987 6.2053289 -1.8538646
8.9580812 6.149354 -1.8535213
8.9874878 6.0887475 -1.8518054
9.0345078 6.0400562 -1.8538646
9.0903139 5.9969835 -1.857811
9.1310673 5.9437804 -1.8586689
9.149128 5.8759313 -1.854894
9.1916685 5.8238997 -1.8562667
9.2255592 5.7663474 -1.8559235
9.2884426 5.7266908 -1.8615859
9.321722 5.6685662 -1.8612427
9.3250656 5.5925183 -1.854894
9.3931265 5.5552521 -1.8617574
9.4176741 5.492054 -1.85987
9.4802351 5.4508576 -1.8657039
9.4869318 5.3775282 -1.8603847
9.5025482 5.3096075 -1.856953
9.5427151 5.2554774 -1.8584973
9.5782461 5.1987047 -1.8591837
9.6203899 5.1454105 -1.8612427
9.6413212 5.0807734 -1.8591837
9.684556 5.0278735 -1.8615859
9.7082071 4.9647679 -1.8602132
9.7508068 4.9113092 -1.8626153
9.7736969 4.8478856 -1.8612427
9.775816 4.7744246 -1.8559235
9.8155813 4.7194729 -1.8579825
9.8381214 4.6562071 -1.8567815
9.8593616 4.5924273 -1.8554088
9.9222841 4.5478501 -1.8621006
9.9634743 4.4929557 -1.8646743
9.9845505 4.4289408 -1.8634733
10.001605 4.3632612 -1.8615859
10.047203 4.3099642 -1.8651891
10.089799 4.2551236 -1.8682777
10.135741 4.2014308 -1.8720526
10.143082 4.1317291 -1.8686209
10.178304 4.0734401 -1.8705083
10.186602 4.0044246 -1.8674197
10.220172 3.9453921 -1.8691356
10.247873 3.8840044 -1.8698219
10.239193 3.8090327 -1.8638165
10.280882 3.7528889 -1.8672482
10.29444 3.6864157 -1.8655323
10.315007 3.6225281 -1.8651891
10.348219 3.5630157 -1.8672482
10.382021 3.503547 -1.8694787
10.413612 3.4431789 -1.8713661
10.446728 3.383162 -1.8735968
10.450386 3.3136404 -1.8705083
10.494986 3.257045 -1.8749695
10.491205 3.1854346 -1.8706799
10.531331 3.1271691 -1.8744547
10.524775 3.055079 -1.8698219
10.554696 2.9936674 -1.871881
10.592804 2.9343696 -1.8754842
10.633435 2.8754878 -1.8796023
10.624206 2.8031535 -1.8747979
10.633573 2.7359488 -1.8734252
10.652071 2.6711299 -1.8737684
10.674003 2.6071217 -1.8747979
10.742515 2.554106 -1.8842351
10.737827 2.4834833 -1.8806318
10.722105 2.4106386 -1.875141
10.744395 2.3464844 -1.8765137
10.747025 2.2780635 -1.8744547
10.783961 2.2168367 -1.8785728
10.796394 2.1504335 -1.8784012
10.820994 2.0863845 -1.8804603
10.843277 2.0217535 -1.882176
10.893292 1.961989 -1.8888679
10.91095 1.8961235 -1.8898973
10.90586 1.826375 -1.8869804
10.974247 1.7686659 -1.897104
6.2270169 0.96492386 -1.058567
6.0739794 0.90311086 -1.0305986
5.9301772 0.84460026 -1.004346
5.9176769 0.80580831 -1.0012575
5.9019928 0.76682132 -0.99765426
5.8664994 0.72564244 -0.99061924
5.8757339 0.69020635 -0.99147719
5.8788791 0.65403175 -0.99130559
5.8759232 0.61722827 -0.9901045
5.8815603 0.58135605 -0.99044764
5.8575492 0.5427171 -0.98564327
5.8676395 0.50735831 -0.98684436
5.8598399 0.47048047 -0.98495692
5.8449316 0.43320909 -0.98186839
5.8415823 0.39693752 -0.98083889
0 0 -0
0 0 -0
5.8547869 0.28968528 -0.98203999
0 0 -0
0 0 -0
5.8276167 0.18089688 -0.97654927
5.8296018 0.14516021 -0.97672087
5.8323526 0.10942429 -0.97706401
0 0 -0
0 0 -0
0 0 -0
0 -0 -0
0 -0 -0
0 -0 -0
0 -0 -0
0 -0 -0
0 -0 -0
0 -0 -0
0 -0 -0
0 -0 -0
0 -0 -0
0 -0 -0
0 -0 -0
0 -0 -0
0 -0 -0
0 -0 -0
0 -0 -0
9.7878342 -1.0220171 -1.6750727
9.6991282 -1.0729462 -1.6606596
9.7383509 -1.1378176 -1.6687241
9.7820311 -1.2038127 -1.6776465
9.7988853 -1.2669725 -1.6819361
9.7850704 -1.3262789 -1.6809067
9.7552891 -1.3832487 -1.6771318
9.7339497 -1.4412028 -1.6749011
9.7249231 -1.5009019 -1.6749011
9.6882954 -1.5561669 -1.6700968
9.6426115 -1.609578 -1.663748
9.6141109 -1.6655164 -1.660488
9.5852871 -1.7211657 -1.6572279
9.5600176 -1.7772448 -1.654654
9.5112028 -1.828612 -1.6479622
9.4824104 -1.8834803 -1.6448737
9.4533043 -1.9380643 -1.6417851
9.4229212 -1.9921583 -1.638525
8.3285913 -1.8141204 -1.4456632
9.4092999 -2.1102304 -1.6405841
9.402894 -2.1694763 -1.6417851
9.3788614 -2.2246282 -1.6398977
9.3841782 -2.2868011 -1.6433294
9.377615 -2.3462522 -1.6447021
7.4069409 -1.9013133 -1.2929524
7.399899 -1.9479803 -1.2938104
9.3975153 -2.5359271 -1.6563699
9.3855762 -2.5945919 -1.6570562
9.3770628 -2.6542792 -1.6584289
9.3795242 -2.7172508 -1.6618606
9.3683424 -2.7764316 -1.6628902
7.9765396 -2.417114 -1.4127189
7.9314456 -2.4566801 -1.4072282
7.9077697 -2.5026238 -1.4056839
7.8997636 -2.5535231 -1.4070566
8.740859 -2.8848872 -1.5642287
9.1832476 -3.093574 -1.6488202
9.1706142 -3.1521056 -1.6500213
9.1659756 -3.2135329 -1.6527666
9.1395912 -3.2673914 -1.6515656
9.1138182 -3.3213849 -1.6505361
9.0784903 -3.3717539 -1.6477907
7.6138487 -2.8808718 -1.3789166
9.0318346 -3.4811349 -1.6469327
8.9901304 -3.5285666 -1.6431578
8.9317188 -3.5690358 -1.6362945
8.9032631 -3.6211736 -1.6350933
8.8481083 -3.6621675 -1.6289163
8.7791681 -3.6968849 -1.6201655
8.74998 -3.747967 -1.6189643
8.6952085 -3.7878108 -1.6129589
8.6645975 -3.8378994 -1.6115862
8.6444778 -3.8926108 -1.6122725
8.7315035 -3.9964335 -1.6335491
8.7666626 -4.0777793 -1.6450453
8.7940254 -4.1563373 -1.6551688
8.7470436 -4.1999812 -1.6510508
8.6927748 -4.2397499 -1.64556
8.6542387 -4.2868843 -1.6431578
8.6075306 -4.3297205 -1.6392114
8.5623789 -4.3730416 -1.6356081
8.5327616 -4.4241362 -1.6350933
8.4461756 -4.4452019 -1.6234256
8.4178724 -4.4964786 -1.6232539
8.3892584 -4.5475755 -1.6230824
8.3163137 -4.5742702 -1.6141599
8.313036 -4.6391377 -1.619136
8.2766991 -4.685689 -1.6175916
8.2477922 -4.7363858 -1.6175916
8.2160215 -4.7854161 -1.6170769
8.1771736 -4.8302259 -1.6151894
8.1254101 -4.8671441 -1.6107283
8.1038122 -4.9220243 -1.612444
8.0701036 -4.9695892 -1.6117578
8.0402946 -5.0195346 -1.6119293
8.001852 -5.0640321 -1.6103851
7.9880419 -5.124208 -1.6139884
7.9539723 -5.1715136 -1.6134737
7.9031715 -5.2077513 -1.6095271
7.8284693 -5.2276912 -1.6006048
7.7742176 -5.2607174 -1.5959719
7.7661653 -5.3250365 -1.6011195
7.7115021 -5.3574095 -1.5964867
7.6543179 -5.3876114 -1.5913391
7.637157 -5.4459176 -1.5947708
7.5836349 -5.478251 -1.5904812
7.516489 -5.5002413 -1.5832746
7.499218 -5.5585794 -1.5868779
7.4586678 -5.5997567 -1.5855052
7.4476919 -5.6633091 -1.5906528
7.4229479 -5.7167163 -1.5928833
7.3574381 -5.7385216 -1.5861915
7.3298187 -5.7896652 -1.5879074
7.2641554 -5.8105278 -1.5812156
7.1778455 -5.8140583 -1.569891
7.145844 -5.8611155 -1.5707489
7.1521826 -5.940105 -1.5803577
7.0892134 -5.9616823 -1.5743521
7.0284991 -5.9846277 -1.5688615
6.9916458 -6.0276413 -1.5688615
6.9634347 -6.0782027 -1.5709205
6.9215798 -6.1169004 -1.569891
6.8934603 -6.1677961 -1.5721216
6.8240929 -6.1815333 -1.5647434
6.7809534 -6.2186275 -1.5635424
6.7253437 -6.2440281 -1.5594243
6.6747022 -6.2737045 -1.5565073
6.6539221 -6.3315215 -1.560797
6.6184945 -6.375648 -1.5616549
6.6004066 -6.4367757 -1.5668024
6.5698996 -6.4861526 -1.569033
6.5160432 -6.5124125 -1.5656013
6.4697289 -6.5459647 -1.5640571
6.4170556 -6.5728488 -1.5609685
6.3540397 -6.588695 -1.5553062
6.3420286 -6.6575217 -1.5625128
6.2828336 -6.6769361 -1.55788
6.2658887 -6.7413421 -1.5640571
6.2543845 -6.8123221 -1.5717784
2.2038233 -2.4290707 -0.53231514
2.1862485 -2.4396119 -0.53162879
2.1686275 -2.4500287 -0.53094244
5.9433699 -6.801281 -1.5342013
5.936924 -6.878644 -1.5436385
5.896523 -6.9171925 -1.5441532
5.8514314 -6.9502277 -1.5434668
5.7904119 -6.9640298 -1.5384909
5.755074 -7.0085654 -1.5405499
5.7268519 -7.0621128 -1.544668
5.6969571 -7.1140385 -1.5484428
5.6391468 -7.1310854 -1.5444963
2.0221896 -2.5884953 -0.53317302
1.9900298 -2.5797873 -0.52854025
1.9717765 -2.5888135 -0.52785391
1.9540792 -2.5985005 -0.52733916
1.9363374 -2.608068 -0.52682441
1.8312337 -2.4982967 -0.50057185
1.8118294 -2.5038977 -0.49937075
1.7929977 -2.5101564 -0.49834126
5.200635 -7.3799248 -1.5335149
5.1693158 -7.4319172 -1.5378045
5.1068931 -7.4391274 -1.532657
5.064466 -7.4752169 -1.5336865
5.0201464 -7.5086083 -1.5342013
5.0135765 -7.5993052 -1.5467269
4.9523449 -7.6076307 -1.5420941
4.8938618 -7.6196365 -1.5383192
4.8406901 -7.6395345 -1.5362602
4.776495 -7.6415224 -1.5305979
4.7393394 -7.6866207 -1.5338581
1.7483153 -2.8734872 -0.54689986
1.730651 -2.8841605 -0.54689986
1.7144258 -2.8972695 -0.5474146
4.5547314 -7.8099766 -1.5357455
4.5037785 -7.8326526 -1.534716
4.4672909 -7.8807101 -1.5388341
4.4015555 -7.8770099 -1.532657
4.3517146 -7.9012804 -1.5321422
4.2932844 -7.9096489 -1.5285389
4.2516389 -7.948875 -1.5311127
4.208755 -7.9861436 -1.5333433
4.1633043 -8.0188131 -1.534716
4.1050544 -8.0266638 -1.5312843
4.0535107 -8.0473013 -1.5304264
4.0009937 -8.0658436 -1.5292252
3.9618011 -8.1114883 -1.5333433
3.9064069 -8.1241016 -1.5311127
3.8514285 -8.1372318 -1.5290537
3.7931094 -8.142849 -1.525622
3.7496407 -8.1802998 -1.5283673
3.6969473 -8.1977644 -1.5273378
3.6433823 -8.213089 -1.5259651
3.5996144 -8.2506418 -1.5288821
3.5454268 -8.2644243 -1.5273378
3.4942679 -8.2851152 -1.5271662
3.4429884 -8.3054895 -1.5269947
3.3893614 -8.3200722 -1.5257936
3.3364167 -8.3361387 -1.5249356
3.2895284 -8.3674564 -1.5269947
3.2377698 -8.3865643 -1.526823
3.1803162 -8.3906116 -1.5239061
3.1243083 -8.3979635 -1.5216755
3.0693433 -8.4077206 -1.5199597
3.028322 -8.4560766 -1.5254503
2.9734423 -8.4661331 -1.5239061
2.9217598 -8.4851503 -1.5240777
2.8718452 -8.5094519 -1.5252788
2.8155589 -8.5147533 -1.5230482
2.7641706 -8.5346804 -1.5235629
2.7105601 -8.5477238 -1.5228766
2.6551423 -8.5547857 -1.5211607
2.6005981 -8.5643167 -1.5199597
2.5538867 -8.599946 -1.5235629
2.5073845 -8.6372156 -1.5275095
2.4535341 -8.6495953 -1.5269947
2.3985748 -8.6578407 -1.5257936
2.3397505 -8.6514721 -1.5220187
2.2851145 -8.6599503 -1.5209892
2.2206476 -8.6299191 -1.5130962
2.1702883 -8.6538935 -1.5149837
2.1169145 -8.66609 -1.5148121
2.0625618 -8.6741238 -1.5139542
2.0110745 -8.6942949 -1.5153269
1.9514256 -8.6785965 -1.5103509
1.8849019 -8.6297693 -1.499541
0.55145872 -2.5973263 -0.4235301
0 -0 -0
0.51588947 -2.5855398 -0.42026997
0.49964237 -2.5867219 -0.41992679
0.48700964 -2.607172 -0.42301533
0.47868237 -2.6527729 -0.43056509
1.5127848 -8.7037153 -1.4997126
1.4642298 -8.7419834 -1.5048602
0.43603843 -2.7000399 -0.4374285
0.41855901 -2.6968231 -0.43639898
1.2414268 -8.3523235 -1.4317648
1.160607 -8.1520329 -1.3952172
1.0321195 -7.5820746 -1.2938104
0.34781364 -2.6720884 -0.43039352
0.33455083 -2.6995935 -0.43485472
0.94952542 -8.0870638 -1.3792598
0.9008649 -8.1015501 -1.3808041
0.85411686 -8.1353388 -1.38578
0.79847723 -8.0825825 -1.3756565
0.74197549 -8.0127745 -1.3626161
0.67594582 -7.8218532 -1.3284706
0.62730986 -7.8179975 -1.3270979
0.57940036 -7.8226819 -1.3272694
