# .PCD v0.7 - Point Cloud Data file format
VERSION 0.7
FIELDS x y z
SIZE 4 4 4
TYPE F F F
COUNT 1 1 1
WIDTH 1530
HEIGHT 1
VIEWPOINT 0 0 0 1 0 0 0
POINTS 1530
DATA ascii
7.7932105 2.5792031 -1.8930441
7.815371 2.5334377 -1.8946486
7.8391185 2.4880865 -1.8967113
7.8375058 2.434741 -1.8925858
7.8662672 2.3908517 -1.8960238
7.8593297 2.3361604 -1.8907522
7.8791242 2.2895224 -1.8921274
7.92486 2.250175 -1.8999202
7.9460216 2.203588 -1.9017538
7.946239 2.1512289 -1.8985449
7.9696412 2.1051662 -1.9010662
7.9786377 2.0552545 -1.9001493
7.9882665 2.0055485 -1.8994617
8.0023127 1.9569582 -1.8999202
8.0331078 1.9123293 -1.9045042
8.0304661 1.8597084 -1.9010662
8.0293818 1.8076196 -1.8980865
8.0507812 1.7606062 -1.9006078
8.0747633 1.7140046 -1.9038166
8.1032419 1.6681565 -1.9081714
8.061779 1.6081197 -1.8957945
8.0609808 1.5565927 -1.8932734
8.0923872 1.5112129 -1.8985449
8.1302452 1.4667163 -1.905421
8.1227894 1.4139638 -1.9015245
8.1601114 1.3689294 -1.9084005
8.1433735 1.314799 -1.9024414
5.9822893 0.92814445 -1.3855945
0 0 -0
0 0 -0
0 0 -0
0 0 -0
0 0 -0
0 0 -0
0 0 -0
0 0 -0
0 0 -0
0 0 -0
0 0 -0
0 0 -0
0 0 -0
0 0 -0
0 0 -0
0 0 -0
0 0 -0
0 0 -0
0 0 -0
0 0 -0
0 0 -0
0 0 -0
0 0 -0
0 0 -0
0 0 -0
0 -0 -0
0 -0 -0
0 -0 -0
0 -0 -0
0 -0 -0
0 -0 -0
0 -0 -0
0 -0 -0
0 -0 -0
0 -0 -0
5.8275971 -0.39088276 -1.3353996
5.8386798 -0.42762733 -1.3386084
5.84759 -0.46436861 -1.3413588
5.8572383 -0.50131828 -1.3443384
0 -0 -0
5.9494576 -0.58283126 -1.3677169
6.1926475 -0.64502424 -1.426163
8.2300224 -0.90818471 -1.9097757
8.1827211 -0.95382202 -1.8999202
8.2182579 -1.0091114 -1.9097757
8.0950994 -1.044453 -1.8820425
7.7268133 -1.0451928 -1.7960924
7.5766511 -1.0722684 -1.7619416
7.4351192 -1.0988216 -1.7298535
7.3301091 -1.1293094 -1.706475
7.2432699 -1.1614776 -1.6874514
7.2043219 -1.200621 -1.6798878
7.3560381 -1.2723337 -1.7179351
7.3528829 -1.3183042 -1.719081
7.3264718 -1.3600214 -1.7147262
7.3007822 -1.4016476 -1.7106006
7.2968187 -1.4473647 -1.7117467
7.2754035 -1.4895724 -1.7087671
7.2623172 -1.5333812 -1.7078502
7.2480159 -1.5768787 -1.7067043
7.1935606 -1.6113247 -1.6959318
7.1531854 -1.6484401 -1.6885974
7.1514606 -1.6943194 -1.6906602
7.1409302 -1.738168 -1.6906602
7.0951896 -1.7732209 -1.6821798
7.0643749 -1.8116461 -1.6773666
7.0220604 -1.8467898 -1.669803
7.015296 -1.8911082 -1.670949
6.9669676 -1.9240142 -1.6620102
6.9634609 -1.9691098 -1.664073
6.9587278 -2.0139642 -1.6659065
6.9387727 -2.054414 -1.664073
6.8813181 -2.0834143 -1.6530714
6.8684049 -2.1255982 -1.6530714
6.8663702 -2.1712229 -1.6558218
6.8408771 -2.2094247 -1.6528422
6.8197961 -2.2489197 -1.6510085
6.7920303 -2.2860661 -1.6475705
6.7613044 -2.3220084 -1.6434449
6.769896 -2.371495 -1.6491749
6.7708006 -2.418555 -1.6530714
6.7558331 -2.4600544 -1.6530714
6.7250977 -2.4957049 -1.6491749
6.7023735 -2.5341687 -1.6473414
6.6839733 -2.5741966 -1.6466538
6.6698647 -2.615871 -1.6471121
6.6500726 -2.6553035 -1.6461953
6.6255388 -2.6927598 -1.6441325
6.6304798 -2.7422898 -1.6496333
6.6126313 -2.7825446 -1.6494042
6.5963283 -2.8234494 -1.6496333
6.5735245 -2.8615398 -1.6482581
6.5451617 -2.8970933 -1.6455077
6.4793282 -2.9156322 -1.6331309
6.4719386 -2.9601917 -1.6358813
6.469542 -3.0072315 -1.6400069
6.4439268 -3.043546 -1.6381733
6.404068 -3.0729227 -1.6326725
6.3474674 -3.0938232 -1.6228169
6.336216 -3.1365983 -1.6248797
6.3168507 -3.1754177 -1.6248797
6.2582326 -3.1942067 -1.6145657
6.2359228 -3.2312031 -1.6138781
6.221148 -3.2721236 -1.6152533
6.1794858 -3.2987757 -1.6095233
6.1565609 -3.3352394 -1.6088357
6.1479225 -3.3795164 -1.6120445
6.1262202 -3.4167016 -1.6118153
6.1000576 -3.4513514 -1.61044
6.0888963 -3.4945292 -1.6131905
6.0791173 -3.5386791 -1.6163993
6.0606432 -3.5778925 -1.6173161
6.0435867 -3.6180122 -1.6186913
6.0379152 -3.6651275 -1.6232753
6.0161419 -3.7026167 -1.6235045
5.9957871 -3.7410071 -1.6241921
5.9677839 -3.7746043 -1.6228169
5.9313998 -3.8027461 -1.6191497
5.9112196 -3.8411901 -1.6200665
5.89323 -3.8811357 -1.6216708
5.8377285 -3.8961508 -1.6127321
5.8749928 -3.9733372 -1.6301513
5.8207927 -3.9889531 -1.6216708
5.7954078 -4.0240388 -1.6214417
5.7897153 -4.0729632 -1.6269425
5.777298 -4.1174498 -1.6306098
5.7613959 -4.159658 -1.6333601
5.7585497 -4.2115936 -1.6400069
5.6919265 -4.2167201 -1.6280885
5.687747 -4.2679224 -1.6345061
5.7451525 -4.3663464 -1.6592598
5.7097678 -4.3949857 -1.6567385
5.6704097 -4.4203629 -1.6530714
5.6340117 -4.4478354 -1.6503209
5.5868464 -4.4665189 -1.6443617
5.5404205 -4.4854045 -1.6386317
5.4939747 -4.5038886 -1.6329017
5.5194144 -4.5816531 -1.6491749
5.4755497 -4.602282 -1.6443617
5.4257092 -4.6174989 -1.6377149
5.3876882 -4.6424441 -1.6347353
5.3525 -4.6696563 -1.6326725
5.3120732 -4.692101 -1.6290053
5.3550181 -4.7888398 -1.6516961
5.3053284 -4.8033161 -1.6452786
5.2700152 -4.8305173 -1.6434449
5.2452712 -4.8673968 -1.6450493
5.1996989 -4.8848281 -1.6400069
5.1400027 -4.8884687 -1.6303805
5.1330519 -4.942193 -1.6379441
5.089386 -4.9606876 -1.6335893
5.0449939 -4.9781494 -1.6290053
5.0267501 -5.0213928 -1.6331309
5.0129561 -5.0694442 -1.6388609
2.2936246 -2.3484211 -0.73306096
2.278496 -2.3617499 -0.73283178
2.2626185 -2.3742766 -0.73237336
4.8123021 -5.1115694 -1.6131905
4.7834992 -5.1438518 -1.6141073
4.7689686 -5.1917434 -1.6200665
4.7429099 -5.2273951 -1.6221293
4.7113957 -5.2571235 -1.6223584
4.6938896 -5.3026958 -1.6276301
4.6522942 -5.3211384 -1.6244212
4.6131949 -5.3422174 -1.6221293
4.571485 -5.360055 -1.6189204
4.5366287 -5.3857708 -1.6182328
4.5022521 -5.4120092 -1.6177745
4.4664879 -5.4365244 -1.6168576
4.4379525 -5.4698744 -1.6186913
4.3927417 -5.4825702 -1.6143365
4.3487506 -5.4964437 -1.61044
2.0082159 -2.5708132 -0.72824776
1.9870527 -2.5761509 -0.72618496
1.9658997 -2.581326 -0.72412217
1.9465134 -2.5886726 -0.72274697
1.9259505 -2.5943155 -0.72091335
1.7684239 -2.4129667 -0.66453004
1.7444543 -2.4111555 -0.66086286
1.735285 -2.4297342 -0.66315484
0 -0 -0
4.0024085 -5.7511711 -1.6099817
3.9686983 -5.778028 -1.6106693
3.9249771 -5.7901855 -1.6072313
3.895329 -5.8230586 -1.6097524
3.8595262 -5.8468504 -1.6097524
3.8187962 -5.8630815 -1.6076896
3.7811704 -5.8839464 -1.607002
3.7397835 -5.8988161 -1.6047101
3.7086806 -5.929904 -1.607002
3.6671145 -5.9442649 -1.6047101
3.632596 -5.9699798 -1.6056268
3.5958967 -5.9921565 -1.6056268
3.560549 -6.0166206 -1.6063144
3.5211117 -6.0341511 -1.6051685
3.4835351 -6.0547991 -1.6049392
3.4453573 -6.0743666 -1.6044809
1.6360033 -2.9264855 -0.7495634
1.6180159 -2.9364688 -0.7495634
1.5999676 -2.9463415 -0.7495634
3.2245069 -6.0249314 -1.5691839
3.2465081 -6.1565304 -1.5989801
3.2059786 -6.1711521 -1.5976049
3.1556354 -6.1664457 -1.5911872
3.1339509 -6.2178521 -1.5996677
3.0901134 -6.2256308 -1.596688
3.045871 -6.2322311 -1.5934793
3.0109501 -6.2578197 -1.5953128
2.9695795 -6.2700191 -1.5937084
2.9413335 -6.3101773 -1.5994384
2.8891661 -6.2989101 -1.5918748
2.8596721 -6.336925 -1.5971464
2.8128362 -6.3365593 -1.5925624
2.7727342 -6.3510232 -1.5918748
2.7383213 -6.3786497 -1.5946252
2.704052 -6.4069896 -1.5976049
2.6680458 -6.4315524 -1.5996677
2.6149347 -6.4144526 -1.5911872
2.5795088 -6.4403162 -1.5937084
2.5435073 -6.4650803 -1.5960004
2.4904583 -6.4460635 -1.5872909
2.4474063 -6.4521222 -1.5849988
2.3999581 -6.4460373 -1.5797272
2.3540132 -6.4432712 -1.5753725
2.3114777 -6.4493475 -1.5733097
2.2705703 -6.4597359 -1.5723928
2.2296226 -6.4698648 -1.571476
2.1917515 -6.4889569 -1.5728512
2.1525066 -6.5041313 -1.5733097
2.1125574 -6.5172167 -1.5733097
2.0728233 -6.5309839 -1.5735388
2.0335774 -6.5463681 -1.5742264
1.9947869 -6.5633793 -1.5753725
1.9547546 -6.5764284 -1.5756016
1.9149089 -6.5901685 -1.5760601
1.8741704 -6.6008577 -1.5758308
1.8315517 -6.6047292 -1.5739973
1.7899737 -6.6120849 -1.5730804
1.776719 -6.7264633 -1.5982925
1.7303127 -6.7174439 -1.5934793
1.683373 -6.705277 -1.5879785
1.6410422 -6.710752 -1.5868324
1.5946492 -6.698916 -1.5815609
1.5528564 -6.7057295 -1.5808733
1.5123231 -6.7179804 -1.5815609
1.4723219 -6.7328386 -1.582936
1.4277477 -6.7265115 -1.5792688
1.3842883 -6.7246585 -1.5767477
1.3449051 -6.7425714 -1.5790396
1.3040619 -6.7535634 -1.5797272
1.2613472 -6.7547402 -1.5781229
1.2197043 -6.7613945 -1.5778936
1.1781942 -6.7687511 -1.5778936
1.1363175 -6.7739334 -1.5774353
1.0942665 -6.7778955 -1.5767477
1.0513139 -6.775825 -1.5746849
1.0108654 -6.7898502 -1.5765184
0.97083449 -6.8074884 -1.5792688
0.92957252 -6.8171754 -1.5801857
0.88659483 -6.8140635 -1.5781229
0.84524673 -6.8232393 -1.5790396
0.80359179 -6.8302307 -1.5794981
0.76134354 -6.8321304 -1.5788105
0.71879655 -6.8308654 -1.5774353
0.67629373 -6.8293352 -1.5760601
0.63374674 -6.8265719 -1.5744556
0.59252048 -6.8380899 -1.5762892
0.54953581 -6.8289838 -1.5733097
0.50870633 -6.8467875 -1.5767477
0.46668562 -6.8497801 -1.5767477
0.42428583 -6.8466854 -1.5753725
0.38221306 -6.8481884 -1.5751432
0.34042785 -6.8552656 -1.5762892
0.29861253 -6.86306 -1.5776644
0.25631395 -6.8598995 -1.5765184
0.21427844 -6.8632889 -1.5769768
0.17250451 -6.8780975 -1.5801857
0.13029806 -6.8790264 -1.5801857
0.087886401 -6.8641238 -1.5765184
0.045767277 -6.8645339 -1.5765184
0.0036544546 -6.8783126 -1.5797272
-0.038587943 -6.8850193 -1.5813316
-0.080673695 -6.8710265 -1.5781229
-0.1227106 -6.8635893 -1.5765184
-0.16484579 -6.8636804 -1.5767477
-0.20695744 -6.8625398 -1.5767477
-0.24895553 -6.8582225 -1.5760601
-0.29115579 -6.8594832 -1.5767477
-0.33323929 -6.8575678 -1.5767477
-0.37488505 -6.8476186 -1.574914
-0.41665772 -6.8413029 -1.5739973
-0.4586924 -6.8395886 -1.5742264
-0.50093484 -6.840529 -1.5751432
-0.54328305 -6.8421779 -1.5762892
-0.58641684 -6.8522935 -1.5794981
-0.62898403 -6.854382 -1.5808733
-0.67046082 -6.8445811 -1.5794981
-0.71214342 -6.8374338 -1.5788105
-0.75461733 -6.8377733 -1.5799564
-0.79700953 -6.8368816 -1.5808733
-0.83835191 -6.8270321 -1.5797272
-0.87997699 -6.8198285 -1.5792688
-0.92167568 -6.8133364 -1.5790396
-0.96455497 -6.8152628 -1.5808733
-1.0106221 -6.8381038 -1.5877492
-1.0512275 -6.8231158 -1.5856864
-1.0935358 -6.8194203 -1.586374
-1.1383976 -6.8308253 -1.5907289
-1.17946 -6.8189158 -1.5895828
-1.2226517 -6.8192153 -1.5914165
-1.2602081 -6.7886157 -1.5859157
-1.2878947 -6.7081046 -1.5684963
-0.82293952 -4.1479287 -0.95584375
-1.3777288 -6.7289858 -1.5774353
-1.4203985 -6.7270722 -1.5790396
-1.4548213 -6.6868429 -1.571476
-1.5041193 -6.7148347 -1.5804148
-1.5496631 -6.7244496 -1.5849988
-1.5875292 -6.7006068 -1.5815609
-0.73100191 -3.0022078 -0.68767929
-0.74822956 -2.9929442 -0.68653327
-0.79244661 -3.0891852 -0.71105772
-1.7514921 -6.6596289 -1.5815609
-0.80066013 -2.9692662 -0.68424129
-0.81497824 -2.9502234 -0.6808033
-0.83306515 -2.9451673 -0.6808033
-1.8941085 -6.5445127 -1.5643708
-1.9792639 -6.6849027 -1.6017305
-2.0174243 -6.6633162 -1.5994384
-2.0490646 -6.6210556 -1.5921041
-2.0787957 -6.5740185 -1.5836236
-1.0868692 -3.3645351 -0.79265308
-2.174247 -6.5933104 -1.5948545
-1.0911314 -3.2411616 -0.76537824
-1.0977218 -3.1957395 -0.75575179
-1.114414 -3.1806757 -0.75368899
-1.4943565 -4.1830344 -1.0060387
-1.1347139 -3.1155405 -0.74085379
-1.1419579 -3.0765789 -0.73283178
-1.157372 -3.0604091 -0.7305398
-1.1999135 -3.1150186 -0.7461254
-1.646486 -4.1977544 -1.0218534
-1.6545278 -4.1432767 -1.0106226
-2.6209373 -6.448792 -1.5992093
-1.2592601 -3.0441554 -0.73581135
-1.2711203 -3.0202217 -0.73168576
-1.2877132 -3.0078912 -0.7305398
-1.3053681 -2.9981482 -0.73008138
-1.8283632 -4.1303067 -1.0236871
-1.8544706 -4.1207857 -1.0241455
-1.871219 -4.0907402 -1.0193323
-1.8950534 -4.0765333 -1.0186447
-1.9204465 -4.0657091 -1.0188738
-1.9171469 -3.9950495 -1.0035174
-1.9565488 -4.0138359 -1.0115395
-1.9893444 -4.0183301 -1.0158943
-2.0152743 -4.0086575 -1.0165819
-2.0451427 -4.0066204 -1.0193323
-2.0970023 -4.0467167 -1.0333135
-2.1177154 -4.0260201 -1.0312507
-2.1226699 -3.9760256 -1.0213951
-2.1970954 -4.0553617 -1.0461487
-2.2088096 -4.0179195 -1.0397311
-2.2021329 -3.9481823 -1.0246038
-2.1664073 -3.8286951 -0.9959538
-2.249933 -3.9200172 -1.0243747
-2.2744329 -3.9069796 -1.0246038
-2.2973733 -3.8912737 -1.0241455
-2.3352044 -3.9004893 -1.0305631
-2.3798001 -3.9202039 -1.0399603
-2.3716705 -3.8533013 -1.0255207
-2.3803282 -3.8147271 -1.0188738
-2.4182577 -3.8230844 -1.0252914
-2.4238095 -3.7803125 -1.0174986
-2.4522629 -3.7735314 -1.0197906
-2.4496751 -3.7193918 -1.0087891
-2.4524593 -3.6743338 -1.0003086
-2.4804111 -3.6672797 -1.0026007
-2.5529346 -3.7250609 -1.0234579
-2.5502079 -3.6725459 -1.0129147
-2.562614 -3.6424983 -1.0087891
-2.5984728 -3.6457305 -1.0142899
-2.6458621 -3.6644437 -1.0243747
-2.6901307 -3.6779969 -1.0330843
-2.7207592 -3.6723716 -1.0362931
-2.7759547 -3.6992097 -1.0491283
-2.7550189 -3.6247573 -1.0321674
-2.7154655 -3.5275619 -1.0083307
-2.7855296 -3.5730186 -1.0268959
-2.8267002 -3.5803084 -1.0342302
-2.8613787 -3.5788634 -1.0390435
-2.8943081 -3.574857 -1.0431691
-2.8550992 -3.4825039 -1.0204782
-2.9050107 -3.4993734 -1.0310215
-2.910145 -3.4621084 -1.0250623
-2.9679205 -3.4871831 -1.0383559
-3.0013332 -3.4829175 -1.0427107
-3.0546408 -3.501112 -1.0541707
-3.1211703 -3.5333731 -1.0702147
-3.1200833 -3.4887593 -1.0621928
-3.2668564 -3.6080985 -1.1061993
-3.5618677 -3.8857853 -1.2013174
-3.4148314 -3.6797633 -1.1421837
-3.3053927 -3.5182672 -1.096802
-3.2222784 -3.3878827 -1.0610467
-3.3442678 -3.4732325 -1.0954268
-3.3505702 -3.4373114 -1.0903844
-3.403729 -3.449254 -1.1011568
-3.4337716 -3.4372573 -1.1041365
-3.4693315 -3.4304969 -1.1089497
-3.4931004 -3.4118657 -1.1098664
-3.474745 -3.3525171 -1.0970312
-3.587549 -3.4191129 -1.1270565
-3.4348345 -3.2335563 -1.0709023
-3.4546106 -3.2124195 -1.0709023
-3.4828582 -3.1990643 -1.0736527
-3.5211637 -3.1946404 -1.079612
-3.3928318 -3.0404418 -1.032855
-3.4048643 -3.0137596 -1.0307922
-3.6343269 -3.1773405 -1.096802
-3.7244751 -3.216058 -1.1188053
-4.4972949 -3.8355699 -1.351902
-3.8157709 -3.2140098 -1.1348493
-3.5989687 -2.9938099 -1.0624219
-3.6112542 -2.9667273 -1.0605884
-3.6203196 -2.9371533 -1.057838
-3.5699098 -2.8601036 -1.0372099
-3.5996048 -2.8478091 -1.0408771
-3.6538274 -2.8544354 -1.0518787
-3.6920812 -2.8480163 -1.0580671
-3.676966 -2.8005347 -1.0484407
-3.7228632 -2.7995687 -1.0569211
-3.7337191 -2.7720306 -1.0550876
-3.6980605 -2.7105105 -1.0397311
-3.7004285 -2.6774967 -1.0356055
-3.6787701 -2.6275814 -1.0246038
-3.729825 -2.6296413 -1.0346887
-3.7514822 -2.6105983 -1.0362931
-3.7698369 -2.589184 -1.0369807
-3.7784019 -2.5610881 -1.034918
-3.8037534 -2.5443511 -1.0376683
-3.8306661 -2.5284717 -1.0408771
-3.8151157 -2.4847307 -1.0321674
-3.8450291 -2.4707477 -1.0362931
-3.787776 -2.4012394 -1.0161234
-3.821419 -2.3898251 -1.0213951
-3.8542354 -2.3775768 -1.0264375
-3.8995173 -2.3726058 -1.034918
-3.9398744 -2.3641622 -1.0420231
-3.9107482 -2.3141627 -1.0301046
-3.9299183 -2.293067 -1.0314798
-3.9523511 -2.2737648 -1.0337719
-3.9704614 -2.2518723 -1.034918
-3.9969475 -2.2345936 -1.0383559
-3.973927 -2.1898232 -1.0285003
-3.9616287 -2.1514602 -1.0216243
-3.9507263 -2.1142497 -1.0152067
-4.0092564 -2.1140349 -1.0273542
-4.00315 -2.0795214 -1.0223119
-4.0305648 -2.0624585 -1.0262083
-4.0518355 -2.0420702 -1.0285003
-4.0791111 -2.024528 -1.0323967
-4.0512295 -1.979798 -1.0218534
-4.0966311 -1.9709419 -1.0305631
-4.1429548 -1.9620193 -1.0395019
-4.1849108 -1.9505454 -1.0472947
-4.2074175 -1.929701 -1.0500451
-4.234261 -1.9106557 -1.0539415
-4.2218843 -1.8739744 -1.0477531
-4.2663093 -1.8624461 -1.0562335
-4.2794456 -1.8370014 -1.0566919
-4.2700109 -1.8020024 -1.0514203
-4.313354 -1.7891971 -1.0596715
-4.3603044 -1.7773973 -1.0688396
-4.4172106 -1.7690697 -1.0805287
-4.5131254 -1.7754358 -1.1020736
-4.5493569 -1.7575341 -1.1084912
-4.6365027 -1.7585895 -1.1277441
-4.6161914 -1.7185582 -1.1199512
-4.6303067 -1.6915377 -1.1208681
-4.7093201 -1.6877295 -1.1380581
-4.8610029 -1.7085181 -1.173355
-5.0370393 -1.735754 -1.2146111
-5.1103029 -1.7259994 -1.2301966
-5.2455468 -1.7359039 -1.2611387
-5.3153586 -1.722898 -1.2758075
-5.2998528 -1.6820047 -1.2693899
-5.4086056 -1.6800681 -1.2936851
-5.6581564 -1.7196081 -1.3525896
-5.8738651 -1.7458829 -1.4030137
-6.0536485 -1.7589784 -1.444499
-6.8096642 -1.9334695 -1.6269425
-6.8345308 -1.8952922 -1.6301513
-6.9042835 -1.8690937 -1.6443617
-7.0238471 -1.8552877 -1.6707197
-7.0539508 -1.8170124 -1.6753038
-7.1121702 -1.7855494 -1.6867638
-7.1731043 -1.7541336 -1.6989114
-7.2888389 -1.7351139 -1.7243527
-7.4235721 -1.7191319 -1.754378
-7.5441346 -1.6983535 -1.7809652
-7.8577495 -1.7183827 -1.8540801
-8.132844 -1.7263362 -1.9177978
-8.1976261 -1.6875914 -1.9308622
-8.2221451 -1.6401168 -1.9343002
-8.2339659 -1.590005 -1.9347587
-8.2655735 -1.5435632 -1.9400302
-8.305542 -1.498349 -1.9473647
-8.3097849 -1.446524 -1.9462186
-8.3165846 -1.3951868 -1.9457603
-8.2596455 -1.3335776 -1.9301746
-8.3051853 -1.2886949 -1.9391134
-8.2859793 -1.233696 -1.9326959
-8.2933931 -1.1828309 -1.9326959
-8.2869921 -1.1300794 -1.929487
-8.2812223 -1.0775768 -1.9265074
-8.2828484 -1.0261452 -1.9253614
-8.2986555 -0.9764412 -1.9276534
-8.3064251 -0.92571896 -1.9281118
-8.3409901 -0.87779188 -1.9349878
-8.3462191 -0.82659596 -1.9349878
-8.3259344 -0.77302814 -1.9290286
-8.3770685 -0.72596264 -1.9400302
-8.3745737 -0.67400134 -1.9384258
-8.3581667 -0.62108749 -1.9336126
-8.3423977 -0.56846666 -1.9290286
-8.3719597 -0.51889497 -1.935217
-8.3555489 -0.46642986 -1.9306331
-8.368947 -0.41568407 -1.9331542
-8.3820372 -0.36479139 -1.9356754
-8.3909264 -0.31360814 -1.9372798
-8.3596144 -0.26108181 -1.929487
-7.9430962 0.58214378 -1.9382715
-7.9026117 0.62794417 -1.9291106
-7.9044118 0.67691958 -1.9305571
-7.903975 0.7257629 -1.9315214
-7.898407 0.77415228 -1.9312804
-7.854898 0.81857204 -1.9216373
-7.8834891 0.87048632 -1.9300749
-7.8751078 0.91850442 -1.9293517
-7.8606544 0.96574152 -1.9271821
-7.8574681 1.0143286 -1.9279053
-7.8510966 1.0625221 -1.9279053
-7.8492336 1.1113564 -1.9291106
-7.8317065 1.1579345 -1.9264588
-7.7956791 1.2015278 -1.9192266
-7.8188233 1.2542621 -1.926941
-7.7975783 1.2999775 -1.923566
-7.761723 1.3429955 -1.9165747
-7.7886806 1.3969398 -1.9254946
-7.782825 1.4452358 -1.9262178
-7.7699986 1.4922305 -1.9252535
-7.7616477 1.5400672 -1.9254946
-7.7644119 1.590196 -1.9286286
-7.7241235 1.6313854 -1.9209141
-7.7215543 1.6804012 -1.9228427
-7.7224622 1.7302961 -1.9257356
-7.6748185 1.7691404 -1.9163337
-7.709146 1.8269477 -1.9279053
-7.6515875 1.8629593 -1.9160926
-7.6550765 1.9136416 -1.9199498
-7.6196899 1.9545442 -1.9139229
-7.5915985 1.9970613 -1.9098246
-7.617619 2.0539694 -1.9197087
-7.5721321 2.0916226 -1.9112711
-7.5740972 2.1422734 -1.9151284
-7.556149 2.1873569 -1.9139229
-7.5342107 2.2311981 -1.9117533
-7.4915853 2.268661 -1.9042799
-7.5609598 2.340426 -1.9259766
-7.4641066 2.3607163 -1.904521
-7.4624095 2.4106493 -1.907896
-7.4447126 2.4554801 -1.9071728
-7.4304256 2.5014234 -1.907414
-7.4250336 2.5504382 -1.9100658
-7.4257302 2.601728 -1.9144051
-7.4123678 2.6482224 -1.9151284
-7.3923321 2.6923251 -1.9141641
-7.3875003 2.7420249 -1.917298
-7.3714442 2.7876456 -1.9175391
-7.3406172 2.8275886 -1.9139229
-7.3258395 2.8736401 -1.9146461
-7.2909455 2.9116952 -1.9100658
-7.2594571 2.9508929 -1.9064496
-7.2304535 2.9909272 -1.9035567
-7.2405877 3.0472872 -1.9112711
-7.2056956 3.08478 -1.9069318
-7.1804037 3.1262224 -1.9052442
-7.1548748 3.1674707 -1.9035567
-7.176897 3.2300391 -1.9148872
-7.1181135 3.2562451 -1.9042799
-7.1261592 3.3129561 -1.9119943
-7.0899029 3.3491552 -1.907655
-7.0797181 3.3976355 -1.9105479
-7.0142498 3.4193168 -1.8982531
-7.0079217 3.4696136 -1.9023514
-6.991703 3.5151644 -1.9037977
-6.9812388 3.5637364 -1.9069318
-6.9489017 3.6011453 -1.9040389
-6.9232392 3.6419075 -1.9030745
-6.8725123 3.6692309 -1.8951191
-6.8575482 3.715493 -1.8972888
-6.8414245 3.7612417 -1.8992174
-6.7970295 3.7913268 -1.8931905
-6.7981315 3.8468256 -1.9001817
-6.7718749 3.8870158 -1.8994584
-6.7336402 3.9201913 -1.8953601
-6.71698 3.9658761 -1.8975298
-6.7141671 4.0199814 -1.9037977
-6.6943517 4.0641255 -1.9052442
-6.6519337 4.094439 -1.9001817
-6.6373882 4.1418586 -1.9033157
-6.5675635 4.1544833 -1.8902975
-6.5509343 4.2004666 -1.8929495
-6.5478206 4.2553949 -1.8996994
-6.5215864 4.2954912 -1.8996994
-6.4838076 4.3278813 -1.8963245
-6.4635606 4.3719344 -1.8982531
-6.4430165 4.4159021 -1.9001817
-6.4189882 4.4575677 -1.9011459
-6.3970718 4.5007796 -1.9028335
-6.3851395 4.5512152 -1.907655
-6.3602405 4.5925808 -1.9086193
-6.3350739 4.6338124 -1.9095836
-6.2924876 4.6621947 -1.9052442
-6.2420301 4.6844029 -1.8984941
-6.2178054 4.7261395 -1.8999406
-6.1656208 4.7464385 -1.8927083
-6.1470952 4.7925363 -1.8960834
-6.1091952 4.8235474 -1.8934315
-6.0825152 4.8633666 -1.8943958
-6.0616097 4.9079266 -1.8972888
-6.0343828 4.9474893 -1.8982531
-5.994206 4.9763618 -1.8951191
-5.9650445 5.014297 -1.8956013
-5.9511609 5.0652738 -1.9011459
-5.8890958 5.0750799 -1.8910208
-5.8805113 5.1309028 -1.8984941
-5.8329182 5.15275 -1.8931905
-5.8279538 5.2123857 -1.9021102
-5.7865105 5.2395773 -1.8989763
-5.7177715 5.2415323 -1.8866814
-5.7132421 5.3022685 -1.8960834
-5.6919155 5.3478589 -1.8999406
-5.637198 5.3619452 -1.8924673
-5.6069875 5.3991265 -1.8934315
-5.5751433 5.4347839 -1.8939137
-5.5458355 5.4729805 -1.8953601
-5.5155816 5.5103364 -1.8965656
-5.4639287 5.5261297 -1.8902975
-5.421782 5.551219 -1.8874047
-5.3876181 5.5843821 -1.8874047
-5.3713264 5.6363068 -1.8939137
-5.3353114 5.6677446 -1.8934315
-5.2766466 5.6747851 -1.8847529
-5.245666 5.7113442 -1.8861994
-5.2105231 5.7434235 -1.8861994
-5.1771269 5.7774553 -1.8869225
-5.1383638 5.8054786 -1.8857172
-5.1135025 5.8493209 -1.8898154
-5.0800519 5.8835254 -1.8907797
-5.0558186 5.9286175 -1.8953601
-5.0149703 5.9543309 -1.8936726
-4.9882693 5.9969296 -1.8975298
-4.9507632 6.0266743 -1.8972888
-4.9124684 6.0554304 -1.8968066
-4.84974 6.0536432 -1.8866814
-4.8100958 6.0802422 -1.8857172
-4.7947993 6.1379428 -1.894637
-4.7428241 6.1488028 -1.8888512
-4.7050066 6.1777883 -1.8888512
-4.676342 6.2189536 -1.8927083
-4.6427226 6.2537646 -1.894637
-4.5996737 6.2758713 -1.8927083
-4.5741611 6.3220625 -1.8982531
-4.5369754 6.3523798 -1.8989763
-4.4995899 6.3824782 -1.8996994
-4.4559093 6.4035935 -1.8977709
-4.4297171 6.450016 -1.9035567
-4.3573937 6.4288683 -1.8890922
-4.3216414 6.4611311 -1.8907797
-4.315588 6.5385604 -1.9059675
-4.2838588 6.5779305 -1.9098246
-4.2297797 6.5828614 -1.9035567
-4.2002177 6.625906 -1.9086193
-4.1394196 6.6194587 -1.8992174
-4.112988 6.6678634 -1.9059675
-4.0619111 6.6763906 -1.9011459
-4.0353465 6.7253242 -1.9081371
-3.9880753 6.7399344 -1.9052442
-3.9515345 6.7726612 -1.907655
-3.9103875 6.7976213 -1.907896
-3.8858354 6.8518806 -1.9165747
-3.8441935 6.876442 -1.9168159
-3.7803891 6.8607965 -1.9057264
-3.7511852 6.9077454 -1.9124765
-3.7238359 6.9588723 -1.920432
-3.6851397 6.9893174 -1.9226016
-3.6225061 6.9738994 -1.9119943
-3.5765533 6.9899473 -1.9103068
-3.5453856 7.0351629 -1.9168159
-3.5056024 7.0637398 -1.9187444
-3.4694355 7.0999413 -1.9228427
-3.4401064 7.1508331 -1.9310392
-3.37831 7.1340871 -1.920673
-3.3529153 7.1942692 -1.9315214
-3.3066869 7.2102957 -1.9303161
-3.2583928 7.2216029 -1.9279053
-3.2187436 7.2521052 -1.9307982
-3.1466277 7.2085629 -1.9136819
-3.1180267 7.2643018 -1.923566
-3.0688691 7.2725663 -1.920673
-3.0204706 7.2822948 -1.9182622
-2.984885 7.3231602 -1.9242891
-2.9467473 7.3584561 -1.9288696
-2.903317 7.3809147 -1.9300749
-2.8527303 7.3850098 -1.9264588
-2.8028908 7.3905773 -1.9233248
-2.7598593 7.4140034 -1.9250124
-2.718643 7.4426494 -1.9281464
-2.677506 7.471982 -1.9315214
-2.6322517 7.4901013 -1.9320036
-2.5894039 7.5152879 -1.9344143
-2.5432422 7.5310345 -1.9344143
-2.4963753 7.5446548 -1.9339322
-2.4437547 7.5404415 -1.9288696
-2.4085908 7.5904479 -1.9380305
-2.3636975 7.6106453 -1.9394768
-2.3022897 7.5767169 -1.926941
-2.2574143 7.5962825 -1.9283874
-2.2110326 7.6109228 -1.9286286
-2.1674697 7.63555 -1.9315214
-2.1187642 7.642159 -1.9298339
-2.0720861 7.6559525 -1.9300749
-2.0218515 7.6563234 -1.926941
-1.9709649 7.6535473 -1.9230838
-1.9272723 7.6786757 -1.9264588
-1.8768958 7.6771579 -1.9230838
-1.8326734 7.7008038 -1.9262178
-1.7827626 7.7005577 -1.9233248
-1.7369699 7.7179794 -1.9250124
-1.688545 7.7237511 -1.923807
-1.642933 7.7425113 -1.9259766
-1.5944175 7.7476931 -1.9247713
-1.5532966 7.7896914 -1.9329679
-1.5030812 7.7866874 -1.9298339
-1.4641724 7.8434663 -1.9418876
-1.4036273 7.7835336 -1.9245303
-1.3599977 7.8159037 -1.9305571
-1.311694 7.8221869 -1.9300749
-1.2641367 7.8329625 -1.9307982
-1.2154564 7.8367352 -1.9298339
-1.1666346 7.8392458 -1.9286286
-1.1183751 7.8452959 -1.9283874
-1.0730966 7.8731666 -1.9336911
-1.022017 7.8584294 -1.9283874
-0.97651905 7.8867054 -1.9339322
-0.92776912 7.889657 -1.9332089
-0.87569386 7.8624063 -1.9250124
-0.82956326 7.8879004 -1.9300749
-0.78105295 7.8918762 -1.9298339
-0.72813886 7.8482018 -1.9177802
-0.68289495 7.886363 -1.9262178
-0.63783115 7.932003 -1.936584
-0.58692622 7.9057636 -1.9291106
-0.54031372 7.9372964 -1.9361018
-0.49058411 7.923995 -1.9320036
-0.44243914 7.9355769 -1.9341732
-0.39340344 7.9313574 -1.9324857
-0.34569591 7.9559226 -1.9380305
-0.2960799 7.9365573 -1.9327267
-0.24734645 7.9372549 -1.9324857
-0.19888106 7.9483252 -1.9348965
-0.14985277 7.935811 -1.9315214
-0.10086328 7.913291 -1.9257356
-0.052174617 7.8933806 -1.920673
-0.0037490195 7.9187851 -1.926941
0.044941276 7.9361281 -1.9312804
0.092986442 7.8813581 -1.9177802
0.14199302 7.9165425 -1.9266999
0.19096483 7.9320159 -1.9307982
0.23974897 7.9345751 -1.9317625
0.28832388 7.9300451 -1.9310392
0.33792746 7.950428 -1.936584
0.38642019 7.9423885 -1.9351375
0.43477374 7.933085 -1.93345
0.48237655 7.9128313 -1.9291106
0.53039855 7.9019756 -1.9271821
0.57745266 7.8792148 -1.9223605
0.62740505 7.8958397 -1.9274231
0.67700249 7.9053783 -1.9307982
0.7255851 7.9020419 -1.9310392
0.77254051 7.8819876 -1.9271821
0.82159412 7.8838558 -1.9288696
0.86931312 7.8728786 -1.9274231
0.91906726 7.8799276 -1.9305571
0.96479362 7.8529487 -1.9252535
1.013209 7.8488059 -1.9257356
1.0643462 7.8645606 -1.9312804
1.1121736 7.8549991 -1.9305571
1.1609184 7.8518672 -1.9315214
1.2104064 7.8532286 -1.9336911
1.2558007 7.8284059 -1.9293517
1.3054086 7.8301258 -1.9317625
1.3516071 7.8114495 -1.9291106
1.3986545 7.798233 -1.9279053
1.4461225 7.7875957 -1.9274231
1.49278 7.7728577 -1.9259766
1.5436587 7.7797341 -1.9300749
1.5898063 7.7625103 -1.9281464
1.6311848 7.7231741 -1.920673
1.6808143 7.7234507 -1.9233248
1.7296591 7.7196212 -1.9250124
1.765214 7.6577964 -1.9119943
1.8153031 7.6600413 -1.9153694
1.871459 7.6864758 -1.9250124
1.9141126 7.6569595 -1.920432
1.9547855 7.6206298 -1.9141641
2.0057077 7.6244473 -1.9182622
2.0554862 7.6232409 -1.9211552
2.1017058 7.6086144 -1.920673
2.153373 7.613318 -1.9252535
2.1943769 7.5803857 -1.9201909
2.2422266 7.5714312 -1.9213963
2.2883604 7.556602 -1.9211552
2.3263574 7.5155334 -1.9141641
2.3750632 7.5094457 -1.9163337
2.4154248 7.4771852 -1.9117533
2.4484851 7.4235153 -1.9016281
2.5091679 7.4534192 -1.9134408
2.5564311 7.442472 -1.9146461
2.600765 7.4229827 -1.9136819
2.6364629 7.3794684 -1.9064496
2.6800315 7.358593 -1.9052442
2.7166865 7.3192649 -1.8992174
2.7739086 7.3351359 -1.907896
2.8024616 7.2754145 -1.8965656
2.8654859 7.3050604 -1.9091015
2.8868504 7.2287602 -1.8934315
2.9476025 7.2513661 -1.9042799
2.9805365 7.2053442 -1.8968066
3.0314703 7.2030206 -1.9011459
3.0576522 7.142354 -1.8898154
3.1049073 7.1314664 -1.8919851
3.1556807 7.1282535 -1.8963245
3.2001562 7.1105261 -1.8968066
3.2267632 7.0536923 -1.8866814
3.274076 7.0425601 -1.8890922
3.3188853 7.0258479 -1.8900565
3.3606725 7.002727 -1.8893332
3.4282501 7.0325685 -1.9033157
3.4493687 6.9670467 -1.8910208
3.4881282 6.9379473 -1.8888512
3.5319571 6.9190068 -1.8895744
3.5738983 6.8963437 -1.8893332
3.6093669 6.861402 -1.8857172
3.6523142 6.8408384 -1.8861994
3.7076311 6.8430433 -1.8931905
3.744405 6.8108106 -1.8905387
3.7790315 6.7749944 -1.8869225
3.8157501 6.7432337 -1.8845118
3.8527045 6.7121191 -1.8823421
3.8689079 6.6455817 -1.8700473
3.9333019 6.661828 -1.8816189
3.9905601 6.6650438 -1.8895744
4.037426 6.6503873 -1.8924673
4.0445724 6.5709453 -1.8765563
4.0848145 6.5460048 -1.8765563
4.1041451 6.4880133 -1.8669133
4.1475453 6.4684272 -1.8686008
4.190331 6.4477382 -1.8700473
4.2116599 6.3943515 -1.8618507
4.2691388 6.3958311 -1.8700473
4.3131976 6.37675 -1.8722169
4.3500481 6.3469629 -1.8712527
4.3866959 6.3169637 -1.8702884
4.4203463 6.2827854 -1.8681186
4.4464183 6.2381601 -1.862815
4.4806333 6.2052526 -1.8611275
4.5249276 6.1862588 -1.8637793
4.5622225 6.157598 -1.8635383
4.6016669 6.1318173 -1.8642615
4.6427288 6.1081023 -1.8657079
4.6937389 6.0971856 -1.8712527
4.6910744 6.0169959 -1.8551006
4.7279058 5.9880986 -1.8551006
4.7669835 5.962008 -1.8560649
4.8169141 5.9492378 -1.8613685
4.8496346 5.9150672 -1.8599222
4.8914175 5.8919187 -1.8620918
4.9187336 5.8513956 -1.8587167
4.9715314 5.8410563 -1.8652258
5.0351591 5.8427854 -1.875833
5.0600662 5.7993503 -1.8717349
5.0794888 5.7500114 -1.8657079
5.1282635 5.7339253 -1.8707705
5.1522741 5.6901226 -1.8666723
5.202177 5.6748538 -1.8722169
5.2289758 5.6342916 -1.8693241
5.2734184 5.6127095 -1.8729402
5.3037443 5.5760279 -1.8714937
5.3513241 5.5573597 -1.8763152
5.3792243 5.5181661 -1.8741455
5.4000278 5.4719334 -1.8695651
5.4355593 5.4407558 -1.8702884
5.4571071 5.3957033 -1.8661901
5.5053887 5.3770332 -1.8714937
5.5515504 5.3559527 -1.8760742
5.5878224 5.3251352 -1.8772795
5.6267524 5.2967348 -1.8794492
5.6484842 5.2521987 -1.875833
5.6777453 5.2148156 -1.8748688
5.6995716 5.170752 -1.8714937
5.7434802 5.1466913 -1.875592
5.777132 5.1132822 -1.8763152
5.7872057 5.0592175 -1.8693241
5.8210783 5.0261493 -1.8702884
5.8621483 4.9991522 -1.8736634
5.9149842 4.9818411 -1.8808956
5.9491715 4.9485559 -1.8821011
5.9741735 4.9076481 -1.8804135
6.0169878 4.8812914 -1.8845118
6.0362206 4.8357863 -1.8811368
6.0749135 4.805882 -1.8840296
6.1172905 4.7786713 -1.8881279
6.1326628 4.7303786 -1.8837886
6.1391797 4.675611 -1.8767973
6.1739593 4.642519 -1.878726
6.2046671 4.6062841 -1.8794492
6.2500367 4.5807452 -1.8847529
6.2819576 4.5451536 -1.8859582
6.2955108 4.4963717 -1.8816189
6.3206019 4.4559813 -1.8808956
6.3557911 4.422657 -1.8833064
6.3668065 4.3725891 -1.8784848
6.3790545 4.3236418 -1.8741455
6.4135313 4.289814 -1.8765563
6.4543138 4.2600012 -1.8808956
6.4982243 4.231967 -1.8861994
6.5216193 4.1904416 -1.8854761
6.5537667 4.1545029 -1.8874047
6.5733743 4.1106105 -1.8857172
6.5869074 4.0630679 -1.8823421
6.5976181 4.0140018 -1.8782438
6.625452 3.9754407 -1.8792081
6.70151 3.9653468 -1.8941548
6.7382898 3.9314871 -1.8977709
6.7488251 3.8823266 -1.8939137
6.7379045 3.8212194 -1.8840296
6.7730846 3.7864327 -1.8874047
6.801291 3.747612 -1.8888512
6.8523045 3.7210891 -1.8968066
6.8732963 3.6780586 -1.8963245
6.9111891 3.643961 -1.9006639
6.9015493 3.5849383 -1.891744
6.9087272 3.5350106 -1.8876457
6.945889 3.5004122 -1.8919851
6.9420238 3.4452193 -1.8849939
6.974369 3.4080966 -1.8881279
6.9697852 3.3530409 -1.8811368
7.0077715 3.3185165 -1.8859582
7.0280018 3.2754552 -1.8859582
7.0709047 3.2427859 -1.8922262
7.0915537 3.1997375 -1.8924673
7.0871015 3.1455379 -1.8859582
7.1329541 3.1136367 -1.8931905
7.1733298 3.0789952 -1.8989763
7.1867218 3.0326593 -1.8975298
7.1836786 2.9795847 -1.891744
7.2287889 2.9464359 -1.8989763
7.2422266 2.9002221 -1.8977709
7.2571764 2.8546648 -1.8970476
7.2899466 2.8160245 -1.9011459
7.3261456 2.7784657 -1.9062085
7.3266835 2.7273691 -1.9018692
7.377923 2.6950104 -1.9110301
7.3824425 2.6454353 -1.907896
7.3875475 2.5962279 -1.9050032
7.3914099 2.5467417 -1.9018692
7.4243684 2.5072381 -1.9064496
7.4276342 2.4576745 -1.9033157
7.4370346 2.4102585 -1.9018692
7.4637098 2.3683946 -1.9050032
7.4716134 2.3205397 -1.9033157
7.4903545 2.2760611 -1.904521
7.5051098 2.2303345 -1.904762
7.5363617 2.1893837 -1.9093425
7.5253787 2.1362133 -1.9030745
7.5439558 2.091553 -1.904521
7.5735106 2.0497863 -1.9088603
7.5962672 2.0060017 -1.9115121
7.5680184 1.9489527 -1.9011459
7.5911307 1.9053129 -1.9040389
7.6253052 1.8642269 -1.9098246
7.626214 1.8149338 -1.9071728
7.6362615 1.7678874 -1.9069318
7.6564336 1.7231283 -1.9093425
7.6791883 1.6788096 -1.9124765
7.6532679 1.6240095 -1.9033157
7.6868539 1.5819064 -1.9093425
7.6897531 1.5333835 -1.907655
7.7075934 1.4878254 -1.9098246
7.7156234 1.4403266 -1.9095836
7.7672963 1.4007016 -1.920432
7.7614021 1.3505225 -1.9168159
7.7752857 1.3038362 -1.9182622
7.7812233 1.2557944 -1.9177802
6.0193133 0.93385077 -1.4729966
5.8895764 0.87677628 -1.439005
5.8266273 0.83090752 -1.4218887
5.8200765 0.79356927 -1.4189959
5.8152118 0.75659275 -1.4165851
5.796629 0.71803826 -1.4107993
5.7845397 0.68053287 -1.406701
5.7760668 0.64363205 -1.4035671
5.7760468 0.60777318 -1.4026027
5.7671118 0.57107985 -1.3994688
5.756978 0.53442955 -1.3960937
5.758215 0.49892816 -1.3956115
5.76794 0.46413058 -1.3972991
5.772615 0.42887384 -1.3977813
5.7518992 0.39186716 -1.3919954
5.7803493 0.35818216 -1.3985045
5.7824383 0.32270786 -1.3985045
5.7581377 0.28592712 -1.3919954
5.8121419 0.25285786 -1.4050134
5.7873983 0.21621743 -1.3985045
5.7779455 0.18037158 -1.3958527
5.7779737 0.14489125 -1.3956115
5.7622581 0.10912645 -1.3915132
5.7909617 0.074122436 -1.3985045
5.8126583 0.038726363 -1.4038081
5.8263736 0.0030642792 -1.4071832
5.7651415 -0.032330584 -1.3919954
5.7968593 -0.068086758 -1.3999509
5.759459 -0.10298757 -1.3907901
0 -0 -0
0 -0 -0
0 -0 -0
0 -0 -0
0 -0 -0
0 -0 -0
0 -0 -0
0 -0 -0
0 -0 -0
0 -0 -0
0 -0 -0
0 -0 -0
0 -0 -0
6.1319008 -0.63876033 -1.4913183
7.790885 -0.86024737 -1.9069318
7.8365498 -0.91400152 -1.9197087
7.8808827 -0.96822971 -1.9322447
7.835331 -1.0114676 -1.9223605
7.7751207 -1.0522286 -1.9088603
7.5273314 -1.0657309 -1.8483505
7.2211151 -1.067566 -1.7731351
7.1568794 -1.1029752 -1.7586706
7.0234904 -1.1265589 -1.7268487
6.9140177 -1.1525413 -1.7010536
6.845614 -1.1843444 -1.6856248
6.9748173 -1.2508464 -1.7200986
6.9851403 -1.2969887 -1.724679
6.9884872 -1.3420225 -1.727572
6.9953518 -1.3879021 -1.7314291
6.9401178 -1.4212505 -1.7196164
6.9474087 -1.4672192 -1.7237147
6.9487062 -1.5120918 -1.7263665
6.9497142 -1.5570354 -1.7290183
6.8861265 -1.5872149 -1.7152771
6.847928 -1.6227195 -1.7080449
6.8265271 -1.6619505 -1.7051519
6.7860732 -1.6962698 -1.6974375
6.7576766 -1.7332921 -1.6928571
6.7225122 -1.7683007 -1.6865891
6.7134099 -1.8100215 -1.6870713
6.6834683 -1.8460094 -1.6822498
6.6524053 -1.8814338 -1.6771872
6.6323462 -1.9197868 -1.6750176
6.5804296 -1.9485903 -1.6646513
6.563705 -1.9875232 -1.6634459
6.5421157 -2.0248888 -1.6610352
6.5230908 -2.0629427 -1.6593477
6.4872236 -2.0954671 -1.6533208
6.4650278 -2.1321914 -1.65091
6.4380269 -2.1671731 -1.6472939
6.4374576 -2.2110512 -1.650669
6.4155269 -2.2476196 -1.6484993
6.3943038 -2.2843292 -1.6465707
6.3874621 -2.3261788 -1.6484993
6.3466845 -2.3555303 -1.6415081
6.3548045 -2.4030139 -1.647535
6.3508072 -2.4461489 -1.6504279
6.3365822 -2.4854252 -1.650669
6.3194098 -2.5235388 -1.6501868
6.3145947 -2.5666535 -1.6530797
6.3014178 -2.6064641 -1.653803
6.2826228 -2.6439502 -1.6530797
6.243978 -2.6728978 -1.6470529
6.2176723 -2.7068968 -1.6444011
6.2213559 -2.7540357 -1.6499457
6.2255793 -2.8017199 -1.6557316
6.1747365 -2.8245199 -1.6465707
6.1546493 -2.8611264 -1.6458474
6.1308355 -2.8959341 -1.6441599
6.1190753 -2.9364381 -1.6458474
6.1114101 -2.9790335 -1.6487404
6.0747528 -3.0074308 -1.6436778
6.046648 -3.0398514 -1.641026
6.0468974 -3.086606 -1.6463296
6.031291 -3.1254377 -1.6472939
5.9939642 -3.1528952 -1.6422313
5.9505358 -3.1768122 -1.6354812
5.9181328 -3.2063272 -1.6318651
5.8949461 -3.2407091 -1.6309009
5.8868155 -3.2834394 -1.6342759
5.8623352 -3.3171079 -1.6330705
5.8528123 -3.3592985 -1.6362045
5.8329287 -3.3956358 -1.6364455
5.8069696 -3.4284008 -1.634999
5.7908196 -3.4669592 -1.6364455
5.7412343 -3.4852977 -1.6282489
5.7651935 -3.5484462 -1.6415081
5.7647171 -3.5971155 -1.6477761
5.7417173 -3.6319005 -1.647535
5.7217751 -3.6686347 -1.6482582
5.6828833 -3.693094 -1.6434367
5.656064 -3.7252243 -1.6422313
5.6290641 -3.7571645 -1.641026
5.6091199 -3.7938085 -1.6419903
5.5833344 -3.8265078 -1.6412671
5.5366354 -3.8446374 -1.6342759
5.4986553 -3.8684831 -1.6299365
5.45506 -3.8880637 -1.6239096
5.4484086 -3.933964 -1.6292133
5.4374828 -3.9770632 -1.6333115
5.4051809 -4.0045733 -1.6309009
5.3882689 -4.0434899 -1.6333115
5.393487 -4.0993843 -1.6427135
5.3920689 -4.1507568 -1.6501868
5.364203 -4.1819735 -1.6494635
5.368145 -4.2382679 -1.6588656
5.3367329 -4.2668834 -1.657178
5.290843 -4.2836671 -1.65091
5.2779665 -4.3271284 -1.6552494
5.2550497 -4.3625321 -1.6564548
5.2318969 -4.3978171 -1.6576601
5.1944685 -4.4210286 -1.6542851
5.1576877 -4.4445806 -1.6511511
5.1135015 -4.4614658 -1.6456064
5.0823941 -4.4895449 -1.6444011
5.0460715 -4.5128798 -1.6415081
5.0247598 -4.5496211 -1.6436778
5.0368061 -4.6170979 -1.657178
4.9877548 -4.628768 -1.6501868
4.9465299 -4.6473212 -1.6458474
4.9144058 -4.6742401 -1.6446421
4.8751478 -4.6942072 -1.641026
4.8434734 -4.7213221 -1.6400616
4.877955 -4.8136783 -1.6622406
4.8490133 -4.8442039 -1.6624817
2.3016815 -2.3269308 -0.77291465
2.2778683 -2.3312881 -0.76953959
2.270932 -2.352905 -0.77219146
2.2638159 -2.3745244 -0.77484328
4.6336207 -4.922111 -1.6390973
4.6026711 -4.949739 -1.6388563
4.5919051 -4.9993334 -1.6460886
4.5467997 -5.0115991 -1.6407849
4.5088401 -5.0314517 -1.638133
4.4868865 -5.0691986 -1.6415081
4.4461184 -5.0856729 -1.637892
4.391366 -5.0856752 -1.6289722
4.3537822 -5.1051388 -1.6265615
4.3573804 -5.1733313 -1.6400616
4.3218322 -5.1954927 -1.6386153
4.281249 -5.2114134 -1.6352402
4.2504144 -5.2390919 -1.6357223
4.2206144 -5.2681031 -1.6366866
4.193027 -5.2999911 -1.6386153
2.0225601 -2.5880427 -0.77580756
1.9912337 -2.5804217 -0.76953959
1.9677203 -2.5825529 -0.76640564
1.9471718 -2.588372 -0.76447707
1.9277829 -2.5955949 -0.76303059
1.8768312 -2.5596199 -0.74832499
1.7359592 -2.3980868 -0.69528848
1.7167006 -2.4023747 -0.69335991
1.6784459 -2.3795447 -0.68323475
3.8296554 -5.5033178 -1.6253561
3.7579134 -5.4715066 -1.6087219
3.7476788 -5.5290098 -1.6190882
3.7077489 -5.5430264 -1.6164364
3.6811504 -5.5770135 -1.6198114
3.6150908 -5.5506959 -1.6053468
3.5993221 -5.6013527 -1.6137844
3.5737164 -5.6372685 -1.6178827
3.529285 -5.6434546 -1.6133024
3.4915347 -5.6600471 -1.6118559
3.46733 -5.6987772 -1.6169184
3.4312992 -5.7182803 -1.6164364
3.3991125 -5.7442384 -1.6178827
3.3501117 -5.7415137 -1.6111326
3.330785 -5.7897248 -1.6190882
3.3009408 -5.8201847 -1.621981
3.2476492 -5.8089833 -1.6130613
3.200707 -5.8083992 -1.6072755
1.6041806 -2.9526832 -0.79461145
1.5846597 -2.9599032 -0.79388821
1.5664682 -2.9695709 -0.79388821
3.0934241 -5.9549656 -1.6268026
3.0448942 -5.9505053 -1.6202935
2.9808173 -5.9144716 -1.6051058
2.9578414 -5.9596019 -1.6125791
2.9199402 -5.9750223 -1.6118559
2.884485 -5.9954505 -1.6125791
2.8526263 -6.0235624 -1.615472
2.8057764 -6.0198393 -1.6096863
2.7744486 -6.049293 -1.6130613
2.7304955 -6.0511632 -1.608963
2.7003992 -6.0837712 -1.6133024
2.6595259 -6.0922203 -1.6111326
2.6106148 -6.0816679 -1.6039004
2.5634425 -6.0743222 -1.5976324
2.524636 -6.0863509 -1.5966681
2.4879758 -6.1035247 -1.5971503
2.4598556 -6.1421018 -1.6034182
2.4043658 -6.1119199 -1.5913645
2.3849964 -6.1736364 -1.6039004
2.3439746 -6.179987 -1.6017307
2.3009343 -6.1806092 -1.5981146
2.2626345 -6.1936994 -1.5978736
2.239969 -6.2504082 -1.6092041
2.2028618 -6.2676973 -1.6101683
2.1589901 -6.2654967 -1.60607
2.1149182 -6.2620745 -1.6017307
2.0795023 -6.2841477 -1.6041415
2.0376146 -6.286633 -1.6014897
1.9957747 -6.2888412 -1.5988379
1.9588759 -6.3065295 -1.6002843
1.921553 -6.3230734 -1.6014897
1.8838246 -6.3384662 -1.6024539
1.841379 -6.3377895 -1.5993199
1.8051053 -6.3583055 -1.6017307
1.7663167 -6.3701968 -1.6019719
1.7233955 -6.3668623 -1.5983557
1.6852874 -6.3810706 -1.5993199
1.6456183 -6.3894114 -1.5988379
1.6113411 -6.4191566 -1.6039004
1.5686989 -6.4157243 -1.6005254
1.5277313 -6.4186196 -1.5988379
1.4887562 -6.4297638 -1.5993199
1.4522572 -6.4520335 -1.602695
1.4058053 -6.429534 -1.5947396
1.3687438 -6.4494319 -1.5976324
1.3312954 -6.4681654 -1.6002843
1.296134 -6.4990554 -1.60607
1.2580702 -6.5164156 -1.6084808
1.2232232 -6.5516796 -1.615472
0.73572147 -4.0766897 -0.98891795
0.71152467 -4.0859079 -0.99012333
0.68644065 -4.0901966 -0.99012333
0.66303009 -4.1048713 -0.99277514
1.0029519 -6.4652772 -1.5850966
0.61217892 -4.1098185 -0.9920519
0.58859193 -4.1250272 -0.99494481
0.89857203 -6.5913076 -1.6123381
0.8537358 -6.5630121 -1.6039004
0.81380719 -6.5710168 -1.6046237
0.76962394 -6.5431142 -1.5964271
0.72967625 -6.5496426 -1.5969093
0.43149668 -4.0975671 -0.98337322
0.41083217 -4.1455302 -0.99470371
0.6064887 -6.5349054 -1.5901592
0.56788439 -6.5559082 -1.5944985
0.52764738 -6.559269 -1.5944985
0.48645827 -6.5498013 -1.5913645
0.44750994 -6.5710602 -1.5959449
0.25503668 -4.1103783 -0.98289102
0.36640817 -6.5683045 -1.5940163
0.32633859 -6.5752759 -1.5952218
0.28598732 -6.5771546 -1.5952218
0.24649021 -6.6020617 -1.6010075
0.20546459 -6.5869589 -1.5969093
0.1649715 -6.5851851 -1.596186
0.12528971 -6.624887 -1.605829
0.084381036 -6.6051521 -1.6007664
0.043731824 -6.5871062 -1.596186
0.0033231212 -6.6173363 -1.6036594
-0.037387263 -6.6356711 -1.6082398
-0.047742736 -4.0937419 -0.97686416
-0.072913207 -4.096283 -0.9775874
-0.097881652 -4.0889668 -0.97589988
-0.20140164 -6.6715574 -1.6178827
-0.24017408 -6.6110349 -1.6031772
-0.27965888 -6.5842261 -1.5969093
-0.32265535 -6.6357007 -1.6101683
-0.36150143 -6.5996795 -1.6017307
-0.40204868 -6.5983057 -1.6019719
-0.27720761 -4.1381235 -0.99012333
-0.48526427 -6.623848 -1.6096863
-0.3251183 -4.0986147 -0.9812035
-0.35324702 -4.1313529 -0.98988223
-0.60346127 -6.5741701 -1.5998021
-0.64473641 -6.5800023 -1.6022129
-0.68973219 -6.6203246 -1.6133024
-0.73034078 -6.6159678 -1.6133024
-0.48386183 -4.1532755 -0.99856091
-0.50909978 -4.1483021 -0.99807876
-0.85585153 -6.6312413 -1.6207757
-0.56114018 -4.1503978 -1.0002484
-0.93797982 -6.6260047 -1.6222221
-0.97847646 -6.6191649 -1.621981
-1.0178887 -6.6053629 -1.6200525
-1.0596302 -6.6066589 -1.621981
-0.6902653 -4.1436763 -1.0033824
-0.71253091 -4.1211934 -0.99880201
-1.1753991 -6.5545125 -1.6140256
-1.2249931 -6.5977478 -1.6268026
-0.78222293 -4.0759292 -0.99084651
-0.80929691 -4.0815239 -0.99349833
-0.83023334 -4.0565157 -0.9884358
-1.3909562 -6.5865874 -1.6321062
-0.88759154 -4.0811081 -0.99735558
-0.91877359 -4.1030478 -1.0043467
-0.94458652 -4.1001701 -1.00507
-1.5506127 -6.5438581 -1.6304187
-0.9975875 -4.0995851 -1.0079628
-0.74788809 -2.994658 -0.72662824
-0.76624888 -2.9900126 -0.72662824
-1.6904826 -6.4268727 -1.6106505
-1.7271045 -6.4060721 -1.6079987
-0.82089686 -2.9744666 -0.7263872
-0.83833957 -2.966572 -0.72566396
-0.85949636 -2.9716263 -0.72831577
-1.2231845 -4.132236 -1.0303829
-1.2434508 -4.1079345 -1.0260435
-1.2548518 -4.055728 -1.0144719
-1.2861551 -4.0683084 -1.0197755
-1.088735 -3.3723538 -0.84017462
-1.0957211 -3.324137 -0.82932621
-1.0953419 -3.2557287 -0.81317419
-1.1023661 -3.2113159 -0.80329013
-1.1137025 -3.1806788 -0.79702216
-1.4696522 -4.1150832 -1.0453295
-1.1303893 -3.1056778 -0.78087014
-1.1426672 -3.0804875 -0.77604866
-1.1732235 -3.1042805 -0.78424519
-1.1995776 -3.1160405 -0.78930777
-1.5700181 -4.003922 -1.0282131
-1.6006773 -4.0095344 -1.0323114
-1.6278083 -4.0059304 -1.033999
-1.255277 -3.0363417 -0.77604866
-1.2689884 -3.0169542 -0.77291465
-1.2855657 -3.0046504 -0.77170932
-1.7411304 -4.0003662 -1.0436419
-1.7593554 -3.9754095 -1.0397848
-1.8008478 -4.0025921 -1.050151
-1.8213347 -3.9826422 -1.0477402
-1.8350965 -3.9485118 -1.0414723
-1.7979202 -3.807313 -1.0057932
-1.8351088 -3.8250813 -1.0137486
-1.8891728 -3.8765554 -1.0311061
-1.8948324 -3.8283641 -1.020981
-1.9065132 -3.793256 -1.0144719
-1.9478489 -3.8169241 -1.024356
-1.9823992 -3.8264406 -1.0303829
-2.0148797 -3.8313818 -1.0352043
-2.0182333 -3.7812798 -1.024597
-2.0321476 -3.7517602 -1.0197755
-2.0504527 -3.7307169 -1.0173647
-2.0761428 -3.7231503 -1.0188112
-2.134805 -3.7736847 -1.0368918
-2.1579196 -3.7605147 -1.0368918
-2.1965823 -3.7740402 -1.0446062
-2.226114 -3.7713544 -1.0477402
-2.2507088 -3.7601221 -1.0484635
-2.263159 -3.7288213 -1.0434009
-2.2803988 -3.7057741 -1.0407491
-2.2871628 -3.6661906 -1.0332757
-2.3065014 -3.6471672 -1.0318292
-2.3241208 -3.6255939 -1.0296596
-2.3637795 -3.6381164 -1.0376151
-2.4020767 -3.6478565 -1.0448474
-2.4276478 -3.6378918 -1.0462937
-2.4624329 -3.6414149 -1.0518385
-2.4869249 -3.6294389 -1.0528028
-2.5008426 -3.602155 -1.0491867
-2.5217807 -3.585155 -1.0487045
-2.5279555 -3.5474882 -1.0419544
-2.5661545 -3.5547256 -1.0489457
-2.5644214 -3.5068004 -1.0390615
-2.6038046 -3.5151703 -1.0465349
-2.5734684 -3.4300504 -1.0250791
-2.6338222 -3.4659567 -1.0412313
-2.7705045 -3.5996735 -1.0882409
-2.7895553 -3.5787799 -1.0870354
-2.7116094 -3.4351683 -1.047017
-2.7538526 -3.4449923 -1.0554546
-2.746841 -3.393338 -1.0443652
-2.7836118 -3.3959305 -1.0506332
-2.7516937 -3.3153238 -1.0301417
-2.8625515 -3.4060838 -1.0650977
-2.8368402 -3.3337727 -1.0472581
-2.8800545 -3.3427663 -1.0559368
-2.8807278 -3.3023651 -1.0484635
-2.9202158 -3.3064446 -1.0556958
-2.9876864 -3.341265 -1.0732942
-3.0485258 -3.3674672 -1.0882409
-3.1852283 -3.4753065 -1.1309111
-3.1701763 -3.4165773 -1.1176521
-2.9644358 -3.1559072 -1.0354455
-3.1851053 -3.349293 -1.108009
-3.2150221 -3.3394723 -1.111384
-3.2618766 -3.3467815 -1.120786
-3.3314404 -3.3764324 -1.1381434
-3.3692458 -3.3730893 -1.1441703
-3.4036839 -3.3659976 -1.1489918
-3.4576042 -3.377594 -1.1605633
-3.4447334 -3.3239758 -1.1489918
-3.4868469 -3.323529 -1.1564651
-3.4704223 -3.2674859 -1.1439292
-3.4541538 -3.2124314 -1.1316344
-3.4995351 -3.2148068 -1.140313
-3.4882829 -3.1652379 -1.1299468
-3.4187255 -3.0641243 -1.1002946
-3.4156573 -3.0237961 -1.0930624
-3.61903 -3.1643584 -1.1540544
-3.8639212 -3.3367765 -1.2280644
-3.9278967 -3.3501532 -1.2422879
-4.3544693 -3.6679108 -1.3741559
-3.3777089 -2.8102489 -1.0513563
-3.3971386 -2.7913187 -1.0520796
-3.4224935 -2.7771461 -1.0547314
-3.3743231 -2.7039194 -1.033999
-3.5164521 -2.7824972 -1.0737764
-3.5120418 -2.7441428 -1.0670263
-3.48808 -2.6911321 -1.0542493
-3.5755668 -2.7237663 -1.0764282
-3.543339 -2.6650369 -1.0612404
-3.4902644 -2.591769 -1.0397848
-3.4591298 -2.5358887 -1.0253203
-3.5029337 -2.5350921 -1.033999
-3.5128939 -2.5096033 -1.0323114
-3.5512319 -2.5042148 -1.0393026
-3.5569701 -2.4757273 -1.0364097
-3.5688934 -2.4516582 -1.0354455
-3.597528 -2.4389684 -1.0395437
-3.6640589 -2.4513731 -1.0549725
-3.6693103 -2.422431 -1.0520796
-3.696305 -2.4078135 -1.0556958
-3.698761 -2.3772204 -1.0520796
-3.7001615 -2.3461688 -1.0482224
-3.6988518 -2.3136463 -1.0436419
-3.7047176 -2.2858131 -1.0412313
-3.7319405 -2.2711072 -1.0450884
-3.7741027 -2.2651391 -1.053285
-3.8138249 -2.257256 -1.0607584
-3.8200583 -2.2294116 -1.0585886
-3.8403964 -2.2098007 -1.0605172
-3.8648589 -2.1924171 -1.0636512
-3.8019915 -2.1260512 -1.0419544
-3.8192153 -2.1050239 -1.0431598
-3.8337655 -2.0824759 -1.0436419
-3.8096735 -2.0392289 -1.0332757
-3.8161044 -2.0126472 -1.0315882
-3.7474184 -1.9471538 -1.0089271
-3.8854456 -1.9886473 -1.0441241
-3.8559711 -1.9438108 -1.0325525
-3.8852134 -1.9287405 -1.037374
-3.9336002 -1.9227556 -1.0474992
-3.9287059 -1.8905917 -1.0429187
-3.9446185 -1.8685262 -1.0441241
-3.9876792 -1.8590416 -1.0528028
-4.0219488 -1.845054 -1.0590708
-4.0508881 -1.8283213 -1.0638922
-4.0797725 -1.8113028 -1.0687138
-4.1085997 -1.7939982 -1.0735353
-4.1320167 -1.7741119 -1.0769104
-4.2465529 -1.7924782 -1.1048751
-4.2422309 -1.7600694 -1.1007768
-4.2637358 -1.7384006 -1.1036696
-4.3986607 -1.7619773 -1.136938
-4.4247437 -1.7409916 -1.1410363
-4.4987183 -1.7382795 -1.1579115
-4.5710087 -1.7340361 -1.1743046
-4.6024828 -1.7137405 -1.1798494
-4.6329675 -1.6927906 -1.185153
-4.7337203 -1.6967294 -1.2090194
-4.7824998 -1.6811608 -1.2191446
-4.9514723 -1.7064551 -1.2608505
-5.1981707 -1.7558089 -1.3228068
-5.271503 -1.7446022 -1.3392
-5.3042669 -1.7194018 -1.3449858
-5.3285937 -1.6912241 -1.3486019
-6.0127101 -1.8676687 -1.5238634
-6.5004411 -1.9754202 -1.647535
-6.0965786 -1.8119804 -1.5397744
-5.9304991 -1.7231224 -1.4939702
-6.5506392 -1.8596718 -1.6513922
-6.5656676 -1.8204795 -1.6523565
-6.6020088 -1.7870011 -1.6588656
