# .PCD v0.7 - Point Cloud Data file format
VERSION 0.7
FIELDS x y z
SIZE 4 4 4
TYPE F F F
COUNT 1 1 1
WIDTH 1646
HEIGHT 1
VIEWPOINT 0 0 0 1 0 0 0
POINTS 1646
DATA ascii
-5.7445416 -1.4068267 -1.9351404
-5.7549109 -1.3719923 -1.9357743
-5.7576776 -1.335369 -1.9338725
-5.7731643 -1.3016847 -1.9364083
-5.7791901 -1.2658309 -1.9357743
-5.7831373 -1.2295574 -1.9345064
-5.7896442 -1.1938579 -1.9341894
-5.8024406 -1.1594263 -1.9360913
-5.8224816 -1.1263241 -1.9405289
-5.8423347 -1.0930195 -1.9449666
-5.841465 -1.0558009 -1.9424307
-5.8562422 -1.0214057 -1.9452835
-5.8343401 -0.98073471 -1.9357743
-5.8608451 -0.94825137 -1.9427477
-5.8300042 -0.90658593 -1.9303857
-5.8551559 -0.87373757 -1.9370422
-5.872612 -0.8395403 -1.9411628
-0 -0 -0
-0 -0 -0
-0 -0 -0
-0 -0 -0
-0 -0 -0
-0 -0 -0
-0 -0 -0
-0 -0 -0
-0 -0 -0
-0 -0 -0
-0 -0 -0
-0 -0 -0
-0 -0 -0
-0 -0 -0
-0 -0 -0
-0 -0 -0
-0 -0 -0
-0 -0 -0
-0 0 -0
-0 0 -0
-0 0 -0
-0 0 -0
-0 0 -0
-0 0 -0
-0 0 -0
-0 0 -0
-0 0 -0
-0 0 -0
-0 0 -0
-0 0 -0
-0 0 -0
-0 0 -0
-0 0 -0
-0 0 -0
-0 0 -0
-0 0 -0
-0 0 -0
-5.5931301 1.0728227 -1.9304631
-5.5975647 1.1093279 -1.9343897
-5.5712118 1.139672 -1.9275181
-5.5604162 1.173054 -1.9262092
-5.5503435 1.2065471 -1.9252275
-5.5446801 1.2409939 -1.925882
-5.5351195 1.2745676 -1.9252275
-5.524436 1.3078529 -1.924246
-5.5126348 1.3408314 -1.922937
-5.4988036 1.3732562 -1.9209738
-5.4921045 1.4074399 -1.9216281
-5.4742265 1.4387085 -1.9183559
-5.4643831 1.4720248 -1.9180288
-5.4506941 1.5042681 -1.9163927
-5.4559102 1.5417991 -1.9216281
-5.4354548 1.5720941 -1.9177016
-5.4320488 1.6072938 -1.9199921
-5.4220843 1.640594 -1.9199921
-5.4128184 1.6741118 -1.9203193
-5.4033451 1.7075777 -1.9206465
-5.3909678 1.7401189 -1.9199921
-5.3783941 1.7725726 -1.9193376
-5.3611474 1.8034302 -1.9170471
-5.3490872 1.8359847 -1.9167199
-5.3377213 1.8687714 -1.9167199
-5.3225946 1.9002163 -1.915411
-5.3072834 1.931546 -1.9141022
-5.2997613 1.9657185 -1.9157382
-5.2893677 1.9988687 -1.9163927
-5.2831759 2.0336635 -1.9186832
-5.2705984 2.0660422 -1.9186832
-5.2613325 2.0997448 -1.9199921
-5.2404709 2.1287858 -1.9170471
-5.2325497 2.1630678 -1.9190104
-5.213953 2.1929343 -1.9170471
-5.2169046 2.2319505 -1.9232643
-5.1918478 2.2590153 -1.9190104
-5.1701126 2.2873869 -1.9160655
-5.1508098 2.3167403 -1.9141022
-5.1227484 2.3420124 -1.9088666
-5.1596951 2.3973012 -1.9284997
-5.1124201 2.413579 -1.9160655
-5.103478 2.4477646 -1.9183559
-5.0849652 2.4773767 -1.9170471
-5.0578127 2.5026612 -1.912466
-5.0398283 2.5323751 -1.9114844
-5.0241952 2.5632513 -1.9114844
-5.0066948 2.5931613 -1.91083
-4.992362 2.6247127 -1.9114844
-4.9828315 2.6588562 -1.9141022
-4.9655924 2.68893 -1.913775
-4.94486 2.7170715 -1.9121388
-4.9256191 2.7459807 -1.9111573
-4.9136119 2.778944 -1.9131205
-4.8923707 2.8066893 -1.9114844
-4.8726068 2.8352292 -1.9105028
-4.8543048 2.864593 -1.9101756
-4.8358259 2.8938394 -1.9098483
-4.8163633 2.9224761 -1.9091939
-4.8039737 2.955441 -1.9114844
-4.7913609 2.9883635 -1.913775
-4.7785244 3.0212426 -1.9160655
-4.7575102 3.0489759 -1.9150838
-4.7402968 3.0791399 -1.9157382
-4.7221036 3.1086876 -1.9160655
-4.7052979 3.1391773 -1.9170471
-4.682817 3.1658716 -1.9157382
-4.6656418 3.1961479 -1.9167199
-4.6474953 3.2257936 -1.9173744
-4.6198859 3.248812 -1.9141022
-4.6060209 3.2814856 -1.9167199
-4.5865655 3.3102391 -1.9170471
-4.5623541 3.33553 -1.915411
-4.5463576 3.3668365 -1.9173744
-4.5225902 3.3924003 -1.9160655
-4.4971757 3.4166558 -1.9141022
-4.4746294 3.4430327 -1.9134477
-4.446712 3.4651949 -1.9105028
-4.4283328 3.4947565 -1.9118116
-4.4053302 3.5206821 -1.9111573
-4.3858476 3.5494304 -1.9121388
-4.364717 3.5768738 -1.912466
-4.3419604 3.6029842 -1.9121388
-4.3176012 3.6277339 -1.9111573
-4.2909431 3.6504834 -1.9091939
-4.2663159 3.6748927 -1.9082122
-4.2351422 3.6935463 -1.9042857
-4.2159405 3.7225912 -1.9059217
-4.1916108 3.7471297 -1.9052672
-4.16854 3.7727785 -1.9052672
-4.1167526 3.7721057 -1.8918513
-4.1094608 3.8120787 -1.8993773
-4.1032104 3.8533976 -1.9075578
-4.0897593 3.8882704 -1.912466
-4.0692282 3.9165688 -1.9141022
-4.0417366 3.9381654 -1.912466
-4.0148058 3.9602358 -1.9111573
-3.9864197 3.9807887 -1.9091939
-3.9659054 4.0092053 -1.9111573
-3.931987 4.0240006 -1.9065762
-3.9026294 4.0432906 -1.9042857
-3.8725314 4.0616884 -1.9016678
-3.8514228 4.0895014 -1.9036312
-3.826901 4.1137481 -1.9039584
-3.8022268 4.1378484 -1.9042857
-3.7767658 4.1611004 -1.9042857
-3.7486401 4.1813807 -1.9029768
-3.7222867 4.2035956 -1.9026495
-3.6926923 4.2220879 -1.9006863
-3.6642461 4.2418056 -1.8993773
-3.63815 4.2642088 -1.8993773
-3.6119168 4.2864518 -1.8993773
-3.5855474 4.3085337 -1.8993773
-3.5614429 4.3333735 -1.9006863
-3.535382 4.3558784 -1.9010135
-3.5056341 4.3738017 -1.8993773
-3.488698 4.4078279 -1.90494
-3.4586778 4.4254279 -1.903304
-3.4320359 4.4473147 -1.9036312
-3.4001026 4.4622755 -1.9010135
-3.3726585 4.4830542 -1.9010135
-3.3405812 4.4975944 -1.8983957
-3.3162735 4.5225801 -1.900359
-3.2851374 4.53825 -1.8983957
-3.258877 4.5606284 -1.8993773
-3.2264762 4.5743604 -1.8967596
-3.2113016 4.6126866 -1.9046128
-3.1872182 4.6385355 -1.9072306
-3.1533947 4.6501827 -1.9039584
-3.1232262 4.6670876 -1.9029768
-3.0888047 4.6774883 -1.8993773
-3.0574675 4.6923938 -1.8977413
-3.0240204 4.7039108 -1.8947963
-2.9920652 4.7175889 -1.892833
-2.9635632 4.7366605 -1.8931602
-2.9314673 4.7499299 -1.8911968
-2.9032493 4.7694421 -1.8918513
-2.8773334 4.7928381 -1.8941419
-2.8526833 4.8185353 -1.8974141
-2.8225873 4.8351321 -1.8970869
-2.7961648 4.8580937 -1.8993773
-2.7644389 4.8718715 -1.8980684
-2.7349546 4.8895669 -1.8983957
-2.7062695 4.9087391 -1.8993773
-2.6774521 4.927743 -1.900359
-2.6444902 4.9390798 -1.8983957
-2.618983 4.9644079 -1.9019951
-2.5849879 4.9736757 -1.8993773
-2.5595868 4.9995379 -1.903304
-2.5275862 5.0126176 -1.9023223
-2.4955215 5.0254927 -1.9013406
-2.4604897 5.0322204 -1.8980684
-2.4291565 5.0463715 -1.8977413
-2.4013824 5.0680137 -1.900359
-2.3674462 5.0766578 -1.8980684
-2.3350699 5.0885115 -1.8970869
-2.3030262 5.1010208 -1.8964324
-2.2720668 5.1159196 -1.8967596
-2.2391212 5.1263003 -1.8954507
-2.2076247 5.1399426 -1.8954507
-2.1709013 5.1412034 -1.8908697
-2.1447453 5.1675196 -1.8957779
-2.1172781 5.191083 -1.8997046
-2.0832784 5.1987133 -1.8977413
-2.0492649 5.2061219 -1.8957779
-2.0176227 5.2194796 -1.8961052
-1.9781862 5.2123232 -1.8889064
-1.9399028 5.2075372 -1.8826892
-1.9108316 5.2273307 -1.8856342
-1.888285 5.2656431 -1.8954507
-1.8412138 5.2352304 -1.8800715
-1.8087485 5.2455359 -1.8797443
-1.7798544 5.2663832 -1.8833437
-1.7504756 5.2861762 -1.8866159
-1.7130543 5.2815361 -1.8810532
-1.6857601 5.3081598 -1.8869431
-1.6503552 5.3093796 -1.8836709
-1.6199445 5.3266387 -1.8862886
-1.5872303 5.3364782 -1.8862886
-1.5515563 5.3361354 -1.8826892
-1.521624 5.3555541 -1.8862886
-1.4920167 5.3766279 -1.8905425
-1.4619609 5.3966269 -1.8944691
-1.4280964 5.4027548 -1.8934875
-1.3939761 5.4077554 -1.8921785
-1.3568574 5.4006262 -1.8866159
-1.3236942 5.4088502 -1.8866159
-1.2911377 5.4196281 -1.8875976
-1.2548749 5.4145598 -1.8830165
-1.2232883 5.429533 -1.8856342
-1.1923723 5.4480143 -1.8895608
-1.1577445 5.4496818 -1.8875976
-1.1240935 5.4557576 -1.8872703
-1.0909661 5.4644055 -1.8879247
-1.0584913 5.4765635 -1.889888
-1.0238273 5.4773817 -1.8879247
-0.99154127 5.4910002 -1.8905425
-0.9583165 5.499774 -1.8915241
-0.92361468 5.499959 -1.8895608
-0.88939846 5.5027237 -1.8885791
-0.85648674 5.5136805 -1.8905425
-0.82263935 5.5188317 -1.8905425
-0.7888943 5.5247111 -1.8908697
-0.75510812 5.5303836 -1.8911968
-0.72128201 5.53585 -1.8915241
-0.6866042 5.5345449 -1.8895608
-0.65318388 5.5433459 -1.8911968
-0.61884439 5.5444322 -1.8902153
-0.58491164 5.5490646 -1.8905425
-0.55038673 5.5478473 -1.8889064
-0.51703399 5.5586472 -1.8915241
-0.48316166 5.5645394 -1.8925058
-0.44878191 5.5645733 -1.8915241
-0.41399997 5.5587411 -1.8885791
-0.37988439 5.5611768 -1.8885791
-0.345404 5.557744 -1.8866159
-0.31124318 5.5588155 -1.8862886
-0.27684802 5.5549579 -1.8843254
-0.24267614 5.5546637 -1.8836709
-0.20890608 5.5645471 -1.8866159
-0.1750828 5.5761132 -1.8902153
-0.1410071 5.5827508 -1.8921785
-0.10691014 5.5920138 -1.8951235
-0.07260824 5.5935092 -1.8954507
-0.038266931 5.5910149 -1.8944691
-0.0039518536 5.5741353 -1.8885791
0.030213205 5.56744 -1.8862886
0.064251468 5.556756 -1.8826892
0.09812592 5.5439749 -1.8784354
0.13225484 5.5479918 -1.8800715
0.16643675 5.5517983 -1.8817075
0.20060174 5.5535059 -1.8826892
0.23483403 5.5559468 -1.8839982
0.26887438 5.5534573 -1.8836709
0.30304804 5.5535903 -1.8843254
0.33769324 5.561058 -1.8875976
0.37123957 5.550396 -1.8846525
0.40473685 5.5404744 -1.8820348
0.43917388 5.5435386 -1.8839982
0.47285771 5.5369735 -1.8826892
0.50768679 5.5433774 -1.8859614
0.54058498 5.528873 -1.8820348
0.5747931 5.5282712 -1.8830165
0.60922152 5.5293365 -1.8846525
0.64477909 5.5395732 -1.8895608
0.67944837 5.5411401 -1.8915241
0.71379822 5.5396781 -1.8925058
0.74878919 5.5426855 -1.8951235
0.78238708 5.5351796 -1.8941419
0.81523007 5.5227966 -1.8915241
0.84823847 5.5120869 -1.8895608
0.88039798 5.4965153 -1.8859614
0.91348588 5.4872813 -1.8846525
0.94762129 5.4843664 -1.8856342
0.98275602 5.4868197 -1.8885791
1.018474 5.4918351 -1.8925058
1.0533994 5.4919786 -1.8947963
1.08671 5.4835577 -1.8941419
1.1210942 5.4804897 -1.8954507
1.1535294 5.4679604 -1.8934875
1.1850493 5.4515457 -1.8902153
1.2174442 5.4395614 -1.8885791
1.2520711 5.4375138 -1.8905425
1.2858473 5.4315681 -1.8911968
1.3200446 5.4272485 -1.8925058
1.352175 5.414463 -1.8908697
1.3846678 5.4033184 -1.889888
1.415392 5.3855815 -1.8866159
1.4484107 5.3767958 -1.8866159
1.4750855 5.345036 -1.8784354
1.5111973 5.3477049 -1.8826892
1.5429308 5.3347011 -1.8813803
1.575635 5.3251333 -1.8813803
1.6082797 5.3153653 -1.8813803
1.6391875 5.2999806 -1.8794171
1.6731013 5.2943282 -1.8810532
1.7090406 5.2947531 -1.8849797
1.7435682 5.2904487 -1.8872703
1.7784086 5.2868152 -1.889888
1.8123492 5.280272 -1.8915241
1.8462764 5.2735114 -1.8931602
1.876374 5.2558546 -1.8908697
1.9095581 5.2469058 -1.8918513
1.9400727 5.2306609 -1.8902153
1.969457 5.2115874 -1.8875976
2.0041149 5.2064595 -1.8902153
2.0367134 5.1958237 -1.8908697
2.0689065 5.1841063 -1.8911968
2.1010325 5.1721897 -1.8915241
2.13309 5.1600738 -1.8918513
2.1665442 5.1512432 -1.8934875
2.1992264 5.1404586 -1.8944691
2.2239368 5.1112723 -1.8885791
2.2586997 5.1053071 -1.8915241
2.2888193 5.0887666 -1.8905425
2.3164625 5.0668931 -1.8875976
2.3455172 5.0482998 -1.8859614
2.3800812 5.0415025 -1.8889064
2.4093351 5.023396 -1.8875976
2.4372144 5.0025725 -1.885307
2.4678638 4.9875236 -1.885307
2.5001178 4.9756641 -1.8866159
2.5284529 4.9560218 -1.8849797
2.5579453 4.9387364 -1.8843254
2.5925996 4.9313111 -1.8875976
2.6196938 4.9094753 -1.885307
2.6547198 4.9024482 -1.8889064
2.6874821 4.8910351 -1.8908697
2.7188232 4.8769288 -1.8918513
2.7496269 4.8617997 -1.8925058
2.7765844 4.8399191 -1.8905425
2.8033767 4.8178916 -1.8885791
2.8213563 4.7810702 -1.880726
2.8550076 4.7709656 -1.8836709
2.8866799 4.7573967 -1.885307
2.918293 4.7436185 -1.8869431
2.9513462 4.7320361 -1.8895608
2.9772949 4.7090464 -1.8875976
3.0091932 4.6954622 -1.8895608
3.034343 4.6713638 -1.8872703
3.0634687 4.6534467 -1.8875976
3.0888164 4.6298461 -1.8856342
3.1139901 4.6061101 -1.8836709
3.144865 4.5908132 -1.885307
3.1767473 4.5768638 -1.8875976
3.2064018 4.5596037 -1.8885791
3.2387064 4.546 -1.8911968
3.2654326 4.5245099 -1.8905425
3.2920175 4.5028629 -1.889888
3.3229597 4.4871345 -1.8918513
3.3509967 4.4674163 -1.8921785
3.378917 4.4475231 -1.8925058
3.406143 4.4267068 -1.8925058
3.4314976 4.4034882 -1.8915241
3.4514258 4.3734498 -1.8875976
3.4817362 4.3566184 -1.8895608
3.5143485 4.3425169 -1.892833
3.5403285 4.3201408 -1.8925058
3.5655625 4.2968826 -1.8918513
3.5912526 4.2742004 -1.8915241
3.6216981 4.2571216 -1.8938147
3.6403489 4.2262292 -1.889888
3.6680756 4.2059488 -1.8908697
3.691937 4.1812382 -1.889888
3.709964 4.150054 -1.8859614
3.7347243 4.1265116 -1.8856342
3.7555041 4.0986419 -1.8833437
3.7979374 4.0942225 -1.8921785
3.8301048 4.0784173 -1.8957779
3.8524525 4.0521007 -1.8944691
3.8785541 4.029748 -1.8951235
3.9091434 4.0119634 -1.8980684
3.933023 3.9872293 -1.8977413
3.9400501 3.9456403 -1.8892336
3.9709053 3.9280343 -1.8925058
3.9902005 3.8989735 -1.8902153
4.0167694 3.8770411 -1.8915241
4.0268016 3.8392832 -1.8849797
4.0805569 3.8430023 -1.8993773
4.0729203 3.7889357 -1.8846525
4.0974841 3.7651517 -1.885307
4.1338067 3.752003 -1.8915241
4.1476021 3.7183697 -1.8872703
4.1618485 3.6853347 -1.8833437
4.2078595 3.6802533 -1.8941419
4.2396598 3.6623933 -1.8983957
4.27068 3.6436684 -1.9023223
4.2893429 3.6143517 -1.9006863
4.3070807 3.5843389 -1.8987229
4.3348336 3.5626423 -1.9013406
4.3544106 3.5341914 -1.900359
4.3782268 3.5091791 -1.9013406
4.3974528 3.4804897 -1.900359
4.416492 3.4516969 -1.8993773
4.4555449 3.4383845 -1.9072306
4.4667864 3.403538 -1.9029768
4.487586 3.3760662 -1.9029768
4.4991121 3.3417079 -1.8990501
4.527153 3.3196251 -1.9023223
4.5466714 3.2912307 -1.9019951
4.5660114 3.2627215 -1.9016678
4.5813112 3.2313766 -1.8997046
4.6072574 3.2075233 -1.9023223
4.6268516 3.1791935 -1.9023223
4.6447072 3.1496835 -1.9016678
4.6647315 3.12165 -1.9019951
4.674334 3.0867224 -1.8980684
4.6931858 3.0579832 -1.8980684
4.7134509 3.0301504 -1.8987229
4.7303586 3.0001602 -1.8980684
4.7542863 2.9745862 -1.900359
4.7764697 2.947839 -1.9019951
4.7993112 2.9214227 -1.9039584
4.8268695 2.8977542 -1.9078851
4.8591971 2.8767445 -1.913775
4.8653307 2.8402078 -1.9091939
4.8728371 2.8046467 -1.9052672
4.8883104 2.7737622 -1.9046128
4.9217339 2.7529385 -1.9111573
4.9377055 2.7222314 -1.91083
4.9659414 2.6981964 -1.915411
4.9782381 2.665446 -1.913775
4.956049 2.6145756 -1.8987229
4.9812226 2.5889084 -1.9023223
5.0020614 2.560878 -1.9042857
5.0185242 2.5305631 -1.9046128
5.0364966 2.5009828 -1.9055945
5.0398617 2.4642236 -1.9010135
5.0659566 2.4385791 -1.9052672
5.0808239 2.4074492 -1.9052672
5.1100607 2.3830149 -1.91083
5.1220093 2.3504333 -1.9098483
5.144948 2.3228476 -1.9131205
5.1591039 2.2912352 -1.9131205
5.1756639 2.2606707 -1.9141022
5.1903057 2.2292435 -1.9144294
5.2004042 2.1958847 -1.9131205
5.2137799 2.1639342 -1.9131205
5.2112088 2.1254821 -1.9072306
5.2329245 2.0969799 -1.9105028
5.2483311 2.0658696 -1.9114844
5.2776556 2.0400975 -1.9177016
5.2847729 2.0056653 -1.9157382
5.2952089 1.9725413 -1.9150838
5.3116503 1.9416347 -1.9167199
5.3403654 1.9150634 -1.922937
5.3306198 1.8747396 -1.9150838
5.3464894 1.8435355 -1.9167199
5.3630724 1.8125097 -1.9186832
5.3722987 1.7789745 -1.9180288
5.3723259 1.742481 -1.9141022
5.3874202 1.7109134 -1.9157382
5.3951092 1.6769837 -1.9147565
5.4089141 1.6449474 -1.9160655
5.4288692 1.6146892 -1.9196649
5.4423041 1.5824025 -1.9209738
5.4591832 1.5510439 -1.9235915
5.4695082 1.5177703 -1.9239187
5.4723334 1.4824532 -1.9216281
5.4831538 1.4493302 -1.9222826
5.4882832 1.4147162 -1.9209738
5.49686 1.3810141 -1.9209738
5.5052304 1.34726 -1.9209738
5.5299401 1.3173937 -1.9268637
5.5434432 1.2847166 -1.9288269
5.5567532 1.2519236 -1.9307903
5.5643301 1.2178044 -1.9307903
5.5735464 1.1840317 -1.9314448
5.5751534 1.1486678 -1.9294814
5.5774627 1.1135136 -1.9278454
5.5869737 1.0798074 -1.9288269
5.5897784 1.0448123 -1.9275181
5.6053834 1.0121716 -1.9307903
5.6086955 0.97727257 -1.9298086
5.6145864 0.94283986 -1.9298086
5.6267962 0.90942574 -1.9320991
5.6313367 0.8747384 -1.9317719
5.6384673 0.84044695 -1.9324263
5.6472597 0.80636764 -1.9337353
5.6502285 0.77144623 -1.9330808
5.6529818 0.7365188 -1.9324263
5.6677103 0.70309645 -1.9360257
5.6644096 0.66742373 -1.933408
5.6580677 0.63150412 -1.9298086
5.6618361 0.59677494 -1.9298086
5.6625705 0.56174409 -1.9288269
5.6574421 0.52620274 -1.925882
5.6690373 0.49221334 -1.9288269
5.6719508 0.45741951 -1.9288269
5.6774778 0.42281842 -1.9298086
5.6865644 0.38842353 -1.9320991
0 0 -0
0 0 -0
0 0 -0
0 0 -0
0 0 -0
0 0 -0
0 0 -0
0 0 -0
0 0 -0
0 0 -0
0 0 -0
0 -0 -0
0 -0 -0
0 -0 -0
0 -0 -0
0 -0 -0
0 -0 -0
0 -0 -0
0 -0 -0
0 -0 -0
0 -0 -0
0 -0 -0
0 -0 -0
0 -0 -0
0 -0 -0
0 -0 -0
0 -0 -0
0 -0 -0
0 -0 -0
0 -0 -0
0 -0 -0
0 -0 -0
0 -0 -0
0 -0 -0
0 -0 -0
0 -0 -0
0 -0 -0
0 -0 -0
5.6435876 -0.9751665 -1.9415885
5.6384282 -1.0099434 -1.9419156
0 -0 -0
0 -0 -0
5.6114678 -1.1120862 -1.9392979
5.5110393 -1.1273501 -1.9062489
5.4208078 -1.1435719 -1.8767993
5.322278 -1.1569211 -1.8444047
5.2071943 -1.1653868 -1.8061203
5.1539054 -1.186704 -1.7897594
5.0674505 -1.199568 -1.7616186
5.0223513 -1.2214746 -1.7482027
4.9515066 -1.2364573 -1.7256247
4.9099598 -1.2581296 -1.7135175
4.8683348 -1.279339 -1.7014105
4.837584 -1.3030369 -1.69323
4.9306011 -1.3606199 -1.7295513
4.8821511 -1.3795329 -1.7151537
4.8527179 -1.4034204 -1.7076277
4.8367667 -1.4310234 -1.7050099
4.8197556 -1.4582096 -1.702065
4.8179393 -1.4899908 -1.7046827
4.813211 -1.5209497 -1.7063187
4.8136792 -1.5536493 -1.7099181
4.8202085 -1.5884836 -1.7158082
4.794251 -1.6126037 -1.7099181
4.7824783 -1.6413764 -1.7092638
4.7535892 -1.6641291 -1.7023922
4.7530775 -1.6967621 -1.7059916
4.7434649 -1.7262179 -1.7063187
4.7292399 -1.7539755 -1.7050099
4.7130857 -1.7809553 -1.7030466
4.6967783 -1.8078029 -1.7010833
4.67768 -1.8334823 -1.6981384
4.6637092 -1.8610982 -1.6971567
4.6495757 -1.8886117 -1.696175
4.6640959 -1.9279407 -1.7059916
4.6286626 -1.9466265 -1.6971567
4.5931764 -1.9649504 -1.6883218
4.6009603 -2.0017719 -1.6958479
4.5825424 -2.0272877 -1.6935573
4.5726023 -2.056531 -1.694539
4.5556006 -2.0825839 -1.6929028
4.5367384 -2.1077089 -1.6906123
4.5254292 -2.1363132 -1.6912668
4.5045686 -2.1603613 -1.6883218
4.4699926 -2.177609 -1.6801413
4.4489255 -2.2012222 -1.6771964
4.4429336 -2.2322986 -1.6801413
4.4325194 -2.2612364 -1.6814502
4.4160442 -2.287087 -1.6804686
4.3935647 -2.3097413 -1.6771964
4.3901463 -2.3424416 -1.6814502
4.3623972 -2.3621328 -1.6762147
4.357758 -2.3943181 -1.6801413
4.3347321 -2.4164088 -1.6768692
4.3173566 -2.4415646 -1.6758876
4.2965574 -2.4647167 -1.673597
4.288703 -2.4953122 -1.6765419
4.2806349 -2.5259039 -1.6794869
4.2626233 -2.5506656 -1.6785053
4.2436614 -2.5748112 -1.6771964
4.230197 -2.6022873 -1.6781781
4.2173567 -2.6301951 -1.6794869
4.1947498 -2.6519818 -1.6768692
4.1807852 -2.6792004 -1.6778508
4.161098 -2.7027431 -1.6765419
4.1570625 -2.7365403 -1.6817775
4.1394072 -2.7614715 -1.6814502
4.1270814 -2.789995 -1.6834135
4.1122231 -2.8168683 -1.6843952
4.0987425 -2.8447423 -1.6860313
4.0711637 -2.8627698 -1.6817775
4.0412092 -2.8789208 -1.6765419
4.0181055 -2.8997908 -1.6742514
4.0101523 -2.931643 -1.6785053
3.9867737 -2.952256 -1.6762147
3.9602702 -2.9704239 -1.6726153
3.9389601 -2.9923806 -1.6713065
3.9332545 -3.0262921 -1.6768692
3.9056687 -3.0433972 -1.6729425
3.9010127 -3.0784302 -1.6791598
3.8901689 -3.1087995 -1.682759
3.8768959 -3.1373672 -1.6853769
3.8590338 -3.1622946 -1.6860313
3.8359225 -3.1828959 -1.6843952
3.8177669 -3.2075887 -1.6850497
3.7922568 -3.2260542 -1.6824319
3.7652326 -3.2430937 -1.6791598
3.7481105 -3.2686205 -1.6804686
3.7237349 -3.2878034 -1.6785053
3.7070129 -3.3137395 -1.6801413
2.4390569 -2.206846 -1.0973663
2.4233801 -2.2198548 -1.0963846
2.4110992 -2.2359681 -1.0970391
3.6163089 -3.395952 -1.6762147
3.5837638 -3.4070063 -1.670652
3.5661948 -3.4322088 -1.6722882
3.5389781 -3.4480896 -1.6693431
3.5466762 -3.4982798 -1.6834135
3.4877076 -3.4825768 -1.6650894
3.4636157 -3.5012236 -1.6637805
3.4400864 -3.5203822 -1.6627988
3.4203894 -3.5434639 -1.6637805
3.4148808 -3.5814855 -1.6719609
3.4019089 -3.612004 -1.6765419
3.3758211 -3.6286576 -1.6745787
3.3451827 -3.6402559 -1.6703248
3.3145292 -3.6516151 -1.6660709
3.2933223 -3.6732914 -1.6667254
3.2600741 -3.6814008 -1.6611627
3.2467535 -3.7120061 -1.6660709
3.2399728 -3.7504535 -1.6745787
3.2095413 -3.7616351 -1.670652
3.1833563 -3.7776439 -1.669016
3.1794548 -3.8203523 -1.6794869
3.1577532 -3.8419795 -1.6804686
3.1091154 -3.8304625 -1.6667254
3.0885079 -3.8531547 -1.6683615
3.0724289 -3.8816669 -1.6726153
1.9961931 -2.5533645 -1.0806782
1.9787568 -2.5633202 -1.0796965
1.9584109 -2.5693994 -1.0770788
1.9403367 -2.5783467 -1.0757699
1.9244798 -2.5902038 -1.0757699
1.9085504 -2.6019635 -1.0757699
1.8526659 -2.5585046 -1.0522102
1.6419573 -2.2968478 -0.93604785
1.6300112 -2.3099687 -0.93735671
1.5866604 -2.2780428 -0.91968697
2.7715397 -4.0333095 -1.6529822
2.7440886 -4.0463285 -1.6513462
2.7213109 -4.0662317 -1.652655
2.6931863 -4.0781207 -1.6506917
2.660893 -4.0834837 -1.6461107
2.6311896 -4.0925789 -1.6431657
2.6120996 -4.1182237 -1.6470923
2.5963013 -4.1493959 -1.6533095
2.5712883 -4.1660528 -1.6536367
2.5510805 -4.1906314 -1.6572361
2.5238605 -4.2037749 -1.6562544
2.5023503 -4.226501 -1.6591994
2.4897041 -4.2646284 -1.6683615
2.4583068 -4.2708149 -1.6647621
2.4376493 -4.2956815 -1.6686888
2.4080179 -4.3047843 -1.6663982
2.384295 -4.3244443 -1.6683615
2.3608727 -4.3448052 -1.670652
2.33729 -4.3650417 -1.6729425
2.3126664 -4.3834801 -1.6745787
2.2883399 -4.4026194 -1.6765419
2.260422 -4.4148951 -1.6758876
2.2332902 -4.4286814 -1.6758876
2.2027135 -4.4355302 -1.6732697
2.1775305 -4.453207 -1.6749059
2.1419716 -4.4494538 -1.6683615
2.1081588 -4.4488487 -1.663126
1.4405072 -3.0878961 -1.1382685
1.4207451 -3.0949588 -1.1376141
1.4028941 -3.1062021 -1.1385957
1.3861086 -3.1199338 -1.1405591
1.9763701 -4.5244126 -1.6680343
1.9504354 -4.5407963 -1.6696703
1.9225368 -4.5526781 -1.6696703
1.8934798 -4.5617704 -1.6686888
1.8658103 -4.5741777 -1.669016
1.8363034 -4.5820312 -1.6677071
1.8102294 -4.5984883 -1.6696703
1.7850443 -4.6174426 -1.6726153
1.7526573 -4.6177058 -1.6686888
1.7242906 -4.6283731 -1.6686888
1.6926166 -4.6299901 -1.6654166
1.6613065 -4.6322827 -1.6624717
1.6278389 -4.6281252 -1.6572361
1.5975635 -4.6326661 -1.6552728
1.5718292 -4.6504388 -1.6582178
1.5411869 -4.6537161 -1.6559272
1.5126033 -4.663085 -1.6559272
1.4845344 -4.6740799 -1.6565816
1.4558268 -4.6831007 -1.6565816
1.4267896 -4.691041 -1.6562544
1.4012096 -4.710577 -1.660181
1.3664795 -4.6991224 -1.6529822
1.3414916 -4.7210541 -1.6578906
1.3215879 -4.7619777 -1.6696703
1.2945662 -4.7782063 -1.6726153
1.2654645 -4.7869735 -1.6729425
1.2344186 -4.7882423 -1.670652
1.2050153 -4.7957263 -1.670652
1.17422 -4.7975225 -1.6686888
1.1421353 -4.7936058 -1.6647621
0.71303558 -3.0744097 -1.0512285
0.69415796 -3.078727 -1.0512285
0.67807996 -3.0958524 -1.0558096
0.657502 -3.0925598 -1.0531919
0.63965702 -3.1020892 -1.0551552
0.61950201 -3.1003954 -1.0531919
0.59957105 -3.0994992 -1.0515558
0.58088845 -3.1049776 -1.0522102
0.56434166 -3.1224325 -1.0571185
0.53982556 -3.0951149 -1.0463203
0.52035522 -3.0955732 -1.0453386
0.49939379 -3.0865803 -1.0410848
0.4801558 -3.087719 -1.0404304
0.45814019 -3.0700445 -1.0332316
0.4394275 -3.0737333 -1.0335588
0.41775104 -3.0557735 -1.02636
0.39862761 -3.0554681 -1.0253783
0.38114968 -3.0681722 -1.0289778
0.36253732 -3.07233 -1.0296322
0.34388828 -3.076375 -1.0302867
0.32470897 -3.0756078 -1.029305
0.3054589 -3.0737808 -1.0279961
0.29069689 -3.1198199 -1.0433754
0.27326104 -3.1413147 -1.050247
0.25420845 -3.1457579 -1.0512285
0.2911717 -3.9049108 -1.3143117
0.2167417 -3.1656103 -1.0571185
0.19614543 -3.1480179 -1.0505741
0.17840476 -3.1774666 -1.0603907
0.18312113 -3.6664395 -1.2295623
0.13788015 -3.1444864 -1.0482836
0.11808978 -3.1320534 -1.0437026
0.098457195 -3.1194961 -1.0391215
0.078699209 -3.0954804 -1.0306138
0.059650611 -3.0930707 -1.0296322
0.040634554 -3.090544 -1.0286505
0.021946546 -3.1323118 -1.0430481
0.002695808 -3.070966 -1.0217789
-0.016152659 -3.0718696 -1.0221062
-0.034900896 -3.0632088 -1.0191612
-0.053983364 -3.0789986 -1.0247239
-0.073124602 -3.0890007 -1.0283233
-0.092105493 -3.0894384 -1.0286505
-0.1134617 -3.154918 -1.0515558
-0.1291686 -3.0682495 -1.0217789
-0.1492776 -3.0938265 -1.030941
-0.16851656 -3.0975699 -1.0325772
-0.18763466 -3.0983641 -1.0332316
-0.20512415 -3.0745265 -1.0253783
-0.22502086 -3.0873463 -1.0302867
-0.24246375 -3.0670679 -1.0237422
-0.26127836 -3.0655224 -1.0237422
-0.27947849 -3.0572746 -1.0214517
-0.30136541 -3.0874772 -1.0325772
-0.32010829 -3.0836904 -1.0319227
-0.33933449 -3.0844858 -1.0329044
-0.35726914 -3.0738983 -1.0299594
-0.3755475 -3.0669589 -1.0283233
-0.39689898 -3.0842774 -1.0351949
-0.41176182 -3.0518188 -1.0247239
-0.43246636 -3.0632691 -1.0296322
-0.45705777 -3.0998192 -1.0433754
-0.48053074 -3.1259079 -1.0535191
-0.50179696 -3.135963 -1.0581001
-0.50424975 -3.0321593 -1.0227606
-0.54604125 -3.1630893 -1.06988
-0.57127708 -3.1922333 -1.0813326
-0.58498859 -3.1570795 -1.0702072
-0.60417086 -3.1525025 -1.06988
-0.62589335 -3.1607857 -1.0741338
-0.64470708 -3.1541085 -1.0731522
-0.69001591 -3.2730594 -1.1166722
-0.85474485 -3.9335706 -1.3522691
-0.85531497 -3.8231335 -1.3149662
-0.73953378 -3.2137637 -1.1003113
-0.75444585 -3.1889367 -1.0931125
-0.80171442 -3.2980962 -1.1336875
-0.79856336 -3.1996069 -1.1003113
-0.86231649 -3.3667271 -1.1618282
-0.81276816 -3.0945244 -1.0662806
-0.80861849 -3.0037162 -1.0355221
-0.82175064 -2.9795702 -1.0286505
-0.83487433 -2.9562862 -1.0221062
-0.85483718 -2.9574618 -1.0243967
-0.90274858 -3.0527337 -1.0607178
-0.96582657 -3.1936493 -1.1137272
-0.97897822 -3.1669009 -1.1062012
-1.0530977 -3.3338203 -1.169027
-0.97855633 -3.0332565 -1.0620267
-1.0134276 -3.0765524 -1.0800238
-1.0561016 -3.1410263 -1.1058739
-1.0630765 -3.0987389 -1.0927852
-1.0698851 -3.0573771 -1.0800238
-1.0895784 -3.0534246 -1.0810053
-1.1089401 -3.0484574 -1.0816598
-1.1269666 -3.0398238 -1.0810053
-1.3568263 -3.5914564 -1.2878071
-1.203923 -3.1289361 -1.1192899
-1.5947117 -4.0689273 -1.4717035
-1.710411 -4.2863555 -1.556453
-1.3242915 -3.2611914 -1.1772075
-1.2781812 -3.0932088 -1.1173266
-1.2575516 -2.9912431 -1.081987
-1.3483958 -3.1528676 -1.1457945
-1.3763914 -3.1644621 -1.1533206
-1.937018 -4.3786211 -1.6163338
-0 -0 -0
-1.2905407 -2.8240819 -1.0335588
-1.3413051 -2.8880885 -1.0610451
-1.3392249 -2.8379371 -1.0450114
-1.6669105 -3.4762843 -1.2933698
-1.4650396 -3.0081592 -1.1169994
-1.4922739 -3.0168972 -1.123871
-1.4369053 -2.8607819 -1.0669351
-1.4840747 -2.9099848 -1.0895131
-1.4562517 -2.8127298 -1.0551552
-1.4563267 -2.7711253 -1.0423937
-1.4666271 -2.7496336 -1.0374854
-1.4929239 -2.7580304 -1.0443569
-1.5339456 -2.7927058 -1.0616995
-1.5436876 -2.7700369 -1.0564641
-1.5671701 -2.7720268 -1.0610451
-1.589794 -2.7721932 -1.0649717
-1.6115282 -2.7705529 -1.0682439
-1.6251347 -2.7549164 -1.0659534
-1.6337563 -2.7311101 -1.0603907
-1.6441085 -2.7105334 -1.0561368
-1.6602138 -2.6995895 -1.0558096
-1.6772472 -2.6901536 -1.0561368
-1.6922066 -2.6774156 -1.0551552
-1.7121733 -2.6725504 -1.0574456
-1.7233906 -2.6540711 -1.0541735
-1.7370443 -2.6395009 -1.0525374
-1.7678959 -2.6507998 -1.0616995
-1.7878335 -2.6453812 -1.0639901
-1.7944161 -2.620331 -1.0581001
-1.8207006 -2.6240187 -1.0643172
-1.8296987 -2.6027508 -1.0600635
-1.8428922 -2.5876274 -1.0584273
-1.8449057 -2.5571179 -1.050247
-1.8544248 -2.53736 -1.0466475
-1.872209 -2.5289707 -1.0479563
-1.8752134 -2.5008078 -1.0407575
-1.8979561 -2.4990346 -1.0450114
-1.911525 -2.4850955 -1.0440297
-1.9255753 -2.4718294 -1.0433754
-1.9442192 -2.4644177 -1.0453386
-1.9699256 -2.4657266 -1.0512285
-1.987991 -2.4572651 -1.0528647
-2.0036302 -2.4457517 -1.0531919
-2.0258422 -2.4421363 -1.0571185
-2.02194 -2.4072361 -1.0469748
-2.0397346 -2.3983824 -1.0486108
-2.051945 -2.3829584 -1.0473019
-2.0447848 -2.3454018 -1.0358493
-2.0804074 -2.3568902 -1.0469748
-2.0765619 -2.3236544 -1.0374854
-2.1053681 -2.3269801 -1.0450114
-2.1125827 -2.3063557 -1.041412
-2.1324797 -2.2995834 -1.0443569
-2.1536667 -2.2940311 -1.0479563
-2.1703069 -2.2835121 -1.0492653
-2.1849329 -2.270833 -1.0495925
-2.2014637 -2.2600904 -1.0509013
-2.2259097 -2.2573016 -1.0561368
-2.232372 -2.2362475 -1.0525374
-2.25949 -2.235796 -1.0590818
-2.2528861 -2.2020817 -1.0492653
-2.2615952 -2.183624 -1.0469748
-2.274267 -2.1690543 -1.0466475
-2.2992299 -2.1660697 -1.0522102
-2.3000214 -2.1403387 -1.0463203
-2.3423402 -2.153033 -1.0600635
-2.3702035 -2.1519539 -1.0669351
-2.3664737 -2.1222348 -1.0590818
-2.3815737 -2.1095533 -1.0600635
-2.3958957 -2.0961444 -1.0607178
-2.4137187 -2.0857272 -1.0630084
-2.4228761 -2.0678117 -1.0613723
-2.4254 -2.0443838 -1.0567913
-2.4378984 -2.0294633 -1.0567913
-2.4488449 -2.0132668 -1.0561368
-2.4589505 -1.996417 -1.0551552
-2.4704165 -1.9807009 -1.0548279
-2.4854875 -1.9678504 -1.0561368
-2.4997492 -1.954308 -1.0571185
-2.5139382 -1.9406645 -1.0581001
-2.5340676 -1.9315008 -1.0616995
-2.5579553 -1.9250026 -1.0669351
-2.556062 -1.8991319 -1.0610451
-2.5745261 -1.88844 -1.0639901
-2.582237 -1.8698379 -1.062354
-2.588279 -1.8501137 -1.0600635
-2.5941761 -1.830386 -1.0577729
-2.6069095 -1.8155135 -1.0584273
-2.6125479 -1.7957388 -1.0561368
-2.623517 -1.7796748 -1.0561368
-2.6445982 -1.7703736 -1.0603907
-2.6688182 -1.7629626 -1.0659534
-2.6922543 -1.7548051 -1.0711888
-3.8922465 -2.5024595 -1.5607069
-2.705605 -1.7165754 -1.0679166
-2.7353151 -1.7119668 -1.0757699
-2.7747204 -1.713011 -1.0875497
-2.8061681 -1.7087239 -1.0960574
-2.8514411 -1.7123803 -1.1101278
-2.8244858 -1.6727155 -1.0950757
-2.8542843 -1.6667827 -1.102929
-2.8824775 -1.6596044 -1.1101278
-2.9074016 -1.6502779 -1.1160177
-2.9298446 -1.6393242 -1.120926
-2.9655042 -1.6354538 -1.1310698
-2.9970737 -1.6289521 -1.1395774
-3.039505 -1.6279205 -1.1523389
-3.1246645 -1.6489067 -1.1817884
-3.1741354 -1.6501766 -1.1971678
-3.2178495 -1.6478876 -1.2102565
-3.2608097 -1.6446983 -1.2230179
-3.3080831 -1.6431437 -1.2374156
-3.3444216 -1.6356764 -1.2475593
-3.4361413 -1.6544539 -1.2789723
-3.5068636 -1.6620545 -1.3022047
-3.5880842 -1.6736391 -1.3293638
-4.1041894 -1.8836197 -1.5220951
-3.8004267 -1.7161524 -1.4023334
-3.7892931 -1.683217 -1.3941529
-3.7934875 -1.6572883 -1.3918624
-3.8331082 -1.6466538 -1.4029878
-3.8962462 -1.6455148 -1.4229481
-3.963877 -1.6454725 -1.4445444
-4.0246511 -1.6418078 -1.4635231
-4.1214933 -1.6518624 -1.4959177
-4.226522 -1.6639024 -1.5312573
-4.3406639 -1.6781195 -1.5698689
-4.3879876 -1.6655288 -1.5836121
-4.5194478 -1.6837397 -1.628441
-4.5891614 -1.6777015 -1.6503645
-4.6563005 -1.6699139 -1.6713065
-4.7395616 -1.6670046 -1.6981384
-4.7997313 -1.6551315 -1.7164625
-4.8724651 -1.6468151 -1.7393678
-4.9013176 -1.6231213 -1.7462394
-4.9651194 -1.610498 -1.7658725
-5.0523663 -1.6045839 -1.7940131
-5.1722116 -1.6077496 -1.8339338
-5.2886658 -1.6084046 -1.8725455
-5.3600287 -1.5942297 -1.8947963
-5.4486561 -1.5842479 -1.9232643
-5.4673648 -1.5533665 -1.9265364
-5.4986472 -1.5258498 -1.9343897
-5.5188518 -1.4950448 -1.9383162
-5.5315757 -1.4621187 -1.9396251
-5.5431881 -1.4288572 -1.9406068
-5.5518513 -1.3948179 -1.9406068
-5.5676484 -1.3625216 -1.9432245
-5.5740652 -1.327896 -1.9425701
-5.5784259 -1.2928165 -1.9412613
-5.5807219 -1.2573186 -1.9392979
-5.5597143 -1.2167952 -1.9291542
-5.5716977 -1.1836394 -1.9307903
-5.5677485 -1.1471438 -1.9268637
-5.6071172 -1.1194277 -1.9383162
-5.6287255 -1.087868 -1.9435518
-5.6241479 -1.0512292 -1.9396251
-5.6230526 -1.0153584 -1.9370074
-5.6366243 -0.98213309 -1.9396251
-5.6565237 -0.94987345 -1.9445335
-5.655715 -0.91409373 -1.9422429
-5.6621513 -0.87951857 -1.9425701
-5.6702452 -0.84517705 -1.9435518
-5.6912279 -0.81263673 -1.9491144
-5.6839352 -0.77604133 -1.9448607
-5.6970234 -0.74224782 -1.9478056
-5.7117863 -0.70855516 -1.951405
-0 -0 -0
-0 -0 -0
-0 -0 -0
-0 -0 -0
-0 -0 -0
-0 -0 -0
-0 -0 -0
-0 -0 -0
-0 -0 -0
-0 -0 -0
-0 -0 -0
-0 -0 -0
-0 -0 -0
-0 -0 -0
-0 -0 -0
-0 -0 -0
-0 -0 -0
-0 -0 -0
-0 -0 -0
-0 -0 -0
-0 0 -0
-0 0 -0
-0 0 -0
-0 0 -0
-0 0 -0
-0 0 -0
-0 0 -0
-0 0 -0
-0 0 -0
-0 0 -0
-0 0 -0
-0 -0 -0
-0 -0 -0
-0 -0 -0
-0 -0 -0
-0 -0 -0
-0 0 -0
-0 0 -0
-0 0 -0
-0 0 -0
-0 0 -0
-0 0 -0
-0 0 -0
-0 0 -0
-0 0 -0
-0 0 -0
-0 0 -0
-0 0 -0
-0 0 -0
-0 0 -0
-0 0 -0
-0 0 -0
-0 0 -0
-0 0 -0
-0 0 -0
-0 0 -0
-0 0 -0
-0 0 -0
-0 0 -0
-0 0 -0
-0 0 -0
-0 0 -0
-0 0 -0
-0 0 -0
-0 0 -0
-5.4210439 1.003492 -1.9354004
-5.4036903 1.0346128 -1.9313493
-5.3870826 1.0657409 -1.9276358
-5.370297 1.0967045 -1.9239224
-5.358861 1.1286657 -1.9222344
-5.3518348 1.1615258 -1.9222344
-5.3446074 1.1943421 -1.9222344
-5.3325915 1.2260593 -1.9205465
-5.3332124 1.2607046 -1.9235848
-5.3326945 1.2951816 -1.9262855
-5.3356071 1.3306105 -1.9303366
-5.3191347 1.3612244 -1.9272983
-5.3115926 1.3940753 -1.9276358
-5.2993031 1.4256624 -1.9262855
-5.2895479 1.4579015 -1.9259479
-5.2732553 1.4882852 -1.9232472
-5.2667375 1.5213968 -1.92426
-5.2473731 1.5507505 -1.9205465
-5.2341547 1.5818295 -1.9191961
-5.2225518 1.6133604 -1.9185209
-5.2188377 1.6473579 -1.9208841
-5.210423 1.6799268 -1.9215592
-5.1982288 1.7112771 -1.9208841
-5.1894155 1.7437402 -1.9215592
-5.1777282 1.7752438 -1.9212216
-5.1605182 1.8048055 -1.9188585
-5.1458001 1.8351713 -1.9175082
-5.1353278 1.8670324 -1.9178458
-5.113183 1.8945832 -1.9137948
-5.1005812 1.9255891 -1.9134572
-5.0851555 1.9554983 -1.9121068
-5.0853324 1.9914678 -1.916833
-5.067771 2.0205421 -1.9148074
-5.0587664 2.053015 -1.9161578
-5.0417242 2.0822201 -1.91447
-5.0383987 2.1171267 -1.9181833
-5.0123301 2.1424534 -1.9131196
-4.9947734 2.1712921 -1.9114317
-4.9667201 2.1954303 -1.9056926
-4.9668937 2.2320364 -1.9110941
-4.9796476 2.2745926 -1.9215592
-4.9476671 2.2967825 -1.91447
-4.935184 2.3279006 -1.915145
-4.9259009 2.3605788 -1.9171706
-4.9062457 2.3882875 -1.915145
-4.8990936 2.4221008 -1.9181833
-4.8732033 2.4466259 -1.9137948
-4.8639698 2.4794734 -1.9161578
-4.8444843 2.5071084 -1.91447
-4.8231764 2.5337226 -1.9121068
-4.8083696 2.5637121 -1.9124444
-4.7801299 2.5864491 -1.9073806
-4.76582 2.6166368 -1.9080558
-4.7620101 2.6527002 -1.9131196
-4.7407265 2.6790912 -1.9110941
-4.7290988 2.7109377 -1.9131196
-4.7123756 2.7399039 -1.9131196
-4.6954756 2.7687669 -1.9131196
-4.6735506 2.7946274 -1.9110941
-4.6539006 2.8217874 -1.9100813
-4.6364985 2.8502901 -1.9100813
-4.6149278 2.8761964 -1.9083933
-4.605947 2.9099886 -1.9121068
-4.5880051 2.9381955 -1.9121068
-4.5730486 2.9683414 -1.9134572
-4.5539627 2.9958277 -1.9131196
-4.5378447 3.0252802 -1.9141324
-4.5168562 3.0514863 -1.9131196
-4.4941635 3.0764856 -1.9114317
-4.4721084 3.1018577 -1.9100813
-4.4491405 3.1265337 -1.9083933
-4.428339 3.1526828 -1.9077182
-4.4073839 3.178694 -1.907043
-4.389317 3.2067878 -1.9077182
-4.3725848 3.2358994 -1.9090685
-4.3526473 3.2626681 -1.9090685
-4.3400435 3.2950053 -1.9124444
-4.3204904 3.3221471 -1.912782
-4.3052235 3.3526425 -1.915145
-4.2816148 3.3766644 -1.9137948
-4.2733197 3.4128575 -1.9195337
-4.2405872 3.429544 -1.9141324
-4.2216492 3.4572883 -1.915145
-4.1996312 3.4825258 -1.9148074
-4.1738586 3.5045974 -1.912782
-4.1501245 3.5283129 -1.9117692
-0 0 -0
-4.0923209 3.5666075 -1.9050175
-4.0689478 3.590405 -1.9043423
-4.0419269 3.6109145 -1.9019791
-4.0238838 3.6394355 -1.9040047
-4.0042539 3.6665995 -1.905355
-3.9816806 3.6911001 -1.905355
-3.9644489 3.7206147 -1.9080558
-3.9394977 3.7429252 -1.907043
-3.9164572 3.7670269 -1.907043
-3.8952928 3.7929568 -1.9080558
-3.8685944 3.8134828 -1.9063678
-3.8431234 3.8351536 -1.905355
-3.8175323 3.8566556 -1.9043423
-3.7937965 3.880007 -1.9043423
-3.7666478 3.8998272 -1.9026543
-3.7374494 3.9174175 -1.8999536
-3.7165704 3.9437013 -1.9016416
-3.6916609 3.9657423 -1.901304
-3.666621 3.9876266 -1.9009664
-3.6496792 4.0184102 -1.9050175
-3.6211822 4.0365252 -1.9029919
-3.599468 4.0621905 -1.9046799
-3.5794349 4.0898662 -1.9073806
-3.5481164 4.1046314 -1.9040047
-3.5204191 4.1234617 -1.9026543
-3.4974792 4.1478634 -1.9040047
-3.4743721 4.1721387 -1.905355
-3.447511 4.1919246 -1.9046799
-3.4312208 4.224689 -1.9100813
-3.4040561 4.2441945 -1.9094061
-3.376781 4.263526 -1.9087309
-3.3522968 4.2863894 -1.9097437
-3.3247821 4.305388 -1.9090685
-3.2960191 4.3227134 -1.9077182
-3.268301 4.341352 -1.907043
-3.2365472 4.3545256 -1.9040047
-3.2080967 4.372026 -1.9029919
-3.1806579 4.3908658 -1.9026543
-3.1542037 4.4110651 -1.9029919
-3.1265357 4.4295669 -1.9026543
-3.0998356 4.44944 -1.9029919
-3.0703425 4.4652739 -1.9016416
-3.0423577 4.4832501 -1.901304
-3.0111248 4.4963589 -1.8989408
-2.9819219 4.5123944 -1.8979281
-2.9541783 4.5306063 -1.8979281
-2.9268327 4.549439 -1.8982657
-2.8983583 4.5665174 -1.8979281
-2.8732817 4.5890021 -1.8999536
-2.8440807 4.6049442 -1.8992784
-2.8152819 4.6215048 -1.8989408
-2.7868719 4.6386919 -1.8989408
-2.7578771 4.6548948 -1.8986033
-2.7278388 4.669291 -1.8975905
-2.6967876 4.6818624 -1.8959025
-2.6731231 4.707325 -1.899616
-2.6428096 4.7211742 -1.8986033
-2.6174297 4.7438946 -1.901304
-2.5914207 4.7656541 -1.9036671
-2.5603516 4.7781463 -1.9023167
-2.5305457 4.7929339 -1.9019791
-2.4993515 4.8050308 -1.9006288
-2.4693921 4.819438 -1.9002912
-2.4401982 4.8353395 -1.9006288
-2.4092262 4.847693 -1.899616
-2.3777807 4.8590026 -1.8982657
-2.3462873 4.8701086 -1.8969153
-2.3191845 4.890367 -1.8992784
-2.2919214 4.9104757 -1.9016416
-2.262141 4.9253016 -1.9019791
-2.2314897 4.9382315 -1.9016416
-2.203824 4.9578514 -1.9040047
-2.173739 4.9721427 -1.9043423
-2.1424458 4.9836574 -1.9036671
-2.1070616 4.9854383 -1.8992784
-2.0749872 4.9947963 -1.8979281
-2.0428772 5.0039482 -1.8965777
-2.0107331 5.0128946 -1.8952274
-1.9802819 5.0260139 -1.8955649
-1.9477069 5.0336804 -1.893877
-1.9217994 5.0587354 -1.8989408
-1.8848025 5.0545573 -1.8928642
-1.8598998 5.0828218 -1.8992784
-1.8331306 5.1065412 -1.9040047
-1.7980111 5.1070385 -1.8999536
-1.7669482 5.1188645 -1.9002912
-1.7267557 5.1037531 -1.8905011
-1.7010362 5.131228 -1.8969153
-1.666321 5.131721 -1.8932018
-1.6362284 5.1463337 -1.8948898
-1.6018226 5.1472888 -1.8915139
-1.571032 5.1597219 -1.8925266
-1.5382681 5.1656561 -1.8911763
-1.5078592 5.1795163 -1.8928642
-1.4760499 5.1886706 -1.8928642
-1.444185 5.1976299 -1.8928642
-1.4125123 5.2073021 -1.8932018
-1.3759569 5.1985822 -1.8867877
-1.3468571 5.2178636 -1.8908387
-1.3155047 5.2287683 -1.8918515
-1.2842933 5.2403984 -1.8932018
-1.2536442 5.2545891 -1.8955649
-1.2209532 5.2603483 -1.8948898
-1.1874099 5.2622318 -1.8928642
-1.1565104 5.2758551 -1.8952274
-1.1233326 5.2791691 -1.893877
-1.0914901 5.2887278 -1.8948898
-1.0595726 5.2980947 -1.8959025
-1.0275811 5.3072686 -1.8969153
-0.99343705 5.3051472 -1.893877
-0.96136951 5.3139215 -1.8948898
-0.92825991 5.3169384 -1.893877
-0.89639968 5.3271756 -1.8955649
-0.86369586 5.3325753 -1.8955649
-0.82907629 5.3256836 -1.8911763
-0.7966612 5.3325324 -1.8918515
-0.76352614 5.3345246 -1.8908387
-0.73077971 5.3391089 -1.8908387
-0.6980058 5.3434925 -1.8908387
-0.66532189 5.348609 -1.8911763
-0.63271195 5.3544602 -1.8918515
-0.59995049 5.3591771 -1.8921891
-0.56695688 5.3618212 -1.8918515
-0.53451318 5.3698826 -1.8935394
-0.50059104 5.362752 -1.8898259
-0.46743098 5.3629093 -1.8888133
-0.43413574 5.3609853 -1.8871253
-0.40102232 5.3607321 -1.8861125
-0.3678638 5.3593354 -1.8847622
-0.33467877 5.3567944 -1.8830742
-0.30159181 5.3549881 -1.8817239
-0.26920086 5.3661389 -1.8850998
-0.23639418 5.3705106 -1.8861125
-0.20368674 5.3784447 -1.8884757
-0.17104045 5.390883 -1.8925266
-0.13803184 5.3946538 -1.8935394
-0.10509362 5.4038692 -1.8965777
-0.071946725 5.4053535 -1.8969153
-0.038574055 5.3774552 -1.8867877
-0.0055925474 5.390769 -1.8915139
0.027479965 5.3897605 -1.8911763
0.060476869 5.3829017 -1.8888133
0.093439475 5.3786645 -1.8874629
0.12639648 5.3761077 -1.8867877
0.15924214 5.3705268 -1.8850998
0.19225927 5.3713298 -1.885775
0.22533163 5.3728704 -1.8867877
0.25788844 5.3629251 -1.8837494
0.29150259 5.3744006 -1.8884757
0.32368034 5.3593564 -1.8837494
0.35786989 5.3769932 -1.8908387
0.39085576 5.3746963 -1.8908387
0.42375296 5.3712583 -1.8905011
0.45702127 5.3723087 -1.8918515
0.48963463 5.3656535 -1.8905011
0.52263969 5.3634853 -1.8908387
0.55486077 5.3536234 -1.8884757
0.58790499 5.3519893 -1.8891507
0.62062466 5.3473463 -1.8888133
0.65342367 5.3434377 -1.8888133
0.68583834 5.3365269 -1.8878005
0.7189467 5.3350167 -1.8888133
0.75166821 5.3305049 -1.8888133
0.78477263 5.3285861 -1.8898259
0.81759626 5.3246012 -1.8901635
0.8501035 5.3185544 -1.8898259
0.88318413 5.3160238 -1.8908387
0.91514641 5.3067942 -1.8894883
0.94835341 5.3047857 -1.8908387
0.9803713 5.2960901 -1.8898259
1.0124952 5.288126 -1.8891507
1.0452887 5.2836609 -1.8898259
1.0767475 5.2725363 -1.8881381
1.1096607 5.2685933 -1.8891507
1.142167 5.2626052 -1.8894883
1.1754622 5.2600913 -1.8911763
1.2085588 5.2564492 -1.8925266
1.2403561 5.2471027 -1.8918515
1.271862 5.236649 -1.8908387
1.3151269 5.2735 -1.9073806
1.3329952 5.2087917 -1.8864501
1.3649306 5.2005148 -1.8864501
1.3970592 5.1929507 -1.8867877
1.4286462 5.1833735 -1.8864501
1.4591458 5.16998 -1.8847622
1.4900572 5.1582165 -1.8837494
1.5208793 5.1462688 -1.8827366
1.5516108 5.1341367 -1.8817239
1.5833619 5.1254187 -1.8820615
1.6110984 5.1039376 -1.8776728
1.6472945 5.1091862 -1.8834118
1.6750816 5.088253 -1.8793608
1.7137649 5.1001863 -1.8878005
1.7401432 5.0753279 -1.8823991
1.7787085 5.0858803 -1.8905011
1.8095652 5.0739841 -1.8901635
1.8413076 5.0645547 -1.8908387
1.8756183 5.0619879 -1.8942146
1.9063103 5.0495033 -1.893877
1.938271 5.0403471 -1.8948898
1.9674456 5.0239768 -1.8932018
1.9996294 5.0153074 -1.8945522
2.0278878 4.9968381 -1.8921891
2.057791 4.9825611 -1.8915139
2.0872309 4.9672375 -1.8905011
2.1158206 4.9500093 -1.8888133
2.1420262 4.9274373 -1.8850998
2.172981 4.9159231 -1.885775
2.2031038 4.9024978 -1.885775
2.228842 4.8794689 -1.8820615
2.2650805 4.8793621 -1.8874629
2.2929695 4.861115 -1.885775
2.3235669 4.8486519 -1.8864501
2.3561575 4.8402281 -1.8888133
2.3870635 4.8282113 -1.8898259
2.4162216 4.8126326 -1.8894883
2.4448509 4.7960391 -1.8888133
2.4733677 4.7792754 -1.8881381
2.5022087 4.763176 -1.8878005
2.5313878 4.7477326 -1.8878005
2.5568886 4.7254877 -1.8850998
2.5862885 4.7105355 -1.8854374
2.6197233 4.7028012 -1.8888133
2.6485298 4.6866384 -1.8888133
2.6809812 4.6768322 -1.8915139
2.7086811 4.6586666 -1.8908387
2.7405615 4.6476345 -1.8932018
2.7685442 4.6299233 -1.8928642
2.7959249 4.611239 -1.8921891
2.8236732 4.5931945 -1.8918515
2.8458297 4.566196 -1.8878005
2.8697722 4.5422816 -1.8850998
2.9001269 4.5285511 -1.8867877
2.9242721 4.5051441 -1.8844246
2.9456527 4.4776793 -1.8803735
2.9756823 4.4634366 -1.8820615
3.0061746 4.4497743 -1.884087
3.0408645 4.4421201 -1.8888133
3.0702093 4.4264717 -1.8901635
3.0967708 4.4067798 -1.8898259
3.127027 4.3922968 -1.8918515
3.1539187 4.3730268 -1.8918515
3.1790261 4.3513122 -1.8908387
3.2067852 4.3332376 -1.8915139
3.2338777 4.3142328 -1.8918515
3.2625649 4.297308 -1.8932018
3.2871501 4.2749696 -1.8921891
3.3144755 4.2562051 -1.8928642
3.3422773 4.2380052 -1.893877
3.367631 4.216682 -1.8935394
3.3940325 4.196671 -1.893877
3.4185262 4.1743097 -1.8932018
3.4452765 4.154705 -1.893877
3.4725201 4.1356497 -1.8948898
3.4996595 4.1164165 -1.8959025
3.5211673 4.0905848 -1.893877
3.5406346 4.0625153 -1.8908387
3.5673635 4.0428314 -1.8918515
3.595238 4.0243764 -1.8935394
3.6230202 4.0057316 -1.8952274
3.648802 3.9848144 -1.8959025
3.6731837 3.9623506 -1.8959025
3.6961389 3.938365 -1.8952274
3.7143998 3.9094698 -1.8921891
3.7376654 3.8859265 -1.8918515
3.7660351 3.8676407 -1.8942146
3.7830882 3.8377559 -1.8908387
3.8125486 3.8204679 -1.893877
3.8399324 3.8009763 -1.8959025
3.8692393 3.7832663 -1.8989408
3.8903491 3.7574921 -1.8979281
3.9099264 3.7303014 -1.8962401
3.9306865 3.7043035 -1.8952274
3.9526527 3.6794741 -1.8948898
3.9606054 3.6417713 -1.8878005
3.9982047 3.6313248 -1.8952274
4.0197101 3.6060953 -1.8948898
4.0473967 3.5863576 -1.8975905
4.0672011 3.5595956 -1.8965777
4.0875421 3.5333416 -1.8959025
4.0962601 3.4971921 -1.8898259
4.1327524 3.4847355 -1.8969153
4.1540565 3.459312 -1.8969153
4.1795659 3.4373457 -1.8989408
4.2013092 3.4122291 -1.8992784
4.2236357 3.3875642 -1.8999536
4.242866 3.3604157 -1.8992784
4.2648883 3.3354785 -1.8999536
4.2882538 3.3115485 -1.901304
4.3092408 3.2857447 -1.9016416
4.325561 3.2564108 -1.8999536
4.343194 3.2281237 -1.8989408
4.3576078 3.1975152 -1.8965777
4.3817186 3.1740308 -1.8986033
4.3819709 3.1333959 -1.8901635
4.4257221 3.1238213 -1.9009664
4.4540739 3.1030643 -1.9050175
4.4745812 3.0767431 -1.9056926
4.5027213 3.055573 -1.9097437
4.5206032 3.0273635 -1.9094061
4.5406642 3.0006065 -1.9100813
4.5566249 2.9711466 -1.9090685
4.5723948 2.9416037 -1.9080558
4.5927424 2.9150059 -1.9090685
4.6065531 2.8842726 -1.9073806
4.6297698 2.8594158 -1.9097437
4.634366 2.8231182 -1.9043423
4.6516013 2.7946291 -1.9043423
4.6767592 2.7708333 -1.9077182
4.6920471 2.7411354 -1.907043
4.7079625 2.7118239 -1.9067054
4.7277875 2.6847451 -1.9080558
4.7532063 2.6607435 -1.9117692
4.7636738 2.6283448 -1.9094061
4.7772307 2.5977168 -1.9083933
4.7897615 2.5665767 -1.907043
4.8029222 2.5358202 -1.9060302
4.8167214 2.5054336 -1.905355
4.8311658 2.4754024 -1.9050175
4.8370204 2.4410465 -1.901304
4.8586507 2.4146731 -1.9040047
4.8699932 2.3831604 -1.9026543
4.8828287 2.3524165 -1.9019791
4.9005728 2.3240254 -1.9033295
4.9266815 2.2994866 -1.9080558
4.943264 2.2703927 -1.9090685
4.9605327 2.2415693 -1.9104189
4.9784942 2.213002 -1.9121068
4.9919791 2.1824129 -1.9121068
5.0044112 2.1513696 -1.9117692
5.0131826 2.1187901 -1.9100813
5.0252199 2.0876288 -1.9097437
5.0379348 2.0567553 -1.9097437
5.0565748 2.0282578 -1.9121068
5.0768065 2.0002992 -1.915145
5.0942516 1.9711493 -1.9171706
5.1159296 1.9435322 -1.9208841
5.1365781 1.9153944 -1.92426
5.1517696 1.8851351 -1.9256103
5.1703272 1.8560337 -1.928311
5.1851697 1.8255248 -1.9296614
5.1953835 1.7933676 -1.9293238
5.2107477 1.7629642 -1.9310117
5.2169995 1.7294773 -1.9293238
5.2221417 1.6956891 -1.9272983
5.227963 1.6621884 -1.9256103
5.2344685 1.6289599 -1.92426
5.2389622 1.5951656 -1.9222344
5.2504559 1.5635273 -1.9229096
5.2608542 1.5315449 -1.9232472
5.2728686 1.5000089 -1.92426
5.2756248 1.4658625 -1.9218968
5.2799778 1.4322319 -1.9202089
5.2886662 1.3998076 -1.9202089
5.2944217 1.3666246 -1.9191961
5.3072715 1.3352616 -1.9208841
5.3190212 1.3035681 -1.9222344
5.3324132 1.2722178 -1.92426
5.3419528 1.2399005 -1.9249351
5.3632331 1.2102084 -1.929999
5.3687191 1.1768743 -1.9293238
5.3721566 1.1431264 -1.9279734
5.388288 1.1120452 -1.9313493
5.397779 1.0795163 -1.9323621
5.3987565 1.0453018 -1.9303366
5.4078441 1.012676 -1.9313493
5.4130297 0.97930735 -1.9310117
5.4115186 0.94477957 -1.928311
5.4199986 0.91202611 -1.9293238
0 0 -0
0 0 -0
0 0 -0
0 0 -0
0 0 -0
0 0 -0
0 0 -0
0 0 -0
0 0 -0
0 0 -0
0 0 -0
0 0 -0
0 0 -0
0 0 -0
0 0 -0
0 0 -0
0 0 -0
0 0 -0
0 0 -0
0 0 -0
0 0 -0
0 0 -0
0 0 -0
0 0 -0
0 0 -0
0 0 -0
0 0 -0
0 -0 -0
0 -0 -0
0 -0 -0
0 -0 -0
0 -0 -0
0 -0 -0
0 -0 -0
0 -0 -0
0 -0 -0
0 -0 -0
0 -0 -0
5.53054 -0.40217718 -1.9468783
5.5223379 -0.4356606 -1.9448528
0 -0 -0
5.5184507 -0.50356632 -1.945528
5.503078 -0.53623158 -1.9411393
5.5024929 -0.57027858 -1.9421521
5.4951472 -0.60361969 -1.9408017
0 -0 -0
0 -0 -0
0 -0 -0
5.4758801 -0.73791862 -1.9397891
5.5057364 -0.77636456 -1.9522798
5.5073876 -0.81109208 -1.9546429
5.499516 -0.84444112 -1.9536301
5.4942312 -0.87816966 -1.9536301
5.4813108 -0.91063148 -1.9509294
5.4793305 -0.94488662 -1.9522798
5.4632368 -0.97666794 -1.9485663
5.4552903 -1.0098288 -1.9478911
5.436048 -1.0408057 -1.9431649
5.4267893 -1.0735933 -1.9421521
5.4053435 -1.1038588 -1.9367508
5.3505712 -1.1269203 -1.9191961
5.2515664 -1.1397721 -1.8854374
5.1498532 -1.1508362 -1.8506657
5.0812306 -1.1682866 -1.8280474
4.9970169 -1.1812586 -1.7996899
4.9302182 -1.1974615 -1.7777467
4.8725443 -1.2151667 -1.7591794
4.8157525 -1.2324431 -1.7409496
4.7735019 -1.2528909 -1.7281213
4.7375455 -1.2745783 -1.717656
4.7123938 -1.2988725 -1.7112418
4.6907463 -1.3239286 -1.7061781
4.6888652 -1.3545138 -1.7085412
4.6967144 -1.3880593 -1.7146177
4.7034273 -1.4214797 -1.7203567
4.6964154 -1.4508682 -1.7210319
4.6829362 -1.4782412 -1.7193439
4.6621313 -1.5031931 -1.7149553
4.6492434 -1.5305941 -1.7136049
4.646903 -1.5614905 -1.7163056
4.6559334 -1.5963836 -1.723395
4.6336107 -1.6205723 -1.7186688
4.6200333 -1.6477087 -1.7173184
4.6018744 -1.6731316 -1.7142801
4.6003485 -1.7046064 -1.717656
4.588922 -1.7324692 -1.7173184
4.5702977 -1.7575536 -1.7142801
4.5629339 -1.7869359 -1.7156305
4.5501347 -1.8142029 -1.7149553
4.5249615 -1.8364253 -1.7095538
4.5031676 -1.8598444 -1.7055029
4.4751825 -1.8805133 -1.6990887
4.4635596 -1.907937 -1.6990887
4.452632 -1.9356643 -1.6994263
4.428618 -1.9576218 -1.6947
4.4165225 -1.9847584 -1.6947
4.3991237 -2.009474 -1.6926745
