# .PCD v0.7 - Point Cloud Data file format
VERSION 0.7
FIELDS x y z
SIZE 4 4 4
TYPE F F F
COUNT 1 1 1
WIDTH 1503
HEIGHT 1
VIEWPOINT 0 0 0 1 0 0 0
POINTS 1503
DATA ascii
-21.154922 5.1406846 -1.8709409
-21.199339 5.2894425 -1.87784
-21.113405 5.4058309 -1.8730369
-21.167519 5.5583005 -1.8809838
-21.186884 5.7025752 -1.8858744
-21.210077 5.8486209 -1.8912015
-21.176666 5.979465 -1.8914634
-21.159676 6.115098 -1.8932973
-21.147551 6.2524414 -1.8956553
-21.134533 6.3898664 -1.8980131
-21.125385 6.5288372 -1.9008077
-21.137175 6.6748352 -1.9056108
-21.148912 6.8215284 -1.9105012
-21.172892 6.9729791 -1.9166144
-21.176922 7.1186323 -1.9209808
-21.146036 7.2529621 -1.9222034
-21.175417 7.4085627 -1.9291025
-21.175535 7.5547547 -1.9333817
-21.173719 7.7008858 -1.9375734
-21.19706 7.8569722 -1.9442105
-21.171749 7.9956856 -1.9463937
-21.195742 8.153697 -1.9532928
-21.192617 8.3021288 -1.9577466
-21.193094 8.452673 -1.9626371
-21.176828 8.5971661 -1.9660429
-21.157745 8.7410164 -1.9692742
-21.151468 8.8907452 -1.9738152
-21.138651 9.0383759 -1.9778324
-21.133039 9.1897573 -1.9826355
-21.144587 9.3494673 -1.9891852
-21.106812 9.488018 -1.9911065
-21.114342 9.6475687 -1.9974816
-21.09631 9.7962418 -2.0014987
-21.068237 9.9408045 -2.0046425
-21.023014 10.077641 -2.0062146
-21.006462 10.228686 -2.0106683
-20.995989 10.383441 -2.0158207
-20.972832 10.53264 -2.0198379
-20.958397 10.686921 -2.0248158
-20.960548 10.85058 -2.0315402
-20.936787 11.001693 -2.0358193
-20.934813 11.165109 -2.0423689
-20.93775 11.332233 -2.04953
-20.896637 11.476315 -2.0524118
-20.866726 11.627108 -2.0565164
-20.836618 11.778455 -2.0607083
-20.795931 11.924417 -2.0639393
-20.760262 12.073831 -2.0677819
-20.706381 12.213132 -2.0698779
-20.692608 12.37677 -2.0761654
-20.631607 12.512803 -2.0777376
-20.544258 12.632899 -2.0766895
-20.413944 12.726045 -2.071275
-20.36495 12.869689 -2.0743315
-20.190809 12.933686 -2.0644634
-20.093525 13.045939 -2.0626295
-19.981474 13.148178 -2.0593109
-19.872242 13.251743 -2.0563416
-19.758368 13.351676 -2.0529358
-19.654699 13.458027 -2.0506654
-19.507092 13.533514 -2.0437663
-19.409014 13.642641 -2.0421944
-19.2868 13.734318 -2.0380898
-19.172272 13.830836 -2.0348587
-19.049244 13.920591 -2.0307541
-18.921034 14.005801 -2.0261257
-18.798872 14.094744 -2.0221958
-18.709654 14.208019 -2.0219338
-18.596855 14.303118 -2.0191393
-18.498526 14.408998 -2.0180039
-18.393341 14.509276 -2.01617
-18.27906 14.601967 -2.0133755
-18.165884 14.695055 -2.0107558
-18.04455 14.780993 -2.0072625
-17.928213 14.870446 -2.0043807
-17.80154 14.950702 -2.0003633
-17.707193 15.057713 -2.0001016
-17.597103 15.15113 -1.9980929
-17.49029 15.247035 -1.996521
-17.387444 15.346156 -1.995473
-17.278099 15.43928 -1.9937264
-17.154228 15.518942 -1.9903206
-17.030031 15.597666 -1.9869146
-16.912821 15.682224 -1.9843822
-16.794489 15.765251 -1.9817623
-16.666388 15.838495 -1.9780071
-16.560995 15.932863 -1.9770465
-16.446507 16.018194 -1.9750378
-16.341526 16.112511 -1.9742519
-16.219088 16.189255 -1.97137
-16.125753 16.29484 -1.9721559
-15.976024 16.342903 -1.9659556
-15.861605 16.426291 -1.964209
-15.7282 16.489428 -1.9601045
-15.61443 16.572573 -1.9585326
-15.495481 16.649837 -1.9563494
-15.386287 16.73727 -1.955476
-15.264547 16.810713 -1.9530308
-15.141823 16.882551 -1.9504982
-15.016149 16.950537 -1.9476163
-14.903332 17.032608 -1.9464811
-14.78421 17.107151 -1.9445598
-14.661503 17.177086 -1.942202
-14.543631 17.252253 -1.9405427
-14.415827 17.315136 -1.9375734
-14.293494 17.384027 -1.9353902
-14.170233 17.451298 -1.9331197
-14.059147 17.533253 -1.9325957
-13.945735 17.61216 -1.9318097
-13.838634 17.698967 -1.9319844
-13.727339 17.780392 -1.931635
-13.61617 17.86191 -1.931373
-13.49673 17.932386 -1.9299757
-12.507662 16.832281 -1.8008153
-13.235586 18.042042 -1.9240373
-13.103014 18.093063 -1.9208062
-12.98306 18.160965 -1.9194962
-12.865064 18.231333 -1.9185356
-12.755803 18.314014 -1.9189723
-12.643754 18.392759 -1.9190596
-12.526186 18.4634 -1.9183609
-12.406011 18.529978 -1.917313
-12.282743 18.591621 -1.9158283
-12.160276 18.654119 -1.9145185
-12.036965 18.714975 -1.9131212
-11.451678 18.047449 -1.8361838
-11.325926 18.093733 -1.8337386
-11.174391 18.097622 -1.8270142
-11.561097 18.983471 -1.9109379
-11.438757 19.044659 -1.9099773
-11.301378 19.080202 -1.9064841
-11.188111 19.156069 -1.9071828
-11.051967 19.192415 -1.9039515
-9.6232748 16.951174 -1.6712182
-10.7981 19.295301 -1.9008077
-10.673248 19.349854 -1.8996724
-10.549561 19.406227 -1.8987991
-10.419938 19.451275 -1.8968779
-10.290627 19.496344 -1.895044
-10.161613 19.541441 -1.8932973
-10.03198 19.584805 -1.8914634
-9.9062357 19.635319 -1.8904154
-9.7767048 19.677891 -1.8886689
-9.6474609 19.720507 -1.8870096
-9.5141726 19.754202 -1.8845644
-9.3791275 19.783403 -1.8817699
-9.2415562 19.806276 -1.8784513
-9.1132021 19.848124 -1.8770541
-8.9871435 19.894588 -1.8761808
-8.8568125 19.931152 -1.8744341
-8.7263708 19.966866 -1.8726876
-8.596612 20.003559 -1.8711157
-8.4644051 20.033907 -1.8690197
-8.3348246 20.069826 -1.8675351
-8.2006054 20.093843 -1.8650025
-8.0701132 20.126215 -1.8633432
-7.9413576 20.162376 -1.8621206
-7.8121033 20.196789 -1.8608108
-7.6816649 20.227579 -1.8592387
-7.5455751 20.242596 -1.8562696
-7.4109602 20.260447 -1.8536497
-7.2797751 20.286785 -1.8519031
-7.1495385 20.315098 -1.8504186
-7.0185785 20.340691 -1.8487593
-6.8878937 20.366388 -1.8471873
-6.7627978 20.408268 -1.8471873
-6.6362176 20.445589 -1.846838
-6.5091324 20.481176 -1.8464013
-6.3818603 20.515974 -1.8459647
-6.2564363 20.556652 -1.8461393
-6.1293325 20.591789 -1.8458774
-6.0028687 20.629011 -1.8458774
-5.875906 20.664497 -1.84579
-5.7500668 20.704002 -1.8461393
-5.6200533 20.728317 -1.8451787
-5.4894485 20.749891 -1.8440435
-5.3587909 20.770643 -1.8429081
-5.2295427 20.796371 -1.8422968
-5.1025515 20.830971 -1.8425589
-4.9769497 20.871576 -1.8434322
-4.8485656 20.900751 -1.8433448
-4.7200103 20.929136 -1.8432574
-4.5908632 20.954784 -1.8429955
-4.4622006 20.982559 -1.8429955
-3.0526044 14.800578 -1.2872299
-2.9601703 14.811214 -1.2865312
-2.8268394 14.61002 -1.2669694
-2.7202809 14.537005 -1.2589351
-2.6312096 14.554403 -1.2590224
-2.5327809 14.518262 -1.2543939
-2.420357 14.395014 -1.2420805
-2.3289609 14.390909 -1.2404212
-2.2589924 14.523049 -1.2509007
-2.1243861 14.232192 -1.2239159
-2.0041554 14.015187 -1.2035681
-1.9048928 13.930495 -1.1950098
-1.8085505 13.858946 -1.187674
-1.7652556 14.205897 -1.2173662
-1.6617042 14.077958 -1.20514
-1.5678734 14.021559 -1.199289
-1.4869372 14.079457 -1.2035681
-1.4128408 14.212228 -1.2144843
-1.3075744 14.027213 -1.197455
-1.27358 14.633405 -1.2501148
-1.1896297 14.713428 -1.2564899
-1.1338376 15.182386 -1.2970982
-1.0444055 15.24372 -1.3019012
-0.94700682 15.188198 -1.2964867
-0.86100936 15.322027 -1.3077524
-0.72483665 14.485309 -1.2338715
-0.63620508 14.495455 -1.2343954
-0.57195419 15.153109 -1.2917709
-0.47874522 15.149364 -1.2911596
-0.385883 15.155999 -1.291509
-0.29484591 15.259673 -1.3004166
-0.1904446 14.446391 -1.228981
-0.10168688 14.431349 -1.2275838
-0.01331343 14.620975 -1.2441764
0.07841365 15.00829 -1.2781476
0.16586104 14.598124 -1.2422551
0.25998965 14.85779 -1.2651354
0.34553078 14.617894 -1.2442636
0.45195529 15.178092 -1.293605
0.53171378 14.802701 -1.2609437
0.62056494 14.752381 -1.2568392
0.71068859 14.740335 -1.2561405
0.76868945 14.13887 -1.2037427
0.85404593 14.111017 -1.2017342
0.93955332 14.089607 -1.2003369
1.0242515 14.059732 -1.198241
1.1055589 13.990618 -1.1927392
1.1908756 13.977615 -1.1922152
1.2771621 13.975998 -1.1927392
1.3666649 14.006566 -1.1961451
1.4482645 13.9563 -1.1924772
1.5324562 13.934278 -1.191342
1.6151677 13.900865 -1.1892461
1.7058772 13.935188 -1.1931759
1.7851228 13.876045 -1.1888967
1.8710299 13.870754 -1.1894207
1.9616718 13.898469 -1.1929139
2.0519979 13.920664 -1.1959704
2.1381311 13.912734 -1.1964071
2.22157 13.887548 -1.1953591
2.3119681 13.905103 -1.1981536
2.4009712 13.912251 -1.2000749
2.4854131 13.892354 -1.1996382
2.6422696 14.263753 -1.2341335
2.6682642 13.92636 -1.2054894
2.7443798 13.86282 -1.2012975
2.8427501 13.911113 -1.2071486
2.933394 13.918752 -1.2094191
3.0329053 13.965715 -1.2152703
3.1511431 14.092669 -1.2283697
3.2241559 14.014819 -1.2231299
3.3206348 14.039367 -1.2271471
3.4121261 14.040992 -1.2291557
3.5011096 14.031389 -1.2302036
3.6204932 14.139925 -1.2419931
3.7124989 14.137678 -1.243827
3.8020239 14.125214 -1.2447877
3.8883581 14.100659 -1.2447003
3.9669554 14.048733 -1.2421678
4.0519757 14.020299 -1.2418184
4.1384912 13.997084 -1.2419931
4.2390003 14.020058 -1.246447
4.34377 14.054697 -1.252036
4.4458241 14.078127 -1.2566645
4.526618 14.033518 -1.2550925
4.6135759 14.008317 -1.2553545
4.7083292 14.006185 -1.2577997
4.8064623 14.012838 -1.2611183
4.963408 14.186187 -1.2799815
5.0205688 14.071959 -1.2722092
5.1578894 14.181317 -1.2853086
5.2486157 14.159678 -1.2862692
5.3512359 14.169143 -1.290199
5.4402213 14.141621 -1.2907231
5.5788488 14.240614 -1.3032112
5.6609564 14.19316 -1.3019886
5.7456889 14.152619 -1.3014646
5.8411679 14.138275 -1.3034731
5.975287 14.215126 -1.3142147
6.0232339 14.086597 -1.3054818
6.1282244 14.092311 -1.3095863
6.2129669 14.050799 -1.3092369
6.3693123 14.168694 -1.3242576
6.4312906 14.07498 -1.3190179
6.5389285 14.081333 -1.3234717
6.6575127 14.109417 -1.3301086
6.7805619 14.144658 -1.3375317
6.8768182 14.122492 -1.339453
6.9942541 14.142537 -1.345566
7.0898404 14.11716 -1.3473126
7.2446575 14.207399 -1.3604994
7.3294067 14.158257 -1.3600627
7.4267993 14.1333 -1.3620713
7.5199428 14.09977 -1.3632939
7.6238594 14.085779 -1.3665252
7.7384367 14.090252 -1.3716776
7.8475361 14.083405 -1.3757821
8.007823 14.165938 -1.3889688
8.1064854 14.137278 -1.3910648
8.1995878 14.098466 -1.3922
8.2935314 14.06076 -1.39351
8.4604416 14.144686 -1.4073081
8.6364393 14.239864 -1.4224161
8.7022572 14.151813 -1.4188355
8.8379374 14.176769 -1.4269572
9.0482197 14.317647 -1.4472177
9.1616926 14.302123 -1.4514096
9.2905035 14.309139 -1.4580466
9.3819609 14.25769 -1.4586579
9.4847422 14.223062 -1.4611031
9.5880089 14.188534 -1.4636357
9.7339821 14.215742 -1.4728053
11.732917 16.911633 -1.766844
11.843338 16.849102 -1.767892
11.963256 16.799648 -1.7704246
10.626591 14.730394 -1.5547204
12.143827 16.617794 -1.7667568
12.236673 16.530958 -1.7654468
11.969769 15.964585 -1.7116518
12.069911 15.894012 -1.7120011
12.172066 15.825972 -1.7126998
12.23099 15.702261 -1.7072853
11.832927 15.000424 -1.6373342
11.909822 14.908856 -1.6352384
11.964741 14.790577 -1.6301732
12.038856 14.696847 -1.6279026
12.127536 14.621168 -1.627728
12.914055 15.376455 -1.7227427
13.006225 15.29465 -1.7224807
13.116725 15.234185 -1.7247512
13.236136 15.183453 -1.7282444
13.390356 15.171412 -1.736366
13.517045 15.12685 -1.7408198
13.635671 15.072437 -1.7442257
13.81671 15.085459 -1.7557532
13.937459 15.031077 -1.7594211
14.035562 14.951813 -1.7602071
14.118806 14.856745 -1.7591591
14.209699 14.769834 -1.7591591
14.315349 14.698067 -1.7610803
14.428345 14.633363 -1.7639621
14.527715 14.554427 -1.7651848
14.605416 14.453801 -1.7637875
14.716623 14.386196 -1.7665821
14.851197 14.340605 -1.7722585
15.029736 14.335845 -1.783262
15.19282 14.314402 -1.7923443
15.402144 14.334251 -1.8069284
15.622548 14.361506 -1.8227351
15.758311 14.308907 -1.8284115
15.978557 14.331008 -1.8440435
16.15716 14.313287 -1.8546977
16.380375 14.332614 -1.8705044
16.582573 14.330847 -1.8837785
16.745203 14.292856 -1.8924241
16.978823 14.313121 -1.9091914
17.191114 14.312568 -1.923426
17.4956 14.385235 -1.948053
17.715776 14.384995 -1.9629864
17.966137 14.40627 -1.9812382
18.181494 14.396564 -1.995473
18.382492 14.373095 -2.0080485
18.451414 14.24542 -2.0059526
18.555902 14.145223 -2.0078738
18.652695 14.038887 -2.0090091
18.696106 13.892681 -2.0043807
18.790636 13.784774 -2.0054286
18.746582 13.57631 -1.9915432
18.778477 13.424528 -1.9860414
18.777475 13.250467 -1.9771338
18.818371 13.107102 -1.9728546
18.860678 12.965428 -1.9688375
18.873104 12.804155 -1.9617637
18.909098 12.659845 -1.95731
18.936552 12.510634 -1.9520702
18.978745 12.371902 -1.9484897
19.024975 12.236356 -1.9454331
19.076988 12.10498 -1.9430752
19.128105 11.973426 -1.9407173
19.174089 11.839085 -1.9379228
19.21319 11.701003 -1.9345169
19.242779 11.557759 -1.9302378
19.277336 11.418147 -1.9265699
19.316067 11.281562 -1.923426
19.352121 11.143937 -1.9201075
19.384615 11.00482 -1.916527
19.426565 10.871562 -1.9139944
19.463249 10.735799 -1.9110253
19.507751 10.604753 -1.9089293
19.538208 10.46651 -1.9055235
19.578274 10.333873 -1.9031656
19.599773 10.191947 -1.8990611
19.645983 10.063318 -1.8974892
19.63443 9.9057875 -1.8903282
19.544964 9.7106581 -1.8756567
19.570175 9.5739145 -1.8723383
19.585472 9.4329042 -1.8681464
19.605177 9.2946281 -1.8644786
19.595938 9.1434078 -1.8581035
19.607311 9.0026283 -1.8538244
19.636763 8.8706675 -1.8513792
19.648947 8.7314024 -1.8473619
19.658337 8.5915241 -1.8431702
19.674074 8.4550076 -1.839677
19.682455 8.3159075 -1.8355725
19.687109 8.1758776 -1.831206
19.700935 8.0402451 -1.8278002
19.713839 7.9047513 -1.8243943
19.72953 7.7708626 -1.8213377
19.720165 7.6277351 -1.8160106
19.727482 7.4917364 -1.8123428
19.718941 7.350368 -1.8072777
19.707537 7.2087026 -1.802038
19.724207 7.0778856 -1.7995054
19.756927 6.9530892 -1.7985448
19.74366 6.8125596 -1.7933923
19.783201 6.6906486 -1.7932177
19.840904 6.5747757 -1.7947896
19.880873 6.4529104 -1.7947896
19.937181 6.3362336 -1.7963614
19.983294 6.2161493 -1.7970601
20.028683 6.0957379 -1.7977587
20.072392 5.9747186 -1.79837
20.11537 5.8533931 -1.7989814
20.152824 5.730402 -1.7991561
20.191444 5.6077051 -1.7995054
20.234127 5.4860535 -1.8002913
20.278963 5.3648534 -1.8013393
20.320181 5.2425632 -1.8021252
20.366457 5.1214266 -1.8034352
20.412012 4.9999194 -1.8047451
20.454905 4.8775835 -1.8058804
20.495123 4.7544594 -1.806841
20.553062 4.6351891 -1.8094609
20.602524 4.5136814 -1.8113822
20.635677 4.3884254 -1.8119061
20.671972 4.2637367 -1.8127794
20.700676 4.1374016 -1.8130414
20.733498 4.0118208 -1.8137401
20.763597 3.8856266 -1.8142641
20.801754 3.7608089 -1.815574
20.845047 3.6366968 -1.817408
20.884651 3.5116994 -1.8189799
20.910723 3.3842833 -1.8194165
20.934048 3.2563732 -1.8196785
20.953634 3.1278629 -1.8196785
20.981306 3.0005045 -1.8204645
21.006231 2.872654 -1.8210758
21.040255 2.7458999 -1.8225603
21.067581 2.6180995 -1.823521
6.8936019 0.81348544 -0.57095242
6.9281635 0.77449369 -0.57357228
6.8208399 0.72014284 -0.56370401
6.7983656 0.67561597 -0.56134611
6.8043666 0.63407421 -0.56152081
6.8150764 0.59291631 -0.56213212
6.8275223 0.5518114 -0.56291807
6.8188586 0.50901753 -0.5618701
6.8298044 0.46771318 -0.56256872
6.8226032 0.42517728 -0.56169546
6.8151379 0.38274738 -0.56082213
6.8064137 0.34037533 -0.55986154
6.8014073 0.29829961 -0.55925024
6.8011189 0.25648615 -0.55907559
6.7985816 0.21462446 -0.55872625
6.7997708 0.1729051 -0.55872625
6.8007035 0.13117924 -0.55872625
6.804369 0.089487918 -0.55898821
6.8197322 0.047841113 -0.5602982
6.8169088 0.0059923208 -0.56003618
6.8437138 -0.035975363 -0.56239408
6.8403759 -0.077933051 -0.56213212
6.8656654 -0.12035579 -0.5644027
6.8707733 -0.16262154 -0.56492662
6.9164457 -0.20616905 -0.56903112
6.9409347 -0.24953274 -0.5713017
6.9024467 -0.29056871 -0.56807053
6.9244146 -0.33406657 -0.57016641
6.9610281 -0.3786557 -0.57357228
18.566751 -1.1235945 -1.5930581
18.427309 -1.228685 -1.5814433
18.369745 -1.3381121 -1.5770768
18.328417 -1.4482129 -1.5741949
18.276505 -1.5570115 -1.5704398
18.208076 -1.6637777 -1.5652874
14.235596 -1.3890055 -1.2163182
18.067385 -1.8747582 -1.5548078
18.060493 -1.9861267 -1.5552444
10.599807 -1.2317079 -0.89791447
10.594028 -1.296966 -0.89808911
10.573026 -1.3602931 -0.89695382
10.565467 -1.4252756 -0.89704114
10.594007 -1.4953667 -0.90035969
10.572805 -1.5585992 -0.89931172
13.867441 -2.1311719 -1.1923898
13.82361 -2.2113435 -1.1896827
13.875622 -2.3070674 -1.1955338
18.164858 -3.1347594 -1.5783868
14.521909 -2.5980251 -1.2557038
17.919323 -3.3193357 -1.5600475
13.453799 -2.5777361 -1.1633091
18.092228 -3.5815377 -1.5792601
18.062103 -3.6908867 -1.5785614
18.037167 -3.8012333 -1.5783868
18.002794 -3.9095106 -1.5774262
17.939581 -4.0112062 -1.573933
17.797161 -4.0941849 -1.5633661
17.763948 -4.2014747 -1.5626675
17.705891 -4.3026314 -1.5597856
17.636627 -4.4005814 -1.555943
8.2280045 -2.1069341 -0.70701194
8.1917973 -2.1513088 -0.704916
17.423738 -4.6897764 -1.544241
7.7393484 -2.1343696 -0.66622901
7.7136436 -2.1782982 -0.66509372
17.277042 -4.9931026 -1.5390011
8.0130463 -2.3693819 -0.69496042
7.9764256 -2.4118738 -0.69295186
7.9614763 -2.4607708 -0.69295186
8.0440722 -2.5404713 -0.70194679
16.892 -5.4485574 -1.5183914
16.854465 -5.5508561 -1.518042
7.8373108 -2.6347835 -0.68727541
16.749271 -5.744987 -1.5147235
16.666691 -5.8312025 -1.510357
16.612772 -5.9269981 -1.5086977
16.562048 -6.0237136 -1.5073878
16.493017 -6.113452 -1.5044186
16.415121 -6.1994028 -1.5006634
16.292166 -6.2674613 -1.4927164
16.182907 -6.3396959 -1.4860793
16.161285 -6.4458847 -1.4877386
16.080816 -6.52844 -1.4838961
16.048742 -6.6304107 -1.4846821
15.995818 -6.7237411 -1.4835469
15.978076 -6.8319449 -1.4858174
15.891091 -6.9103913 -1.4815383
15.823791 -6.9968905 -1.4791803
15.756028 -7.0828242 -1.4768225
15.680559 -7.1648784 -1.4737659
15.602871 -7.2454348 -1.4705347
15.522083 -7.3240328 -1.4670415
15.471461 -7.416553 -1.4665176
15.422976 -7.510036 -1.4662555
15.375712 -7.6040869 -1.4661683
15.318082 -7.6929226 -1.4651203
15.260829 -7.7817903 -1.4641596
15.211023 -7.8743663 -1.463985
15.155366 -7.9638443 -1.4632864
13.047617 -6.9588237 -1.2587605
14.99517 -8.1160336 -1.4571732
14.93723 -8.2035732 -1.4563873
14.877911 -8.2902231 -1.455514
14.825895 -8.3808661 -1.4554267
12.452089 -7.1402335 -1.220772
12.612134 -7.3351946 -1.2414691
12.57976 -7.4200344 -1.2427791
12.992238 -7.7711592 -1.2895877
14.388926 -8.72684 -1.4376987
14.324077 -8.8081808 -1.4365635
14.252853 -8.8853664 -1.4348168
12.288967 -7.7662373 -1.2368407
14.097445 -9.0305862 -1.4301012
14.046782 -9.1201715 -1.4306251
13.996383 -9.210022 -1.4312364
13.943752 -9.2984924 -1.431673
13.892213 -9.3877783 -1.4322844
13.840103 -9.4767828 -1.4328957
13.797245 -9.5723143 -1.4345549
13.763516 -9.674551 -1.4372622
13.727427 -9.7755766 -1.4397947
13.774639 -9.9371357 -1.4514096
13.723863 -10.029109 -1.4525448
13.64285 -10.098904 -1.4504489
13.547949 -10.157925 -1.4468684
13.425864 -10.195678 -1.4403187
13.320411 -10.24507 -1.4356029
13.244722 -10.316815 -1.4342055
13.120946 -10.350384 -1.4274812
12.956784 -10.350493 -1.4162157
12.848885 -10.394089 -1.411238
12.750186 -10.444326 -1.4073081
12.675893 -10.514096 -1.4061728
12.621058 -10.600004 -1.4073081
12.561852 -10.682408 -1.4080067
12.490029 -10.754086 -1.4073081
12.421556 -10.828557 -1.4070461
12.339941 -10.891387 -1.4052995
12.266195 -10.960924 -1.4045135
12.175808 -11.015265 -1.4018064
12.072728 -11.057471 -1.3976145
11.965938 -11.095442 -1.3929861
11.870758 -11.143429 -1.3897548
11.787718 -11.202332 -1.3880082
11.705837 -11.262018 -1.3864363
11.610823 -11.30861 -1.3832924
11.485176 -11.324387 -1.3763934
11.390797 -11.370014 -1.3733368
11.327125 -11.446066 -1.3741229
11.286623 -11.545982 -1.377878
11.224562 -11.624334 -1.3790133
11.156463 -11.696592 -1.37945
11.080385 -11.760477 -1.3789259
6.9528718 -7.4711614 -0.85713154
10.929164 -11.888965 -1.37814
10.851991 -11.951376 -1.377616
10.71593 -11.948028 -1.3694071
6.7476091 -7.6171737 -0.85451162
6.6922159 -7.6486864 -0.85337633
6.5826254 -7.6172495 -0.8449927
10.264911 -12.026324 -1.3485353
10.174873 -12.070041 -1.346352
10.098072 -12.129184 -1.3460027
10.027887 -12.196302 -1.346614
9.9509792 -12.255282 -1.346352
6.4012465 -7.9833865 -0.85948944
9.7973652 -12.373349 -1.3460027
2.0228138 -2.5876427 -0.25036541
1.9910697 -2.5795045 -0.24809483
1.9655416 -2.5789974 -0.24669755
1.9502792 -2.591805 -0.24678488
1.9390929 -2.6101196 -0.24748352
1.9348261 -2.6380327 -0.2492301
1.9349639 -2.6724458 -0.25167534
9.2253599 -12.90482 -1.3530763
9.1046495 -12.90258 -1.3467886
1.8917081 -2.7166011 -0.25263596
1.886855 -2.7453964 -0.25446987
1.8722112 -2.7602196 -0.25481921
1.8569022 -2.7741387 -0.25508121
8.6732798 -13.128416 -1.3418108
8.5925627 -13.181387 -1.3418108
8.4894266 -13.199511 -1.3382304
8.3698463 -13.190791 -1.3319426
8.2924519 -13.24781 -1.3325539
8.2094383 -13.295899 -1.332292
8.1142292 -13.3239 -1.3300214
8.0236025 -13.35892 -1.3285367
7.9485908 -13.4199 -1.3297594
7.8897119 -13.508848 -1.3338639
7.8041887 -13.552689 -1.3334272
7.7130151 -13.586458 -1.3320299
7.6387486 -13.650045 -1.3336892
7.5663977 -13.717593 -1.3357852
7.4906497 -13.779515 -1.337357
7.3904352 -13.79624 -1.3344752
7.2930884 -13.81754 -1.3321173
7.1930013 -13.832864 -1.3292354
7.1157103 -13.891811 -1.3307199
7.0105934 -13.896078 -1.3268775
6.9331756 -13.954891 -1.3284495
6.8351617 -13.972115 -1.3260041
6.7212033 -13.955453 -1.3203278
6.6264858 -13.977529 -1.3184938
6.5279593 -13.990843 -1.315874
6.4345078 -14.014338 -1.3143021
6.3414245 -14.038123 -1.3128175
6.2527413 -14.071306 -1.3122934
6.1778536 -14.13588 -1.314826
6.1138148 -14.226604 -1.3198911
6.0314474 -14.275778 -1.3210264
5.9380083 -14.298717 -1.3197165
5.8471498 -14.327505 -1.3190179
5.7891598 -14.438006 -1.3260915
5.7081275 -14.492721 -1.3279254
5.6341891 -14.566494 -1.3315933
5.5429363 -14.596134 -1.3311566
5.4494438 -14.619602 -1.330196
5.3582683 -14.649022 -1.3298467
5.26088 -14.660996 -1.3279254
5.1708231 -14.693 -1.3279254
5.0841455 -14.73481 -1.328886
4.9952345 -14.770447 -1.3293227
4.902317 -14.794199 -1.3287114
4.8040676 -14.801261 -1.3266155
4.7086325 -14.816218 -1.3253056
4.6134906 -14.831514 -1.324083
4.5148573 -14.834764 -1.3218124
4.3862314 -14.736157 -1.3102849
4.2823682 -14.716882 -1.3060931
4.1922593 -14.743839 -1.3061804
4.1584983 -14.973731 -1.3247815
4.0681071 -15.004734 -1.3253056
3.9216919 -14.824286 -1.3067044
3.8296623 -14.844211 -1.306355
3.7351065 -14.853905 -1.3051324
3.6441314 -14.87751 -1.3052198
3.5615573 -14.936413 -1.3085383
3.4792979 -14.998742 -1.3122061
3.398818 -15.071312 -1.3168346
3.3116086 -15.11621 -1.3190179
3.2250118 -15.165477 -1.3216377
3.1381364 -15.215224 -1.324345
3.047452 -15.247869 -1.3255676
2.9523215 -15.258457 -1.3248689
2.8590083 -15.278243 -1.3250436
2.7668042 -15.30432 -1.3258295
2.675415 -15.33573 -1.3271395
2.5807707 -15.348909 -1.3268775
0.4281072 -2.6473792 -0.19753098
0.41568354 -2.6745646 -0.19971421
0.39867651 -2.6731238 -0.1993649
0.38269016 -2.6784782 -0.19962689
0.36732808 -2.6886718 -0.20032553
0.25102893 -1.9263177 -0.13273241
0.23920454 -1.9278216 -0.13273241
0.22947359 -1.9470607 -0.13430434
0.21408971 -1.9177419 -0.13159712
0.20200467 -1.9160473 -0.13133514
0.19004709 -1.9152682 -0.13116047
0.17856911 -1.9193739 -0.13142246
0.1672207 -1.9253956 -0.13185911
0.15524292 -1.9243995 -0.13168445
0.14365475 -1.9282961 -0.13194644
0.13386381 -1.9589566 -0.13456634
0.14702114 -2.3634055 -0.17002214
0.11031757 -1.9694033 -0.1353523
0.097783133 -1.9610888 -0.13456634
0.087452888 -2.0004654 -0.13797219
0.074800611 -1.9910096 -0.13709889
0.076596402 -2.4345095 -0.17596057
0 -0 -0
0.068221636 -3.5467944 -0.27342042
0.032890588 -2.5201747 -0.18338358
0.017616736 -2.5472252 -0.18574148
0.0022700867 -2.8491278 -0.21220236
-0.01390186 -2.5970581 -0.19010796
-0.029802974 -2.5939355 -0.18984598
-0.060875669 -3.4612436 -0.26591006
-0.079549372 -3.3522518 -0.25639114
-0.10254604 -3.433351 -0.26355216
-0.11424878 -3.1718261 -0.24067181
-0.13182577 -3.126277 -0.23674197
-0.15172496 -3.1403346 -0.23805192
-0.16109946 -2.9573121 -0.2220706
-0.17936246 -2.9582567 -0.22224526
-0.20990007 -3.1429737 -0.23857589
-1.1683756 -16.038881 -1.3722016
-1.2646482 -16.004597 -1.3698437
-1.3633341 -16.002491 -1.3703676
-1.4611353 -15.989857 -1.3700184
-1.5551578 -15.938948 -1.3663505
-0.31464857 -3.0290775 -0.22940628
-0.3273496 -2.9736185 -0.22469048
-1.75931 -15.141729 -1.2987573
-1.8524269 -15.132627 -1.2989321
-0.48547214 -3.7713542 -0.29577678
-0.50727218 -3.7584319 -0.29490349
-0.42759764 -3.0272806 -0.23045424
-0.4457289 -3.0216432 -0.23019226
-0.46350449 -3.0139284 -0.22975561
-0.48482081 -3.0287337 -0.23132753
-0.51123697 -3.0728712 -0.23551936
-0.47452292 -2.7476878 -0.20687525
-0.47997195 -2.6809845 -0.20119882
-0.49949729 -2.6946409 -0.20268342
-0.5154596 -2.68859 -0.20242144
-3.1913927 -16.121176 -1.4031162
-3.2549529 -15.928535 -1.387659
-3.3643353 -15.963825 -1.3926367
-0.56289536 -2.5904365 -0.19482376
-0.57747525 -2.5811007 -0.19429979
-0.59218514 -2.5726547 -0.19386314
-0.60566688 -2.5592782 -0.19298984
-0.62018287 -2.5506737 -0.19255319
-3.9170852 -15.698691 -1.3808472
-4.0118542 -15.668571 -1.3803232
-0.65058309 -2.4761972 -0.18687676
-0.67353141 -2.5010171 -0.18949665
-4.2693954 -15.482593 -1.3703676
-0.92694211 -3.2815738 -0.26136893
-0.91000122 -3.1475835 -0.24966675
-4.5511141 -15.392786 -1.3695817
-0.81162483 -2.6832407 -0.2081852
-0.86513358 -2.7981329 -0.21918872
-4.78478 -15.151566 -1.3553469
-5.009757 -15.531495 -1.3930733
-5.1604266 -15.668886 -1.408618
-5.2615499 -15.652036 -1.4100153
-5.3736491 -15.666572 -1.4143817
-5.4732947 -15.643648 -1.4153425
-1.1833079 -3.3157322 -0.27106252
-1.2046521 -3.3112175 -0.27132449
-5.8087859 -15.671023 -1.4275686
-5.8833637 -15.578238 -1.4222414
-1.1763422 -3.0569715 -0.24957943
-1.2048877 -3.0747402 -0.25193733
-1.3067632 -3.2754829 -0.27158648
-1.3571874 -3.3421681 -0.27866018
-1.279917 -3.0971558 -0.25621647
-1.2529627 -2.9799597 -0.24582425
-1.265741 -2.9593921 -0.24460164
-6.6827726 -15.367627 -1.4314984
-6.8039308 -15.387376 -1.4373494
-1.3771783 -3.0627973 -0.25682777
-1.4158168 -3.0977814 -0.26101962
-7.0297909 -15.138458 -1.4256473
-7.0944915 -15.035578 -1.4198835
-1.9212787 -4.0072346 -0.35201705
-7.3059411 -15.003812 -1.4253854
-1.3834387 -2.7966149 -0.23595601
-1.3527371 -2.6928189 -0.22661173
-1.3570166 -2.6605062 -0.22425383
-1.3723997 -2.6503603 -0.22407918
-1.3923432 -2.6489444 -0.22477782
-1.4160708 -2.6544151 -0.22617508
-8.1312065 -15.023205 -1.4599679
-1.9688201 -3.5842309 -0.32092771
-1.4860244 -2.6661897 -0.23001759
-1.5092187 -2.6691625 -0.23124021
-1.52755 -2.6633086 -0.23158953
-8.6287794 -14.836465 -1.4670415
-8.7257242 -14.793537 -1.4680895
-5.0421548 -8.4294672 -0.82350963
-8.8895597 -14.657236 -1.4652076
-8.9694138 -14.586291 -1.4635483
-1.3747522 -2.2045715 -0.19019529
-1.3925107 -2.2028315 -0.19089393
-5.2392492 -8.1785603 -0.81390339
-5.2795687 -8.1312199 -0.81233144
-1.4218701 -2.160183 -0.18914734
-0 -0 -0
-9.671113 -14.311519 -1.4766477
-9.7542429 -14.245333 -1.4759492
-9.9079037 -14.280978 -1.4861667
-5.5689778 -7.9224186 -0.81137079
-1.7003475 -2.3871524 -0.21936338
-1.702724 -2.3597083 -0.21752946
-1.5537767 -2.1256161 -0.19325183
-1.7214776 -2.3250237 -0.21604486
-1.6920884 -2.256233 -0.2096698
-1.6884294 -2.2228005 -0.20713724
-1.6109399 -2.0939512 -0.1940378
-1.6237577 -2.0840271 -0.1940378
-1.6346637 -2.0716784 -0.1937758
-10.990266 -13.757694 -1.5060779
-10.999294 -13.597059 -1.4955983
-11.107136 -13.559368 -1.4990041
-1.6322279 -1.9672965 -0.18652745
-1.6263299 -1.9358846 -0.18408222
-1.6414043 -1.9296637 -0.18451887
-1.6532136 -1.9195559 -0.18451887
-1.6688882 -1.9138814 -0.18504284
-1.6852144 -1.9088335 -0.18565415
-1.7028688 -1.9051428 -0.18644013
-1.7285608 -1.910172 -0.18827404
-1.736212 -1.8951221 -0.18775006
-1.8331493 -1.976475 -0.1987536
-2.3027201 -2.4525514 -0.25735176
-2.3403709 -2.4622059 -0.26023364
-2.3409312 -2.4327235 -0.25839972
-3.4025426 -3.4930689 -0.38991812
-2.3664117 -2.3995574 -0.25787574
-3.4247429 -3.4306047 -0.38738555
-3.2375596 -3.2035103 -0.36171064
-3.420994 -3.3437514 -0.38179645
-3.3948672 -3.2777181 -0.37612003
-3.4120317 -3.2540755 -0.37577072
-12.929242 -12.181618 -1.5197012
-3.507128 -3.2635396 -0.38240775
-2.5810401 -2.3722434 -0.26975256
-3.489388 -3.1680205 -0.37559605
-3.521368 -3.1578579 -0.37708065
-3.3975122 -3.0093596 -0.36031339
-3.5778472 -3.1301515 -0.37917656
-3.4093137 -2.9459445 -0.3574315
-3.3871679 -2.8906922 -0.35280302
-13.577331 -11.445562 -1.5191773
-13.638883 -11.355027 -1.5182167
-3.369781 -2.7702808 -0.34485602
-3.9628477 -3.2173812 -0.40991658
-3.7928851 -3.0409439 -0.38860816
-13.597925 -10.76705 -1.4829355
-13.680215 -10.696298 -1.4847695
-3.313607 -2.5578539 -0.32939869
-3.3268626 -2.5356622 -0.3291367
-11.249038 -8.4663496 -1.1966691
-11.264793 -8.37043 -1.1927392
-11.360921 -8.3341513 -1.1976297
-4.0763001 -2.9516754 -0.40362886
-14.227365 -10.170869 -1.4955983
-3.0744636 -2.1691062 -0.29228359
-3.0901673 -2.1519089 -0.29254559
-3.0581629 -2.1018689 -0.28774247
-3.0998547 -2.1026399 -0.29079899
-3.15657 -2.1129539 -0.29542747
-3.1254239 -2.0644417 -0.29079899
-3.2089658 -2.0914676 -0.29822201
-3.3004949 -2.1223946 -0.306431
-5.7030931 -3.6184669 -0.55453444
-3.4580154 -2.1641898 -0.32005441
-3.384773 -2.0895462 -0.3111468
-15.169302 -9.2381401 -1.5194393
-3.5971799 -2.1601863 -0.33027199
-3.5975101 -2.1304584 -0.32896203
-3.6096544 -2.107842 -0.32887471
-15.5054 -8.9287062 -1.5309668
-15.593679 -8.8525801 -1.5343727
-15.667698 -8.7679224 -1.5363812
-3.8940654 -2.1475728 -0.35227904
-3.8704104 -2.1036551 -0.34861121
-3.95086 -2.1160893 -0.35533559
-3.9435072 -2.0811121 -0.35332701
-3.9765301 -2.0674469 -0.35533559
-3.9013655 -1.9980451 -0.34668994
-3.9108837 -1.9727229 -0.34642798
-7.6546845 -3.802856 -0.71172774
-7.6912971 -3.7623827 -0.71303767
-7.7007751 -3.7086349 -0.71172774
-16.602324 -7.8709359 -1.5731469
-10.054006 -4.6909533 -0.93502957
-5.7470937 -2.6384447 -0.51680803
-5.763175 -2.6031315 -0.51680803
-5.78268 -2.5693386 -0.51715738
-5.8120284 -2.5397928 -0.51846731
-10.13917 -4.3571339 -0.9298771
-10.19416 -4.3068585 -0.93258429
-10.270074 -4.2648597 -0.93730009
-10.298816 -4.2028928 -0.93756211
-10.190342 -4.0858603 -0.92489928
-9.6350012 -3.7947128 -0.87023097
-10.422746 -4.0313015 -0.94210321
-10.468704 -3.9754076 -0.94411182
-10.354753 -3.8595994 -0.93118703
-10.387595 -3.7994134 -0.9320603
-10.537292 -3.7810299 -0.9438498
-10.421222 -3.6673563 -0.93092507
-10.402093 -3.589046 -0.92708254
-7.8080764 -2.6404221 -0.68500489
-7.8014364 -2.5849421 -0.68290895
-10.413333 -3.379746 -0.9221921
-10.461407 -3.3245378 -0.92472464
-10.493023 -3.2638361 -0.92577261
-10.51857 -3.2011311 -0.92629659
-10.536104 -3.1359618 -0.92612189
-10.907141 -3.1736884 -0.95825922
-10.869875 -3.0906274 -0.95310676
-10.868478 -3.0182743 -0.95127285
-9.7090015 -2.6321726 -0.84429407
-11.036635 -2.9195812 -0.96323699
-11.077492 -2.8577797 -0.96533293
-11.118971 -2.7958298 -0.96751612
-11.151397 -2.7313449 -0.96891344
-11.187326 -2.6674914 -0.97066003
-11.076361 -2.5693045 -0.95921981
-11.386363 -2.5677032 -0.9856807
-11.502132 -2.5197499 -0.99467564
-11.286448 -2.4000123 -0.97397852
-11.317547 -2.334136 -0.97546315
-11.471346 -2.2925713 -0.98795128
-11.497911 -2.2246017 -0.98908657
-11.594575 -2.1695869 -0.99650961
-11.595906 -2.0962763 -0.99546164
-11.952024 -2.0850158 -1.026027
-11.777939 -1.9802516 -1.0094343
-12.048497 -1.9498088 -1.032402
-12.420502 -1.931892 -1.0643647
-13.401618 -2.0003858 -1.150297
-14.266654 -2.040122 -1.2258371
-15.171143 -2.0745783 -1.3047831
-15.850351 -2.0684812 -1.3637305
-15.762899 -1.9587765 -1.3549103
-19.640839 -2.3184838 -1.6961944
-20.238798 -2.263257 -1.7477189
-22.23562 -2.3485472 -1.9225528
-22.341801 -2.221235 -1.9306744
-22.380798 -2.0865114 -1.932945
-22.308825 -1.9418019 -1.925522
-22.331242 -1.8057644 -1.9264826
-22.360775 -1.6701186 -1.9281418
-22.385509 -1.5339059 -1.9294518
-22.374615 -1.3952817 -1.9277052
-22.359879 -1.2566812 -1.9256966
-22.348267 -1.1185135 -1.9240373
-22.334805 -0.98049188 -1.9222908
-22.312527 -0.84237683 -1.9198456
-22.299353 -0.70488703 -1.9182736
-19.401031 1.4303654 -1.9108359
-19.40181 1.550174 -1.9118325
-19.364174 1.6668011 -1.9090418
-19.335749 1.7839396 -1.9072478
-19.313545 1.9014748 -1.9061514
-19.286671 2.0183904 -1.9046564
-19.263044 2.1354866 -1.9035602
-19.239697 2.2524846 -1.9025635
-19.215637 2.3692765 -1.9015667
-19.189884 2.4857302 -1.9004705
-19.165396 2.6022248 -1.8995734
-19.139217 2.7183728 -1.8985767
-19.114304 2.8345895 -1.8977795
-19.087702 2.9504507 -1.8968824
-19.059414 3.0659342 -1.8958857
-19.036318 3.1821663 -1.8954871
-19.014473 3.2985709 -1.8952878
-18.98702 3.4139464 -1.89459
-18.966694 3.5305665 -1.8946898
-18.935879 3.645184 -1.8937927
-18.913157 3.7613039 -1.8937927
-18.874126 3.8740799 -1.8921981
-18.833452 3.9863129 -1.8905038
-18.794056 4.0986166 -1.8890088
-18.758844 4.2116771 -1.8880121
-18.719076 4.3235645 -1.8866167
-18.671865 4.4335127 -1.8845237
-18.63271 4.545167 -1.8833277
-18.591923 4.6562662 -1.882032
-18.551439 4.7672839 -1.880836
-18.513178 4.8787413 -1.879939
-18.478092 4.9909468 -1.8794407
-18.445202 5.1037011 -1.8792413
-18.41641 5.2175965 -1.8795403
-18.382139 5.3299451 -1.879341
-18.344318 5.4412203 -1.8788427
-18.314396 5.554832 -1.8792413
-18.294224 5.6715231 -1.8807364
-18.278049 5.7896781 -1.8827296
-18.270582 5.9109111 -1.8857197
-18.284988 6.0397615 -1.8911017
-18.288128 6.1655135 -1.8953874
-18.282883 6.2889414 -1.8988757
-18.266485 6.4089122 -1.9012678
-18.253984 6.5305939 -1.9041581
-18.23694 6.651 -1.9066498
-18.253613 6.7842703 -1.9128292
-18.225597 6.9014306 -1.9143242
-18.232111 7.0321116 -1.9196066
-18.228443 7.1594934 -1.9238923
-18.215582 7.2837687 -1.9272809
-18.199116 7.4070301 -1.9303706
-18.191015 7.5341711 -1.9344569
-18.186621 7.6634231 -1.9390416
-18.181326 7.7929039 -1.9436263
-18.181509 7.9253912 -1.9489087
-18.161646 8.0497055 -1.952098
-18.153641 8.1797972 -1.9566827
-18.124821 8.3009768 -1.9590747
-18.111433 8.4296694 -1.9632607
-18.080055 8.5504255 -1.965553
-18.070299 8.6818876 -1.970337
-18.04888 8.8083134 -1.9739251
-18.047091 8.9449673 -1.9798055
-17.966091 9.0425596 -1.9769151
-17.925331 9.160326 -1.9786094
-17.996853 9.3365898 -1.9930612
-17.957714 9.4565773 -1.9951541
-17.916025 9.5754986 -1.9970478
-17.876175 9.6956863 -1.9992405
-17.835524 9.8157454 -2.0014331
-17.803629 9.9410076 -2.0047221
-17.777792 10.07017 -2.0088086
-17.745001 10.195919 -2.0121973
-17.712193 10.322145 -2.0156856
-17.678505 10.448352 -2.0191739
-17.643932 10.574533 -2.0226622
-17.605074 10.698615 -2.0257521
-17.562817 10.821053 -2.0285428
-17.527313 10.948118 -2.0322304
-17.493433 11.076752 -2.036217
-17.439373 11.193019 -2.0379114
-17.407063 11.323689 -2.0422966
-17.365498 11.448907 -2.0456853
-17.318914 11.571276 -2.0485756
-17.2756 11.696293 -2.0519645
-17.230583 11.820651 -2.0552535
-17.181423 11.942624 -2.0581439
-17.159071 12.083919 -2.0644228
-17.14616 12.232901 -2.0719974
-17.10626 12.363525 -2.0763829
-17.064598 12.493531 -2.0806684
-17.013191 12.61697 -2.0838578
-16.945002 12.728295 -2.0850539
-16.86104 12.827811 -2.0843563
-16.755217 12.910377 -2.0809674
-16.659212 13.000086 -2.0788746
-16.5401 13.071211 -2.0738912
-16.42152 13.141986 -2.0690074
-16.309652 13.217439 -2.0650208
-16.201324 13.29517 -2.0615325
-16.096483 13.375251 -2.0585425
-15.993556 13.456468 -2.0558515
-15.887965 13.53499 -2.0528615
-15.788795 13.618573 -2.0507684
-15.704186 13.71454 -2.0506687
-15.616014 13.807345 -2.0501704
-15.514689 13.888303 -2.0479777
-15.412961 13.968536 -2.045785
-15.308633 14.046027 -2.0432935
-15.198104 14.117346 -2.0400043
-15.097424 14.197382 -2.0381107
-14.991289 14.271912 -2.0355194
-14.892691 14.35327 -2.0340242
-14.788672 14.429091 -2.0318317
-14.68287 14.502779 -2.0294397
-14.569685 14.568676 -2.026051
-14.466733 14.644349 -2.0241573
-14.352979 14.708626 -2.0207686
-14.2376 14.770625 -2.0171807
-14.124746 14.834646 -2.0139914
-14.004827 14.890592 -2.0098052
-13.887464 14.94854 -2.0060179
-13.772607 15.008543 -2.0026293
-13.666225 15.077285 -2.0005362
-13.533635 15.116374 -1.9945562
-13.450515 15.210311 -1.9960512
-13.346461 15.280564 -1.9944565
-13.235553 15.34258 -1.9918652
-13.153423 15.437894 -1.9937588
-13.018092 15.470345 -1.9874798
-12.933733 15.562941 -1.9891741
-12.824741 15.625854 -1.9870812
-12.719225 15.692657 -1.9855862
-12.600936 15.743215 -1.9820977
-12.523843 15.845217 -1.9852871
-12.403733 15.892739 -1.9815995
-12.301732 15.963031 -1.9809017
-12.185479 16.014456 -1.9779117
-12.088182 16.090515 -1.9781111
-11.969072 16.137209 -1.9747224
-11.868068 16.207939 -1.9744234
-11.756738 16.264326 -1.9724301
-11.632448 16.302137 -1.9682441
-11.517305 16.352055 -1.9656527
-11.398012 16.395454 -1.9623637
-11.280311 16.440466 -1.9593737
-11.170296 16.496189 -1.957779
-11.07163 16.568556 -1.9582773
-10.965378 16.629532 -1.95748
-10.860964 16.693165 -1.9570813
-10.749733 16.746094 -1.9554867
-10.638794 16.799128 -1.9539917
-10.526027 16.8489 -1.9521977
-10.418793 16.90724 -1.9514999
-10.310721 16.964046 -1.9507027
-10.199277 17.015045 -1.9493073
-10.081519 17.055035 -1.946716
-9.9536352 17.077026 -1.9421313
-9.7346478 16.93935 -1.9192078
-9.5628471 16.879286 -1.9054538
-9.4518213 16.924614 -1.9039588
-9.4643793 17.194117 -1.9281778
-9.3833685 17.297348 -1.9333606
-9.2976952 17.393209 -1.9377459
-9.1954336 17.458735 -1.9387426
-9.0817204 17.502464 -1.9373473
-8.9673643 17.544567 -1.9358523
-8.8488073 17.57793 -1.9334602
-8.7341566 17.618521 -1.9319652
-8.6119213 17.643167 -1.9287759
-8.4970398 17.682222 -1.9272809
-8.3807259 17.717836 -1.9254869
-8.2676554 17.759905 -1.9244902
-8.1523113 17.79673 -1.9229952
-8.0360098 17.830996 -1.9213009
-7.920805 17.867231 -1.9199055
-7.8070483 17.906376 -1.9189088
-7.6946778 17.948454 -1.9183109
-7.5813127 17.987995 -1.9175135
-7.4719396 18.036932 -1.9178125
-7.3577504 18.074144 -1.9169155
-7.2430167 18.109713 -1.9159188
-7.1263046 18.139921 -1.9144238
-7.0087786 18.167524 -1.9127295
-6.8936491 18.200882 -1.9117328
-6.7756009 18.226049 -1.9099388
-6.6592083 18.255129 -1.9086431
-6.5427141 18.283466 -1.9073474
-6.4287586 18.318573 -1.9068491
-6.3146186 18.352968 -1.9063509
-6.2002983 18.386656 -1.9058524
-6.0848665 18.416794 -1.9050552
-5.9683795 18.443371 -1.9039588
-5.8511944 18.467314 -1.9026631
-5.7365923 18.499065 -1.9022645
-5.6235538 18.535822 -1.9024638
-5.5116949 18.576656 -1.9031614
-5.3984385 18.612991 -1.9034605
-5.2849431 18.648638 -1.9037595
-5.1720099 18.686468 -1.9043574
-5.0569954 18.71689 -1.9042578
-4.9400268 18.73987 -1.9034605
-4.8224716 18.760191 -1.9024638
-4.7055779 18.782673 -1.9017661
-4.5885906 18.804424 -1.9010684
-4.4722028 18.828354 -1.9006698
-4.3543506 18.845745 -1.8996731
-3.3010621 14.696488 -1.471005
-3.1796558 14.573558 -1.4563539
-3.0172293 14.248192 -1.4210718
-2.9315481 14.275209 -1.4219688
-2.846231 14.304639 -1.4231647
-2.7629204 14.345284 -1.4255568
-2.7054415 14.526306 -1.4423008
-2.5560319 14.207708 -1.4082147
-2.4701676 14.230968 -1.4090121
-2.3777153 14.215432 -1.4059224
-2.2850728 14.196353 -1.4025337
-2.1431973 13.856105 -1.3666536
-2.0406201 13.750883 -1.3546935
-1.9473919 13.701082 -1.3484144
-1.8604753 13.692068 -1.3463215
-1.7802624 13.732829 -1.3493115
-1.6974272 13.755344 -1.3505075
-1.6140355 13.774395 -1.3514044
-1.5278423 13.769205 -1.3499094
-1.4449846 13.794154 -1.3515041
-1.3754317 13.956247 -1.3669525
-1.3143665 14.230952 -1.3937629
-1.2356424 14.338876 -1.4038293
-1.3109214 16.389416 -1.6091435
-1.1614511 15.734278 -1.5425659
-1.0199376 15.075961 -1.475789
-0.9362582 15.225942 -1.4902407
-0.85220361 15.401289 -1.5072838
-0.71064222 14.448183 -1.4112047
-0.62206191 14.45426 -1.411404
-0.56147105 15.221463 -1.4879484
-0.46483028 15.119199 -1.4773836
-0.37295458 15.158571 -1.4810714
-0.27854604 15.084966 -1.4734967
-0.20066859 16.285301 -1.5935955
-0.093762167 15.144958 -1.4792774
-0.00083281758 15.139278 -1.4786793
0.091496371 15.047458 -1.46951
0.18360394 15.028705 -1.467716
0.27618161 15.047192 -1.4697093
0.36701337 14.984536 -1.4636296
0.45394066 14.818895 -1.4472842
0.54573864 14.839695 -1.4496763
0.63520139 14.799286 -1.4459885
0.79012972 16.099997 -1.5768514
0.77748001 14.080022 -1.3747265
0.8628211 14.058103 -1.3730322
0.94503599 13.992979 -1.3670522
1.0346849 14.038518 -1.3722349
1.1208835 14.032896 -1.3723346
1.2038925 13.990066 -1.3687465
1.2913578 14.00025 -1.3705405
1.3808467 14.028702 -1.3742282
1.4652413 14.004131 -1.3726336
1.5391847 13.88708 -1.3617698
1.6259859 13.891211 -1.3631651
1.7087537 13.861221 -1.3611718
1.7936445 13.849489 -1.3610722
1.8870274 13.900338 -1.3673512
1.970603 13.876677 -1.3661551
2.0542512 13.854482 -1.3651586
2.1427195 13.864233 -1.3674508
2.2304361 13.867525 -1.3691452
2.3167965 13.861429 -1.3699425
2.4067388 13.875383 -1.3728329
2.4905982 13.853499 -1.3721353
2.5722761 13.82035 -1.3703412
2.6621077 13.830687 -1.3730322
2.7556574 13.858007 -1.3775172
2.8414373 13.844737 -1.3779159
2.9267457 13.828988 -1.3781153
3.0295696 13.893403 -1.3865869
3.1160691 13.880378 -1.387185
3.2968202 14.274966 -1.4297428
3.3459494 14.092797 -1.4130985
3.4127815 13.991769 -1.404826
3.5200887 14.056467 -1.4136964
3.6028032 14.021112 -1.4123011
3.7019556 14.048774 -1.4174838
3.8044369 14.086311 -1.4237628
3.9189303 14.164353 -1.4343275
3.9770112 14.038565 -1.4237628
4.0639067 14.016765 -1.4240618
4.2095513 14.192842 -1.4450915
4.359529 14.374319 -1.4668189
4.3377242 13.992807 -1.4296432
4.4412317 14.021894 -1.4355235
4.5348434 14.018045 -1.4380152
4.6220193 13.993735 -1.4384139
4.6992121 13.939655 -1.4357228
4.8160558 14.001825 -1.4453906
4.9430637 14.089372 -1.4578489
5.0357909 14.076576 -1.4597425
5.2236786 14.323976 -1.4894434
5.3135509 14.29725 -1.4900414
5.4117498 14.292293 -1.4930314
5.4778562 14.203117 -1.4870514
5.6023746 14.264629 -1.4973171
5.6927514 14.237376 -1.4981145
5.7796278 14.201257 -1.4980148
5.8628483 14.156334 -1.4970181
5.9600334 14.14485 -1.4997091
6.2360725 14.549731 -1.5478483
6.2997808 14.452819 -1.5414696
6.3460021 14.318378 -1.5310045
6.4594941 14.336322 -1.5372835
6.5369792 14.273802 -1.5347919
6.631577 14.248757 -1.5364863
6.7341971 14.24018 -1.5400742
6.8477349 14.2533 -1.5461539
6.9699788 14.28255 -1.5541273
7.0910702 14.307268 -1.561702
7.7513862 15.40111 -1.6892759
7.3136563 14.312202 -1.572167
7.4054613 14.275006 -1.5730641
7.5926018 14.41858 -1.5944924
7.8723097 14.72975 -1.6351566
7.744297 14.278841 -1.5893098
7.8811841 14.320839 -1.5995755
7.938343 14.217482 -1.5932965
8.2775288 14.613498 -1.6445254
8.5787315 14.930813 -1.6870832
8.6361122 14.819437 -1.6803058
8.6539707 14.642821 -1.6659538
8.7549086 14.608222 -1.6681465
8.9301653 14.695376 -1.6846912
8.8995848 14.444624 -1.6616681
9.2010307 14.730676 -1.7019336
9.2811279 14.657969 -1.70004
9.3966932 14.640939 -1.704824
9.4993744 14.603023 -1.7072159
9.48911 14.393274 -1.6890765
9.5584507 14.306651 -1.6856879
10.086228 14.897797 -1.7643251
10.188708 14.852037 -1.7663186
10.292142 14.807216 -1.7685112
10.419474 14.79585 -1.7748899
10.509484 14.730828 -1.7747903
10.561202 14.612844 -1.7682122
10.658308 14.558203 -1.7695079
10.820936 14.59163 -1.7818666
10.966443 14.599741 -1.7912353
11.092572 14.580481 -1.797315
11.200048 14.535788 -1.800305
11.307393 14.490324 -1.803295
11.415835 14.445651 -1.8064843
11.498039 14.367564 -1.8054878
11.550896 14.253455 -1.7999064
11.648867 14.195387 -1.8016007
11.777086 14.173386 -1.808079
11.909316 14.154911 -1.8151554
12.073381 14.172459 -1.8271154
12.221209 14.168933 -1.8364842
12.358973 14.152133 -1.8442582
12.519399 14.159517 -1.8554209
12.664449 14.147671 -1.8641917
12.871301 14.202401 -1.8821317
13.020768 14.191339 -1.8914007
13.174644 14.183348 -1.9012678
13.320731 14.165302 -1.9099388
13.469834 14.148878 -1.9190085
13.696574 14.211391 -1.9392409
13.848143 14.193314 -1.9485099
14.053147 14.227707 -1.9653537
14.192249 14.193274 -1.9727291
14.381008 14.206616 -1.9870812
14.588979 14.236238 -2.0040245
14.739102 14.207218 -2.0127952
14.839691 14.129549 -2.014689
14.94713 14.057997 -2.0175793
15.0455 13.97753 -2.0192735
15.101655 13.858042 -2.0152869
15.188614 13.767123 -2.0155859
15.246112 13.649776 -2.0119979
15.281126 13.513129 -2.0055196
15.337523 13.396204 -2.0020311
15.399089 13.284295 -1.9993402
15.452285 13.165683 -1.9956526
15.506129 13.048201 -1.9921641
15.559114 12.930553 -1.9886758
15.594318 12.798862 -1.9829948
15.63004 12.668479 -1.9775131
15.669413 12.541872 -1.9726294
15.717969 12.42328 -1.9690413
15.773505 12.310686 -1.9664501
15.821948 12.193021 -1.9630613
15.884586 12.086673 -1.9615663
15.930605 11.968062 -1.958078
15.96218 11.839268 -1.9528953
16.004017 11.718766 -1.949108
16.046589 11.599364 -1.9455199
16.090729 11.481615 -1.9422309
16.139725 11.367772 -1.9396396
16.191196 11.256032 -1.937447
16.241907 11.144089 -1.9352542
16.281965 11.025254 -1.9318656
16.326143 10.909664 -1.9290749
16.36121 10.788471 -1.9252875
16.393736 10.666174 -1.9213009
16.421192 10.541197 -1.9168159
16.448574 10.416818 -1.9124305
16.477579 10.294083 -1.9083441
16.513325 10.176082 -1.9051548
16.546543 10.056996 -1.9017661
16.583189 9.9404449 -1.8988757
16.610464 9.8187609 -1.8949888
16.648905 9.7041311 -1.8924971
16.679665 9.585433 -1.8892081
16.717388 9.471138 -1.886816
16.743042 9.3504353 -1.8831284
16.775692 9.2340918 -1.8803377
16.795301 9.1110592 -1.8761517
16.81842 8.9904795 -1.8724639
16.83453 8.8667145 -1.8680786
16.860355 8.7485895 -1.8648893
16.891567 8.6336517 -1.8623976
16.920227 8.517766 -1.8597066
16.951668 8.4036217 -1.8574142
16.972509 8.2846117 -1.8540256
16.996117 8.167387 -1.8510356
17.02972 8.0552902 -1.8492416
17.057177 7.9405689 -1.8468496
17.082962 7.8254004 -1.8443578
17.112513 7.7122583 -1.8423645
17.139498 7.5982423 -1.8401718
17.162083 7.482595 -1.8375806
17.186638 7.3681335 -1.8352882
17.203098 7.2505612 -1.8321985
17.216927 7.1323037 -1.8289095
17.237326 7.0171504 -1.8264178
17.266199 6.9057107 -1.8249228
17.289724 6.7923617 -1.8229295
17.309725 6.6779103 -1.8206371
17.34479 6.5694594 -1.8200392
17.378244 6.4604836 -1.8193414
17.413818 6.3523674 -1.8189428
17.452469 6.2453985 -1.8189428
17.489521 6.1378655 -1.8188431
17.537203 6.0339966 -1.8199394
17.582384 5.9291377 -1.8208364
17.636385 5.8270726 -1.8227301
17.67654 5.7202792 -1.8232285
17.70846 5.6108093 -1.8229295
17.736853 5.5002785 -1.8223314
17.772171 5.3919215 -1.8225307
17.808737 5.2839036 -1.8229295
17.85898 5.1797972 -1.8248231
17.908617 5.0752726 -1.8267168
17.952847 4.969007 -1.8281121
17.988762 4.8603134 -1.8287101
18.021132 4.7506056 -1.8290092
18.048977 4.6396933 -1.8289095
18.077106 4.5288591 -1.8289095
18.107454 4.4185624 -1.8292085
18.138098 4.3082938 -1.8296071
18.16807 4.1978149 -1.8300058
18.196398 4.0869126 -1.8303049
18.225021 3.976033 -1.8307035
18.24518 3.8633072 -1.8303049
18.277313 3.7530849 -1.8312018
18.307806 3.6424196 -1.8319992
18.340559 3.5320857 -1.8330954
18.367754 3.4205761 -1.8336935
18.392315 3.3085139 -1.8340921
18.41325 3.1957686 -1.8341918
18.437418 3.0835471 -1.8346902
18.460903 2.9711494 -1.8351885
18.482719 2.8584275 -1.8355871
18.498926 2.7448199 -1.8354875
18.510494 2.6305614 -1.8349892
8.6606541 1.1772392 -0.83772033
8.7624454 1.1363486 -0.84728837
6.8405862 0.8447262 -0.65263855
6.7596612 0.79266983 -0.64396751
6.6744022 0.74120009 -0.63489783
6.6699181 0.69930053 -0.63400078
6.6651711 0.65748394 -0.63310379
6.6641259 0.61611772 -0.63260549
6.6618328 0.57470369 -0.63200748
6.6612663 0.5334996 -0.63160878
6.6574678 0.49210456 -0.63091111
6.6583767 0.45111167 -0.63071179
6.654067 0.40982118 -0.63001412
6.6584435 0.3690947 -0.63021344
6.6625705 0.32832989 -0.63041282
6.6614776 0.28731486 -0.63011378
6.6641092 0.24647199 -0.63021344
6.6645017 0.20554665 -0.63011378
6.6726003 0.16482094 -0.63081145
6.6705017 0.12382065 -0.63051248
6.6711359 0.082888894 -0.63051248
6.6735086 0.041966178 -0.63071179
6.6716504 0.0010175526 -0.63051248
6.6775012 -0.039955709 -0.63111049
6.6811104 -0.080976263 -0.63150913
6.7033691 -0.12239101 -0.63380146
6.7114444 -0.16373977 -0.63469845
6.7282152 -0.20546712 -0.63649249
6.7397547 -0.2472232 -0.63778818
6.752028 -0.28917134 -0.63918352
6.7650342 -0.33132824 -0.64067852
6.7569127 -0.37250182 -0.64008051
6.8498421 -0.41981402 -0.64964855
8.7085505 -0.58770424 -0.83652431
16.420094 -1.2104127 -1.6114359
16.294327 -1.3017042 -1.5995755
16.236465 -1.3973902 -1.5945922
16.12355 -1.4873843 -1.5841271
16.122042 -1.5870689 -1.5849245
16.080334 -1.682646 -1.5817351
16.046961 -1.7787585 -1.5794427
10.590408 -1.2393441 -1.0302771
10.589518 -1.305155 -1.0309747
10.571443 -1.3688277 -1.0299782
