# .PCD v0.7 - Point Cloud Data file format
VERSION 0.7
FIELDS x y z
SIZE 4 4 4
TYPE F F F
COUNT 1 1 1
WIDTH 1520
HEIGHT 1
VIEWPOINT 0 0 0 1 0 0 0
POINTS 1520
DATA ascii
-15.720987 -0.9666611 -1.9292853
-15.721668 -0.86990702 -1.9286655
-15.710853 -0.77264559 -1.9266824
-15.722238 -0.67652917 -1.92755
-15.71816 -0.57975459 -1.9265584
-15.709519 -0.48293388 -1.925071
-15.703259 -0.386314 -1.9239554
-15.705334 -0.28995335 -1.9239554
-15.686973 -0.19333869 -1.9214765
-15.698778 -0.097148329 -1.92284
-15.697095 -0.00082064793 -1.922592
-15.676959 0.095372722 -1.9201131
-15.687984 0.19170932 -1.9216005
-15.679568 0.28783739 -1.9207329
-15.674531 0.38396686 -1.920361
-15.677831 0.4803195 -1.9211047
-15.662689 0.5760693 -1.9196173
-15.674722 0.67284495 -1.9216005
-15.633628 0.76720828 -1.9170144
-15.627635 0.86306518 -1.9168905
-15.619074 0.95875567 -1.9165186
-15.612897 1.0545745 -1.9165186
-14.295377 -0.36145419 -1.9179647
-14.276524 -0.27333373 -1.9151183
-14.301708 -0.18603945 -1.9183713
-14.305552 -0.098302819 -1.9187779
-14.270219 -0.010496514 -1.9138985
-14.22444 0.076819256 -1.9076635
-14.259366 0.16450779 -1.9125431
-14.253136 0.25191113 -1.9118652
-14.245378 0.33922061 -1.911052
-14.237087 0.42644444 -1.9102387
-14.231232 0.51368636 -1.9098321
-14.239691 0.60149932 -1.9114586
-14.217918 0.68799967 -1.9090189
-14.187708 0.77382404 -1.9054948
-14.202472 0.86206359 -1.9082056
-14.168246 0.94727618 -1.9042749
-14.162168 1.034193 -1.9042749
-14.15358 1.1209146 -1.9040039
-14.171115 1.2098446 -1.9073924
-14.142705 1.2948776 -1.904546
-14.126605 1.3808604 -1.9034617
-14.078447 1.4634173 -1.8980399
-14.042613 1.5468452 -1.8943803
-14.032858 1.63298 -1.8943803
-14.037325 1.7208612 -1.8964134
-14.050085 1.8099977 -1.8996664
-14.023987 1.8941845 -1.8976333
-14.041532 1.9843568 -1.9016995
-13.971262 2.0619435 -1.8937026
-13.962264 2.1482334 -1.8942448
-13.931211 2.2310441 -1.8918049
-13.912372 2.3156693 -1.8911272
-13.85592 2.3937387 -1.885299
-13.860476 2.4822047 -1.8880098
-13.829398 2.5643146 -1.8858411
-13.781293 2.6429646 -1.8813682
-13.77162 2.7288232 -1.8823169
-13.776943 2.8178384 -1.8854345
-13.753577 2.9010925 -1.8846213
-13.735518 2.9854281 -1.8846213
-13.708239 3.0677044 -1.8834014
-13.686261 3.1510921 -1.8829947
-13.669561 3.2356946 -1.8834014
-13.64945 3.3195086 -1.8834014
-13.638437 3.4055977 -1.8847568
-13.600968 3.4850371 -1.8824525
-13.563038 3.5641451 -1.8801483
-13.537086 3.6462686 -1.8796061
-13.509684 3.7279444 -1.8789284
-13.480834 3.8091519 -1.8781152
-13.456256 3.8915217 -1.8779796
-13.433075 3.9742956 -1.8781152
-13.40654 4.0560708 -1.8778441
-13.369095 4.1344504 -1.8760821
-13.364259 4.222971 -1.879064
-13.317352 4.2981987 -1.8760821
-13.2832 4.3773508 -1.8749977
-13.252335 4.457509 -1.8744556
-13.221923 4.5377755 -1.8740489
-13.207858 4.6237283 -1.8760821
-13.187636 4.7076807 -1.8773019
-13.160365 4.7891874 -1.877573
-13.08707 4.8536563 -1.8712025
-13.070018 4.9387684 -1.8731
-13.026523 5.0138893 -1.8712025
-12.965073 5.0817938 -1.8667296
-12.943769 5.1652894 -1.8682206
-12.931108 5.2524428 -1.8710669
-12.883986 5.3256326 -1.8688983
-12.822754 5.3926811 -1.8646965
-12.781226 5.4677515 -1.8634765
-12.741076 5.5433059 -1.8625277
-12.761188 5.6454282 -1.8706603
-12.716369 5.7191529 -1.8691694
-12.675631 5.7946 -1.8683561
-12.599402 5.8534832 -1.8622566
-12.674349 5.9831243 -1.879064
-12.631145 6.0577812 -1.8781152
-12.598191 6.1373396 -1.8787929
-12.572728 6.2206759 -1.8806905
-12.538749 6.2999277 -1.8813682
-12.508683 6.3812475 -1.8827236
-12.48337 6.465169 -1.8848923
-12.471528 6.556396 -1.8892297
-12.443302 6.6393261 -1.8911272
-12.415399 6.7226276 -1.8931605
-12.381731 6.8029742 -1.8943803
-12.341487 6.8797836 -1.8946514
-12.299903 6.9558678 -1.894787
-12.263866 7.0351515 -1.8958713
-12.240166 7.1217279 -1.8989887
-12.247436 7.2269073 -1.9071213
-12.219015 7.3115854 -1.9096966
-12.169686 7.383853 -1.9090189
-12.146936 7.4724016 -1.9126786
-12.108424 7.5515113 -1.9138985
-12.046786 7.6161356 -1.9114586
-12.038201 7.714499 -1.9176936
-12.004765 7.7973933 -1.9199978
-12.008004 7.9046807 -1.9284015
-11.992245 8.0002041 -1.9338232
-11.945394 8.0753012 -1.9342299
-11.920141 8.1652412 -1.9382961
-11.882026 8.2467012 -1.9403292
-11.792298 8.292099 -1.9338232
-11.789615 8.3987894 -1.9419558
-11.81579 8.5272093 -1.9551034
-11.682462 8.5404949 -1.9414136
-11.621079 8.6055307 -1.9399226
-11.625126 8.7194757 -1.9496816
-11.575351 8.7936392 -1.9503595
-11.597345 8.9231014 -1.9635071
-11.515022 8.9727793 -1.958763
-11.485416 9.0635185 -1.963236
-11.428814 9.1332026 -1.9631004
-11.387192 9.2149982 -1.9656757
-11.338099 9.2909756 -1.9670311
-11.315952 9.3894711 -1.9732661
-11.268746 9.4676504 -1.9751637
-11.217989 9.5430355 -1.9765191
-11.183996 9.6330242 -1.9809921
-11.132146 9.7079782 -1.9823475
-11.090938 9.7924948 -1.985736
-11.015869 9.8471575 -1.9830252
-10.96626 9.9245367 -1.9850583
-10.910272 9.9963226 -1.9860071
-10.835654 10.05095 -1.9835674
-10.785336 10.128099 -1.985736
-10.71796 10.189307 -1.9847872
-10.685222 10.283735 -1.9904801
-10.628307 10.355327 -1.9916999
-10.587141 10.44261 -1.9960372
-10.508143 10.492674 -1.9931909
-10.435203 10.548501 -1.9915644
-10.399365 10.642093 -1.9972571
-10.331806 10.703563 -1.9968505
-10.27209 10.77321 -1.9980705
-10.207152 10.837478 -1.9983416
-10.153285 10.913686 -2.0009167
-10.082107 10.971402 -2.0001035
-10.044563 11.066071 -2.0062029
-9.9811039 11.132659 -2.0071518
-9.9309998 11.21446 -2.010947
-9.8711348 11.285625 -2.0128446
-9.8088264 11.354227 -2.0143356
-9.7524786 11.430027 -2.0171819
-9.6898232 11.498743 -2.0188084
-9.6279593 11.568644 -2.0207059
-9.5630856 11.635156 -2.0220616
-9.4946356 11.697461 -2.0227392
-9.4208231 11.75318 -2.0223327
-9.363903 11.830185 -2.0257211
-9.2856474 11.880392 -2.0245013
-9.2452641 11.979499 -2.0318205
-9.1841965 12.052549 -2.034667
-9.1225796 12.125301 -2.0375133
-9.0604153 12.197751 -2.0403597
-8.9918461 12.261904 -2.0418508
-8.9210873 12.323266 -2.0429351
-8.8499136 12.384221 -2.0440195
-8.7771854 12.443148 -2.0448327
-8.6984062 12.493517 -2.0442905
-8.6086779 12.527873 -2.041173
-8.5488853 12.605879 -2.0453749
-8.475234 12.66386 -2.0463235
-8.405014 12.7272 -2.0482211
-8.3305502 12.784343 -2.04917
-8.257308 12.843551 -2.0505254
-8.1995745 12.927441 -2.0559471
-8.1080112 12.958192 -2.0528297
-8.0142975 12.984934 -2.04917
-7.9514747 13.061791 -2.053643
-7.8533292 13.080606 -2.0488989
-7.7845302 13.148154 -2.0520165
-7.6882219 13.169147 -2.0478146
-7.5944219 13.193748 -2.0442905
-7.5103893 13.234928 -2.0434773
-7.4169474 13.259146 -2.0400887
-7.3273182 13.289656 -2.0377843
-7.2489481 13.340459 -2.0387332
-7.1580696 13.368092 -2.0361578
-7.0916295 13.441554 -2.0407662
-6.9870858 13.442618 -2.0342603
-6.8963442 13.469363 -2.0318205
-6.7979531 13.480462 -2.0270765
-6.7014484 13.494411 -2.0228748
-6.6185222 13.535277 -2.0228748
-6.5289001 13.562243 -2.0208416
-6.4659271 13.645022 -2.0273476
-6.3724489 13.663788 -2.0242302
-6.2979946 13.723342 -2.0273476
-6.2083707 13.749989 -2.0255857
-6.1122217 13.761565 -2.0216548
-6.0288572 13.801534 -2.0220616
-5.9432769 13.836446 -2.0217903
-5.8555679 13.866263 -2.0208416
-5.7692366 13.899186 -2.0204349
-5.6726174 13.906803 -2.0163686
-5.5938148 13.957902 -2.0188084
-5.5185905 14.018697 -2.0227392
-5.4317551 14.050447 -2.0224681
-5.3436828 14.078879 -2.0217903
-5.2547746 14.104903 -2.0208416
-5.1650677 14.128506 -2.0196216
-5.0729275 14.14501 -2.017453
-4.989985 14.187086 -2.0190794
-4.90381 14.220247 -2.0194862
-4.8186846 14.256639 -2.0204349
-4.7361012 14.300986 -2.0226038
-4.6482625 14.329777 -2.0226038
-4.5569501 14.347641 -2.0211127
-4.4670639 14.369656 -2.0202994
-4.3770795 14.391107 -2.0194862
-4.2864347 14.410096 -2.0184019
-4.1987653 14.43898 -2.0188084
-4.1111736 14.468284 -2.0193505
-4.0204659 14.486554 -2.0184019
-3.9260607 14.490869 -2.0155554
-3.8347933 14.506064 -2.0143356
-3.7491767 14.542753 -2.0162332
-3.6564927 14.552032 -2.0143356
-3.5482888 14.497205 -2.0034921
-3.3837099 14.201618 -1.9588985
-3.2671964 14.095675 -1.9411426
-3.148844 13.974342 -1.9213532
-3.0477843 13.923716 -1.9115942
-2.9416986 13.845241 -1.8980399
-2.8482909 13.822274 -1.8923471
-2.7467387 13.755935 -1.8806905
-2.6387737 13.650934 -1.8637476
-2.5573308 13.679529 -1.8655097
-2.4701765 13.677413 -1.8630699
-2.3771901 13.640581 -1.8558862
-2.2949257 13.663705 -1.8571061
-2.2108853 13.676551 -1.8569705
-2.1319463 13.722167 -1.8614434
-2.0393796 13.679133 -1.8537174
-1.9500835 13.654119 -1.8485669
-1.8641212 13.650121 -1.8463982
-1.7786658 13.648529 -1.8446361
-1.6948864 13.659186 -1.8446361
-1.6105794 13.665393 -1.8440939
-1.5248305 13.658278 -1.8417897
-1.4395415 13.653584 -1.8398921
-1.3551503 13.656244 -1.8390789
-1.2708726 13.659369 -1.8384012
-1.1879797 13.677768 -1.8398921
-1.1084157 13.739116 -1.847347
-1.0224731 13.723921 -1.844365
-0.94317853 13.802094 -1.8542596
-0.86407012 13.897608 -1.8665941
-0.77617401 13.856155 -1.8602235
-0.69499052 13.937841 -1.8707958
-0.61218423 14.004202 -1.879335
-0.52244771 13.906707 -1.8655097
-0.43972436 13.992835 -1.8768953
-0.34919444 13.811045 -1.8516843
-0.2635332 13.765379 -1.8451784
-0.18190673 13.984689 -1.8749977
-0.096354626 14.02319 -1.8801483
-0.010333858 14.057203 -1.8847568
0.075882457 14.050067 -1.883808
0.16169155 14.014662 -1.879064
0.24551328 13.89057 -1.8622566
0.33410844 14.030442 -1.8816392
0.42125821 14.06378 -1.8865188
0.50747257 14.058949 -1.8862478
0.58102411 13.754644 -1.8450428
0.66588873 13.760716 -1.8463982
0.75068784 13.763297 -1.847347
0.83518374 13.75942 -1.8474826
0.91899961 13.74514 -1.8462627
1.0035373 13.742207 -1.8466693
1.0890901 13.751594 -1.848838
1.1736163 13.746627 -1.8491091
1.2591159 13.751993 -1.8508711
1.3443401 13.752883 -1.852091
1.4296225 13.753244 -1.8533108
1.5143093 13.747168 -1.8537174
1.6034406 13.778952 -1.8594103
1.6881975 13.77082 -1.8596814
1.7734213 13.766098 -1.8604946
1.8586506 13.760849 -1.8613079
1.9440209 13.756052 -1.8622566
2.0309932 13.761508 -1.8646965
2.1173522 13.761518 -1.8664585
2.2067642 13.779572 -1.8707958
2.2940373 13.782387 -1.8731
2.3802478 13.777815 -1.8744556
2.4656153 13.767827 -1.8751333
2.5531168 13.769 -1.8774375
2.6405392 13.768643 -1.8796061
2.7282455 13.768704 -1.8819103
2.816052 13.768207 -1.8842146
2.9051816 13.772965 -1.8873321
2.9955275 13.781989 -1.8911272
3.0873916 13.796224 -1.8957357
3.1757641 13.793433 -1.8980399
3.2651312 13.793935 -1.9008863
3.3562624 13.800596 -1.9046816
3.4451983 13.797046 -1.9071213
3.5364296 13.80156 -1.9107809
3.6273425 13.803557 -1.9141695
3.7178974 13.803044 -1.917287
3.8080552 13.800029 -1.9201334
3.8996627 13.801193 -1.9236575
3.99418 13.81127 -1.928537
4.0869999 13.814054 -1.9324678
4.181438 13.820959 -1.9370762
4.2752366 13.824386 -1.9412781
4.3683391 13.824346 -1.9450732
4.4646444 13.833112 -1.9502239
4.5633917 13.847801 -1.9563233
4.6590128 13.851469 -1.9609318
4.7538857 13.851672 -1.9651335
4.8459897 13.842815 -1.9681154
4.9431601 13.847345 -1.9731306
5.0395513 13.84841 -1.977739
5.1340747 13.843237 -1.9815342
5.2301245 13.841133 -1.9858716
5.3256297 13.83652 -1.9899379
5.4285054 13.849706 -1.9967149
5.5335789 13.866748 -2.0041699
5.634964 13.872923 -2.0101337
5.732091 13.867387 -2.0144711
5.8312821 13.865746 -2.0194862
5.9396305 13.884361 -2.0276186
6.0397305 13.882179 -2.0327694
6.1432338 13.886539 -2.0390043
6.2457976 13.887438 -2.0448327
6.3465443 13.883094 -2.0499833
6.4495587 13.882528 -2.0558116
6.5561881 13.888389 -2.0627244
6.6562767 13.879167 -2.0674682
6.7417464 13.838954 -2.0676038
6.8366385 13.817751 -2.0707214
6.9221835 13.777313 -2.0709925
7.0142431 13.749583 -2.0732965
7.0793409 13.669334 -2.0676038
7.1441798 13.589684 -2.0620465
7.2157707 13.523738 -2.0586579
7.3042755 13.489663 -2.0602846
7.4045606 13.47672 -2.0652995
7.4678173 13.396417 -2.0598779
7.5245156 13.305496 -2.0528297
7.59024 13.231575 -2.0484922
7.6573339 13.160774 -2.044697
7.7263622 13.093916 -2.0415797
7.8167338 13.063266 -2.0442905
7.8710456 12.972704 -2.0375133
7.9551682 12.931759 -2.0387332
8.0280752 12.872615 -2.0371068
8.0963202 12.806364 -2.0343959
8.1565714 12.728083 -2.0297873
8.2221041 12.658684 -2.02667
8.2843685 12.584824 -2.0228748
8.3471365 12.512325 -2.0193505
8.4126568 12.444456 -2.0166397
8.4826975 12.383612 -2.0151489
8.5460939 12.313422 -2.0121667
8.6174984 12.255079 -2.0112181
8.6816092 12.186641 -2.0086427
8.7434664 12.115466 -2.0056608
8.7971773 12.033595 -2.0009167
8.8661318 11.97302 -1.9998325
8.9364567 11.91443 -1.9991548
8.9980078 11.844382 -1.9965794
9.0554104 11.769318 -1.9931909
9.1195383 11.703373 -1.9914289
9.1770611 11.629307 -1.9883113
9.2340193 11.554976 -1.9851938
9.2947731 11.485777 -1.9830252
9.3550262 11.416267 -1.9808565
9.4103479 11.341114 -1.977739
9.475935 11.278608 -1.9769257
9.5327635 11.205914 -1.9743505
9.600049 11.14571 -1.9740794
9.6591415 11.07614 -1.9721818
9.7138062 11.00181 -1.969471
9.7659435 10.925011 -1.9663534
9.8208275 10.851659 -1.9639137
9.8684864 10.770741 -1.9601185
9.9168711 10.691099 -1.9565943
9.9700756 10.617048 -1.9541546
10.017285 10.537004 -1.9506305
10.065948 10.45892 -1.947513
10.118872 10.385606 -1.9453443
10.175448 10.316268 -1.9439889
10.221756 10.236812 -1.9407359
10.279445 10.169022 -1.939787
10.323933 10.088445 -1.9363985
10.362116 10.002201 -1.9319257
10.396763 9.9131346 -1.9269105
10.442247 9.8348885 -1.9240642
10.490065 9.7591581 -1.92176
10.533699 9.6798601 -1.9187779
10.55108 9.5770864 -1.911052
10.618498 9.5201025 -1.9126786
10.666327 9.4455738 -1.9107809
10.705441 9.3636408 -1.9073924
10.748448 9.285471 -1.9048171
10.805974 9.2199879 -1.9049526
10.85098 9.1439323 -1.9029195
10.893174 9.0657721 -1.9004797
10.928695 8.9824047 -1.8969556
10.955912 8.8926992 -1.892076
10.989397 8.8085766 -1.8884164
11.03547 8.7348318 -1.887061
11.077149 8.6578026 -1.8850279
11.113593 8.5769587 -1.8821814
11.147886 8.4947939 -1.879064
11.175257 8.4077654 -1.8748622
11.209138 8.3260393 -1.8718802
11.248829 8.2489023 -1.8699826
11.290404 8.1733341 -1.8684916
11.330669 8.0969906 -1.8668652
11.345325 8.0027571 -1.8610368
11.398281 7.9358234 -1.8617145
11.431245 7.8550739 -1.8591392
11.465288 7.775331 -1.856835
11.469142 7.6756282 -1.8496512
11.516023 7.6051106 -1.8496512
11.558319 7.5316019 -1.8489735
11.606815 7.4621468 -1.8493801
11.638997 7.382297 -1.8472115
11.679875 7.308115 -1.8465338
11.718596 7.2326679 -1.845585
11.731441 7.1415653 -1.8405699
11.775041 7.069448 -1.8405699
11.816491 6.9960551 -1.8402988
11.854918 6.9209213 -1.8396211
11.857661 6.8253131 -1.8333861
11.912243 6.7597628 -1.8354192
11.961278 6.6908965 -1.8366392
11.976079 6.6030259 -1.8325728
11.993734 6.517118 -1.8290488
12.027383 6.4401293 -1.8281
12.086827 6.376843 -1.8312174
12.114299 6.2966194 -1.8294554
12.162407 6.2271361 -1.8309463
12.205695 6.1550684 -1.8317596
12.224597 6.0708051 -1.8289132
12.272298 6.000905 -1.8305397
12.295497 5.919044 -1.8285066
12.342328 5.8485804 -1.8301331
12.413 5.789072 -1.8354192
12.444686 5.7111454 -1.834877
12.515614 5.6509881 -1.8402988
12.548241 5.5732832 -1.8400277
12.581294 5.4957871 -1.8398921
12.591109 5.408319 -1.8363681
12.623145 5.330574 -1.8362325
12.609861 5.2340269 -1.8294554
12.709625 5.1842489 -1.8394855
12.699812 5.0895796 -1.8333861
12.791647 5.0355134 -1.8423319
12.817683 4.9551444 -1.8416542
12.833026 4.8707776 -1.8394855
12.835746 4.7819123 -1.8355548
12.863915 4.7027235 -1.8354192
12.866416 4.6143374 -1.831624
12.901029 4.5376053 -1.8325728
12.953918 4.4670825 -1.8362325
13.017689 4.399888 -1.8415186
13.054787 4.3233566 -1.8430096
13.069759 4.2395039 -1.8413831
13.12291 4.1679277 -1.8453139
13.135938 4.0835047 -1.8435518
13.187287 4.0109005 -1.847347
13.171764 3.9180441 -1.8416542
13.190801 3.8357666 -1.8409765
13.215041 3.755028 -1.841112
13.263609 3.6810257 -1.8447716
13.263951 3.5936127 -1.8416542
13.307782 3.5179837 -1.8447716
13.321443 3.4342835 -1.8436873
13.336499 3.3510313 -1.8428741
13.381831 3.2752616 -1.8463982
13.404567 3.1937797 -1.8468049
13.423911 3.1114707 -1.8468049
13.44565 3.0296981 -1.8472115
13.490118 2.9528608 -1.8508711
13.501199 2.8685899 -1.8499223
13.513694 2.7846942 -1.8492446
13.547044 2.7050219 -1.8515488
13.558522 2.6209075 -1.8508711
13.587983 2.5402138 -1.8527687
13.612089 2.4583769 -1.8539885
13.639606 2.3770201 -1.8557507
13.651979 2.2929559 -1.8554796
13.663836 2.2088296 -1.8552085
13.673216 2.1243396 -1.8546664
13.793786 2.0564761 -1.869576
6.5441923 0.93443221 -0.86601818
6.3240218 0.86341989 -0.8348434
6.2732 0.81730062 -0.82711744
6.2033715 0.76951915 -0.81681621
6.2286396 0.73387742 -0.81966263
6.1700077 0.68860817 -0.81098789
6.1613078 0.64938587 -0.8092258
0 0 -0
6.1727591 0.57409549 -0.80976796
6.1544499 0.53432268 -0.80678606
6.1151476 0.49312246 -0.80095774
0 0 -0
0 0 -0
0 0 -0
0 0 -0
0 0 -0
0 0 -0
0 0 -0
0 0 -0
0 0 -0
0 0 -0
0 0 -0
0 0 -0
0 0 -0
0 -0 -0
0 -0 -0
0 -0 -0
0 -0 -0
6.195622 -0.18580389 -0.80963242
0 -0 -0
6.214653 -0.262739 -0.81261438
6.2040172 -0.30043572 -0.81139451
6.2337146 -0.34022298 -0.81573188
6.2651343 -0.38050592 -0.82034034
6.261693 -0.41887483 -0.82020479
6.2906256 -0.45959616 -0.82454216
6.3459601 -0.50279945 -0.83253914
6.4069223 -0.54720443 -0.84134942
12.392393 -1.1346723 -1.6640934
12.360545 -1.2082802 -1.6607047
12.304611 -1.2790824 -1.6540632
12.244336 -1.34881 -1.6468794
12.223036 -1.422426 -1.6451174
10.58653 -1.2979209 -1.4207942
10.585245 -1.3637402 -1.421743
10.564896 -1.4270732 -1.4201165
10.558884 -1.4922873 -1.4205232
10.573052 -1.5605183 -1.4237761
11.9499 -1.8386693 -1.6157047
11.911979 -1.9077286 -1.6120449
11.909822 -1.9824096 -1.6134003
11.888647 -2.0539317 -1.6121805
11.83876 -2.1202047 -1.6070299
11.801174 -2.1882908 -1.6036413
11.778768 -2.2589812 -1.6024214
11.767601 -2.3317895 -1.602828
11.753072 -2.4039502 -1.602828
11.75458 -2.4794962 -1.6051322
11.728496 -2.5492599 -1.6036413
11.718434 -2.6224747 -1.6044545
11.678949 -2.6889937 -1.6012015
8.2896833 -1.9623964 -1.1270733
11.624855 -2.8271937 -1.5983552
11.599599 -2.8965492 -1.5972708
11.589286 -2.9696357 -1.5983552
7.5442996 -1.9827024 -1.0288049
7.5626059 -2.0372009 -1.0331423
11.561314 -3.1903591 -1.6024214
11.56345 -3.2674336 -1.6055388
11.550797 -3.3405259 -1.6066233
11.536734 -3.4133048 -1.6075721
7.9858937 -2.4162548 -1.1030823
7.9311624 -2.4529166 -1.0973895
7.9367466 -2.5081022 -1.1003715
7.9485517 -2.5655782 -1.1043022
11.325914 -3.7324083 -1.593069
11.376048 -3.8264678 -1.6036413
11.470433 -3.9367185 -1.6207197
11.46757 -4.0145545 -1.6238371
7.7149487 -2.7542341 -1.0823443
7.7006969 -2.8025367 -1.0827509
11.367579 -4.2159977 -1.620313
11.339643 -4.2849684 -1.620042
11.247487 -4.3291998 -1.6104184
11.171823 -4.3789701 -1.6032346
11.119897 -4.4375229 -1.599575
11.08787 -4.5038056 -1.5988973
11.052701 -4.568727 -1.597813
11.007107 -4.6291618 -1.5952376
10.96301 -4.6899886 -1.5929334
10.913131 -4.7480779 -1.589816
10.864764 -4.8065329 -1.5869696
10.827838 -4.8698568 -1.5858852
10.786039 -4.9308486 -1.5841231
10.756479 -4.997355 -1.5842587
10.713966 -5.0577636 -1.5824966
10.680051 -5.1221228 -1.58209
10.637733 -5.1823511 -1.5804635
10.579981 -5.2347846 -1.5765327
10.523758 -5.2875943 -1.5728731
10.490233 -5.3516173 -1.5727376
10.420247 -5.3967471 -1.5670447
10.37466 -5.4541292 -1.5651472
10.344495 -5.5195498 -1.5656893
10.306077 -5.5805597 -1.5650116
10.265562 -5.6403522 -1.5640628
10.208261 -5.6906919 -1.5605388
10.178325 -5.7561479 -1.561352
10.127345 -5.8096189 -1.5589123
10.068385 -5.8581972 -1.5552526
10.022011 -5.9138236 -1.5536261
9.9574785 -5.9584188 -1.5491532
9.9139547 -6.0152931 -1.5480688
9.8701077 -6.0718579 -1.5469844
9.825099 -6.1275873 -1.5457646
9.7764292 -6.1808748 -1.5440025
9.7416563 -6.2428842 -1.5445447
9.6292171 -6.2545104 -1.5324814
9.6527271 -6.3543324 -1.5426471
9.5739937 -6.3870497 -1.536141
9.5149231 -6.4323578 -1.5328881
9.4703712 -6.4872599 -1.5320748
9.4043417 -6.5271702 -1.5277374
9.3827553 -6.5978584 -1.5308549
9.3372536 -6.6518569 -1.5300417
9.2938528 -6.7072845 -1.5296351
9.238925 -6.7542443 -1.5273308
9.1582918 -6.7819161 -1.5206892
9.0927277 -6.8201489 -1.5166229
9.040453 -6.868021 -1.5148609
8.999712 -6.9245715 -1.515132
8.996912 -7.0107188 -1.5220447
8.9583931 -7.0694733 -1.5228579
8.917943 -7.1267819 -1.5234001
8.8740454 -7.1813674 -1.5234001
8.8367119 -7.241334 -1.5246199
8.779151 -7.2846637 -1.5223157
8.7327709 -7.3371196 -1.5220447
8.6777763 -7.3822193 -1.5202826
8.5887747 -7.3978252 -1.5124211
8.5462074 -7.4529905 -1.5129633
8.4824905 -7.4895511 -1.5097102
8.4134769 -7.5209889 -1.5055084
8.3495398 -7.5565162 -1.5022554
8.3103218 -7.6142988 -1.5036108
8.2670765 -7.6685152 -1.5042886
8.2140903 -7.7136712 -1.5032042
8.1558342 -7.7536874 -1.5011711
8.1081047 -7.8035846 -1.5011711
8.0650377 -7.8580279 -1.5021199
8.0159645 -7.9066701 -1.5019844
7.9722071 -7.9606066 -1.5029331
7.9141531 -8.0002174 -1.5011711
7.8690705 -8.0528784 -1.5019844
7.018549 -7.2712731 -1.3442127
7.7559824 -8.1344967 -1.4992734
7.7174726 -8.1941938 -1.5015777
7.1224251 -7.6560135 -1.3921947
7.1014605 -7.7280226 -1.397481
7.1131754 -7.8367414 -1.4095442
7.1284513 -7.951057 -1.4225563
6.7642331 -7.6386199 -1.3574959
2.1517484 -2.4605594 -0.40883282
2.1379056 -2.4752154 -0.4091039
2.1226776 -2.4882867 -0.4091039
6.7094517 -7.9621797 -1.3860954
6.5508218 -7.8714547 -1.3626465
6.486043 -7.8916016 -1.3591224
6.4293814 -7.9212503 -1.3573602
6.3806567 -7.9605513 -1.3573602
6.3562884 -8.0306263 -1.362782
2.0028946 -2.5630851 -0.40666413
1.983498 -2.5706203 -0.40585089
1.9652855 -2.5795903 -0.40530872
1.9488248 -2.5908089 -0.40517318
1.9145761 -2.5780623 -0.40097135
1.8407155 -2.5106649 -0.38755262
1.8293427 -2.5275297 -0.38850144
1.8207124 -2.5483799 -0.39012793
6.3756566 -9.038763 -1.4748758
6.346684 -9.1159286 -1.4812462
6.2895083 -9.1530666 -1.4809752
6.2254419 -9.180006 -1.4790776
6.1524653 -9.1933308 -1.4750113
6.0882959 -9.2193346 -1.4731138
5.9650788 -9.154418 -1.456442
1.8081424 -2.8129916 -0.41913405
1.7913789 -2.8248699 -0.41926962
1.7766398 -2.8400078 -0.41994733
5.820323 -9.430419 -1.4777222
5.7546215 -9.4532595 -1.4756891
5.6908989 -9.4790478 -1.4741981
5.6356583 -9.5189028 -1.4750113
5.5656557 -9.5336246 -1.4718938
5.4927192 -9.5426941 -1.4679631
5.4570465 -9.6167164 -1.4743336
5.3795557 -9.6171618 -1.469183
5.3209229 -9.650856 -1.4693185
5.2663369 -9.692029 -1.4706739
5.2128487 -9.7355146 -1.4724361
5.156251 -9.7734509 -1.4733849
5.0939007 -9.8005095 -1.4727072
5.0323153 -9.8289347 -1.4723005
4.9750342 -9.8658199 -1.4732493
4.9157271 -9.8988228 -1.4736559
4.8492384 -9.9172277 -1.4718938
4.7818494 -9.9334049 -1.4698607
4.722506 -9.9661398 -1.4704028
4.6679668 -10.009295 -1.4725716
4.611836 -10.049456 -1.4743336
4.5684352 -10.118198 -1.480433
4.5444732 -10.232059 -1.4933096
4.5498252 -10.415912 -1.5166229
4.495605 -10.466392 -1.5200115
4.4297581 -10.490128 -1.5194693
4.3645487 -10.515281 -1.5191982
4.2808604 -10.495077 -1.5122856
4.2178574 -10.524825 -1.5128278
4.1433997 -10.525616 -1.509168
4.0808811 -10.556386 -1.5099813
4.0146251 -10.577521 -1.5094391
3.9458423 -10.591743 -1.5079482
3.8770359 -10.605519 -1.5064572
3.8058679 -10.612322 -1.5040175
3.743639 -10.643887 -1.5052373
3.6827812 -10.67977 -1.5071349
3.609885 -10.680577 -1.5040175
3.5421016 -10.695943 -1.5030687
3.475183 -10.713705 -1.5025265
3.4084797 -10.731995 -1.5021199
3.3349175 -10.728107 -1.4985957
3.2647035 -10.73415 -1.4965626
3.197366 -10.749231 -1.4958849
3.1283062 -10.758183 -1.4943939
3.0595281 -10.767645 -1.4930385
2.9910166 -10.777623 -1.4918187
2.9217207 -10.784297 -1.4901921
2.8587866 -10.814474 -1.4919542
2.7906449 -10.825095 -1.4910053
2.7207901 -10.828563 -1.4891077
2.6524117 -10.837354 -1.4880234
2.5874727 -10.860171 -1.4889722
2.5205634 -10.874878 -1.4888366
2.4533534 -10.888206 -1.4885656
2.3886173 -10.912733 -1.489921
2.3226426 -10.93203 -1.4905987
2.2525213 -10.93152 -1.4885656
2.1838522 -10.937363 -1.4874812
0.50572145 -2.6179073 -0.3264229
0.49693257 -2.6599169 -0.3318446
0.47619939 -2.638541 -0.32845604
0.46306297 -2.6589823 -0.33089581
0.44821626 -2.6705673 -0.33211568
0.44083548 -2.7290173 -0.3398416
0.42271301 -2.7228596 -0.33862174
0.40424442 -2.7136428 -0.33699521
0.38366315 -2.6886091 -0.33320004
0.36648849 -2.6860044 -0.3325223
0.35038477 -2.69115 -0.33292893
0.33423167 -2.6961989 -0.33333558
0.22186866 -1.8854499 -0.22137733
0.21150512 -1.8976068 -0.22286831
1.1646911 -11.047446 -1.4813818
1.1020702 -11.106639 -1.4885656
1.0331659 -11.1053 -1.4874812
0.6790843 -7.8205953 -1.0355821
0.62949121 -7.8048639 -1.0328712
0.58195782 -7.8135195 -1.033549
0.26092815 -3.8225591 -0.48582104
0.6912272 -11.118911 -1.4857192
0.21483144 -3.8403115 -0.48785418
0.38657323 -7.7561803 -1.024061
0.48800606 -11.165384 -1.4905987
0.13439211 -3.5852065 -0.45247754
0.11036656 -3.5215952 -0.44366729
0.086575203 -3.4360366 -0.43187508
0.063970983 -3.3572562 -0.42103165
0.044041611 -3.4091012 -0.42807987
0.023143439 -3.4122794 -0.4284865
0.0082397703 -11.314749 -1.5095747
-0.060952175 -11.270992 -1.5036108
-0.130519 -11.306072 -1.5084903
-0.20020396 -11.322889 -1.5109302
-0.27002949 -11.336306 -1.5129633
-0.33967158 -11.337406 -1.5133699
-0.40948018 -11.342039 -1.5143187
-0.47973451 -11.355151 -1.5164874
-0.55016512 -11.367827 -1.518656
-0.61969072 -11.360281 -1.5181139
-0.68992442 -11.365166 -1.5193337
-0.75944859 -11.357753 -1.5189271
-0.82876348 -11.347938 -1.5182494
-0.89955044 -11.357454 -1.5202826
-0.97132778 -11.376401 -1.5236712
-1.042649 -11.386999 -1.5259753
-1.114715 -11.403068 -1.5290928
-1.1867101 -11.415722 -1.5318037
-1.2582517 -11.422013 -1.5337013
-1.32877 -11.418015 -1.5342435
-1.3991662 -11.412597 -1.5346501
-1.4694195 -11.405762 -1.5349212
-0.39460242 -2.9191546 -0.36464593
-0.41444716 -2.930413 -0.3665435
-0.43632498 -2.9542789 -0.37020317
-1.751901 -11.38585 -1.537632
-1.8237667 -11.387605 -1.5393941
-0.50380391 -3.0249109 -0.38118213
-0.52252358 -3.0227389 -0.38131768
-0.53320277 -2.9755893 -0.37521824
-2.0799267 -11.216672 -1.5223157
-2.1296806 -11.104447 -1.5084903
-2.1985462 -11.095058 -1.5090325
-2.2622159 -11.060005 -1.5060506
-2.3288093 -11.040099 -1.5052373
-0.61900973 -2.8464801 -0.36017302
-0.63192058 -2.8223243 -0.35732663
-0.63011098 -2.7353592 -0.34566996
-2.591059 -10.945878 -1.5004933
-0.89937049 -3.6968772 -0.4821614
-0.92083716 -3.6864829 -0.4814837
-2.8233266 -11.018221 -1.5177072
-0.75727934 -2.8805199 -0.36911884
-0.76824051 -2.8509452 -0.36559471
-0.77807701 -2.8184805 -0.36166397
-3.1262798 -11.063843 -1.5345145
-0.8115046 -2.8049128 -0.3611218
-3.2730572 -11.062648 -1.5399363
-3.3534975 -11.084084 -1.5459001
-1.0052463 -3.2495239 -0.42699555
-3.4710553 -10.984467 -1.537632
-3.5374765 -10.960134 -1.5372254
-3.5947378 -10.90811 -1.5328881
-3.6938164 -10.981634 -1.5467134
-3.747622 -10.919403 -1.5410206
-1.1297358 -3.2262189 -0.42929977
-1.1485111 -3.2164271 -0.42889315
-1.1567062 -3.1776638 -0.4242847
-3.9679623 -10.698734 -1.5227224
-1.1672487 -3.0881574 -0.41330573
-1.1861753 -3.0809371 -0.41330573
-4.0745583 -10.395116 -1.4891077
-1.2187532 -3.053266 -0.41140813
-1.2378377 -3.0466483 -0.41154367
-1.262942 -3.0545616 -0.41384789
-4.3192225 -10.270071 -1.4858547
-4.3989124 -10.282546 -1.4916831
-4.4623175 -10.256269 -1.4918187
-4.5251646 -10.228696 -1.4918187
-4.5890608 -10.203448 -1.4922253
-4.6528172 -10.177802 -1.4926319
-4.7239451 -10.167931 -1.4954783
-1.3432099 -2.8446615 -0.39202553
-1.3546413 -2.8238592 -0.39012793
-1.3749799 -2.8217289 -0.39107674
-1.3997366 -2.8283358 -0.39338097
-5.0256152 -10.002304 -1.4930385
-5.0931964 -9.9836349 -1.4949361
-5.1602821 -9.9636335 -1.4966981
-5.2180939 -9.9256439 -1.4957494
-5.2742343 -9.8846979 -1.4943939
-5.3385601 -9.8591194 -1.4954783
-5.410881 -9.8478861 -1.4988668
-5.476511 -9.8240194 -1.5003577
-4.8519683 -8.57938 -1.310056
-4.8986034 -8.539134 -1.3084294
-4.9548922 -8.5157671 -1.3095137
-4.989429 -8.4553385 -1.3047698
-5.7895274 -9.6752119 -1.504153
-5.8749943 -9.6827059 -1.5110657
-5.935853 -9.6490068 -1.5114723
-4.9264789 -7.8990693 -1.2352364
-5.1733866 -8.1827402 -1.2860649
-5.2149448 -8.137496 -1.2838962
-5.2620792 -8.1011896 -1.2832185
-5.3509097 -8.128335 -1.2929776
-5.6365538 -8.4489384 -1.3511254
-5.6278095 -8.3247242 -1.3363512
-5.6496692 -8.24753 -1.329303
-6.4712462 -9.32376 -1.5143187
-6.5323229 -9.2895508 -1.5152675
-6.5863252 -9.2452593 -1.5145898
-6.6620622 -9.2311859 -1.5190626
-5.6778169 -7.7664042 -1.2777967
-1.700205 -2.2954512 -0.35244709
-1.6863176 -2.2477229 -0.34607658
-6.8704185 -9.0436087 -1.515403
-1.735523 -2.2551291 -0.35095611
-1.7328857 -2.2233362 -0.34729645
-1.7563151 -2.2251062 -0.34946513
-1.7792125 -2.2258978 -0.35149828
-7.1352477 -8.8170509 -1.5133699
-7.2664518 -8.8673658 -1.5300417
-7.3181939 -8.8195629 -1.5294995
-7.3728094 -8.7752523 -1.5296351
-7.4329338 -8.7373943 -1.5309905
-7.4954576 -8.7021322 -1.5328881
-7.552619 -8.6604576 -1.5337013
-7.6167636 -8.6265793 -1.5360055
-7.6834178 -8.5951939 -1.5388519
-7.7426605 -8.555234 -1.5402074
-7.7970166 -8.5097561 -1.540614
-7.8605385 -8.474103 -1.5429182
-7.9184904 -8.4322128 -1.5441381
-7.9625716 -8.3755684 -1.5426471
-8.0282412 -8.3415442 -1.5454935
-8.0896435 -8.3027716 -1.5475266
-8.1473932 -8.2600327 -1.5488821
-8.2021227 -8.2140923 -1.5496954
-8.2650471 -8.1761532 -1.5521351
-3.5043931 -3.4240892 -0.63193601
-3.3278823 -3.2119153 -0.59439069
-3.3711901 -3.2139983 -0.5988636
-8.4826832 -7.9891973 -1.5557947
-8.5569324 -7.9606185 -1.5605388
-3.1999841 -2.9402218 -0.55616766
-3.4710584 -3.1502748 -0.60292989
-3.5574512 -3.1891055 -0.6152643
-3.5480251 -3.1415994 -0.60997814
-3.4523911 -3.019315 -0.58910453
-3.4483607 -2.9786432 -0.58503824
-3.4236121 -2.9207714 -0.57731235
-3.6770885 -3.0982733 -0.61946613
-3.7843666 -3.1491745 -0.63518906
-3.8296418 -3.147285 -0.63979751
-3.769649 -3.0594127 -0.62583661
-9.2260494 -7.3950782 -1.5792437
-9.2689199 -7.3364844 -1.578837
-9.3207874 -7.2849646 -1.5800569
-9.3974686 -7.2524557 -1.5856141
-9.4473085 -7.1988606 -1.5865629
-9.5103025 -7.1550541 -1.589816
-5.8342013 -4.3333497 -0.95588297
-9.6357403 -7.0659332 -1.5963219
-6.0289879 -4.3642669 -0.97987401
-6.0540409 -4.3260393 -0.97960293
-6.0578017 -4.2728195 -0.97580773
-5.9773903 -4.1614056 -0.95805162
-6.2592087 -4.3008471 -1.000612
-6.2395616 -4.2312179 -0.99302167
-6.0933208 -4.0776792 -0.96469325
-6.1413751 -4.0555024 -0.96848845
-6.1810851 -4.0274801 -0.97092819
-5.7464886 -3.6942394 -0.89624423
-5.723032 -3.6297216 -0.88878936
-6.3070836 -3.9461343 -0.97946739
-6.1364217 -3.7871499 -0.94815701
-6.1900096 -3.7679737 -0.95303655
-6.3022022 -3.7834723 -0.96726853
-6.2843771 -3.7205019 -0.9607625
-6.3233438 -3.6913629 -0.96333784
-6.2625837 -3.6045485 -0.95019019
-6.2707963 -3.5582299 -0.94802147
-6.3426619 -3.5477414 -0.95588297
-6.5942302 -3.6355317 -0.9918018
-6.4048724 -3.4800475 -0.95886493
-6.5082068 -3.4846473 -0.9716059
-6.6232276 -3.4941192 -0.98610896
-6.5408087 -3.3994927 -0.97011495
-6.5297966 -3.343039 -0.96523541
-6.624496 -3.3403854 -0.97662097
-6.6688261 -3.3115745 -0.98028064
-6.7504334 -3.3006251 -0.98963308
-6.683074 -3.2170248 -0.97634989
-6.6606073 -3.1560159 -0.96997941
-6.6565013 -3.1041992 -0.96645528
-6.7042375 -3.0765219 -0.97079265
-6.7284064 -3.0377741 -0.9716059
-5.7816925 -2.5676944 -0.82711744
-5.8082337 -2.5369298 -0.82874393
-6.7276516 -2.8895574 -0.96333784
-6.7635093 -2.855932 -0.96604866
-6.8294039 -2.8345101 -0.97323245
-6.9072146 -2.8172514 -0.98217827
-6.9326477 -2.7781339 -0.98339814
-6.8518424 -2.6970718 -0.96903062
-7.0632496 -2.7303648 -0.99763012
-6.9168434 -2.625092 -0.97377461
-6.9142518 -2.5756836 -0.97106373
-6.9280648 -2.5325296 -0.97079265
-6.9639912 -2.4973309 -0.97377461
-6.9735756 -2.4525812 -0.97296137
-6.982873 -2.4078076 -0.97214806
-7.0679107 -2.3887115 -0.98231381
-7.2357407 -2.3960741 -1.0044073
-7.3153334 -2.3727264 -1.0137597
-7.1833911 -2.2813051 -0.99275059
-7.1906309 -2.2351267 -0.9918018
-7.2544484 -2.2062452 -0.99898553
-7.230813 -2.1506734 -0.99369937
-7.1810837 -2.0880048 -0.98475355
-7.2109146 -2.0487783 -0.98719335
-7.2634468 -2.0156236 -0.99288613
-7.3502679 -1.9912292 -1.0034584
-7.3422327 -1.9407731 -1.000612
-7.3904595 -1.9050853 -1.0057627
-7.5845799 -1.905582 -1.0315157
-7.6336617 -1.8681953 -1.0368019
-7.8155713 -1.861971 -1.0607929
-7.8828292 -1.8269577 -1.0686544
-8.2727709 -1.8639395 -1.1217872
-8.2443705 -1.8044565 -1.1162299
-8.4568672 -1.7966715 -1.1444228
-9.3022566 -1.9167385 -1.2609894
-9.1098089 -1.8188782 -1.2325255
-9.6694336 -1.8690169 -1.3089715
-10.288429 -1.9232781 -1.3935502
-10.733909 -1.9384845 -1.4538667
-11.326354 -1.9738131 -1.5345145
-11.789663 -1.9801102 -1.5971353
-12.241723 -1.9788954 -1.6581295
-12.725523 -1.9770733 -1.723461
-13.046094 -1.944983 -1.7661569
-13.843415 -1.9771245 -1.8747267
-14.17138 -1.9353222 -1.9183713
-14.190847 -1.8493563 -1.9194556
-14.197995 -1.7617599 -1.9189135
-14.318741 -1.6876011 -1.9340943
-14.264824 -1.592564 -1.925284
-14.269401 -1.5044872 -1.9246063
-14.249771 -1.4140654 -1.9206755
-14.268044 -1.3275219 -1.922031
-14.295663 -1.241665 -1.9247419
-14.309925 -1.154483 -1.9256907
-14.293027 -1.0648898 -1.9224377
-14.285454 -0.97622335 -1.92054
-14.302052 -0.88922769 -1.922031
-14.28053 -0.79995829 -1.9183713
-14.302981 -0.7132082 -1.9208111
-14.282343 -0.62435091 -1.9174225
-14.277985 -0.53640658 -1.9163382
-14.281997 -0.44881955 -1.9164737
-13.080643 0.96400684 -1.9240186
-13.03702 1.0412546 -1.9183953
-13.031371 1.1213136 -1.9185432
-13.017351 1.200615 -1.9175074
-12.998913 1.2793988 -1.9158796
-12.977048 1.3576926 -1.9138079
-12.949797 1.4352211 -1.9109962
-12.960392 1.5169537 -1.9139558
-12.947895 1.5960854 -1.9135119
-12.942762 1.6761377 -1.9142518
-12.924394 1.7544565 -1.9130679
-12.875198 1.8282999 -1.9072967
-12.866673 1.9077016 -1.9077406
-12.822472 1.9816266 -1.9028572
-12.790543 2.0571239 -1.8998976
-12.782557 2.1363821 -1.9006375
-12.780901 2.2168033 -1.9024132
-12.780685 2.2976348 -1.904485
-12.744957 2.3720295 -1.9012294
-12.72822 2.4498124 -1.9009334
-12.728468 2.5309525 -1.9033011
-12.698167 2.6060216 -1.9010814
-12.668392 2.6810191 -1.8990097
-12.643007 2.7568033 -1.8976778
-12.620064 2.8330274 -1.8967899
-12.603407 2.9106319 -1.8969378
-12.582423 2.9872246 -1.8964939
-12.56674 3.0650759 -1.8969378
-12.543859 3.141165 -1.896346
-12.520517 3.2170887 -1.8957541
-12.502455 3.2943566 -1.89605
-12.477232 3.3697186 -1.89531
-12.436304 3.4406743 -1.8922025
-12.437796 3.5233886 -1.8957541
-12.405494 3.5966089 -1.8941263
-12.386036 3.6735039 -1.8945702
-12.372727 3.752305 -1.89605
-12.361751 3.8319597 -1.8979738
-12.343662 3.9095302 -1.8988616
-12.342024 3.9925034 -1.9024132
-12.249681 4.0458198 -1.8917586
-12.230249 4.1228023 -1.8926464
-12.202851 4.1971245 -1.8923504
-12.173136 4.2706108 -1.8917586
-12.169051 4.35322 -1.89531
-12.114238 4.4176388 -1.8908707
-12.07856 4.4887857 -1.8895388
-12.038767 4.5582604 -1.8876151
-12.014262 4.6334667 -1.888207
-11.978241 4.7042046 -1.8870231
-11.962008 4.7827549 -1.8890948
-11.935184 4.8571811 -1.8895388
-11.877745 4.9189677 -1.8850993
-11.852807 4.99406 -1.8859873
-11.819214 5.0655246 -1.8855432
-11.787004 5.1375551 -1.8853953
-11.756163 5.2101831 -1.8855432
-11.722169 5.2814069 -1.8852473
-11.70213 5.3589993 -1.8873191
-11.634956 5.4148412 -1.8816957
-11.592572 5.4819012 -1.8802159
-11.550695 5.5490737 -1.8788841
-11.554646 5.6384964 -1.8852473
-11.536668 5.7176342 -1.888059
-11.470449 5.7727504 -1.8828796
-11.422483 5.8367219 -1.8808079
-11.377676 5.902144 -1.879328
-11.39375 5.9994969 -1.888207
-11.364573 6.0734911 -1.8895388
-11.33057 6.1449947 -1.8901308
-11.293518 6.214879 -1.8902787
-11.256899 6.2850218 -1.8905747
-11.227589 6.3593369 -1.8922025
-11.190929 6.4295869 -1.8926464
-11.165793 6.5065985 -1.8951621
-11.161417 6.5961242 -1.9013773
-11.128368 6.6690612 -1.9027092
-11.107522 6.7495461 -1.9062607
-11.086105 6.8300252 -1.9098123
-11.061603 6.9089236 -1.91292
-11.022345 6.9787827 -1.9135119
-10.960174 7.0339956 -1.9101083
-10.933387 7.1119003 -1.9130679
-10.893672 7.1815743 -1.9138079
-10.858446 7.2543259 -1.9154357
-10.817825 7.3235879 -1.9161756
-10.786549 7.3993387 -1.9186913
-10.762057 7.480062 -1.9225388
-10.739406 7.5624709 -1.9268303
-10.696022 7.6305223 -1.9274222
-10.673847 7.7139683 -1.9320096
-10.634295 7.7851596 -1.9334894
-10.570438 7.8384805 -1.9305298
-10.552191 7.9257646 -1.9361532
-10.524611 8.0065317 -1.9401486
-10.481552 8.0757885 -1.9413325
-10.448175 8.1527281 -1.9444401
-10.394075 8.2136173 -1.9437002
-10.329584 8.2661152 -1.9410366
-10.298646 8.3455315 -1.9448841
-10.244951 8.4066839 -1.9444401
-10.177203 8.4561129 -1.9413325
-10.128153 8.5209465 -1.9419245
-10.126869 8.6265459 -1.9519873
-10.084231 8.6975651 -1.954059
-10.050041 8.7761917 -1.9579065
-10.007115 8.8475199 -1.9601263
-9.9703236 8.9245882 -1.9636778
-9.9219704 8.9915743 -1.9650096
-9.8753567 9.0603094 -1.9667854
-9.8318958 9.1321754 -1.9693011
-9.7864828 9.2024946 -1.9715208
-9.7334146 9.2657795 -1.9722607
-9.6856346 9.3342514 -1.9741845
-9.6416273 9.4066286 -1.9769962
-9.6118708 9.493413 -1.9829154
-9.5562363 9.5550089 -1.9835074
-9.5148039 9.6310549 -1.9872069
-9.4548388 9.6885481 -1.987059
-9.3835459 9.7342739 -1.9845432
-9.3256865 9.7938156 -1.9849873
-9.2681274 9.853734 -1.9855791
-9.2148952 9.9183874 -1.9872069
-9.1578751 9.9791145 -1.9880948
-9.1031141 10.042447 -1.9895747
-9.0413227 10.098113 -1.9895747
-8.9791918 10.153399 -1.9895747
-8.9238787 10.216498 -1.9912025
-8.8707132 10.282295 -1.9934222
-8.8170757 10.347823 -1.9956419
-8.7553272 10.403999 -1.9960859
-8.6925888 10.459046 -1.9963818
-8.6320133 10.516773 -1.9972697
-8.5735483 10.577224 -1.9987495
-8.5196095 10.64353 -2.0014131
-8.4670191 10.7119 -2.0045209
-8.4120846 10.777685 -2.0071845
-8.3584728 10.845549 -2.0102921
-8.2935648 10.898993 -2.010736
-8.2021799 10.917255 -2.0046687
-8.1603708 11.001535 -2.0110321
-8.1014767 11.063369 -2.0132518
-8.0230122 11.098443 -2.0105882
-7.949019 11.139411 -2.0091083
-7.9317694 11.26075 -2.0224266
-7.855752 11.299461 -2.0206509
-7.7801175 11.338479 -2.0190232
-7.7120628 11.388461 -2.0194671
-7.6491818 11.446257 -2.0213907
-7.5777164 11.491324 -2.0210948
-7.5005927 11.527657 -2.0193191
-7.4307876 11.575127 -2.0196149
-7.3612113 11.62301 -2.0200589
-7.2871356 11.663765 -2.0193191
-7.2149119 11.707417 -2.019171
-7.1455088 11.755692 -2.0199111
-7.0737514 11.800162 -2.0200589
-7.0032263 11.846749 -2.0206509
-6.9383721 11.903169 -2.0230186
-6.8676686 11.949805 -2.0237584
-6.7961664 11.995162 -2.0243504
-6.7272592 12.045272 -2.0258303
-6.6546545 12.088922 -2.0262742
-6.5860114 12.139958 -2.0280499
-6.5160599 12.188863 -2.0295298
-6.4471388 12.239991 -2.0314536
-6.3737359 12.282831 -2.0320456
-6.3005004 12.326112 -2.0327854
-6.2336431 12.382207 -2.0357451
-6.1641378 12.433515 -2.0379648
-6.0859962 12.467547 -2.0373728
-6.007669 12.50109 -2.0367808
-5.9312735 12.538611 -2.0369289
-5.8525572 12.571182 -2.0363369
-5.7773705 12.611352 -2.037077
-5.7023177 12.651975 -2.0379648
-5.6394076 12.720179 -2.0434401
-5.5596709 12.750916 -2.0428481
-5.473146 12.765699 -2.0397406
-5.3904896 12.789017 -2.0381126
-5.3134298 12.825506 -2.0387046
-5.2432094 12.878936 -2.0421083
-5.1651883 12.91362 -2.0425522
-5.0912781 12.958879 -2.0447719
-5.0194983 13.010174 -2.0480275
-4.9486814 13.064775 -2.0518751
-4.8718696 13.104164 -2.053355
-4.7893391 13.128236 -2.0524671
-4.7186904 13.185311 -2.0569065
-4.6426096 13.228014 -2.0591261
-4.5594268 13.250641 -2.0582383
-4.4830918 13.293362 -2.060606
-4.3992696 13.314046 -2.0595701
-4.3162751 13.337025 -2.0589783
-4.2337623 13.361372 -2.0586822
-4.1543345 13.3956 -2.060014
-4.074646 13.429357 -2.0613458
-3.9896371 13.445572 -2.060014
-3.909816 13.479297 -2.0614939
-3.8300004 13.5135 -2.0631218
-3.7525499 13.556763 -2.0662293
-3.6708441 13.585261 -2.0671172
-3.5899377 13.617093 -2.0685971
-3.5013938 13.619707 -2.0656374
-3.4237661 13.664919 -2.0693369
-3.3410273 13.690474 -2.0700769
-3.2617595 13.730923 -2.0731845
-3.1963665 13.832585 -2.085763
-3.0984311 13.79404 -2.076884
-3.0147879 13.817623 -2.0776238
-2.9141774 13.76136 -2.0662293
-2.8159626 13.712135 -2.0560186
-2.722899 13.684536 -2.0492115
-2.6314023 13.66214 -2.043292
-2.5390162 13.632331 -2.0363369
-2.4497211 13.616506 -2.0316014
-2.3585181 13.587431 -2.0249424
-2.269232 13.56653 -2.0196149
-2.1845329 13.571411 -2.0182831
-2.099406 13.572831 -2.0165074
-2.0134735 13.567848 -2.0138438
-1.929072 13.572113 -2.0126598
-1.8436296 13.568015 -2.0102921
-1.7576748 13.558475 -2.0071845
-1.6742064 13.567041 -2.0068886
-1.5902389 13.571165 -2.0060008
-1.505957 13.57182 -2.0046687
-1.4225506 13.579822 -2.0045209
-1.3384243 13.58042 -2.0033369
-1.2547077 13.584438 -2.0027452
-1.1708225 13.585969 -2.001857
-1.0873598 13.591911 -2.0017092
-1.0044501 13.605232 -2.0027452
-0.92115104 13.6141 -2.0031891
-0.83705354 13.610611 -2.001857
-0.75297898 13.605616 -2.0003774
-0.66909426 13.602077 -1.9991934
-0.58570576 13.607903 -1.9994894
-0.502271 13.613217 -1.9997854
-0.41885367 13.619997 -2.0003774
-0.3354933 13.631209 -2.0017092
-0.25215656 13.649821 -2.0042248
-0.16828904 13.642211 -2.002893
-0.084578842 13.642987 -2.002893
-0.00086519698 13.655117 -2.0046687
0.082914948 13.653876 -2.0045209
0.166692 13.653111 -2.0045209
0.25026229 13.640953 -2.002893
0.33432129 13.653992 -2.0051126
0.41821575 13.655637 -2.0057046
0.50214297 13.656767 -2.0062966
0.58682209 13.674179 -2.0094042
0.67144245 13.685138 -2.0116239
0.75578254 13.687673 -2.0126598
0.84030026 13.691662 -2.0139916
0.9245618 13.690195 -2.0145836
1.0085459 13.684264 -2.0145836
1.0928861 13.682747 -2.0153234
1.1785188 13.695491 -2.0182831
1.2631669 13.694896 -2.0193191
1.3488218 13.703619 -2.0218346
1.4350431 13.71574 -2.0249424
1.5221181 13.733217 -2.0289378
1.6034784 13.699062 -2.0252383
1.6908945 13.716449 -2.0293818
1.776042 13.713661 -2.0305657
1.8616184 13.713285 -2.0321934
1.9472569 13.712376 -2.0338213
2.0316482 13.702126 -2.0341172
2.1179516 13.704062 -2.0363369
2.2049837 13.709361 -2.0391486
2.2910187 13.707279 -2.0409243
2.3777874 13.708554 -2.043292
2.464833 13.710254 -2.0458078
2.5539806 13.722095 -2.0499513
2.6441138 13.737243 -2.0546868
2.7331784 13.74501 -2.0583863
2.8178625 13.729918 -2.0586822
2.9055371 13.728818 -2.061198
2.9952013 13.735854 -2.0650456
3.0874448 13.752921 -2.0705209
3.1746671 13.746244 -2.0724447
3.2680943 13.764996 -2.0783639
3.3599951 13.77543 -2.0830994
3.4490223 13.772781 -2.085911
3.5396209 13.775306 -2.0896106
3.6301279 13.776279 -2.0931621
3.7231014 13.785253 -2.0980456
3.8110454 13.77454 -2.0999691
3.8971105 13.756606 -2.100857
3.9729064 13.70299 -2.0962696
4.0650692 13.70585 -2.1005611
4.1246858 13.600205 -2.0879827
4.2142086 13.594478 -2.0910902
4.3050108 13.591934 -2.09479
4.3776717 13.53233 -2.0896106
4.4572091 13.494884 -2.0879827
4.5285521 13.433544 -2.0826554
4.6086416 13.398958 -2.0816195
4.6910968 13.371361 -2.0817676
4.7893801 13.387953 -2.0890186
4.8551693 13.313717 -2.0819154
4.9257421 13.254011 -2.0771799
5.0038218 13.215214 -2.0758481
5.0798316 13.171344 -2.0737765
5.1540446 13.123358 -2.0711126
5.2285953 13.076794 -2.0687451
5.2997856 13.022481 -2.0651934
5.3860245 13.00525 -2.0677092
5.4595761 12.957376 -2.0653415
5.5370302 12.919087 -2.0646014
5.6003861 12.848606 -2.0586822
5.6646895 12.781452 -2.053355
5.7365069 12.732027 -2.0509872
5.8145213 12.696589 -2.0509872
5.8906469 12.657086 -2.0503953
5.9614329 12.6064 -2.0480275
6.0305333 12.552647 -2.0452158
6.0987654 12.497632 -2.0422564
6.167428 12.444026 -2.0395925
6.2334394 12.385632 -2.0361891
6.3039179 12.336583 -2.0344131
6.3694739 12.278358 -2.0311575
6.44838 12.246044 -2.0323415
6.5196691 12.199269 -2.0311575
6.5915699 12.15382 -2.0302696
6.6588669 12.10015 -2.0280499
6.7267179 12.047839 -2.0261261
6.7951531 11.996873 -2.0244985
6.8632164 11.94552 -2.0228705
6.9319015 11.895494 -2.0215387
6.9941921 11.834857 -2.0184312
7.0504069 11.764574 -2.0136957
7.1229739 11.721937 -2.0138438
7.1978774 11.683063 -2.0147316
7.2636638 11.629451 -2.0131037
7.3327675 11.581321 -2.012512
7.4026227 11.534445 -2.0122159
7.4613919 11.470569 -2.0089602
7.5185676 11.404755 -2.0054088
7.5708213 11.332093 -2.0006733
7.6246848 11.262497 -1.9965298
7.6796589 11.195113 -1.9928303
7.74369 11.141284 -1.9916464
7.8067808 11.086283 -1.9903146
7.8677645 11.028512 -1.9885387
7.933548 10.977624 -1.9880948
7.9925761 10.917567 -1.9860231
8.0499878 10.85561 -1.9836553
8.1105051 10.798105 -1.9821756
8.1676254 10.73633 -1.9799558
8.2248974 10.675046 -1.9778841
8.2823334 10.614243 -1.9759603
8.3411722 10.555464 -1.9744805
8.395895 10.491731 -1.9721128
8.4520168 10.430029 -1.970189
8.5026798 10.361917 -1.9670814
8.5496645 10.289775 -1.9632338
8.6030893 10.22577 -1.9610142
8.6592569 10.165262 -1.9595343
8.7137146 10.102952 -1.9577585
8.7664337 10.038868 -1.9556868
8.8154182 9.9708118 -1.9528751
8.8605995 9.8988495 -1.9493235
8.9118729 9.8340368 -1.9472518
8.9660273 9.7726116 -1.94592
9.0190907 9.7101669 -1.9444401
9.0649509 9.6402359 -1.9414805
9.1000624 9.5593634 -1.9363011
9.1434469 9.4876814 -1.9330455
9.1980362 9.4278603 -1.9323056
9.2487612 9.3642092 -1.9308258
9.2941561 9.2953959 -1.92831
9.3439808 9.2312422 -1.9268303
9.3969069 9.1702814 -1.9260904
9.4458771 9.105588 -1.9246105
9.4915419 9.0379105 -1.9225388
9.5316896 8.9652729 -1.9194312
9.576375 8.8971958 -1.9173595
9.6096544 8.8188782 -1.9130679
9.645998 8.7438087 -1.9095163
9.6839933 8.6706057 -1.9064088
9.7229357 8.5985756 -1.9035971
9.7673178 8.531599 -1.9019693
9.8075008 8.4611712 -1.8996016
9.847188 8.3905725 -1.8972338
9.8833513 8.3172588 -1.8942742
9.9182253 8.243186 -1.8911666
9.9625015 8.1771545 -1.8899827
10.005572 8.1102676 -1.8886509
10.054376 8.0481043 -1.888503
10.093482 7.9782882 -1.8865792
10.13211 7.9082956 -1.8846554
10.171826 7.8393373 -1.8830276
10.209504 7.7689919 -1.8811039
10.238003 7.6919456 -1.8775523
10.275475 7.621912 -1.8757764
10.312473 7.5517087 -1.8740007
10.336172 7.4720693 -1.8698572
10.368943 7.3993163 -1.8674895
10.411724 7.3338461 -1.8670455
10.452467 7.2670007 -1.8663056
10.491151 7.198812 -1.8652698
10.517108 7.1221061 -1.8620142
10.543342 7.0459018 -1.8589065
10.578119 6.9756327 -1.8574266
10.596681 6.8949556 -1.8531352
10.627968 6.8228612 -1.8512114
10.645401 6.742177 -1.84692
10.679859 6.6725397 -1.8457361
10.709654 6.6001391 -1.8438123
10.743189 6.5301929 -1.8426285
10.77033 6.4565244 -1.8404088
10.806339 6.3883047 -1.8398168
10.845333 6.321878 -1.8398168
10.885634 6.2561984 -1.8401128
10.916933 6.1853881 -1.8389289
10.965042 6.1240726 -1.8407047
10.981618 6.0452328 -1.8371532
11.041976 5.990468 -1.8411486
11.085503 5.9263325 -1.8423325
11.134784 5.8651142 -1.8445523
11.174073 5.7985039 -1.8451442
11.211203 5.730732 -1.8454401
11.247039 5.6622782 -1.8455881
11.285114 5.5949178 -1.8461801
11.350339 5.54075 -1.8513595
11.401952 5.4795675 -1.8543191
11.443405 5.4133086 -1.8556509
11.483579 5.3463302 -1.8568348
11.521562 5.2782388 -1.8577226
11.53119 5.1972866 -1.8540231
11.554726 5.122828 -1.8526913
11.577782 5.0482764 -1.8513595
11.603086 4.9748034 -1.8504715
11.636126 4.9046669 -1.8509154
11.672397 4.8358259 -1.8519514
11.710093 4.7674699 -1.8532832
11.7529 4.7010365 -1.855503
11.779683 4.6281104 -1.855207
11.806936 4.5553885 -1.855059
11.842989 4.4860091 -1.8563908
11.885124 4.4187703 -1.8587586
11.90458 4.3430505 -1.8575747
11.925418 4.2679243 -1.8566868
11.942049 4.1913967 -1.855207
11.95819 4.1148257 -1.8537271
11.983212 4.0413742 -1.8537271
12.02281 3.972734 -1.8560948
12.04696 3.8988886 -1.8560948
12.070656 3.8248963 -1.8560948
12.099566 3.7525175 -1.8569827
12.137506 3.6827984 -1.8593504
12.156082 3.6071296 -1.8587586
12.179886 3.5330243 -1.8590544
12.201334 3.4582233 -1.8590544
12.209933 3.3798635 -1.8571308
12.218029 3.3015285 -1.855207
12.255271 3.2310345 -1.8578707
12.310307 3.164885 -1.863346
12.315104 3.0856864 -1.8611263
12.320354 3.0067828 -1.8590544
12.386683 2.9425547 -1.8664536
12.417032 2.8693895 -1.8683773
12.430545 2.7922795 -1.8677855
12.435848 2.7134256 -1.8660097
12.42614 2.6315396 -1.8620142
12.469179 2.5608132 -1.8661577
12.470107 2.4813616 -1.8639379
12.473444 2.4025562 -1.8621621
12.542399 2.3361115 -1.8704491
12.568177 2.2612092 -1.8722249
12.584739 2.184557 -1.8726689
12.601808 2.1079497 -1.8732607
