# .PCD v0.7 - Point Cloud Data file format
VERSION 0.7
FIELDS x y z
SIZE 4 4 4
TYPE F F F
COUNT 1 1 1
WIDTH 1518
HEIGHT 1
VIEWPOINT 0 0 0 1 0 0 0
POINTS 1518
DATA ascii
8.6084108 -4.3301635 -1.639383
8.5597467 -4.3716969 -1.6350933
8.5231409 -4.419147 -1.6332059
8.4740715 -4.4598875 -1.6289163
8.4135284 -4.4941573 -1.622396
8.3831959 -4.5442882 -1.6218812
8.3378916 -4.586143 -1.6184496
8.3267994 -4.6468205 -1.6218812
8.2929869 -4.6949129 -1.6208518
8.2571888 -4.7417836 -1.6194791
8.2177238 -4.7864079 -1.6174201
8.1729336 -4.8277202 -1.6143315
8.1321707 -4.8711948 -1.612101
8.0970764 -4.917932 -1.6110715
8.0726204 -4.971139 -1.6122725
8.0419655 -5.0205784 -1.6122725
7.9968581 -5.0608702 -1.6093556
7.9399509 -5.0933499 -1.6040365
7.9242406 -5.1521778 -1.6072966
7.8974137 -5.2039561 -1.6083261
7.875165 -5.258882 -1.6103851
7.802772 -5.2800455 -1.6019773
7.7686024 -5.3267083 -1.6016343
7.7187829 -5.3624692 -1.5980309
7.65029 -5.3847756 -1.5904812
7.6203141 -5.4339037 -1.5911676
7.590023 -5.4828668 -1.5918539
7.5363636 -5.5147882 -1.5875642
7.534039 -5.5843964 -1.5944277
7.4728479 -5.6104054 -1.5885937
7.4500442 -5.6650982 -1.5911676
7.3979735 -5.6974778 -1.5873927
7.3279214 -5.7154942 -1.5796713
7.2919412 -5.7597389 -1.5794997
7.2618475 -5.8086815 -1.5807009
7.2230077 -5.8506494 -1.5800145
7.1938276 -5.9004822 -1.5815587
7.1324801 -5.9237375 -1.5758965
7.1208777 -5.9883175 -1.5815587
7.0562496 -6.0082626 -1.5752101
7.0043292 -6.0385785 -1.5717784
6.9782772 -6.0911617 -1.5743521
6.9429855 -6.1358223 -1.5748669
6.878778 -6.1546564 -1.5686898
6.8182526 -6.1762419 -1.5633707
6.7758713 -6.2139659 -1.5623412
6.728231 -6.2467093 -1.5601106
6.722075 -6.3182421 -1.567832
6.6567769 -6.3342385 -1.5614833
6.6355209 -6.3920536 -1.5657729
6.5912385 -6.4278331 -1.5645719
6.5558801 -6.4723082 -1.5656013
6.5327644 -6.529129 -1.5697194
6.4676518 -6.5438623 -1.5635424
6.4170556 -6.5728488 -1.5609685
6.3786559 -6.6142268 -1.5614833
6.3087368 -6.6225648 -1.5541052
6.292284 -6.6869822 -1.5602822
6.2705827 -6.7463937 -1.5652581
6.2610459 -6.8195801 -1.5734942
2.2084553 -2.4341798 -0.53351623
2.1928208 -2.4469509 -0.53334463
2.1764598 -2.4588838 -0.53300148
5.9686484 -6.8302155 -1.5408931
5.925983 -6.8659639 -1.5407214
5.8850207 -6.9036956 -1.5410646
5.8590441 -6.9592724 -1.5455259
5.8105645 -6.9882731 -1.5439816
5.7469478 -6.9986668 -1.5383192
5.7274723 -7.0628781 -1.5448395
5.7308211 -7.1563368 -1.55788
5.655643 -7.1519518 -1.5491291
2.0361328 -2.6063561 -0.53711951
1.99845 -2.5907109 -0.53094244
1.9807262 -2.6005726 -0.53042769
1.9653239 -2.6134648 -0.5305993
1.950425 -2.6270568 -0.53094244
1.827741 -2.4935281 -0.49954236
1.8037481 -2.4927206 -0.49696857
1.8044442 -2.5261939 -0.50177294
5.1853156 -7.3581796 -1.5288821
5.1642537 -7.4246378 -1.5362602
5.1358814 -7.4813657 -1.5415794
5.0843554 -7.5045815 -1.5398636
5.0748916 -7.5905137 -1.5513598
4.997304 -7.5746331 -1.5415794
4.93085 -7.5746021 -1.5352308
4.9045072 -7.6362162 -1.541751
4.8528156 -7.6586761 -1.5402067
4.8146067 -7.7025108 -1.5431237
4.7439919 -7.6941686 -1.5354023
1.7570156 -2.8877978 -0.54981685
1.7397699 -2.8993692 -0.54998839
1.7274625 -2.919318 -0.55187583
4.5527463 -7.8065724 -1.5350592
4.4846306 -7.7993422 -1.5280242
4.4585481 -7.8652821 -1.5357455
4.3943486 -7.864109 -1.5300832
4.3569412 -7.9107733 -1.5340296
4.3022118 -7.9261012 -1.5317991
4.2530322 -7.9514813 -1.5316274
4.1977344 -7.9652252 -1.5292252
4.1623969 -8.0170641 -1.5343728
4.1126781 -8.0415764 -1.5342013
4.0535107 -8.0473013 -1.5304264
4.0149989 -8.0940876 -1.534716
3.9514272 -8.0902414 -1.5292252
3.9034193 -8.1178865 -1.5299116
3.8547993 -8.1443558 -1.5304264
3.8026745 -8.1633902 -1.5295684
3.7451262 -8.1704473 -1.52648
3.6997814 -8.204051 -1.5285389
3.6473758 -8.2220955 -1.527681
3.5972512 -8.245223 -1.5278525
3.5458152 -8.2653294 -1.5275095
3.4950333 -8.286931 -1.5275095
3.4426115 -8.3045797 -1.526823
3.3901043 -8.3218966 -1.5261368
3.3290977 -8.3178453 -1.5215039
3.2852044 -8.3564539 -1.5249356
3.236351 -8.3828878 -1.5261368
3.186599 -8.4071941 -1.5269947
3.1287725 -8.4099674 -1.5239061
3.073396 -8.4188271 -1.5220187
3.0243375 -8.4449463 -1.5233914
2.9705052 -8.4577675 -1.5223619
2.9179122 -8.4739714 -1.5220187
2.8655472 -8.4907827 -1.5218471
2.8130856 -8.5072699 -1.5216755
2.7620466 -8.52812 -1.5223619
2.7069881 -8.5364542 -1.5208176
2.6387956 -8.5020933 -1.511552
2.5877225 -8.5218954 -1.5122384
2.5451963 -8.5706682 -1.5182438
2.5079336 -8.6391087 -1.5278525
2.4511156 -8.6410646 -1.5254503
2.3967345 -8.6511946 -1.5245925
2.338208 -8.6457663 -1.5209892
2.2770753 -8.629467 -1.5154984
2.2186844 -8.6222858 -1.5117235
2.1626236 -8.6233139 -1.509493
2.1087368 -8.6325932 -1.5088066
2.0600562 -8.6635809 -1.5120667
2.0013113 -8.6520615 -1.5077771
1.9514256 -8.6785965 -1.5103509
1.9029702 -8.7125444 -1.5142974
1.8415118 -8.68647 -1.5076056
0.52797723 -2.5639906 -0.41700986
0.51281196 -2.5700805 -0.41752461
0.49479565 -2.5615702 -0.41546559
0.47798601 -2.5587471 -0.41443607
0.4680362 -2.5936282 -0.42009839
0.45851904 -2.6333354 -0.42661864
1.4491066 -8.651619 -1.4889027
0.43180886 -2.6737788 -0.4327957
0.41675085 -2.6851401 -0.43433997
0.4007014 -2.6905701 -0.43485472
0.38446227 -2.6949289 -0.43519789
1.0337123 -7.5937891 -1.2958694
1.0507225 -8.0904341 -1.3820051
0.33056626 -2.6673281 -0.42919242
0.31809488 -2.702574 -0.43502632
0.89836395 -8.0790291 -1.3768576
0.85298687 -8.1245613 -1.3838925
0.79857391 -8.0835629 -1.375828
0.74397081 -8.0343561 -1.3663909
0.67721593 -7.836576 -1.3310443
0.628411 -7.8317456 -1.3295001
0.57954562 -7.8246469 -1.3276126
0.53418732 -7.867372 -1.334476
0.49916694 -8.0858459 -1.3720531
0.44398198 -7.9884233 -1.3545516
0.38404727 -7.7696028 -1.3159448
0.33547518 -7.7511435 -1.3123416
0.29897791 -8.0523424 -1.3645035
0.25047514 -8.0835667 -1.369651
0.20104088 -8.0918455 -1.3708521
0.15442163 -8.2564363 -1.3993353
0.10706297 -8.5232038 -1.4456632
0.05678324 -8.8448591 -1.5016
0.0025115877 -8.8479967 -1.5021148
-0.051890742 -8.8665638 -1.5053749
-0.10655664 -8.8877506 -1.5091498
-0.1612507 -8.8957939 -1.510694
-0.21597539 -8.900547 -1.5117235
-0.27058405 -8.8990536 -1.5117235
-0.32536307 -8.9021482 -1.5125815
-0.37989521 -8.898016 -1.5122384
-0.43414792 -8.8886299 -1.5110372
-0.4885709 -8.883831 -1.510694
-0.54313213 -8.881649 -1.5108657
-0.59967381 -8.9086208 -1.5161848
-0.65352923 -8.8939657 -1.5142974
-0.70832431 -8.8927345 -1.5148121
-0.76506954 -8.9137411 -1.5192733
-0.81974882 -8.9088793 -1.5192733
-0.87391514 -8.8987789 -1.5184155
-0.92501807 -8.8599348 -1.5125815
-0.98261732 -8.8834686 -1.517729
-1.0420278 -8.9193468 -1.5251073
-1.0976999 -8.9206076 -1.52648
-1.1508977 -8.9019804 -1.5244209
-1.2064246 -8.9015846 -1.525622
-1.2575605 -8.8696299 -1.5213324
-1.312393 -8.8646698 -1.5218471
-1.3663098 -8.853529 -1.5213324
-1.4252988 -8.8741598 -1.52648
-1.4815084 -8.8759356 -1.5283673
-1.5325767 -8.8472643 -1.5249356
-1.5802128 -8.800848 -1.5184155
-0.55077755 -2.9670782 -0.48667344
-0.57120621 -2.9752519 -0.48873249
-0.59213996 -2.9852188 -0.49113467
-0.61222756 -2.9902151 -0.49267894
-1.8838913 -8.9111223 -1.5474133
-1.9211198 -8.8195019 -1.5331718
-0.66781104 -2.981323 -0.49319369
-0.6838755 -2.9675701 -0.49147785
-0.69911402 -2.9508569 -0.48924723
-0.7169736 -2.9455545 -0.48907566
-2.1914699 -8.7592888 -1.5336865
-2.2370868 -8.7141895 -1.5280242
-2.2731991 -8.6345644 -1.5161848
-0.78467995 -2.910903 -0.4861587
-0.7962234 -2.883245 -0.48204064
-0.81094694 -2.8678784 -0.48015323
-0.82743168 -2.8590636 -0.47946689
-2.5649974 -8.6552238 -1.5333433
-2.6189141 -8.6421509 -1.5338581
-2.6681011 -8.6136856 -1.5316274
-1.0106505 -3.1957366 -0.54484087
-1.0432752 -3.2297821 -0.55221903
-1.0673976 -3.2364168 -0.55462122
-2.8657885 -8.5073357 -1.5245925
-1.1124789 -3.2389123 -0.55753815
-1.1297231 -3.2245882 -0.55616546
-1.1438477 -3.2018259 -0.55324852
-3.0942893 -8.4909039 -1.5350592
-3.1528494 -8.4893036 -1.5383192
-1.1645731 -3.0797999 -0.53454572
-1.1791955 -3.0615656 -0.53248674
-1.2058798 -3.0744469 -0.53626156
-1.2587289 -3.1520655 -0.55221903
-3.4095459 -8.3831205 -1.5372897
-3.4541359 -8.3456583 -1.5342013
-3.5037491 -8.3206758 -1.5335149
-3.566766 -8.3270922 -1.5388341
-3.6083477 -8.2833748 -1.534716
-3.6670873 -8.2790928 -1.5381477
-3.717818 -8.2564354 -1.5381477
-1.3216516 -2.8894415 -0.51447028
-1.3381091 -2.878598 -0.51395553
-3.8594773 -8.1661196 -1.5342013
-3.9188948 -8.1618214 -1.5379761
-3.9745166 -8.1491318 -1.5402067
-4.0301304 -8.1360674 -1.5424373
-4.084847 -8.1208658 -1.5443248
-4.1251869 -8.0772257 -1.5407214
-4.1724024 -8.047389 -1.5398636
-4.2290444 -8.0355844 -1.5426089
-4.2843056 -8.0207796 -1.5448395
-4.3395443 -8.005599 -1.5470701
-4.3852596 -7.9727798 -1.545869
-4.4254541 -7.9302382 -1.5427805
-4.5017009 -7.9517984 -1.5525608
-4.564147 -7.9479461 -1.5573653
-4.6053896 -7.907023 -1.5547915
-4.655323 -7.8811607 -1.5553062
-4.7005553 -7.8473773 -1.5542767
-4.7051377 -7.7468204 -1.5396919
-4.7107315 -7.6498609 -1.5257936
-4.7377524 -7.5890589 -1.5192733
-4.7842288 -7.5598459 -1.5192733
-4.8496785 -7.5601974 -1.5254503
-4.9196086 -7.5666366 -1.5330001
-4.9789557 -7.5560498 -1.5371182
-5.0405469 -7.5482955 -1.5419226
-5.1232142 -7.5710711 -1.5532472
-5.1796031 -7.5541172 -1.5563357
-5.2702699 -7.5861053 -1.569891
-5.3042407 -7.5359025 -1.5661161
-5.3063307 -7.4414568 -1.552904
-5.3813171 -7.4494824 -1.5616549
-5.4490361 -7.4465318 -1.5681751
-5.4740887 -7.3852587 -1.5621697
-5.5275826 -7.3625598 -1.5645719
-5.5857759 -7.3457556 -1.5683467
-5.6620064 -7.3519268 -1.5772691
-5.7039804 -7.3131633 -1.5764112
-5.7463026 -7.2749348 -1.5757248
-5.7920637 -7.2410774 -1.576068
-5.8363848 -7.2054019 -1.576068
-5.8829861 -7.1725016 -1.5767543
-5.9073696 -7.1127777 -1.5714352
-5.9680243 -7.0967526 -1.576068
-6.0318975 -7.0840001 -1.5815587
-6.0816841 -7.0543165 -1.5832746
-6.1319818 -7.0250306 -1.585162
-6.1769285 -6.9894872 -1.5856768
-6.2479496 -6.9830217 -1.593055
-6.2900176 -6.9438233 -1.5928833
-6.340497 -6.9138098 -1.5949425
-6.39956 -6.8928223 -1.5992321
-6.4376841 -6.8491192 -1.5982025
-6.4958892 -6.8266158 -1.6023206
-4.1458392 -4.304338 -1.0019438
-4.2705436 -4.3796654 -1.0264806
-4.2253447 -4.2804766 -1.0086358
-4.3176985 -4.3206587 -1.0249363
-4.3259082 -4.2760811 -1.020475
-3.4764407 -3.3948042 -0.80736625
-3.5113897 -3.387085 -0.81079793
-3.4036942 -3.2431796 -0.77991259
-3.432858 -3.2310092 -0.78214324
-4.5416427 -4.2218466 -1.0410653
-3.5136189 -3.2266116 -0.79192358
-3.5384598 -3.2096238 -0.79312468
-3.5646923 -3.1937668 -0.79466891
-3.461726 -3.0634851 -0.76618576
-3.4159112 -2.9857965 -0.7512579
-3.4423721 -2.9718602 -0.75314534
-4.6692452 -3.980768 -1.0297407
-3.7438924 -3.1527014 -0.81354332
-3.8313506 -3.1863484 -0.82898599
-4.5277591 -3.7184947 -0.98152524
-4.5757442 -3.7111166 -0.98718756
-4.6115031 -3.6934376 -0.9901045
-4.6379428 -3.6681273 -0.99096245
-4.6650224 -3.6432376 -0.99199194
-4.7161589 -3.6367986 -0.99834061
-4.7666068 -3.6292717 -1.0045177
-4.7990246 -3.6076498 -1.0067483
-4.8361034 -3.5892885 -1.0100083
-4.7404065 -3.4733934 -0.98461378
-4.7991519 -3.4713714 -0.99267828
-4.8380032 -3.4544501 -0.99645317
-4.8172288 -3.3951952 -0.98753071
-4.8250289 -3.3565743 -0.98478538
-4.8682775 -3.3425143 -0.98958975
-4.893589 -3.3158951 -0.99061924
-4.8204708 -3.2233963 -0.97105855
-4.9100623 -3.2398634 -0.98564327
-4.8588381 -3.1634614 -0.97088695
-4.8176408 -3.0947318 -0.95836121
-4.9330792 -3.1262672 -0.97826511
-4.9947772 -3.1225653 -0.98701596
-5.0364866 -3.1058164 -0.99164879
-5.0790191 -3.0891845 -0.99645317
-4.9686041 -2.9804511 -0.9702006
-4.9995189 -2.9574294 -0.97277439
-5.1009774 -2.9753249 -0.98958975
-5.0286016 -2.8919272 -0.97140169
-5.2176733 -2.9581616 -1.0057187
-5.2529273 -2.9356999 -1.0091505
-5.2320065 -2.882031 -1.0014291
-5.2236147 -2.835778 -0.99628156
-5.2122469 -2.7883432 -0.99061924
-5.2240281 -2.7535539 -0.98958975
-5.3020334 -2.753217 -1.0016007
-5.3258448 -2.7242203 -1.0029734
-5.3450994 -2.6928194 -1.0034882
-5.395061 -2.6766033 -1.0100083
-5.3848243 -2.630482 -1.0048609
-5.3742256 -2.5845876 -0.99971324
-5.4968457 -2.6021254 -1.0203035
-5.3421288 -2.4889157 -0.98753071
-5.3734212 -2.4634771 -0.99061924
-5.5060897 -2.4835002 -1.0130969
-5.4041476 -2.3977509 -0.99079084
-5.4882913 -2.3948717 -1.0040029
-5.5137477 -2.3658106 -1.0060619
-5.5027423 -2.321218 -1.0012575
-5.4895778 -2.2760959 -0.99610996
-5.5317249 -2.2538877 -1.0014291
-5.5948434 -2.2396646 -1.0106947
-5.5873914 -2.1970055 -1.0067483
-5.6320162 -2.1747403 -1.0125822
-5.6784196 -2.1527078 -1.0187593
-5.7136827 -2.1260667 -1.0228773
-5.7451301 -2.0977225 -1.026309
-5.7551107 -2.0614355 -1.0257943
-5.7295394 -2.0127041 -1.0187593
-5.7026567 -1.964044 -1.0115527
-5.695931 -1.922718 -1.0081209
-5.7581329 -1.9044276 -1.0173866
-5.8156366 -1.8839284 -1.0257943
-5.8486862 -1.8550553 -1.0297407
-5.9013596 -1.8319772 -1.0372905
-5.9794216 -1.8160475 -1.0494729
-6.1510072 -1.8269811 -1.0786425
-6.2907772 -1.8265413 -1.1019781
-6.2781711 -1.7811893 -1.0976884
-6.4086118 -1.7757593 -1.1193081
-6.4241419 -1.7376888 -1.1201661
-6.5194645 -1.7205979 -1.1354371
-6.866704 -1.7671825 -1.1960068
-6.93571 -1.7396268 -1.2064735
-7.1568065 -1.7484413 -1.2442222
-7.3581367 -1.7498229 -1.2783676
-7.8294654 -1.8111496 -1.3607286
-7.8856077 -1.7732267 -1.3687931
-8.0599651 -1.7605246 -1.3979626
-8.0494127 -1.7065443 -1.3941877
-7.9641967 -1.6374933 -1.3772007
-9.6466036 -1.9215435 -1.6742147
-9.8187962 -1.8932613 -1.7026979
-9.9067392 -1.847236 -1.7162532
-10.159315 -1.8298719 -1.7589779
-10.464456 -1.8185792 -1.8109682
-11.043836 -1.8494664 -1.9113456
-11.216433 -1.807672 -1.9398288
-11.259441 -1.7437876 -1.945491
-11.297215 -1.6787199 -1.9502954
-11.290722 -1.6070116 -1.9473784
-11.289632 -1.5362427 -1.945491
-11.249019 -1.4604781 -1.9367402
-11.244081 -1.3897375 -1.934338
-11.271965 -1.3230138 -1.9377697
-11.277912 -1.253608 -1.9374266
-11.268736 -1.182638 -1.9345095
-11.259113 -1.111828 -1.9315926
-11.278476 -1.0439014 -1.9338232
-11.270927 -0.97349298 -1.931421
-11.304185 -0.90651971 -1.9362254
-11.306587 -0.8369236 -1.9357107
-11.329203 -0.76873064 -1.9387991
-11.282574 -0.69605231 -1.9298768
-11.298436 -0.62746495 -1.9319358
-11.327657 -0.55938798 -1.936397
-11.298396 -0.48847133 -1.9307346
-11.335638 -0.4204109 -1.9367402
-11.319295 -0.35027179 -1.93348
-11.287745 -0.27998418 -1.9276462
-11.29516 -0.2108283 -1.9286757
-11.268659 -0.14117581 -1.9238713
-11.281135 -0.072104305 -1.9259303
-11.288261 -0.0028842557 -1.9271314
-11.273289 0.066290848 -1.9245576
-11.287446 0.13564029 -1.9271314
-11.270641 0.20460847 -1.924386
-11.257356 0.27347165 -1.922327
-11.230848 0.34178862 -1.9180374
-11.232477 0.4108378 -1.9187237
-11.216949 0.47920328 -1.9164931
-11.285629 0.55153805 -1.9290189
-11.241702 0.61855167 -1.9219838
-11.229829 0.68703574 -1.9206111
-11.228351 0.75612658 -1.9211259
-10.556913 -0.2686646 -1.9295568
-10.559345 -0.20390257 -1.9297402
-10.529925 -0.13870524 -1.9240589
-10.529595 -0.074085265 -1.9238757
-10.536734 -0.0094819432 -1.9251585
-10.521848 0.055093769 -1.9224095
-10.522294 0.11966471 -1.9225928
-10.553798 0.18479276 -1.9286406
-10.528878 0.24898927 -1.9242421
-10.512413 0.31315008 -1.9214932
-10.530925 0.37838763 -1.9253418
-10.481259 0.44101515 -1.916545
-10.463627 0.50460893 -1.9137961
-10.527084 0.57243013 -1.9262581
-10.475291 0.6341036 -1.9172782
-10.499649 0.7002629 -1.9225928
-10.448092 0.76124722 -1.9137961
-10.460865 0.8267346 -1.9170948
-10.429148 0.88865322 -1.9121467
-10.445037 0.9545961 -1.9161786
-10.457573 1.020481 -1.9196606
-10.419825 1.0813822 -1.9137961
-10.425696 1.1466933 -1.9161786
-10.385263 1.2067859 -1.9099475
-10.363026 1.2686946 -1.9071985
-10.355046 1.332257 -1.9071985
-10.331089 1.3936672 -1.9042664
-10.329157 1.4579928 -1.9055492
-10.33655 1.5237806 -1.9086647
-10.289111 1.5813532 -1.9015173
-10.32775 1.6522191 -1.9106805
-10.328086 1.7173312 -1.9126965
-10.299916 1.7776619 -1.9093977
-10.282042 1.8396158 -1.9081149
-10.297626 1.9076836 -1.9132463
-10.303105 1.974162 -1.916545
-10.29562 2.0382979 -1.9174614
-10.289661 2.1028099 -1.9187442
-10.236164 2.157393 -1.9110471
-10.214087 2.2182829 -1.9093977
-10.194528 2.2796266 -1.9082981
-10.163103 2.3381696 -1.9049994
-10.117951 2.3932452 -1.8991349
-10.089703 2.452033 -1.8965691
-10.09259 2.5184176 -1.9000512
-10.079804 2.5810287 -1.900601
-10.072335 2.6450756 -1.9022504
-10.047373 2.704529 -1.900601
-10.055229 2.7729216 -1.9053659
-9.997344 2.823081 -1.8974855
-9.9666119 2.8805497 -1.8949198
-9.9723177 2.948617 -1.8995014
-9.9314537 3.002923 -1.8951031
-9.9212942 3.066417 -1.8967525
-9.934165 3.1372995 -1.9029834
-9.9137926 3.1978936 -1.9028002
-9.8631706 3.2485161 -1.8967525
-9.8654165 3.3164914 -1.9011508
-9.8448811 3.3769619 -1.9011508
-9.8341818 3.4408762 -1.9031667
-9.8054771 3.4985104 -1.9017006
-9.7505665 3.5465143 -1.8951031
-9.7507448 3.6144755 -1.8995014
-9.6980343 3.662776 -1.8934537
-9.6625319 3.7172718 -1.890888
-9.6450338 3.7786415 -1.8919876
-9.6198406 3.8370228 -1.891621
-9.6234417 3.9070697 -1.8971189
-9.6038303 3.9679213 -1.8980353
-9.5620832 4.019537 -1.8945533
-9.5128345 4.0676985 -1.889605
-9.5165453 4.138536 -1.8954695
-9.5125513 4.2063913 -1.8998679
-9.4856653 4.264277 -1.8996847
-9.4611101 4.3232169 -1.9000512
-9.4165726 4.3729072 -1.8963859
-9.3433323 4.4087911 -1.8868561
-9.3515635 4.4830346 -1.8941867
-9.3159256 4.5364571 -1.8925374
-9.2570724 4.5782814 -1.8861231
-9.208601 4.6248484 -1.8819079
-9.1835527 4.6830506 -1.8826411
-9.1721058 4.7483501 -1.8863063
-9.1454086 4.8059115 -1.8868561
-9.0940628 4.8503709 -1.8822745
-9.0468388 4.8967218 -1.8786092
-8.9959431 4.940783 -1.8742108
-9.016983 5.0245972 -1.8852067
-8.9774246 5.0749922 -1.8833741
-8.9520855 5.1334043 -1.8846569
-8.9272175 5.1921902 -1.8861231
-8.857934 5.2248945 -1.8780594
-8.8231764 5.2776332 -1.8775096
-8.8561916 5.3714342 -1.8918042
-8.8038054 5.4138308 -1.8875892
-8.7278748 5.4412251 -1.8782426
-8.7167616 5.5088553 -1.8831909
-8.6736898 5.5564041 -1.8811749
-8.5957336 5.5811486 -1.8714619
-8.57693 5.6440525 -1.8749439
-8.5339575 5.6911197 -1.8731112
-8.5021353 5.7455773 -1.8738443
-8.4626656 5.7948604 -1.872928
-8.4188719 5.8410735 -1.8710953
-8.412632 5.913537 -1.8778762
-8.3601732 5.9536405 -1.8742108
-8.3346462 6.012877 -1.8767766
-8.3095007 6.0726047 -1.8795255
-8.3281851 6.1650019 -1.8925374
-8.2217703 6.1646824 -1.8765932
-8.2041454 6.2304716 -1.8813581
-8.1626444 6.2782969 -1.8806251
-8.1387033 6.3397412 -1.8841071
-8.0981073 6.3883424 -1.8837407
-8.0925522 6.4649076 -1.8918042
-8.0573177 6.5181503 -1.8929039
-8.0346632 6.5817938 -1.8971189
-7.9767237 6.6165352 -1.8929039
-7.9337168 6.6634583 -1.892354
-7.9061613 6.7234759 -1.8956529
-7.8602881 6.7680125 -1.8945533
-7.8230586 6.8199906 -1.8956529
-7.805388 6.8893304 -1.9017006
-7.7673669 6.9410238 -1.9028002
-7.7355666 6.998445 -1.9055492
-7.6787052 7.0331626 -1.9020671
-7.6296391 7.0747991 -1.900601
-7.5839348 7.119462 -1.9000512
-7.5636244 7.1882095 -1.906099
-7.5016646 7.2174449 -1.9015173
-7.4558296 7.2619662 -1.9011508
-7.39853 7.2951541 -1.8978521
-7.3995504 7.3862491 -1.9099475
-7.3437171 7.421032 -1.9071985
-7.2918596 7.4596257 -1.9055492
-7.3060446 7.5664577 -1.9216765
-7.2431951 7.5940723 -1.9172782
-7.2038784 7.6462431 -1.919294
-7.1487894 7.6816659 -1.9170948
-7.1035166 7.7275567 -1.9176446
-7.05795 7.773181 -1.9181944
-7.0258756 7.8339052 -1.9225928
-6.9692006 7.8673019 -1.9202104
-6.9039655 7.8906803 -1.9154454
-6.858633 7.9366126 -1.9163618
-6.8321438 8.0047169 -1.9227761
-6.7892356 8.0540037 -1.9246087
-6.7409472 8.0970211 -1.9249753
-6.6855187 8.1313963 -1.9233259
-6.6367393 8.1737909 -1.9236923
-6.5975308 8.2281647 -1.9269912
-6.5615659 8.2869883 -1.9313896
-6.5105944 8.3270931 -1.9313896
-6.4557734 8.362216 -1.93029
-6.4234138 8.4266872 -1.9361545
-6.3786817 8.4753675 -1.9383537
-6.3376985 8.5293388 -1.9418356
-6.2858257 8.5688581 -1.9420189
-6.2244806 8.5953236 -1.9392699
-6.1744819 8.6373529 -1.9401863
-6.136672 8.696763 -1.9451344
-6.0994883 8.7576466 -1.9504491
-6.0400686 8.7868061 -1.9486165
-5.9656186 8.793602 -1.9418356
-5.932333 8.8610821 -1.9487997
-5.8686385 8.8833723 -1.9456842
-5.8134837 8.9183903 -1.945501
-5.7671609 8.9671221 -1.9484332
-5.6978097 8.979929 -1.943485
-5.6499052 9.0263863 -1.9460508
-5.5846004 9.0449915 -1.9425687
-5.538712 9.0950403 -1.9460508
-5.4848266 9.132225 -1.9467838
-5.4321961 9.171628 -1.9480667
-5.3659015 9.187809 -1.9444014
-5.3045192 9.2120419 -1.9425687
-5.2881794 9.3153725 -1.9577798
-5.2405238 9.3648014 -1.961445
-5.1953096 9.4191608 -1.9662099
-5.1482162 9.470727 -1.970425
-5.0839729 9.4908724 -1.9680425
-5.0132518 9.498415 -1.9630944
-4.9553299 9.5298691 -1.9632777
-4.8981071 9.5627193 -1.9638275
-4.8380108 9.5899611 -1.9632777
-4.765954 9.5930538 -1.9577798
-4.7238512 9.6565561 -1.9649271
-4.6730423 9.7030725 -1.9685924
-4.6235251 9.752882 -1.9729908
-4.5627642 9.7792864 -1.9726242
-4.5080066 9.8187132 -1.9750066
-4.4347239 9.8175201 -1.9691422
-4.3799901 9.8571234 -1.9717078
-4.3269057 9.9009275 -1.9751899
-4.2901397 9.9832878 -1.9865524
-4.2276549 10.006707 -1.9860026
-4.1586342 10.014302 -1.9823372
-4.1019387 10.051462 -1.9847196
-4.0500655 10.101078 -1.9896678
-3.9836869 10.114762 -1.9874686
-3.9180024 10.129848 -1.985636
-3.8592634 10.162887 -1.9874686
-3.7978625 10.189139 -1.9880184
-3.7318945 10.203018 -1.9861858
-3.678185 10.250708 -1.9911339
-3.6129341 10.266592 -1.9898511
-3.5543609 10.301578 -1.9924169
-3.4926593 10.327849 -1.9933331
-3.4397376 10.380813 -1.9995642
-3.3777983 10.407333 -2.0006638
-3.3108988 10.418494 -1.998831
-3.2463257 10.436736 -1.9984646
-3.1908135 10.484673 -2.0039625
-3.1306279 10.518187 -2.0067115
-3.0709751 10.554188 -2.0100102
-3.0029314 10.561485 -2.0078111
-2.9420168 10.593921 -2.01056
-2.8846765 10.640237 -2.016058
-2.8163176 10.646333 -2.0138588
-2.7472558 10.649135 -2.0111098
-2.6710732 10.622889 -2.0028629
-2.6065438 10.641943 -2.0034127
-2.5396006 10.651042 -2.0021298
-2.4790871 10.687492 -2.0061617
-2.4108677 10.690994 -2.0039625
-2.3555334 10.75264 -2.0129426
-2.2923751 10.780353 -2.0155082
-2.2130771 10.730671 -2.0034127
-2.1520107 10.768148 -2.0079944
-2.087579 10.789837 -2.0096438
-2.018441 10.786982 -2.0067115
-1.9595616 10.839793 -2.0144086
-1.8965615 10.87195 -2.0182571
-1.8286755 10.876596 -2.0169742
-1.7537354 10.83715 -2.0074446
-1.685998 10.839935 -2.0059783
-1.6307759 10.925915 -2.0202732
-1.5542402 10.86954 -2.0078111
-1.4908471 10.903223 -2.0123928
-1.4215007 10.893644 -2.0089107
-1.3588756 10.936305 -2.0153248
-1.2866745 10.901481 -2.0072613
-1.2223825 10.932618 -2.0116596
-1.1608552 10.992704 -2.0215559
-1.0918269 10.983969 -2.0186238
-1.0201203 10.944457 -2.0100102
-0.95840394 11.013189 -2.0217392
-0.8873232 10.975748 -2.0136755
-0.82142532 11.000593 -2.0173409
-0.75485259 11.019156 -2.0199065
-0.68606323 11.004939 -2.0164244
-0.62067735 11.04722 -2.023572
-0.55179977 11.029221 -2.0195401
-0.48381341 11.025524 -2.0182571
-0.41537374 11.007655 -2.0144086
-0.34791747 11.012944 -2.0149584
-0.2803618 11.015855 -2.0151417
-0.21310681 11.035059 -2.0184405
-0.14552282 11.045989 -2.0202732
-0.077882245 11.066335 -2.0239384
-0.0099937785 11.082334 -2.0268707
0.057878584 11.05761 -2.022289
0.12565887 11.051148 -2.0211895
0.19308726 11.028545 -2.0171576
0.26066071 11.023222 -2.0164244
0.32849765 11.028294 -2.0177073
0.39566612 11.012316 -2.0151417
0.4623619 10.989055 -2.0112932
0.52840859 10.957535 -2.0059783
0.59744638 10.987461 -2.0122094
0.66479355 10.982608 -2.0120261
0.73243058 10.982245 -2.0127592
0.79701805 10.939306 -2.0056119
0.86830568 10.98713 -2.0155082
0.93403661 10.962006 -2.011843
0.99582517 10.89635 -2.0006638
1.0669599 10.934063 -2.0089107
1.1338271 10.925355 -2.0085442
1.2053549 10.959233 -2.0162413
1.2715559 10.942843 -2.0145919
1.330197 10.865554 -2.00158
1.3977196 10.864013 -2.0028629
1.4667187 10.872768 -2.0061617
1.5386249 10.900555 -2.0131257
1.5954471 10.822829 -2.0002973
1.6652585 10.835184 -2.0045123
1.7228611 10.769431 -1.9940662
1.799226 10.820722 -2.0057952
1.8701001 10.835634 -2.0107434
1.9252996 10.761054 -1.998831
1.9898598 10.741305 -1.997365
2.0503659 10.700894 -1.9920503
2.1131234 10.673647 -1.9893013
2.1807408 10.671075 -1.9913173
2.2477977 10.665189 -1.9927833
2.3165333 10.666566 -1.9957156
2.3993123 10.729861 -2.01056
2.4459319 10.631587 -1.994616
2.5099888 10.611596 -1.9936997
2.5871229 10.645669 -2.0032294
2.668339 10.693501 -2.0155082
2.7100086 10.583596 -1.9975482
2.7709026 10.551556 -1.994616
2.8368711 10.539102 -1.9955323
2.9080172 10.545189 -2.000114
2.9601119 10.482681 -1.9915005
3.0115497 10.419933 -1.982887
3.0712478 10.387118 -1.9801381
3.1431744 10.395367 -1.9854528
3.2031267 10.363675 -1.9830703
3.2648807 10.338201 -1.9819707
3.33972 10.353526 -1.9889348
3.3988802 10.319767 -1.986369
3.4652693 10.308036 -1.9882017
3.5255826 10.278211 -1.9865524
3.5876083 10.253601 -1.9860026
3.6382339 10.197136 -1.9792217
3.7158535 10.216194 -1.9874686
3.7812021 10.200576 -1.9889348
3.8221879 10.120163 -1.9775723
3.8891532 10.109365 -1.9801381
3.9543369 10.09355 -1.9817874
4.002357 10.034398 -1.9748234
4.0586748 9.9968987 -1.9722576
4.1173105 9.9654474 -1.9709748
4.1795225 9.9427147 -1.9715246
4.2419972 9.9204979 -1.9722576
4.3004365 9.8888741 -1.971158
4.3570571 9.8533096 -1.9693254
4.4162245 9.8237 -1.9687756
4.4682479 9.7785349 -1.9651103
4.5356159 9.766983 -1.9684091
4.5879092 9.7229662 -1.9651103
4.6283598 9.6547403 -1.9568634
4.6849308 9.6208563 -1.9557638
4.7408247 9.5857611 -1.9544809
4.7933764 9.5441923 -1.9519153
4.8634586 9.5373707 -1.9566801
4.9042625 9.4733019 -1.9495327
4.9659553 9.4499931 -1.9509989
5.0243087 9.4202127 -1.9511821
5.0693817 9.3658628 -1.946234
5.1381111 9.3552618 -1.9506323
5.1891966 9.3123951 -1.9482499
5.2510762 9.2889376 -1.9500825
5.2981935 9.2394867 -1.9464172
5.3394656 9.180459 -1.9407361
5.395196 9.146677 -1.9405528
5.4547496 9.1193066 -1.9418356
5.49225 9.0554047 -1.9352381
5.526598 8.9872007 -1.9277242
5.5951595 8.9748116 -1.9324892
5.6590505 8.9544382 -1.9356046
5.7107058 8.9145803 -1.934505
5.7674384 8.8826704 -1.9352381
5.8083239 8.8265839 -1.9306564
5.8629184 8.7915964 -1.9308398
5.9200549 8.7603436 -1.9319394
5.9703636 8.7189875 -1.9308398
6.0276723 8.6878433 -1.9321226
6.0678644 8.6321964 -1.9279075
6.0979075 8.5627708 -1.9205769
6.1480322 8.5220051 -1.9198438
6.2036867 8.488883 -1.9209434
6.2574115 8.4530287 -1.9214932
6.302084 8.405036 -1.919294
6.3279729 8.3325443 -1.9114137
6.3562074 8.2639475 -1.9044496
6.3971291 8.2123823 -1.9015173
6.4480081 8.1737471 -1.9017006
6.5041752 8.1417103 -1.9035332
6.5261879 8.0672541 -1.8952863
6.6067114 8.0650835 -1.9044496
6.6654873 8.0357437 -1.9071985
6.7045527 7.9826488 -1.9042664
6.724113 7.9069104 -1.8958361
6.778275 7.8722081 -1.8974855
6.8180528 7.8208356 -1.8951031
6.865912 7.7788534 -1.8951031
6.9141679 7.7373118 -1.8952863
6.9667892 7.7005739 -1.8967525
7.0006285 7.6431823 -1.8930871
7.0427155 7.595037 -1.8918042
7.077075 7.5387793 -1.8885055
7.1204901 7.4923625 -1.8877724
7.1670098 7.4492397 -1.8879557
7.1968069 7.3889256 -1.8837407
7.2040486 7.3061261 -1.873661
7.2723546 7.2854419 -1.879892
7.3162217 7.2399912 -1.8797088
7.3647256 7.1990867 -1.8808084
7.4002733 7.1455674 -1.8786092
7.4162359 7.0735626 -1.8714619
7.4616456 7.0299468 -1.8720117
7.4880891 6.9686265 -1.8677965
7.5234694 6.9158959 -1.8659639
7.5599408 6.864316 -1.8644978
7.5675211 6.7869492 -1.8558843
7.6134377 6.7442994 -1.8569839
7.6531973 6.6961627 -1.8566173
7.6852145 6.6413636 -1.8544182
7.7332978 6.6004653 -1.8562509
7.7916903 6.5680976 -1.8606492
7.8220234 6.5119882 -1.8582667
7.7919745 6.4064293 -1.8414063
7.8898993 6.4062142 -1.8555177
7.9336605 6.361372 -1.8566173
7.9571295 6.3003669 -1.8529521
7.9809241 6.2399187 -1.84947
8.0167265 6.1890292 -1.8489202
8.0756598 6.1558146 -1.8538684
8.0850029 6.0848646 -1.8472708
8.1466475 6.0533185 -1.8529521
8.1741247 5.9962397 -1.8507529
8.2187252 5.9517374 -1.8525856
8.2278996 5.8817577 -1.8463545
8.2726698 5.8373961 -1.8483704
8.3551188 5.8191147 -1.8589998
8.3785152 5.7593856 -1.8562509
8.4096289 5.7051077 -1.8553345
8.4534616 5.6594162 -1.8573505
8.5036125 5.6177363 -1.8608325
8.5683928 5.5853171 -1.8676133
8.5727367 5.5134926 -1.8610158
8.5881453 5.4491997 -1.8569839
8.623085 5.3974447 -1.8573505
8.6727705 5.3547626 -1.8610158
8.71134 5.3050261 -1.8622986
8.7631102 5.2631168 -1.8665137
8.7884722 5.2052402 -1.8650476
8.8210945 5.1517129 -1.8652308
8.8406124 5.0906224 -1.8626652
8.8699713 5.0353112 -1.8622986
8.9281521 4.9961543 -1.8681631
8.916461 4.9180117 -1.8591831
9.0138369 4.8998322 -1.8734778
9.0515318 4.8486104 -1.8751272
9.0359039 4.7691169 -1.8655974
9.0902891 4.726737 -1.8709121
9.0989971 4.6605625 -1.866697
9.145854 4.6139436 -1.8705455
9.1704712 4.5559893 -1.8698125
9.1770601 4.4892664 -1.8654141
9.1707773 4.4166617 -1.8584501
9.2074757 4.3649406 -1.860466
9.2385397 4.310441 -1.8613822
9.2764282 4.259006 -1.8637648
9.3158245 4.2080774 -1.8665137
9.3558426 4.1572251 -1.8694459
9.3766708 4.0977716 -1.8685296
9.3691235 4.0261865 -1.861932
9.4380226 3.9873712 -1.8709121
9.4877319 3.9399428 -1.8760434
9.4907942 3.8731091 -1.8718284
9.5052567 3.8111429 -1.8699957
9.5275478 3.7523878 -1.8698125
9.5586443 3.6970491 -1.8714619
9.5443878 3.6243677 -1.8641312
9.6134253 3.5832489 -1.8734778
9.6250753 3.5204794 -1.8714619
9.6714783 3.4703202 -1.87641
9.625823 3.3874133 -1.863215
9.6845284 3.3414342 -1.8707287
9.7448921 3.2954917 -1.8786092
9.7471991 3.2297604 -1.8751272
9.7640276 3.1689813 -1.8745774
9.821701 3.1212194 -1.8820913
9.8509932 3.0641079 -1.8841071
9.8564415 2.9995983 -1.8815414
9.8548756 2.9331739 -1.8776928
9.8670235 2.871002 -1.8765932
9.8863459 2.8109429 -1.8769598
9.910037 2.7520702 -1.8782426
9.9257889 2.6909542 -1.8780594
9.976326 2.6390519 -1.8846569
9.9913797 2.577543 -1.8844737
9.9774523 2.5087559 -1.8787924
10.039444 2.4589496 -1.8877724
10.046693 2.395478 -1.8863063
10.050669 2.3313439 -1.8842905
10.065743 2.2698464 -1.8844737
10.078521 2.2078311 -1.8842905
10.102455 2.1481984 -1.8863063
10.081748 2.0792193 -1.879892
10.136732 2.0257983 -1.8879557
10.136424 1.9611342 -1.8855733
10.145368 1.8983588 -1.8850235
10.183911 1.8409699 -1.8901548
10.219227 1.7826723 -1.8947365
10.21737 1.7178154 -1.892354
10.12 1.6376548 -1.8720117
6.0617242 0.94263542 -1.1044974
0 0 -0
0 0 -0
0 0 -0
0 0 -0
0 0 -0
0 0 -0
0 0 -0
0 0 -0
0 0 -0
0 0 -0
0 0 -0
0 0 -0
0 0 -0
0 0 -0
0 0 -0
0 0 -0
0 0 -0
0 0 -0
0 0 -0
0 0 -0
0 0 -0
0 0 -0
0 0 -0
0 0 -0
0 0 -0
0 -0 -0
0 -0 -0
0 -0 -0
0 -0 -0
0 -0 -0
0 -0 -0
0 -0 -0
0 -0 -0
0 -0 -0
0 -0 -0
5.926754 -0.39545432 -1.068211
5.95363 -0.43395475 -1.0737089
5.9743757 -0.47233528 -1.0781072
0 -0 -0
0 -0 -0
6.0722952 -0.5927223 -1.0982665
9.5055666 -0.98653489 -1.7424432
9.3019447 -1.0231388 -1.7054237
9.1529236 -1.0636339 -1.6786669
9.0359612 -1.1062806 -1.657958
9.1820831 -1.1813922 -1.6867306
9.2165537 -1.2433599 -1.6946111
9.2223797 -1.3018112 -1.6971767
9.2278337 -1.3603809 -1.6997424
9.2154264 -1.416379 -1.6990094
9.1716156 -1.4673079 -1.6924119
9.129468 -1.5180751 -1.6861808
9.0550756 -1.5628643 -1.673902
9.0385418 -1.617184 -1.6726192
9.0158825 -1.6702857 -1.6702368
8.980361 -1.7207657 -1.6654719
8.9609547 -1.7741178 -1.6638225
8.9460468 -1.8282806 -1.6630894
8.3863554 -1.7675983 -1.5586283
8.8307123 -1.9178991 -1.645496
8.8820972 -1.9862036 -1.6575915
8.8697433 -2.0406656 -1.6575915
8.882885 -2.1011598 -1.6625396
8.8459435 -2.1498218 -1.657958
8.8373556 -2.2052488 -1.6588744
7.3732319 -1.8880969 -1.3797616
8.771595 -2.3035443 -1.6515437
8.8313398 -2.3772504 -1.6658385
8.7843647 -2.4225094 -1.6596074
8.7456837 -2.4696858 -1.6550258
8.7095881 -2.5172975 -1.6509939
8.6836081 -2.5676255 -1.648978
7.9835825 -2.4140377 -1.5157443
7.917901 -2.4473047 -1.5058481
7.9008608 -2.49525 -1.5054815
7.8966289 -2.547303 -1.5076807
7.9135308 -2.6064701 -1.5140949
8.6046486 -2.892709 -1.6531931
8.5932465 -2.9476843 -1.6544759
8.5907726 -3.0058746 -1.6575915
8.5749454 -3.059521 -1.6581413
8.5356855 -3.1046865 -1.6541095
8.5091009 -3.1542687 -1.6526433
8.4619961 -3.1960011 -1.6471454
7.596271 -2.9224529 -1.4781749
8.4001713 -3.2909968 -1.642747
8.389864 -3.3464832 -1.644763
8.354599 -3.391983 -1.6418307
8.310914 -3.4337983 -1.6372491
8.2996569 -3.4889185 -1.6392649
8.264535 -3.5339816 -1.636516
8.2192554 -3.5744331 -1.6317511
8.1944714 -3.6236055 -1.6312013
8.1738758 -3.6746237 -1.6315678
8.1341858 -3.7169464 -1.6280859
8.0835857 -3.7539523 -1.6224046
8.0541763 -3.8005452 -1.6211218
7.9890404 -3.8299215 -1.6125083
7.9468288 -3.8698318 -1.6086597
7.9740443 -3.9437945 -1.619289
8.0278826 -4.0319123 -1.6355997
8.0345211 -4.0971708 -1.6421973
7.9978805 -4.1405177 -1.6398147
7.9644918 -4.1853981 -1.6381654
7.9603462 -4.2457538 -1.642747
7.945384 -4.3006005 -1.6451294
7.893858 -4.3355484 -1.6398147
7.8087115 -4.3513656 -1.6273527
7.7741628 -4.3948431 -1.6257033
7.7743406 -4.4581094 -1.6315678
7.7170963 -4.4884305 -1.6251535
7.6851768 -4.5332003 -1.6242373
7.6521549 -4.5772424 -1.6231377
7.5575209 -4.583837 -1.6086597
7.6213689 -4.6867642 -1.6288189
7.5882969 -4.7308393 -1.6279025
7.5341949 -4.7615566 -1.6224046
7.4800029 -4.7917886 -1.6169066
7.4529338 -4.8392005 -1.6174564
7.3910728 -4.8637657 -1.6103091
7.3373709 -4.8932085 -1.6049944
7.3202415 -4.9469442 -1.6079266
7.2710934 -4.9789929 -1.6037116
7.2597914 -5.0369625 -1.60811
7.1949692 -5.0576701 -1.6004127
7.1790152 -5.1125569 -1.6038948
7.1371455 -5.1490335 -1.6015124
7.1292291 -5.2101297 -1.6070104
7.0615692 -5.2274566 -1.5987633
7.0505981 -5.2866092 -1.6037116
6.9812303 -5.3018289 -1.5950981
6.9594769 -5.3529553 -1.5976638
6.9202962 -5.3907247 -1.5961977
6.8924923 -5.4373469 -1.5974805
6.8267398 -5.4537668 -1.5897834
6.8137841 -5.5122452 -1.5947316
6.7897196 -5.562048 -1.597114
6.7539506 -5.6023493 -1.5967475
6.7111673 -5.6367307 -1.5947316
6.6749568 -5.6765299 -1.594365
6.6258459 -5.705193 -1.590883
6.595161 -5.7496171 -1.5919826
6.5538611 -5.7847719 -1.5905164
6.5277729 -5.8333917 -1.592899
6.4532189 -5.8383822 -1.5831859
6.4346728 -5.8938036 -1.5875843
6.3782034 -5.9144597 -1.5824528
6.3389258 -5.9507933 -1.5817198
6.276639 -5.9651971 -1.5751222
6.2781754 -6.0404015 -1.5850185
6.2600088 -6.0973287 -1.5899667
6.1727762 -6.0866208 -1.5769548
6.1429667 -6.132021 -1.5789708
6.0962362 -6.1605144 -1.5765883
6.067255 -6.206943 -1.5789708
6.0106177 -6.2249603 -1.5740227
5.978416 -6.268126 -1.575672
5.9304047 -6.2946739 -1.5731063
2.2355075 -2.4025505 -0.57266217
2.2213891 -2.4169457 -0.57284546
2.2058563 -2.4298027 -0.57266217
2.1922185 -2.4447556 -0.57302868
5.7012796 -6.4360981 -1.5637598
5.7018175 -6.5168281 -1.5751222
5.6520815 -6.5405345 -1.5723733
5.6022696 -6.5638762 -1.5696243
5.5561862 -6.591363 -1.5679748
5.50809 -6.6162653 -1.5657756
5.4617701 -6.6431036 -1.5641263
5.4041743 -6.6558862 -1.5591781
5.4001327 -6.7349367 -1.5701741
5.3794556 -6.7941484 -1.576405
2.0144711 -2.5769732 -0.57064629
1.9896095 -2.5776134 -0.56789726
1.9707762 -2.5858638 -0.56698096
1.9507343 -2.5924096 -0.56569809
1.9365499 -2.6066973 -0.56624788
1.8344573 -2.5012205 -0.53912467
1.8127327 -2.5036712 -0.53710872
1.7773259 -2.4867568 -0.53069448
4.8749533 -6.9088254 -1.5371864
4.8442693 -6.9555473 -1.5410349
4.7753248 -6.9470654 -1.5324215
4.7861457 -7.0551453 -1.5501982
4.7143254 -7.0419025 -1.5406684
4.6943307 -7.1059656 -1.5485488
4.6495671 -7.1329889 -1.5481822
4.6206026 -7.1845341 -1.5533136
4.5674782 -7.1986394 -1.5501982
4.539392 -7.2523608 -1.5558794
4.4901586 -7.2725496 -1.55423
4.4367576 -7.2856903 -1.5511144
1.7471457 -2.9095268 -0.59355438
1.7277572 -2.917655 -0.59300458
1.7113097 -2.930748 -0.59355438
4.2242427 -7.336154 -1.539019
4.2005048 -7.3995509 -1.5470827
4.155983 -7.4269009 -1.5474492
4.0975142 -7.4290204 -1.542501
4.04528 -7.4419308 -1.5399354
4.0046473 -7.4761443 -1.5419512
3.9660416 -7.5144858 -1.5448835
3.9026237 -7.5055366 -1.5379194
3.8609791 -7.5380907 -1.539752
3.8243957 -7.5809484 -1.5437839
3.776058 -7.6007504 -1.5430508
3.7332377 -7.6317239 -1.5447001
3.6752489 -7.6314592 -1.5399354
3.637198 -7.6725206 -1.5437839
3.5850635 -7.6840034 -1.5415847
3.5390785 -7.7085361 -1.5421345
3.4811904 -7.7068138 -1.5373696
3.4342358 -7.7289271 -1.5375528
3.3776925 -7.7291355 -1.5333377
3.3422368 -7.7777138 -1.539019
3.2944508 -7.7980752 -1.539019
3.2529507 -7.8335767 -1.5421345
3.2040806 -7.8515687 -1.541768
3.152185 -7.8619561 -1.5399354
3.0930772 -7.8537097 -1.5344373
3.0341897 -7.8450346 -1.5289394
2.9898357 -7.8736138 -1.5309553
2.9469619 -7.906549 -1.5338875
2.8970418 -7.9207897 -1.5331545
2.8490505 -7.9402671 -1.5335211
2.7911379 -7.9316344 -1.5283896
2.7491519 -7.9681263 -1.5322381
2.6998937 -7.9839134 -1.5320549
2.6520915 -8.0040617 -1.5327879
2.6062682 -8.0304699 -1.5348039
2.5506918 -8.0266361 -1.5309553
2.5008094 -8.0402584 -1.5305887
2.4531457 -8.0610943 -1.5316883
2.4128933 -8.1070871 -1.5377362
2.3595326 -8.1094694 -1.5353537
2.3032761 -8.1011009 -1.5309553
2.2416866 -8.0724564 -1.5227084
2.2039471 -8.1297045 -1.5311385
2.145725 -8.1117125 -1.5250908
2.0912457 -8.1066399 -1.5216088
2.0546515 -8.1717548 -1.5316883
2.0056415 -8.188982 -1.5326047
1.9482878 -8.1714907 -1.5269235
1.9005557 -8.1938248 -1.5289394
1.8413756 -8.1660147 -1.5214255
1.7897625 -8.1704369 -1.5201427
1.7334607 -8.1524181 -1.5146447
1.6843988 -8.1677151 -1.5155611
1.6315533 -8.1644011 -1.5129954
1.581987 -8.1771536 -1.5135452
1.5269003 -8.1606169 -1.508597
1.480822 -8.1920815 -1.512812
0.44793901 -2.5695791 -0.44712558
0.44830388 -2.6682549 -0.46526882
1.3165871 -8.1364346 -1.4974178
1.2504683 -8.0404224 -1.4778085
1.18311 -7.9273801 -1.4550836
1.1011801 -7.7019048 -1.4112833
1.0574982 -7.7348146 -1.4162314
1.0187976 -7.8084183 -1.4288766
0.9668656 -7.7823296 -1.4228289
0.91264111 -7.7334437 -1.4125661
0.86462605 -7.7340131 -1.4116497
0.81839406 -7.7509041 -1.4138489
0.77082002 -7.7557797 -1.4138489
0.7213915 -7.740787 -1.4101837
0.67379606 -7.7440886 -1.4100003
0.62476081 -7.7294598 -1.4065183
0.57322061 -7.6782489 -1.3962555
0.52582806 -7.6776986 -1.3955225
0.47809666 -7.670969 -1.3936898
0.42859152 -7.6305714 -1.3856261
0.38097662 -7.6173482 -1.3826939
0.33362642 -7.605793 -1.3801281
0.28873295 -7.65485 -1.3889248
0.24303238 -7.696763 -1.3964387
0.19918278 -7.83078 -1.4211795
0.15175782 -7.8642898 -1.4272273
0.10521472 -7.9948258 -1.4514183
0.057923771 -8.2450132 -1.4979676
0.0074161566 -8.334672 -1.5146447
-0.043785885 -8.3463573 -1.5168439
-0.0949305 -8.3400335 -1.5157443
-0.14601633 -8.3343792 -1.514828
-0.19782527 -8.3618269 -1.5201427
-0.24997653 -8.3889523 -1.5254574
-0.29971761 -8.3391218 -1.5164773
-0.35145792 -8.3508759 -1.5190431
-0.40103528 -8.3141947 -1.5126288
-0.45321614 -8.3331738 -1.5166607
-0.50451708 -8.3331795 -1.5172105
-0.5559659 -8.3348312 -1.5181267
-0.60752541 -8.3371458 -1.5192263
-0.65820527 -8.3273811 -1.5181267
-0.70970583 -8.328083 -1.5190431
-0.75819904 -8.2951813 -1.5137284
-0.808415 -8.2835245 -1.5124456
-0.86379135 -8.3224096 -1.5206925
-0.91892314 -8.354085 -1.5276566
-0.97198045 -8.3639135 -1.5305887
-1.0169528 -8.306076 -1.5208757
-1.0666447 -8.2899294 -1.5190431
-1.1191987 -8.2958937 -1.5214255
-1.167333 -8.2694016 -1.5177603
-1.2233545 -8.298068 -1.524541
-1.2773827 -8.3108101 -1.5283896
-1.3260239 -8.2882547 -1.5256406
-1.3804014 -8.3012972 -1.5296725
-1.4344872 -8.3110771 -1.5331545
-1.4887449 -8.3205051 -1.5366366
-1.5383383 -8.3034811 -1.5351704
-1.5816751 -8.2543001 -1.5276566
-1.6237031 -8.2010431 -1.5194097
-0.61208647 -2.9936914 -0.5305112
-0.63105202 -2.9927652 -0.53106099
-0.64961201 -2.9897976 -0.53124428
-0.66773033 -2.9847958 -0.53106099
-0.6855914 -2.9787264 -0.53069448
-0.7015931 -2.9648969 -0.52886182
-0.71977216 -2.9605362 -0.52886182
-0.73697227 -2.9522488 -0.52812874
-2.1089964 -8.2360592 -1.5457997
-2.155997 -8.2096519 -1.5432341
-0.78710085 -2.9229949 -0.52519649
-0.79927248 -2.8972609 -0.52116466
-0.81783605 -2.8951404 -0.52171451
-0 -0 -0
-1.0603812 -3.5853333 -0.65788043
-2.4888573 -8.2310658 -1.563943
-2.5108705 -8.1235943 -1.5459831
-2.5621488 -8.1127224 -1.5468994
-1.0457542 -3.2410605 -0.59575355
-1.0631614 -3.227113 -0.59428746
-2.7116697 -8.0660505 -1.5472659
-1.1058723 -3.2231224 -0.59612012
-1.1223818 -3.2069969 -0.59428746
-2.8365579 -7.9499574 -1.5344373
-2.9054439 -7.9878349 -1.5454333
-1.1491066 -3.0991464 -0.57706052
-1.1653225 -3.0846798 -0.57559443
-1.1909337 -3.0949044 -0.57907647
-1.2436061 -3.1735809 -0.59630334
-1.2575929 -3.1521935 -0.59355438
-3.193048 -7.8645501 -1.5432341
-3.2543809 -7.8766103 -1.5496484
-3.3026497 -7.8564939 -1.5496484
-3.3554318 -7.8469281 -1.5518476
-3.4144928 -7.8514342 -1.5569789
-3.4232481 -7.7413249 -1.5388358
-1.3127861 -2.9195454 -0.55763441
-1.3355778 -2.9221652 -0.55983365
-3.5639186 -7.6743279 -1.538286
-3.6453376 -7.7252192 -1.5533136
-3.6973443 -7.7124577 -1.5553296
-3.7398634 -7.6799035 -1.5533136
-3.7895308 -7.6620989 -1.5544132
-3.8408847 -7.6474876 -1.5562459
-3.8881831 -7.6246524 -1.5564291
-3.9425766 -7.6154928 -1.5595447
-3.987401 -7.5876775 -1.5588117
-4.0375838 -7.5700078 -1.5602777
-4.0881677 -7.5528722 -1.5619271
-4.1405864 -7.538847 -1.5643096
-4.192029 -7.5227456 -1.5663254
-4.2294016 -7.4814777 -1.5630267
-4.2752271 -7.4553857 -1.5630267
-4.3045831 -7.4009695 -1.5569789
-4.3524108 -7.3786516 -1.5578953
-4.4087048 -7.3703675 -1.5619271
-4.4492574 -7.3356123 -1.5602777
-4.4766769 -7.2797017 -1.5540468
-4.5280204 -7.2629418 -1.5564291
-4.5882545 -7.2599525 -1.5619271
-4.6454406 -7.2515302 -1.5663254
-4.7155428 -7.2624674 -1.5751222
-4.7492085 -7.2169719 -1.5714569
-4.8053999 -7.2056894 -1.5754887
-4.88695 -7.2314568 -1.5879507
-4.8951292 -7.1486106 -1.5760385
-4.9372191 -7.1160169 -1.5754887
-4.9796586 -7.0839801 -1.5751222
-5.0224609 -7.0524912 -1.5749389
-5.0788679 -7.0398784 -1.579154
-5.129508 -7.0189009 -1.5815365
-5.1759882 -6.9920359 -1.5826361
-5.2270489 -6.9711566 -1.5852017
-5.2721028 -6.9420843 -1.5859349
-5.3026128 -6.8940196 -1.5822695
-5.3351488 -6.8489447 -1.5793374
-5.4002085 -6.8454099 -1.5863013
-5.4347467 -6.8029289 -1.5841022
-5.4671125 -6.7579894 -1.5813532
-5.5383768 -6.7608204 -1.59015
-3.3662448 -4.0579476 -0.94377398
-5.7037463 -6.7909641 -1.6141577
-3.6093845 -4.2440009 -0.99948657
-3.6379228 -4.2247543 -1.0002196
-3.5610676 -4.084528 -0.97108048
-3.6959982 -4.1871638 -1.0020523
-3.7379959 -4.1827331 -1.0066339
-3.8783436 -4.2865682 -1.038522
-3.7253027 -4.0669513 -0.98904043
-3.9159496 -4.2227931 -1.0344902
-3.8899803 -4.1434956 -1.0203788
-3.9221029 -4.1266751 -1.0222114
-3.9950588 -4.152123 -1.03504
-4.0170312 -4.1240106 -1.0341237
-4.021554 -4.0782838 -1.0286257
-4.0409465 -4.047965 -1.0271596
-4.1747108 -4.1309695 -1.0557489
-3.4864702 -3.4077599 -0.86973488
-3.4924638 -3.3719628 -0.86588633
-3.4255927 -3.2670107 -0.84334469
-3.4298332 -3.2310989 -0.83931285
-4.2965841 -3.9982879 -1.0550159
-3.5010688 -3.2180405 -0.84737653
-3.5222042 -3.1978195 -0.84774309
-3.5659094 -3.1978083 -0.85379082
-3.397825 -3.0096366 -0.80705822
-3.4117889 -2.9848473 -0.80595863
-3.7335024 -3.2261226 -0.88073081
-3.7352822 -3.1878359 -0.8763324
-3.7788236 -3.1851327 -0.8821969
-3.8987761 -3.2455447 -0.90657115
-4.3916812 -3.6105382 -1.0207453
-4.3755951 -3.5525391 -1.011582
-4.4034462 -3.530544 -1.0130482
-4.4250264 -3.5034585 -1.0130482
-4.4201093 -3.4556527 -1.0068172
-4.4793577 -3.4579043 -1.0157971
-4.4989271 -3.4291625 -1.0154306
-4.4931784 -3.381393 -1.0091996
-4.4846468 -3.3320646 -1.0024188
-4.5565286 -3.3422821 -1.014331
-4.5164404 -3.2704375 -1.0004029
-4.5708103 -3.2672477 -1.0082833
-4.4702907 -3.1541188 -0.98079354
-4.4806862 -3.1204495 -0.97877759
-4.5524054 -3.1290972 -0.99068981
-4.614635 -3.1303575 -1.0004029
-4.6027145 -3.0812004 -0.99343884
-4.5747814 -3.022012 -0.98299271
-4.6525316 -3.0325389 -0.99618781
-4.5726619 -2.9406505 -0.97437924
-4.6213312 -2.9320261 -0.98116004
-4.7842236 -2.9943757 -1.0130482
-4.7456279 -2.9298425 -1.0005862
-4.6829133 -2.8515794 -0.98299271
-4.7618413 -2.8597434 -0.99637103
-4.8173604 -2.8530169 -1.0046179
-4.8475089 -2.8308413 -1.007367
-4.8690467 -2.8034973 -1.0082833
-4.8784628 -2.7692006 -1.0066339
-4.9168091 -2.7512171 -1.0112156
-4.8509622 -2.6754131 -0.99362206
-4.8120108 -2.6155477 -0.98189312
-4.8842945 -2.616147 -0.99380535
-4.9080796 -2.5902586 -0.99545473
-4.8916101 -2.5433128 -0.98867393
-4.8834996 -2.5011492 -0.98372579
-4.9180636 -2.4808795 -0.98775762
-5.0282745 -2.4978981 -1.0075502
-5.0320272 -2.4613822 -1.0051677
-4.9620094 -2.3895071 -0.98757434
-5.0867252 -2.4112382 -1.0102992
-5.0889525 -2.3741615 -1.0077335
-5.1382666 -2.3588901 -1.0148808
-5.1418929 -2.3224611 -1.0126816
-5.1120272 -2.2713056 -1.0037017
-5.1438832 -2.2477698 -1.007367
-5.1837707 -2.2274222 -1.0126816
-5.2435231 -2.2150867 -1.0220282
-5.2379508 -2.1749532 -1.0181797
-5.2876043 -2.1576319 -1.0255102
-5.2551217 -2.106853 -1.0163469
-5.1527023 -2.0291734 -0.99325556
-5.4731207 -2.1166844 -1.0548326
-5.5163331 -2.0945799 -1.0608804
-5.3780141 -2.0043783 -1.0308249
-5.3514357 -1.9571574 -1.0231278
-5.3688955 -1.926277 -1.0242274
-5.4139972 -1.9050472 -1.0308249
-5.4423113 -1.8775637 -1.0341237
-5.5189166 -1.8661826 -1.0469522
-5.3949556 -1.7874435 -1.0203788
-5.6451912 -1.8320063 -1.0672946
-5.7715621 -1.8339593 -1.0898362
-5.7592392 -1.7912108 -1.0852547
-5.7945733 -1.7632816 -1.0900195
-5.8203588 -1.7321811 -1.0929518
-6.1480308 -1.7887307 -1.1545289
-6.245883 -1.7757114 -1.1713892
-6.2168784 -1.7263044 -1.1636921
-6.3677769 -1.7262014 -1.1908153
-6.3269291 -1.6735193 -1.1809191
-6.8777514 -1.7741699 -1.2850136
-7.139246 -1.7949921 -1.3332123
-7.0957003 -1.7378201 -1.3227662
-7.8052473 -1.8609477 -1.456733
-7.8299255 -1.816131 -1.4592986
-8.0490198 -1.8149883 -1.4990672
-8.3480892 -1.8286868 -1.5540468
-9.0697432 -1.9285592 -1.6894796
-9.0631132 -1.8690985 -1.6859976
-9.122611 -1.8230877 -1.6951609
-9.3440294 -1.8077945 -1.7351127
-9.5230799 -1.7818937 -1.7670008
-10.056218 -1.8178812 -1.8659639
-10.379018 -1.8105532 -1.9249753
-10.486877 -1.7631376 -1.9433018
-10.428597 -1.6876056 -1.93029
-10.409615 -1.6190516 -1.9247919
-10.511721 -1.5689389 -1.9422022
-10.501686 -1.5016268 -1.9385369
-10.461028 -1.4303675 -1.9291904
-10.498852 -1.36997 -1.9346883
-10.487549 -1.3030994 -1.931023
-10.4973 -1.2389549 -1.9313896
-10.531083 -1.1774718 -1.9363377
-10.549841 -1.1140714 -1.9385369
-10.558434 -1.0495124 -1.9389035
-10.553908 -0.98370332 -1.9368875
-10.561705 -0.91909772 -1.9372541
-10.522071 -0.85062945 -1.9288238
-10.501604 -0.78414702 -1.9240589
-10.549372 -0.72265339 -1.9321226
-10.526134 -0.65619636 -1.9269912
-10.528 -0.59148651 -1.9266247
-10.565795 -0.5285973 -1.9330389
-10.5875 -0.46457636 -1.9365209
-10.539068 -0.39767447 -1.9269912
-10.538362 -0.33290723 -1.9264414
-9.849225 0.72384667 -1.9251008
-9.8230896 0.78255075 -1.9208089
-9.8210344 0.84306133 -1.9213941
-9.8439989 0.90591604 -1.9270518
-9.8226385 0.96476489 -1.9239303
-9.7950735 1.0227739 -1.9196383
-9.80616 1.0847993 -1.9231499
-9.8002939 1.1450622 -1.9233451
-9.7891893 1.2046945 -1.9225646
-9.7816133 1.2647372 -1.9225646
-9.7600622 1.3228863 -1.9198334
-9.7274857 1.379303 -1.9149562
-9.7081671 1.4373823 -1.9128102
-9.7185497 1.4999177 -1.9167119
-9.725626 1.5621675 -1.9200284
-9.6413689 1.6093705 -1.9050065
-9.6690016 1.6750321 -1.9126151
-9.6894321 1.7398791 -1.9188579
-9.6563959 1.795174 -1.9143709
-9.6471252 1.8547612 -1.9147611
-9.5672636 1.9003452 -1.9009097
-9.5842466 1.9649259 -1.9067624
-9.5806456 2.0255237 -1.9085182
-9.5852861 2.0880308 -1.9120299
-9.5378418 2.1390748 -1.9050065
-9.5235815 2.1973372 -1.9048115
-9.5242338 2.2591283 -1.9077379
-9.4720783 2.3082325 -1.8999342
-9.4824743 2.3725009 -1.9050065
-9.475338 2.4325917 -1.9065672
-9.4516973 2.4884372 -1.9048115
-9.4201536 2.5420389 -1.901495
-9.4299021 2.6068511 -1.9067624
-9.4307146 2.6694729 -1.910274
-9.4000273 2.7231932 -1.9073477
-9.3774996 2.7791467 -1.906177
-9.3048935 2.8198442 -1.8946668
-9.3136473 2.8850138 -1.9001293
-9.3163404 2.9486203 -1.9044213
-9.2868738 3.0021074 -1.9020802
-9.303669 3.0707195 -1.9094937
-9.2065811 3.1014373 -1.893106
-9.2059269 3.1642478 -1.8970078
-9.1835623 3.2197011 -1.8964226
-9.2070379 3.2915125 -1.9055918
-9.2290554 3.3633969 -1.9145659
