# .PCD v0.7 - Point Cloud Data file format
VERSION 0.7
FIELDS x y z
SIZE 4 4 4
TYPE F F F
COUNT 1 1 1
WIDTH 1555
HEIGHT 1
VIEWPOINT 0 0 0 1 0 0 0
POINTS 1555
DATA ascii
-1.1954823 10.184446 -2.0004058
-1.1303711 10.168195 -1.9957236
-1.0764474 10.255901 -2.0119162
-1.0095505 10.222295 -2.0039175
-0.94301635 10.187279 -1.9957236
-0.88242948 10.215348 -2.0002105
-0.8214553 10.242079 -2.0045025
-0.75476366 10.195086 -1.9941628
-0.69583994 10.253345 -2.0048928
-0.63243121 10.24959 -2.0033321
-0.57034326 10.267967 -2.0062585
-0.50882596 10.301641 -2.0123062
-0.4404929 10.186004 -1.9887003
-0.37997818 10.242421 -1.9994303
-0.3173666 10.252402 -2.0009911
-0.25445306 10.254157 -2.0009911
-0.19231267 10.297691 -2.0093799
-0.12846558 10.24572 -1.998845
-0.065744631 10.269854 -2.0035272
-0.0027251656 10.246525 -1.998845
0.060117036 10.241445 -1.9978695
0.12384768 10.314436 -2.0125012
0.1858266 10.241897 -1.9982598
0.24871403 10.242525 -1.99865
0.31191555 10.25257 -2.0009911
0.37485421 10.251443 -2.0011861
0.43758097 10.24503 -2.0004058
0.49794033 10.191213 -1.9902611
0.56148881 10.206573 -1.9939678
0.6223048 10.173567 -1.9881151
0.6853109 10.178364 -1.9898708
0.75034332 10.20918 -1.9968941
0.81429756 10.221004 -2.0002105
0.87766916 10.223633 -2.0017715
0.93750387 10.186803 -1.9955285
0.99951136 10.175979 -1.994553
1.058668 10.138439 -1.9883101
1.1151347 10.080086 -1.9779704
1.1790148 10.090589 -1.9814819
1.2441449 10.109447 -1.9867494
1.3071589 10.109405 -1.9883101
1.3720651 10.122575 -1.9926021
1.4351149 10.120763 -1.9939678
1.4992003 10.125349 -1.996699
1.5571082 10.08882 -1.9912364
1.6178931 10.072297 -1.9898708
1.6778874 10.051538 -1.9877249
1.7425466 10.058449 -1.9912364
1.8040577 10.046602 -1.9910414
1.8619016 10.015095 -1.9869444
1.9149801 9.9601412 -1.9781654
1.9835149 9.9857206 -1.9857739
2.0406098 9.9531851 -1.9816771
2.0994103 9.9299221 -1.979531
2.1607172 9.9187698 -1.9799212
2.2200339 9.8986263 -1.9785556
2.2809494 9.8857737 -1.9787507
2.3340909 9.8401003 -1.9723127
2.401859 9.8560858 -1.9785556
2.4584789 9.8259401 -1.9754342
2.5277514 9.8458176 -1.9826525
2.5891161 9.8339167 -1.9834329
2.6483846 9.8140574 -1.9826525
2.7048924 9.7843885 -1.9799212
2.7683513 9.7798748 -1.9824574
2.8231201 9.7448063 -1.9787507
2.8831387 9.728241 -1.9789457
2.9402146 9.7019196 -1.97719
3.0054955 9.7024326 -1.9810917
3.0640838 9.6810036 -1.9805065
3.1053202 9.6060286 -1.9688011
3.1571305 9.5653734 -1.964314
3.2148232 9.5430326 -1.9637288
3.2653449 9.4999409 -1.9588515
3.316108 9.4584389 -1.9543644
3.386632 9.4730072 -1.9617778
3.4457014 9.454813 -1.9623631
3.49067 9.3985558 -1.9549496
3.5395923 9.3540287 -1.9500724
3.5993907 9.3385401 -1.9514381
3.6623583 9.3308859 -1.9545594
3.697336 9.2526846 -1.942659
3.7629108 9.251627 -1.9473412
3.8289866 9.2510195 -1.9522184
3.8826318 9.2201195 -1.9506577
3.9538109 9.2303801 -1.9580711
3.9915664 9.1627884 -1.9487067
4.0588379 9.1632318 -1.9541693
4.1170001 9.1426258 -1.9551448
4.1513815 9.0699291 -1.944805
4.2148166 9.061182 -1.9485117
4.2539864 9.0005684 -1.9409032
4.3214474 8.9999361 -1.9465607
4.3598166 8.9388733 -1.9389523
4.4119697 8.9066811 -1.9377817
4.4687409 8.8838224 -1.9387572
4.512012 8.8344002 -1.93388
4.5724559 8.818738 -1.9366112
4.6305923 8.7983265 -1.938367
4.6849527 8.7706137 -1.938562
4.7349401 8.7348042 -1.9370013
4.775209 8.6815262 -1.9315388
4.8293438 8.6537752 -1.931929
4.894434 8.6453161 -1.9368063
4.9439688 8.609169 -1.9354407
4.9912696 8.5693493 -1.9332947
5.0292873 8.5140743 -1.927637
5.0834503 8.4864197 -1.9284174
5.1114917 8.4156723 -1.9192481
5.1702342 8.3958416 -1.9219794
5.2278867 8.3739424 -1.9243205
5.2613339 8.3135319 -1.9176874
5.3180723 8.2901726 -1.9198334
5.3634925 8.2491627 -1.9178826
5.4053712 8.2029953 -1.9147611
5.4447064 8.1533632 -1.9108592
5.4946322 8.1198015 -1.9108592
5.5493436 8.0932131 -1.9126151
5.588264 8.0437078 -1.9089084
5.6346912 8.0052576 -1.9079329
5.6797175 7.9649444 -1.9065672
5.7198663 7.9180198 -1.9036409
5.7718186 7.8875227 -1.9048115
5.7926526 7.8149295 -1.8956422
5.8393168 7.7776709 -1.895252
5.9071178 7.7682366 -1.9018852
5.9546714 7.7318449 -1.9018852
5.9989848 7.6912956 -1.9009097
6.0339041 7.6389503 -1.8970078
6.0598292 7.5757451 -1.8903748
6.1105208 7.5437546 -1.8917404
6.1635365 7.5144596 -1.8938864
6.2045145 7.4704642 -1.8923256
6.2401342 7.4202442 -1.8892043
6.2861824 7.3825626 -1.8893993
6.3326435 7.3453379 -1.8897895
6.3692088 7.2967386 -1.8872533
6.4112625 7.254581 -1.8864729
6.4464984 7.204874 -1.8837417
6.4945364 7.1695442 -1.8849123
6.5397315 7.1310053 -1.8853024
6.5887027 7.0964932 -1.8868631
6.6314502 7.0552177 -1.8866681
6.657711 6.996634 -1.8817908
6.6957521 6.9507074 -1.8804252
6.7506022 6.9221301 -1.8839368
6.7950163 6.8826723 -1.8845221
6.8066092 6.8103299 -1.8759381
6.8531523 6.7732625 -1.8773037
6.8812475 6.7180686 -1.873597
6.9131603 6.6668701 -1.8710608
6.9574885 6.627708 -1.8720363
6.9930239 6.5801888 -1.8706707
7.040452 6.5438328 -1.8726215
7.1028709 6.52107 -1.8786694
7.1449299 6.479341 -1.8792546
7.120986 6.3784547 -1.8622818
7.121788 6.3008518 -1.8521371
7.1765647 6.2712307 -1.8564291
7.2260475 6.2366891 -1.8593554
7.2738833 6.2005038 -1.8618916
7.342557 6.1816497 -1.8698903
7.3630013 6.1220603 -1.8654032
7.3807178 6.060586 -1.8603308
7.4314795 6.0263028 -1.8638425
7.4912853 5.9989796 -1.8696952
7.5094881 5.938303 -1.865013
7.5558338 5.8999596 -1.8675492
7.5685892 5.8355236 -1.8616965
7.6159596 5.7978835 -1.8646228
7.6521754 5.7516332 -1.864818
7.6762953 5.6963906 -1.8620867
7.7498746 5.6775794 -1.8716462
7.7631063 5.6144042 -1.8663787
7.7798467 5.5541301 -1.8620867
7.8105726 5.5040298 -1.8613063
7.8570814 5.4649606 -1.8644278
7.8726754 5.4044375 -1.8601358
7.954411 5.3890309 -1.8718412
8.0452223 5.3788185 -1.8856926
8.0428686 5.3061323 -1.8773037
8.0415716 5.2347488 -1.869305
8.0933475 5.1980262 -1.8739872
8.0820055 5.1209764 -1.8638425
8.1340685 5.0842834 -1.8687197
8.1525879 5.0265584 -1.8657933
8.2302084 5.0049729 -1.8767184
8.2405758 4.9422746 -1.8720363
8.2808762 4.8976083 -1.8743774
8.2989092 4.8397899 -1.8716462
8.320797 4.7843785 -1.8698903
8.3482904 4.7322659 -1.8695002
8.3771696 4.6809525 -1.8695002
8.4031563 4.6280441 -1.8689148
8.4813938 4.6035266 -1.8802301
8.5198603 4.5569487 -1.8825712
8.5433216 4.5023003 -1.8815957
8.5446711 4.4362402 -1.875743
8.5586319 4.3770304 -1.8728167
8.6028471 4.3332553 -1.8767184
8.6406965 4.2860522 -1.8792546
8.6923914 4.2454324 -1.8849123
8.6952944 4.1809697 -1.8798399
8.7420616 4.1376047 -1.8845221
8.7619505 4.0814023 -1.8833516
8.7895031 4.028789 -1.8839368
8.7925997 3.9651079 -1.8792546
8.8355913 3.9194322 -1.8833516
8.8378983 3.8557343 -1.8786694
8.8631926 3.8022065 -1.8790596
8.882741 3.7462273 -1.8782792
8.8801899 3.6811402 -1.8728167
8.9489365 3.645448 -1.8827662
8.9738674 3.5915627 -1.8833516
8.9802179 3.5303342 -1.880035
9.0017109 3.4751661 -1.880035
9.0292845 3.4222996 -1.8814006
9.0868845 3.3805072 -1.8892043
9.1074562 3.3246875 -1.8892043
9.0981359 3.2581649 -1.8829614
9.1114779 3.2000041 -1.8815957
9.1263046 3.142441 -1.8806202
9.1658592 3.093281 -1.8849123
9.1800108 3.0354431 -1.8839368
9.1872663 2.9754336 -1.8815957
9.2362032 2.9287848 -1.8880337
9.2502527 2.8708951 -1.8872533
9.2798948 2.8177855 -1.8897895
9.3082924 2.7641413 -1.8921306
9.3184843 2.7050614 -1.890765
9.3226404 2.6443555 -1.8882288
9.363266 2.5939081 -1.8933011
9.3685904 2.5335922 -1.8911551
9.3744764 2.4735587 -1.8892043
9.4151239 2.4225874 -1.8944716
9.4164925 2.3614333 -1.8917404
9.4489079 2.3080299 -1.8954471
9.4857931 2.2554514 -1.9001293
9.4660082 2.1894734 -1.8933011
9.4572554 2.126404 -1.8888141
9.4662914 2.0674987 -1.8880337
9.4740019 2.0083594 -1.8870583
9.5159292 1.9563092 -1.893106
9.5835438 1.9089901 -1.9044213
9.5344038 1.8384589 -1.8921306
9.5339346 1.7777662 -1.8897895
9.5649338 1.7228824 -1.8938864
9.5782242 1.6646641 -1.8944716
9.6240492 1.6118519 -1.90169
9.6095505 1.5488707 -1.8968128
6.088881 0.94354475 -1.1862938
5.8995562 0.87721038 -1.1470807
5.8873496 0.83850902 -1.143569
5.8797498 0.80065125 -1.1410328
5.8777432 0.76367551 -1.1396673
5.8647976 0.72543222 -1.1361556
5.8584232 0.68817633 -1.1340096
5.8527875 0.65113419 -1.1320587
5.8527708 0.61480087 -1.1312783
5.8554568 0.57878107 -1.1310833
5.8579211 0.54275149 -1.1308881
5.841598 0.50511175 -1.1269864
5.8309002 0.46816266 -1.1242551
5.830729 0.43215922 -1.1236699
5.8215284 0.39557883 -1.1213287
0 0 -0
0 0 -0
5.8258643 0.28825998 -1.1209385
0 0 -0
0 0 -0
0 0 -0
0 0 -0
0 0 -0
0 0 -0
0 0 -0
0 0 -0
0 -0 -0
0 -0 -0
0 -0 -0
0 -0 -0
0 -0 -0
0 -0 -0
0 -0 -0
0 -0 -0
0 -0 -0
0 -0 -0
0 -0 -0
0 -0 -0
0 -0 -0
0 -0 -0
0 -0 -0
0 -0 -0
6.0999932 -0.63650399 -1.1806362
9.0808897 -1.0044805 -1.7780027
8.8358898 -1.0322667 -1.7302057
8.7028437 -1.070875 -1.7048439
8.5492353 -1.1052465 -1.6753852
8.5986624 -1.1653301 -1.6867005
8.7292404 -1.237637 -1.7144033
8.7001371 -1.2880126 -1.7101113
8.703702 -1.343168 -1.7124524
8.7214422 -1.4007504 -1.7177198
8.7107487 -1.4539145 -1.7173296
8.6736383 -1.5024769 -1.7116721
8.6507416 -1.5532408 -1.7089407
8.6236925 -1.6030627 -1.7054292
8.6011734 -1.6535378 -1.702893
8.5543108 -1.699017 -1.6954795
8.4169016 -1.725457 -1.6697276
8.3869648 -1.7730099 -1.6658258
8.3605957 -1.8210961 -1.6627043
8.3320389 -1.8684961 -1.6591928
8.3070374 -1.9164968 -1.6564615
8.2941675 -1.9672052 -1.6562663
8.2619305 -2.0131814 -1.6521695
7.3503222 -1.8387707 -1.4678091
7.3246522 -1.8801769 -1.4648827
8.0366335 -2.1157002 -1.6137367
7.9420681 -2.1429873 -1.5969589
7.9098635 -2.1864498 -1.5930572
7.9151726 -2.2402873 -1.5969589
8.1132317 -2.3502421 -1.6408542
8.1080608 -2.4027679 -1.6428051
7.9326653 -2.4038124 -1.6094447
7.8952823 -2.4454734 -1.6047626
7.8530126 -2.4852862 -1.5991049
7.8040204 -2.5225601 -1.5920817
7.7287898 -2.5507164 -1.5795959
7.8607721 -2.6478934 -1.6106153
7.7293687 -2.6565306 -1.5864241
7.7166252 -2.7052054 -1.5872045
7.7636027 -2.7752919 -1.6006657
7.7777576 -2.8342979 -1.6072987
7.7933178 -2.8942652 -1.6143219
7.8350344 -2.9645987 -1.6270028
7.6053042 -2.9311116 -1.581937
7.7670245 -3.048336 -1.6203698
7.8574605 -3.1396215 -1.6437806
7.8425908 -3.1896231 -1.6447561
7.8165288 -3.2350578 -1.6433904
7.7883968 -3.2795315 -1.6416346
7.7807484 -3.3326664 -1.6443659
7.7529602 -3.3772111 -1.6428051
7.6890502 -3.4056475 -1.6334409
7.6769514 -3.4567907 -1.6353917
7.6484623 -3.5005641 -1.633831
7.6223931 -3.5453596 -1.6328555
7.5863085 -3.5853558 -1.6297342
7.5747757 -3.6369326 -1.6320752
7.5452657 -3.6799016 -1.6305145
7.526938 -3.7283065 -1.6314899
7.4837689 -3.7642815 -1.6270028
7.4474297 -3.803437 -1.6240765
7.4082804 -3.840934 -1.6205648
7.3724232 -3.8799214 -1.6178336
7.3683739 -3.9357157 -1.6223207
7.3492594 -3.9836581 -1.6234912
7.3839698 -4.0612998 -1.6369524
7.4128637 -4.1366477 -1.6492431
7.3813682 -4.1786709 -1.6478775
7.3768511 -4.2360969 -1.6527548
7.3363132 -4.2728872 -1.6494383
7.3319116 -4.3307934 -1.6545106
7.3052006 -4.3756995 -1.6545106
7.2606115 -4.4097471 -1.6504136
7.2033544 -4.4356966 -1.6433904
7.203455 -4.4969554 -1.6498284
7.1483793 -4.5237589 -1.6433904
7.1048036 -4.5574713 -1.6396837
7.0668392 -4.5945635 -1.6373426
7.0237741 -4.6281223 -1.633831
6.9838266 -4.6635056 -1.6310997
6.990818 -4.7304597 -1.6396837
6.9576163 -4.7704916 -1.6387082
6.9113007 -4.8013396 -1.6346114
6.8728886 -4.8374453 -1.6324654
6.7871833 -4.8396583 -1.6188091
6.7319212 -4.8628311 -1.6125661
6.7162023 -4.9144731 -1.6160778
6.7056179 -4.9701934 -1.620955
6.6898961 -5.0224352 -1.6246618
6.6214824 -5.0348887 -1.6152974
6.5881333 -5.073627 -1.6147121
6.5359993 -5.0976663 -1.6094447
6.5146022 -5.1455789 -1.6119809
6.4844384 -5.1866803 -1.6123711
6.4768772 -5.2461281 -1.618614
6.4248509 -5.2695966 -1.6135416
6.3757992 -5.2951312 -1.6092496
6.3469419 -5.3373094 -1.6102251
6.2983932 -5.3627982 -1.6061282
6.2534847 -5.3910956 -1.6030067
6.2143774 -5.4242043 -1.601446
6.210372 -5.4882159 -1.6092496
6.1773109 -5.5268726 -1.6094447
6.1301994 -5.5528183 -1.6059331
6.1111908 -5.6042509 -1.6100299
6.0680642 -5.6336336 -1.6076889
6.0226645 -5.6606836 -1.6047626
5.9800029 -5.6900935 -1.6026165
5.9372077 -5.719193 -1.6004705
5.8858557 -5.7397637 -1.5959835
5.8602962 -5.7854185 -1.5987147
5.8142829 -5.8108668 -1.5957884
5.7654209 -5.8331776 -1.5920817
5.7213001 -5.8600211 -1.5897406
5.6784282 -5.8879557 -1.5877897
5.6875124 -5.9702721 -1.6008607
2.2456012 -2.3853726 -0.61233807
2.2269168 -2.3947957 -0.61116755
2.2154968 -2.4120274 -0.61214298
2.200655 -2.425576 -0.61214298
5.4500098 -6.0842052 -1.5854486
5.4145246 -6.1197352 -1.5860338
5.3859067 -6.1631837 -1.5887651
5.3608031 -6.2109661 -1.592667
5.3098693 -6.2288127 -1.5887651
5.2646027 -6.2530222 -1.5866191
5.2317786 -6.2919955 -1.588375
5.1632018 -6.2875919 -1.5790106
5.1171126 -6.3100119 -1.5766696
5.0580707 -6.3160248 -1.5702316
5.0253038 -6.3546357 -1.5721824
2.0253088 -2.5924907 -0.61506933
2.0039744 -2.5978777 -0.61331356
1.9701766 -2.5867114 -0.6074608
1.9501433 -2.5932629 -0.60609519
1.934779 -2.6059675 -0.60629028
1.8387777 -2.5085969 -0.57936782
1.7917441 -2.4761183 -0.56863785
1.7736683 -2.4830742 -0.56766242
4.6584244 -6.6102943 -1.5692561
4.6194568 -6.6411695 -1.5698414
4.5813951 -6.6734324 -1.5708169
4.5255113 -6.679492 -1.5655494
4.5111475 -6.7470894 -1.5751088
4.4950433 -6.8131232 -1.5842781
4.4445944 -6.8274231 -1.5811566
4.4031487 -6.8553915 -1.5813518
4.3720236 -6.8996792 -1.5854486
4.32025 -6.9114041 -1.581937
4.272615 -6.9294333 -1.5799861
4.2269592 -6.950491 -1.5788156
4.1751537 -6.9611549 -1.5753039
1.7123277 -2.8937211 -0.62950605
1.695034 -2.9050205 -0.62970114
1.6801099 -2.9204683 -0.63087165
1.660708 -2.9281623 -0.6302864
3.9027379 -6.9840579 -1.5520881
3.8602839 -7.0087323 -1.5522833
3.8331106 -7.0615964 -1.5589163
3.772598 -7.0529814 -1.551698
3.7406795 -7.0976901 -1.5565752
3.6798892 -7.0874295 -1.5491618
3.6443689 -7.1255941 -1.5526735
3.6124883 -7.1714735 -1.5579408
3.5714669 -7.1996551 -1.5593065
3.5267932 -7.220552 -1.5591114
3.4875212 -7.2526636 -1.5614525
3.4291112 -7.2446699 -1.5550145
3.37797 -7.2513485 -1.5518931
3.3248329 -7.2532144 -1.5477961
3.2891335 -7.2931495 -1.5520881
3.241936 -7.3078146 -1.5509176
3.2037005 -7.3428521 -1.5542341
3.16593 -7.379498 -1.5579408
3.1160183 -7.3879399 -1.5555998
3.0646207 -7.3924232 -1.5524783
3.015135 -7.4010963 -1.5503323
2.966387 -7.411262 -1.5485765
2.9255199 -7.4411902 -1.5511127
2.8783941 -7.4553409 -1.5503323
2.8378074 -7.4866195 -1.5532587
2.7836123 -7.4818287 -1.5485765
2.7410142 -7.5079813 -1.5505275
2.6912584 -7.5145011 -1.5483814
2.6509476 -7.5475302 -1.5518931
2.5988414 -7.5469608 -1.5483814
2.5578146 -7.5785637 -1.551698
2.5103419 -7.5913219 -1.5511127
2.4685485 -7.6215119 -1.5542341
2.4175885 -7.623426 -1.5515029
2.3672793 -7.6268754 -1.5491618
2.3195825 -7.6384416 -1.5485765
2.269042 -7.6403074 -1.5460404
2.2322319 -7.6889377 -1.5532587
2.1850114 -7.7024899 -1.5532587
2.1324739 -7.6968474 -1.5493569
2.0788088 -7.6861172 -1.5444796
2.0306079 -7.6949344 -1.5436993
1.9784688 -7.6882515 -1.5397974
1.924342 -7.672657 -1.5341399
1.8830427 -7.7081404 -1.5390171
1.8441013 -7.7548552 -1.5462354
1.7984718 -7.7746243 -1.5479913
1.7395518 -7.7357535 -1.5378466
1.6966549 -7.7673621 -1.5421386
1.650183 -7.7833834 -1.5433091
1.6053548 -7.8077731 -1.5462354
1.5499489 -7.7799621 -1.5386269
1.4956874 -7.7556186 -1.5317987
1.451665 -7.7839336 -1.5357006
1.4012702 -7.7782149 -1.5327742
1.3523428 -7.7799025 -1.5314085
1.3029618 -7.7783804 -1.5294577
1.2442933 -7.7184477 -1.5158013
1.1777092 -7.6018734 -1.4908298
1.1156285 -7.5051508 -1.4699551
1.0698329 -7.5137973 -1.4703453
1.0186876 -7.4832902 -1.4629319
0.96871412 -7.4582753 -1.456689
0.92149025 -7.4523983 -1.4543478
0.87220466 -7.4277148 -1.4483001
0.82737041 -7.4397502 -1.4496658
0.78375077 -7.4641953 -1.4535675
0.73466295 -7.4356785 -1.4469345
0.68893439 -7.4390697 -1.4467394
0.64184308 -7.4265451 -1.4434228
0.59563613 -7.4225221 -1.4418621
0.54863518 -7.4064751 -1.4379603
0.50278181 -7.4038305 -1.4367898
0.45806679 -7.4185233 -1.4391309
0.41221327 -7.415319 -1.4379603
0.36675423 -7.4186883 -1.4381554
0.32279083 -7.4570541 -1.4453738
0.27695665 -7.456934 -1.4449836
0.23373629 -7.5408401 -1.4613712
0.18782546 -7.5568395 -1.4642975
0.14183629 -7.5784426 -1.4683944
0.096234895 -7.6517429 -1.4828311
0.04994899 -7.758112 -1.5039009
0.0023610459 -7.8622355 -1.5245805
-0.045880768 -7.862102 -1.5245805
-0.094156519 -7.8646145 -1.5251657
-0.14282289 -7.8864431 -1.5296527
-0.19130619 -7.8893404 -1.5304332
-0.2393215 -7.8752737 -1.527897
-0.28745902 -7.8687563 -1.5269215
-0.33523181 -7.8550858 -1.5245805
-0.38433495 -7.8714938 -1.5282872
-0.43354404 -7.8856354 -1.5316037
-0.48192123 -7.8828268 -1.5316037
-0.53028029 -7.8797212 -1.5316037
-0.58099538 -7.9085979 -1.5380417
-0.62834066 -7.8902187 -1.5351152
-0.6780023 -7.9008727 -1.5380417
-0.72673839 -7.8994937 -1.5386269
-0.77385128 -7.8812208 -1.5358957
-0.82229698 -7.8772993 -1.5360907
-0.87363845 -7.8994007 -1.5415533
-0.92277539 -7.8997364 -1.5427238
-0.97566658 -7.9299426 -1.5499421
-1.0230466 -7.9140801 -1.5479913
-1.0704006 -7.8989067 -1.5462354
-1.1120946 -7.8446083 -1.536676
-1.1661017 -7.8774152 -1.5446748
-1.2127677 -7.8594494 -1.5425287
-1.2651724 -7.8780055 -1.5477961
-1.3130023 -7.8671923 -1.5472109
-1.3604121 -7.854156 -1.5462354
-1.4130886 -7.870759 -1.5513078
-1.4588448 -7.8484411 -1.5485765
-1.5099391 -7.8547521 -1.551698
-1.5573417 -7.8414912 -1.5509176
-1.6004995 -7.8077688 -1.5460404
-1.6451292 -7.7824483 -1.5429189
-1.6980722 -7.7961645 -1.5477961
-0.67043298 -2.9930074 -0.57078385
-0.68724078 -2.9821479 -0.56941819
-0.70484656 -2.9750121 -0.56883293
-0.72029972 -2.9591968 -0.56649184
-0.73772895 -2.9518671 -0.56590658
-0.7521674 -2.9330356 -0.56298023
-0.77064967 -2.9302621 -0.56337041
-0.78810364 -2.9235845 -0.56298023
-0.80576611 -2.9177485 -0.56278515
-0.82392114 -2.9136932 -0.56298023
-2.2385752 -7.7279458 -1.5610623
-2.2664349 -7.648242 -1.547406
-1.078315 -3.5606828 -0.70071399
-2.3787003 -7.679811 -1.5598918
-2.4290347 -7.6753564 -1.5620377
-2.4742732 -7.6547084 -1.5608672
-1.0718901 -3.2500229 -0.64140654
-1.0849209 -3.2229373 -0.63711452
-1.1002111 -3.2032349 -0.63438326
-1.1162745 -3.1862433 -0.63223732
-2.7102275 -7.5816727 -1.5622329
-2.766439 -7.5916228 -1.5678905
-1.1528723 -3.1063161 -0.61975151
-1.1667024 -3.0854247 -0.61682516
-1.1909047 -3.0919347 -0.61975151
-1.2396053 -3.1603429 -0.63594401
-2.9903638 -7.4840651 -1.5637935
-3.0465782 -7.4910131 -1.5692561
-3.0752261 -7.4304938 -1.560282
-3.1276143 -7.4277544 -1.5637935
-3.1816294 -7.428257 -1.5680856
-1.2943585 -2.9732108 -0.60570502
-1.3093989 -2.958039 -0.60414428
-1.324302 -2.942795 -0.60258359
-1.3149781 -2.874866 -0.58951253
-3.4233015 -7.3600674 -1.5753039
-3.454983 -7.3105502 -1.569061
-3.5044458 -7.2989383 -1.571207
-3.5586264 -7.2966905 -1.5754989
-3.6068146 -7.2817483 -1.5770597
-3.6531901 -7.2629848 -1.5778401
-3.6936703 -7.2325716 -1.5760843
-3.7244322 -7.1836519 -1.5702316
-3.7698109 -7.1632676 -1.5708169
-3.8233993 -7.1581678 -1.5749137
-3.857899 -7.1173291 -1.5710119
-3.8962967 -7.0840712 -1.5688659
-3.9263051 -7.0360513 -1.5634034
-3.9824524 -7.0348706 -1.5686709
-4.0499687 -7.0528255 -1.5784254
-4.0956368 -7.0320797 -1.5794008
-4.1392064 -7.0076613 -1.5795959
-4.1846471 -6.9863386 -1.5805713
-4.2294731 -6.9638834 -1.5813518
-4.2767525 -6.9453163 -1.5831075
-4.3192873 -6.9189439 -1.5831075
-4.3658566 -6.8989406 -1.5846683
-4.4197583 -6.8901825 -1.5889602
-4.458744 -6.8580003 -1.5877897
-4.5028992 -6.8337889 -1.58857
-4.5496488 -6.8133712 -1.5903258
-4.5974164 -6.794261 -1.5924718
-2.9087911 -4.2431836 -0.98398513
-4.7173858 -6.7904892 -1.6053479
-4.7471056 -6.7445745 -1.6012509
-4.7992215 -6.7304912 -1.6049576
-3.0350249 -4.2023196 -0.99178874
-3.0607526 -4.1836176 -0.99178874
-4.9222946 -6.6410131 -1.6049576
-4.9682512 -6.617744 -1.6067134
-5.0236073 -6.6066504 -1.6115907
-5.0814075 -6.5982342 -1.6172483
-3.2618489 -4.1828756 -1.0157849
-3.2844129 -4.1589346 -1.0148094
-3.3190608 -4.1501913 -1.0177357
-3.3358197 -4.1190791 -1.0150045
-3.4145305 -4.163743 -1.0317823
-3.3836091 -4.0748153 -1.0142242
-3.4003403 -4.04422 -1.011688
-3.4467132 -4.0486665 -1.018321
-3.4631639 -4.017786 -1.0157849
-3.507103 -4.0186253 -1.0216376
-3.5187032 -3.9823334 -1.0177357
-3.5705431 -3.9913635 -1.0259296
-3.5475514 -3.9170494 -1.011883
-3.5423474 -3.8634067 -1.0032991
-3.6133726 -3.8926249 -1.0171505
-3.6412201 -3.8746676 -1.018321
-3.7298396 -3.9204543 -1.0370497
-3.7048268 -3.846643 -1.0230032
-3.7242506 -3.8196259 -1.0218327
-3.7558868 -3.8050766 -1.0241737
-3.7105157 -3.7132905 -1.0048598
-3.7416019 -3.6987255 -1.0072008
-3.5550683 -3.4715486 -0.94906396
-3.5148747 -3.390445 -0.93209112
-3.4376006 -3.2754712 -0.90516865
-3.4397748 -3.2375162 -0.90029138
-3.598959 -3.34587 -0.9381389
-3.4958637 -3.2103148 -0.90477848
-3.5394742 -3.2105434 -0.91121644
-3.4166322 -3.0611777 -0.87317383
-3.4000878 -3.0089655 -0.86380953
-3.4229183 -2.9919181 -0.86498004
-3.6884849 -3.1842241 -0.92994511
-3.7169113 -3.1691661 -0.9322862
-3.7723045 -3.1766155 -0.94165057
-4.1145353 -3.4217477 -1.0251492
-4.1612272 -3.4175959 -1.0317823
-4.1859283 -3.395087 -1.0327578
-4.1285858 -3.3068159 -1.0128585
-4.249588 -3.3611031 -1.0384153
-4.1178298 -3.2160697 -0.99998254
-4.2555585 -3.2817562 -1.0296363
-4.2592254 -3.243109 -1.0255394
-4.2531695 -3.1974704 -1.0191014
-4.3380866 -3.2198162 -1.0352939
-4.3276939 -3.1711154 -1.0278804
-4.2501044 -3.0743926 -1.0040795
-4.2784686 -3.055094 -1.0064205
-4.2762871 -3.0140977 -1.0013481
-4.3035583 -2.9939613 -1.0034941
-4.383306 -3.0096779 -1.018321
-4.4625945 -3.0239766 -1.0329528
-4.4688339 -2.9883623 -1.0300264
-4.4870863 -2.960886 -1.0300264
-4.470644 -2.9108291 -1.0218327
-4.4859443 -2.8817532 -1.0212474
-4.4612865 -2.8274066 -1.0112978
-4.4760556 -2.7984202 -1.0107125
-4.4079809 -2.71841 -0.99081331
-4.399436 -2.6760268 -0.98496062
-4.6041951 -2.7619569 -1.0286608
-4.6134572 -2.7291615 -1.0269051
-4.5242043 -2.6390536 -1.0025188
-4.5479646 -2.615643 -1.0042745
-4.5434494 -2.5760825 -0.99959236
-4.6045513 -2.5735066 -1.0099322
-4.6125226 -2.5409477 -1.0081763
-4.6331992 -2.5154045 -1.0093468
-4.6208692 -2.4721293 -1.003104
-4.633348 -2.4423583 -1.0025188
-4.6734915 -2.4269853 -1.0081763
-4.6717033 -2.3897808 -1.0044696
-4.6941624 -2.3650405 -1.0062255
-4.7129793 -2.3383718 -1.0072008
-4.6814089 -2.2870328 -0.99705619
-4.6759062 -2.2489171 -0.99276423
-4.7685208 -2.2575173 -1.0101272
-4.814291 -2.2431207 -1.0171505
-4.8359885 -2.2172155 -1.0189064
-4.7261128 -2.131875 -0.99198383
-4.8278666 -2.1421976 -1.0112978
-5.0737624 -2.2140834 -1.0618262
-4.8537908 -2.0827909 -1.0112978
-4.9152818 -2.0735445 -1.0218327
-5.0855684 -2.1086774 -1.0557784
-5.0520854 -2.0585682 -1.0458288
-5.0108953 -2.0060356 -1.0343184
-5.1080027 -2.0086131 -1.0524619
-4.9902997 -1.9270903 -1.0247591
-5.1808763 -1.9641963 -1.0628016
-5.3463502 -1.9894614 -1.0953817
-5.0608582 -1.8480211 -1.0323676
-5.0896468 -1.8232142 -1.0360743
-5.1359038 -1.804296 -1.0434877
-5.1774821 -1.7832823 -1.0499257
-5.4318109 -1.8336185 -1.1010393
-5.4140916 -1.7907134 -1.0949916
-5.4893613 -1.7783028 -1.1084528
-5.5824447 -1.7706656 -1.1256207
-5.5922675 -1.7360884 -1.1254256
-5.6394162 -1.7128514 -1.1330341
-5.7288003 -1.7016596 -1.1494217
-5.8465142 -1.6976339 -1.171662
-6.2031193 -1.7599108 -1.2432601
-6.2100205 -1.7207692 -1.2424798
-6.1409302 -1.6611348 -1.2260922
-6.8878813 -1.8177617 -1.3776774
-6.8666096 -1.7671583 -1.3710444
-7.0989895 -1.7805527 -1.4165003
-7.1469402 -1.7460326 -1.4241089
-7.27107 -1.7291318 -1.4473246
-7.8892946 -1.8249804 -1.5714021
-7.874507 -1.7707322 -1.5661347
-8.3509197 -1.8240345 -1.6609485
-8.5442581 -1.8113828 -1.6980157
-8.7252579 -1.7938596 -1.7325467
-8.8649969 -1.7659481 -1.7586888
-9.1039124 -1.7555034 -1.8049252
-9.5079012 -1.7729151 -1.8845221
-9.7792244 -1.7614551 -1.9371965
-9.8130398 -1.7054455 -1.9418787
-9.7923651 -1.6400212 -1.9356357
-9.8390398 -1.5858316 -1.9430492
-9.8427696 -1.5245305 -1.9418787
-9.8296251 -1.4607944 -1.9373915
-9.8218956 -1.3981057 -1.934075
-9.839036 -1.3390026 -1.9358308
-9.8460941 -1.2784801 -1.9356357
-9.8440199 -1.2168394 -1.9336848
-9.9097471 -1.1632687 -1.9453902
-9.8825808 -1.0986528 -1.938562
-9.8745041 -1.0364598 -1.9356357
-9.8992233 -0.9776808 -1.9393425
-9.8620644 -0.91294909 -1.9307585
-9.8880005 -0.85418963 -1.9348553
-9.9018545 -0.79420662 -1.9366112
-9.8889351 -0.73213363 -1.9330995
-9.8961773 -0.67164141 -1.9336848
-9.9294796 -0.61271572 -1.9395375
-9.8762541 -0.54862952 -1.9282223
-9.8931484 -0.4886955 -1.9309536
-9.9038 -0.42832118 -1.9325143
-9.88762 -0.3668558 -1.9288076
-9.9102716 -0.30681455 -1.9329045
-9.9051037 -0.24583095 -1.9315388
-9.8995619 -0.18492232 -1.9301732
-9.9181623 -0.12439562 -1.9336848
-9.9010859 -0.063425556 -1.9301732
-9.8836336 -0.0026697463 -1.9266616
-9.9128876 0.058151189 -1.9325143
-9.9270544 0.11915272 -1.9354407
-9.8996601 0.17957835 -1.9301732
-9.9032745 0.24043773 -1.9311486
-9.8869076 0.30074951 -1.9282223
-9.8750744 0.36104929 -1.9262714
-9.892271 0.42247409 -1.9301732
-9.8571653 0.48158076 -1.9237353
-9.8716526 0.54302585 -1.9272468
-9.8759661 0.60406691 -1.9288076
-9.875988 0.66491735 -1.929588
-9.3140392 -0.23536319 -1.9272839
-9.3006344 -0.17792752 -1.9241856
-9.2986155 -0.1208183 -1.923566
-9.3040743 -0.063794546 -1.9245987
-9.3101606 -0.0067091044 -1.925838
-9.3295956 0.050522223 -1.929969
-9.3545475 0.10805935 -1.9353391
-9.2646847 0.16388482 -1.9165435
-9.3173027 0.22200835 -1.9279035
-9.3098974 0.27899846 -1.9266642
-9.3324556 0.33699936 -1.9318279
-9.3106604 0.39343056 -1.9276969
-9.2767982 0.44903988 -1.9210875
-9.2894993 0.50680494 -1.9243922
-9.2842617 0.56367618 -1.9239792
-9.2552462 0.61893636 -1.9186089
-9.2571287 0.67614126 -1.9198482
-9.2937717 0.73617238 -1.9285231
-9.2773809 0.7921856 -1.9260446
-9.2694225 0.84882808 -1.9254249
-9.2630663 0.9055931 -1.9252183
-9.2622013 0.96291882 -1.9262512
-9.2814045 1.0225171 -1.9316213
-9.2759285 1.0795606 -1.9318279
-9.2380524 1.1326474 -1.9252183
-9.1727028 1.1818105 -1.9128256
-9.2215176 1.2456653 -1.9248053
-9.1991682 1.3001708 -1.9217072
-9.1929541 1.356877 -1.9221202
-9.1805868 1.4126632 -1.921294
-9.167881 1.4683489 -1.9204679
-9.150013 1.5231287 -1.9186089
-9.1491718 1.5807424 -1.9204679
-9.0998125 1.6297803 -1.9119995
-9.108882 1.6891522 -1.9161304
-9.072401 1.7400365 -1.9105537
-9.0433178 1.7920581 -1.9066293
-9.0091457 1.8428082 -1.9016721
-9.0541534 1.9099655 -1.9138584
-9.0240974 1.9615369 -1.909934
-8.9736996 2.0083249 -1.9016721
-8.9907656 2.0701532 -1.9080751
-8.9836073 2.1266327 -1.9093144
-8.9019365 2.1650696 -1.894443
-8.9340506 2.2310269 -1.9043573
-8.9031324 2.2814322 -1.9006394
-8.8861275 2.3352718 -1.9000198
-8.8451767 2.3826275 -1.8942366
-8.8784943 2.4501281 -1.9047704
-8.8755341 2.5080175 -1.9074554
-8.8862953 2.57004 -1.9132388
-8.8103113 2.6067531 -1.9000198
-8.7997704 2.6624629 -1.9012591
-8.7739201 2.7135167 -1.8991936
-8.8252125 2.7888205 -1.9142715
-8.7855864 2.8357065 -1.9093144
-8.7308502 2.8773119 -1.9010526
-8.7167406 2.9320769 -1.9018787
-8.6763744 2.9778845 -1.8969216
-8.6487045 3.027833 -1.8948562
-8.6253557 3.0791988 -1.8938234
-8.6338835 3.1421022 -1.9000198
-8.6437979 3.2059062 -1.9066293
-8.580946 3.2426293 -1.8969216
-8.5882816 3.305763 -1.903118
-8.570569 3.3594687 -1.9037377
-8.550703 3.4123559 -1.9039441
-8.5441093 3.4706488 -1.9072489
-8.491004 3.5099282 -1.9000198
-8.4593868 3.5577898 -1.8977478
-8.4346981 3.6084743 -1.8971282
-8.3818932 3.6468897 -1.8901056
-8.4023085 3.7172508 -1.9000198
-8.3561411 3.7583025 -1.8946496
-8.3613987 3.8225207 -1.9012591
-8.3484354 3.8787 -1.9037377
-8.3041286 3.9202459 -1.8989871
-8.2684488 3.9656253 -1.896302
-8.2448397 4.0167131 -1.8965086
-8.2244234 4.0693965 -1.8975413
-8.2465115 4.1435037 -1.9086947
-8.1651506 4.1655703 -1.8954757
-8.1316175 4.2115431 -1.8936169
-8.0805073 4.2481556 -1.887627
-8.0879564 4.315619 -1.8956823
-8.0337906 4.3502569 -1.8890729
-8.0103769 4.4013538 -1.889899
-7.9669819 4.4413705 -1.8859746
-7.9642792 4.5041385 -1.8919646
-7.9297028 4.549027 -1.8903122
-7.9126353 4.6039934 -1.8929973
-7.8715963 4.6449995 -1.889899
-7.8496642 4.6972303 -1.8915514
-7.7730131 4.7163777 -1.8797783
-7.7672625 4.7783375 -1.8855616
-7.7436085 4.8295307 -1.8870075
-7.7146564 4.8774767 -1.8872139
-7.6738739 4.9178581 -1.8845289
-7.6123729 4.9446001 -1.8766801
-7.5688138 4.9826083 -1.8733754
-7.5885639 5.0626197 -1.8861812
-7.568706 5.1167583 -1.8890729
-7.510529 5.1448565 -1.8822569
-7.4997187 5.2053475 -1.887627
-7.4660373 5.2501416 -1.8872139
-7.4257135 5.2901769 -1.8851485
-7.4073954 5.3459463 -1.8888663
-7.3839321 5.3982258 -1.8913449
-7.3349438 5.4317861 -1.8872139
-7.2936492 5.4708195 -1.8851485
-7.2583857 5.514286 -1.8847355
-7.2050266 5.5438027 -1.8795718
-7.1523519 5.5734749 -1.8746147
-7.1433663 5.6372571 -1.8814307
-7.0826535 5.6602144 -1.8744081
-7.0812564 5.7306476 -1.8834962
-7.0512586 5.7783303 -1.8849419
-6.95016 5.7671323 -1.8669724
-6.9565949 5.8449144 -1.8785391
-6.93327 5.8982668 -1.8820503
-6.9102926 5.9521909 -1.8857682
-6.8183331 5.94625 -1.8702772
-6.8015232 6.0054588 -1.875854
-6.7711115 6.052948 -1.8777128
-6.7635884 6.1212983 -1.8861812
-6.7078657 6.1461596 -1.8810176
-6.6872439 6.2031713 -1.8859746
-6.6654615 6.2594914 -1.8907253
-6.635438 6.3083615 -1.8932039
-6.5754561 6.3286033 -1.8870075
-6.5491152 6.3811202 -1.8907253
-6.4638615 6.3758383 -1.8770932
-6.4654694 6.4561682 -1.8892795
-6.4277978 6.4978046 -1.889899
-6.4076385 6.5574164 -1.8958889
-6.3761168 6.6057606 -1.898574
-6.3280373 6.63697 -1.896302
-6.2918901 6.6806593 -1.8977478
-6.2541122 6.7227216 -1.8987806
-6.2279725 6.7775393 -1.9035311
-6.1816654 6.8105545 -1.9020853
-6.1345348 6.8425283 -1.9004329
-6.1086516 6.8983521 -1.9055965
-6.0565467 6.9246578 -1.9024984
-6.0056281 6.9520645 -1.8998133
-5.981276 7.0103683 -1.9058031
-5.9400401 7.0491815 -1.9064227
-5.882905 7.0689511 -1.9018787
-5.8158107 7.0761919 -1.89403
-5.7963319 7.1413708 -1.9020853
-5.7695394 7.1981783 -1.9078685
-5.7258706 7.234211 -1.9080751
-5.6867976 7.2761459 -1.909934
-5.635469 7.3023825 -1.907662
-5.5881839 7.3337107 -1.9068358
-5.5448451 7.3702064 -1.9074554
-5.4995179 7.4040904 -1.9074554
-5.4447255 7.4250712 -1.9041507
-5.420867 7.4884562 -1.9119995
-5.3827815 7.532722 -1.9148911
-5.3421001 7.5736036 -1.9169565
-5.2821107 7.5869679 -1.9119995
-5.2349043 7.6184292 -1.9117929
-5.2149701 7.6900854 -1.9219136
-5.1671424 7.7211261 -1.9217072
-5.1115808 7.7404389 -1.9186089
-5.073606 7.7864127 -1.9223268
-5.0177965 7.8050518 -1.9192286
-4.9656186 7.8290839 -1.9175762
-4.9283857 7.8768229 -1.9219136
-4.8768783 7.9019194 -1.9206743
-4.8359332 7.9442306 -1.9237726
-4.8057327 8.0047913 -1.9314147
-4.7664957 8.0509663 -1.9355457
-4.7194729 8.0842867 -1.9365784
-4.6712441 8.1156359 -1.937198
-4.6252232 8.1509533 -1.9388504
-4.5751224 8.1791792 -1.9388504
-4.5295744 8.2156668 -1.9409158
-4.4818816 8.2484627 -1.9421551
-4.4177909 8.2507935 -1.9361653
-4.3542972 8.2535152 -1.930382
-4.3315516 8.3339033 -1.9431878
-4.2696319 8.3394222 -1.9382308
-4.2271934 8.3829355 -1.9423617
-4.1987433 8.4551601 -1.9533086
-4.1300211 8.4464846 -1.9452534
-4.0857563 8.4875355 -1.9489712
-4.0361152 8.5177498 -1.9502105
-3.993701 8.5636368 -1.9551675
-3.9231226 8.5488529 -1.9460795
-3.916095 8.6735306 -1.9694191
-3.8377788 8.6410618 -1.9564068
-3.7803774 8.6545849 -1.9541348
-3.734154 8.6938 -1.9578526
-3.6700811 8.6913099 -1.9520693
-3.6238105 8.7308359 -1.9559937
-3.5638883 8.737505 -1.9524825
-3.5160329 8.7737398 -1.9557872
-3.4649994 8.8024321 -1.9574395
-3.414099 8.8317404 -1.9592985
-3.3549831 8.839716 -1.9564068
-3.3153694 8.8995609 -1.9652883
-3.2563326 8.9077902 -1.9626032
-3.1860888 8.8843164 -1.9528955
-3.1386583 8.9240046 -1.9574395
-3.0908606 8.9634438 -1.9619836
-3.0395637 8.9933634 -1.964462
-2.990169 9.0294924 -1.9683864
-2.9313879 9.0374317 -1.9661144
-2.8767686 9.0580463 -1.9667341
-2.8222973 9.0792646 -1.9675603
-2.7585621 9.0702 -1.961777
-2.710947 9.1141529 -1.9677668
-2.6549728 9.1306152 -1.9677668
-2.6066546 9.1740274 -1.9737567
-2.5416794 9.1587372 -1.9669406
-2.4931114 9.2024918 -1.973137
-2.4275956 9.1835623 -1.9657013
-2.3782849 9.2257605 -1.9716911
-2.3247321 9.2525158 -1.9743763
-2.2611694 9.2390451 -1.9683864
-2.2150967 9.2974796 -1.9780941
-2.1606584 9.3223343 -1.9805727
-2.105998 9.3468704 -1.9830512
-2.0517459 9.3739529 -1.9861494
-1.9856479 9.3461695 -1.9774745
-1.9120685 9.2795963 -1.9605377
-1.8644832 9.3381691 -1.9706584
-1.8097503 9.3628826 -1.9735501
-1.7591002 9.4103584 -1.9813988
-1.6974999 9.3997917 -1.9768548
-1.6402959 9.4129229 -1.9774745
-1.583481 9.4285994 -1.9787138
-1.5270039 9.4468307 -1.9805727
-1.4705129 9.4656906 -1.9826381
-1.4092301 9.4532452 -1.9780941
-1.3590864 9.5169249 -1.9898672
-1.2941775 9.4775829 -1.9797465
-1.2406791 9.5212431 -1.9873886
-1.1770525 9.4869242 -1.9785072
-1.1157267 9.4677324 -1.9729304
-1.060979 9.5045443 -1.9793334
-0.99679095 9.4554119 -1.9675603
-0.94445705 9.518796 -1.9797465
-0.88802779 9.5458441 -1.9842905
-0.83045518 9.5628109 -1.986769
-0.77318001 9.5852814 -1.9904869
-0.71035147 9.5361795 -1.9791268
-0.6546948 9.5823336 -1.9880083
-0.59406406 9.5568733 -1.9818119
-0.5348655 9.5505695 -1.9797465
-0.47688806 9.5663757 -1.9824315
-0.41689813 9.5397968 -1.9762352
-0.35978884 9.580307 -1.9842905
-0.30219805 9.6204748 -1.9923458
-0.24214713 9.5820446 -1.9838774
-0.1825417 9.5412855 -1.9749959
-0.12484856 9.6077757 -1.9888345
-0.065718487 9.582922 -1.9834642
-0.0069227796 9.5899935 -1.9849101
0.051951986 9.595726 -1.9861494
0.11052526 9.5688105 -1.9805727
0.16947798 9.5816488 -1.9834642
0.22824341 9.5794497 -1.9832578
0.28681266 9.571023 -1.9818119
0.34486386 9.5505047 -1.9778875
0.40382957 9.5570068 -1.9797465
0.4618955 9.5426216 -1.9772679
0.51825559 9.4995518 -1.9687996
0.57694876 9.5030298 -1.9702454
0.6371395 9.5276222 -1.9762352
0.69323719 9.4913301 -1.9694191
0.75076687 9.4781199 -1.9675603
0.81331915 9.5250044 -1.9785072
0.87112391 9.5130138 -1.9770614
0.92652828 9.4773016 -1.9706584
0.98071826 9.4334841 -1.9626032
1.0420098 9.4584103 -1.9692127
1.098443 9.4382324 -1.966321
1.1569294 9.4361706 -1.9673537
1.2168067 9.4444208 -1.9706584
1.2816733 9.4881678 -1.9816054
1.3410995 9.4888439 -1.9834642
1.398154 9.4726934 -1.9818119
1.4565487 9.4658699 -1.9822251
1.50331 9.3862267 -1.9671472
1.552201 9.324707 -1.9559937
1.6162152 9.354538 -1.964462
1.6684096 9.3155518 -1.9582657
1.725359 9.3041773 -1.9580592
1.7947612 9.3577976 -1.9718977
1.8430185 9.30054 -1.9619836
1.9069121 9.322607 -1.9692127
1.9578193 9.2810516 -1.9628097
2.0126522 9.2593031 -1.9607443
2.0645144 9.2248182 -1.9559937
2.1296384 9.2491636 -1.964049
2.188153 9.2435389 -1.9657013
2.2365062 9.195713 -1.9582657
2.291229 9.1751719 -1.9568199
2.3506405 9.1732616 -1.959505
2.3994229 9.1302767 -1.9533086
2.45769 9.1238852 -1.9551675
2.5076413 9.0869398 -1.9504169
2.5681391 9.0883303 -1.9541348
2.6235838 9.0714617 -1.9539282
2.6797509 9.0570688 -1.9543413
2.7216747 8.9955034 -1.9444271
2.7791314 8.9861116 -1.9460795
2.8300898 8.9558287 -1.9431878
2.891299 8.9578495 -1.9475254
2.9345729 8.9046268 -1.9396766
2.9900911 8.8892355 -1.9402962
3.0502949 8.8873796 -1.9440141
3.1235185 8.9220581 -1.9559937
3.159127 8.8492785 -1.9440141
3.2086816 8.8168554 -1.9411224
3.2647617 8.8025055 -1.9423617
3.3121407 8.7649174 -1.9384373
3.3669131 8.7471685 -1.939057
3.4201643 8.7254343 -1.9388504
3.463485 8.6788387 -1.9330671
3.5063629 8.632041 -1.9272839
3.5379589 8.5588226 -1.9155108
3.6268194 8.623538 -1.9353391
3.6812034 8.6047211 -1.9361653
3.7304187 8.5738964 -1.9343064
3.7789986 8.5418978 -1.932241
3.8217084 8.4971323 -1.9272839
3.8489609 8.419241 -1.9146845
3.9269302 8.4522572 -1.9279035
3.9611766 8.3908405 -1.9192286
4.001164 8.342557 -1.9136518
4.0548487 8.3231268 -1.9148911
4.1132178 8.3129988 -1.9184024
4.1637087 8.2867298 -1.9181958
4.1980267 8.2287769 -1.9105537
4.2308903 8.1689777 -1.9024984
4.300056 8.1792393 -1.9111732
4.337266 8.1285295 -1.90539
4.4168749 8.1568298 -1.9186089
4.4569473 8.1115665 -1.9142715
4.5099697 8.0900488 -1.9157172
4.5431495 8.0332661 -1.9086947
4.5806713 7.9848695 -1.9037377
4.6192465 7.9388528 -1.8994001
4.6703572 7.9145732 -1.9004329
4.7328987 7.909277 -1.9062161
4.7691598 7.8600111 -1.9012591
4.8290887 7.8497682 -1.9060097
4.8662906 7.8025546 -1.9016721
4.8800907 7.7187915 -1.8882467
4.9574504 7.7356601 -1.9000198
4.9755106 7.659965 -1.8886598
5.0503917 7.6717901 -1.8994001
5.0799947 7.6146102 -1.8927907
5.1151147 7.5662742 -1.8884532
5.1730552 7.5516977 -1.8927907
5.2153893 7.5141873 -1.8913449
5.2597089 7.4796438 -1.8907253
5.3055043 7.4472299 -1.8907253
5.3573976 7.4232635 -1.8929973
5.4028454 7.3902516 -1.8929973
5.4405198 7.3467388 -1.8903122
5.4690585 7.2913013 -1.8845289
5.526123 7.2739682 -1.8888663
5.5939198 7.2701674 -1.8969216
5.6324096 7.2279887 -1.8948562
5.6621075 7.1748586 -1.889899
5.6974735 7.1292801 -1.8870075
5.7509584 7.1063566 -1.8903122
5.790113 7.0656381 -1.8888663
5.8002453 6.9900684 -1.8779194
5.8329563 6.9423609 -1.8746147
5.8830514 6.9153833 -1.8770932
5.9272885 6.8813796 -1.8777128
5.9327459 6.8028469 -1.8659397
5.9802036 6.7729173 -1.8677987
6.052948 6.7711115 -1.8777128
6.092411 6.7316675 -1.8770932
6.1336012 6.6941586 -1.8770932
6.1805487 6.6628537 -1.8789521
6.1623755 6.5620375 -1.8607761
6.2133093 6.5354486 -1.8640809
6.2566853 6.5007267 -1.8651136
6.2930412 6.4587097 -1.8640809
6.3270564 6.414402 -1.8624284
6.3593822 6.368535 -1.860363
6.3837318 6.3149438 -1.8560256
6.424459 6.2777066 -1.8566452
6.4614491 6.2368097 -1.8562322
6.498888 6.1963706 -1.8560256
6.5503182 6.1691236 -1.8599499
6.5937791 6.1341472 -1.8616023
6.6111212 6.0750356 -1.855819
6.6707311 6.0547423 -1.862222
6.7019291 6.0084724 -1.8605696
6.777492 6.0016174 -1.8715165
6.7265515 5.8832607 -1.8469375
6.8284187 5.8988056 -1.8653201
6.8652291 5.8574314 -1.8655267
6.891314 5.8070002 -1.8628416
6.9290714 5.7664843 -1.8634613
6.9643235 5.7238598 -1.8634613
7.0281806 5.704452 -1.87131
7.0378566 5.6410255 -1.864494
7.0777073 5.6019869 -1.8659397
7.1227393 5.5668893 -1.8688314
7.1505666 5.5182977 -1.867179
7.174953 5.4672022 -1.8647004
7.2154007 5.428369 -1.8665594
7.280776 5.4079156 -1.8750278
7.2980409 5.3515673 -1.8708968
7.2982459 5.2831616 -1.8624284
7.3424664 5.2468147 -1.8655267
7.4025049 5.2214036 -1.8727558
7.4079056 5.1574345 -1.8659397
7.4668288 5.1307244 -1.8729624
7.4957404 5.0831647 -1.8723427
7.5381727 5.0446949 -1.8752344
7.5738831 5.0015817 -1.8764735
7.6093483 4.9582205 -1.8777128
7.643743 4.9140825 -1.8787456
7.6407022 4.8461251 -1.8704838
7.6777582 4.803823 -1.8723427
7.6946006 4.7489138 -1.8692445
7.7612028 4.7245069 -1.8785391
7.7816572 4.6717596 -1.8764735
7.8286986 4.6348915 -1.8810176
7.8679748 4.5931816 -1.8837026
7.8841381 4.5379839 -1.8808111
7.9322572 4.5011125 -1.8857682
7.9400864 4.4413695 -1.8810176
7.9277754 4.3708344 -1.8715165
7.9492865 4.3193049 -1.8702772
7.973052 4.269062 -1.8696576
7.995635 4.2182336 -1.8688314
8.0422029 4.1799245 -1.8737885
8.0642157 4.128716 -1.8729624
8.1086168 4.08885 -1.8775064
8.1353054 4.0398898 -1.8779194
8.2021313 4.0105286 -1.8878336
8.2486248 3.9707363 -1.8929973
8.2365818 3.9028695 -1.8845289
8.2284517 3.8373685 -1.8770932
8.3158693 3.8161926 -1.8919646
8.2820568 3.739325 -1.8787456
8.3316708 3.7003524 -1.8849419
8.3443565 3.6448522 -1.8826699
8.3341999 3.5796809 -1.8752344
8.4055815 3.549412 -1.8865943
8.4037066 3.4880164 -1.8812242
8.4285746 3.4378648 -1.8820503
8.4113655 3.3707952 -1.8733754
8.4564714 3.3287981 -1.8789521
8.5123291 3.2906079 -1.8870075
8.50949 3.2296348 -1.8818438
8.556653 3.1876087 -1.8880402
8.5705366 3.1330304 -1.8868009
8.5859156 3.0790622 -1.8859746
8.600955 3.0250235 -1.8851485
8.5999298 2.965493 -1.8808111
8.6300135 2.9167421 -1.8834962
8.6561069 2.866503 -1.8853551
8.6912155 2.8190727 -1.8892795
8.6952944 2.7615445 -1.8863878
8.6784391 2.6976819 -1.8789521
8.6920204 2.643527 -1.8783325
8.7371492 2.5987928 -1.8847355
8.7801771 2.5530574 -1.8907253
8.761795 2.4895065 -1.8832896
8.827816 2.4498291 -1.894443
8.8540144 2.3986874 -1.8969216
8.8468094 2.3385627 -1.892171
8.8969946 2.2935185 -1.9000198
8.8966665 2.2353075 -1.8969216
8.930172 2.1855619 -1.9012591
8.94627 2.1314065 -1.9018787
8.9486952 2.0740426 -1.8996067
8.9545708 2.0175898 -1.8981609
8.9428873 1.9573764 -1.8929973
8.9748278 1.9067379 -1.8973347
8.9729414 1.8488685 -1.894443
8.9639683 1.7897528 -1.8901056
9.0304985 1.7454894 -1.9020853
9.0218029 1.6864499 -1.8979543
9.0416098 1.6328006 -1.9000198
9.0601339 1.5788037 -1.9018787
9.0841236 1.5256134 -1.904977
9.0102472 1.4564149 -1.8872139
0 0 -0
5.8697157 0.87486684 -1.2132553
0 0 -0
0 0 -0
0 0 -0
0 0 -0
0 0 -0
0 0 -0
0 0 -0
0 0 -0
0 0 -0
0 0 -0
0 0 -0
0 0 -0
0 0 -0
0 0 -0
0 0 -0
0 0 -0
0 0 -0
0 0 -0
0 0 -0
0 0 -0
0 0 -0
0 0 -0
0 0 -0
0 0 -0
0 -0 -0
0 -0 -0
0 -0 -0
0 -0 -0
0 -0 -0
0 -0 -0
0 -0 -0
0 -0 -0
0 -0 -0
0 -0 -0
5.8861752 -0.39377868 -1.2058196
5.8758416 -0.42931828 -1.2041672
5.8848014 -0.46629032 -1.2066457
5.9032769 -0.50422049 -1.2111897
0 -0 -0
5.9511776 -0.58195376 -1.2227564
6.0535731 -0.62948209 -1.2452698
8.9925556 -0.99070758 -1.8702772
8.6471205 -1.0064054 -1.7981927
8.3785667 -1.0273062 -1.7424254
8.299324 -1.0693227 -1.7269344
8.1558876 -1.101764 -1.6978115
7.9900885 -1.1293377 -1.663938
8.0962591 -1.1950535 -1.6881039
8.1767769 -1.2582462 -1.7068995
8.1766319 -1.3096318 -1.7085519
8.1626511 -1.3588144 -1.7073126
8.1541595 -1.4088738 -1.7073126
8.1453619 -1.4588803 -1.7073126
8.1275978 -1.5072266 -1.7054538
8.101861 -1.5539359 -1.7019424
8.0480242 -1.5948718 -1.6924413
8.0265837 -1.641871 -1.6899627
8.0364628 -1.6953305 -1.6943003
8.0201721 -1.7433627 -1.693061
8.0112343 -1.792968 -1.6934741
7.9724302 -1.8357247 -1.6874843
7.9210267 -1.8751434 -1.6788093
7.8665891 -1.9133072 -1.6695148
7.3003125 -1.8231224 -1.548892
7.6700139 -1.9655021 -1.6319234
7.7524409 -2.0373921 -1.652578
7.7360148 -2.083904 -1.6517519
7.7061048 -2.1266477 -1.648034
7.6458321 -2.1605904 -1.6377068
7.6173921 -2.203115 -1.634402
7.5868425 -2.2448168 -1.6306841
7.5757351 -2.2921765 -1.6313038
7.5428329 -2.3328362 -1.6271729
7.5209126 -2.3767159 -1.6255205
7.5136371 -2.4252226 -1.6271729
7.5116248 -2.4755666 -1.6300645
7.4981484 -2.5222344 -1.6304777
7.4899349 -2.5707355 -1.63213
7.4500093 -2.6082397 -1.6267598
7.437551 -2.6552186 -1.627586
7.4247971 -2.7021427 -1.6284121
7.4245901 -2.7537732 -1.63213
7.4313507 -2.8082695 -1.6375002
7.4331555 -2.8611946 -1.6418376
7.4783168 -2.931385 -1.6560893
7.4865432 -2.9877319 -1.6620791
7.4463134 -3.0247757 -1.657122
7.4339433 -3.0730247 -1.6585678
7.4032226 -3.1136501 -1.6558827
7.356091 -3.1470876 -1.6494799
7.3321562 -3.190213 -1.6484472
7.3043904 -3.2315798 -1.6465882
7.273716 -3.2715223 -1.6441096
7.2125711 -3.2973797 -1.6346085
7.17978 -3.3358021 -1.6317168
7.16714 -3.3835526 -1.6335758
7.1321282 -3.4206963 -1.6302711
7.0951719 -3.456681 -1.6265533
7.0711975 -3.4988496 -1.6259336
7.024241 -3.5294335 -1.6199437
7.0207562 -3.5818038 -1.6242813
7.0082035 -3.6297643 -1.6265533
6.9632821 -3.6608605 -1.621183
6.9173808 -3.691082 -1.6156063
6.899765 -3.7362518 -1.6168456
6.8981481 -3.7902961 -1.6220093
6.8662152 -3.8277872 -1.6199437
6.8085313 -3.8505805 -1.6116819
6.8009024 -3.9015343 -1.6156063
6.7463889 -3.9254773 -1.6081706
6.739872 -3.9772398 -1.6125082
6.906774 -4.1330619 -1.6596006
6.8787742 -4.1738405 -1.658981
6.8347001 -4.2046914 -1.6544369
6.8237162 -4.2558684 -1.6581547
6.8049173 -4.3023634 -1.6600137
6.7767429 -4.3429809 -1.6596006
6.731915 -4.3727555 -1.6550566
6.6910639 -4.4048343 -1.6515453
6.6525149 -4.4382052 -1.6486536
6.6178622 -4.4740095 -1.6467947
6.6217675 -4.5360951 -1.65485
6.5737143 -4.5626936 -1.6496863
6.5223832 -4.5866227 -1.6436965
6.4765854 -4.614068 -1.6391525
6.4505324 -4.6554384 -1.6397722
6.3949895 -4.6752982 -1.6327497
6.4188662 -4.7534604 -1.6465882
6.332438 -4.7499003 -1.6315104
6.2844748 -4.7744613 -1.6265533
6.2434292 -4.8039827 -1.623455
6.2339015 -4.8578372 -1.6288253
6.1916876 -4.8862987 -1.6255205
6.1547098 -4.9187007 -1.6236616
6.1152864 -4.948987 -1.621183
6.074966 -4.9783549 -1.618498
6.0405402 -5.0124125 -1.6174653
6.0051761 -5.0456061 -1.616226
5.9875188 -5.0937696 -1.6199437
5.9428062 -5.1189189 -1.616226
5.9039111 -5.1488562 -1.6141605
5.8641391 -5.1778617 -1.6118885
5.851954 -5.2313514 -1.6174653
5.8211956 -5.2684731 -1.6178783
5.7873168 -5.3027701 -1.6174653
5.7604094 -5.3435035 -1.6191176
5.7132483 -5.3653531 -1.6149867
5.6816382 -5.4016562 -1.6153998
5.6279421 -5.4167404 -1.6094099
5.5861902 -5.4429774 -1.6069314
5.5540805 -5.4785256 -1.6073445
5.5044355 -5.4966011 -1.6025939
5.4912496 -5.5511389 -1.6087903
5.4475107 -5.5749316 -1.6058986
5.40029 -5.5948768 -1.6019744
2.2362473 -2.3457949 -0.64463484
2.2258368 -2.3637457 -0.64587408
2.2066259 -2.3723443 -0.64442825
2.1907036 -2.3843982 -0.64401519
5.2083707 -5.7383356 -1.5963975
5.1769819 -5.7745566 -1.5976368
5.1427498 -5.8076782 -1.59805
5.1057296 -5.8376513 -1.5976368
5.0947609 -5.8977451 -1.6056921
5.0260868 -5.8909354 -1.5951583
4.9898462 -5.9216638 -1.5951583
4.9828358 -5.9875154 -1.6048659
4.9310923 -5.999836 -1.5999088
4.8763027 -6.0079494 -1.593919
4.8356748 -6.0331759 -1.5926797
4.8022084 -6.067337 -1.593919
2.0009739 -2.5606279 -0.64649373
1.9852245 -2.5728574 -0.64649373
1.9664352 -2.581099 -0.64546102
1.9499725 -2.5923343 -0.64525443
1.9340296 -2.6042504 -0.64525443
1.7878234 -2.4385417 -0.59878165
1.755614 -2.4256892 -0.59258527
1.724768 -2.4141264 -0.58680201
4.4137516 -6.2575855 -1.5769823
4.4009905 -6.3214869 -1.5864834
4.3482661 -6.3282123 -1.5813197
4.311552 -6.3580127 -1.5821459
4.2561326 -6.3599544 -1.5759495
4.2191854 -6.3892155 -1.5767757
4.1702867 -6.4002285 -1.5730579
4.1267042 -6.4191122 -1.5714055
4.0825224 -6.4368763 -1.5695466
4.043469 -6.4626346 -1.5697532
3.9965439 -6.4756665 -1.5668615
4.0065966 -6.5819697 -1.587103
3.9565656 -6.5904918 -1.5831786
3.9080765 -6.6011739 -1.5798739
3.8596058 -6.6115098 -1.5765692
1.6775305 -2.9149895 -0.67045301
1.6586471 -2.9235258 -0.67003995
1.6411551 -2.9345021 -0.67024648
3.7032754 -6.7170901 -1.5796673
3.6549828 -6.7267909 -1.5765692
3.5997825 -6.7232146 -1.5703728
3.5689633 -6.765079 -1.5751233
3.5526576 -6.8354673 -1.5866899
3.5066357 -6.849299 -1.584831
3.4548502 -6.8514667 -1.580287
3.415792 -6.8786707 -1.5817329
3.3782489 -6.9091687 -1.5840049
3.3357916 -6.9297671 -1.5840049
3.2881804 -6.9394946 -1.5815263
3.2351992 -6.9373713 -1.5763626
3.1868575 -6.9446421 -1.573471
3.1325088 -6.9382052 -1.5674812
3.0890834 -6.9555068 -1.5670681
3.0502639 -6.9832964 -1.5691335
2.9930689 -6.9686179 -1.5614914
2.9548221 -6.9976683 -1.5639699
2.9069529 -7.0039191 -1.5612848
2.8557923 -7.0016928 -1.5567408
2.8244252 -7.0481467 -1.5633502
2.7653546 -7.0252857 -1.5542623
2.7200792 -7.0366454 -1.553023
2.6733799 -7.0440559 -1.5509576
2.6256671 -7.0484076 -1.5482724
2.5900967 -7.0855212 -1.553023
2.5478935 -7.1049643 -1.5538491
2.513341 -7.1463079 -1.5596324
2.4563658 -7.1236711 -1.551164
2.4135494 -7.1413898 -1.5517837
2.3706081 -7.1588511 -1.5524033
2.3296568 -7.182569 -1.5544688
2.2902808 -7.2116489 -1.5577735
2.243664 -7.2180915 -1.5561211
2.1967697 -7.2232976 -1.5542623
2.1521282 -7.235703 -1.5540557
2.112062 -7.263804 -1.5573604
2.0768135 -7.3095675 -1.5645895
2.0293069 -7.3127451 -1.5625241
1.978513 -7.3033385 -1.5577735
1.9369144 -7.3276381 -1.5604587
1.8801908 -7.2939072 -1.5505444
1.8318239 -7.2910724 -1.5474463
1.7970557 -7.3430414 -1.5563277
1.7467494 -7.3320384 -1.5515771
1.7019489 -7.3435712 -1.5517837
1.6553518 -7.3471947 -1.5503379
1.6104484 -7.3581691 -1.5505444
1.550626 -7.2990031 -1.5356731
1.5249685 -7.4013352 -1.5557081
1.4781848 -7.4038363 -1.5542623
1.4338422 -7.4185309 -1.5555015
1.3881161 -7.4262276 -1.555295
1.3386972 -7.4134221 -1.550751
1.290496 -7.406074 -1.5474463
1.2378967 -7.3713965 -1.5383582
1.1823361 -7.3151045 -1.5247262
1.1348752 -7.3057857 -1.521215
1.0906036 -7.3164825 -1.5220411
1.0440296 -7.3114133 -1.5195626
0.99782372 -7.3079872 -1.5174971
0.95435512 -7.3246446 -1.5197691
0.90855038 -7.323566 -1.5183233
0.86256576 -7.3202572 -1.5164644
0.81795901 -7.3283291 -1.517084
0.77205426 -7.3244529 -1.5152251
