# .PCD v0.7 - Point Cloud Data file format
VERSION 0.7
FIELDS x y z
SIZE 4 4 4
TYPE F F F
COUNT 1 1 1
WIDTH 1523
HEIGHT 1
VIEWPOINT 0 0 0 1 0 0 0
POINTS 1523
DATA ascii
3.856108 -4.1480527 -1.6432087
3.8305836 -4.1716352 -1.6432087
3.8261604 -4.2184944 -1.6526145
3.8110747 -4.2540312 -1.6574597
3.786171 -4.2787714 -1.6580298
3.7724583 -4.316359 -1.6637301
3.7584264 -4.3539395 -1.6694306
3.6868761 -4.3243923 -1.6489092
3.7090344 -4.4048667 -1.6714257
3.6758096 -4.4201708 -1.6685755
3.6522679 -4.4470868 -1.6702856
3.6321561 -4.4783483 -1.6737058
3.6183872 -4.5177603 -1.6802613
3.5656316 -4.5082965 -1.6682905
2.0108368 -2.5739524 -0.93037564
1.9833019 -2.571059 -0.92467523
1.9634252 -2.5778408 -0.92268008
1.9452676 -2.5867743 -0.92154002
1.9293588 -2.5986617 -0.92154002
1.9145101 -2.6119976 -0.92211008
1.7086201 -2.3611524 -0.82577354
1.6924297 -2.3692513 -0.82491851
1.6817247 -2.3850763 -0.8269136
3.2841113 -4.7208204 -1.6691456
3.2556252 -4.7416725 -1.6694306
3.220557 -4.75283 -1.6662953
3.1881375 -4.7677197 -1.6645852
3.1419353 -4.7615871 -1.6554646
3.1048174 -4.7687254 -1.6511893
3.0920711 -4.8134966 -1.6603099
3.060426 -4.8291397 -1.6591699
3.0459759 -4.8722134 -1.6677204
3.0230646 -4.902235 -1.6717107
2.994422 -4.9231491 -1.6725658
2.957257 -4.9299207 -1.6685755
2.923537 -4.9421973 -1.6665803
2.883019 -4.9426537 -1.6605949
2.8488154 -4.9536023 -1.6583148
2.8183672 -4.9709892 -1.6583148
2.774724 -4.9647579 -1.6503342
2.7442086 -4.9816899 -1.6503342
2.7204471 -5.0110717 -1.6546096
2.6846769 -5.0183716 -1.6514744
2.6489196 -5.0254216 -1.6483392
2.6162679 -5.0381775 -1.647199
2.5826871 -5.049015 -1.645489
1.535141 -3.046062 -0.97341353
1.5176992 -3.0580001 -0.97426856
1.5052155 -3.0801752 -0.97854388
2.4330845 -5.0590429 -1.6283878
2.4356132 -5.1449242 -1.6517594
2.3938828 -5.1380486 -1.6446339
2.3599155 -5.1474123 -1.6429237
2.3298631 -5.1652908 -1.6440638
2.2934628 -5.1689744 -1.6406436
2.2643855 -5.1890998 -1.6426388
2.2272143 -5.1905632 -1.6386485
2.1915998 -5.1952991 -1.6357983
2.1611488 -5.2121906 -1.6369383
2.1302111 -5.2280164 -1.6377934
2.0909715 -5.2231898 -1.6320931
2.0658948 -5.2537637 -1.6377934
2.0367255 -5.2743888 -1.6403586
2.0019467 -5.2805123 -1.6383635
1.9688402 -5.2908998 -1.6377934
1.9314101 -5.2893744 -1.6335181
1.8985957 -5.3002229 -1.6332331
1.8673085 -5.3153906 -1.6343732
1.8377782 -5.3358111 -1.6372234
1.8046973 -5.3460789 -1.6369383
1.7712588 -5.3552318 -1.6363683
1.7383664 -5.3659992 -1.6363683
1.7088839 -5.3875294 -1.6397885
1.6766465 -5.4006596 -1.6406436
1.6423635 -5.407177 -1.6395035
1.6107913 -5.4226661 -1.6412137
1.5777553 -5.4333677 -1.6414987
1.5441257 -5.4420242 -1.6412137
1.505845 -5.433845 -1.6357983
1.4732255 -5.4457583 -1.6366533
1.438561 -5.4500613 -1.6352283
1.405093 -5.4587855 -1.6352283
1.3750677 -5.4812508 -1.6395035
1.3434556 -5.4979653 -1.6420687
1.3136845 -5.522891 -1.647199
1.2797719 -5.5308475 -1.647199
1.2468619 -5.543272 -1.6486242
1.2128255 -5.5508184 -1.6486242
0.73532557 -3.4651909 -1.0124612
0.71578586 -3.4780877 -1.0150263
0.69611555 -3.490875 -1.0175915
0.67305052 -3.4866097 -1.0150263
0.65023965 -3.4831355 -1.0127462
0.62851572 -3.4851727 -1.0121762
0.6163041 -3.5418494 -1.0281372
0.59345257 -3.5389466 -1.0261421
0.57690889 -3.5746965 -1.0358328
0.55921561 -3.605639 -1.0440983
0.53848922 -3.6184838 -1.0469484
0.51789612 -3.6331074 -1.0503687
0.49223629 -3.6115224 -1.0429583
0.46131188 -3.5469851 -1.0227219
0.43859947 -3.5421386 -1.0204417
0.41596395 -3.537147 -1.0181615
0.39742649 -3.5682127 -1.0267122
0.38032237 -3.6163425 -1.040393
0.35680839 -3.6052535 -1.0364028
0.3337096 -3.5968759 -1.0332676
0.31492868 -3.6370549 -1.0446683
0.29283577 -3.6417851 -1.0455234
0.26914215 -3.6253512 -1.0401081
0.24702193 -3.6288469 -1.040678
0.22286555 -3.5996797 -1.0315574
0.20109245 -3.6067216 -1.0332676
0.17754288 -3.5791669 -1.024717
0.15594991 -3.5888076 -1.0272821
0.13392647 -3.5896969 -1.0272821
0.11180933 -3.5875769 -1.0264271
0.089936286 -3.5939448 -1.0281372
0.06770467 -3.5848453 -1.025287
0.045719102 -3.5861518 -1.0255721
0.023677863 -3.5806139 -1.0238619
0.001710551 -3.6027377 -1.0304173
-0.020544574 -3.6276014 -1.0378278
-0.043046672 -3.6475346 -1.0438132
-0.065986611 -3.6778693 -1.0529339
-0.089721203 -3.725307 -1.0671848
-0.11392335 -3.7687578 -1.0802958
-0.13462161 -3.7018943 -1.0606294
-0.15815368 -3.7201514 -1.0663298
-0.17802329 -3.6587965 -1.0483736
-0.19915091 -3.6337085 -1.0412481
-0.21933246 -3.597976 -1.0309874
-0.23947008 -3.567872 -1.0224369
-0.26051322 -3.5548642 -1.0190166
-0.28392142 -3.5732641 -1.025002
-0.30444562 -3.5552197 -1.0201566
-0.32924464 -3.585737 -1.0298474
-0.34964541 -3.5674326 -1.025002
-0.37202647 -3.5699868 -1.0264271
-0.39740616 -3.5990758 -1.0358328
-0.42382479 -3.6336989 -1.0469484
-0.44915965 -3.6557646 -1.054359
-0.47158253 -3.6529398 -1.054359
-0.51666588 -3.8171461 -1.1045223
-0.53307444 -3.7645552 -1.0897014
-0.52398884 -3.5440829 -1.0244319
-0.54338408 -3.5256443 -1.0198717
-0.56972265 -3.5515814 -1.0287073
-0.5952943 -3.570709 -1.0355477
-0.61539155 -3.5566003 -1.0324125
-0.64889961 -3.6178529 -1.0520788
-0.67161202 -3.6166303 -1.0529339
-0.68944466 -3.5898509 -1.0460935
-0.70977688 -3.5770919 -1.0435283
-0.7311343 -3.5698526 -1.0426732
-0.75381821 -3.5690503 -1.0438132
-0.77243727 -3.5493731 -1.039253
-0.79671973 -3.5557899 -1.0426732
-0.81809145 -3.5489664 -1.0421032
-0.84317207 -3.5578692 -1.0463785
-0.86634916 -3.5582161 -1.0480886
-0.93960559 -3.7583261 -1.1110778
-0.94619477 -3.6884313 -1.0914115
-0.79375124 -3.0179651 -0.88705266
-0.81475252 -3.0222919 -0.88990289
-0.82817143 -2.9987588 -0.88420248
-0.86065918 -3.0434227 -0.89959353
-0.86837721 -3.0003383 -0.88790774
-1.0698707 -3.6125081 -1.0794407
-1.0953538 -3.616883 -1.0828609
-1.1249028 -3.6338987 -1.0902715
-1.154991 -3.6516008 -1.0979669
-1.1853385 -3.6690695 -1.1056625
-1.1837866 -3.5889122 -1.0828609
-1.0704845 -3.1801002 -0.95688242
-1.0859252 -3.1616883 -0.95317715
-1.1024494 -3.1468251 -0.95061201
-1.1217372 -3.1400013 -0.95061201
-1.1258805 -3.0916345 -0.93750107
-1.1401557 -3.0720887 -0.93351084
-1.1616988 -3.0722067 -0.93579096
-1.1888036 -3.0864851 -0.94263142
-1.2031655 -3.067534 -0.93892622
-1.3582286 -3.4009819 -1.0480886
-1.3931592 -3.4272101 -1.0592043
-1.4156286 -3.4221396 -1.0603443
-1.4365997 -3.4133892 -1.0603443
-1.4631796 -3.4177258 -1.0646197
-1.4825912 -3.4051688 -1.0634797
-1.5081166 -3.4065237 -1.0668999
-1.5309585 -3.4015758 -1.0683249
-1.5545946 -3.3982186 -1.0703201
-1.5766295 -3.391223 -1.0711751
-1.5834786 -3.3520222 -1.0614845
-1.6102413 -3.3552034 -1.0657598
-1.623233 -3.3297536 -1.0606294
-1.6359731 -3.3042715 -1.0554991
-1.638122 -3.258209 -1.0435283
-1.6410761 -3.2148066 -1.0324125
-1.6700383 -3.2225454 -1.0383979
-1.7022827 -3.2359862 -1.0463785
-1.7243648 -3.2297072 -1.0478035
-1.7400374 -3.2114823 -1.0452384
-1.7694131 -3.2183812 -1.0512238
-1.7980042 -3.2233658 -1.0566392
-1.8253058 -3.2256176 -1.0611994
-1.8269209 -3.1827734 -1.0503687
-1.8493108 -3.1764729 -1.0520788
-1.8731549 -3.172493 -1.054644
-1.8748502 -3.1313396 -1.0443833
-1.8731254 -3.085371 -1.0324125
-1.8960433 -3.0803485 -1.0346926
-1.9164314 -3.0710957 -1.0355477
-1.9337012 -3.0568492 -1.0346926
-1.9607035 -3.0578344 -1.039253
-2.003468 -3.0827088 -1.0523639
-2.0413356 -3.099169 -1.0626246
-2.0672345 -3.0969472 -1.0663298
-2.0878098 -3.0865858 -1.0671848
-2.1235161 -3.0982218 -1.0760205
-2.0697374 -2.9804456 -1.0381129
-2.1199908 -3.0131478 -1.054644
-2.1568072 -3.0258348 -1.0640496
-2.1736486 -3.0102131 -1.0631946
-2.2113266 -3.0231173 -1.0728853
-2.2115664 -2.9848526 -1.0637646
-2.2114208 -2.9466996 -1.054644
-2.231781 -2.9361267 -1.0557841
-2.2509246 -2.9238963 -1.0563542
-2.2358055 -2.8677084 -1.040393
-2.2432575 -2.84115 -1.0355477
-2.257654 -2.82359 -1.0341226
-2.2755401 -2.8104289 -1.0344076
-2.2830143 -2.7845569 -1.0298474
-2.3110821 -2.7837675 -1.0349777
-2.3071411 -2.7445948 -1.025287
-2.3357468 -2.7442515 -1.0307024
-2.3700683 -2.7501931 -1.0386829
-2.3818552 -2.7298224 -1.0364028
-2.4061782 -2.7237742 -1.0398231
-2.4215672 -2.7075305 -1.039253
-2.4284809 -2.6819663 -1.0349777
-2.4643295 -2.6882055 -1.0435283
-2.4944751 -2.6877837 -1.0495137
-2.5562229 -2.7206135 -1.06918
-2.553704 -2.6847427 -1.0609144
-2.551507 -2.6496961 -1.0529339
-2.5657091 -2.631932 -1.0520788
-2.5851777 -2.6195498 -1.053504
-2.5632524 -2.5656767 -1.0375428
-2.6000834 -2.5707858 -1.0463785
-2.6062052 -2.5454102 -1.0423882
-2.630055 -2.5373545 -1.0458084
-2.6677859 -2.5423224 -1.054929
-2.6847312 -2.5272188 -1.0554991
-2.6959746 -2.5067832 -1.0537889
-2.7105989 -2.4895458 -1.053504
-2.7279539 -2.4747984 -1.054359
-2.7395172 -2.4548161 -1.0529339
-2.7609899 -2.443676 -1.0554991
-2.7809849 -2.4311035 -1.0574942
-2.7965753 -2.4146199 -1.0577792
-2.8135271 -2.3992803 -1.0586343
-2.8120625 -2.3683922 -1.0523639
-2.8213818 -2.3468041 -1.0503687
-2.8305426 -2.325191 -1.0483736
-2.8432672 -2.306572 -1.0478035
-2.8566182 -2.2884836 -1.0475185
-2.8818853 -2.2798295 -1.0517938
-2.8739085 -2.2449987 -1.0435283
-2.8921845 -2.2308335 -1.0452384
-2.8936143 -2.203757 -1.040678
-2.910147 -2.1882641 -1.0418181
-3.0035789 -2.2297618 -1.0714601
-3.0342164 -2.2237504 -1.0777305
-3.0237246 -2.1876807 -1.068895
-3.1190104 -2.2275548 -1.098822
-3.0479922 -2.1487541 -1.0680399
-3.0603325 -2.1294644 -1.0677549
-3.0693896 -2.1079345 -1.0663298
-3.0830593 -2.0895989 -1.0666149
-3.1006043 -2.0738382 -1.0683249
-3.1020687 -2.0473857 -1.0643346
-3.0993085 -2.0183794 -1.0589193
-3.143091 -2.0195222 -1.0700351
-3.1465163 -1.9945563 -1.0668999
-3.1375611 -1.9620054 -1.0594894
-3.1617801 -1.950261 -1.0637646
-3.1630397 -1.9243507 -1.0600594
-3.1542358 -1.892584 -1.0529339
-3.1509376 -1.8644129 -1.0478035
-3.1747389 -1.8522857 -1.0520788
-3.2259331 -1.8557001 -1.0657598
-3.2297535 -1.831618 -1.0631946
-3.2451153 -1.8141034 -1.0646197
-3.2948098 -1.815424 -1.0777305
-3.3042021 -1.794259 -1.0771605
-3.3717823 -1.8042331 -1.0962569
-3.4014461 -1.7933394 -1.1025273
-3.4600279 -1.7971625 -1.1184883
-3.5085418 -1.7950972 -1.1310291
-3.541749 -1.7847438 -1.1384397
-3.5397522 -1.756591 -1.1341643
-3.5875013 -1.7529223 -1.1464202
-3.6085563 -1.7358599 -1.1498405
-3.6650603 -1.7354131 -1.1649464
-3.7234306 -1.7351466 -1.1806226
-3.7714772 -1.7294369 -1.1928784
-3.848429 -1.736202 -1.2145398
-3.9641573 -1.7591839 -1.2487421
-5.092454 -2.2222354 -1.6112866
-4.0083508 -1.7202275 -1.2561526
-4.1945944 -1.7697023 -1.3128715
-4.2337103 -1.7556738 -1.321992
-4.2586069 -1.7354472 -1.3265524
-4.3199019 -1.7295792 -1.3427985
-4.3607645 -1.7149601 -1.3524891
-4.4168115 -1.705771 -1.3670251
-4.4531889 -1.6884865 -1.3752906
-5.210043 -1.9387709 -1.6121417
-4.5780249 -1.6718277 -1.408353
-4.6432457 -1.6634123 -1.425739
-4.7591805 -1.6720394 -1.4590863
-4.9225216 -1.6955266 -1.5072546
-5.0572605 -1.7072659 -1.5463022
-5.2205372 -1.7267389 -1.5941855
-5.2720709 -1.7079587 -1.6070113
-5.4332151 -1.7233648 -1.6540395
-5.5334044 -1.7178276 -1.6819714
-5.5777769 -1.6941431 -1.6925172
-5.6735244 -1.6852524 -1.7190239
-5.7307067 -1.6640311 -1.7335598
-5.8044391 -1.6468772 -1.7532263
-5.9031157 -1.6357868 -1.780588
-6.0342579 -1.6323006 -1.8179256
-6.2239647 -1.6426649 -1.8732194
-6.340683 -1.6319001 -1.9059966
-6.3961349 -1.6043828 -1.9199625
-6.4365878 -1.5726087 -1.9293681
-6.4656992 -1.5377389 -1.9353535
-6.4778147 -1.4986848 -1.9362086
-6.5065279 -1.4633228 -1.942194
-6.5172567 -1.4237807 -1.942764
-6.5268083 -1.3839635 -1.9430491
-6.52391 -1.3415748 -1.9396288
-6.5207381 -1.2992738 -1.9362086
-6.5059986 -1.254886 -1.9293681
-6.5484414 -1.2214392 -1.9399139
-6.5586429 -1.1817452 -1.940769
-6.5771027 -1.143448 -1.9441891
-6.5622516 -1.0994312 -1.9376336
-6.5669813 -1.0588404 -1.9370637
-6.5847216 -1.0202855 -1.9404839
-6.5937023 -0.98028558 -1.9413389
-6.6081338 -0.94102365 -1.9439042
-6.6118841 -0.9002009 -1.9433341
-6.6125302 -0.85899764 -1.941909
-6.6195788 -0.81864268 -1.942479
-6.6244774 -0.77801031 -1.942479
-6.6195998 -0.73629069 -1.9396288
-6.6335258 -0.69665921 -1.942479
-6.6433992 -0.65650809 -1.9441891
-6.6520748 -0.6161738 -1.9456142
-6.6528654 -0.57509869 -1.9447591
-6.6514916 -0.53388405 -1.9433341
-6.667069 -0.49397978 -1.9470394
-6.6441536 -0.45131272 -1.9393438
-6.6448841 -0.41041863 -1.9387738
-6.6654615 -0.37064666 -1.9441891
-6.6723971 -0.32997707 -1.9456142
-0 -0 -0
-6.6797752 -0.24821335 -1.9467543
-6.6974597 -0.20772468 -1.9515996
-6.6880679 -0.16636555 -1.9484644
-0 -0 -0
-6.6838551 -0.08420869 -1.9467543
-6.6775365 -0.04315355 -1.9447591
-0 -0 -0
-6.6583929 0.038678642 -1.9390588
-6.6551552 0.079498202 -1.9382037
-6.6564589 0.12036696 -1.9387738
-6.6440959 0.16092743 -1.9353535
-6.6199899 0.20098966 -1.9285131
-6.6397052 0.24237832 -1.9347835
-6.6237283 0.28249907 -1.9305083
-6.6151686 0.32280797 -1.9285131
-6.5967932 0.36249489 -1.9236678
-6.5973148 0.40314111 -1.9245228
-6.6023679 0.44412991 -1.926803
-0 -0 -0
-0 -0 -0
-0 -0 -0
-0 -0 -0
-0 -0 -0
-0 0 -0
-6.4206977 0.074294344 -1.9465998
-0 0 -0
-6.3925624 0.15244459 -1.93832
-6.3886423 0.19158001 -1.9374329
-6.3883009 0.23081082 -1.9377286
-6.382947 0.26984319 -1.9365457
-6.3811712 0.30900314 -1.9365457
-6.3991861 0.34924343 -1.9427556
-6.4026437 0.3888486 -1.9445299
-6.4087157 0.42870048 -1.9471912
-0 0 -0
-6.3924971 0.50648367 -1.9439385
-6.3521481 0.54252964 -1.9324058
-6.346797 0.58132136 -1.9318144
-0 0 -0
-6.3448863 0.65975499 -1.9335887
-6.3283749 0.69731468 -1.9297445
-0 0 -0
-0 0 -0
-0 0 -0
-0 0 -0
-6.3163033 0.89284557 -1.9335887
-6.2993655 0.92991149 -1.9300402
-6.2793784 0.96636754 -1.9256046
-6.2610683 1.0029155 -1.9217603
-6.2576237 1.0417842 -1.9226475
-6.2492309 1.0798354 -1.9220561
-6.247189 1.1190015 -1.9235346
-6.2364483 1.156616 -1.9223518
-6.2311101 1.1952201 -1.9229432
-6.2170997 1.2321315 -1.9208733
-6.2141023 1.2712126 -1.9223518
-6.2024465 1.3085291 -1.9211689
-6.1924334 1.3461564 -1.9205775
-6.1756673 1.3822497 -1.9179162
-6.1791716 1.4229028 -1.9217603
-6.169395 1.4605707 -1.9214647
-6.1733122 1.5015579 -1.9256046
-6.1584215 1.53802 -1.9238303
-6.1562715 1.5776751 -1.926196
-6.1122904 1.6064373 -1.9152548
-6.1299906 1.6513642 -1.924126
-6.089354 1.6805613 -1.9143677
-6.0816855 1.7186725 -1.9152548
-6.0774493 1.7578142 -1.9173248
-6.0665493 1.7950716 -1.9173248
-6.0572491 1.8328147 -1.9179162
-6.0458894 1.8699467 -1.9179162
-6.031569 1.906145 -1.917029
-6.0215778 1.943705 -1.9176204
-6.0177035 1.9833066 -1.9202818
-5.9954615 2.0168436 -1.917029
-5.9775519 2.0517325 -1.9152548
-5.9756699 2.0921588 -1.9188033
-5.9411278 2.1210783 -1.9117063
-5.9387736 2.1614122 -1.9152548
-5.9227123 2.1968148 -1.9143677
-5.9019728 2.2304132 -1.912002
-5.876586 2.2621245 -1.9081578
-5.8661532 2.2995343 -1.9093406
-5.8643546 2.3404417 -1.9134805
-5.845458 2.3745832 -1.912002
-5.8254809 2.4082162 -1.9102278
-5.822042 2.4487293 -1.9140719
-5.7963681 2.4798982 -1.9105234
-5.7871742 2.518085 -1.9125934
-5.7689939 2.5523875 -1.9117063
-5.7558379 2.5889127 -1.9125934
-5.7302871 2.6198127 -1.9093406
-5.7097726 2.6529114 -1.9078621
-5.7028899 2.6923814 -1.9111149
-5.6845398 2.7264969 -1.9105234
-5.6668444 2.7609069 -1.9102278
-5.6446595 2.7930844 -1.9084535
-5.6342444 2.8310976 -1.9108192
-5.6091084 2.8617086 -1.9081578
-5.5931401 2.8969502 -1.9087492
-5.5701861 2.9285476 -1.9069749
-5.5529547 2.9631202 -1.9072707
-5.5422292 3.0012302 -1.909932
-5.5211983 3.0338004 -1.9090449
-5.4966383 3.0643649 -1.9069749
-5.476069 3.0970933 -1.9063835
-5.4619346 3.1334875 -1.9081578
-5.4409537 3.1659815 -1.9075664
-5.3918066 3.1818309 -1.8969209
-5.3910356 3.2261357 -1.9037222
-5.373589 3.2606404 -1.9046093
-5.3510399 3.2920492 -1.9037222
-5.3404665 3.3308864 -1.9072707
-5.3231583 3.365634 -1.9084535
-5.311254 3.4039023 -1.9117063
-5.2926717 3.4379885 -1.9125934
-5.2619019 3.4640963 -1.9090449
-5.2365742 3.4936669 -1.9075664
-5.2166214 3.5268021 -1.9081578
-5.1877899 3.5538857 -1.9054965
-5.1635318 3.5840166 -1.9046093
-5.1437879 3.6172802 -1.9054965
-5.1230521 3.6498823 -1.9060879
-5.1059828 3.6851611 -1.9081578
-5.0879021 3.719804 -1.909932
-5.0619111 3.7486789 -1.9087492
-5.0349932 3.7768018 -1.9072707
-5.0025964 3.8006907 -1.9037222
-4.9867525 3.8371396 -1.9066793
-4.9412618 3.8506384 -1.8981037
-4.9362898 3.8956788 -1.9054965
-4.9093084 3.9235084 -1.9043136
-4.8881121 3.9559612 -1.9054965
-4.8607912 3.9834578 -1.9043136
-4.84655 4.0217481 -1.9084535
-4.8232446 4.052639 -1.9090449
-4.7917385 4.0765867 -1.9063835
-4.7630157 4.1027946 -1.904905
-4.7370319 4.1313148 -1.9046093
-4.7137418 4.1622 -1.9054965
-4.6817045 4.1853147 -1.902835
-4.6545191 4.2126803 -1.9022436
-4.6257653 4.2385793 -1.9010608
-4.5919666 4.259737 -1.897808
-4.5706177 4.2924099 -1.899878
-4.5441942 4.320374 -1.899878
-4.5120926 4.342876 -1.8975123
-4.4908342 4.375813 -1.899878
-4.4666204 4.4059687 -1.9010608
-4.4543738 4.4481421 -1.9075664
-4.3987794 4.4468675 -1.8951466
-4.3714113 4.473774 -1.8951466
-4.343215 4.499825 -1.894851
-4.3221149 4.5333033 -1.897808
-4.3033876 4.5694733 -1.901948
-4.2772207 4.5978909 -1.902835
-4.2431107 4.6177182 -1.9001737
-4.2082763 4.6365933 -1.8972166
-4.1842113 4.6673064 -1.8992865
-4.1535945 4.6907468 -1.8983995
-4.1322818 4.7247729 -1.901948
-4.0975928 4.7435331 -1.8992865
-4.0591087 4.7576861 -1.894851
-4.0390739 4.7934599 -1.8992865
-4.0095854 4.8181529 -1.8992865
-3.9666016 4.8264289 -1.892781
-3.9519637 4.8692188 -1.9001737
-3.9220123 4.8933759 -1.9001737
-3.8907275 4.9158511 -1.8995823
-3.8575497 4.9358683 -1.8981037
-3.8277748 4.9602008 -1.8983995
-3.7978466 4.984354 -1.8986951
-3.7689147 5.0098534 -1.8995823
-3.7318377 5.0244493 -1.8963295
-3.7031977 5.0503345 -1.8975123
-3.6575749 5.0528431 -1.8898239
-3.6270578 5.0759678 -1.8901196
-3.5969453 5.0996885 -1.8907111
-3.5563068 5.108336 -1.885684
-3.5205674 5.1237621 -1.8833183
-3.4917433 5.1492205 -1.8847969
-3.4653959 5.1784873 -1.887754
-3.4446115 5.216393 -1.8939638
-3.4078455 5.2302275 -1.8913025
-3.3875718 5.2695203 -1.8981037
-3.3521047 5.2853665 -1.8963295
-3.3165708 5.3009763 -1.8945552
-3.2739472 5.3049688 -1.8886411
-3.2368641 5.3176136 -1.8859797
-3.2051585 5.3390126 -1.886571
-3.1772056 5.3667984 -1.8895282
-3.1509588 5.3977423 -1.8936681
-3.1182561 5.4178023 -1.8939638
-3.0858974 5.4384952 -1.8945552
-3.0538685 5.4598289 -1.8954424
-3.0041661 5.4491854 -1.8850926
-2.9802523 5.4851422 -1.8913025
-2.9411285 5.4932199 -1.887754
-2.9038012 5.5044036 -1.8853883
-2.8748186 5.5314412 -1.8886411
-2.8351643 5.5379229 -1.8847969
-2.8037119 5.5603323 -1.886571
-2.7742155 5.5868425 -1.8898239
-2.7403028 5.6046176 -1.8901196
-2.7062762 5.6221871 -1.8904153
-2.6692736 5.6335073 -1.8886411
-2.6358681 5.6523767 -1.8895282
-2.599144 5.6641026 -1.8880496
-2.5592299 5.6686258 -1.8842055
-2.5360332 5.710413 -1.8930767
-2.4975052 5.717988 -1.8904153
-2.4461606 5.6954627 -1.8776999
-2.4085662 5.7042046 -1.8756299
-2.3731544 5.7179937 -1.8753341
-2.3365815 5.7289095 -1.8741513
-2.2964101 5.7307243 -1.8700114
-2.2584043 5.737596 -1.8676457
-2.2483037 5.8163886 -1.8892325
-2.2030804 5.805068 -1.8809526
-2.1760912 5.8417506 -1.8886411
-2.1349576 5.8406377 -1.8839097
-2.1052077 5.8707123 -1.8895282
-2.068512 5.8817167 -1.8889368
-2.029269 5.8852673 -1.8859797
-1.9937313 5.8994179 -1.886571
-1.9598984 5.9187951 -1.8889368
-1.9223653 5.9270744 -1.887754
-1.8793098 5.9178181 -1.8809526
-1.8426797 5.9283257 -1.880657
-1.8079376 5.945004 -1.8824311
-1.7711533 5.95507 -1.8821355
-1.7359141 5.9704118 -1.8836141
-1.69977 5.9827886 -1.8842055
-1.6594515 5.9802189 -1.8800656
-1.6224765 5.9893665 -1.8797698
-1.5881376 6.0084443 -1.8827269
-1.5459936 5.9977255 -1.8762213
-1.5061364 5.9950542 -1.8723772
-1.4672788 5.995832 -1.8697157
-1.4293543 6.0000758 -1.8682373
-1.3963948 6.0254841 -1.87356
-1.3579267 6.0274153 -1.87149
-1.3184662 6.024436 -1.8679415
-1.2816746 6.0333467 -1.8682373
-1.2448235 6.0420332 -1.8685329
-1.2077267 6.0495572 -1.8685329
-1.1718539 6.0634193 -1.8706028
-1.1342763 6.0686178 -1.8700114
-1.0980375 6.0811033 -1.8717858
-1.0595555 6.0811391 -1.8697157
-1.0219059 6.0856414 -1.8691243
-0.98454595 6.0917974 -1.8691243
-0.94846898 6.1062193 -1.8717858
-0.91394275 6.1317654 -1.8779956
-0.87670702 6.1400948 -1.8788826
-0.83966202 6.1500912 -1.8803612
-0.80425602 6.1731253 -1.8859797
-0.76565731 6.172256 -1.8842055
-0.72911274 6.1882224 -1.887754
-0.69091678 6.190681 -1.8871626
-0.65211689 6.1872034 -1.8847969
-0.61442375 6.1939402 -1.885684
-0.57516754 6.1842775 -1.8815441
-0.5372107 6.1876903 -1.8815441
-0.49977157 6.197535 -1.8836141
-0.46237379 6.2090588 -1.8862754
-0.42322454 6.1965299 -1.8815441
-0.38691527 6.2266598 -1.8901196
-0.34934339 6.2403622 -1.8936681
-0.30990422 6.2194901 -1.886571
-0.27215379 6.2308183 -1.8895282
-0.23380941 6.229507 -1.8886411
-0.19516101 6.2174568 -1.8845011
-0.1572253 6.2271323 -1.8871626
-0.11903169 6.2289348 -1.8874582
-0.080759615 6.2257271 -1.8862754
-0.042597298 6.2318368 -1.8880496
-0.0043608509 6.2348471 -1.8889368
0.033957116 6.2462196 -1.8924853
0.072073683 6.2277446 -1.8868668
0.1098637 6.2033067 -1.8794742
0.14733383 6.1776857 -1.8717858
0.18480802 6.1623425 -1.8673501
0.22278811 6.1658659 -1.8688287
0.26114073 6.1767902 -1.8726728
0.29811299 6.1559887 -1.8667587
0.33530784 6.1435509 -1.8635058
0.37322903 6.1451921 -1.8646888
0.41099191 6.1437392 -1.8649844
0.44882053 6.1430073 -1.8655758
0.48710799 6.1477561 -1.8679415
0.52514571 6.148459 -1.8691243
0.56338447 6.1508288 -1.8708986
0.60222954 6.1586652 -1.8744471
0.64138943 6.1681561 -1.878587
0.67723763 6.1460633 -1.8729686
0.71515721 6.1436901 -1.87356
0.75249207 6.1363416 -1.8726728
0.78915358 6.1240292 -1.8703072
0.82837695 6.1313787 -1.8741513
0.8621071 6.0987501 -1.8655758
0.90062767 6.1009059 -1.8679415
0.9399333 6.1075392 -1.8717858
0.97920316 6.1129756 -1.8753341
1.0192024 6.1219296 -1.8800656
1.05821 6.1240325 -1.8827269
1.0907153 6.0892148 -1.8738557
1.1299731 6.0927396 -1.8771085
1.1671562 6.084753 -1.8768127
1.2024274 6.0671697 -1.87356
1.2386752 6.0549979 -1.8720814
1.2773818 6.0547609 -1.8744471
1.3157263 6.0524101 -1.8762213
1.3534641 6.04702 -1.8771085
1.3903282 6.0376701 -1.8768127
1.4242682 6.0160112 -1.8726728
1.4622836 6.0118003 -1.8741513
1.4989123 6.0017877 -1.8738557
1.5366588 5.9961791 -1.8750385
1.575121 5.9931049 -1.8771085
1.611616 5.9824052 -1.8768127
1.6488011 5.9742455 -1.8774042
1.6880246 5.9732089 -1.8803612
1.7225208 5.9553976 -1.8779956
1.7565912 5.9364719 -1.8753341
1.7957497 5.9347258 -1.8782912
1.831284 5.9208574 -1.8774042
1.8540524 5.8666973 -1.8635058
1.8929489 5.8643017 -1.8664629
1.9348751 5.8707223 -1.8723772
1.9720788 5.8623614 -1.87356
2.0108032 5.8582826 -1.8762213
2.0476577 5.8485394 -1.8771085
2.0815785 5.8304667 -1.8753341
2.125154 5.8391294 -1.8824311
2.1599457 5.8232927 -1.8815441
2.1912467 5.7983131 -1.8776999
2.2247245 5.7794094 -1.8759257
2.2594473 5.7638712 -1.8753341
2.2908769 5.740139 -1.8720814
2.3339629 5.7454457 -1.878587
2.3651586 5.7213054 -1.8753341
2.408366 5.7260585 -1.8818398
2.4366925 5.695364 -1.8765171
2.4757845 5.6899409 -1.8797698
2.508332 5.6694012 -1.8779956
2.5454226 5.6591311 -1.8797698
2.5769212 5.6364555 -1.8774042
2.6122622 5.6222706 -1.8779956
2.6516039 5.6165023 -1.8815441
2.6794071 5.5863452 -1.8768127
2.7111239 5.5646467 -1.8750385
2.7477586 5.5530438 -1.8768127
2.7809219 5.5343723 -1.8762213
2.8135257 5.5146518 -1.8753341
2.8446741 5.4921951 -1.87356
2.8774312 5.4729457 -1.8729686
2.9078107 5.4492874 -1.8708986
2.9421017 5.433023 -1.87149
2.9804425 5.424078 -1.8747427
3.017854 5.413198 -1.8774042
3.0496011 5.3920841 -1.8765171
3.0845304 5.376585 -1.8776999
3.1136191 5.3509521 -1.8753341
3.1478498 5.3342147 -1.8762213
3.1819921 5.3172588 -1.8771085
3.2170358 5.3017178 -1.878587
3.2505069 5.2835059 -1.8791784
3.2732604 5.2480607 -1.87356
3.3002958 5.2198033 -1.8706028
3.336385 5.2058892 -1.8729686
3.3708665 5.1893253 -1.8744471
3.4057956 5.1733317 -1.8762213
3.4327033 5.1451845 -1.87356
3.4674189 5.1287737 -1.8753341
3.4923451 5.0979438 -1.8717858
3.5235598 5.0764194 -1.8717858
3.5568397 5.0578294 -1.8729686
3.5955665 5.0468025 -1.8771085
3.6275833 5.026195 -1.8776999
3.6606102 5.0069265 -1.8788826
3.6912632 4.9843712 -1.8788826
3.7183383 4.9570427 -1.8771085
3.7469506 4.9318523 -1.8762213
3.7829664 4.9163399 -1.8791784
3.8130612 4.8930354 -1.8791784
3.8406456 4.8665471 -1.8779956
3.8644702 4.8354268 -1.8750385
3.89587 4.8138518 -1.8759257
3.9259393 4.7905955 -1.8762213
3.9558699 4.7671514 -1.8765171
3.9918053 4.7508345 -1.8797698
4.018405 4.7233415 -1.878587
4.0491815 4.7007675 -1.8794742
4.0766931 4.6743937 -1.8788826
4.1173105 4.6628976 -1.8845011
4.1292915 4.6190286 -1.8768127
4.1607604 4.5971465 -1.8782912
4.1998601 4.5835042 -1.8833183
4.2279053 4.5576477 -1.8833183
4.2636375 4.5399766 -1.8868668
4.2835159 4.5054216 -1.8833183
4.3071055 4.4749241 -1.8815441
4.3378153 4.4518328 -1.8830227
4.3576708 4.4176517 -1.8797698
4.3981943 4.4043503 -1.885684
4.4285316 4.3806396 -1.8871626
4.4628425 4.3607287 -1.8904153
4.4895158 4.3332629 -1.8904153
4.5063405 4.2964048 -1.8862754
4.5298362 4.2660537 -1.8850926
4.5552278 4.2375283 -1.8847969
4.5762196 4.2049732 -1.8827269
4.5983977 4.1736045 -1.8812484
4.6310325 4.1516881 -1.8842055
4.6650014 4.1307945 -1.887754
4.6924167 4.1039796 -1.8886411
4.7110043 4.0694895 -1.8859797
4.7402453 4.0442271 -1.887754
4.773737 4.0224528 -1.8913025
4.7873149 3.9839194 -1.8868668
4.8101935 3.9532566 -1.8862754
4.8440018 3.931494 -1.8901196
4.8725057 3.9052827 -1.8918939
4.9046159 3.881834 -1.8951466
4.926084 3.8499019 -1.8942596
4.9397826 3.812016 -1.8904153
4.9585209 3.7781601 -1.8886411
4.9861898 3.7511101 -1.8904153
5.0098791 3.7210145 -1.8907111
5.0326166 3.6902044 -1.8907111
5.0613551 3.6637368 -1.8930767
5.0806313 3.6303904 -1.8918939
5.1035919 3.5996985 -1.8921895
5.1153913 3.5612195 -1.8883454
5.1497431 3.5384216 -1.8930767
5.1697764 3.5056844 -1.8924853
5.1975408 3.478148 -1.894851
5.216393 3.4446115 -1.8939638
5.2382307 3.4130611 -1.8942596
5.2614846 3.3824055 -1.8951466
5.2845597 3.351593 -1.8960338
5.3025961 3.3175843 -1.8951466
5.3155365 3.2804699 -1.8924853
5.3412766 3.2512701 -1.8945552
5.3668585 3.2218776 -1.8966252
5.3840604 3.1874263 -1.895738
5.4142413 3.1605918 -1.8995823
5.4351883 3.1282642 -1.9001737
5.4501266 3.0924983 -1.8986951
5.4731679 3.0613306 -1.9001737
5.4885025 3.0258453 -1.8989909
5.5128407 2.9953043 -1.9010608
5.5243788 2.957814 -1.8986951
5.5441136 2.924753 -1.8992865
5.5721264 2.895967 -1.902835
5.5642819 2.8486612 -1.8939638
5.5790973 2.8131752 -1.8930767
5.5936871 2.7776148 -1.8921895
5.6363697 2.75583 -1.9010608
5.6574764 2.7232659 -1.9025394
5.6939344 2.6979101 -1.9093406
5.6748857 2.6463666 -1.8972166
5.6979628 2.6146841 -1.8995823
5.7234755 2.5839975 -1.902835
5.7418423 2.5499935 -1.9037222
5.7643838 2.5177736 -1.9060879
5.7849903 2.4846189 -1.9078621
5.7913265 2.4453595 -1.904905
5.8044572 2.4090462 -1.9043136
5.8085155 2.3690555 -1.9007651
5.8273759 2.3351474 -1.9022436
5.8380389 2.2979476 -1.9010608
5.8493562 2.2610493 -1.9001737
5.8631196 2.2251158 -1.9001737
5.8775573 2.1894319 -1.9004694
5.886395 2.1516867 -1.8989909
5.9165711 2.1216557 -1.9046093
5.9303789 2.0856292 -1.904905
5.9430647 2.049202 -1.904905
5.9672909 2.016674 -1.9087492
5.9786458 1.9797212 -1.9084535
5.9970412 1.9450631 -1.9105234
6.0052214 1.9070725 -1.9093406
6.0213709 1.8716073 -1.9108192
6.0254302 1.8324016 -1.9084535
6.0429692 1.7973025 -1.9105234
6.0511317 1.7593894 -1.9096364
6.0581379 1.7211827 -1.9084535
6.0649028 1.6829563 -1.9072707
6.0788031 1.6467104 -1.9084535
6.0971045 1.6115782 -1.9111149
6.1189036 1.5772372 -1.9149591
6.1321721 1.540594 -1.9161419
6.1498604 1.5049828 -1.9188033
6.1431818 1.4634553 -1.9137763
6.1594906 1.4274597 -1.9161419
6.1597462 1.3877487 -1.9134805
6.1765437 1.3517658 -1.9161419
6.1903286 1.3150332 -1.9179162
6.2038946 1.2781821 -1.9196904
6.2181778 1.2414013 -1.9217603
6.2331815 1.2046746 -1.924126
6.2432728 1.1669326 -1.9250132
6.248435 1.128263 -1.9244218
6.2599459 1.0907222 -1.9259002
6.2552156 1.0503923 -1.9223518
6.2700305 1.0133635 -1.9250132
6.261971 0.97267199 -1.9205775
6.2716007 0.93479449 -1.9217603
6.2753267 0.89602488 -1.9211689
6.2892251 0.8586669 -1.9238303
6.2981644 0.82055467 -1.9250132
6.3049765 0.78212976 -1.9256046
6.3248363 0.74521786 -1.9303359
6.3207455 0.70544118 -1.9276745
6.3192549 0.6660434 -1.9259002
6.3146672 0.62640744 -1.9232389
6.3155384 0.58738399 -1.9223518
6.3161688 0.54837346 -1.9214647
6.3013229 0.50814778 -1.9158462
6.3338542 0.47167507 -1.9250132
6.3337698 0.43260694 -1.924126
6.3372583 0.3937948 -1.9244218
6.3395553 0.35490271 -1.9244218
6.3406596 0.31594965 -1.924126
6.3482051 0.27728862 -1.9259002
6.3469234 0.23822388 -1.9250132
6.3463559 0.19921535 -1.9244218
6.3694229 0.16082707 -1.931223
6.3750653 0.12183356 -1.9327016
6.3785586 0.082751952 -1.9335887
6.380857 0.043625478 -1.9341801
6.362854 0.0044585946 -1.9285617
6.3704038 -0.034624286 -1.9309273
6.3767581 -0.07378865 -1.9329972
6.367589 -0.11276262 -1.9303359
6.3801475 -0.15214929 -1.9344758
6.378139 -0.1912657 -1.9341801
6.3873463 -0.23077638 -1.9374329
6.3877192 -0.27004462 -1.9380243
6.392621 -0.30955687 -1.9400942
6.3991861 -0.34924343 -1.9427556
6.3988295 -0.38861722 -1.9433471
6.3963246 -0.42787239 -1.9433471
6.4021535 -0.46773735 -1.9460084
6.3829741 -0.50572979 -1.9409814
6.3883171 -0.54561657 -1.9436427
6.4095826 -0.58706814 -1.9513311
6.4058599 -0.62638551 -1.9513311
6.4132981 -0.66686422 -1.9548796
6.4166818 -0.70703948 -1.9572453
6.3476987 -0.73889154 -1.9371371
6.4151077 -0.78665853 -1.9596109
6.4101601 -0.82600605 -1.9596109
6.3784637 -0.86174303 -1.9513311
6.3692727 -0.90032971 -1.9501483
6.3485079 -0.93716276 -1.945417
6.3511353 -0.97740602 -1.9480784
6.3346429 -1.0146961 -1.9448256
6.2906046 -1.0472729 -1.9329972
6.2661748 -1.0827622 -1.9273788
6.1531568 -1.1021645 -1.8939638
6.0063262 -1.1139524 -1.8499033
5.9055595 -1.1327959 -1.8203325
5.7776165 -1.1450615 -1.7821862
5.6974807 -1.1655619 -1.7591209
5.6322694 -1.1882766 -1.740787
5.5707297 -1.2110469 -1.723636
5.501667 -1.2314385 -1.7041192
5.4595633 -1.2572435 -1.6931781
5.4573236 -1.2920392 -1.6949522
5.5244799 -1.3437833 -1.7189046
5.5087161 -1.3758043 -1.716539
5.5020213 -1.4100535 -1.7171304
5.4757113 -1.4391742 -1.711512
5.4520192 -1.4687706 -1.7067807
5.456717 -1.5060072 -1.7112162
5.4188757 -1.531409 -1.7020493
5.3946943 -1.560384 -1.697318
5.3850183 -1.5934558 -1.697318
5.3723965 -1.6256379 -1.6964308
5.3559322 -1.6565962 -1.6943609
5.3411121 -1.6879894 -1.6928823
5.3042903 -1.7122219 -1.6843069
5.2782607 -1.7396537 -1.6792798
5.2729197 -1.7738349 -1.681054
5.2538042 -1.8033649 -1.6783926
5.2390337 -1.8343053 -1.6772099
5.2177835 -1.8628843 -1.673957
5.2098455 -1.8961716 -1.6751399
5.197217 -1.9277707 -1.6748441
5.1861839 -1.9599617 -1.6751399
5.1704946 -1.9903741 -1.673957
5.1715255 -2.0272908 -1.6783926
5.1554399 -2.0575686 -1.6772099
5.1374073 -2.0870061 -1.6754355
5.1041999 -2.1100967 -1.6686343
5.0920367 -2.141746 -1.6689299
5.0840693 -2.1752043 -1.6707042
5.0636191 -2.2033098 -1.6683385
5.0534987 -2.235884 -1.6695215
5.0301013 -2.2625396 -1.6662686
5.0308933 -2.3001127 -1.6712956
5.021884 -2.333353 -1.67307
4.9919224 -2.3567829 -1.6677471
4.964447 -2.3811724 -1.6633115
4.9652014 -2.4191191 -1.6686343
4.9297152 -2.439373 -1.6615373
4.9146547 -2.4695752 -1.6615373
4.9019623 -2.5009866 -1.6624244
4.8865242 -2.5310175 -1.6624244
4.8522997 -2.5511742 -1.6559188
4.8348689 -2.5799999 -1.6553274
4.8374286 -2.6196239 -1.661833
4.8246126 -2.6510963 -1.6630158
4.7940702 -2.6727428 -1.6579888
4.7875586 -2.707751 -1.6615373
4.7733397 -2.738502 -1.6624244
4.7407584 -2.7586117 -1.656806
4.7401977 -2.7973576 -1.6627201
4.7147465 -2.8214853 -1.659763
4.7177634 -2.8627489 -1.6671557
4.6895318 -2.8851361 -1.6633115
4.6733618 -2.9148672 -1.663903
4.6497359 -2.9399142 -1.661833
4.6324139 -2.9689047 -1.6621287
4.61411 -2.9972727 -1.6621287
4.6012177 -3.0292046 -1.6641986
4.5451937 -3.0324645 -1.6503004
4.5082984 -3.0479915 -1.6434991
4.5289178 -3.1025882 -1.6582845
4.4995933 -3.1232381 -1.6544403
4.4959736 -3.1617775 -1.6603545
4.457037 -3.1754487 -1.6529617
4.4335957 -3.1999416 -1.6514832
4.4053946 -3.2208843 -1.6482304
4.3832455 -3.2461491 -1.6473433
4.3533101 -3.265532 -1.6434991
4.327106 -3.287559 -1.6411334
4.315938 -3.3210378 -1.6446819
4.3128104 -3.3609617 -1.6514832
4.301106 -3.3944623 -1.6550317
4.2787042 -3.4195969 -1.6544403
4.2598696 -3.4475889 -1.6553274
4.24898 -3.4821384 -1.6594673
4.2231226 -3.5044844 -1.657693
4.2022715 -3.5309453 -1.6579888
4.1783442 -3.5548067 -1.6571016
4.1586251 -3.582248 -1.6579888
4.1351266 -3.6064415 -1.6573974
4.1079073 -3.6273208 -1.6553274
4.0855732 -3.652458 -1.6553274
4.0694599 -3.6832268 -1.6579888
4.041853 -3.7036099 -1.6559188
4.0239544 -3.732888 -1.6579888
3.9954031 -3.7522769 -1.6556231
2.3715672 -2.2550218 -0.97194612
2.359751 -2.2715182 -0.97283322
2.3430319 -2.283288 -0.97165042
3.8694682 -3.8170002 -1.6414292
3.8567905 -3.8514702 -1.6461605
3.8277111 -3.8696299 -1.6437948
3.8038955 -3.8930433 -1.6437948
3.7819269 -3.9183722 -1.6446819
3.757813 -3.941504 -1.6446819
3.7276628 -3.9582288 -1.6420206
3.6922436 -3.9691372 -1.6369935
3.6768694 -4.001565 -1.6411334
3.6272066 -3.9964647 -1.6296008
3.6198347 -4.0378494 -1.6375849
3.606391 -4.0728569 -1.6429076
3.5800745 -4.0934706 -1.6423162
3.5598862 -4.1211433 -1.6446819
3.5388727 -4.1479955 -1.6467519
3.5127389 -4.1689014 -1.6464561
3.5090926 -4.2168093 -1.6571016
3.4928579 -4.2500687 -1.661833
3.4582858 -4.2610369 -1.657693
3.4392452 -4.291121 -1.6612415
3.4009926 -4.2971625 -1.6553274
2.0032523 -2.5635428 -0.96603197
1.9863178 -2.5742738 -0.96544051
1.9652737 -2.5795751 -0.96277916
1.9494088 -2.5915852 -0.96277916
1.9346098 -2.6050315 -0.96337056
1.9129399 -2.6091495 -0.96041352
1.6789801 -2.3198357 -0.84538305
1.6652696 -2.3308713 -0.84567875
1.6459805 -2.3340199 -0.8430174
3.1605632 -4.5399613 -1.6712956
3.1310239 -4.5569067 -1.6704085
3.08531 -4.5499425 -1.6606501
3.04777 -4.5544982 -1.6553274
3.0166082 -4.5683303 -1.6535531
2.9822621 -4.5771499 -1.6500046
2.9499881 -4.5889344 -1.647639
2.9187052 -4.602109 -1.6458647
2.8959863 -4.628839 -1.6491176
2.8695366 -4.6497726 -1.6503004
2.8657899 -4.7080903 -1.6650858
2.8353724 -4.7231288 -1.6641986
2.8053651 -4.7387934 -1.6636072
2.769974 -4.745193 -1.659763
2.7322276 -4.7471976 -1.6544403
2.6917322 -4.7439337 -1.6473433
2.6532457 -4.7436867 -1.6414292
2.6319304 -4.7740984 -1.6464561
2.6053243 -4.7951937 -1.6482304
2.5893812 -4.8363538 -1.6571016
2.5690186 -4.8698931 -1.6633115
2.541292 -4.8898029 -1.66479
2.514724 -4.912106 -1.6671557
2.4944301 -4.9470615 -1.673957
1.5198703 -3.0611908 -1.0168937
1.5014782 -3.0713172 -1.0171894
1.4813615 -3.0778902 -1.0163023
2.4201357 -5.1077881 -1.7085549
2.3027422 -4.9381385 -1.6455691
2.2716022 -4.9504385 -1.6449777
2.2400048 -4.9616718 -1.6440905
2.2091305 -4.9744496 -1.6437948
2.182008 -4.9957895 -1.6464561
2.1411333 -4.9853854 -1.6384721
2.1205378 -5.0221901 -1.6464561
2.0735676 -4.9962864 -1.633445
2.0439544 -5.011569 -1.6343322
2.0195625 -5.0399771 -1.6396549
1.992449 -5.0620513 -1.6429076
1.9551507 -5.0581436 -1.6375849
1.934926 -5.0986242 -1.6470476
1.9042721 -5.1121907 -1.647639
1.8715563 -5.1201901 -1.6464561
1.8397816 -5.1306787 -1.6461605
1.8114356 -5.1508822 -1.6491176
1.7797964 -5.1619 -1.6491176
1.7453369 -5.1645784 -1.6464561
1.7136147 -5.1751904 -1.6464561
1.6830072 -5.1892424 -1.647639
1.6520025 -5.2022028 -1.6485261
1.6194841 -5.2104168 -1.6479347
1.5849811 -5.2120304 -1.6452733
1.5507917 -5.2143326 -1.6429076
1.5166339 -5.2164116 -1.640542
1.4848591 -5.2265382 -1.6408377
1.4496959 -5.2245049 -1.6372892
1.4191107 -5.2388339 -1.6390635
1.3862065 -5.2446723 -1.6381763
1.3594853 -5.2743545 -1.6449777
1.3275626 -5.2844501 -1.6455691
1.2971569 -5.3008471 -1.6482304
1.2668215 -5.3179994 -1.6511875
1.2337356 -5.3238111 -1.6505961
1.1987358 -5.3210297 -1.6473433
0.74849063 -3.4208689 -1.0429161
0.7268908 -3.4225938 -1.0420289
0.70703346 -3.4326034 -1.0438032
0.68446141 -3.4293828 -1.0414375
0.66159296 -3.4241388 -1.0384804
0.63916582 -3.4206219 -1.0361148
0.6154483 -3.4094381 -1.0313834
0.59222031 -3.3999751 -1.0272435
0.56944823 -3.39224 -1.023695
0.55182505 -3.4154739 -1.0299048
0.53027099 -3.4150198 -1.028722
0.51226556 -3.4380505 -1.0349319
0.48967442 -3.4307265 -1.0316792
0.4683561 -3.4317737 -1.0310878
0.44667295 -3.4298465 -1.0296092
0.42550173 -3.4315746 -1.0293134
0.40633926 -3.450249 -1.0343405
0.38579738 -3.4583735 -1.0361148
0.3660728 -3.4749258 -1.0405504
0.34615958 -3.4913654 -1.044986
0.32526159 -3.4991307 -1.0467602
0.30510819 -3.5162878 -1.0514916
0.28252792 -3.5057154 -1.0476474
0.26207697 -3.5216725 -1.052083
0.23987706 -3.5146368 -1.0494217
0.21581626 -3.4759982 -1.0370018
0.19378896 -3.4648578 -1.0331577
0.1713829 -3.4430835 -1.0260607
0.15046205 -3.448842 -1.0275393
0.12954874 -3.4563825 -1.0296092
0.10875879 -3.4704797 -1.0337491
0.08772818 -3.4815865 -1.0370018
0.066528738 -3.4906549 -1.0396632
0.044984706 -3.4814456 -1.0367062
0.023569383 -3.474014 -1.0343405
0.0022542486 -3.4760039 -1.0349319
-0.019125473 -3.4855049 -1.037889
-0.040401835 -3.4757698 -1.0349319
-0.06189654 -3.4850078 -1.037889
-0.083619699 -3.4988873 -1.0423247
-0.10534406 -3.5069022 -1.044986
-0.12675673 -3.5033257 -1.0440989
-0.14812948 -3.4996188 -1.0432117
-0.16826174 -3.4709733 -1.0346363
-0.18706013 -3.4240901 -1.0204422
-0.20685159 -3.4028537 -1.0142324
-0.22861901 -3.4148648 -1.0183723
-0.248942 -3.4048228 -1.0157109
-0.27148753 -3.4241819 -1.0222164
-0.291518 -3.4110298 -1.0186679
-0.31653461 -3.4538882 -1.0325663
-0.33251846 -3.398639 -1.0160066
-0.36156124 -3.4753981 -1.0405504
-0.38664353 -3.5072975 -1.0511959
-0.40738389 -3.4982169 -1.0491259
-0.41640615 -3.3941958 -1.0174851
-0.43734673 -3.3925242 -1.0177809
-0.45713192 -3.3822033 -1.0154152
-0.47841072 -3.3831184 -1.016598
-0.50055462 -3.3895698 -1.0195551
-0.51916456 -3.372272 -1.0151194
-0.53652388 -3.3482711 -1.0086139
-0.56066525 -3.3665893 -1.0154152
-0.58830339 -3.4035635 -1.0281307
-0.614564 -3.42998 -1.0375932
-0.64012599 -3.4505656 -1.0452816
-0.66434443 -3.462522 -1.0503087
-0.68594885 -3.4602547 -1.0509001
-0.70831603 -3.461596 -1.0526744
-0.73328823 -3.4749444 -1.0582929
-0.75216192 -3.4591777 -1.0547444
-0.77399862 -3.457294 -1.0556315
-0.79284024 -3.4422395 -1.0523787
-0.81570661 -3.4447467 -1.0547444
-0.83615071 -3.4368923 -1.0538572
-0.86138862 -3.4483798 -1.05918
-0.8803975 -3.434701 -1.0565186
-0.78808588 -2.9977651 -0.91842294
-0.80596811 -2.9910281 -0.91783154
-0.82811677 -2.9998395 -0.92226714
-0.84443003 -2.9873474 -0.91990149
-0.86115199 -2.9766037 -0.91812724
-0.88996845 -3.0069892 -0.92965984
-1.0129588 -3.3470984 -1.0414375
-1.0786307 -3.4868426 -1.0887508
-1.1270589 -3.5657825 -1.1165473
-1.137768 -3.5242538 -1.1053104
-1.0795486 -3.2749591 -1.0263563
-1.0670391 -3.1713915 -0.99471563
-1.0824474 -3.1530383 -0.99087143
-1.0979865 -3.1355176 -0.98732293
-1.1043595 -3.0927341 -0.97549462
-1.1210288 -3.0796158 -0.97342467
-1.137911 -3.0673053 -0.97165042
-1.1614372 -3.0727761 -0.97579032
-1.1946805 -3.1030359 -0.98821008
-1.3409307 -3.4202812 -1.0961435
-1.3693266 -3.4306211 -1.1023533
-1.3907102 -3.4230397 -1.1026491
-1.4178907 -3.4294503 -1.1076761
-1.4285381 -3.3960292 -1.0993962
-1.4561114 -3.4030094 -1.104719
-1.4731537 -3.385251 -1.1017619
-1.482304 -3.3499396 -1.0928907
-1.4993047 -3.3329403 -1.0902293
-1.5066212 -3.2950072 -1.0804709
-1.5183588 -3.2675071 -1.0742611
-1.5310394 -3.2425795 -1.0689384
-1.5360363 -3.2021153 -1.0582929
-1.5577469 -3.1969242 -1.0597714
-1.5917361 -3.2164173 -1.0698255
-1.6230208 -3.2296374 -1.0778096
-1.638032 -3.2102573 -1.0745568
-1.6537452 -3.1925116 -1.0718955
-1.671525 -3.1789222 -1.0707126
-1.6865023 -3.1601777 -1.0677555
-1.6808451 -3.1035674 -1.0514916
-1.691577 -3.0781252 -1.0461688
-1.7067113 -3.0610127 -1.0438032
-1.7296932 -3.0579667 -1.0464646
-1.7474734 -3.0456386 -1.0458732
-1.76853 -3.0389874 -1.0473517
-1.7919981 -3.0363061 -1.0503087
-1.7948992 -2.9990218 -1.0408461
-1.8097986 -2.982235 -1.0387762
-1.8300653 -2.9743288 -1.039959
-1.8386766 -2.9476426 -1.0343405
-1.876636 -2.9677963 -1.0458732
-1.9030572 -2.9690945 -1.0506045
-1.926963 -2.9661741 -1.0538572
-1.9435512 -2.951901 -1.0529702
-1.9202778 -2.8779342 -1.0299048
-1.9828391 -2.9325769 -1.0547444
-2.0051143 -2.9266603 -1.0571101
-2.015409 -2.9033148 -1.0529702
-2.033735 -2.8916752 -1.0532658
-2.04756 -2.8736956 -1.0511959
-2.0444708 -2.8324163 -1.0402547
-2.0539191 -2.8090217 -1.0361148
-2.0489459 -2.7664251 -1.0245821
-2.1014185 -2.8011825 -1.0429161
-2.0983419 -2.7616115 -1.0325663
-2.1222374 -2.7577698 -1.0361148
-2.1491003 -2.7575064 -1.0411417
-2.1505938 -2.7247698 -1.0334533
-2.1744285 -2.7204781 -1.0370018
-2.177259 -2.6900051 -1.0302006
-2.2100708 -2.6965454 -1.0381848
-2.225965 -2.6821985 -1.037889
-2.264502 -2.6948209 -1.0485345
-2.2679965 -2.6655951 -1.0423247
-2.2905436 -2.6588669 -1.0452816
-2.3193719 -2.659162 -1.0511959
-2.3388057 -2.6484611 -1.0526744
-2.3505559 -2.6290751 -1.0506045
-2.3903599 -2.6408103 -1.0615456
-2.3916762 -2.6098933 -1.0547444
-2.4167399 -2.6049745 -1.0588843
-2.443141 -2.6012387 -1.0636156
-2.433387 -2.5591969 -1.052083
-2.4391079 -2.5338931 -1.0476474
-2.422612 -2.4860363 -1.0334533
-2.4478824 -2.4813266 -1.037889
-2.455637 -2.4588239 -1.0346363
-2.4679613 -2.4410226 -1.0334533
-2.5252519 -2.4672289 -1.0517873
-2.5424049 -2.4536781 -1.0526744
-2.5345979 -2.4162774 -1.0429161
-2.561893 -2.4124696 -1.0482388
-2.5794449 -2.3993075 -1.0494217
-2.6004486 -2.3892527 -1.052083
-2.6136453 -2.3719676 -1.0514916
-2.6523328 -2.377568 -1.0615456
-2.6833196 -2.3758156 -1.068347
-2.6777143 -2.341696 -1.0600671
-2.692755 -2.3258464 -1.0603628
-2.6953485 -2.2993591 -1.0556315
-2.704293 -2.2784684 -1.0535616
-2.7211595 -2.2642765 -1.0547444
-2.7445953 -2.2554228 -1.0585886
-2.7494824 -2.2313154 -1.0550401
-2.7579043 -2.2102203 -1.0529702
-2.771414 -2.1932566 -1.0529702
-2.7757876 -2.1691508 -1.0494217
-2.7777016 -2.1433232 -1.044986
-2.7976387 -2.1314502 -1.0476474
-2.805321 -2.1102238 -1.0455774
-2.8151488 -2.0906923 -1.0443946
-2.84179 -2.0835483 -1.0497173
-2.8444617 -2.0587895 -1.0458732
-2.8547091 -2.0396314 -1.044986
-2.8585837 -2.0160196 -1.0417333
-2.8552206 -1.9875245 -1.0358191
-2.9106636 -1.9997246 -1.052083
-2.9442253 -1.9963046 -1.0600671
-2.9397473 -1.9670438 -1.0538572
-2.9565444 -1.9521275 -1.0556315
-2.9812722 -1.9422945 -1.0603628
-2.9834914 -1.9177656 -1.0568143
-3.0016558 -1.9035167 -1.05918
-3.0116596 -1.8840495 -1.0585886
-3.0337307 -1.8720577 -1.0624328
-3.0712712 -1.8693038 -1.0718955
-3.0826833 -1.8504237 -1.0718955
-3.0758953 -1.8207664 -1.0653899
-3.0894842 -1.8033037 -1.066277
-3.100491 -1.7843131 -1.066277
-3.1088886 -1.7638408 -1.0653899
-3.1121495 -1.7405343 -1.0627285
-3.1436841 -1.7329372 -1.0701212
-3.1660089 -1.720001 -1.0742611
-3.2042937 -1.7154239 -1.0840194
-3.2578483 -1.7184654 -1.0991006
-3.3013878 -1.7156264 -1.1106331
-3.3382118 -1.7088339 -1.1198001
-3.3588696 -1.6934807 -1.1233486
-3.3880198 -1.6821873 -1.1298542
-3.5141299 -1.7180207 -1.1697748
-3.559895 -1.7134157 -1.1818988
-3.5979652 -1.7046313 -1.1913614
-3.6308663 -1.6930211 -1.1990499
-3.6906738 -1.6934234 -1.2159053
-3.8159184 -1.7226397 -1.2549387
-3.9241958 -1.7426251 -1.288058
-3.9111788 -1.7081885 -1.2800739
-4.027791 -1.72978 -1.3158545
-4.1043301 -1.7329071 -1.3380327
-4.2101727 -1.7472451 -1.3699691
-4.2252364 -1.7231832 -1.3714477
-4.3173079 -1.7299209 -1.3986528
-4.3411741 -1.7086469 -1.4030885
-4.3898897 -1.6967905 -1.4158039
-4.4136147 -1.6749078 -1.4202396
-4.5043736 -1.6778116 -1.4468533
-4.5594435 -1.6665428 -1.4616387
-4.7080588 -1.6882018 -1.5071777
-4.9481225 -1.7401136 -1.5825832
-4.9216805 -1.6969502 -1.5704592
-5.0369773 -1.7022043 -1.6047614
-5.1742835 -1.7133144 -1.6461605
-5.2455792 -1.7012833 -1.6659729
-5.3733678 -1.7063712 -1.7041192
-5.4111028 -1.6818768 -1.7129905
-5.4642758 -1.6617093 -1.7268888
-5.5558591 -1.6523923 -1.7532067
-5.6356063 -1.6385452 -1.7756805
-5.7181468 -1.6245643 -1.7990415
-5.7841568 -1.6050326 -1.8170797
-5.9653935 -1.6159807 -1.8720814
-6.0961814 -1.611334 -1.9108192
-6.1531296 -1.5860618 -1.9259002
-6.1655254 -1.5489755 -1.9267874
-6.2008944 -1.5174751 -1.9350672
-6.2203102 -1.4818343 -1.93832
-6.2181187 -1.4410505 -1.9347715
-6.243618 -1.4066501 -1.9400942
-6.254931 -1.3689263 -1.9409814
-6.2669501 -1.3313153 -1.9421642
-6.265645 -1.2909087 -1.9392072
-6.265017 -1.2507554 -1.9365457
-6.2631946 -1.2104771 -1.9335887
-6.27426 -1.1727264 -1.9347715
-6.2662964 -1.1314893 -1.9300402
-6.2910018 -1.0961354 -1.9356587
-6.2853622 -1.0554565 -1.9318144
-6.3105807 -1.0199199 -1.9377286
-6.3214397 -0.98191309 -1.9392072
-6.3367939 -0.94451588 -1.9421642
-6.3386874 -0.90507591 -1.9409814
-6.3639979 -0.86888039 -1.9471912
-0 -0 -0
-6.3959851 -0.79342508 -1.9539925
-0 -0 -0
-6.4612532 -0.72113186 -1.9714394
-0 -0 -0
-0 -0 -0
-0 -0 -0
-0 -0 -0
-0 -0 -0
-0 -0 -0
-0 -0 -0
-0 -0 -0
-0 -0 -0
-0 -0 -0
-0 -0 -0
-0 -0 -0
-0 -0 -0
-0 0 -0
-6.1378627 0.4853068 -1.9426576
-0 0 -0
-6.1058531 0.55824661 -1.934377
-0 0 -0
-0 0 -0
-0 0 -0
-0 0 -0
-0 0 -0
-0 0 -0
-0 0 -0
-0 0 -0
-0 0 -0
-0 0 -0
-0 0 -0
-6.0238309 1.0018438 -1.9264029
-6.0503974 1.0444597 -1.9371371
-6.0410638 1.081061 -1.9362171
-6.0240226 1.1161984 -1.9328434
-6.0002346 1.1499124 -1.927323
-5.9921322 1.1865224 -1.9270163
-5.9576969 1.2177343 -1.9181222
-5.9771209 1.2599657 -1.9270163
-5.9655566 1.2958081 -1.9257895
-5.971426 1.3355063 -1.9303899
-5.9640465 1.3723348 -1.9306966
-5.9416208 1.4056143 -1.9260962
-5.9458318 1.4451945 -1.9303899
-5.9165368 1.4765761 -1.9236426
-5.8981452 1.5104884 -1.9205757
-5.8878455 1.5464083 -1.9202691
-5.8718128 1.5807731 -1.9181222
-5.8831053 1.6225966 -1.9251761
-5.8592997 1.6547811 -1.9205757
-5.8334923 1.6862059 -1.915362
-5.8257742 1.722778 -1.9162821
-5.8132715 1.7579405 -1.9156687
-5.8032851 1.7938582 -1.9159753
-5.8003368 1.8320143 -1.9187356
-5.7944212 1.8693244 -1.9205757
-5.7801304 1.9039493 -1.9196557
-5.7692413 1.9396831 -1.9199624
-5.7590313 1.975664 -1.9205757
-5.7485971 2.0115926 -1.9211892
-5.7316642 2.0452273 -1.9196557
-5.702908 2.0744979 -1.9141352
-5.7061348 2.1154096 -1.9196557
-5.653872 2.1355762 -1.9061612
-5.647768 2.1729631 -1.9086148
-5.6937008 2.2308517 -1.9291631
-5.6595731 2.2576306 -1.9221092
-5.6191597 2.2815673 -1.9129084
-5.5874624 2.3087301 -1.9067746
-5.6082854 2.3577321 -1.9190423
-5.6015887 2.3954692 -1.9218025
-5.5667114 2.4210598 -1.9147487
-5.5604553 2.4590223 -1.9178156
-5.5504708 2.4954371 -1.9196557
-5.5333233 2.5286555 -1.9190423
-5.5168405 2.5621588 -1.9187356
-5.495851 2.593523 -1.9168955
-5.4815507 2.6280193 -1.9175088
-5.458477 2.6582689 -1.9150553
-5.4403572 2.6908672 -1.9144419
-5.4152393 2.7199242 -1.911375
-5.3959045 2.7518024 -1.9104549
-5.3704667 2.7804816 -1.907388
-5.344038 2.8085093 -1.9040143
-5.3409801 2.8488648 -1.9092282
-5.3125186 2.8756905 -1.9052411
-5.3072863 2.9151092 -1.9098415
-5.2843113 2.9448383 -1.9080014
-5.2719421 2.9804869 -1.9101483
-5.2659388 3.0198836 -1.9147487
-5.2522459 3.0550103 -1.9165888
-5.227664 3.0837936 -1.9144419
-5.2078271 3.1153231 -1.9141352
-5.1959372 3.1516631 -1.9168955
-5.1748796 3.182488 -1.9162821
-5.140718 3.2051134 -1.9107616
-5.120955 3.2365959 -1.9107616
-5.10741 3.2720654 -1.9132152
-5.0904298 3.3054163 -1.9144419
-5.0668721 3.3344948 -1.9132152
-5.0558181 3.371861 -1.9168955
-5.0326681 3.4012201 -1.9159753
-5.0124888 3.4325738 -1.9162821
-4.9835138 3.4578378 -1.9132152
-4.9738812 3.4965639 -1.9178156
-4.9546585 3.5286741 -1.9187356
-4.9329138 3.5590088 -1.9187356
-4.9056048 3.5852773 -1.9165888
-4.868216 3.6039805 -1.9104549
-4.8482952 3.6354971 -1.911375
-4.8236232 3.6634498 -1.9104549
-4.801054 3.6929779 -1.9104549
-4.7737994 3.7188566 -1.9086148
-4.7531323 3.7498472 -1.9095348
-4.7307777 3.7795355 -1.9098415
-4.711937 3.8120847 -1.9116817
-4.6869855 3.8397181 -1.9110683
-4.6640697 3.8690124 -1.911375
-4.6322265 3.8908224 -1.9080014
-4.6075406 3.9185553 -1.9076947
-4.5754776 3.9399195 -1.9043211
-4.5634108 3.9785554 -1.9095348
-4.5353456 4.0033312 -1.9080014
-4.5106964 4.0310841 -1.9080014
-4.4851713 4.0580468 -1.9076947
