# .PCD v0.7 - Point Cloud Data file format
VERSION 0.7
FIELDS x y z
SIZE 4 4 4
TYPE F F F
COUNT 1 1 1
WIDTH 1533
HEIGHT 1
VIEWPOINT 0 0 0 1 0 0 0
POINTS 1533
DATA ascii
-14.276994 -0.53636932 -1.9162027
-14.267143 -0.44835234 -1.9144406
-13.056972 0.96226025 -1.920467
-13.036034 1.0411758 -1.9182473
-13.033341 1.1214833 -1.9188392
-13.015382 1.2004331 -1.9172114
-13.00974 1.2804654 -1.9175074
-12.990818 1.3591346 -1.9158796
-12.978302 1.438383 -1.9152876
-12.938782 1.5144224 -1.9107002
-12.918448 1.5924529 -1.9090724
-12.896665 1.6701638 -1.9072967
-12.902834 1.7515278 -1.9098123
-12.884011 1.8295521 -1.9086285
-12.899934 1.9126363 -1.9127719
-12.882092 1.9908459 -1.9118841
-12.811048 2.0604236 -1.9030051
-12.800115 2.1393182 -1.9033011
-12.790645 2.2184944 -1.903893
-12.762191 2.2943084 -1.9016733
-12.746902 2.3723915 -1.9015254
-12.735018 2.4511213 -1.9019693
-12.719738 2.5292158 -1.9019693
-12.682667 2.602839 -1.8987137
-12.661619 2.6795852 -1.8979738
-12.641074 2.7563818 -1.8973819
-12.633574 2.8360612 -1.8988616
-12.624606 2.9155295 -1.9001935
-12.625724 2.9975085 -1.9031532
-12.603251 3.0739844 -1.9025612
-12.566883 3.1469328 -1.8998976
-12.509024 3.2141342 -1.8939782
-12.491936 3.2915838 -1.8944222
-12.477232 3.3697186 -1.89531
-12.465853 3.4488521 -1.8967899
-12.460632 3.52986 -1.8993056
-12.436839 3.6056995 -1.8990097
-12.385088 3.6732225 -1.8944222
-12.351906 3.7459886 -1.8927944
-12.315464 3.8176072 -1.8907226
-12.304064 3.8969848 -1.8926464
-12.262984 3.9669271 -1.8899827
-12.251559 4.0464401 -1.8920544
-12.202135 4.1133218 -1.888207
-12.19537 4.1945505 -1.8911666
-12.16287 4.2670083 -1.8901308
-12.135529 4.3412247 -1.8899827
-12.094727 4.4105215 -1.887763
-12.05075 4.4784479 -1.8850993
-12.010096 4.5474014 -1.8830276
-11.995808 4.6263475 -1.8852473
-11.97456 4.7027583 -1.8864312
-11.95558 4.7801843 -1.888059
-11.924191 4.8527064 -1.887763
-11.889623 4.9238882 -1.8870231
-11.844605 4.9906034 -1.8846554
-11.810124 5.0616279 -1.8840635
-11.780658 5.1347885 -1.8843595
-11.750737 5.2077785 -1.8846554
-11.713152 5.2773433 -1.8837675
-11.696735 5.3565283 -1.8864312
-11.647509 5.4206843 -1.8837675
-11.602407 5.4865527 -1.8818437
-11.550695 5.5490737 -1.8788841
-11.561756 5.6419673 -1.8864312
-11.542871 5.7207088 -1.8890948
-11.477516 5.7763081 -1.8840635
-11.434813 5.8430233 -1.8828796
-11.38031 5.9035106 -1.8797719
-11.387625 5.9962711 -1.887171
-11.367189 6.0748897 -1.8899827
-11.327093 6.1431084 -1.8895388
-11.299583 6.2182169 -1.8913146
-11.272442 6.2937016 -1.8932383
-11.262869 6.379324 -1.8982698
-11.254384 6.4660511 -1.9035971
-11.22646 6.5419574 -1.9056689
-11.188662 6.6122279 -1.9061128
-11.147031 6.6802473 -1.9059649
-11.098226 6.7438955 -1.9046329
-11.056637 6.8118663 -1.9046329
-11.042311 6.8968716 -1.9095163
-10.998114 6.963438 -1.9092205
-10.952682 7.0291872 -1.9087764
-10.935874 7.1135182 -1.9135119
-10.924221 7.2017179 -1.9192832
-10.874892 7.2653151 -1.9183953
-10.837479 7.3368959 -1.9197271
-10.794703 7.4049339 -1.920171
-10.768554 7.4845781 -1.9237226
-10.722426 7.5505118 -1.9237226
-10.684751 7.6224799 -1.9253504
-10.61694 7.6728334 -1.9215029
-10.601578 7.7612042 -1.9274222
-10.579176 7.8449612 -1.9321576
-10.558517 7.9305167 -1.937337
-10.507296 7.9933567 -1.936893
-10.446301 8.0486231 -1.9346733
-10.429464 8.1381245 -1.9408885
-10.356832 8.1841812 -1.9365971
-10.334216 8.2698231 -1.9419245
-10.293267 8.3411722 -1.9438483
-10.241129 8.4035463 -1.9437002
-10.285211 8.5458717 -1.962346
-10.17734 8.562336 -1.9515432
-10.144937 8.6419392 -1.9555387
-10.085729 8.6988573 -1.9543549
-10.067173 8.7911558 -1.96131
-10.001929 8.8429337 -1.9590904
-9.9651651 8.9199705 -1.962642
-9.928565 8.9975519 -1.9663415
-9.8775425 9.062315 -1.9672294
-9.8145056 9.1160212 -1.9657495
-9.7742357 9.1909761 -1.9690051
-9.7326984 9.2650976 -1.9721128
-9.6806498 9.3294468 -1.9731486
-9.6281786 9.3935051 -1.9741845
-9.5816164 9.4635267 -1.9765522
-9.504488 9.5032578 -1.9725567
-9.459898 9.57547 -1.9755163
-9.369195 9.6007729 -1.9687092
-9.3382483 9.6872759 -1.9747764
-9.3004551 9.767313 -1.9795119
-9.2667723 9.852294 -1.9852831
-9.2222996 9.9263582 -1.9888347
-9.1685734 9.9907742 -1.9904625
-9.1064348 10.046111 -1.9903146
-9.0485792 10.106219 -1.9912025
-8.9916391 10.167477 -1.9923863
-8.9349384 10.229161 -1.9937181
-8.8739433 10.286039 -1.9941621
-8.8125858 10.342553 -1.994606
-8.7515068 10.399459 -1.995198
-8.6799469 10.443833 -1.9934222
-8.6213484 10.503777 -1.994754
-8.564208 10.565699 -1.9965298
-8.5103397 10.631948 -1.9991934
-8.4688587 10.714228 -2.0049648
-8.407217 10.771447 -2.0060008
-8.3325157 10.811863 -2.0039289
-8.2833843 10.885612 -2.0082204
-8.2253456 10.948094 -2.0104401
-8.1715641 11.016628 -2.0138438
-8.11024 11.075338 -2.0154715
-8.0328617 11.112069 -2.0131037
-7.9605069 11.155513 -2.0120678
-7.9015889 11.217894 -2.0145836
-7.8405108 11.277535 -2.0166554
-7.773963 11.329509 -2.0173953
-7.7076273 11.381909 -2.0182831
-7.6376438 11.428988 -2.0182831
-7.5722728 11.483068 -2.0196149
-7.5027499 11.530972 -2.0199111
-7.435061 11.581785 -2.0207989
-7.3627987 11.625517 -2.0205028
-7.2960424 11.678024 -2.0218346
-7.2273631 11.727624 -2.0227227
-7.1547542 11.770905 -2.0225747
-7.0803609 11.811191 -2.0219827
-7.0067492 11.85271 -2.0216868
-6.9418578 11.90915 -2.0240545
-6.8760448 11.964383 -2.0262742
-6.8068905 12.014093 -2.027606
-6.7373848 12.063405 -2.0289378
-6.6613307 12.101052 -2.0283458
-6.5902553 12.147782 -2.0293818
-6.5183911 12.193224 -2.0302696
-6.4462171 12.238241 -2.0311575
-6.3764687 12.288098 -2.0329335
-6.3077011 12.340202 -2.0351532
-6.2394233 12.393691 -2.0376687
-6.1663342 12.437945 -2.0387046
-6.0951052 12.486213 -2.0404804
-6.0145221 12.515353 -2.0391486
-5.9405756 12.55828 -2.0401845
-5.865077 12.598082 -2.0407765
-5.7926083 12.644622 -2.0425522
-5.7112565 12.671811 -2.0412204
-5.6313925 12.702095 -2.0404804
-5.5553236 12.740943 -2.0412204
-5.4801593 12.782062 -2.0424042
-5.4073877 12.829118 -2.0446239
-5.3232694 12.849263 -2.0425522
-5.2458191 12.885348 -2.0431442
-5.164454 12.911784 -2.0422564
-5.0818777 12.934944 -2.0409243
-4.9988556 12.956656 -2.0394447
-4.9273162 13.008356 -2.0428481
-4.8584318 13.06801 -2.0475836
-4.7856116 13.118015 -2.0508392
-4.7070298 13.152719 -2.0517271
-4.6363883 13.210283 -2.0563145
-4.5574965 13.245029 -2.0573504
-4.4808798 13.286801 -2.0595701
-4.3992696 13.314046 -2.0595701
-4.317493 13.340789 -2.0595701
-4.2424235 13.388714 -2.0629737
-4.1543345 13.3956 -2.060014
-4.0755072 13.432196 -2.06179
-3.9868245 13.43609 -2.0585344
-3.9144983 13.495444 -2.0640097
-3.828383 13.507792 -2.0622339
-3.7533412 13.559623 -2.0666733
-3.6716177 13.588126 -2.0675611
-3.5889297 13.613268 -2.0680051
-3.5053325 13.635033 -2.0680051
-3.4583671 13.803066 -2.0906463
-3.3489966 13.723141 -2.0751083
-3.2608457 13.727074 -2.0725925
-3.184792 13.782477 -2.0780678
-3.1055813 13.825884 -2.0817676
-3.0086763 13.789601 -2.0733325
-2.9154062 13.767165 -2.0671172
-2.8145704 13.705354 -2.0549827
-2.7196193 13.668046 -2.0466957
-2.6252325 13.630092 -2.0384088
-2.5353963 13.612885 -2.0333774
-2.4474456 13.603851 -2.0296779
-2.3595324 13.593277 -2.0258303
-2.2731459 13.589941 -2.0231667
-2.1868892 13.586058 -2.0205028
-2.1000104 13.57674 -2.0170994
-2.0136185 13.568826 -2.0139916
-1.9296284 13.57603 -2.0132518
-1.8432304 13.565075 -2.0098481
-1.7572936 13.555532 -2.0067406
-1.6736012 13.562134 -2.0061486
-1.5902389 13.571165 -2.0060008
-1.5048672 13.561991 -2.0031891
-1.4219329 13.57392 -2.003633
-1.3383274 13.579436 -2.0031891
-1.2548895 13.586408 -2.003041
-1.170568 13.583014 -2.0014131
-1.0871234 13.588954 -2.0012653
-1.0035045 13.59241 -2.0008214
-0.91975075 13.593378 -2.0000813
-0.83626544 13.597778 -1.9999334
-0.75303352 13.606604 -2.0005252
-0.66953081 13.610968 -2.0005252
-0.58587557 13.611856 -2.0000813
-0.50223458 13.612229 -1.9996374
-0.41897494 13.623951 -2.0009692
-0.3354933 13.631209 -2.0017092
-0.25204745 13.643888 -2.0033369
-0.16827692 13.641222 -2.0027452
-0.084554657 13.63903 -2.0023012
-0.0008654127 13.645226 -2.0031891
0.082963668 13.661788 -2.0057046
0.166923 13.6719 -2.0073326
0.25073615 13.666663 -2.0067406
0.33441845 13.657947 -2.0057046
0.41870147 13.671453 -2.0080724
0.50305355 13.681476 -2.0099962
0.58745939 13.689 -2.0116239
0.67163664 13.689089 -2.0122159
0.75572789 13.686685 -2.012512
0.83975428 13.682777 -2.0126598
0.92409474 13.683288 -2.0135477
1.008837 13.68821 -2.0151756
1.0936743 13.692606 -2.0168033
1.179028 13.701403 -2.019171
1.2639852 13.703758 -2.0206509
1.3477552 13.692792 -2.0202069
1.4320562 13.687216 -2.0206509
1.5192833 13.70766 -2.0250902
1.6055495 13.716743 -2.0279019
1.6905313 13.713504 -2.0289378
1.7759149 13.712681 -2.0304177
1.8610859 13.709366 -2.0316014
1.944196 13.690834 -2.0305657
2.0290356 13.684517 -2.0314536
2.1167424 13.696243 -2.0351532
2.2068694 13.721079 -2.0409243
2.296891 13.742395 -2.0462518
2.3830295 13.738762 -2.0478795
2.4718361 13.749188 -2.0517271
2.5548856 13.726957 -2.0506911
2.6431789 13.732388 -2.0539467
2.7339501 13.74889 -2.0589783
2.8204484 13.742513 -2.060606
2.9057419 13.729786 -2.0613458
3.0004709 13.760012 -2.0687451
3.0898287 13.763535 -2.0721486
3.1764481 13.753954 -2.0736284
3.2644377 13.7496 -2.0759962
3.3550718 13.755253 -2.0799916
3.4458981 13.76031 -2.0839872
3.5371587 13.765727 -2.0881307
3.6283634 13.769585 -2.0921261
3.715621 13.757565 -2.0937541
3.8039229 13.748805 -2.0959737
3.8917177 13.737576 -2.0978975
3.9797931 13.726735 -2.0999691
4.0512857 13.659391 -2.0933101
4.1361699 13.638062 -2.0939019
4.2054214 13.566139 -2.0866508
4.2808161 13.515567 -2.0828032
4.3731046 13.518215 -2.0873907
4.4609323 13.506153 -2.0897584
4.5355043 13.454162 -2.085911
4.6147547 13.416727 -2.0844312
4.7009211 13.399357 -2.0862069
4.7870479 13.381434 -2.0879827
4.8602529 13.327653 -2.0841351
4.9395261 13.291091 -2.0830994
5.0041723 13.216139 -2.0759962
5.0808992 13.174112 -2.0742204
5.1529598 13.120596 -2.0706687
5.2330022 13.087812 -2.0705209
5.3057513 13.037137 -2.0675611
5.3822393 12.996113 -2.0662293
5.4503579 12.935503 -2.06179
5.5261192 12.893636 -2.0604579
5.5869479 12.817782 -2.0536509
5.6622849 12.776028 -2.0524671
5.7373195 12.73383 -2.0512831
5.8079314 12.682202 -2.0486195
5.8785434 12.631084 -2.0461037
5.9512839 12.584943 -2.044476
6.0279632 12.547297 -2.044328
6.0974641 12.494966 -2.0418122
6.1608391 12.430735 -2.0373728
6.2289925 12.376798 -2.0347092
6.2989669 12.326896 -2.0327854
6.3594532 12.259045 -2.0279019
6.440084 12.230293 -2.0296779
6.5140743 12.188804 -2.0293818
6.5840249 12.139911 -2.0279019
6.6545749 12.092352 -2.0267181
6.7218962 12.039205 -2.0246463
6.7878408 11.983965 -2.0222788
6.8533611 11.92837 -2.0199111
6.913475 11.863878 -2.0160635
6.9755721 11.803356 -2.0129559
7.0407462 11.748457 -2.010884
7.1101327 11.700809 -2.0101442
7.1859441 11.663697 -2.011328
7.2589478 11.621902 -2.0117719
7.3232436 11.566281 -2.0098481
7.3855271 11.507812 -2.0074804
7.4473691 11.449015 -2.0051126
7.5087681 11.389893 -2.0027452
7.5669751 11.326337 -1.9996374
7.6269031 11.265772 -1.9971217
7.6874924 11.20653 -1.994902
7.7391739 11.134788 -1.9904625
7.8107672 11.091943 -1.9913504
7.8729343 11.035758 -1.9898707
7.9405003 10.987243 -1.9898707
8.004262 10.933526 -1.9889827
8.0658951 10.877058 -1.9876509
8.1253557 10.817873 -1.9858751
8.1825972 10.756007 -1.9836553
8.2448187 10.700897 -1.9827675
8.2993708 10.636072 -1.9801039
8.3552771 10.57331 -1.9778841
8.4064007 10.504857 -1.9746284
8.4538851 10.432334 -1.9706329
8.5026798 10.361917 -1.9670814
8.5515604 10.292057 -1.9636778
8.6037254 10.226527 -1.9611621
8.654767 10.159992 -1.9584985
8.7124233 10.101455 -1.9574625
8.7729397 10.046316 -1.9571666
8.8278656 9.984889 -1.9556868
8.883029 9.9239025 -1.9543549
8.931798 9.85602 -1.9516913
8.9860878 9.7944717 -1.9503595
9.0372658 9.7297306 -1.9484357
9.0866327 9.6632891 -1.9462159
9.1327972 9.5937443 -1.9434042
9.1612921 9.5061951 -1.936893
9.1925106 9.4221983 -1.9311217
9.2411156 9.3564701 -1.929198
9.2955551 9.2967939 -1.928606
9.3503132 9.2374973 -1.9281621
9.3961992 9.169591 -1.9259424
9.4294987 9.0898027 -1.921207
9.4657555 9.013361 -1.9172114
9.5093555 8.9442701 -1.9148437
9.5553617 8.877676 -1.9130679
9.6096544 8.8188782 -1.9130679
9.6606541 8.7570925 -1.9124761
9.7127304 8.696331 -1.9121801
9.747385 8.6201935 -1.9084805
9.7799816 8.5426579 -1.904485
9.8142414 8.4669847 -1.9009334
9.8517046 8.3944206 -1.8981217
9.8863783 8.3198061 -1.8948661
9.9197464 8.2444496 -1.8914626
9.9517984 8.1683712 -1.887911
9.9940472 8.1009274 -1.8864312
10.048199 8.0431604 -1.8873191
10.100465 7.9838071 -1.887911
10.133669 7.9095125 -1.8849514
10.160075 7.8302827 -1.8808079
10.185891 7.7510271 -1.8766644
10.216653 7.6759081 -1.8735567
10.258793 7.6095405 -1.8726689
10.296514 7.5400238 -1.8710411
10.326553 7.465117 -1.8680815
10.361698 7.3941469 -1.8661577
10.404447 7.328721 -1.8657137
10.445971 7.2624846 -1.8651217
10.488705 7.1971335 -1.8648258
10.508919 7.1165609 -1.8605343
10.531829 7.0382099 -1.8568348
10.552523 6.9587569 -1.8528392
10.569324 6.8771586 -1.8482518
10.602999 6.8068347 -1.846772
10.652085 6.7464099 -1.8481039
10.701668 6.6861625 -1.8495836
10.691973 6.5892444 -1.8407047
10.755021 6.5373836 -1.8447002
10.792387 6.4697437 -1.8442563
10.824219 6.3988719 -1.8429245
10.85815 6.3293476 -1.8420366
10.89764 6.2630968 -1.8421845
10.946191 6.2019615 -1.8439603
10.996128 6.1414304 -1.846032
11.040535 6.0776587 -1.8472159
11.065449 6.0031996 -1.8451442
11.115159 5.942183 -1.8473639
11.15841 5.8775563 -1.8485478
11.193386 5.8085237 -1.8483998
11.221771 5.7361326 -1.8472159
11.267357 5.6725049 -1.8489918
11.306381 5.6054587 -1.8497317
11.350339 5.54075 -1.8513595
11.396604 5.4769979 -1.8534312
11.44877 5.4158459 -1.8565388
11.446817 5.3292193 -1.8507675
11.4802 5.2592945 -1.8509154
11.514959 5.1899734 -1.8513595
11.593604 5.1400609 -1.8590544
11.593193 5.0549946 -1.8538752
11.614902 4.9798689 -1.8523953
11.650707 4.9108114 -1.8532832
11.676966 4.837718 -1.8526913
11.695437 4.7615042 -1.8509154
11.739126 4.695528 -1.8532832
11.79165 4.6328106 -1.8571308
11.824468 4.562151 -1.8578707
11.847613 4.4877601 -1.8571308
11.88327 4.4180813 -1.8584626
11.911084 4.3454223 -1.8586105
11.925418 4.2679243 -1.8566868
11.961646 4.1982732 -1.8583146
11.996533 4.128016 -1.8597944
12.004767 4.0486412 -1.8571308
12.019993 3.9718032 -1.8556509
12.059193 3.9028463 -1.8580186
12.071599 3.8251951 -1.8562429
12.081617 3.746953 -1.854171
12.107221 3.6736121 -1.8546151
12.140911 3.6026297 -1.8563908
12.169437 3.5299945 -1.8574266
12.184207 3.4533706 -1.8563908
12.208027 3.3793361 -1.8568348
12.221848 3.3025601 -1.8557988
12.266747 3.2340591 -1.8596464
12.316054 3.166362 -1.8642339
12.294957 3.0806406 -1.8580186
12.317472 3.0060797 -1.8586105
12.378023 2.9404981 -1.8651217
12.392941 2.8638248 -1.8646778
12.41993 2.789896 -1.8661577
12.43295 2.7127934 -1.8655657
12.443556 2.6352262 -1.8646778
12.456585 2.5582278 -1.8642339
12.497267 2.4867635 -1.8680815
12.492867 2.4062955 -1.8651217
12.533648 2.3344824 -1.8691173
12.531189 2.2545578 -1.8666016
12.534068 2.175766 -1.8649738
12.549133 2.0991435 -1.8652698
12.566659 2.0228894 -1.8660097
12.564175 1.9434774 -1.8637899
6.4459047 0.95719171 -0.93653458
6.1344085 0.87255782 -0.88858837
5.9740276 0.81241125 -0.86357939
5.9377065 0.77040339 -0.85736418
5.9226909 0.73153496 -0.85440451
5.9142985 0.69368505 -0.85248077
5.9086137 0.65629268 -0.85100096
5.9026933 0.6189962 -0.8495211
5.8935852 0.58150637 -0.84759736
5.8803005 0.54378819 -0.84508169
5.8795853 0.50735778 -0.84448975
5.8796301 0.47103542 -0.84404582
5.8853683 0.43516803 -0.84448975
5.8849678 0.39884785 -0.84404582
0 0 -0
0 0 -0
5.8626661 0.28905061 -0.83975428
0 0 -0
0 0 -0
0 0 -0
0 0 -0
5.8756952 0.10920574 -0.84079021
0 0 -0
0 0 -0
0 -0 -0
0 -0 -0
0 -0 -0
0 -0 -0
0 -0 -0
0 -0 -0
0 -0 -0
0 -0 -0
0 -0 -0
0 -0 -0
0 -0 -0
0 -0 -0
0 -0 -0
0 -0 -0
0 -0 -0
6.2310805 -0.57409543 -0.89776325
11.491079 -1.1308569 -1.6891711
11.479006 -1.2008286 -1.6884313
11.457661 -1.2697134 -1.6863595
10.595076 -1.2398907 -1.5576152
10.591194 -1.3053619 -1.558207
10.574159 -1.3691797 -1.5568752
10.551838 -1.4321721 -1.5548035
10.563415 -1.4998118 -1.557911
10.562818 -1.5659056 -1.559243
11.103271 -1.715778 -1.6425568
11.073006 -1.7807316 -1.6395972
11.047239 -1.8461939 -1.6373774
11.024011 -1.9119146 -1.6356016
11.012072 -1.9795206 -1.6356016
11.008469 -2.0486815 -1.6369334
10.988894 -2.1148806 -1.6358976
10.98638 -2.1843901 -1.6375254
10.974707 -2.2521579 -1.6378213
10.948103 -2.316792 -1.6358976
10.914356 -2.379709 -1.6329379
10.892795 -2.4451163 -1.6319021
8.3143921 -1.9197201 -1.2382699
10.842725 -2.5740328 -1.6289425
10.851707 -2.6466095 -1.63279
10.84006 -2.7143462 -1.6335299
10.818412 -2.7795773 -1.63279
7.4884448 -1.9726988 -1.1201802
7.4876571 -2.0217052 -1.121956
10.753025 -2.9748087 -1.6308662
10.727909 -3.0388446 -1.6298304
10.709062 -3.1046126 -1.6298304
10.684121 -3.1685758 -1.6289425
7.9729218 -2.4175339 -1.2080816
7.93999 -2.460844 -1.2052699
7.9275694 -2.5104127 -1.2057139
7.927072 -2.5638797 -1.2080816
10.559361 -3.4873722 -1.6253909
10.534952 -3.5511494 -1.624947
10.498937 -3.6108975 -1.6227272
10.445787 -3.664443 -1.6178437
10.370029 -3.7094758 -1.6094089
7.6823902 -2.8010461 -1.1849964
10.391399 -3.8616087 -1.6202115
10.451674 -3.9571722 -1.6336778
10.453032 -4.0311947 -1.6378213
10.44467 -4.1017666 -1.640485
10.417468 -4.1650419 -1.6401891
10.381639 -4.2247825 -1.6385612
10.315319 -4.2717495 -1.63205
10.236966 -4.3130698 -1.6236151
10.202128 -4.3722944 -1.6222832
10.145191 -4.4217682 -1.6173998
10.110636 -4.4807281 -1.6162159
10.046885 -4.5264277 -1.6102967
9.9856548 -4.5727501 -1.6048213
9.9565125 -4.6335177 -1.6046734
9.9314699 -4.6962137 -1.6052654
9.9042501 -4.7579207 -1.6055613
9.8784246 -4.8203378 -1.6061532
9.8424597 -4.8777847 -1.6051173
9.797327 -4.9305258 -1.6026016
9.7483959 -4.9810963 -1.599494
9.7158937 -5.0399065 -1.5991981
9.6734104 -5.0934362 -1.5972743
9.6349983 -5.1489654 -1.5960904
9.5736666 -5.1919541 -1.5910591
9.5312319 -5.2448769 -1.5892832
9.501461 -5.3047071 -1.5897272
9.4687328 -5.3629069 -1.5897272
9.4227867 -5.4135137 -1.5875075
9.3748665 -5.4627628 -1.5849918
9.3360634 -5.5171638 -1.5841039
9.2740412 -5.5575657 -1.5792205
9.2355404 -5.6117969 -1.5784806
9.189146 -5.6610961 -1.5764089
9.1508818 -5.7152772 -1.5758169
9.0863972 -5.7527986 -1.5706376
9.0584183 -5.813252 -1.5719694
8.9910774 -5.8482289 -1.566346
8.9575005 -5.9049201 -1.56679
8.9153442 -5.955925 -1.5657542
8.868804 -6.0038624 -1.5639783
8.8097801 -6.0430603 -1.5599828
8.7928362 -6.111115 -1.5636824
8.7584076 -6.1672297 -1.5642743
8.688199 -6.1978769 -1.558355
8.6379833 -6.2423792 -1.5561353
8.586751 -6.2859154 -1.5537676
8.5392818 -6.3320036 -1.5521398
8.5263624 -6.403883 -1.5570232
8.4609346 -6.436317 -1.5521398
8.4079657 -6.4778485 -1.5496241
8.3563652 -6.5201898 -1.5474044
8.2968035 -6.5560093 -1.5437047
8.2780399 -6.6240983 -1.5478483
8.2387762 -6.676012 -1.5481442
8.1609621 -6.696322 -1.5410411
8.1022263 -6.7317324 -1.5376376
8.0675793 -6.7870507 -1.5389694
8.026536 -6.8370662 -1.5391173
7.9582233 -6.8635774 -1.5339381
7.8973374 -6.8960142 -1.5302384
7.8378353 -6.9292736 -1.5268348
7.8099074 -6.9904284 -1.5297945
7.7800579 -7.0501728 -1.5324582
7.7388387 -7.0997839 -1.5329021
7.6820869 -7.1350183 -1.5302384
7.625195 -7.1698246 -1.5275748
7.5738959 -7.2096572 -1.5260949
7.5345001 -7.2607985 -1.5271308
7.4883909 -7.3055115 -1.5268348
7.4434242 -7.3513217 -1.5268348
7.1541195 -7.1527867 -1.4751891
7.0816011 -7.1677008 -1.4691218
7.0084791 -7.1812873 -1.4629066
6.95193 -7.2113376 -1.460243
6.8993683 -7.2452626 -1.4584671
6.8303914 -7.2615237 -1.4531398
6.7850337 -7.3025727 -1.4529918
6.756814 -7.3622856 -1.4566914
6.6856108 -7.3750262 -1.4509201
6.5874615 -7.3569603 -1.4390815
2.1746013 -2.457643 -0.45248535
2.1627333 -2.4746644 -0.45322526
2.1442785 -2.4841437 -0.45248535
6.4658575 -7.5879283 -1.4531398
6.4210877 -7.6297293 -1.4535837
6.3988023 -7.6986504 -1.459355
6.2874498 -7.6597872 -1.4442608
6.2216511 -7.6751714 -1.4398215
6.1806197 -7.7209239 -1.4413012
6.1417136 -7.7695651 -1.443373
2.0125034 -2.5770102 -0.45070958
1.9900131 -2.5806928 -0.44908178
1.9675537 -2.5841966 -0.44745398
1.9486904 -2.592267 -0.44671404
1.9362826 -2.6089413 -0.44760194
1.8337708 -2.5026724 -0.4257006
1.8189595 -2.5146787 -0.4258486
1.8247483 -2.5555804 -0.43132392
5.9221773 -8.4072151 -1.5001981
5.8857212 -8.4653206 -1.5041935
5.8498931 -8.5249262 -1.5084851
5.7758508 -8.5287209 -1.5027138
5.7256083 -8.5672894 -1.5033057
5.6751103 -8.6055632 -1.5038977
5.6076393 -8.6178389 -1.4999021
5.5535874 -8.6504202 -1.4996061
1.7978394 -2.8370616 -0.46402794
1.7788259 -2.8455231 -0.46358401
1.7618513 -2.8572261 -0.46373197
5.2954516 -8.7114229 -1.4868797
5.2769809 -8.8022842 -1.4970905
5.2213621 -8.8319426 -1.4966465
5.1680679 -8.8655233 -1.4969425
5.0923858 -8.8601942 -1.4905792
5.0491362 -8.9110651 -1.4939828
5.0001497 -8.9522409 -1.4957587
4.9465561 -8.9853516 -1.4962026
4.8927445 -9.0181417 -1.4966465
4.8377843 -9.0488653 -1.4967945
4.7830925 -9.0801296 -1.4970905
4.724555 -9.1040401 -1.4962026
4.6704049 -9.1363802 -1.4967945
4.5960269 -9.1286459 -1.4907272
4.5566182 -9.1903477 -1.4963505
4.4932013 -9.2039127 -1.4939828
4.4340725 -9.2259607 -1.4930949
4.3773799 -9.2529936 -1.4930949
4.3184352 -9.2751951 -1.492355
4.2610307 -9.3006191 -1.4922071
4.2022576 -9.3229828 -1.4916152
4.1441722 -9.3467836 -1.4913192
4.0871387 -9.372942 -1.4914671
4.0283818 -9.3951168 -1.4910232
3.9714265 -9.4214802 -1.4913192
3.9101367 -9.4374475 -1.4899874
3.8521559 -9.4612627 -1.4899874
3.7951319 -9.4874754 -1.4904313
3.7325075 -9.4995375 -1.4886554
3.6702342 -9.5121107 -1.4870276
3.6100485 -9.5298271 -1.4862878
3.5542631 -9.5592146 -1.4874716
3.4941866 -9.5771265 -1.4868797
3.4386883 -9.6076984 -1.4883596
3.3796718 -9.6286173 -1.4883596
3.3211715 -9.6510429 -1.4886554
3.2574677 -9.6581202 -1.4865837
3.1984556 -9.6788645 -1.4867318
3.1402247 -9.7020712 -1.4873236
3.0815308 -9.7239857 -1.4877676
3.0235648 -9.7483778 -1.4886554
2.9651284 -9.7714787 -1.4893954
2.9062409 -9.7932816 -1.4899874
2.8463712 -9.8118792 -1.4901353
2.7866521 -9.8310623 -1.4904313
2.7270687 -9.8508358 -1.4908752
2.6663158 -9.8664284 -1.4907272
2.6049702 -9.879734 -1.4902833
2.5457773 -9.9012785 -1.4911712
2.4861777 -9.9215097 -1.4919111
2.4254882 -9.9375381 -1.4920591
2.362639 -9.9445362 -1.4908752
2.297792 -9.9424639 -1.4883596
2.234143 -9.9447966 -1.4865837
2.1730807 -9.9583178 -1.4865837
2.1139848 -9.9811392 -1.4880636
2.0534973 -9.997798 -1.4886554
0.52668375 -2.6421576 -0.36458403
0.51214457 -2.6540799 -0.36591586
0.49675483 -2.6620338 -0.36665577
0.4837372 -2.6835258 -0.36946744
0.47030532 -2.7039833 -0.37213111
0.45582512 -2.7194991 -0.37405488
0.43975836 -2.7261505 -0.37464681
0.42498696 -2.7415035 -0.37657058
0.40569082 -2.7274284 -0.37405488
0.38338447 -2.6907001 -0.3681356
0.36580279 -2.6851618 -0.36695173
0.35910386 -2.762877 -0.37834635
0.34153917 -2.7601206 -0.37760645
0.32252666 -2.7444832 -0.37494278
0.30524483 -2.7424786 -0.37435085
1.06736 -10.186344 -1.4939828
1.0013487 -10.157269 -1.4886554
0.72599369 -7.8548369 -1.1417856
0.67532355 -7.8305683 -1.1374941
0.62608165 -7.819777 -1.1352744
0.57794309 -7.8214989 -1.1349784
0.53200752 -7.8554869 -1.1395659
0.63475102 -10.316558 -1.5080411
0.56936437 -10.282734 -1.5024178
0.18859491 -3.8169324 -0.53328353
0.15511188 -3.5838432 -0.4982118
0.13162731 -3.5442064 -0.49214453
0.10854411 -3.5014522 -0.48563331
0.085481346 -3.4377873 -0.47601449
0.064640425 -3.4520905 -0.47808623
0.043384891 -3.4464886 -0.47719836
0.022043323 -3.4150429 -0.47246292
0.00093913934 -10.265848 -1.4975344
-0.062075298 -10.269616 -1.4981264
-0.12451588 -10.222563 -1.4911712
-0.18725623 -10.222595 -1.4913192
-0.25029317 -10.234107 -1.493243
-0.31281054 -10.223482 -1.4919111
-0.37506124 -10.208522 -1.4899874
-0.43773499 -10.207017 -1.4901353
-0.50035584 -10.204139 -1.4901353
-0.56279397 -10.197914 -1.4896914
-0.62584198 -10.202166 -1.4908752
-0.68923014 -10.209974 -1.492651
-0.75470269 -10.24402 -1.4984223
-0.84615868 -10.597056 -1.5521398
-0.91201383 -10.601519 -1.5536196
-0.97913748 -10.618374 -1.5570232
-1.0457265 -10.626929 -1.559243
-1.1120454 -10.631132 -1.5608708
-1.1776921 -10.62804 -1.5614626
-1.2408112 -10.602934 -1.558799
-1.3020926 -10.564692 -1.5542115
-1.3193547 -10.18969 -1.4988662
-1.3795896 -10.164742 -1.4963505
-1.4422115 -10.158044 -1.4966465
-1.5053837 -10.154874 -1.4975344
-0.4545463 -2.9470887 -0.40764681
-0.47827744 -2.9793956 -0.41297415
-1.6838908 -10.076672 -1.4901353
-0.51936889 -2.9996116 -0.41696966
-0.54371703 -3.0294631 -0.42200106
-0.55994159 -3.0134301 -0.42007729
-1.9404019 -10.082811 -1.4978304
-2.0014606 -10.066835 -1.4972384
-2.0641863 -10.05921 -1.4979783
-2.1270988 -10.052159 -1.4988662
-2.1889484 -10.039886 -1.4990143
-0.63710487 -2.8421752 -0.39728805
-0.65141535 -2.8247221 -0.39521632
-2.3745217 -10.002704 -1.4997542
-2.4316325 -9.9706516 -1.4970905
-2.4913237 -9.9497871 -1.4962026
-0.93991244 -3.6613321 -0.52706832
-0.76120007 -2.892349 -0.40897864
-0.77506369 -2.8733025 -0.4067589
-0.7874034 -2.8494294 -0.40379927
-0.79947954 -2.8255138 -0.40083963
-0.81377131 -2.810107 -0.39921182
-2.966042 -10.001459 -1.5223954
-2.9756744 -9.8127193 -1.4957587
-0.9954108 -3.2140627 -0.46491584
-1.0201911 -3.223922 -0.46743155
-3.1308229 -9.6791267 -1.4836241
-3.220248 -9.750824 -1.4979783
-3.2746453 -9.7149496 -1.4954627
-3.33355 -9.6928034 -1.4951667
-1.1297386 -3.2228396 -0.47246292
-1.1454939 -3.2046728 -0.47068715
-3.5019085 -9.6037865 -1.4910232
-3.5852373 -9.6479359 -1.5015299
-1.1591007 -3.0637357 -0.45159745
-1.1657752 -3.0251937 -0.44656608
-3.7557077 -9.5637398 -1.4988662
-1.2083199 -3.0244341 -0.44878581
-1.232075 -3.0297871 -0.45085755
-3.9594955 -9.5615168 -1.5099649
-4.0065665 -9.5097008 -1.5055255
-4.060945 -9.4758482 -1.5040456
-4.1166396 -9.4453135 -1.5031577
-4.179728 -9.4316301 -1.5050815
-4.247273 -9.4274454 -1.508633
-4.3075099 -9.4066029 -1.509521
-1.3187363 -2.8356748 -0.42940015
-1.3339965 -2.8230598 -0.42866024
-1.3607169 -2.8344326 -0.43191585
-1.3681055 -2.8055882 -0.42851228
-4.6137948 -9.3099184 -1.5161802
-4.6788368 -9.2973337 -1.5188438
-4.7420974 -9.2807789 -1.5209156
-4.79531 -9.2444839 -1.5197318
-4.8542471 -9.2192621 -1.5204716
-4.9055953 -9.1797094 -1.5188438
-4.9618287 -9.149436 -1.5188438
-4.7164783 -8.5712452 -1.4253192
-4.7419786 -8.4937897 -1.4170322
-4.765244 -8.413764 -1.4083012
-4.7847509 -8.3286295 -1.3986825
-4.8158436 -8.2649364 -1.3927631
-4.8433166 -8.1960678 -1.3859559
-4.887414 -8.1560163 -1.3841802
-4.9163065 -8.0912237 -1.3781129
-4.97053 -8.0684834 -1.3794447
-4.9298177 -7.8935642 -1.3539919
-5.0808091 -8.0252619 -1.3827003
-5.2111607 -8.1204414 -1.4051937
-5.2608886 -8.0883131 -1.4051937
-5.329473 -8.0847788 -1.410373
-5.457005 -8.1686926 -1.4313865
-5.4044409 -7.9835558 -1.4040098
-5.4348607 -7.9233332 -1.3991264
-5.4811172 -7.8865881 -1.3985344
-5.5601573 -7.896471 -1.4065255
-5.6446943 -7.9129248 -1.4158484
-5.6983552 -7.8853545 -1.4171802
-5.6747656 -7.7520933 -1.3989784
-6.2978325 -8.4932089 -1.5435568
-6.3456688 -8.4488716 -1.542521
-6.3878088 -8.3971834 -1.5401533
-1.7093831 -2.2201078 -0.38071406
-1.7308835 -2.219713 -0.38263783
-1.7389516 -2.2020674 -0.38130599
-1.7715883 -2.215292 -0.38589343
-1.8038294 -2.2274296 -0.39033291
-6.7791424 -8.2618742 -1.5605748
-6.8385577 -8.230772 -1.5626465
-6.887022 -8.1863861 -1.5622026
-6.9390473 -8.1462326 -1.5626465
-6.990839 -8.1057482 -1.5630904
-7.0397925 -8.0619555 -1.5629425
-7.0878172 -8.017127 -1.5626465
-7.1414938 -7.9786439 -1.5636824
-7.1969571 -7.9420023 -1.5651622
-7.2529082 -7.9057083 -1.56679
-7.3019533 -7.8617811 -1.5669379
-7.3514099 -7.8182702 -1.5672339
-7.3951516 -7.7687182 -1.566346
-7.4557209 -7.7367253 -1.5691577
-7.5251546 -7.7134829 -1.5738932
-7.5785975 -7.6734962 -1.575225
-7.6241398 -7.625452 -1.574929
-7.6517878 -7.5597625 -1.5709335
-3.4904754 -3.4073169 -0.69132835
-3.4109118 -3.2890654 -0.67046285
-3.3601165 -3.200563 -0.65581268
-7.938755 -7.4672651 -1.592243
-7.8981962 -7.338315 -1.574633
-3.5386977 -3.2484965 -0.68022966
-3.259578 -2.9557495 -0.61985302
-3.3697615 -3.0181484 -0.63835078
-3.5823333 -3.1690531 -0.67712206
-3.4519844 -3.0162525 -0.64737767
-3.4367268 -2.9659462 -0.64071846
-3.4164662 -2.9120939 -0.63317138
-3.7574053 -3.1629581 -0.69635975
-3.7949977 -3.1550133 -0.6999113
-3.8838558 -3.188761 -0.71337765
-5.2202978 -4.2321591 -0.96701884
-5.3419151 -4.2766757 -0.98536861
-5.343226 -4.224195 -0.9806332
-5.401011 -4.2162762 -0.98670048
-5.4683003 -4.2150502 -0.99454349
-5.4751701 -4.1670461 -0.99099195
-5.4982634 -4.1315908 -0.99054801
-5.5529027 -4.1195736 -0.99602336
-5.5461564 -4.0620546 -0.99010408
-5.7200642 -4.1357031 -1.0176287
-5.7799516 -4.125227 -1.0239919
-5.6353493 -3.9700994 -0.99291569
-5.7944078 -4.0291505 -1.0174807
-5.7570415 -3.9509997 -1.006234
-5.5731649 -3.7747653 -0.96864665
-5.7516413 -3.8443413 -0.99661523
-5.6966815 -3.7572615 -0.98255694
-5.774343 -3.7578306 -0.99232376
-5.6558008 -3.6315141 -0.96716684
-5.7347951 -3.6327205 -0.9772296
-5.697423 -3.5602634 -0.96672291
-5.6307516 -3.4707642 -0.95118475
-5.8919673 -3.5820169 -0.99321169
-5.9503121 -3.5676594 -0.9995749
-5.9712396 -3.5305786 -0.9994269
-5.9269958 -3.4555292 -0.98803228
-5.9875326 -3.441762 -0.99483949
-5.8080373 -3.2913818 -0.96035969
-5.8894315 -3.289916 -0.97086638
-5.9372334 -3.2689767 -0.97560179
-5.9102349 -3.2070224 -0.96761078
-5.8373461 -3.1212816 -0.95192468
-6.0060244 -3.164207 -0.9772296
-5.907691 -3.0662649 -0.95740002
-5.9713073 -3.052911 -0.9649471
-5.9475241 -2.9948716 -0.95784396
-6.0526271 -3.0013647 -0.97234619
-6.0415993 -2.9498556 -0.96746278
-6.1968665 -2.9786887 -0.99025202
-6.2704573 -2.9668248 -0.9994269
-6.309166 -2.9378927 -1.0028305
-6.27672 -2.8760629 -0.99454349
-6.278019 -2.8301821 -0.99187982
-5.8043113 -2.5739951 -0.91152561
-5.864419 -2.5576971 -0.91877669
-6.3072338 -2.7047937 -0.98832828
-6.3410277 -2.6733391 -0.99113995
-6.3317275 -2.6237845 -0.98699641
-6.6133537 -2.693007 -1.0299112
-6.6490374 -2.6600888 -1.0330188
-6.6256514 -2.6036937 -1.0266556
-6.6128979 -2.5519571 -1.0220681
-6.4896979 -2.4587965 -0.99987084
-6.5065165 -2.4196193 -1.0001668
-6.5639801 -2.3952384 -1.006974
-6.5087147 -2.3299305 -0.99587536
-6.5900798 -2.3135257 -1.00653
-6.5704837 -2.2614646 -1.0012027
-6.6095395 -2.2296374 -1.0051982
-6.6099486 -2.1846972 -1.0031265
-6.6476946 -2.1520135 -1.006974
-6.7682548 -2.1452308 -1.023844
-6.764287 -2.0983896 -1.0211803
-6.7846065 -2.0591416 -1.0223641
-6.8378839 -2.0295672 -1.0287274
-6.8644567 -1.9917041 -1.0309471
-6.8394384 -1.9390328 -1.0251758
-6.7282481 -1.8630058 -1.0060861
-6.7882462 -1.8348399 -1.0136333
-6.8787522 -1.8140727 -1.0259157
-6.9050798 -1.7757701 -1.0282834
-7.1556849 -1.7934389 -1.0652789
-7.3625603 -1.7973148 -1.0954672
-7.3522806 -1.7470783 -1.0922116
-7.7993803 -1.8027636 -1.1592475
-8.0882053 -1.8172739 -1.2018663
-8.20646 -1.7910038 -1.2182924
-8.2888937 -1.7557721 -1.229243
-9.0096331 -1.8506507 -1.3377138
-9.338006 -1.8584189 -1.386104
-9.8474369 -1.8970006 -1.4620187
-10.319755 -1.9223378 -1.5321622
-11.254117 -2.0249131 -1.6724491
-11.289717 -1.9598784 -1.6760007
-11.611724 -1.9424274 -1.7230591
-11.863626 -1.9097862 -1.7594626
-12.237729 -1.8930122 -1.814364
-12.903589 -1.9149548 -1.9133639
-12.963076 -1.8425592 -1.9206151
-13.003537 -1.7669768 -1.9250544
-13.011192 -1.6867743 -1.9246105
-13.068412 -1.6127173 -1.9317137
-13.071185 -1.5316956 -1.9306778
-13.094099 -1.4529892 -1.9327495
-13.108669 -1.3732357 -1.9336374
-13.124722 -1.2935519 -1.9348212
-13.126504 -1.2124505 -1.9339334
-13.126799 -1.1312912 -1.9328976
-13.143352 -1.0515132 -1.9343773
-13.170268 -0.97237474 -1.937485
-13.165133 -0.89081168 -1.9358572
-13.138762 -0.80807525 -1.9311217
-13.128661 -0.72662359 -1.928902
-13.143739 -0.64658755 -1.9305298
-13.186981 -0.56762463 -1.9364491
-13.155625 -0.48542684 -1.9312698
-13.146494 -0.40433252 -1.9294939
-13.129942 -0.32319883 -1.9266822
-13.126734 -0.24253801 -1.9259424
-13.139842 -0.16213469 -1.9277182
-13.137622 -0.081488952 -1.9272742
-13.134908 -0.00087654614 -1.9268303
-13.139611 0.079748198 -1.9275702
-13.102284 0.15991999 -1.9220948
-13.109956 0.24047512 -1.9234266
-13.109222 0.32093605 -1.9235747
-13.111949 0.40151849 -1.9243146
-13.105286 0.48181865 -1.9237226
-13.10307 0.56226456 -1.9238707
-13.098386 0.64260435 -1.9237226
-13.097158 0.72312629 -1.9241666
-13.094449 0.80359668 -1.9244626
-13.125781 0.88639629 -1.9299378
-12.126293 -0.30654886 -1.9194102
-12.110179 -0.23179691 -1.9165417
-12.082747 -0.15711269 -1.9119202
-12.124946 -0.083257474 -1.9186134
-12.136087 -0.0088669294 -1.9203664
-12.077668 0.065285951 -1.910964
-12.130346 0.14000539 -1.9195696
-12.142091 0.2146596 -1.9216413
-12.101068 0.28821906 -1.9152668
-12.085257 0.36205098 -1.9130358
-12.093659 0.43658933 -1.9147887
-12.066094 0.50974548 -1.9108046
-12.110071 0.58606106 -1.9184541
-12.093432 0.65965748 -1.9163823
-12.075361 0.73301196 -1.9141512
-12.049951 0.80570877 -1.9108046
-12.039857 0.87927133 -1.9100078
-12.034236 0.95312995 -1.9100078
-12.023242 1.026533 -1.9092109
-11.998038 1.0985771 -1.906183
-11.976334 1.1707349 -1.9037926
-12.033732 1.2509329 -1.9143106
-12.005223 1.3224776 -1.910964
-11.985115 1.3947464 -1.9090515
-11.953794 1.4654971 -1.9053862
-11.958285 1.5405822 -1.9076173
-11.925127 1.6107571 -1.9037926
-11.915019 1.683898 -1.9037926
-11.927902 1.7604342 -1.9076173
-11.907118 1.8320882 -1.9060236
-11.855685 1.898715 -1.8994898
-11.849655 1.9723967 -1.9004459
-11.811064 2.0405309 -1.8961431
-11.793462 2.1120937 -1.8953463
-11.762808 2.1811781 -1.8924778
-11.795742 2.2622359 -1.9001272
-11.783576 2.3349545 -1.9004459
-11.741945 2.4016747 -1.8959837
-11.730852 2.4744918 -1.8966212
-11.721236 2.5476823 -1.8975774
-11.683225 2.6145964 -1.893912
-11.632328 2.678261 -1.8881749
-11.600305 2.7459474 -1.885625
-11.634079 2.8294368 -1.8940713
-11.604047 2.89766 -1.8919996
-11.61187 2.9754219 -1.8963025
-11.598168 3.0478694 -1.8970993
-11.559231 3.1135857 -1.8937526
-11.550377 3.1873415 -1.8955057
-11.501151 3.2498324 -1.8905653
-11.487633 3.3222606 -1.8916808
-11.438631 3.3842835 -1.8868999
-11.441274 3.4615521 -1.890884
-11.392467 3.5232315 -1.8862625
-11.380989 3.5963399 -1.8880155
-11.338979 3.6597373 -1.8846688
-11.32006 3.730479 -1.8853064
-11.309121 3.8039587 -1.8873781
-11.313581 3.8828917 -1.892159
-11.300724 3.9561512 -1.8940713
-11.238116 4.0118098 -1.8875374
-11.177109 4.0675249 -1.8813221
-11.2047 4.1555953 -1.890406
-11.145745 4.2117066 -1.8846688
-11.067177 4.2598042 -1.8755851
-11.112524 4.3557296 -1.8880155
-11.0645 4.4154177 -1.8843502
-11.022564 4.4772816 -1.8818003
-11.033204 4.5606685 -1.8884935
-10.974981 4.6156521 -1.8832346
-10.981853 4.6980491 -1.8894498
-10.897598 4.7413206 -1.8797286
-10.875524 4.8112926 -1.8810035
-10.844896 4.8775282 -1.8808441
-10.765382 4.9214063 -1.872079
-10.789598 5.0127397 -1.8818003
-10.736318 5.0683141 -1.8778162
-10.716589 5.1396446 -1.8798879
-10.667988 5.1970897 -1.87686
-10.628819 5.2589469 -1.8755851
-10.580473 5.3160877 -1.8727165
-10.560845 5.3876371 -1.875107
-10.544245 5.4609618 -1.878135
-10.486072 5.5126953 -1.8736727
-10.457274 5.579721 -1.8746289
-10.399402 5.6310892 -1.870326
-10.38542 5.7062016 -1.8741508
-10.374356 5.7832766 -1.878613
-10.325786 5.8395343 -1.8762225
-10.277772 5.8959055 -1.8739915
-10.240548 5.9583611 -1.8738321
-10.222501 6.0321207 -1.8773381
-10.206475 6.1074033 -1.8813221
-10.159524 6.1642814 -1.8795692
-10.119828 6.2254686 -1.8792505
-10.074738 6.2832661 -1.8779756
-10.048512 6.3528781 -1.880366
-10.006847 6.412817 -1.8798879
-9.9764185 6.4800124 -1.8816409
-9.952137 6.5514174 -1.8846688
-9.9035387 6.6068811 -1.8830752
-9.9290619 6.712306 -1.8959837
-9.9349289 6.8054605 -1.9052268
-9.834589 6.8257656 -1.8937526
-9.82967 6.9121013 -1.9010834
-9.74687 6.943646 -1.8931152
-9.7096844 7.0073647 -1.8942307
-9.6617241 7.0633149 -1.8932745
-9.6642189 7.156539 -1.9025177
-9.5932732 7.1955633 -1.8970993
-9.6016111 7.2943015 -1.9077767
-9.5511971 7.3488646 -1.9066612
-9.5144911 7.4140058 -1.9084141
-9.5083456 7.5034347 -1.9165417
-9.4497862 7.551775 -1.9139919
-9.4071093 7.612721 -1.9147887
-9.3793116 7.6859412 -1.9187728
-9.3312149 7.7427163 -1.9186134
-9.2820196 7.7985559 -1.9182947
-9.2603121 7.8777504 -1.9238725
-9.2058163 7.9292679 -1.9225975
-9.1607103 7.9888487 -1.9233943
-9.1204004 8.0527477 -1.9253068
-9.0671377 8.1052685 -1.9245099
-9.027482 8.1700249 -1.926741
-8.9866438 8.2339325 -1.9288127
-8.9605618 8.3117437 -1.9342312
-8.920908 8.3773813 -1.9367809
-8.877924 8.4401236 -1.9386934
-8.8437519 8.5115519 -1.9426775
-8.7927742 8.5670338 -1.9429961
-8.7442589 8.6249838 -1.9439523
-8.7072401 8.6945181 -1.9476178
-8.6565056 8.7505884 -1.9482552
-8.6005802 8.8014212 -1.9477772
-8.5539551 8.8618402 -1.9495301
-8.5021439 8.9170179 -1.9501675
-8.4330559 8.953927 -1.946821
-8.3819914 9.0098391 -1.9477772
-8.3392429 9.0749111 -1.9508051
-8.287384 9.1302948 -1.9517612
-8.2562494 9.2089052 -1.9578171
-8.1995888 9.2593908 -1.9578171
-8.1608191 9.3303337 -1.9622793
-8.0982523 9.3742561 -1.9610044
-8.0348139 9.4170103 -1.9595701
-7.9660659 9.4533005 -1.9568609
-7.9034905 9.4966898 -1.9557453
-7.860116 9.5633097 -1.9595701
-7.8286643 9.6450834 -1.9665821
-7.7890949 9.7175875 -1.9716817
-7.729322 9.7651978 -1.9716817
-7.6722984 9.816329 -1.9724786
-7.6119223 9.8632202 -1.9724786
-7.5494642 9.9073849 -1.9720005
-7.4962473 9.9637766 -1.9740722
-7.4320264 10.005622 -1.9732754
-7.3652387 10.043871 -1.9718411
-7.3115768 10.10007 -1.9740722
-7.2219143 10.106189 -1.9664228
-7.2047238 10.214041 -1.9790125
-7.1498137 10.269399 -1.9812436
-7.0782804 10.300872 -1.9788531
-7.0315657 10.36862 -1.9836341
-6.9678125 10.41157 -1.9836341
-6.9054294 10.456599 -1.9841121
-6.8600035 10.527721 -1.9896899
-6.7797942 10.545534 -1.9850683
-6.7102013 10.579432 -1.9836341
-6.6404481 10.612875 -1.9821998
-6.5824628 10.665181 -1.9844309
-6.5230589 10.715488 -1.9863433
-6.4576955 10.756158 -1.9865026
-6.3925815 10.797278 -1.9868214
-6.3252144 10.834594 -1.9865026
-6.2536907 10.864645 -1.9849091
-6.1878829 10.90453 -1.9852277
-6.1227856 10.945739 -1.9858652
-6.0578918 10.987424 -1.986662
-5.99366 11.030459 -1.9877776
-5.9300599 11.074861 -1.9892118
-5.8638368 11.114532 -1.9898493
-5.7932525 11.145922 -1.9890524
-5.718904 11.169835 -1.9869808
-5.6609282 11.225871 -1.9908055
-5.5936975 11.263931 -1.9914429
-5.517539 11.283852 -1.9888932
-5.4546227 11.330836 -1.9912835
-5.3947191 11.384611 -1.994949
-5.3281012 11.424656 -1.9962238
-5.2673717 11.47777 -1.9998893
-5.1940022 11.503575 -1.9987737
-5.134541 11.560491 -2.0032358
-5.0563965 11.575494 -2.0003674
-4.9911203 11.619907 -2.0027578
-4.9185758 11.647586 -2.0022798
-4.8447437 11.672075 -2.0013235
-4.7640848 11.679645 -1.9974988
-4.6989412 11.725151 -2.0003674
-4.6265469 11.752844 -2.0002079
-4.5700097 11.821526 -2.00722
-4.5057964 11.871495 -2.0110447
-4.4373503 11.910945 -2.0131166
-4.3709621 11.956491 -2.0163038
-4.3045154 12.002601 -2.0196505
-4.2324257 12.033443 -2.0204473
-4.1594758 12.061986 -2.0209253
-4.0964513 12.120014 -2.0265031
-4.0282149 12.163665 -2.0296903
-3.9605107 12.20975 -2.0333557
-3.8846221 12.230999 -2.0328777
-3.8138971 12.268745 -2.0352681
-3.7391202 12.293805 -2.0355868
-3.6703725 12.339226 -2.0394115
-3.606997 12.404172 -2.0465829
-3.5359461 12.444114 -2.0496109
-3.4600518 12.467478 -2.0499296
-3.3876188 12.503719 -2.0524795
-3.3115907 12.527133 -2.0529575
-3.2358956 12.551997 -2.0537543
-3.1564109 12.562041 -2.0521607
-3.0851405 12.605145 -2.056145
-3.0155194 12.656488 -2.0615633
-2.9427085 12.695911 -2.0650692
-2.8638842 12.709876 -2.0644319
-2.7854218 12.725281 -2.0641131
-2.7150862 12.778827 -2.070169
-2.6318431 12.77204 -2.0663443
-2.5665727 12.85378 -2.0771809
-2.4721014 12.788836 -2.0639536
-2.4042892 12.861018 -2.0733562
-2.3276114 12.888158 -2.075428
-2.2505217 12.913868 -2.0773404
-2.1678066 12.906988 -2.0739937
-2.0794311 12.863523 -2.0647504
-1.9980373 12.860431 -2.0622008
-1.9333584 12.968138 -2.0778184
-1.8538907 12.980734 -2.0779777
-1.7615148 12.898942 -2.0628381
-1.6851424 12.931045 -2.0663443
-1.6016331 12.907831 -2.0609257
-1.5272564 12.958593 -2.0676191
-1.451769 13.004022 -2.0735157
-1.3679124 12.974396 -2.0673003
-1.2947133 13.047382 -2.0778184
-1.2098744 13.003967 -2.0695314
-1.1388624 13.112448 -2.0859461
-1.0545725 13.071956 -2.0782964
-0.97683942 13.111653 -2.083715
-0.89636946 13.1174 -2.083715
-0.81549799 13.116741 -2.0827587
-0.73770672 13.169796 -2.0905676
-0.65717965 13.179991 -2.0915236
-0.57478637 13.149255 -2.0859461
-0.49416742 13.154508 -2.0862646
-0.41276076 13.135584 -2.0827587
-0.33290401 13.167477 -2.0875397
-0.25163049 13.144595 -2.0835555
-0.17088196 13.138982 -2.0824399
-0.090429738 13.164463 -2.0864241
-0.0096184909 13.120345 -2.0792527
0.071013905 13.14385 -2.0830774
0.15163898 13.141192 -2.0827587
0.23251283 13.153833 -2.0849898
0.31312495 13.148211 -2.0843523
0.39347017 13.135188 -2.0825994
0.47427225 13.138446 -2.0835555
0.55363023 13.105699 -2.0787747
0.63446403 13.110929 -2.0802088
0.71565157 13.12059 -2.0824399
0.79596519 13.112996 -2.0819619
0.87535673 13.092105 -2.079412
0.95452195 13.070734 -2.0768621
1.0299518 13.004598 -2.0671411
1.1135049 13.042297 -2.0743124
1.1919802 13.018507 -2.0716033
1.2699176 12.991297 -2.0684159
1.3460354 12.948893 -2.0628381
1.4226532 12.914877 -2.0586946
1.5002735 12.892176 -2.0564635
1.5809114 12.895466 -2.0585353
1.6690866 12.95602 -2.0700095
1.7575355 13.012062 -2.0808463
1.8257413 12.918922 -2.0674598
1.8907092 12.810789 -2.0516827
1.9763337 12.844807 -2.0591729
2.0626028 12.879229 -2.0668223
2.1398067 12.855618 -2.0650692
2.2189832 12.844193 -2.065388
2.3019278 12.853658 -2.0692127
2.3829126 12.850939 -2.071125
2.4574437 12.813776 -2.0674598
2.5387073 12.812014 -2.0696907
2.6131186 12.775885 -2.0663443
2.6908498 12.756712 -2.065866
2.761735 12.706197 -2.0602884
2.8497784 12.734291 -2.0677783
2.8899891 12.552054 -2.0405271
2.9714999 12.553299 -2.0437145
3.0554676 12.563608 -2.0484953
3.1432602 12.587725 -2.0556667
3.2157826 12.550031 -2.0526388
3.2836959 12.49569 -2.0469017
3.3477263 12.428597 -2.0390928
3.4283876 12.424 -2.0418022
3.5040185 12.40083 -2.0414834
3.5825107 12.387631 -2.0429175
3.6508911 12.339856 -2.0386147
3.7311118 12.332341 -2.0411646
3.8125443 12.328079 -2.0443518
3.8890085 12.307278 -2.0448301
3.9429243 12.216478 -2.0335152
4.0060687 12.156425 -2.0274594
4.0739751 12.111965 -2.0241127
4.1533427 12.10168 -2.0266623
4.2268667 12.074104 -2.0263438
4.2988815 12.042363 -2.0253875
4.36729 12.000916 -2.0228376
4.4350085 11.958157 -2.0201285
4.5184178 11.9575 -2.02475
4.595603 11.939686 -2.0265031
4.6619325 11.893799 -2.0234752
4.7278724 11.847548 -2.0204473
4.8053079 11.830206 -2.0225189
4.8717728 11.785901 -2.0199692
4.9405537 11.747597 -2.0185349
5.0055537 11.700723 -2.0156662
5.0744972 11.663452 -2.0145507
5.1531558 11.648347 -2.0174193
5.2302003 11.629113 -2.0196505
5.2825775 11.555501 -2.0123196
5.3363285 11.486162 -2.0057857
5.4117627 11.463916 -2.0076981
5.4730377 11.4118 -2.0043514
5.5325799 11.356703 -2.0005267
5.5925283 11.303076 -1.9970207
5.6586752 11.262373 -1.9959052
5.7294674 11.230957 -1.9965426
5.7878299 11.175427 -1.9928772
5.8310275 11.091642 -1.9841121
5.9045515 11.066108 -1.9860245
5.9737506 11.032274 -1.9865026
6.0356269 10.985029 -1.9845903
6.095706 10.934854 -1.9821998
6.1553969 10.884356 -1.9798093
6.2151895 10.834393 -1.9775783
6.2691398 10.77472 -1.9735942
6.3546996 10.769211 -1.9798093
6.4140692 10.719003 -1.9777377
6.4817672 10.682821 -1.9783751
6.5332284 10.620146 -1.9740722
6.6008811 10.584047 -1.974869
6.653039 10.523318 -1.9710443
6.7036352 10.460687 -1.9669008
6.7660813 10.416873 -1.9664228
6.8380127 10.38753 -1.9688132
6.8950462 10.335523 -1.9669008
6.9268203 10.246401 -1.9578171
6.9968133 10.214294 -1.9598888
7.0447206 10.150084 -1.9557453
7.1119785 10.113935 -1.9571797
7.1716113 10.06689 -1.9565421
7.222847 10.008286 -1.9536736
7.2788773 9.9566069 -1.9522393
7.3427701 9.9157238 -1.9530362
7.393404 9.8570566 -1.9503269
7.4603157 9.8201532 -1.95208
7.5186243 9.7718458 -1.9516019
7.5893636 9.7395458 -1.9544704
7.6196275 9.6555948 -1.946821
7.6608577 9.5862942 -1.9421993
7.7033877 9.5191545 -1.9380559
7.7610254 9.4709444 -1.9378965
7.8076448 9.4094696 -1.935028
7.8607883 9.3560944 -1.9339124
7.9071741 9.2949028 -1.9312032
7.9479513 9.2275095 -1.9272192
7.9940395 9.1666632 -1.9246693
8.0449076 9.1115198 -1.9233943
8.0842152 9.0435839 -1.9194102
8.1441908 8.9989338 -1.9205258
8.2045889 8.9546165 -1.9218007
8.2506514 8.8946962 -1.919729
8.2807446 8.8179951 -1.9139919
8.3258524 8.7577181 -1.9119202
8.3691635 8.695797 -1.9095297
8.4134073 8.635088 -1.9074579
8.4599934 8.5769758 -1.9060236
8.4824677 8.4948654 -1.899171
8.5351334 8.4433527 -1.8993304
8.5726585 8.3770227 -1.8961431
8.6104021 8.3112373 -1.8931152
8.6555214 8.2527981 -1.8918402
8.7081528 8.2015638 -1.8923184
8.72651 8.1183891 -1.8853064
8.7717981 8.0606833 -1.8843502
8.8225546 8.0080366 -1.8846688
8.8450632 7.9300261 -1.8789318
8.895772 7.8775678 -1.8794098
8.9439402 7.8228364 -1.8794098
8.9843016 7.7613559 -1.8778162
9.0212412 7.6971121 -1.8755851
9.0501823 7.6263456 -1.8717604
9.1013594 7.5744605 -1.8727165
9.1408005 7.5128312 -1.8712822
9.1798277 7.4510031 -1.869848
9.2138186 7.3852744 -1.8674575
9.2365131 7.3108315 -1.862836
9.2718639 7.2467241 -1.8609235
9.305994 7.1818557 -1.8588518
9.3381081 7.115644 -1.8564614
9.3618717 7.0433741 -1.8524773
9.4255171 7.0011044 -1.8566208
9.4675016 6.9425545 -1.8564614
9.4675407 6.8536496 -1.8480151
9.4845161 6.7776346 -1.8430748
9.5356054 6.72614 -1.8449872
9.5880384 6.6754012 -1.8472183
9.6385813 6.6231542 -1.8491306
9.6471739 6.5422773 -1.8429154
9.666625 6.469233 -1.8389313
9.7209654 6.419591 -1.8417999
9.7626534 6.3614402 -1.842278
9.7948599 6.2971468 -1.8410031
9.8491535 6.2469754 -1.844031
9.8504753 6.163383 -1.837019
9.921711 6.1235666 -1.8433934
9.9751196 6.0723267 -1.8464215
10.029964 6.021678 -1.849768
10.05738 5.9544892 -1.8480151
10.102252 5.8976436 -1.8496087
10.095469 5.8109207 -1.8416405
10.185026 5.7795639 -1.8516804
10.240975 5.728528 -1.8555052
10.210229 5.629355 -1.8433934
10.256722 5.5731997 -1.8456246
10.295077 5.5124907 -1.8464215
10.31823 5.4436893 -1.844509
10.361948 5.3857393 -1.8464215
10.365802 5.30721 -1.8411624
10.411393 5.250175 -1.8435528
10.456675 5.19278 -1.8459433
10.488339 5.128521 -1.8459433
10.523169 5.0657821 -1.8465807
10.553161 5.0006952 -1.8464215
10.585436 4.9366827 -1.8467401
10.599377 4.8642263 -1.8438716
10.628124 4.7986922 -1.8437122
10.699773 4.752224 -1.8512024
10.76944 4.7042665 -1.8583738
10.78631 4.6330323 -1.856302
10.816354 4.5675297 -1.8566208
10.843265 4.5006976 -1.8564614
10.869761 4.4337068 -1.856302
10.839031 4.3437896 -1.8462621
10.878341 4.2822638 -1.8484931
10.931114 4.225759 -1.8531147
10.94853 4.1554542 -1.8516804
10.973822 4.0881972 -1.8516804
11.02188 4.0292606 -1.8556645
11.001791 3.9455578 -1.8480151
11.068633 3.8930466 -1.8553458
11.102577 3.828598 -1.8570988
11.127731 3.7610343 -1.8574176
11.088746 3.6721992 -1.8468995
11.153327 3.6177993 -1.8540709
11.183784 3.5519855 -1.8555052
11.174258 3.4736245 -1.8502462
11.20764 3.4087298 -1.8523179
11.269979 3.3522828 -1.8593299
11.295075 3.2844467 -1.8601267
11.32831 3.2188578 -1.8623579
11.286967 3.13239 -1.8521585
11.385062 3.0845051 -1.8653858
11.387548 3.0102999 -1.8626766
11.399114 2.9386451 -1.8615611
11.418845 2.8691275 -1.8618797
11.40555 2.7914975 -1.8567801
11.454154 2.7290134 -1.8620391
11.489918 2.6631396 -1.8652264
11.485818 2.5880308 -1.8618797
11.546807 2.5274293 -1.8693699
11.591067 2.462688 -1.8741508
11.554714 2.3809586 -1.8657045
11.58266 2.312722 -1.8679357
11.614079 2.2449818 -1.8708042
11.641221 2.1762171 -1.8730353
11.666985 2.1070282 -1.875107
11.694282 2.0379441 -1.8774974
11.714355 1.9674593 -1.8787724
11.691122 1.8898717 -1.8730353
11.756151 1.8264382 -1.8818003
6.0648217 0.90396041 -0.95111275
0 0 -0
0 0 -0
0 0 -0
5.8980565 0.73162544 -0.9206742
5.8906693 0.69403487 -0.91876179
0 0 -0
0 0 -0
0 0 -0
0 0 -0
0 0 -0
0 0 -0
0 0 -0
0 0 -0
0 0 -0
