# .PCD v0.7 - Point Cloud Data file format
VERSION 0.7
FIELDS x y z
SIZE 4 4 4
TYPE F F F
COUNT 1 1 1
WIDTH 1509
HEIGHT 1
VIEWPOINT 0 0 0 1 0 0 0
POINTS 1509
DATA ascii
5.6592989 -3.1122389 -1.6396458
5.6333346 -3.1431332 -1.6376319
5.5987821 -3.1690593 -1.6331007
5.5817494 -3.2047987 -1.6338559
5.5577984 -3.2365522 -1.6325973
5.5420017 -3.2730539 -1.6338559
5.53759 -3.3164442 -1.6386389
5.5320268 -3.359401 -1.64317
5.500596 -3.3866861 -1.6398975
5.4698601 -3.4142244 -1.6368767
5.4528971 -3.4503098 -1.6381353
5.4324384 -3.4842257 -1.6383871
5.4239402 -3.5259316 -1.6424148
5.3795738 -3.5442388 -1.6353663
5.3617501 -3.5798674 -1.6366249
5.3444934 -3.6159527 -1.6381353
5.3214073 -3.6481307 -1.6378837
5.3251538 -3.6989319 -1.6461908
5.2817788 -3.7170563 -1.6396458
5.2769976 -3.7623158 -1.6454356
5.2475362 -3.790091 -1.6434218
5.1960621 -3.8016472 -1.6343594
5.1664171 -3.8288486 -1.6323456
5.1227016 -3.8453722 -1.6258005
5.0959287 -3.8743894 -1.6247936
5.0682259 -3.9026325 -1.6235349
5.0350256 -3.9265158 -1.6205142
5.0510941 -3.9891243 -1.6338559
5.0333247 -4.0254817 -1.6361215
4.9980001 -4.0477633 -1.6325973
4.9827986 -4.0863318 -1.6358697
4.9553976 -4.114974 -1.6351146
4.947834 -4.1602492 -1.6411562
4.9362164 -4.2024493 -1.645939
4.9330635 -4.2522454 -1.6537427
4.8959413 -4.2728891 -1.6499667
4.8747082 -4.3073354 -1.6517289
4.8539577 -4.3423266 -1.6537427
4.8214836 -4.3668308 -1.6517289
4.8024454 -4.4035273 -1.6544979
4.7746258 -4.4322529 -1.6542462
4.7522774 -4.4661055 -1.6560084
4.7205772 -4.4911785 -1.6544979
4.6727152 -4.5005898 -1.6471977
4.6484766 -4.5325546 -1.6484563
4.6143789 -4.554873 -1.6461908
2.3291533 -2.3277807 -0.81623185
2.3039398 -2.3310165 -0.81220418
2.2956793 -2.351341 -0.81446975
4.5334587 -4.7001777 -1.6582739
4.4557967 -4.6767588 -1.6398975
4.4237003 -4.7004871 -1.6386389
4.386209 -4.718328 -1.6353663
4.4108539 -4.8036032 -1.6560084
4.3552871 -4.8019047 -1.645939
4.3386574 -4.8429537 -1.6509737
4.2960324 -4.8549891 -1.645939
4.2597923 -4.873971 -1.6434218
4.2234817 -4.8926911 -1.6409044
4.1908698 -4.9155684 -1.6398975
4.1494079 -4.9278655 -1.6353663
4.123425 -4.9584417 -1.6371285
4.0898519 -4.9799099 -1.6358697
4.0531216 -4.9973946 -1.6333525
4.034483 -5.0372772 -1.6383871
3.9986956 -5.0558648 -1.6363733
1.9963093 -2.5564897 -0.80339354
1.975266 -2.5617936 -0.80112797
1.9571646 -2.5707855 -0.80012107
1.9401906 -2.5811989 -0.79961759
1.924316 -2.593055 -0.79961759
1.8477309 -2.5220671 -0.77293402
1.7340852 -2.3977039 -0.72938448
1.7176533 -2.405936 -0.72862929
0 -0 -0
3.6750612 -5.2828145 -1.6336042
3.6360033 -5.2956915 -1.6305834
3.5990975 -5.3114924 -1.6285696
3.5728951 -5.3431296 -1.6315904
3.530448 -5.3504124 -1.6270592
3.4996643 -5.3752184 -1.6280661
3.4655704 -5.3949618 -1.6275626
3.43033 -5.4128551 -1.6265557
3.3903825 -5.4231334 -1.6232831
3.3636477 -5.4545431 -1.6265557
3.3210623 -5.4601965 -1.6220245
3.2869987 -5.4796414 -1.6217728
3.2587352 -5.5088692 -1.6245419
3.2297487 -5.5371199 -1.6270592
3.1961954 -5.557672 -1.6273109
3.1563053 -5.5670767 -1.6242901
3.122087 -5.5863385 -1.6242901
3.079345 -5.5901322 -1.619759
3.0352888 -5.5910606 -1.6144726
1.5928633 -2.9779048 -0.8381325
1.5741099 -2.9867661 -0.83788079
1.5548617 -2.9946508 -0.83737731
2.9156761 -5.7000532 -1.6250453
2.8745496 -5.7057362 -1.6215211
2.8261502 -5.6963916 -1.6137174
2.7945433 -5.720582 -1.6157312
2.7526777 -5.7236667 -1.6117035
2.7162638 -5.7378249 -1.6109483
2.6891816 -5.7719283 -1.615983
2.6561353 -5.7935987 -1.6174934
2.6165566 -5.8009653 -1.614976
2.5746324 -5.8027573 -1.6109483
2.54285 -5.8273158 -1.6134657
2.5028481 -5.8330259 -1.6106967
2.4624958 -5.8375731 -1.6076758
2.4336746 -5.8695583 -1.6124587
2.3654728 -5.805512 -1.5903064
2.3542681 -5.881012 -1.6074241
2.3167217 -5.8917441 -1.6064172
2.2739022 -5.8886952 -1.6016343
2.227433 -5.8753891 -1.5940824
2.2031555 -5.920691 -1.602893
2.1754174 -5.9577336 -1.6094379
2.138494 -5.9700589 -1.6091863
2.1053512 -5.9931116 -1.6119553
2.0647562 -5.9949369 -1.6089345
2.0273137 -6.0056591 -1.6084311
1.994377 -6.0299301 -1.6117035
1.9489876 -6.0162749 -1.604655
1.9102799 -6.0225859 -1.6031446
1.8755859 -6.0415878 -1.6051586
1.8404493 -6.0594645 -1.6069206
1.8026834 -6.0687876 -1.6064172
1.7646022 -6.0769463 -1.605662
1.7267531 -6.0857973 -1.6051586
1.6917053 -6.1046715 -1.6074241
1.6590189 -6.1326866 -1.6122071
1.615429 -6.1202931 -1.6061654
1.5626434 -6.0710444 -1.5903064
1.5423219 -6.1481042 -1.6084311
1.4974456 -6.1283083 -1.6006274
1.461831 -6.1458545 -1.602893
1.4243114 -6.1556516 -1.6031446
1.385452 -6.159554 -1.601886
1.3505245 -6.1811757 -1.6054102
1.3159864 -6.2054405 -1.6096897
1.2780807 -6.2143464 -1.6099415
1.2427642 -6.2363081 -1.6137174
0.75209183 -3.8995104 -0.99269569
0.74590468 -3.9991891 -1.0178689
0.71293885 -3.9570208 -1.0055339
0.69627476 -4.0051808 -1.0171137
0.66160643 -3.9492457 -1.0012546
0.63982809 -3.9685178 -1.0052823
0.61887598 -3.9943657 -1.011072
0.59891224 -4.0287204 -1.0191275
0.5732255 -4.0256124 -1.0173653
0.54799145 -4.025218 -1.0163585
0.52490473 -4.0409813 -1.0196309
0.49914891 -4.0364423 -1.0176171
0.4666903 -3.9740684 -1.0004994
0.4452951 -4.0037894 -1.0075479
0.41970825 -3.9968212 -1.0050305
0.39565262 -4.0041366 -1.0062891
0.37152299 -4.0113072 -1.0075479
0.34823802 -4.0289388 -1.0115756
0.32382044 -4.0348582 -1.0125824
0.29948649 -4.0425601 -1.0140928
0.27395377 -4.0337005 -1.0113238
0.24913855 -4.0343394 -1.011072
0.22357234 -4.0212975 -1.0072961
0.19817559 -4.0080948 -1.0035201
0.17328496 -4.0024667 -1.001758
0.14857893 -3.9995863 -1.0007511
0.12385461 -3.9946187 -0.9992407
0.099510819 -4.0020761 -1.0010028
0.074843377 -3.9968054 -0.99949241
0.050256643 -3.9923508 -0.9982338
0.02581615 -4.0012941 -1.0004994
0.0012601735 -3.9916992 -0.99798203
-0.023182621 -3.9829216 -0.99571645
-0.04794224 -4.0098009 -1.0027649
-0.072666906 -4.0162048 -1.0045271
-0.097682104 -4.0311637 -1.0085548
-0.12262002 -4.0372596 -1.0103168
-0.14802384 -4.0538402 -1.014848
-0.1724011 -4.0412526 -1.0118272
-0.19846585 -4.0662184 -1.0186241
-0.22187448 -4.0369 -1.0113238
-0.24728864 -4.0460887 -1.0140928
-0.27457544 -4.0811887 -1.0236586
-0.30010757 -4.0861835 -1.0254208
-0.32103157 -4.0321684 -1.0118272
-0.3413868 -3.9790168 -0.99848551
-0.36650357 -3.9845572 -1.0004994
-0.39047313 -3.9774175 -0.9992407
-0.41667742 -3.9922731 -1.0037719
-0.44371626 -4.0127277 -1.0098134
-0.47506002 -4.067606 -1.0249174
-0.49859259 -4.0530877 -1.0218965
-0.52258474 -4.0432334 -1.0201344
-0.55062997 -4.0639272 -1.0264277
-0.57976305 -4.0901771 -1.0342314
-0.60598189 -4.094202 -1.0362452
-0.63005966 -4.0837111 -1.0344831
-0.65203804 -4.060657 -1.0294485
-0.67630464 -4.0527611 -1.0284415
-0.70198452 -4.0533032 -1.0297002
-0.72393644 -4.0327258 -1.0254208
-0.74725312 -4.0205956 -1.023407
-0.76789206 -3.9950256 -1.0178689
-0.78711504 -3.9636588 -1.0108204
-0.81064385 -3.9549623 -1.0098134
-0.83789653 -3.9641171 -1.0135894
-0.86879146 -3.9891622 -1.0216448
-0.89558035 -3.9941442 -1.0244138
-0.91985369 -3.9876308 -1.0241622
-0.9476524 -3.9960372 -1.0279381
-0.9758178 -4.0051923 -1.0319659
-0.74917483 -2.9945161 -0.76261306
-0.76633215 -2.9851758 -0.76135439
-0.78291047 -2.973866 -0.75959224
-0.80114305 -2.9690061 -0.75959224
-0.81934547 -2.9640346 -0.75959224
-0.83672661 -2.9561574 -0.75883704
-0.85781032 -2.9611936 -0.7616061
-1.1805133 -3.9840369 -1.0405247
-1.1805285 -3.8961353 -1.0186241
-1.2181516 -3.9331946 -1.0307071
-1.2437218 -3.9302597 -1.0319659
-1.253829 -3.8792713 -1.0201344
-1.0911405 -3.3062727 -0.86531949
-1.0839207 -3.2178848 -0.84291542
-1.0910667 -3.174562 -0.83284616
-1.1137255 -3.1769409 -0.83536345
-1.3937286 -3.8991344 -1.0367486
-1.1274527 -3.0939245 -0.81623185
-1.1443945 -3.0815046 -0.81472147
-1.1691012 -3.0898132 -0.8190009
-1.2266583 -3.1828249 -0.84694308
-1.5243423 -3.8842783 -1.0450559
-1.2218277 -3.0578842 -0.81623185
-1.2376516 -3.0431573 -0.81421798
-1.2563007 -3.035506 -0.81421798
-1.2730253 -3.0232804 -0.81295937
-1.6580118 -3.8712783 -1.0551251
-1.6817343 -3.8610322 -1.0551251
-1.6948142 -3.8267474 -1.0483284
-1.7321665 -3.8471642 -1.0571389
-1.7581556 -3.8417437 -1.0586493
-1.7576202 -3.7791069 -1.0437971
-1.7691994 -3.7437496 -1.0367486
-1.8017694 -3.7528911 -1.0425385
-1.8786274 -3.8522437 -1.0745084
-1.8287911 -3.6923373 -1.0314623
-1.838804 -3.6559718 -1.0241622
-1.8528407 -3.6282432 -1.0193793
-1.8821939 -3.630554 -1.023407
-1.9102932 -3.6300709 -1.0266794
-1.9370896 -3.6268184 -1.0291967
-1.9542348 -3.6055045 -1.0264277
-1.9753884 -3.5917497 -1.0259242
-1.9959753 -3.5770257 -1.025169
-2.0093057 -3.5495505 -1.0206379
-2.0604396 -3.5883536 -1.0359935
-2.1062803 -3.6166248 -1.0483284
-2.1535289 -3.6461334 -1.0611666
-2.1440396 -3.579711 -1.0450559
-2.1554158 -3.5491159 -1.0397695
-2.1979537 -3.5696137 -1.0500904
-2.1921453 -3.5117252 -1.036497
-2.1945069 -3.4679472 -1.0271829
-2.240299 -3.4927063 -1.0390143
-2.2727637 -3.495935 -1.0443007
-2.2877827 -3.4722252 -1.0412799
-2.3219411 -3.4774404 -1.0473214
-2.3351004 -3.4511037 -1.0435455
-2.34693 -3.4231403 -1.039266
-2.3750668 -3.419009 -1.0425385
-2.4188352 -3.4368224 -1.0528595
-2.4612253 -3.4518621 -1.0624253
-2.4511957 -3.3935428 -1.0485801
-2.4959712 -3.4112449 -1.0591528
-2.5116696 -3.3888674 -1.0568873
-2.5120826 -3.3463013 -1.0480766
-2.5378389 -3.3377585 -1.0503422
-2.5848398 -3.3566318 -1.0616701
-2.5946751 -3.3269706 -1.0571389
-2.6696198 -3.3801055 -1.0800465
-2.6298671 -3.2880766 -1.0548733
-2.6396389 -3.2590921 -1.050594
-2.6951785 -3.2862399 -1.0651944
-2.6231749 -3.1586964 -1.0276864
-2.6686642 -3.1736543 -1.038259
-2.855583 -3.3539855 -1.1054714
-2.8950639 -3.3583934 -1.1130234
-2.7788069 -3.1837895 -1.0589011
-2.866854 -3.2442837 -1.0858363
-2.9331625 -3.278568 -1.103961
-2.9389322 -3.2447267 -1.0984229
-2.9483216 -3.215219 -1.0943953
-2.9811623 -3.2112546 -1.0994298
-3.0505147 -3.2457981 -1.1183097
-3.1157322 -3.2747011 -1.1354275
-2.9028134 -3.0136297 -1.0480766
-3.2360795 -3.3186822 -1.1653835
-3.3012509 -3.3442245 -1.1819978
-4.6446652 -4.6479597 -1.6688466
-2.9036322 -2.8700404 -1.0216448
-2.8837981 -2.8156567 -1.0080513
-3.4589472 -3.3361108 -1.2096883
-3.4646385 -3.3008041 -1.2044019
-3.3093486 -3.1143184 -1.1417208
-3.4432189 -3.2007082 -1.1825013
-3.4385576 -3.1572638 -1.1739424
-3.4435291 -3.1231012 -1.1689078
-3.4092882 -3.0541227 -1.1502796
-3.1663303 -2.8016064 -1.0594045
-3.0180535 -2.6375432 -1.0022615
-3.1477275 -2.7170038 -1.0412799
-3.1510837 -2.6863358 -1.0367486
-3.2792881 -2.7610846 -1.0747602
-3.2701252 -2.7192516 -1.0659496
-3.3076887 -2.7163348 -1.072998
-3.3310583 -2.7014751 -1.0752636
-3.3679657 -2.6973217 -1.0820603
-3.3366332 -2.6387801 -1.0662013
-3.2818294 -2.5628538 -1.0427903
-3.2951939 -2.5408955 -1.0420351
-3.4577858 -2.632618 -1.0901158
-3.4738743 -2.6113517 -1.0901158
-3.4603019 -2.5680676 -1.08055
-3.4026151 -2.4930136 -1.0568873
-3.3880513 -2.4505329 -1.0473214
-3.3817587 -2.4145122 -1.0405247
-3.3917642 -2.3903711 -1.0390143
-3.3968341 -2.3628819 -1.0359935
-3.4399896 -2.3617172 -1.0450559
-3.5713847 -2.4198344 -1.0818087
-3.5145674 -2.349992 -1.0594045
-3.4788394 -2.2953329 -1.0437971
-3.499346 -2.2781687 -1.0458111
-3.535243 -2.2707782 -1.0526078
-3.5466576 -2.2474892 -1.0518526
-3.5308397 -2.2072141 -1.0427903
-3.5418453 -2.1839836 -1.0420351
-3.5345085 -2.1496358 -1.0357418
-3.5750186 -2.1443384 -1.0440489
-3.6080992 -2.1341891 -1.0500904
-3.6211264 -2.11201 -1.0500904
-3.6407287 -2.0936117 -1.0521044
-3.6501389 -2.0693238 -1.0510974
-3.6712151 -2.05161 -1.0536147
-3.6566093 -2.014101 -1.0455593
-3.662945 -1.9883939 -1.0437971
-3.6307034 -1.9421394 -1.0307071
-3.6134439 -1.9044802 -1.0221483
-3.6508276 -1.8956547 -1.0297002
-3.6804838 -1.8824744 -1.0349866
-3.7049294 -1.8663883 -1.0387626
-3.7665937 -1.8685706 -1.053363
-3.8032055 -1.8577447 -1.0606632
-3.8293593 -1.8415053 -1.0649426
-3.8519576 -1.8233581 -1.0682151
-3.9095664 -1.8213537 -1.0815569
-3.9382627 -1.8053983 -1.0865916
-3.9783783 -1.794333 -1.0948987
-4.0096593 -1.7789172 -1.1006885
-4.0240469 -1.7558293 -1.1016954
-4.0596466 -1.7417921 -1.1087439
-4.0782828 -1.7202356 -1.1110095
-4.1155806 -1.7063013 -1.1185615
-4.1707845 -1.6992784 -1.131148
-4.2970333 -1.7200603 -1.1636214
-4.3408303 -1.7067678 -1.1729355
-4.3891392 -1.6947453 -1.1835082
-4.429318 -1.6791056 -1.1918154
-4.3687901 -1.6255654 -1.1721803
-4.6032219 -1.6807331 -1.234358
-4.7291565 -1.6939118 -1.2663279
-4.8608999 -1.7075317 -1.2998081
-4.8950763 -1.6858692 -1.3063532
-5.0153613 -1.692953 -1.336561
-5.0982418 -1.6861604 -1.3564478
-5.2843404 -1.7118251 -1.4045285
-5.2781396 -1.6741009 -1.3999974
-5.4186339 -1.6821499 -1.4354914
-6.011312 -1.8258207 -1.5938306
-6.0613661 -1.8004782 -1.6044034
-6.2321544 -1.8096814 -1.6477011
-6.3800025 -1.8102491 -1.6847057
-6.27068 -1.7377203 -1.6522323
-6.4409728 -1.7424372 -1.6952784
-6.5273376 -1.7228942 -1.7156687
-6.5874596 -1.6955997 -1.7290105
-6.6634483 -1.671636 -1.7466316
-6.8456225 -1.6727681 -1.7926985
-7.0788965 -1.6838225 -1.8523589
-7.2738981 -1.6831279 -1.9016984
-7.3596244 -1.6554594 -1.9218369
-7.3696432 -1.6102704 -1.9218369
-7.379385 -1.5650208 -1.9218369
-7.404964 -1.5230277 -1.9261162
-7.407526 -1.4762386 -1.9243542
-7.4383006 -1.4349767 -1.930144
-7.4507709 -1.3900193 -1.9311509
-7.4582071 -1.3441043 -1.9308991
-7.4720349 -1.2993114 -1.9324095
-7.4760489 -1.2527994 -1.9314026
-7.4740405 -1.2053623 -1.9288853
-7.4573865 -1.1557729 -1.922592
-7.4672098 -1.1104207 -1.9233472
-7.4614272 -1.0628071 -1.9200747
-7.5147958 -1.0234061 -1.9324095
-7.4950213 -0.97390848 -1.9256128
-7.5210257 -0.93039781 -1.9308991
-7.515059 -0.88287646 -1.9278784
-7.5366864 -0.83856851 -1.9321579
-7.5455399 -0.79271317 -1.9331647
-7.5483356 -0.74620914 -1.9326613
-7.5440989 -0.69907528 -1.9303957
-7.5511389 -0.65302271 -1.9311509
-7.5492158 -0.60621238 -1.9296405
-7.5392814 -0.55887753 -1.9261162
-7.5570521 -0.51359189 -1.9298922
-7.5629587 -0.4673923 -1.9306474
-7.5531225 -0.4202784 -1.927375
-7.531394 -0.3727282 -1.9210817
-7.5828505 -0.32864919 -1.9339199
-7.5760198 -0.2817913 -1.9316543
-7.5882468 -0.23563138 -1.9344234
-7.2288671 0.53095984 -1.9342908
-7.1985435 0.57315677 -1.9269305
-7.1968136 0.6174807 -1.9274563
-7.1871247 0.66109669 -1.9258791
-7.1982965 0.70669442 -1.9300849
-7.2149358 0.75305593 -1.9358679
-7.196754 0.79582494 -1.9321878
-7.2109013 0.84221005 -1.937445
-7.1864457 0.88408029 -1.9321878
-7.1598353 0.92543453 -1.9264048
-7.1444612 0.96805197 -1.9237761
-7.155582 1.0143116 -1.9285077
-7.150178 1.0583397 -1.9287705
-7.1206646 1.0986577 -1.9224619
-7.1204576 1.1434005 -1.924302
-7.1095014 1.1864334 -1.9232504
-7.1125445 1.231847 -1.926142
-7.1058021 1.2756362 -1.9264048
-7.089304 1.3176244 -1.9240391
-7.0810857 1.3610989 -1.9240391
-7.0669231 1.4033934 -1.9224619
-7.0666852 1.4484738 -1.9248277
-7.0529447 1.4908085 -1.9235133
-7.0172691 1.5283033 -1.9161532
-7.0152907 1.5730217 -1.918256
-6.9923453 1.6129987 -1.9145761
-6.9785614 1.6549815 -1.9135245
-6.9767118 1.6998268 -1.9158903
-6.9698944 1.7435403 -1.9169418
-6.9506545 1.7841136 -1.9145761
-6.9461074 1.8284489 -1.916416
-6.939415 1.8722924 -1.9177303
-6.9398851 1.91818 -1.9211476
-6.8992066 1.9525766 -1.9129988
-6.8945098 1.9970212 -1.9151018
-6.8765764 2.037642 -1.9135245
-6.8408608 2.0727992 -1.906953
-6.8482885 2.1210179 -1.9127359
-6.8268671 2.160377 -1.9103702
-6.825417 2.2060847 -1.9137874
-6.780602 2.2376378 -1.9048501
-6.7585158 2.2764275 -1.9024843
-6.7827415 2.3310308 -1.9135245
-6.7901616 2.3802688 -1.9198333
-6.7645268 2.417989 -1.9166789
-6.7296209 2.4521794 -1.9108959
-6.7325363 2.5001459 -1.9161532
-6.7116551 2.5393596 -1.9145761
-6.6941471 2.5797994 -1.9140503
-6.6710067 2.6180046 -1.9119474
-6.6566095 2.6596038 -1.9124731
-6.6187162 2.6916714 -1.9061644
-6.6002932 2.7314942 -1.9056387
-6.601192 2.7794325 -1.9108959
-6.5919952 2.8233042 -1.9132617
-6.5657024 2.8598444 -1.9106331
-6.5639095 2.9071124 -1.9153646
-6.5133991 2.9326715 -1.9056387
-6.5049319 2.977 -1.9085301
-6.4830437 3.0152292 -1.9074787
-6.479249 3.0619624 -1.9119474
-6.4612088 3.1020782 -1.9122102
-6.4212418 3.1315117 -1.9059016
-6.407958 3.1738513 -1.9077415
-6.376297 3.2070386 -1.9040614
-6.3616538 3.2487364 -1.9056387
-6.3475957 3.2908189 -1.9074787
-6.3247228 3.3283567 -1.9066901
-6.329711 3.3807425 -1.9145761
-6.2910361 3.4098594 -1.9090558
-6.2699952 3.4483962 -1.9090558
-6.2108073 3.4656408 -1.897227
-6.2188106 3.5203247 -1.9064273
-6.1878901 3.5531299 -1.9035357
-6.1626372 3.5890884 -1.9024843
-6.1305313 3.6209445 -1.89933
-6.1139917 3.6619637 -1.90117
-6.0707927 3.6868854 -1.8945985
-6.0784512 3.7427883 -1.9043244
-6.062737 3.7846138 -1.9066901
-6.0353246 3.8191626 -1.9053758
-6.0182734 3.8602912 -1.9074787
-5.9556499 3.8718967 -1.8948613
-5.9293637 3.9067743 -1.8940727
-5.8780017 3.9248617 -1.8851354
-5.8809752 3.9792423 -1.8940727
-5.8803182 4.0316238 -1.9019586
-5.877655 4.0830455 -1.9093188
-5.864325 4.1273646 -1.9132617
-5.7949018 4.1318951 -1.8985413
-5.7866449 4.1798058 -1.9043244
-5.7671175 4.2197919 -1.9064273
-5.7356915 4.2510767 -1.9045873
-5.6979265 4.2774997 -1.9006443
-5.6754127 4.3153014 -1.9019586
-5.658 4.3571095 -1.905113
-5.6220303 4.3846226 -1.9019586
-5.5904784 4.4154472 -1.9003814
-5.5572534 4.4448442 -1.8982785
-5.5283766 4.4776444 -1.8977528
-5.5007982 4.5114818 -1.8977528
-5.464107 4.5377507 -1.8945985
-5.4546199 4.5867195 -1.90117
-5.4175591 4.6125946 -1.8980156
-5.4008455 4.6558309 -1.9022214
-5.3518262 4.6711144 -1.8948613
-5.3151121 4.6968355 -1.8919698
-5.2941012 4.7364378 -1.8948613
-5.2334795 4.7403283 -1.8832953
-5.2512212 4.8153968 -1.9006443
-5.2039008 4.8311129 -1.8940727
-5.1783776 4.8669176 -1.8956499
-5.1435251 4.8939438 -1.8938098
-5.116179 4.9280896 -1.8948613
-5.0589085 4.9331145 -1.8846097
-5.0717945 5.0067725 -1.90117
-5.0464368 5.0432553 -1.9032729
-4.9957309 5.0542216 -1.8956499
-4.9632769 5.0833988 -1.8951242
-4.9252958 5.1068115 -1.8924955
-4.9078417 5.1516085 -1.8980156
-4.8781228 5.1837335 -1.8988042
-4.8284912 5.1944842 -1.8917069
-4.7854362 5.2119298 -1.8872383
-4.785769 5.2769346 -1.9003814
-4.7513695 5.3040438 -1.8995929
-4.7200131 5.3345432 -1.9001186
-4.6783051 5.3532319 -1.8964385
-4.6529341 5.3906026 -1.8995929
-4.6235256 5.4234567 -1.90117
-4.5976162 5.4605823 -1.9043244
-4.5510721 5.4731088 -1.8988042
-4.5143433 5.4972019 -1.8974899
-4.476275 5.5195513 -1.8956499
-4.4519711 5.5589643 -1.8998557
-4.4165816 5.5846629 -1.89933
-4.3406715 5.5584202 -1.8809296
-4.3035388 5.5811286 -1.8796153
-4.2645383 5.6012874 -1.8775123
-4.2509551 5.6551166 -1.8869754
-4.2144513 5.6787686 -1.8861868
-4.1658454 5.6858401 -1.8798782
-4.1461425 5.7324047 -1.8869754
-4.1108913 5.7577372 -1.8869754
-4.0688167 5.7733874 -1.883821
-4.028358 5.7911153 -1.8814553
-3.998208 5.823679 -1.8840839
-3.9694333 5.8584867 -1.8875011
-3.93502 5.885139 -1.8882897
-3.8945856 5.9027295 -1.8861868
-3.8477683 5.9103417 -1.8809296
-3.825506 5.955761 -1.8880268
-3.7713356 5.9514093 -1.8790895
-3.7454846 5.9916205 -1.8846097
-3.7132065 6.0218816 -1.8869754
-3.691725 6.0701094 -1.8951242
-3.6568906 6.0967846 -1.8964385
-3.6194127 6.1191082 -1.8964385
-3.5827703 6.142868 -1.8969642
-3.5325093 6.1429877 -1.8901298
-3.49475 6.164547 -1.8901298
-3.444155 6.1631317 -1.8830324
-3.4244227 6.2171111 -1.8932841
-3.3944936 6.2532701 -1.8980156
-3.369709 6.2995062 -1.9059016
-3.3233471 6.305552 -1.9014329
-3.2983732 6.3523722 -1.9095817
-3.2505496 6.3553095 -1.9043244
-3.2114928 6.3751349 -1.9043244
-3.1671717 6.3843474 -1.90117
-3.1359816 6.4201341 -1.9061644
-3.0898414 6.4253416 -1.9019586
-3.042105 6.4267368 -1.8967013
-3.0058725 6.4522791 -1.8988042
-2.9565792 6.4495502 -1.8924955
-2.9340007 6.5053921 -1.9037986
-2.8889446 6.5118065 -1.9003814
-2.8558772 6.5453291 -1.905113
-2.793226 6.5104117 -1.8896041
-2.7502277 6.5203156 -1.8875011
-2.72051 6.5620255 -1.8948613
-2.6838338 6.5875306 -1.8974899
-2.6494558 6.6191025 -1.9019586
-2.6066744 6.629847 -1.9003814
-2.5753245 6.6700201 -1.9074787
-2.529222 6.6721625 -1.9035357
-2.4845355 6.6776085 -1.9006443
-2.4507921 6.7126675 -1.9064273
-2.3919981 6.6785264 -1.8922327
-2.3691916 6.7449684 -1.9072158
-2.3230505 6.7456937 -1.9032729
-2.2884009 6.7799335 -1.9090558
-2.2497847 6.8030081 -1.9116845
-2.2005708 6.7937365 -1.905113
-2.1585524 6.806191 -1.9048501
-2.1267555 6.8515606 -1.9140503
-2.0807519 6.8515553 -1.9103702
-2.0323579 6.8429198 -1.9043244
-1.9906011 6.8561883 -1.9045873
-1.9482317 6.8673449 -1.9043244
-1.9158418 6.9145041 -1.9143132
-1.867085 6.902844 -1.9077415
-1.8217423 6.9029751 -1.9045873
-1.7747861 6.8962688 -1.8995929
-1.7284502 6.891119 -1.8951242
-1.6861345 6.9015946 -1.8951242
-1.6464323 6.9230752 -1.8982785
-1.6089203 6.954668 -1.9043244
-1.5729862 6.9945326 -1.9127359
-1.5267469 6.9889708 -1.9085301
-1.4802351 6.9812169 -1.9037986
-1.4412547 7.0090699 -1.9090558
-1.4012347 7.0329218 -1.9132617
-1.3622541 7.0631776 -1.9193076
-1.3167688 7.0600209 -1.9161532
-1.2713734 7.0565729 -1.9129988
-1.2265652 7.0556855 -1.9106331
-1.1799049 7.0430951 -1.905113
-1.1417298 7.0816369 -1.9137874
-1.0951573 7.0684857 -1.9082673
-1.0543162 7.0922513 -1.9129988
-1.0113225 7.1024079 -1.9140503
-0.96993375 7.124732 -1.9185189
-0.92321998 7.1075859 -1.9122102
-0.8787635 7.1064138 -1.9103702
-0.83289534 7.0925064 -1.905113
-0.79031926 7.1061139 -1.9074787
-0.74026328 7.049417 -1.8906555
-0.70049948 7.0893526 -1.9003814
-0.65698683 7.0935173 -1.9003814
-0.61444455 7.1089501 -1.9035357
-0.57073629 7.1116247 -1.9032729
-0.52893865 7.1400104 -1.9101074
-0.48472711 7.1373458 -1.9085301
-0.44080544 7.1382594 -1.9080044
-0.39742482 7.1485367 -1.9101074
-0.35379219 7.1556592 -1.9114217
-0.30946347 7.148056 -1.908793
-0.26627555 7.1681395 -1.9137874
-0.22225791 7.168674 -1.9135245
-0.17810079 7.1631508 -1.9116845
-0.13385867 7.1486745 -1.9074787
-0.089597121 7.1175241 -1.8988042
-0.046177957 7.158462 -1.9098445
-0.0022500544 7.1354547 -1.9035357
0.041618906 7.1498065 -1.9074787
0.085430048 7.1445923 -1.9061644
0.129214 7.1410398 -1.9053758
0.17333406 7.1526518 -1.908793
0.2172481 7.1524177 -1.9090558
0.26127186 7.1548071 -1.9101074
0.30549827 7.1607809 -1.9122102
0.34829757 7.135643 -1.9059016
0.39441121 7.1757598 -1.9174675
0.43784326 7.1635747 -1.9148389
0.48042646 7.1405377 -1.9093188
0.52267265 7.1162863 -1.9035357
0.56816912 7.1360278 -1.9098445
0.60930002 7.1016459 -1.9014329
0.65357167 7.1054602 -1.9035357
0.69829071 7.1128383 -1.9066901
0.74192113 7.1084199 -1.9066901
0.78520501 7.1008568 -1.9059016
0.82775152 7.0872803 -1.9035357
0.87558717 7.1174989 -1.9132617
0.919119 7.1110358 -1.9129988
0.96078867 7.0909209 -1.9090558
1.0019751 7.0686531 -1.9045873
1.0451872 7.0614176 -1.9043244
1.0867282 7.0434289 -1.90117
1.1302317 7.0385337 -1.9016957
1.1764184 7.0495477 -1.9066901
1.2183331 7.0345912 -1.9045873
1.2618148 7.0288825 -1.905113
1.3052725 7.0229049 -1.9056387
1.34196 6.9816027 -1.8964385
1.3872181 6.9855394 -1.8998557
1.4269522 6.9617734 -1.8956499
1.472837 6.9679899 -1.8998557
1.5135093 6.9493947 -1.897227
1.5559102 6.9390359 -1.8969642
1.6019305 6.9443998 -1.90117
1.6431736 6.9288073 -1.8995929
1.6842858 6.9129705 -1.8980156
1.7285457 6.9099932 -1.9001186
1.7692318 6.8927155 -1.8982785
1.8095253 6.8742657 -1.8961756
1.8549402 6.8751426 -1.8995929
1.8970903 6.8636317 -1.8995929
1.9368031 6.8435073 -1.897227
1.9696257 6.7999868 -1.8882897
2.0192664 6.814599 -1.8959128
2.0574026 6.7900777 -1.8924955
2.0990272 6.7773256 -1.8924955
2.1335826 6.7422428 -1.8861868
2.1823342 6.7519751 -1.8927584
2.2161596 6.7155528 -1.8861868
2.2536263 6.6908569 -1.8830324
2.3046775 6.7060995 -1.8914441
2.3483367 6.6991158 -1.8935469
2.3884227 6.6818552 -1.8927584
2.4320207 6.6743259 -1.8948613
2.4699035 6.6511378 -1.8924955
2.5239887 6.6710491 -1.9027472
2.5430067 6.598722 -1.8861868
2.5792165 6.572217 -1.8830324
2.6216431 6.5616431 -1.8846097
2.6633096 6.5490084 -1.8856611
2.6872034 6.4933195 -1.8740951
2.7322388 6.4891572 -1.8777752
2.7784641 6.4873466 -1.8822439
2.8031855 6.4356809 -1.8719922
2.8402762 6.4130669 -1.8704151
2.8882902 6.4148722 -1.8761981
2.9259901 6.3935199 -1.8751466
2.9696424 6.3850689 -1.878038
3.002991 6.3545156 -1.8743579
3.0394187 6.3307514 -1.8727808
3.0655146 6.2859688 -1.864895
3.1018848 6.2627182 -1.8635806
3.1454577 6.2539101 -1.866735
3.1727982 6.2130122 -1.8601635
3.2268524 6.2242608 -1.8696265
3.2609379 6.1966605 -1.8672607
3.2725265 6.1271782 -1.8520147
3.3275368 6.1392136 -1.8620034
3.3539815 6.098393 -1.8556948
3.4054456 6.102972 -1.8635806
3.4447303 6.08532 -1.8646321
3.4796014 6.059886 -1.8633177
3.5269184 6.0559282 -1.8688378
3.5375068 5.9893174 -1.8546432
3.5548501 5.9352212 -1.8443916
3.5982144 5.9248414 -1.8480717
3.6385491 5.9092236 -1.8501747
3.6941586 5.9178848 -1.8601635
3.7319486 5.897552 -1.860952
3.7732756 5.8826628 -1.8635806
3.8092999 5.8593998 -1.8635806
3.8494287 5.8423605 -1.8656836
3.8910992 5.8274565 -1.868575
3.9392216 5.8218484 -1.8746209
3.9639552 5.7816548 -1.8693635
3.995502 5.7516775 -1.8675236
4.0323849 5.7294197 -1.8683121
4.0713859 5.7100682 -1.8701522
4.1069107 5.6857615 -1.8704151
4.1411505 5.6596761 -1.8701522
4.1694789 5.6256347 -1.8672607
4.2027597 5.598402 -1.866735
4.2434568 5.5809565 -1.8696265
4.2758546 5.5525208 -1.8688378
4.306283 5.521616 -1.8672607
4.347858 5.504931 -1.8706779
4.399034 5.4999971 -1.8783009
4.4272318 5.4661546 -1.8759352
4.4668078 5.4463458 -1.8785638
4.5013752 5.42032 -1.8790895
4.519022 5.3741393 -1.8725179
4.5631728 5.3595314 -1.8772495
4.607944 5.345314 -1.8822439
4.6197147 5.2929554 -1.8735694
4.6431589 5.2543893 -1.8698894
4.6746683 5.2250814 -1.8696265
4.701458 5.1905799 -1.8675236
4.7423491 5.1715889 -1.8712037
4.7858105 5.1551189 -1.8759352
4.8054557 5.1130033 -1.8712037
4.8367381 5.0834217 -1.8712037
4.8564572 5.0418367 -1.866735
4.8947129 5.0195408 -1.8696265
4.9308434 4.994905 -1.8717294
4.9695845 4.972744 -1.8748838
5.0185337 4.9604673 -1.881981
5.046114 4.9268851 -1.8809296
5.0568018 4.877079 -1.8735694
5.0761514 4.8359785 -1.8696265
5.1289196 4.8265572 -1.8783009
5.1365275 4.7746358 -1.8701522
5.1557765 4.7338948 -1.8664721
5.2040253 4.7196679 -1.8735694
5.2206678 4.6767054 -1.8691007
5.2499881 4.6452231 -1.8693635
5.2885642 4.6218095 -1.8730437
5.3438516 4.6125941 -1.8827696
5.3661785 4.5747113 -1.8806667
5.3897185 4.537971 -1.8790895
5.4026222 4.4924798 -1.8738322
5.4293399 4.4586334 -1.8735694
5.4715848 4.4373879 -1.8788266
5.4881644 4.3952889 -1.8751466
5.5248699 4.3693104 -1.8785638
5.5523357 4.3359218 -1.8788266
5.6048174 4.3217988 -1.887764
5.6250877 4.2826524 -1.8856611
5.6342907 4.2353053 -1.8798782
5.6640463 4.2035289 -1.8811924
5.6749425 4.1578636 -1.8761981
5.7136397 4.132575 -1.8806667
5.7648048 4.1159358 -1.8893412
5.7686553 4.0654826 -1.8822439
5.8148799 4.0448828 -1.8893412
5.8284521 4.0014839 -1.8856611
5.8544927 3.966728 -1.8861868
5.8827324 3.9334116 -1.8875011
5.9059515 3.8967104 -1.8872383
5.9410715 3.8677666 -1.8909184
5.9541373 3.8244634 -1.8875011
5.9660807 3.7806292 -1.883821
5.981802 3.7393491 -1.8814553
6.0128469 3.7076378 -1.8840839
6.024766 3.6641579 -1.8806667
6.0372052 3.6211679 -1.8775123
6.0941925 3.6046808 -1.8885525
6.0936909 3.5540988 -1.8814553
6.1279306 3.5238543 -1.8853983
6.156992 3.4904687 -1.887764
6.1707125 3.4483898 -1.8853983
6.2052784 3.4179077 -1.8896041
6.2193494 3.3760872 -1.8875011
6.2527099 3.3446867 -1.8914441
6.268847 3.3040092 -1.8901298
6.3001342 3.2712603 -1.8935469
6.3114972 3.2281497 -1.8909184
6.3458357 3.1967392 -1.8953871
6.349772 3.1500263 -1.8906555
6.3698478 3.1114287 -1.8909184
6.3940368 3.0747936 -1.8924955
6.4302254 3.0437555 -1.8977528
6.4566526 3.0079088 -1.9001186
6.4732327 2.9674311 -1.8995929
6.4737272 2.9197257 -1.8943356
6.5056324 2.8862066 -1.8985413
6.5241036 2.8466201 -1.8988042
6.5618424 2.8152816 -1.9048501
6.5460982 2.7610974 -1.8951242
6.5878739 2.7312217 -1.9024843
6.5830626 2.6820145 -1.8961756
6.6370187 2.6566236 -1.9072158
6.6181731 2.6020868 -1.8969642
6.6457162 2.5659454 -1.9003814
6.6613355 2.5251198 -1.9003814
6.6794171 2.485208 -1.90117
6.693634 2.4438462 -1.9009072
6.7239456 2.408257 -1.9053758
6.7304025 2.364078 -1.90301
6.7493429 2.3243065 -1.9043244
6.7717056 2.2856252 -1.9066901
6.7938471 2.2467568 -1.9090558
6.7992439 2.202354 -1.9066901
6.8181477 2.1623421 -1.9082673
6.8266797 2.1190367 -1.906953
6.8349371 2.0757082 -1.9056387
6.8678937 2.0397706 -1.9114217
6.8821335 1.9981294 -1.9119474
6.8812685 1.9521793 -1.9082673
6.9219427 1.9179016 -1.916416
6.9196091 1.8716168 -1.9124731
6.9244323 1.8274013 -1.9106331
6.9570065 1.7904067 -1.9166789
6.9491439 1.742994 -1.9114217
6.9793911 1.7051275 -1.9169418
6.9906607 1.6624937 -1.9172046
6.9941497 1.6180474 -1.9153646
6.9982982 1.5738324 -1.9137874
6.988028 1.526541 -1.9082673
7.0151968 1.487434 -1.9132617
7.0175757 1.4430023 -1.9114217
7.0244055 1.3995395 -1.9108959
7.0404396 1.3578726 -1.9129988
7.0401025 1.3130571 -1.9106331
7.0651188 1.2729117 -1.9153646
7.0642409 1.2280512 -1.9129988
7.0821109 1.1864345 -1.9158903
7.0625854 1.1386615 -1.9085301
6.4792347 1.0039594 -1.745818
6.4938622 0.96546006 -1.7481838
5.9265313 0.84408176 -1.5904661
5.8742371 0.79990172 -1.5746944
5.8522434 0.76036751 -1.5673342
5.834775 0.72172469 -1.5612884
5.8208866 0.68377447 -1.556294
5.8019581 0.64548951 -1.5499853
5.793335 0.60856932 -1.546568
5.7873583 0.57206345 -1.5439395
5.7734666 0.53494328 -1.5392079
5.7670274 0.49867862 -1.5365793
5.7584376 0.4623591 -1.5334249
5.7621284 0.42708841 -1.5336878
5.773304 0.3923116 -1.5360535
0 0 -0
0 0 -0
0 0 -0
0 0 -0
0 0 -0
0 0 -0
0 0 -0
0 0 -0
0 0 -0
0 0 -0
0 0 -0
0 -0 -0
0 -0 -0
0 -0 -0
0 -0 -0
0 -0 -0
0 -0 -0
0 -0 -0
0 -0 -0
0 -0 -0
0 -0 -0
0 -0 -0
0 -0 -0
0 -0 -0
0 -0 -0
0 -0 -0
6.539598 -0.64191985 -1.749761
7.2178149 -0.75335687 -1.9366565
7.2216873 -0.79858613 -1.9390223
7.2425251 -0.84590876 -1.9461195
7.2257075 -0.88891661 -1.9429651
7.2277718 -0.93422669 -1.9450681
7.2037382 -0.97609353 -1.9400737
7.1689553 -1.0162095 -1.9321878
7.1473145 -1.0579154 -1.927982
7.0424757 -1.086581 -1.9009072
6.8422971 -1.0986878 -1.847546
6.5642076 -1.0953447 -1.7726301
6.4603963 -1.1187911 -1.745818
6.4078279 -1.1502199 -1.7332007
6.3446846 -1.1791049 -1.7176918
6.2814302 -1.2072587 -1.7021829
6.2038765 -1.2318598 -1.682731
6.3256869 -1.2964655 -1.7187432
6.2628641 -1.3236732 -1.7034972
6.2753639 -1.3665968 -1.7092801
6.277216 -1.4073998 -1.7121717
6.2731628 -1.4469748 -1.713486
6.2669826 -1.4861072 -1.7142745
6.2211881 -1.5156195 -1.7040229
6.1958604 -1.5497805 -1.6995542
6.1619372 -1.5815276 -1.6927198
6.1474524 -1.618078 -1.6914054
6.1346135 -1.6550131 -1.6906168
6.0955157 -1.6846503 -1.6824682
6.0535011 -1.7130816 -1.6735308
6.0484362 -1.7518045 -1.675108
6.0468235 -1.7916267 -1.6777366
6.0412564 -1.8303752 -1.6793138
6.0197744 -1.8642676 -1.6764222
5.9898252 -1.8953443 -1.671165
5.9826732 -1.9335458 -1.6724794
5.967948 -1.9693109 -1.6716907
5.9338088 -1.9984975 -1.665382
5.9278212 -2.037065 -1.6672221
5.9115686 -2.0721219 -1.6661706
5.9041939 -2.1103051 -1.6677479
5.8603144 -2.1352568 -1.6588105
5.8425803 -2.1694946 -1.6574962
5.8372793 -2.2083774 -1.6598619
5.8155169 -2.2410288 -1.6574962
5.7953701 -2.2742014 -1.6556561
5.7580132 -2.3004072 -1.6488217
5.7509394 -2.3386033 -1.6509246
5.7507448 -2.3797519 -1.6551304
5.7307 -2.4127457 -1.6535532
5.7166743 -2.4482431 -1.6538161
5.7095051 -2.4867427 -1.6561818
5.7091355 -2.5283735 -1.6606505
5.7049503 -2.5685079 -1.6640677
5.7022419 -2.6094892 -1.6680107
5.697495 -2.6497197 -1.6714278
5.6628118 -2.6759689 -1.6659077
5.6445465 -2.7098293 -1.665382
5.6243443 -2.7427204 -1.6643306
5.5935769 -2.7703252 -1.6601248
5.5885396 -2.8106658 -1.6638049
5.5445533 -2.8312962 -1.6556561
5.5227938 -2.8630426 -1.6543418
5.5068302 -2.8977749 -1.6548675
5.486393 -2.9301455 -1.654079
5.4767928 -2.9683533 -1.6567075
5.4686198 -3.0074835 -1.6598619
5.436584 -3.0334573 -1.6556561
5.4187083 -3.0672338 -1.655919
5.4048061 -3.1033082 -1.6574962
5.3781595 -3.1320417 -1.6551304
5.3538566 -3.1620376 -1.6535532
5.3285604 -3.1913576 -1.6517131
5.3220716 -3.2320082 -1.655919
5.3103552 -3.2696633 -1.6585476
5.2926478 -3.3037186 -1.6593362
5.267386 -3.333035 -1.6577591
5.2216625 -3.3491399 -1.6496103
5.1735139 -3.3632314 -1.6406729
5.1777534 -3.4113727 -1.6488217
5.1663518 -3.4495094 -1.651976
5.1211185 -3.4649198 -1.6440902
5.1077185 -3.5017345 -1.6467187
5.0734591 -3.5241995 -1.642513
5.028861 -3.5391555 -1.63489
5.0227604 -3.5811508 -1.6401472
5.0077305 -3.6169882 -1.642513
5.0033498 -3.6607537 -1.6485589
4.9900942 -3.6982806 -1.6517131
4.9727087 -3.7328851 -1.6535532
4.9612293 -3.7720883 -1.6574962
4.9196467 -3.7883277 -1.6511874
4.8788133 -3.8047926 -1.6451416
4.8637033 -3.8412364 -1.6480331
4.8355217 -3.8673906 -1.6464559
4.8154492 -3.9000249 -1.6477703
4.7876992 -3.9264386 -1.6464559
4.7390256 -3.935396 -1.6377815
4.6837788 -3.9383147 -1.6267412
4.6580563 -3.9657285 -1.6262155
4.686244 -4.0396018 -1.6451416
4.6475601 -4.0562234 -1.6401472
4.6081262 -4.0718837 -1.63489
4.5758653 -4.0936475 -1.6322613
4.5335011 -4.1060996 -1.6259526
4.5515928 -4.173624 -1.6419872
4.4827719 -4.1614232 -1.6259526
4.5302601 -4.2575827 -1.6532904
4.4935675 -4.275322 -1.6493474
4.4755874 -4.3108468 -1.6525018
4.4504337 -4.3395748 -1.6530275
2.331219 -2.3004508 -0.8518216
2.3177421 -2.3153937 -0.85208446
2.3021352 -2.3281989 -0.85155874
4.4066172 -4.5130806 -1.6779995
4.3286171 -4.4879403 -1.6582848
4.2843633 -4.4969492 -1.6517131
4.2494178 -4.5154223 -1.6488217
4.2183475 -4.5378776 -1.6475074
4.1917291 -4.5650969 -1.6480331
4.2193718 -4.6522036 -1.6706393
4.1669321 -4.6514115 -1.6609133
4.1274462 -4.6646056 -1.6564447
4.0917645 -4.6818509 -1.6535532
4.0560265 -4.6988339 -1.6506617
4.0264926 -4.7228985 -1.6503989
3.9899821 -4.738658 -1.6472446
3.9373941 -4.7348561 -1.6372558
3.9413264 -4.7991958 -1.6514503
3.9464386 -4.8660092 -1.6664335
3.906256 -4.8773284 -1.6619649
3.8672802 -4.8898516 -1.6580219
2.0085709 -2.5710497 -0.84840441
1.9845109 -2.5726275 -0.8447243
1.9593388 -2.5724716 -0.84051853
1.9446768 -2.585988 -0.84104425
1.9293476 -2.5986466 -0.8413071
1.9013942 -2.5940897 -0.835787
1.7022787 -2.3523819 -0.75061941
1.7169592 -2.4036195 -0.76428831
1.649389 -2.3391783 -0.73931634
3.521595 -5.0623441 -1.6396215
3.4964724 -5.0926075 -1.642513
3.4586661 -5.1043792 -1.6393586
3.4036903 -5.0902109 -1.6277927
3.3761117 -5.1166377 -1.6296327
3.352021 -5.1485782 -1.6333128
3.3167176 -5.1633654 -1.6314727
3.2901366 -5.1917701 -1.6341014
3.2694671 -5.2298608 -1.6398844
3.2433908 -5.2596793 -1.6430387
3.2030375 -5.2662907 -1.6388329
3.1681831 -5.2817078 -1.6375186
3.1396441 -5.3076921 -1.6396215
3.1036158 -5.321022 -1.6377815
3.0670617 -5.3332734 -1.6356785
3.0304739 -5.3452768 -1.6335757
3.0009127 -5.3696671 -1.6354157
2.9632549 -5.3795271 -1.6327871
2.9274299 -5.39252 -1.6312099
2.8820033 -5.3874083 -1.6241126
1.5896767 -3.0148742 -0.88809669
1.5667032 -3.0160079 -0.88546807
1.5477285 -3.0247052 -0.88520521
2.7298288 -5.4185967 -1.6125467
2.7338209 -5.5104465 -1.6354157
2.693608 -5.5141125 -1.6314727
2.6584694 -5.5279274 -1.6306841
2.6162477 -5.5266929 -1.6254269
2.5814726 -5.5408926 -1.6249012
2.5454161 -5.5522418 -1.6235869
2.5227997 -5.5932636 -1.6312099
2.4853036 -5.6015821 -1.629107
2.450886 -5.6167264 -1.629107
2.4121933 -5.6219049 -1.6262155
2.3690317 -5.6161518 -1.6201696
2.3360045 -5.6341476 -1.6212211
2.304301 -5.6555233 -1.623324
2.2627466 -5.6525359 -1.6183296
2.2294321 -5.6699052 -1.6193811
2.1966846 -5.688879 -1.6209582
2.1672065 -5.7166862 -1.625164
2.1324251 -5.7307806 -1.6254269
2.0899451 -5.7238169 -1.6196439
2.0606382 -5.7528839 -1.6243755
2.0205064 -5.7517638 -1.6204325
1.9898864 -5.7777376 -1.6243755
1.9497713 -5.7761254 -1.6204325
1.9227711 -5.8136311 -1.6277927
1.881417 -5.8078785 -1.6227983
1.8486603 -5.8285108 -1.6254269
1.8074309 -5.8222356 -1.6204325
1.773914 -5.8406024 -1.6225355
1.7350234 -5.8412023 -1.6196439
1.6959233 -5.8406191 -1.6164895
1.6640017 -5.8648386 -1.6204325
1.6238648 -5.8600607 -1.6162267
1.5936681 -5.8913369 -1.6222725
1.5567515 -5.8982058 -1.6214839
1.5195701 -5.9039087 -1.6204325
1.4819084 -5.9075065 -1.6188554
1.4476922 -5.9249239 -1.6212211
1.4093026 -5.9252467 -1.6188554
1.3742234 -5.9394231 -1.6204325
1.3345808 -5.9336228 -1.6164895
1.2940323 -5.9228473 -1.6112323
1.2574662 -5.9297318 -1.6109694
1.2047474 -5.8579483 -1.588889
1.1781998 -5.9125433 -1.6020321
0.76855475 -3.9822211 -1.0644777
0.72819853 -3.9014964 -1.04082
0.69193912 -3.837522 -1.0218939
0.66507757 -3.8226833 -1.0166366
0.65705764 -3.9189973 -1.0421343
0.61980486 -3.8410351 -1.0195282
0.60079974 -3.8743238 -1.0276768
0.57829148 -3.8865266 -1.0300426
0.56041104 -3.9320314 -1.0416086
0.53380412 -3.9172313 -1.0366142
0.51037902 -3.9252172 -1.0379285
0.48025385 -3.8794394 -1.0245225
0.45632863 -3.8813548 -1.0242596
0.43261099 -3.8850408 -1.0245225
0.40775862 -3.8780262 -1.0218939
0.38395584 -3.8804553 -1.0218939
0.36244798 -3.9077172 -1.0287282
0.33854678 -3.9108288 -1.0289911
0.31585348 -3.9291823 -1.0334598
0.29038715 -3.9127645 -1.0284654
0.26611254 -3.9106221 -1.027414
0.24175654 -3.9064033 -1.0258368
0.21783616 -3.9087765 -1.0260997
0.19365829 -3.9061849 -1.0250483
0.16906312 -3.8928404 -1.0211053
0.14549486 -3.902482 -1.023471
0.12107105 -3.8878715 -1.0192652
0.096951157 -3.8779311 -1.0163738
0.073208511 -3.8813469 -1.0171623
0.049259778 -3.8711109 -1.0142708
0.025518296 -3.8732698 -1.0147966
0.0017532046 -3.8820369 -1.0171623
-0.022228196 -3.9089894 -1.0245225
-0.046049189 -3.895273 -1.0208424
-0.070002101 -3.8978109 -1.021631
-0.094105557 -3.9050245 -1.0237339
-0.11806456 -3.9043736 -1.0237339
-0.14180693 -3.8977904 -1.0221567
-0.16530785 -3.8872075 -1.0195282
-0.18873143 -3.8774469 -1.0171623
-0.21103245 -3.8492415 -1.0098022
-0.23582733 -3.8671348 -1.0150595
-0.25838253 -3.8482873 -1.0103279
-0.28262779 -3.8552895 -1.0126936
-0.30873355 -3.8842597 -1.0211053
-0.33347008 -3.8928664 -1.0239967
-0.35796967 -3.8974724 -1.0258368
-0.38244393 -3.9009635 -1.027414
-0.40627226 -3.897584 -1.0271511
-0.43028596 -3.8959768 -1.027414
-0.45171732 -3.8721807 -1.021631
-0.47629377 -3.8760393 -1.023471
-0.50341123 -3.8988788 -1.0305684
-0.52693576 -3.8928483 -1.0297798
-0.55420101 -3.9134233 -1.0363513
-0.58004141 -3.9223566 -1.0397686
-0.60336125 -3.9139559 -1.0384542
-0.62904984 -3.9206588 -1.0413457
-0.65802276 -3.9462264 -1.0494945
-0.68304795 -3.9468677 -1.0508088
-0.70537567 -3.9321563 -1.0479172
-0.725784 -3.9078345 -1.0423971
-0.75448751 -3.9279416 -1.0492316
-0.77594155 -3.9099896 -1.0455515
-0.80185705 -3.9146066 -1.0481801
-0.81408018 -3.85392 -1.0326712
-0.83791751 -3.8497951 -1.0329341
-0.85117227 -3.7984517 -1.0200539
-0.88032281 -3.8185403 -1.0271511
-0.90796936 -3.8309033 -1.0321455
-0.93100113 -3.8233852 -1.0316198
-0.75599778 -3.0248475 -0.80897498
-0.76806283 -2.9949205 -0.80187768
-0.78716213 -2.9929502 -0.80266625
-0.80802655 -2.9973788 -0.80529487
-0.82460254 -2.9858551 -0.80345488
-0.84054184 -2.9723842 -0.80108911
-0.86091292 -2.9745843 -0.80319202
-1.11721 -3.7721727 -1.0313569
-1.1436939 -3.7763267 -1.0345113
-1.168557 -3.7747674 -1.0360885
-1.183833 -3.742691 -1.0289911
-1.2094474 -3.7436187 -1.0313569
-1.1371042 -3.4475298 -0.94855511
-1.0845941 -3.2219679 -0.88573092
-1.0968138 -3.1933546 -0.87942219
-1.1297988 -3.2248039 -0.89046246
-1.2603568 -3.5276034 -0.98009866
-1.1236819 -3.0856037 -0.85418737
-1.1422576 -3.0777464 -0.85392451
-1.1659027 -3.0833125 -0.85760462
-1.4690756 -3.8133934 -1.0728892
-1.2040046 -3.0696709 -0.85786748
-1.2206683 -3.0568502 -0.85629028
-1.2372202 -3.0439405 -0.85471308
-1.2558742 -3.0362918 -0.85471308
-1.532922 -3.6420524 -1.0360885
-1.5655004 -3.6565228 -1.0431857
-1.596772 -3.6671917 -1.0492316
-1.6180708 -3.6546788 -1.048443
-1.6444277 -3.6534789 -1.0510716
-1.664404 -3.6380565 -1.0494945
-1.679776 -3.6129041 -1.0450258
-1.6928402 -3.5833395 -1.0392429
-1.7156308 -3.5746243 -1.0397686
-1.7316091 -3.5518904 -1.0360885
-1.7555124 -3.545521 -1.0374027
-1.7850403 -3.5501966 -1.0421343
-1.8234704 -3.5718265 -1.0521231
-1.8302491 -3.53145 -1.0431857
-1.8554789 -3.5269833 -1.0452887
-1.8798133 -3.5206378 -1.0468658
-1.8931019 -3.4937701 -1.0421343
-1.9056667 -3.4660273 -1.0371399
-1.9240763 -3.4492142 -1.0355628
-1.93522 -3.4197125 -1.0300426
-1.9600111 -3.4144669 -1.0321455
-1.9964675 -3.4290535 -1.0405571
-1.9894941 -3.3693907 -1.025574
-2.0046759 -3.348016 -1.0226824
-2.044719 -3.3678112 -1.0329341
-2.068887 -3.3609521 -1.0347742
-2.0996914 -3.3645618 -1.0400314
-2.1187484 -3.3491695 -1.0392429
-2.1512427 -3.3547828 -1.0452887
-2.1754689 -3.3471818 -1.0471287
-2.1890633 -3.3232977 -1.0437114
-2.2099493 -3.3106055 -1.0439743
-2.2313027 -3.2985814 -1.0445001
-2.2618692 -3.2999461 -1.0494945
-2.2886817 -3.2955132 -1.0526488
-2.343852 -3.3311098 -1.0692092
-2.3838568 -3.3441577 -1.0784093
-2.3320012 -3.2293663 -1.044763
-2.4030602 -3.2850671 -1.0684205
-2.4450078 -3.2997122 -1.0784093
-2.4594147 -3.2769327 -1.0757807
-2.4847322 -3.2686918 -1.0781465
-2.5047417 -3.2533841 -1.0781465
-2.5317788 -3.2470827 -1.0813009
-2.5384958 -3.2148316 -1.0755179
-2.5473239 -3.1856344 -1.0707864
-2.5212691 -3.1137199 -1.0510716
-2.518908 -3.072084 -1.0418714
-2.550658 -3.0721555 -1.0473915
-2.5626285 -3.0483253 -1.0445001
-2.555635 -3.0024281 -1.0337226
-2.5626676 -2.9735384 -1.0289911
-2.5891142 -2.9672065 -1.0324084
-2.6027987 -2.9462039 -1.0305684
-2.6369131 -2.9481518 -1.0371399
-2.6964142 -2.9776762 -1.0539631
-2.7139821 -2.9603641 -1.0537002
-2.7163379 -2.926688 -1.0473915
-3.3244143 -3.537698 -1.2821281
-2.725441 -2.8651788 -1.036877
-2.7148528 -2.819221 -1.0258368
-2.7159309 -2.785934 -1.0195282
-2.7438211 -2.7802012 -1.0237339
-2.7560534 -2.7585366 -1.0218939
-2.7921443 -2.7605619 -1.029254
-2.8207681 -2.7548344 -1.0337226
-2.8320615 -2.7321172 -1.0316198
-3.474786 -3.3108854 -1.2671449
-2.8520234 -2.6845968 -1.0266254
-3.277673 -3.0473189 -1.178823
-3.4278083 -3.1478488 -1.2274526
-3.2890887 -2.9835377 -1.1693599
-3.3950219 -3.0418258 -1.2014291
-2.9330308 -2.5958483 -1.0266254
-2.9634354 -2.5904984 -1.0318826
-2.9836576 -2.5760481 -1.0334598
-3.0155632 -2.5714602 -1.0392429
-3.0327609 -2.5541513 -1.0397686
-3.0557954 -2.5416622 -1.0423971
-3.125026 -2.5669427 -1.0613233
-3.1152356 -2.5270607 -1.0523859
-3.1344485 -2.5109134 -1.0537002
-3.1528237 -2.4940271 -1.0547518
-3.1680675 -2.4746346 -1.0547518
-3.1778429 -2.451026 -1.0529116
-3.2150872 -2.4484267 -1.0605347
-3.1945686 -2.4019911 -1.048443
-3.2239695 -2.3932669 -1.0534374
-3.2572749 -2.3871224 -1.0597461
-3.2804613 -2.3733096 -1.0626376
-3.3028152 -2.3587415 -1.0652663
-3.3203809 -2.3406541 -1.0663177
-3.322006 -2.3114233 -1.0621119
-3.3019192 -2.2675202 -1.0508088
-3.3061843 -2.2407246 -1.0476544
-3.3567698 -2.245059 -1.0597461
-3.3221567 -2.1925466 -1.0439743
-3.3201826 -2.1621218 -1.0389799
-3.3341985 -2.1422303 -1.0392429
-3.4181907 -2.1666505 -1.0621119
-3.4526944 -2.1589298 -1.0689464
-3.4625909 -2.1356788 -1.0678948
-3.4657369 -2.1083777 -1.0647405
-3.4537838 -2.0721884 -1.0568546
-3.4656029 -2.0504661 -1.0565917
-3.5122933 -2.0490873 -1.0673691
-3.5172718 -2.0231702 -1.0650034
-3.5363348 -2.0053561 -1.0671062
-3.5713155 -1.9963242 -1.0742036
-3.5716648 -1.9678584 -1.0705235
-3.578584 -1.9431452 -1.0689464
-3.5691686 -1.909777 -1.0623747
-3.5543575 -1.8738997 -1.054226
-3.5760651 -1.857389 -1.0573803
-3.6028576 -1.8433175 -1.0621119
-3.6321969 -1.8302886 -1.067632
-3.6753414 -1.823827 -1.0773579
-3.7324142 -1.8236774 -1.0912896
-3.7252727 -1.7919635 -1.0857695
-3.7396863 -1.7707225 -1.086821
-3.7784698 -1.7607763 -1.0952326
-3.7839396 -1.7351474 -1.0936555
-3.8270597 -1.7265685 -1.1033813
-3.9046137 -1.732779 -1.123359
-4.0106859 -1.7504444 -1.1517481
-5.4161825 -2.3239703 -1.5652313
-4.0247521 -1.6980968 -1.1496452
-4.0172691 -1.6659821 -1.144388
-4.1945157 -1.7093478 -1.1935433
-4.3321285 -1.7344708 -1.2308698
-4.3597507 -1.7145617 -1.2358642
-4.3764901 -1.6902102 -1.2377043
-4.4490337 -1.6869122 -1.2558417
-4.5081339 -1.677742 -1.2700363
-4.6388907 -1.6940386 -1.3049971
-4.6610069 -1.6697705 -1.3084143
-4.7986155 -1.6858838 -1.3452151
-4.896451 -1.6865532 -1.37045
-5.0145845 -1.6928693 -1.4014678
-5.2200046 -1.7265629 -1.4574575
-5.2038803 -1.6858833 -1.4498346
-5.3612847 -1.7005652 -1.4918926
-5.3495021 -1.660776 -1.4855839
-5.9504685 -1.8072599 -1.6538161
-6.0132427 -1.7860891 -1.6685364
-6.0454006 -1.7553428 -1.6745822
-6.111752 -1.7340065 -1.690354
-6.2013135 -1.7183583 -1.7126974
-6.2368884 -1.687073 -1.7197946
-6.3292208 -1.6704243 -1.7429266
-6.4673676 -1.6644809 -1.7789388
-6.5738549 -1.6489282 -1.8060137
-6.8013034 -1.6616496 -1.8669978
-6.9437265 -1.65134 -1.9040614
-7.0477324 -1.6304342 -1.9303478
-7.073607 -1.5907556 -1.9348165
-7.0813489 -1.5469112 -1.9342908
-7.0982585 -1.5050316 -1.9363936
-7.1281514 -1.465721 -1.9421766
-7.1171393 -1.4180001 -1.9366565
-7.1427593 -1.3775896 -1.941388
-7.1368499 -1.3310853 -1.937445
-7.1258917 -1.2838509 -1.9321878
-7.1440916 -1.2419192 -1.9350793
-7.1515775 -1.1980604 -1.9350793
-7.1587939 -1.1541566 -1.9350793
-7.1485782 -1.1075531 -1.9303478
-7.1666918 -1.06537 -1.9335021
-7.1931539 -1.0242289 -1.9390223
-7.1820941 -0.97773343 -1.9342908
-7.1975265 -0.93488777 -1.9369193
-7.1935515 -0.88952446 -1.9342908
-7.2180395 -0.84761637 -1.939548
-7.1981721 -0.80054259 -1.9327135
-7.2039084 -0.75646096 -1.9329764
-7.2228169 -0.71366513 -1.9369193
-7.226099 -0.66924447 -1.9366565
-7.2483335 -0.62646896 -1.9416509
-7.2481937 -0.58167416 -1.9405994
-7.2381558 -0.53619337 -1.9369193
-7.2461224 -0.49209687 -1.9382336
-7.2490058 -0.44762623 -1.9382336
-7.2400556 -0.40249795 -1.9350793
-7.2394977 -0.35792375 -1.9342908
-7.2454133 -0.31366259 -1.9353422
-7.2597361 -0.26966324 -1.9387594
-7.2303939 -0.22416148 -1.9303478
-7.2297044 -0.17974475 -1.9298221
-7.2354941 -0.13547027 -1.9311364
-7.2390838 -0.091107517 -1.9319249
-7.2703805 -0.04688178 -1.9403366
-7.2444806 -0.0022667046 -1.9332392
-7.2318158 0.04210959 -1.9298221
-7.2323861 0.086494073 -1.9300849
-7.2249665 0.13074625 -1.9282448
-7.2327089 0.17528713 -1.9306107
-7.2102809 0.21901502 -1.9248277
-7.2194071 0.26364136 -1.9277191
-7.2157259 0.30785128 -1.9271934
-7.2339382 0.35311145 -1.9327135
-7.2287455 0.3973321 -1.9319249
-7.2165408 0.44108918 -1.9292964
-7.1944456 0.48406225 -1.9240391
-6.9225554 -0.17603457 -1.933202
-6.9292746 -0.13366687 -1.9348468
-6.9270792 -0.091109015 -1.9340245
-6.9217381 -0.04856272 -1.9323797
-6.9276757 -0.0060962327 -1.9340245
-6.9304676 0.036426298 -1.9348468
-6.9272289 0.078917466 -1.9340245
-6.9371915 0.12160546 -1.9370399
-6.9334302 0.16410087 -1.9362174
-6.9265251 0.20646892 -1.9345727
-6.9280114 0.24906889 -1.9353951
-6.9215484 0.2913717 -1.9340245
-6.910985 0.33341947 -1.9315573
-6.8972859 0.37519205 -1.9282677
-6.9169326 0.41884157 -1.9345727
-6.8912029 0.45974013 -1.9279937
-6.8968844 0.5026437 -1.9304608
-6.894629 0.54502851 -1.9307349
-6.8825312 0.58658838 -1.9282677
-6.9017873 0.63090748 -1.9348468
-6.8843861 0.67193711 -1.9310091
-6.8868294 0.71486086 -1.932928
-6.871798 0.75594807 -1.9299126
-6.8670306 0.79809839 -1.9299126
-6.860095 0.83998507 -1.9293643
-6.8395505 0.88009906 -1.9249783
-6.8359275 0.9223063 -1.9255265
-6.8263307 0.96369588 -1.92443
-6.8221917 1.0058438 -1.9249783
-6.8101888 1.0468087 -1.9233335
-6.7998385 1.087968 -1.9222369
-6.8025217 1.1312475 -1.9249783
-6.7926097 1.1724752 -1.9241558
-6.794754 1.2158252 -1.9268972
-6.785275 1.2571439 -1.9263489
-6.789712 1.301106 -1.9299126
-6.7561293 1.3377006 -1.9225111
-6.7327185 1.37605 -1.918125
-6.7279129 1.4181285 -1.9192215
-6.6993489 1.4550982 -1.9134649
-6.7100034 1.5005835 -1.9192215
-6.6987953 1.5412959 -1.9186733
-6.6826611 1.5808207 -1.9167545
-6.6681628 1.6206596 -1.9153838
-6.6683569 1.6641049 -1.9183992
-6.6561575 1.7045128 -1.917851
-6.6381321 1.7433684 -1.9156579
-6.6282387 1.7843163 -1.9159321
-6.6255097 1.8272535 -1.9183992
-6.6076946 1.8660432 -1.9164803
-6.5776424 1.9012125 -1.9109977
-6.5658531 1.9415363 -1.9109977
-6.5547366 1.9820654 -1.9112719
-6.5387764 2.0211115 -1.9101753
-6.5198326 2.0591674 -1.9082565
-6.5061598 2.0988386 -1.9079823
-6.4885921 2.1372159 -1.9066117
-6.5118189 2.1892452 -1.9175768
-6.5019021 2.230408 -1.9186733
