# .PCD v0.7 - Point Cloud Data file format
VERSION 0.7
FIELDS x y z
SIZE 4 4 4
TYPE F F F
COUNT 1 1 1
WIDTH 1558
HEIGHT 1
VIEWPOINT 0 0 0 1 0 0 0
POINTS 1558
DATA ascii
-10.237527 1.8316534 -1.8996847
-10.241561 1.8972996 -1.9026169
-10.208486 1.9560359 -1.8985851
-10.238723 2.027036 -1.9066488
-10.241503 2.0929701 -1.9095809
-10.241936 2.1586092 -1.9121467
-10.208323 2.2170312 -1.9082981
-10.15999 2.2719049 -1.9017006
-10.153523 2.3359656 -1.9031667
-10.142825 2.3991275 -1.9038998
-10.154661 2.4678168 -1.9090312
-10.115482 2.5241289 -1.9044496
-10.0579 2.5754209 -1.8963859
-10.043811 2.6375859 -1.8967525
-10.035981 2.7014632 -1.8984019
-10.036275 2.7676954 -1.9017006
-10.00302 2.8246839 -1.8985851
-10.003444 2.8911934 -1.9020671
-9.9742031 2.9491744 -1.8998679
-9.9766216 3.0165782 -1.9038998
-9.915659 3.0646753 -1.8956529
-9.9304152 3.1361156 -1.9022504
-9.9231482 3.2009113 -1.9046328
-9.8659716 3.2494385 -1.8973023
-9.8598251 3.3146119 -1.9000512
-9.8030357 3.3626101 -1.8929039
-9.7989216 3.4285405 -1.8962027
-9.7860327 3.4915738 -1.8978521
-9.7755108 3.5555859 -1.9000512
-9.7359962 3.609009 -1.8965691
-9.731142 3.6752787 -1.9000512
-9.7194185 3.7391541 -1.9022504
-9.6642551 3.7861712 -1.8958361
-9.6307974 3.8413928 -1.8938202
-9.577898 3.8885813 -1.8879557
-9.5620356 3.9506552 -1.889605
-9.5557394 4.0168705 -1.8932704
-9.5309134 4.075428 -1.8932704
-9.4786816 4.1220717 -1.8877724
-9.472991 4.1889 -1.8918042
-9.4578695 4.2517829 -1.8940035
-9.4244499 4.3064666 -1.8925374
-9.3907156 4.3609009 -1.8910712
-9.3371086 4.4058547 -1.8855733
-9.3090124 4.4626384 -1.88539
-9.2858744 4.5218253 -1.8863063
-9.2799835 4.5896115 -1.890888
-9.2323208 4.6367602 -1.8868561
-9.1853046 4.6839437 -1.8830075
-9.1860743 4.7555809 -1.8892386
-9.1645546 4.8159714 -1.890888
-9.1105442 4.8591604 -1.8857565
-9.0442457 4.895318 -1.8780594
-8.9787092 4.9313188 -1.8705455
-8.935401 4.9791408 -1.8677965
-8.942337 5.0551586 -1.8758602
-8.9188261 5.1143336 -1.8775096
-8.9178696 5.1867537 -1.8841071
-8.8757153 5.2353821 -1.8819079
-8.8653603 5.3028636 -1.8866729
-8.7864246 5.329123 -1.8765932
-8.7602596 5.3870549 -1.8780594
-8.7345486 5.4453855 -1.8797088
-8.6660681 5.4768209 -1.8720117
-8.6596174 5.54739 -1.8780594
-8.6006804 5.5843601 -1.8725615
-8.614706 5.6689095 -1.8833741
-8.5405016 5.6954827 -1.8745774
-8.5265713 5.7620893 -1.8793422
-8.457799 5.7915282 -1.8718284
-8.3962564 5.8253837 -1.8659639
-8.4053936 5.9084496 -1.8762268
-8.3673801 5.9587722 -1.8758602
-8.2876072 5.9789443 -1.8659639
-8.2745771 6.0470839 -1.8714619
-8.2349463 6.0959873 -1.8709121
-8.2186241 6.1623235 -1.8758602
-8.2041454 6.2304716 -1.8813581
-8.2094002 6.3142557 -1.891621
-8.1526642 6.3506145 -1.8874059
-8.1096849 6.3974748 -1.8864896
-8.0817995 6.4563179 -1.8892386
-8.0512037 6.5132046 -1.8914378
-7.9829493 6.5394344 -1.8846569
-7.9994235 6.6353631 -1.8984019
-7.914144 6.6470203 -1.8875892
-7.8934302 6.7126503 -1.8925374
-7.8595433 6.7673712 -1.89437
-7.8334332 6.8290343 -1.8982185
-7.7751684 6.8626595 -1.8941867
-7.7549052 6.9298882 -1.8996847
-7.7049479 6.970746 -1.8978521
-7.6598563 7.0158997 -1.8973023
-7.6044083 7.051405 -1.8941867
-7.581068 7.1167707 -1.8993181
-7.5486593 7.1739883 -1.9022504
-7.5215015 7.2365284 -1.9066488
-7.4537168 7.2599087 -1.900601
-7.4048305 7.3013659 -1.8995014
-7.4030294 7.3897214 -1.9108639
-7.3478661 7.4252243 -1.9082981
-7.2980442 7.4659524 -1.9071985
-7.2889724 7.548779 -1.9170948
-7.2221608 7.5720205 -1.9115969
-7.1796088 7.6204853 -1.9126965
-7.1588354 7.6924601 -1.9198438
-7.1214805 7.747097 -1.9225928
-7.0559678 7.7709975 -1.9176446
-7.0219369 7.829514 -1.9214932
-6.9796309 7.8790751 -1.9231426
-6.9292121 7.9195337 -1.9225928
-6.8644185 7.9433069 -1.9180112
-6.8123589 7.9815378 -1.9170948
-6.7860675 8.0502453 -1.9236923
-6.7440925 8.1007986 -1.9258916
-6.7023764 8.1518984 -1.928274
-6.6757793 8.2218695 -1.9352381
-6.6196704 8.2557745 -1.9335887
-6.5731611 8.301631 -1.9348716
-6.5214944 8.341033 -1.9346883
-6.4774013 8.3902283 -1.9368875
-6.4120898 8.4118338 -1.9326724
-6.388732 8.4887199 -1.9414691
-6.3394575 8.5317059 -1.9423854
-6.28757 8.5712366 -1.9425687
-6.2354364 8.6104507 -1.942752
-6.1710515 8.632555 -1.9390867
-6.120801 8.6742735 -1.940003
-6.0595956 8.7003727 -1.9374373
-6.0216904 8.7600727 -1.9425687
-5.9744492 8.8066187 -1.9447678
-5.9137373 8.8333092 -1.9425687
-5.8648448 8.8776302 -1.9444014
-5.8124099 8.9167433 -1.9451344
-5.7379117 8.921648 -1.9383537
-5.6957026 8.9766083 -1.942752
-5.6488619 9.0247202 -1.9456842
-5.601645 9.0725946 -1.9486165
-5.537178 9.0925217 -1.945501
-5.4893823 9.1398096 -1.9484332
-5.4367051 9.1792402 -1.9497161
-5.354002 9.1674356 -1.940003
-5.3364077 9.267415 -1.9544809
-5.227025 9.2076559 -1.9346883
-5.2011561 9.2944574 -1.9464172
-5.1729927 9.3787041 -1.9575964
-5.14399 9.4629536 -1.9687756
-5.0723672 9.4692078 -1.9634609
-5.0302315 9.5305815 -1.9698752
-4.9585047 9.5359735 -1.9645605
-4.8954182 9.5574694 -1.9627279
-4.829597 9.5732851 -1.9597956
-4.7764521 9.6141834 -1.9621781
-4.717371 9.6433105 -1.9621781
-4.6436076 9.6419601 -1.955947
-4.6087847 9.7217922 -1.9665765
-4.5677524 9.7899761 -1.9748234
-4.5055451 9.8133526 -1.973907
-4.4557695 9.8641062 -1.9786719
-4.3855791 9.8697004 -1.9742736
-4.3343863 9.9180431 -1.9786719
-4.2703433 9.9372253 -1.9772058
-4.2119675 9.9695797 -1.9784887
-4.1499619 9.9934206 -1.9781221
-4.0904226 10.023247 -1.9790385
-4.0292101 10.049069 -1.9792217
-3.9782827 10.101043 -1.9847196
-3.9087813 10.106009 -1.9808711
-3.8515847 10.142669 -1.9834368
-3.8016398 10.199272 -1.9900343
-3.7477674 10.24641 -1.9947993
-3.6874826 10.276615 -1.9962654
-3.6184824 10.282356 -1.9929667
-3.5697532 10.346184 -2.0012136
-3.5046282 10.363236 -2.0002973
-3.4388099 10.378013 -1.9990144
-3.3644438 10.366192 -1.9926001
-3.3076234 10.408189 -1.9968152
-3.2530422 10.458326 -2.0026796
-3.1933899 10.493136 -2.0056119
-3.1306279 10.518187 -2.0067115
-3.071799 10.55702 -2.01056
-3.001318 10.555812 -2.0067115
-2.9317567 10.556979 -2.0034127
-2.8656387 10.570025 -2.0024965
-2.801734 10.591211 -2.0032294
-2.742835 10.632001 -2.0078111
-2.6782658 10.65149 -2.0083609
-2.6100523 10.656265 -2.0061617
-2.5546515 10.714154 -2.0142252
-2.4968607 10.764103 -2.020823
-2.4268732 10.761959 -2.0175242
-2.3494315 10.724792 -2.0076277
-2.2866488 10.753429 -2.0103767
-2.2230072 10.778811 -2.0125759
-2.1475787 10.745976 -2.0037792
-2.0804815 10.75316 -2.0026796
-2.0146432 10.76669 -2.0028629
-1.9574627 10.828185 -2.0122094
-1.8884506 10.825465 -2.0094604
-1.8180786 10.813582 -2.0050621
-1.7549921 10.844913 -2.0089107
-1.6906828 10.870049 -2.0116596
-1.6287438 10.912303 -2.0177073
-1.5613389 10.919172 -2.0171576
-1.4863178 10.870107 -2.0061617
-1.4272263 10.93751 -2.0171576
-1.3604519 10.948988 -2.0177073
-1.2814876 10.857549 -1.9990144
-1.2218362 10.927733 -2.0107434
-1.1606486 10.990749 -2.0211895
-1.088325 10.948751 -2.0120261
-1.0243187 10.989482 -2.0184405
-0.95533448 10.977932 -2.0151417
-0.89144427 11.026701 -2.0232053
-0.82113236 10.996672 -2.0166078
-0.75559205 11.029945 -2.0219226
-0.68789935 11.034373 -2.0219226
-0.61990482 11.033479 -2.0210061
-0.55042332 11.001729 -2.0144086
-0.48316643 11.010792 -2.0155082
-0.4156706 11.015514 -2.0158746
-0.34903625 11.048317 -2.0215559
-0.27991095 10.998165 -2.011843
-0.21371536 11.066511 -2.0243049
-0.14578253 11.065648 -2.0239384
-0.077569306 11.022098 -2.0156915
-0.0099476669 11.03318 -2.0177073
0.057842817 11.050729 -2.0210061
0.12567 11.052132 -2.0213728
0.19284685 11.014785 -2.0145919
0.26124078 11.047791 -2.0210061
0.32814685 11.016501 -2.0155082
0.39556032 11.009369 -2.0145919
0.46153611 10.969411 -2.0076277
0.52878714 10.96539 -2.0074446
0.59648627 10.969792 -2.0089107
0.66342825 10.960038 -2.0078111
0.73053455 10.953799 -2.0074446
0.79901719 10.96676 -2.0107434
0.86466724 10.94107 -2.0068948
0.92828023 10.894419 -1.9991976
1.0002074 10.94432 -2.0096438
1.0718273 10.983963 -2.0182571
1.1408265 10.992825 -2.0211895
1.2058921 10.96412 -2.0171576
1.2714425 10.941867 -2.0144086
1.3309135 10.871409 -2.0026796
1.4028614 10.903989 -2.0103767
1.4680325 10.882511 -2.0079944
1.5279106 10.824628 -1.998831
1.6060537 10.894798 -2.0138588
1.6677966 10.851703 -2.0076277
1.739163 10.871357 -2.013309
1.8069642 10.86727 -2.0145919
1.8690971 10.829822 -2.0096438
1.9280692 10.776538 -2.0017633
1.9936194 10.761604 -2.0012136
2.0644228 10.774273 -2.0059783
2.1325934 10.772011 -2.0079944
2.1890061 10.711528 -1.9990144
2.2522571 10.686351 -1.9968152
2.3144474 10.65696 -1.9938829
2.3980255 10.724105 -2.0094604
2.4565098 10.677573 -2.0034127
2.5224323 10.664213 -2.0037792
2.5854981 10.638982 -2.0019467
2.667625 10.690639 -2.0149584
2.7068388 10.571217 -1.9951658
2.7781429 10.57913 -1.9999306
2.8432584 10.562834 -2.000114
2.916379 10.575516 -2.0059783
2.9582422 10.476059 -1.9902176
3.0290163 10.480376 -1.994616
3.1019056 10.490818 -2.0002973
3.1426053 10.393485 -1.9850862
3.2103829 10.387156 -1.9876519
3.2672486 10.3457 -1.9834368
3.3382111 10.348848 -1.9880184
3.3951902 10.308562 -1.9841698
3.4615107 10.296854 -1.9860026
3.532599 10.298668 -1.9905841
3.5863097 10.249889 -1.9852694
3.6491344 10.227691 -1.9852694
3.7037578 10.182935 -1.9808711
3.7596781 10.142504 -1.9773891
3.8242717 10.125681 -1.9786719
3.8803296 10.086428 -1.9755564
3.9435799 10.06609 -1.9762895
3.9990792 10.026179 -1.973174
4.0642209 10.010562 -1.9750066
4.11656 9.9636297 -1.9706082
4.1661906 9.9109955 -1.9651103
4.2377462 9.9105549 -1.9702418
4.3023963 9.8933811 -1.9720744
4.3642125 9.8694935 -1.9726242
4.4174337 9.8263903 -1.9693254
4.4604855 9.7615452 -1.9616283
4.5343738 9.764308 -1.9678593
4.5849729 9.7167425 -1.9638275
4.6343088 9.6671515 -1.9594291
4.6935382 9.6385336 -1.9594291
4.7748151 9.6544943 -1.9687756
4.8167586 9.5907526 -1.9616283
4.8701568 9.5505075 -1.9594291
4.9151082 9.4942541 -1.9539311
4.9869895 9.4900246 -1.9594291
5.0270839 9.4254169 -1.9522817
5.0749965 9.3762379 -1.9484332
5.1362181 9.3518152 -1.9498993
5.181541 9.2986555 -1.9453176
5.2346287 9.25984 -1.9438516
5.2918367 9.2283993 -1.9440348
5.3419366 9.1847086 -1.9416524
5.4016886 9.1576853 -1.9429352
5.4603 9.1285868 -1.9438516
5.4596248 9.0016088 -1.9235091
5.5405006 9.0098104 -1.9326724
5.5946393 8.9739771 -1.9323058
5.6348929 8.9162111 -1.9271744
5.7064638 8.907958 -1.9330389
5.7669029 8.8818455 -1.9350548
5.8218327 8.8471146 -1.9352381
5.8710995 8.8038645 -1.9335887
5.9189539 8.7587147 -1.9315728
5.9598112 8.7035751 -1.9273577
5.9951715 8.640996 -1.9214932
6.0395994 8.5919838 -1.9187442
6.0939159 8.5571661 -1.919294
6.1428561 8.5148296 -1.9181944
6.1967263 8.4793587 -1.9187442
6.2585812 8.4546089 -1.9218597
6.2849822 8.382226 -1.9139793
6.3285675 8.3333263 -1.9115969
6.3645978 8.2748575 -1.9070153
6.4249172 8.2480583 -1.9099475
6.4680991 8.1992178 -1.9077483
6.523809 8.1662893 -1.9093977
6.5645199 8.1146412 -1.9066488
6.600482 8.057478 -1.9026169
6.6416388 8.0069904 -1.9002345
6.6887474 7.9638286 -1.8996847
6.7381234 7.9233866 -1.8998679
6.7725024 7.8655033 -1.8958361
6.8206367 7.8237996 -1.8958361
6.855504 7.7670608 -1.8921708
6.907618 7.7299814 -1.8934537
6.9390903 7.6699548 -1.8890553
6.9827018 7.6236081 -1.888139
7.031353 7.5827823 -1.8886888
7.0609274 7.5215769 -1.8841071
7.1143951 7.485949 -1.8861231
7.172462 7.4549074 -1.8894218
7.2036657 7.395968 -1.8855733
7.2620249 7.3649287 -1.8890553
7.2966614 7.3097944 -1.8863063
7.3176188 7.241374 -1.8800753
7.355587 7.1901526 -1.878426
7.3783512 7.1243978 -1.872928
7.4141021 7.071527 -1.8709121
7.4594989 7.0279245 -1.8714619
7.4823318 6.9632688 -1.8663304
7.5017581 6.8959365 -1.860466
7.565763 6.8696027 -1.8659639
7.5909395 6.8079538 -1.8617488
7.6141739 6.7449512 -1.8571671
7.6561565 6.6987519 -1.8573505
7.6993465 6.6535773 -1.8579003
7.7370362 6.6036568 -1.8571671
7.7706451 6.5503559 -1.8555177
7.8084249 6.5006661 -1.854968
7.8284225 6.4363985 -1.8502032
7.8608999 6.3826661 -1.8485537
7.9221563 6.3521471 -1.8538684
7.9656072 6.3070798 -1.854968
8.0320358 6.2798843 -1.8615656
8.0097237 6.1836219 -1.8472708
8.0873871 6.1647544 -1.8566173
8.1085663 6.1026001 -1.8527688
8.1632175 6.0656319 -1.8568007
8.1979046 6.0136847 -1.8562509
8.2250948 5.9563503 -1.8540517
8.2942762 5.9292111 -1.8615656
8.3264847 5.8753724 -1.8606492
8.3680248 5.8281045 -1.861932
8.3866158 5.7649546 -1.8580835
8.4324064 5.720562 -1.860466
8.4599972 5.6637917 -1.8588165
8.5085335 5.6209879 -1.861932
8.5428629 5.5686746 -1.861932
8.5446262 5.4954114 -1.8547847
8.5690536 5.4370856 -1.8527688
8.6430836 5.4099631 -1.8617488
8.6627331 5.3485646 -1.8588165
8.6903505 5.2922425 -1.8577169
8.7529974 5.2570424 -1.8643146
8.7546396 5.1851997 -1.8577169
8.7998724 5.139318 -1.8606492
8.8218708 5.0798297 -1.8586333
8.8699713 5.0353112 -1.8622986
8.8938379 4.9769502 -1.8608325
8.9457283 4.9341555 -1.8654141
8.9335146 4.8561659 -1.8564341
8.9952059 4.8184357 -1.863215
9.0593767 4.7815075 -1.8705455
9.0510416 4.706327 -1.8626652
9.0666246 4.6439795 -1.8599161
9.0852938 4.5833893 -1.8579003
9.1572657 4.549428 -1.8670635
9.1567497 4.4793296 -1.861199
9.2194901 4.4401245 -1.8685296
9.2501135 4.3851557 -1.8692627
9.2919903 4.335382 -1.8723782
9.2710676 4.2565446 -1.8626652
9.3176165 4.2088871 -1.8668802
9.356741 4.1576242 -1.8696291
9.3397388 4.0816302 -1.8610158
9.3790579 4.0304565 -1.863948
9.4099512 3.9755099 -1.8652308
9.4432459 3.9214673 -1.8670635
9.4844236 3.8705089 -1.8705455
9.5152931 3.8151677 -1.8720117
9.5870008 3.775806 -1.8817247
9.5586443 3.6970491 -1.8714619
9.5590925 3.6299522 -1.8670635
9.5563145 3.561959 -1.8621154
9.6213827 3.5191286 -1.8707287
9.6687021 3.4693241 -1.8758602
9.6508608 3.3962252 -1.8681631
9.6501446 3.3295693 -1.863948
9.6759796 3.2721841 -1.8650476
9.6837444 3.2087319 -1.8626652
9.7696381 3.1708024 -1.875677
9.7982788 3.113775 -1.8775096
9.8181391 3.0538874 -1.8776928
9.8084784 2.9849994 -1.8721949
9.9019852 2.9471974 -1.8868561
9.9019489 2.8811655 -1.8833741
9.874999 2.8077161 -1.8747606
9.8759384 2.742599 -1.8716451
9.8992224 2.6837506 -1.872928
9.9392614 2.6292458 -1.8775096
9.9437847 2.5652628 -1.8753104
9.9641047 2.5053995 -1.8762268
9.9945669 2.4479561 -1.879159
10.049562 2.3961623 -1.8868561
10.043008 2.3295665 -1.8828243
10.037933 2.2635741 -1.879159
10.051633 2.2019398 -1.879159
10.076493 2.1426768 -1.8813581
10.118335 2.0867662 -1.8868561
10.155048 2.0294595 -1.8914378
10.172135 1.9680448 -1.892354
10.146335 1.8985397 -1.8852067
10.192618 1.8425441 -1.8918042
10.215353 1.7819964 -1.8940035
10.264873 1.7258039 -1.901334
10.271387 1.662159 -1.900601
6.0704665 0.94399548 -1.1061468
0 0 -0
0 0 -0
0 0 -0
0 0 -0
0 0 -0
0 0 -0
0 0 -0
0 0 -0
0 0 -0
0 0 -0
0 0 -0
0 0 -0
0 0 -0
0 0 -0
0 0 -0
0 0 -0
0 0 -0
0 0 -0
0 0 -0
0 0 -0
0 0 -0
0 0 -0
0 0 -0
0 0 -0
0 0 -0
0 -0 -0
0 -0 -0
0 -0 -0
0 -0 -0
0 -0 -0
0 -0 -0
0 -0 -0
0 -0 -0
0 -0 -0
0 -0 -0
5.9561806 -0.39741579 -1.0737089
5.9418645 -0.43309796 -1.0715097
5.9596753 -0.47117406 -1.0753583
0 -0 -0
0 -0 -0
6.0762091 -0.59310406 -1.0989995
6.1692591 -0.64041847 -1.1171428
9.2960815 -1.0224941 -1.7043241
9.1304636 -1.061025 -1.6744518
9.0018091 -1.1021007 -1.6515437
9.1577072 -1.1782571 -1.6821491
9.2068119 -1.242046 -1.6927783
9.2223797 -1.3018112 -1.6971767
9.2385321 -1.3619576 -1.7017584
9.2144547 -1.4162297 -1.6988262
9.1522017 -1.4642028 -1.6887466
9.1236496 -1.5171078 -1.6850812
9.1064196 -1.5717237 -1.6836151
9.0578957 -1.620646 -1.6762846
9.0100832 -1.6692115 -1.6691372
8.941741 -1.7133672 -1.6581413
8.9435959 -1.7706819 -1.6605238
8.960495 -1.8312325 -1.6658385
8.4152136 -1.7736794 -1.5641263
8.82687 -1.9170647 -1.644763
8.9022446 -1.9907079 -1.66144
8.8754911 -2.0419879 -1.658691
8.8656654 -2.0970874 -1.6592408
8.8478546 -2.150286 -1.6583246
8.804925 -2.1971579 -1.6526433
7.3589468 -1.8844396 -1.3770126
8.832448 -2.3195224 -1.6632727
8.7943172 -2.3672864 -1.658691
8.7549858 -2.4144089 -1.6539261
8.7277079 -2.4646106 -1.6515437
8.701088 -2.5148413 -1.6493446
8.6770086 -2.5656745 -1.6476952
7.9798183 -2.4128997 -1.5150113
7.9207187 -2.4481757 -1.5063978
7.894299 -2.4931779 -1.5041987
7.8741741 -2.5400608 -1.5032823
7.9051275 -2.6037025 -1.5124456
8.596262 -2.8898902 -1.6515437
8.5951061 -2.9483221 -1.6548425
8.5879889 -3.0049007 -1.6570417
8.5490198 -3.050272 -1.6530099
8.5255232 -3.1009905 -1.6520935
8.5127878 -3.1556354 -1.6533763
8.4233704 -3.1814144 -1.6394483
7.5861783 -2.9185705 -1.4761591
8.4175625 -3.2978094 -1.646229
8.3926039 -3.3475757 -1.6453128
8.354599 -3.391983 -1.6418307
8.338172 -3.4450588 -1.642747
8.3087196 -3.4927278 -1.6410977
8.2762852 -3.5390058 -1.6388985
8.2354832 -3.5814891 -1.6350499
8.1854801 -3.6196301 -1.6293687
8.1577368 -3.6673689 -1.6282691
8.1198797 -3.7104096 -1.6251535
8.0693197 -3.747328 -1.6194724
8.031949 -3.7900581 -1.6165401
7.922554 -3.7980521 -1.5987633
7.9424095 -3.8676798 -1.6077434
7.9749255 -3.9442303 -1.6194724
8.0542383 -4.0451479 -1.6410977
8.0520363 -4.106102 -1.6458626
8.012722 -4.1482 -1.6429303
8.0158358 -4.2123771 -1.648978
7.897892 -4.2124467 -1.6295519
7.945384 -4.3006005 -1.6451294
7.8921347 -4.3346019 -1.6394483
7.8439207 -4.3709831 -1.6348666
7.7638931 -4.3890381 -1.6235042
7.7828689 -4.4629993 -1.6334006
7.7187963 -4.489419 -1.6255201
7.6868706 -4.5341988 -1.6246037
7.6622791 -4.5832977 -1.6253369
7.5818973 -4.5986204 -1.6139745
7.5987587 -4.6728611 -1.6238707
7.5782862 -4.7245989 -1.6257033
7.5225606 -4.7542043 -1.6198388
7.4973869 -4.8029237 -1.6207552
7.426549 -4.8220706 -1.6115919
7.4239221 -4.8853803 -1.6176397
7.3807197 -4.9221144 -1.6147075
7.3430486 -4.9623551 -1.6130581
7.3011055 -4.9995427 -1.6104923
7.2630219 -5.0392041 -1.608843
7.2158799 -5.0723681 -1.6051776
7.1902261 -5.1205401 -1.6064606
7.1674418 -5.1708884 -1.6084764
7.1125607 -5.1979494 -1.6031618
7.0615692 -5.2274566 -1.5987633
7.0096974 -5.2559443 -1.5941818
7.0250735 -5.3351221 -1.605361
6.9883094 -5.3751302 -1.6044446
6.9769125 -5.4348226 -1.609576
6.9025259 -5.445262 -1.5998629
6.8574634 -5.4783092 -1.597114
6.8382421 -5.5320296 -1.6005961
6.7653837 -5.5421143 -1.5912496
6.7418437 -5.5923076 -1.5938152
6.7051449 -5.6316729 -1.5932654
6.6479959 -5.653604 -1.5877675
6.6131811 -5.6942892 -1.5877675
6.5699654 -5.727654 -1.5857515
6.5192194 -5.7541981 -1.581903
6.5109124 -5.8183265 -1.5886838
6.4736314 -5.8568482 -1.5883173
6.4375725 -5.8964596 -1.5883173
6.3976669 -5.9325066 -1.5874009
6.3582783 -5.9689589 -1.5866679
6.3172584 -6.0037971 -1.5855683
6.2824259 -6.0444908 -1.5861181
6.2262044 -6.0644064 -1.58117
6.1762762 -6.0900717 -1.5778712
6.164536 -6.1535497 -1.5846519
6.1308117 -6.1954513 -1.5857515
6.0919943 -6.2322497 -1.5855683
6.0119834 -6.2263746 -1.5743891
5.9743447 -6.2638578 -1.5745724
5.9479327 -6.3132768 -1.5778712
5.8186669 -6.2525053 -1.5531304
2.2340302 -2.4306962 -0.5763275
2.2190735 -2.4443583 -0.5763275
2.2040336 -2.4579284 -0.5763275
5.7221403 -6.4596448 -1.5696243
5.6785126 -6.4901948 -1.5685247
5.6347256 -6.5204525 -1.567425
5.5946112 -6.5549035 -1.567425
5.5447812 -6.5778341 -1.564676
5.5005417 -6.6071992 -1.5635765
5.4617701 -6.6431036 -1.5641263
5.3985972 -6.6490178 -1.5575287
5.3989029 -6.7334027 -1.5698075
5.3739634 -6.7872119 -1.5747557
2.0150766 -2.5777476 -0.57082951
1.9944158 -2.5838385 -0.56936342
1.9707762 -2.5858638 -0.56698096
1.9460049 -2.5861261 -0.56423199
1.920132 -2.5846038 -0.56111646
1.8082899 -2.4655519 -0.53087771
1.7902443 -2.4726198 -0.52996141
1.7710369 -2.4779601 -0.52867854
4.9010267 -6.9457726 -1.5456165
4.8482022 -6.961194 -1.5423177
4.8026133 -6.9867606 -1.5414014
4.7475104 -6.9982004 -1.5373696
4.7219825 -7.0533385 -1.5432341
4.6347208 -7.0157418 -1.5283896
4.6527882 -7.1379299 -1.5492818
4.6280479 -7.1961093 -1.5558794
4.5759053 -7.2119203 -1.5531304
4.5080953 -7.2023649 -1.5448835
4.4777627 -7.2524748 -1.5498316
4.4178376 -7.2546248 -1.5443337
1.7329724 -2.8859305 -0.58842295
1.7087189 -2.8855138 -0.5860405
1.6840403 -2.8840597 -0.58347481
4.2232614 -7.3344502 -1.5386524
4.2165213 -7.4277625 -1.5531304
4.1761475 -7.4629312 -1.5551463
4.1207805 -7.471199 -1.551481
4.0743909 -7.4954796 -1.5512978
4.016253 -7.497808 -1.5465329
3.9683361 -7.5188327 -1.5457997
3.9293835 -7.5569954 -1.548732
3.8815961 -7.5783386 -1.5481822
3.831038 -7.5941138 -1.5465329
3.7773705 -7.6033912 -1.5436006
3.7375579 -7.6405544 -1.5465329
3.6906061 -7.6633439 -1.5465329
3.6283538 -7.6538668 -1.5399354
3.5850635 -7.6840034 -1.5415847
3.5370274 -7.7040696 -1.5412182
3.4868565 -7.7193561 -1.5399354
3.4318407 -7.723537 -1.5364532
3.3898971 -7.7570601 -1.539019
3.3321445 -7.754231 -1.5342541
3.2952161 -7.7998862 -1.5393856
3.2389996 -7.7999849 -1.5353537
3.1970224 -7.8342752 -1.538286
3.1445014 -7.8427949 -1.5360868
3.0963197 -7.8619418 -1.5360868
3.0458934 -7.8752913 -1.5349871
2.9818082 -7.8524766 -1.5267402
2.9400942 -7.8881264 -1.5302223
2.8923137 -7.9078641 -1.5305887
2.8517067 -7.947669 -1.5349871
2.8103936 -7.9863453 -1.5392022
2.7626202 -8.0071564 -1.5399354
2.7024133 -7.9913635 -1.5335211
2.6496174 -7.9965968 -1.5313219
2.6074822 -8.0342102 -1.5355369
2.5670693 -8.0781641 -1.5410349
2.5139501 -8.0824995 -1.5388358
2.454577 -8.0657969 -1.5326047
2.4134541 -8.1089716 -1.5381026
2.353215 -8.087759 -1.5311385
2.3083851 -8.1190662 -1.5344373
2.2537885 -8.1160278 -1.5311385
2.2096069 -8.1505775 -1.5351704
2.1595542 -8.1639824 -1.5351704
2.1074555 -8.1694641 -1.5337043
2.0604057 -8.1946354 -1.5360868
1.99956 -8.164156 -1.5278398
1.9441831 -8.1542778 -1.5236247
1.8974453 -8.180418 -1.5263737
1.8457015 -8.185194 -1.5250908
1.7935497 -8.1877222 -1.5234414
1.7442995 -8.2033806 -1.5243578
1.6931373 -8.2100782 -1.5236247
1.6377194 -8.1952486 -1.5188599
1.5868431 -8.2022476 -1.5183101
1.5373894 -8.2166615 -1.5192263
1.4888681 -8.2365808 -1.5212423
1.4438775 -8.2775202 -1.52729
1.3837677 -8.2309647 -1.5168439
1.3256977 -8.1927195 -1.5080472
1.2459346 -8.011281 -1.4723105
1.1758522 -7.8787656 -1.4459203
1.1035464 -7.7184486 -1.4143987
1.0589635 -7.7455287 -1.4182473
1.0145988 -7.7762504 -1.4228289
0.96868438 -7.7969627 -1.4255779
0.91356319 -7.7412539 -1.4140322
0.86637437 -7.7496448 -1.414582
0.81756788 -7.743083 -1.4123828
0.7693609 -7.741106 -1.4110999
0.72212166 -7.7486176 -1.4116497
0.67371082 -7.7431092 -1.4098171
0.62460226 -7.7275 -1.4061518
0.57380652 -7.6860914 -1.3977216
0.5249542 -7.6649485 -1.39314
0.4786475 -7.6797996 -1.3953391
0.42792934 -7.6187935 -1.3834269
0.38082916 -7.6144028 -1.3821441
0.33315197 -7.5949898 -1.3781122
0.28691477 -7.6067142 -1.3799449
0.24191362 -7.6613908 -1.3898412
0.19918278 -7.83078 -1.4211795
0.1511683 -7.8338203 -1.4215461
0.10566923 -8.0292301 -1.4578326
0.057416119 -8.1732512 -1.4845892
0.0074244565 -8.3435192 -1.5162941
-0.043928958 -8.3738823 -1.5219753
-0.094919354 -8.3390503 -1.5155611
-0.14620523 -8.345191 -1.5168439
-0.19722198 -8.3362751 -1.5153778
-0.24839792 -8.3358908 -1.5155611
-0.29957658 -8.3351917 -1.5157443
-0.35021922 -8.3214102 -1.5135452
-0.40070406 -8.3073215 -1.511346
-0.45214933 -8.3135414 -1.5129954
-0.50617921 -8.3606548 -1.5223418
-0.55668509 -8.3456211 -1.5201427
-0.60531205 -8.3067513 -1.5135452
-0.65681183 -8.309741 -1.514828
-0.70912188 -8.3212271 -1.5177603
-0.75793076 -8.292244 -1.5131786
-0.81146902 -8.3148336 -1.5183101
-0.86297983 -8.3145866 -1.5192263
-0.91580737 -8.3257475 -1.5223418
-0.96335959 -8.2896996 -1.5166607
-1.0149226 -8.2894878 -1.5177603
-1.068902 -8.3074799 -1.5223418
-1.1205126 -8.3056355 -1.5232582
-1.1720034 -8.3024979 -1.5239912
-1.2229245 -8.2951508 -1.5239912
-1.2818617 -8.3399601 -1.5338875
-1.3347183 -8.3426161 -1.5359035
-1.3783057 -8.2886906 -1.52729
-1.4286367 -8.2771711 -1.5267402
-1.4861484 -8.3059902 -1.5338875
-1.5349367 -8.2851152 -1.5316883
-1.5789007 -8.2398176 -1.5249076
-1.6275207 -8.2203302 -1.5230749
-0.61444801 -3.0052495 -0.53271037
-0.63307905 -3.0023847 -0.53289366
-0.65128082 -2.997483 -0.53271037
-0.66815931 -2.9867146 -0.5314275
-0.68537098 -2.9777684 -0.5305112
-0.70634431 -2.984987 -0.53271037
-0.7181474 -2.9538493 -0.52757895
-0.7350685 -2.9446182 -0.52666265
-2.1053391 -8.2217741 -1.5430508
-2.1532507 -8.199193 -1.5412182
-0.7858234 -2.9182484 -0.52428019
-0.79953378 -2.8982086 -0.52134794
-0.81623334 -2.8894639 -0.52061486
-0.8200286 -2.8362358 -0.51126838
-1.040593 -3.5183997 -0.64486861
-2.4871504 -8.22542 -1.5628434
-2.5007117 -8.0907211 -1.5395688
-2.5535643 -8.085536 -1.5415847
-1.0469613 -3.244803 -0.59648663
-1.0659288 -3.2355165 -0.59593683
-2.740799 -8.1527109 -1.5643096
-1.1090615 -3.2324212 -0.59795278
-1.1266021 -3.2190599 -0.59666991
-2.8454764 -7.974957 -1.5393856
-2.9057798 -7.9887586 -1.5456165
-1.1528648 -3.1092861 -0.57907647
-1.160113 -3.0708849 -0.57284546
-1.1884631 -3.0884819 -0.5777936
-1.2543631 -3.201041 -0.60180134
-1.2725239 -3.1896317 -0.60106826
-3.2070992 -7.8991632 -1.5501982
-3.2615128 -7.8938737 -1.5531304
-3.3102682 -7.874619 -1.5533136
-3.3685718 -7.8776612 -1.5580785
-3.4144928 -7.8514342 -1.5569789
-1.3016055 -2.9428303 -0.56074995
-1.3075465 -2.9078891 -0.55525202
-1.3302668 -2.9105413 -0.55745119
-3.5928998 -7.7367415 -1.5511144
-3.6549857 -7.7456679 -1.5575287
-3.6986189 -7.7151175 -1.5558794
-3.7394331 -7.6790199 -1.5531304
-3.7851729 -7.6532869 -1.5525806
-3.8400025 -7.6457305 -1.5558794
-3.8922021 -7.6325345 -1.5580785
-3.9615571 -7.6521602 -1.5672418
-3.9938028 -7.5998607 -1.5613773
-4.0375838 -7.5700078 -1.5602777
-4.0895715 -7.5554657 -1.5624769
-4.1438985 -7.544879 -1.5655924
-4.1963353 -7.5304742 -1.5679748
-4.2390761 -7.4985938 -1.566692
-4.2742491 -7.45368 -1.5626602
-4.3268228 -7.4392104 -1.5652258
-4.3559065 -7.3845787 -1.5591781
-4.3880157 -7.3357768 -1.5544132
-4.4334545 -7.3095551 -1.5545965
-4.4704976 -7.2696528 -1.5518476
-4.5249004 -7.257936 -1.5553296
-4.5882545 -7.2599525 -1.5619271
-4.6571059 -7.2697415 -1.5703573
-4.7187548 -7.2674146 -1.5762218
-4.7567735 -7.2284689 -1.5740227
-4.8255796 -7.2359514 -1.5822695
-4.88695 -7.2314568 -1.5879507
-4.8862429 -7.135632 -1.5731063
-4.9282532 -7.1030931 -1.5725565
-4.9836159 -7.0896101 -1.576405
-5.0378571 -7.0741124 -1.5798872
-5.084619 -7.0478511 -1.5809867
-5.1231279 -7.01017 -1.5795206
-5.1660452 -6.9786034 -1.5795206
-5.2140751 -6.9538527 -1.58117
-5.280426 -6.9530454 -1.5885005
-5.2936234 -6.8823309 -1.5795206
-5.3532715 -6.8722115 -1.5848353
-5.4111671 -6.859303 -1.5896001
-5.4414959 -6.811378 -1.5861181
-5.4627848 -6.7526388 -1.5800704
-5.5695233 -6.7988458 -1.5993131
-3.4384177 -4.1449642 -0.96484947
-5.7125974 -6.8015032 -1.6167234
-3.5909164 -4.2222829 -0.99417186
-3.6161149 -4.1994247 -0.99398863
-3.5778627 -4.1037951 -0.97584534
-3.731776 -4.2277021 -1.0121318
-3.7183454 -4.1607418 -1.0011359
-3.8644941 -4.2712588 -1.0346735
-3.6987443 -4.0379529 -0.98170984
-3.9306543 -4.2386522 -1.038522
-3.9007452 -4.1549635 -1.023311
-3.92278 -4.1273875 -1.0223947
-3.9964218 -4.1535401 -1.0354065
-4.0170312 -4.1240106 -1.0341237
-4.0250049 -4.0817842 -1.0295421
-4.0777535 -4.0848417 -1.0368726
-4.1761079 -4.1323524 -1.0561155
-3.4843614 -3.4056983 -0.86918509
-3.4938781 -3.3733284 -0.86625284
-3.4127884 -3.2547972 -0.84004593
-3.4212472 -3.2230091 -0.83711368
-4.254127 -3.9587729 -1.0442033
-3.4938316 -3.2113872 -0.84554386
-3.5200207 -3.1958368 -0.8471933
-3.5527365 -3.1859932 -0.85049206
-3.3904667 -3.0031178 -0.80522555
-3.4103093 -2.9835525 -0.80559212
-3.7156515 -3.210695 -0.8763324
-3.7195802 -3.174433 -0.87248385
-3.7728107 -3.1800637 -0.88073081
-3.8557131 -3.209691 -0.89612508
-4.4076271 -3.6236498 -1.0245938
-4.4053578 -3.5767069 -1.0187294
-4.3927088 -3.521934 -1.0104824
-4.4165487 -3.4967453 -1.0110322
-4.421658 -3.4568639 -1.0071837
-4.4404511 -3.4278657 -1.0066339
-4.5059633 -3.4345264 -1.0170801
-4.5214543 -3.4026754 -1.0157971
-4.4751778 -3.3250284 -1.0002196
-4.5478096 -3.3358855 -1.0123152
-4.4790196 -3.243336 -0.9917894
-4.5988002 -3.2872581 -1.0146976
-4.4823384 -3.162621 -0.9835425
-4.503273 -3.1361821 -0.98390901
-4.6010113 -3.1625118 -1.0016857
-4.6178889 -3.1325653 -1.0011359
-4.5602369 -3.0527601 -0.98390901
-4.5690398 -3.0182188 -0.98170984
-4.6105323 -3.0051589 -0.98684126
-4.5462041 -2.9236329 -0.96851474
-4.6462326 -2.9478276 -0.98665798
-4.7775574 -2.9902027 -1.011582
-4.7598472 -2.9386227 -1.0037017
-4.6845927 -2.852602 -0.98335922
-4.7407732 -2.8470888 -0.9917894
-4.7843738 -2.8334775 -0.99747062
-4.8313799 -2.8214211 -1.0038849
-4.8511567 -2.793195 -1.0044347
-4.8853021 -2.7730832 -1.0081
-4.8936467 -2.7382545 -1.0062674
-4.8242774 -2.6606936 -0.98794085
-4.8059649 -2.6122608 -0.98061025
-4.8842945 -2.616147 -0.99380535
-4.8906918 -2.5810804 -0.9917894
-4.8828883 -2.5387771 -0.98684126
-4.8791251 -2.4989083 -0.98280942
-4.8987546 -2.4711375 -0.98372579
-5.0185905 -2.4930866 -1.0055343
-5.0152493 -2.4531736 -1.0016857
-5.0620918 -2.4377117 -1.0082833
-5.1169267 -2.4255571 -1.0165303
-5.1156783 -2.3866322 -1.0132314
-5.1454134 -2.3621716 -1.0163469
-5.1517477 -2.3269131 -1.0146976
-5.1587415 -2.2920649 -1.0132314
-5.1348753 -2.2438328 -1.0055343
-5.1964154 -2.2328565 -1.0152473
-5.231751 -2.2101128 -1.0196457
-5.2297797 -2.1715598 -1.0165303
-5.2348142 -2.1360862 -1.0148808
-5.2478223 -2.1039259 -1.0148808
-5.149044 -2.0277321 -0.99252248
-5.4116912 -2.0929222 -1.0425539
-5.5062242 -2.0907407 -1.0588645
-5.4148598 -2.0181136 -1.0381556
-5.3412805 -1.9534425 -1.0211118
-5.3707461 -1.9269412 -1.0245938
-5.3973055 -1.8991725 -1.0275261
-5.4423113 -1.8775637 -1.0341237
-5.5822411 -1.8876001 -1.0594143
-5.391223 -1.7862065 -1.0196457
-5.6891375 -1.8462715 -1.0759081
-5.7706251 -1.8336616 -1.089653
-5.7986641 -1.8034755 -1.0929518
-5.8387752 -1.7767353 -1.0986329
-5.8768911 -1.7490096 -1.1039476
-6.1140499 -1.778842 -1.1479313
-6.2553387 -1.7784003 -1.1732218
-6.2036176 -1.7226212 -1.1611264
-6.3639812 -1.7251724 -1.1900823
-6.4039083 -1.6938859 -1.1957635
-6.6569128 -1.7171896 -1.242496
-7.162127 -1.8007463 -1.3376106
-7.1348481 -1.7474103 -1.3302801
-7.6809349 -1.8313023 -1.4329085
-7.8529086 -1.8214631 -1.4636971
-8.0614862 -1.8178 -1.5014496
-8.3346453 -1.8257412 -1.551481
-9.0466661 -1.9236511 -1.6850812
-9.0188246 -1.8599629 -1.6775674
-9.2508221 -1.8487155 -1.7195351
-9.3440294 -1.8077945 -1.7351127
-9.5472374 -1.786415 -1.7715824
-10.038805 -1.8147328 -1.8626652
-10.405166 -1.8151156 -1.9299234
-10.437435 -1.7548231 -1.9339552
-10.524671 -1.7031564 -1.9484332
-10.421271 -1.620865 -1.9269912
-10.51561 -1.5695195 -1.9429352
-10.538667 -1.506916 -1.945501
-10.504858 -1.4363621 -1.9374373
-10.504701 -1.3707334 -1.9357879
-10.493402 -1.3038268 -1.9321226
-10.473869 -1.2361887 -1.9269912
-10.446086 -1.1679651 -1.9203936
-10.470654 -1.1057061 -1.9236923
-10.529087 -1.0465941 -1.9334054
-10.506926 -0.97932231 -1.9280908
-10.513716 -0.91491985 -1.928274
-10.560286 -0.85372025 -1.9359711
-10.537876 -0.78685683 -1.9308398
-10.526814 -0.72110724 -1.9279075
-10.561456 -0.65839964 -1.9335887
-10.550574 -0.59275568 -1.9308398
-10.575613 -0.52908885 -1.9348716
-10.554108 -0.46310985 -1.93029
-10.590151 -0.39960393 -1.9365209
-10.538362 -0.33290723 -1.9264414
-9.8404217 0.72319871 -1.9233451
-9.8621969 0.78567082 -1.9286125
-9.8171253 0.84272534 -1.9206138
-9.8742752 0.90870583 -1.9330995
-9.8431358 0.96678054 -1.9280272
-9.8136072 1.0247114 -1.9233451
-9.852952 1.0899812 -1.9325143
-9.8110094 1.1463156 -1.9254911
-9.7580395 1.2008574 -1.9163218
-9.7699413 1.2632266 -1.9202236
-9.7493715 1.321436 -1.9176874
-9.7109776 1.3769602 -1.9116396
-9.6664486 1.4312005 -1.9044213
-9.7708921 1.5080022 -1.9272468
-9.6743031 1.5539176 -1.9096887
-9.6810322 1.615996 -1.9130052
-9.6574049 1.6730218 -1.910274
-9.6324778 1.7296453 -1.9073477
-9.6592894 1.7957121 -1.9149562
-9.6471252 1.8547612 -1.9147611
-9.6721182 1.9211854 -1.9221745
-9.6005802 1.9682765 -1.9100789
-9.6075134 2.0312071 -1.9139807
-9.5440798 2.0790493 -1.9036409
-9.5359278 2.1386454 -1.9046164
-9.5168924 2.1957929 -1.9034458
-9.5003767 2.2534666 -1.9028605
-9.5187693 2.3196163 -1.9094937
-9.4663 2.3684521 -1.90169
-9.468688 2.4308836 -1.9052017
-9.4592848 2.4904356 -1.9063722
-9.4012156 2.536926 -1.8975931
-9.3958712 2.5974391 -1.8997391
-9.4193907 2.6662662 -1.9079329
-9.4056797 2.7248313 -1.9085182
-9.369977 2.7769163 -1.9046164
-9.3537006 2.8346417 -1.9048115
-9.3548679 2.8977878 -1.9087132
-9.3322363 2.9536533 -1.9077379
-9.2840748 3.0012019 -1.901495
-9.2822485 3.0636466 -1.9050065
-9.2651348 3.1211703 -1.9053967
-9.2458096 3.1779613 -1.9053967
-9.2168808 3.2313867 -1.9034458
-9.2255077 3.2981181 -1.9094937
-9.177454 3.3445845 -1.9036409
-9.1365328 3.3933187 -1.899349
-9.1568165 3.4649403 -1.908128
-9.0722408 3.4967141 -1.8946668
-9.0414848 3.5487301 -1.8927158
-9.0204506 3.6045048 -1.892911
-9.0435877 3.6782668 -1.9026655
-9.0145044 3.7310615 -1.9012998
-8.9598064 3.7729771 -1.8944716
-8.9995928 3.8549223 -1.908128
-8.9236212 3.8873453 -1.8968128
-8.899601 3.9420266 -1.8968128
-8.8823996 3.9997818 -1.8983735
-8.8773088 4.0631905 -1.9026655
-8.8557673 4.1192389 -1.9034458
-8.8001785 4.1592464 -1.8968128
-8.7612305 4.2067952 -1.8938864
-8.7414236 4.2634845 -1.895252
-8.7107048 4.3148632 -1.8942766
-8.6682949 4.3602948 -1.890765
-8.6588459 4.4223247 -1.8946668
-8.63416 4.4767256 -1.895252
-8.6143389 4.5337315 -1.8970078
-8.589819 4.5883517 -1.8977882
-8.5132208 4.6147909 -1.8868631
-8.5431776 4.69909 -1.9001293
-8.4687948 4.7260847 -1.8897895
-8.4387836 4.7774758 -1.8895944
-8.4084597 4.8286772 -1.8893993
-8.3803682 4.8811669 -1.8897895
-8.3418159 4.9275069 -1.8878386
-8.3080597 4.9765821 -1.8870583
-8.2639561 5.0193176 -1.8839368
-8.2572193 5.084847 -1.8895944
-8.1917562 5.1141171 -1.8815957
-8.1544209 5.1606126 -1.8802301
-8.1729565 5.2428594 -1.8921306
-8.105278 5.2699161 -1.8837417
-8.0891676 5.3303452 -1.8876435
-8.0383663 5.3678942 -1.8833516
-7.995532 5.4105182 -1.8810104
-7.971889 5.4661331 -1.8833516
-7.9309506 5.5099072 -1.8815957
-7.9282699 5.5804873 -1.8892043
-7.8587461 5.6039701 -1.8806202
-7.8186479 5.6480637 -1.8792546
-7.8170853 5.7202621 -1.8874484
-7.7849908 5.7704554 -1.8882288
-7.7361045 5.8081021 -1.8849123
-7.7034435 5.8578358 -1.8856926
-7.6557012 5.8960152 -1.8827662
-7.6216993 5.9446883 -1.8833516
-7.5835409 5.9901261 -1.8829614
-7.5412827 6.0322561 -1.8815957
-7.4858384 6.0635967 -1.8769135
-7.4628987 6.1212344 -1.8806202
-7.4500947 6.187593 -1.8870583
-7.4202442 6.2401342 -1.8892043
-7.3818159 6.2855463 -1.8892043
-7.3542509 6.3403296 -1.8921306
-7.3092985 6.3801746 -1.8905699
-7.2942624 6.4463396 -1.8970078
-7.231915 6.4706988 -1.8909601
-7.1746321 6.499146 -1.8862779
-7.1411238 6.5490136 -1.8880337
-7.1058359 6.5973792 -1.8893993
-7.0752258 6.6502609 -1.8921306
-7.0911217 6.747643 -1.9077379
-7.0291038 6.7712913 -1.9020802
-6.9972529 6.8238811 -1.9048115
-6.974093 6.885294 -1.9100789
-6.910212 6.9064608 -1.9040312
-6.8532281 6.9340801 -1.8999342
-6.8098674 6.9752984 -1.8997391
-6.7764697 7.0268369 -1.9024704
-6.746078 7.0817785 -1.906177
-6.7018261 7.122324 -1.905982
-6.6506543 7.1554079 -1.903836
-6.6092768 7.1989713 -1.9046164
-6.577497 7.2531953 -1.908323
-6.5256715 7.2853804 -1.906177
-6.4899435 7.3355689 -1.9089084
-6.4667506 7.4003654 -1.9155414
-6.4173765 7.4354501 -1.9143709
-6.3849921 7.4903622 -1.9184678
-6.3559647 7.5496588 -1.9237353
-6.3082671 7.5870075 -1.9233451
-6.2559943 7.6187491 -1.9215893
-6.2060409 7.6531825 -1.9206138
-6.1687722 7.7033682 -1.9237353
-6.1250386 7.7456903 -1.9249058
-6.0689473 7.7723036 -1.9221745
-6.0259333 7.8156099 -1.9237353
-5.984992 7.8618026 -1.9260763
-5.9472461 7.9124913 -1.929588
-5.8991685 7.9496217 -1.929783
-5.8549156 7.9919987 -1.9313438
-5.7959981 8.0142622 -1.9280272
-5.7495632 8.0536661 -1.9290026
-5.6915655 8.076766 -1.9260763
-5.6693373 8.1509943 -1.9356357
-5.6186619 8.1848183 -1.9354407
-5.5699849 8.2215757 -1.9360259
-5.5221586 8.259675 -1.9370013
-5.4756942 8.2999525 -1.938562
-5.4289436 8.3399706 -1.9401228
-5.3601809 8.34589 -1.9336848
-5.3151689 8.3885651 -1.9360259
-5.2516432 8.4018908 -1.9315388
-5.2267523 8.4773712 -1.9416835
-5.1720905 8.5050926 -1.940708
-5.1288853 8.5518084 -1.9442197
-5.0703254 8.5729866 -1.9418787
-5.0280008 8.6217299 -1.9459755
-4.9960222 8.688982 -1.9543644
-4.9329424 8.7024078 -1.9504626
-4.8684511 8.7128181 -1.9459755
-4.8177371 8.7476816 -1.9471461
-4.7695847 8.7874222 -1.9494871
-4.7322254 8.8476591 -1.9565104
-4.6760197 8.8730583 -1.9557301
-4.6210356 8.900712 -1.9555349
-4.5725856 8.941124 -1.9582663
-4.5352821 9.0040522 -1.9660698
-4.4786415 9.0290747 -1.9654845
-4.4184222 9.0466909 -1.9633386
-4.3539066 9.055068 -1.9592416
-4.3104286 9.1073227 -1.9648993
-4.2515678 9.1273756 -1.9635336
-4.1905804 9.1425915 -1.9611926
-4.1412563 9.1833324 -1.9645091
-4.0816498 9.2013969 -1.9629483
-4.0349159 9.248744 -1.9678257
-3.978864 9.2751303 -1.9682158
-3.9355948 9.3319044 -1.975239
-3.8760085 9.350441 -1.9740685
-3.8215215 9.3813143 -1.9756292
-3.7671657 9.4127817 -1.977385
-3.7215357 9.4667549 -1.9840181
-3.658082 9.475687 -1.9810917
-3.5991764 9.4961195 -1.9807016
-3.5411835 9.5189447 -1.9808967
-3.4790113 9.5303583 -1.9787507
-3.4204686 9.5515261 -1.9787507
-3.3601727 9.5677071 -1.9777752
-3.3010838 9.5872164 -1.9775802
-3.2494063 9.6286659 -1.9820672
-3.1924193 9.6549416 -1.9834329
-3.1367426 9.685545 -1.9857739
-3.0858481 9.7317228 -1.9914316
-3.0307269 9.7654619 -1.994553
-2.9701805 9.7819977 -1.9941628
-2.9059172 9.7859344 -1.9912364
-2.8439038 9.7969866 -1.9898708
-2.7853422 9.8199139 -1.9910414
-2.7255595 9.8387098 -1.9914316
-2.6638594 9.8505144 -1.9904561
-2.6011164 9.858139 -1.9887003
-2.5444877 9.8891115 -1.9918218
-2.4866228 9.9159546 -1.9941628
-2.4320135 9.9567509 -1.9994303
-2.3720081 9.9762573 -2.0004058
-2.3067739 9.973423 -1.9968941
-2.2481153 9.9988728 -1.9992352
-2.1860936 10.009604 -1.99865
-2.1301231 10.048736 -2.0039175
-2.0636878 10.038559 -1.9992352
-2.0026281 10.053919 -1.9998205
-1.9392304 10.057349 -1.9980646
-1.872632 10.043026 -1.9927973
-1.8167077 10.086181 -1.9992352
-1.7603241 10.129027 -2.0056732
-1.6856748 10.065153 -1.9906512
-1.6280951 10.101451 -1.9959186
-1.5711834 10.144205 -2.0025518
-1.5054528 10.130371 -1.9978695
-1.445061 10.15204 -2.0004058
-1.3769277 10.117955 -1.9918218
-1.3199925 10.166091 -1.9998205
-1.2555462 10.157452 -1.9965039
-1.198338 10.208799 -2.0052829
-1.1393561 10.249103 -2.0119162
-1.0685725 10.180792 -1.9968941
-1.0096468 10.223271 -2.0041125
-0.94274545 10.184349 -1.9951383
-0.88310385 10.223166 -2.0017715
-0.81722707 10.189285 -1.9939678
-0.7603308 10.270401 -2.0091848
-0.69709963 10.271937 -2.0085995
-0.63411933 10.277 -2.0087945
-0.56974614 10.257195 -2.0041125
-0.50588119 10.241885 -2.0004058
-0.44285962 10.240877 -1.9996253
-0.37820196 10.194396 -1.9898708
-0.31518966 10.18182 -1.9869444
-0.25321788 10.204152 -1.9910414
-0.19063801 10.207475 -1.9914316
-0.12801471 10.209434 -1.9916266
-0.065553434 10.23945 -1.9974793
-0.0027245665 10.242601 -1.9980646
0.060228534 10.260079 -2.0015762
0.12276606 10.225191 -1.9947481
0.18562967 10.23111 -1.9961138
0.24802037 10.21409 -1.9929923
0.31122702 10.230022 -1.9965039
0.37417114 10.232821 -1.9974793
0.43678364 10.226413 -1.996699
0.49937961 10.220601 -1.9961138
0.56235254 10.222241 -1.9970891
0.62452453 10.209787 -1.9953333
0.68656486 10.196957 -1.9935776
0.74760723 10.172011 -1.9894806
0.81125551 10.182875 -1.9926021
0.87229317 10.161094 -1.9892856
0.935794 10.168246 -1.9918218
0.99951136 10.175979 -1.994553
1.0567306 10.119905 -1.9846034
1.1197768 10.122004 -1.9863592
1.1785591 10.086692 -1.9807016
1.2442648 10.11042 -1.9869444
1.3074107 10.111349 -1.9887003
1.367846 10.091475 -1.9863592
1.4257439 10.054731 -1.9807016
1.4957501 10.102064 -1.9920168
1.5562098 10.083004 -1.9900659
1.6129121 10.041309 -1.9836279
1.6714237 10.012844 -1.9799212
1.7333324 10.005299 -1.9805065
1.79313 9.9857864 -1.9787507
1.8619016 10.015095 -1.9869444
1.9144242 9.9572515 -1.9775802
1.9827502 9.9818726 -1.9849936
2.0372593 9.9368525 -1.9783605
2.1002221 9.9337597 -1.9803114
2.1690719 9.9571009 -1.9877249
2.2221813 9.9081964 -1.9805065
2.2727869 9.8504143 -1.9715323
2.3408852 9.8687296 -1.9781654
2.4006975 9.8513212 -1.9775802
2.4539537 9.8078623 -1.9717275
2.5192115 9.8125696 -1.9758244
2.5831203 9.8111544 -1.9787507
2.6399484 9.7828102 -1.9762145
2.7014935 9.7720995 -1.977385
2.7504463 9.7166491 -1.9693863
2.8124721 9.7080669 -1.9711422
2.8736596 9.69627 -1.9723127
2.9345233 9.6831474 -1.9732882
2.9959152 9.6715174 -1.9746538
3.0720775 9.7062492 -1.9857739
3.11709 9.6424236 -1.9764096
3.1740437 9.6165962 -1.975044
3.2376885 9.6108809 -1.9779704
3.2835231 9.5528069 -1.9699717
3.3524635 9.5620966 -1.9762145
3.4077697 9.5321112 -1.9742637
3.4618261 9.4990435 -1.9717275
3.5138977 9.4610739 -1.9682158
3.5670223 9.4264936 -1.9654845
3.612093 9.3714848 -1.9584613
3.6659427 9.3400154 -1.9565104
3.7290077 9.3319178 -1.9596318
3.7791743 9.2916002 -1.9559251
3.8327386 9.2600813 -1.9541693
3.883774 9.2228317 -1.9512429
3.952266 9.2267742 -1.9572908
4.0021453 9.1870651 -1.9539742
4.0536728 9.1515751 -1.9516331
4.1077356 9.1220579 -1.9506577
4.1603637 9.0895481 -1.9490969
4.2210231 9.0745201 -1.9514381
4.2523098 8.9970217 -1.9401228
4.315927 8.9884424 -1.9440246
4.3735781 8.9670801 -1.9451952
4.4176307 8.9181051 -1.9403179
4.4784398 8.9030972 -1.9430492
4.5151353 8.8405142 -1.9352455
4.5765195 8.8265743 -1.938367
4.636075 8.8087406 -1.940708
4.6752467 8.7524471 -1.9344652
4.7143698 8.6968679 -1.9284174
4.7695351 8.6712141 -1.9291978
4.8269534 8.6494932 -1.9309536
4.8915343 8.6401958 -1.9356357
4.9341984 8.5921593 -1.9315388
4.9789262 8.5481625 -1.9284174
5.0252957 8.5073195 -1.9260763
5.0945406 8.5049295 -1.9327093
5.1359358 8.4559069 -1.9286125
5.1733208 8.4008522 -1.9231499
5.2159386 8.3548088 -1.9198334
5.2749734 8.3350773 -1.9227598
5.3270764 8.3042049 -1.9231499
5.3554716 8.2368298 -1.9149562
5.3918772 8.1825228 -1.9098839
5.4501543 8.1615191 -1.9128102
5.4968314 8.1230497 -1.9116396
5.5460153 8.0883608 -1.9114445
5.579309 8.0308218 -1.9057869
5.6279154 7.9956346 -1.9055918
5.6632013 7.9417882 -1.9009097
5.7175684 7.9148397 -1.9028605
5.7619705 7.8740683 -1.901495
5.7996621 7.8243837 -1.8979833
5.8434396 7.7831607 -1.8966177
5.9047427 7.7651138 -1.9011047
5.9516788 7.7279601 -1.9009097
6.0007944 7.6936154 -1.901495
6.0375524 7.643568 -1.8981783
6.0861769 7.6086755 -1.8987637
6.1327481 7.5711884 -1.8987637
6.1616702 7.5121851 -1.8933011
6.2076483 7.474236 -1.8933011
6.2521296 7.434505 -1.892911
6.2989011 7.3974962 -1.8933011
6.3428917 7.3572221 -1.892911
6.3950109 7.3262911 -1.895057
6.4184079 7.2626643 -1.8886189
6.4765854 7.238493 -1.8927158
6.5110002 7.1877146 -1.8897895
6.5450354 7.1367874 -1.8868631
6.5760221 7.0828385 -1.8831564
6.6153269 7.0380678 -1.8819859
6.6550059 6.9937925 -1.8810104
6.6923499 6.9471765 -1.8794497
6.7321115 6.9031734 -1.8786694
6.7729635 6.8603406 -1.8782792
6.8045292 6.808249 -1.8753529
6.8517566 6.771884 -1.8769135
6.900198 6.7365651 -1.8788644
6.8983331 6.6525741 -1.866964
6.9518065 6.6222968 -1.8704755
6.9901662 6.5775008 -1.8698903
7.0282383 6.5324831 -1.869305
7.0920329 6.5111217 -1.875743
7.1369371 6.4720945 -1.8771087
7.1494808 6.4039721 -1.8698903
7.1570506 6.3320422 -1.8615015
7.1795192 6.2738118 -1.8572094
7.2178793 6.229641 -1.8572094
7.2619395 6.1903248 -1.8587701
7.2870297 6.1349134 -1.8554536
7.3547049 6.1151638 -1.8632572
7.3678308 6.0500069 -1.8570143
7.4299555 6.0250673 -1.8634523
7.4629564 5.9762998 -1.8624768
7.4987168 5.9297872 -1.8622818
7.5527415 5.8975453 -1.8667688
7.5732498 5.8391161 -1.862867
7.5980091 5.7842216 -1.8601358
7.6043463 5.715692 -1.8529174
7.6723566 5.693469 -1.8611113
7.7229719 5.6578755 -1.865013
7.7631063 5.6144042 -1.8663787
7.7846365 5.557549 -1.8632572
7.8298154 5.5175867 -1.8659885
7.8723812 5.4755993 -1.8681345
7.896935 5.4210873 -1.8659885
7.9592834 5.3923311 -1.8730117
7.9702044 5.3286767 -1.8677443
7.9814634 5.2656322 -1.862672
8.0251312 5.2240491 -1.8654032
8.0512571 5.171 -1.8640376
8.1002331 5.1325231 -1.8681345
8.1365633 5.0858426 -1.869305
8.1692867 5.0368514 -1.8696952
8.205905 4.9901972 -1.8710608
8.2372103 4.9402571 -1.8712559
8.2842531 4.8996053 -1.8751577
8.3065357 4.8442359 -1.8734019
8.3182459 4.7829123 -1.869305
8.3534098 4.735167 -1.8706707
8.3994322 4.6933889 -1.8745725
8.3833952 4.6171637 -1.8644278
8.4193268 4.5698476 -1.8661835
8.4662361 4.5282755 -1.8704755
8.4704332 4.4638996 -1.8652081
8.5246496 4.4258485 -1.8712559
8.5385466 4.3667617 -1.8683295
8.5774431 4.3204632 -1.8710608
8.6222439 4.2769022 -1.8751577
8.60602 4.2032609 -1.8657933
8.674963 4.1711965 -1.8753529
8.7181253 4.1262789 -1.8792546
8.7432795 4.0727081 -1.8792546
8.7663212 4.0181665 -1.8788644
8.8247881 3.9796188 -1.8862779
8.8346949 3.9190347 -1.8831564
8.8783531 3.873378 -1.8874484
8.8848267 3.8114839 -1.8837417
8.9116611 3.75842 -1.8845221
8.8883448 3.6845193 -1.8745725
8.9298611 3.6376801 -1.8786694
8.9674931 3.5890126 -1.8819859
8.9847822 3.5321279 -1.8810104
9.0255013 3.4843473 -1.8851074
9.046711 3.4289021 -1.8851074
9.0565481 3.3692257 -1.8827662
9.072444 3.3119113 -1.8817908
9.0889015 3.2548592 -1.8810104
9.1022243 3.1967554 -1.8796448
9.1429977 3.1481864 -1.8841319
9.2113972 3.1086426 -1.8944716
9.1688356 3.0317495 -1.8815957
9.2068615 2.9817772 -1.8856926
9.2474222 2.9323411 -1.8903748
9.2455692 2.869442 -1.8862779
9.241416 2.8061068 -1.8817908
9.2678623 2.7521405 -1.8837417
9.3024712 2.7004151 -1.8874484
9.3216963 2.644088 -1.8880337
9.3405809 2.5876265 -1.8886189
9.3969946 2.54127 -1.8970078
9.3611994 2.4700572 -1.8864729
9.3619308 2.4089072 -1.8835466
9.3860493 2.3538024 -1.8854976
9.414607 2.2996557 -1.8884239
9.4418993 2.2450202 -1.8911551
9.445941 2.1848345 -1.8892043
9.4505568 2.1248989 -1.8874484
9.4931221 2.0733554 -1.8934963
9.5286922 2.0199463 -1.8981783
9.5178499 1.956704 -1.8934963
9.5450678 1.9013306 -1.8966177
9.5690746 1.8451399 -1.8991538
9.577323 1.7858514 -1.8985686
9.5938921 1.7280949 -1.8997391
9.5956182 1.667685 -1.8979833
9.5834217 1.6050525 -1.8934963
9.6415052 1.5540172 -1.9032507
6.0762811 0.9415946 -1.1837577
5.9131384 0.87922722 -1.1498119
5.8912334 0.83906144 -1.1443493
5.8875246 0.8017084 -1.1425936
5.8796887 0.76392788 -1.1400574
5.8725848 0.72639388 -1.1377163
5.8681641 0.68931866 -1.1359605
5.8615603 0.65210849 -1.1338145
5.8430161 0.61377817 -1.1293274
5.8544807 0.57868481 -1.1308881
5.8540149 0.54239029 -1.1301078
5.8464842 0.50553328 -1.1279618
5.8416548 0.46902397 -1.1264011
5.8092103 0.43056861 -1.1193779
5.8156571 0.39518106 -1.1201582
0 0 -0
0 0 -0
5.8405581 0.28898409 -1.1238649
0 0 -0
0 0 -0
0 0 -0
0 0 -0
0 0 -0
0 0 -0
0 0 -0
0 0 -0
0 -0 -0
0 -0 -0
0 -0 -0
0 -0 -0
0 -0 -0
0 -0 -0
0 -0 -0
0 -0 -0
0 -0 -0
0 -0 -0
0 -0 -0
0 -0 -0
0 -0 -0
0 -0 -0
0 -0 -0
0 -0 -0
6.1058464 -0.63711578 -1.1818067
9.0116768 -0.99681556 -1.7641513
8.8670626 -1.0359126 -1.7364485
8.6814289 -1.0682371 -1.7005519
8.5735531 -1.1083935 -1.6802624
8.6074095 -1.1665167 -1.6884563
8.7137032 -1.2354321 -1.7112819
8.715661 -1.2903128 -1.7132328
8.7201805 -1.3457131 -1.7157689
8.726284 -1.4015286 -1.7186953
8.7039766 -1.4527833 -1.7159641
8.6610756 -1.5002991 -1.7091359
8.6401234 -1.5513327 -1.7067947
8.6159782 -1.6016277 -1.7038684
8.5896158 -1.6513143 -1.7005519
8.5283375 -1.6938548 -1.6902121
8.4149799 -1.7250627 -1.6693374
8.3725719 -1.7699652 -1.6628995
8.3663454 -1.8223493 -1.6638749
8.3262968 -1.8672075 -1.6580222
8.3137274 -1.918041 -1.6578271
8.2970304 -1.9678845 -1.6568516
8.2304859 -2.0055146 -1.6457316
7.3303423 -1.8337693 -1.4637122
7.3436513 -1.8850569 -1.4687846
8.0214586 -2.1117029 -1.6106153
7.9572182 -2.1470776 -1.6000804
7.8947387 -2.1822667 -1.5899357
7.8623266 -2.225322 -1.5860338
8.1480856 -2.3603442 -1.6480726
8.1165237 -2.405277 -1.6445609
7.9664545 -2.4140565 -1.616468
7.8980927 -2.4463444 -1.6053479
7.8614278 -2.4879506 -1.6008607
7.779757 -2.5147135 -1.5870093
7.6924682 -2.5387232 -1.5719874
7.8635607 -2.648833 -1.6112006
7.7386436 -2.6597197 -1.588375
7.7055192 -2.7013102 -1.5848633
7.7414389 -2.7673652 -1.5959835
7.7768359 -2.833962 -1.6071036
7.7859626 -2.8915324 -1.6127613
7.8185239 -2.9583488 -1.6234912
7.6117101 -2.9335816 -1.5833026
7.7770667 -3.052279 -1.6225158
7.8501749 -3.1367092 -1.6422199
7.8280554 -3.1837089 -1.6416346
7.8129039 -3.233557 -1.6426101
7.7775502 -3.2749627 -1.6392936
7.7546048 -3.3214643 -1.6387082
