# .PCD v0.7 - Point Cloud Data file format
VERSION 0.7
FIELDS x y z
SIZE 4 4 4
TYPE F F F
COUNT 1 1 1
WIDTH 1557
HEIGHT 1
VIEWPOINT 0 0 0 1 0 0 0
POINTS 1557
DATA ascii
-4.9598536 7.8199954 -1.9153042
-4.9299431 7.8793116 -1.9225333
-4.8804755 7.9077473 -1.9221202
-4.8323717 7.9383802 -1.9223268
-4.8062363 8.0056295 -1.9316213
-4.7555285 8.032444 -1.9310017
-4.7086196 8.0656967 -1.9320344
-4.6800303 8.1308994 -1.9409158
-4.6160474 8.1347847 -1.934926
-4.5421619 8.1202602 -1.9245987
-4.5201254 8.1985302 -1.936785
-4.4673991 8.2218122 -1.9357523
-4.4080911 8.2326803 -1.9318279
-4.3780398 8.2985144 -1.9411224
-4.334259 8.3391123 -1.9444271
-4.2754288 8.3507442 -1.9409158
-4.223228 8.3750734 -1.9405028
-4.1882982 8.4341288 -1.9483515
-4.1145473 8.4148417 -1.9378177
-4.0827851 8.4813643 -1.9475254
-4.0285726 8.5018349 -1.9464926
-3.9916329 8.5592031 -1.9541348
-3.9345503 8.5737524 -1.9518628
-3.8738153 8.5798979 -1.9477319
-3.8218915 8.6052942 -1.9481449
-3.7835109 8.6617575 -1.9557872
-3.7418778 8.7117796 -1.9619836
-3.6754105 8.7039289 -1.9549609
-3.6313128 8.748909 -1.9601246
-3.5801492 8.7773676 -1.9615704
-3.518945 8.7810059 -1.9574395
-3.4610567 8.7924175 -1.9551675
-3.4133933 8.829915 -1.9588853
-3.3615804 8.8570967 -1.9603312
-3.3058045 8.873889 -1.959505
-3.2425578 8.8701134 -1.9541348
-3.1943469 8.907341 -1.9580592
-3.1467752 8.9470797 -1.9626032
-3.0927746 8.9689941 -1.9632229
-3.0358038 8.9822407 -1.9619836
-2.9830937 9.0081291 -1.9636359
-2.9253492 9.0188179 -1.9619836
-2.8702521 9.0375309 -1.96219
-2.8272355 9.0951481 -1.9710715
-2.7767854 9.1301098 -1.9749959
-2.7299185 9.1779242 -1.9818119
-2.6659019 9.1681957 -1.9760287
-2.6053174 9.169322 -1.972724
-2.5374925 9.143652 -1.9636359
-2.4777579 9.1458282 -1.9607443
-2.4330976 9.2043724 -1.9702454
-2.3741322 9.2096539 -1.9681799
-2.3204396 9.2354355 -1.9706584
-2.2702422 9.2761097 -1.9764417
-2.218272 9.3108044 -1.9809858
-2.1474009 9.2651443 -1.9681799
-2.0887897 9.2705097 -1.9665276
-2.0262179 9.2573452 -1.9609509
-1.9817837 9.3279848 -1.9735501
-1.9294485 9.3639269 -1.9787138
-1.8727227 9.379427 -1.9795399
-1.8143935 9.386899 -1.9787138
-1.7546045 9.3863144 -1.9762352
-1.685847 9.3352804 -1.9630163
-1.642144 9.4235258 -1.9797465
-1.5782939 9.3977222 -1.9721043
-1.5237243 9.4265471 -1.9762352
-1.4509816 9.340003 -1.9557872
-1.4031693 9.4126005 -1.9694191
-1.3366712 9.3600111 -1.9564068
-1.2891456 9.4407444 -1.9718977
-1.2314469 9.4504166 -1.9723108
-1.1745217 9.4665337 -1.9741697
-1.114123 9.4541283 -1.9700388
-1.0642366 9.5337162 -1.9855298
-1.0042821 9.5264435 -1.9826381
-0.94223416 9.4964018 -1.9749959
-0.88204348 9.4815454 -1.9706584
-0.8212238 9.4565611 -1.9642556
-0.76727682 9.5121365 -1.9749959
-0.70504266 9.4649515 -1.964049
-0.65129131 9.5325499 -1.9774745
-0.58859712 9.4689846 -1.9632229
-0.53535825 9.5593624 -1.9816054
-0.47557166 9.5399904 -1.9768548
-0.41766781 9.5573921 -1.9799531
-0.35923743 9.5656414 -1.9811922
-0.29946041 9.5334368 -1.9739631
-0.24170147 9.5644388 -1.9801595
-0.18314192 9.5725899 -1.9816054
-0.1244787 9.5794029 -1.9828446
-0.065806247 9.5956411 -1.9861494
-0.0068988716 9.5586834 -1.9783007
0.051841598 9.5751791 -1.9818119
0.11037888 9.5560923 -1.9778875
0.16892557 9.5503435 -1.9768548
0.22761525 9.5530396 -1.977681
0.28611025 9.5475512 -1.9768548
0.34359425 9.5153046 -1.970452
0.40139487 9.4993305 -1.9675603
0.45750001 9.4517336 -1.9580592
0.51649809 9.4673109 -1.9619836
0.57694876 9.5030298 -1.9702454
0.63237667 9.4563551 -1.9611573
0.69223994 9.4776688 -1.9665276
0.74914527 9.4576368 -1.9632229
0.81240392 9.5142803 -1.9762352
0.86167049 9.4097309 -1.9551675
0.92348313 9.4461403 -1.964049
0.98142618 9.4402962 -1.964049
1.0394394 9.4350691 -1.9642556
1.1074885 9.5159826 -1.9828446
1.1531204 9.4050932 -1.9607443
1.2195563 9.4657698 -1.9752024
1.2713292 9.4115667 -1.9652883
1.3346659 9.4433098 -1.9737567
1.38987 9.4165516 -1.9698323
1.4427136 9.3759336 -1.9630163
1.5054756 9.3997526 -1.9700388
1.5594289 9.3681393 -1.9652883
1.6085544 9.3101873 -1.9549609
1.6685821 9.316515 -1.9584723
1.7271426 9.313798 -1.9601246
1.7813103 9.2876501 -1.9568199
1.8350321 9.2602291 -1.9533086
1.9018152 9.2976837 -1.9638424
1.9497427 9.2427568 -1.9545479
2.010782 9.2506981 -1.9588853
2.0788286 9.2887917 -1.9698323
2.1232729 9.2215118 -1.9580592
2.1717024 9.1740332 -1.9506235
2.2390494 9.206171 -1.9605377
2.2890959 9.1666279 -1.9549609
2.3501549 9.1713657 -1.9590919
2.4038985 9.1473103 -1.9570265
2.4589622 9.1286087 -1.9562002
2.5102437 9.0963717 -1.9524825
2.5739915 9.109045 -1.9586788
2.6154299 9.0432634 -1.9477319
2.6650403 9.0073423 -1.9433944
2.7313073 9.0273447 -1.9514498
2.7814438 8.9935904 -1.9477319
2.8371646 8.97822 -1.9481449
2.8928015 8.9625053 -1.9485581
2.9590697 8.9789696 -1.9562002
2.997577 8.9114923 -1.9452534
3.0493422 8.8846025 -1.9433944
3.0763223 8.7872286 -1.925838
3.1581402 8.8465137 -1.9433944
3.2080126 8.8150167 -1.9407094
3.2582977 8.7850752 -1.9384373
3.3111031 8.7621717 -1.9378177
3.3735905 8.7645187 -1.9429814
3.4344456 8.7618732 -1.9471122
3.4602215 8.67066 -1.9312083
3.5155675 8.6547041 -1.9324474
3.5697269 8.6356831 -1.9330671
3.6006489 8.561305 -1.9210875
3.6584995 8.5516453 -1.9239792
3.7296381 8.5721016 -1.9338933
3.7417917 8.4577866 -1.9128256
3.8048537 8.4596539 -1.9186089
3.8420458 8.4041128 -1.9111732
3.8927157 8.3786058 -1.9107602
3.9465585 8.3598719 -1.9119995
4.0100489 8.361083 -1.9179893
4.0715594 8.3574314 -1.9229463
4.1323085 8.3515854 -1.9274904
4.1738114 8.306838 -1.9229463
4.1926913 8.218318 -1.9080751
4.2502379 8.2063389 -1.9113798
4.3209982 8.2190781 -1.9206743
4.3529253 8.1578798 -1.9124125
4.403831 8.1327381 -1.9128256
4.4300928 8.0626869 -1.9024984
4.493773 8.0609913 -1.9086947
4.5402598 8.0281563 -1.9074554
4.5981975 8.0154238 -1.9111732
4.6408958 7.9760642 -1.9084882
4.6907434 7.9491234 -1.9089013
4.7339039 7.9109559 -1.9066293
4.7691598 7.8600111 -1.9012591
4.7988429 7.8005981 -1.8938234
4.8637018 7.7984037 -1.9006394
4.9125061 7.7700677 -1.9010526
4.9558668 7.7331886 -1.8994001
4.9819059 7.6698117 -1.8911383
5.0482397 7.6685209 -1.898574
5.092483 7.6333313 -1.8975413
5.1474438 7.6141 -1.9006394
5.1973834 7.5872159 -1.9018787
5.2131577 7.510972 -1.8905187
5.2478905 7.4628358 -1.8863878
5.3316174 7.4838881 -1.9002264
5.3619781 7.4296107 -1.8946496
5.4016905 7.3886714 -1.8925842
5.4521651 7.3624654 -1.894443
5.503108 7.3367004 -1.8965086
5.5415115 7.2942252 -1.8942366
5.5736341 7.2438011 -1.889899
5.6107602 7.2002039 -1.8874205
5.6511974 7.1610327 -1.8861812
5.6748738 7.1009984 -1.8793652
5.7232618 7.0721292 -1.8810176
5.7529049 7.0202289 -1.8764735
5.7790031 6.9644666 -1.8708968
5.8379912 6.9483542 -1.8762671
5.9033384 6.9392319 -1.8837026
5.9043016 6.8546901 -1.8702772
5.9616833 6.8360314 -1.8752344
5.993155 6.7875872 -1.8719296
6.05686 6.7754884 -1.8789521
6.0668068 6.7033739 -1.869038
6.0721316 6.6270652 -1.8578845
6.1313105 6.6097689 -1.8636677
6.1751008 6.5755897 -1.8647004
6.2153316 6.5375762 -1.8647004
6.2553287 6.4993167 -1.8647004
6.2698269 6.4348817 -1.8570583
6.3243079 6.4116154 -1.8616023
6.3510861 6.3602266 -1.8578845
6.3906875 6.3218255 -1.858091
6.430757 6.2838616 -1.8585041
6.4642653 6.2395282 -1.8570583
6.5095096 6.2064986 -1.8591237
6.5581532 6.1765032 -1.862222
6.5830336 6.1241503 -1.8585041
6.590229 6.0558357 -1.8498292
6.6555176 6.0409322 -1.8578845
6.69173 5.9993281 -1.8576779
6.7093706 5.9412894 -1.8523078
6.7817855 5.9315748 -1.8624284
6.813611 5.8860126 -1.8611892
6.8600187 5.8529859 -1.8640809
6.8928103 5.8082614 -1.8632547
6.9155345 5.755218 -1.8597434
6.9446707 5.7077065 -1.858091
7.000073 5.6816363 -1.8636677
7.0485449 5.6495934 -1.8673856
7.103024 5.6220269 -1.8727558
7.1435533 5.583158 -1.8744081
7.1621852 5.5272651 -1.8702772
7.2286506 5.5081224 -1.8789521
7.2670026 5.4671941 -1.8801914
7.2972703 5.4201679 -1.8793652
7.29883 5.3521457 -1.8711034
7.3354955 5.3101292 -1.8721361
7.3615713 5.260468 -1.8704838
7.4240923 5.2366314 -1.8783325
7.4456453 5.1837115 -1.8756474
7.4684415 5.1318326 -1.8733754
7.511126 5.0935993 -1.8762671
7.5601273 5.0593886 -1.8808111
7.5469403 4.983788 -1.8696576
7.6216445 4.9662333 -1.8808111
7.6281061 4.9040289 -1.8748212
7.682014 4.8723302 -1.8808111
7.7092772 4.8235455 -1.8801914
7.7470546 4.7812905 -1.8822569
7.7804251 4.7362094 -1.8832896
7.784174 4.6732707 -1.8770932
7.7697639 4.5999961 -1.8665594
7.8046021 4.5561819 -1.8682117
7.8018847 4.4906354 -1.8607761
7.8343973 4.4455767 -1.8620154
7.8956838 4.4165297 -1.8702772
7.9817548 4.400598 -1.8845289
8.0137644 4.3543429 -1.8857682
8.0360184 4.3027802 -1.8847355
8.0224619 4.232388 -1.8752344
8.1003695 4.2101598 -1.887627
8.094697 4.1443238 -1.8801914
8.1295834 4.0994239 -1.8824635
8.1361818 4.0403252 -1.8781259
8.1449976 3.9825895 -1.8744081
8.1948471 3.9448462 -1.8803979
8.1914892 3.8815 -1.8739951
8.2222452 3.8344734 -1.8756474
8.281188 3.8002758 -1.8839092
8.2677889 3.7328825 -1.8754408
8.3111048 3.6912172 -1.8801914
8.3497362 3.6472023 -1.8839092
8.3422909 3.5831566 -1.8770932
8.4145947 3.5532186 -1.8886598
8.4353352 3.5011456 -1.8884532
8.4475994 3.4456258 -1.8863878
8.4631329 3.3915434 -1.8851485
8.4683065 3.3334577 -1.8816372
8.4931641 3.2831984 -1.8826699
8.5268707 3.236232 -1.8857682
8.5474844 3.1841927 -1.8859746
8.5521584 3.1263108 -1.8826699
8.5932837 3.0817049 -1.887627
8.6018772 3.0253479 -1.8853551
8.6415529 2.9798479 -1.8901056
8.6800671 2.9336615 -1.8946496
8.6672525 2.8701947 -1.8878336
8.7061071 2.8239036 -1.8925842
8.7036867 2.7642102 -1.8882467
8.739171 2.716563 -1.8923776
8.7378893 2.6574793 -1.8884532
8.7390251 2.5993507 -1.8851485
8.7886324 2.5555165 -1.8925842
8.8107357 2.5034146 -1.89403
8.8391294 2.4529693 -1.8969216
8.8653469 2.401758 -1.8994001
8.840188 2.3368123 -1.8907253
8.8562546 2.2830143 -1.8911383
8.882432 2.2317305 -1.8938234
8.8950081 2.1769543 -1.8936169
8.9281864 2.1270974 -1.8979543
8.9305849 2.0698445 -1.8956823
8.9221182 2.0102761 -1.8911383
8.9811192 1.9657462 -1.9012591
8.993969 1.9108055 -1.9014657
9.0342731 1.8615085 -1.907662
9.0301733 1.8029743 -1.9043573
9.0084038 1.7412177 -1.8973347
9.0083389 1.6839323 -1.8950627
9.0242786 1.62967 -1.896302
9.0119381 1.5704031 -1.8915514
9.1043873 1.5290174 -1.9093144
9.0440531 1.4618809 -1.894443
0 0 -0
5.8639092 0.87400097 -1.212016
0 0 -0
0 0 -0
0 0 -0
0 0 -0
0 0 -0
0 0 -0
0 0 -0
0 0 -0
0 0 -0
0 0 -0
0 0 -0
0 0 -0
0 0 -0
0 0 -0
0 0 -0
0 0 -0
0 0 -0
0 0 -0
0 0 -0
0 0 -0
0 0 -0
0 0 -0
0 0 -0
0 0 -0
0 -0 -0
0 -0 -0
0 -0 -0
0 -0 -0
0 -0 -0
0 -0 -0
0 -0 -0
0 -0 -0
0 -0 -0
0 -0 -0
5.89008 -0.39403966 -1.2066457
5.8826723 -0.42981693 -1.205613
5.8906536 -0.46675363 -1.207885
5.9052267 -0.5043869 -1.2116028
0 -0 -0
5.9268327 -0.57957476 -1.2175927
6.0224309 -0.6262458 -1.2386603
8.9575434 -0.98685187 -1.8628416
8.6743336 -1.0095713 -1.8039761
8.3999319 -1.0299248 -1.7469695
8.2711821 -1.0656981 -1.7209446
8.113224 -1.0960027 -1.6887236
8.0511236 -1.1379614 -1.6769505
8.1098108 -1.1970531 -1.6909956
8.1526003 -1.2545271 -1.7017359
8.1621399 -1.3073114 -1.7054538
8.1597557 -1.3583325 -1.7066931
8.1474104 -1.407708 -1.7058668
8.1415091 -1.4581904 -1.7064865
8.1131678 -1.5045512 -1.7023555
8.0864859 -1.5509877 -1.6986377
8.0710583 -1.5994353 -1.6973984
8.0610924 -1.6489283 -1.6973984
8.0240173 -1.6927056 -1.6916151
8.0000944 -1.7389992 -1.6887236
7.9806795 -1.7861313 -1.6868646
7.9552674 -1.8317736 -1.6837664
7.9172182 -1.8742421 -1.6779832
7.8656383 -1.913076 -1.6693082
7.2965155 -1.8221743 -1.5480659
7.5467968 -1.9339334 -1.6050725
7.7600112 -2.0393813 -1.6542304
7.7350698 -2.0836496 -1.6515453
7.6966729 -2.1240454 -1.6459686
7.6684299 -2.166975 -1.6426638
7.6333709 -2.2077355 -1.6379132
7.5999775 -2.2487025 -1.6335758
7.5766716 -2.2924597 -1.6315104
7.549376 -2.3348594 -1.6286187
7.5311756 -2.3799584 -1.6277925
7.5173616 -2.4264247 -1.6279991
7.5004735 -2.4718921 -1.627586
7.4851651 -2.5178678 -1.627586
7.4742022 -2.5653365 -1.6286187
7.4657087 -2.613735 -1.6302711
7.439394 -2.6558764 -1.6279991
7.4275551 -2.7031465 -1.6290318
7.4117465 -2.7490106 -1.6292384
7.4414191 -2.8120735 -1.6397722
7.4221978 -2.8569775 -1.6393591
7.4509878 -2.9206741 -1.6498929
7.4710946 -2.9815674 -1.6585678
7.4408746 -3.0225666 -1.6558827
7.4276137 -3.0704086 -1.657122
7.4104381 -3.1166842 -1.6575351
7.3776813 -3.1563232 -1.6544369
7.3438201 -3.1952872 -1.6511322
7.3115487 -3.2347462 -1.6482406
7.2746081 -3.2719235 -1.6443162
7.2161307 -3.2990069 -1.6354347
7.175343 -3.3337409 -1.6306841
7.1512132 -3.3760347 -1.629858
7.1330104 -3.4211195 -1.6304777
7.106607 -3.4622514 -1.6292384
7.0650587 -3.4958124 -1.6244878
7.0460987 -3.5404148 -1.6251074
7.0068107 -3.5746901 -1.6209766
6.984745 -3.6176157 -1.6209766
6.9528894 -3.6553972 -1.6187046
6.9225602 -3.6938455 -1.6168456
6.9057875 -3.7395129 -1.6182914
6.8990059 -3.7907672 -1.6222157
6.8747616 -3.832551 -1.6220093
6.7838321 -3.8366137 -1.6056921
6.7720456 -3.8849819 -1.6085838
6.7852921 -3.9481108 -1.6176717
6.7137489 -3.9618261 -1.6061052
6.8958588 -4.1265311 -1.6569154
6.8595343 -4.1621675 -1.6542304
6.8338666 -4.2041788 -1.6542304
6.8137531 -4.2496557 -1.6556762
6.7908578 -4.2934752 -1.6565024
6.7544999 -4.3287277 -1.6540239
6.7187862 -4.3642287 -1.6517519
6.684526 -4.4005303 -1.6498929
6.6451893 -4.4333186 -1.6467947
6.5943546 -4.4581184 -1.6408049
6.5870566 -4.51232 -1.6459686
6.5729103 -4.5621357 -1.6494799
6.5271854 -4.5899997 -1.6449358
6.4813666 -4.6174741 -1.6403918
6.4441848 -4.6508579 -1.6381198
6.3610239 -4.6504693 -1.6238681
6.4047122 -4.7429795 -1.6428703
6.3942752 -4.7962785 -1.6478275
6.3444681 -4.8200345 -1.6424572
6.30159 -4.8487301 -1.6389459
6.2416196 -4.8638511 -1.6308907
6.1801662 -4.8772068 -1.6224223
6.1554742 -4.9193115 -1.6238681
6.1031165 -4.9391394 -1.6178783
6.0779934 -4.9808354 -1.6193242
6.0586119 -5.0274072 -1.6224223
6.0231557 -5.0607109 -1.621183
5.9890089 -5.0950375 -1.6203569
5.9761682 -5.1476521 -1.6255205
5.9356208 -5.1765079 -1.623042
5.8729405 -5.1856327 -1.614367
5.8563309 -5.2352638 -1.6187046
5.7979808 -5.2474642 -1.6112689
5.7808237 -5.2968216 -1.6156063
5.7439098 -5.3281999 -1.614367
5.7218075 -5.3733902 -1.6174653
5.6759648 -5.3962631 -1.6137474
5.6364021 -5.4248824 -1.6118885
5.5960016 -5.4525366 -1.609823
5.5610466 -5.4853964 -1.6094099
5.535593 -5.5277109 -1.6118885
5.4884968 -5.548357 -1.6079642
5.4817038 -5.60992 -1.616226
5.4451399 -5.6413379 -1.6156063
2.2686574 -2.3797846 -0.654549
2.2540126 -2.3936598 -0.654549
2.2392828 -2.4074452 -0.654549
2.2244689 -2.42114 -0.654549
5.2077131 -5.7376113 -1.596191
5.1867795 -5.7854843 -1.6007351
5.1492367 -5.8150034 -1.6001154
5.1353621 -5.8715281 -1.6071379
5.0909228 -5.8933024 -1.6044528
5.0464101 -5.914753 -1.6017678
4.9974127 -5.9306421 -1.5976368
4.9703174 -5.9724746 -1.6007351
4.9000278 -5.9620428 -1.5895816
4.8645864 -5.993516 -1.5899947
4.8271074 -6.0224881 -1.5897881
4.8107104 -6.0780773 -1.5968107
2.0094097 -2.5714204 -0.64938539
1.9929961 -2.5829268 -0.6491788
1.9741448 -2.5912158 -0.64814609
1.955267 -2.599371 -0.64711338
1.9322792 -2.6018941 -0.64463484
1.7600495 -2.4006691 -0.58886749
1.7533189 -2.422519 -0.59175909
1.7236303 -2.4125345 -0.58638895
4.4594359 -6.3223472 -1.5937124
4.4155269 -6.3423638 -1.5918536
4.3704324 -6.3604674 -1.5895816
4.322536 -6.374208 -1.5862769
4.2773566 -6.3916659 -1.5840049
4.2154107 -6.3835006 -1.5753299
4.1580005 -6.3813744 -1.5683074
4.1256456 -6.4174662 -1.5709925
4.0814743 -6.4352236 -1.5691335
4.0450258 -6.4651227 -1.5703728
4.0006552 -6.4823275 -1.5685139
3.9602964 -6.5059171 -1.5683074
3.9555583 -6.5888138 -1.5827656
3.9120646 -6.6079092 -1.5815263
3.8714457 -6.6317887 -1.5815263
1.6897339 -2.9361889 -0.67561668
1.6716859 -2.9465017 -0.67561668
1.6607404 -2.969512 -0.67871487
3.6976061 -6.7068081 -1.5771888
3.6563842 -6.7293701 -1.5771888
3.5974729 -6.7189016 -1.5693401
3.5666804 -6.7607522 -1.5740906
3.5413759 -6.8137636 -1.5815263
3.4901359 -6.8170757 -1.5771888
3.4535286 -6.848846 -1.5796673
3.4031708 -6.8532572 -1.575743
3.3649244 -6.8819203 -1.5776019
3.3183901 -6.8936219 -1.5755365
3.2810571 -6.9244633 -1.578015
3.2306497 -6.9276175 -1.5740906
3.1868575 -6.9446421 -1.573471
3.1365354 -6.9471226 -1.5695466
3.0843172 -6.9447765 -1.5645895
3.0396881 -6.9590878 -1.5635568
3.0104473 -7.0090728 -1.5707859
2.9567254 -7.0021749 -1.5650027
2.8990753 -6.984942 -1.5569474
2.8520966 -6.9926333 -1.5546753
2.801857 -6.9918375 -1.5505444
2.763921 -7.0216441 -1.553436
2.7176094 -7.0302572 -1.5515771
2.6646991 -7.0211868 -1.5457939
2.6225927 -7.0401554 -1.5464135
2.5806897 -7.0597906 -1.5472397
2.5383139 -7.0782557 -1.5478593
2.5013282 -7.1121573 -1.5519903
2.4579608 -7.1282964 -1.5521967
2.4157426 -7.1478782 -1.5532296
2.369993 -7.1569934 -1.5519903
2.340224 -7.2151432 -1.5616978
2.2896883 -7.2097836 -1.5573604
2.2439547 -7.2190256 -1.5563277
2.2027493 -7.2429552 -1.5585997
2.1730525 -7.3060393 -1.5695466
2.1137013 -7.2694411 -1.5585997
2.062638 -7.2596855 -1.5536426
2.0235498 -7.2920036 -1.5579801
1.9782571 -7.3023939 -1.557567
1.935414 -7.3219624 -1.5592194
1.8899622 -7.3318052 -1.5588063
1.8497088 -7.3622422 -1.5629371
1.8012432 -7.360148 -1.5600455
1.7558215 -7.37011 -1.559839
1.7026118 -7.3464308 -1.5524033
1.6523403 -7.3338318 -1.5474463
1.6091928 -7.3524342 -1.5493052
1.5666928 -7.3746114 -1.5519903
1.5168711 -7.3620448 -1.5472397
1.4749273 -7.3875251 -1.550751
1.4330993 -7.4146881 -1.5546753
1.3829012 -7.3983359 -1.5493052
1.3355666 -7.3960905 -1.5470332
1.2884798 -7.3945074 -1.5449677
1.2377347 -7.3704319 -1.5381516
1.1818676 -7.3122067 -1.5241066
1.1369785 -7.3193212 -1.5241066
1.0914694 -7.3222885 -1.5232804
1.0466585 -7.3298168 -1.523487
0.99901551 -7.3167119 -1.519356
0.95182574 -7.3052402 -1.5156382
0.9077068 -7.3167686 -1.5168774
0.86233664 -7.3183136 -1.5160513
0.81719893 -7.3215227 -1.5156382
0.77113068 -7.3156953 -1.5133662
0.72700107 -7.3280787 -1.5150186
0.68002838 -7.3109684 -1.5104746
0.63600326 -7.3247509 -1.51254
0.59246421 -7.3460703 -1.5162579
0.54810566 -7.3593245 -1.5183233
0.50233877 -7.3537636 -1.5164644
0.4564178 -7.3440123 -1.5137793
0.41140193 -7.3476515 -1.5139859
0.36660239 -7.3559008 -1.5152251
0.32116121 -7.3511696 -1.5137793
0.27626979 -7.3588681 -1.5150186
0.23092687 -7.354557 -1.5137793
0.1860434 -7.3656168 -1.5158447
0.14101413 -7.3754239 -1.5177037
0.095718466 -7.3732152 -1.517084
0.050461959 -7.371707 -1.5166709
0.0053045256 -7.4706998 -1.5375321
-0.040913392 -7.5410385 -1.5524033
-0.087149784 -7.5377102 -1.5517837
-0.13267362 -7.4959455 -1.5431088
-0.17764172 -7.4519515 -1.5340208
-0.22403581 -7.4732151 -1.5387713
-0.27115601 -7.5069008 -1.546207
-0.3169235 -7.4982524 -1.5447612
-0.36117721 -7.4600067 -1.5371189
-0.40737024 -7.465466 -1.5387713
-0.45548066 -7.5009151 -1.5468266
-0.5017578 -7.501884 -1.5476527
-0.54685301 -7.4859781 -1.5449677
-0.5930075 -7.4854083 -1.5455873
-0.64025718 -7.4972267 -1.548892
-0.68642563 -7.4951057 -1.5493052
-0.73611301 -7.5287309 -1.5573604
-0.78118211 -7.5133677 -1.5550884
-0.83005327 -7.5337195 -1.5604587
-0.87615061 -7.5275126 -1.5602521
-0.92315525 -7.5287929 -1.5616978
-0.97233337 -7.546277 -1.566655
-1.0182253 -7.5372601 -1.5660354
-1.0633588 -7.5231199 -1.564383
-1.1100711 -7.5203252 -1.5652092
-1.1532187 -7.4940314 -1.5610783
-1.2001078 -7.4926109 -1.5623175
-1.2503957 -7.5111656 -1.5678942
-1.2919632 -7.4773197 -1.5623175
-1.3390261 -7.4759936 -1.5637634
-1.3830891 -7.4580159 -1.5616978
-1.4302987 -7.4570765 -1.5633502
-1.4790699 -7.4635167 -1.566655
-1.5250334 -7.4552593 -1.5668615
-1.5701436 -7.4428897 -1.5662419
-1.615575 -7.4321589 -1.5660354
-1.657088 -7.4039645 -1.562111
-0.69343418 -3.0104291 -0.61262023
-0.70941395 -2.9956443 -0.61034822
-0.72431374 -2.976974 -0.60725003
-1.8318919 -7.3354363 -1.5565343
-1.863268 -7.2709799 -1.5449677
-0.77127928 -2.9338017 -0.60084713
-0.78672177 -2.9195662 -0.59878165
-0.79993671 -2.8977065 -0.59506387
-0.82222408 -2.9087505 -0.59857512
-2.1128786 -7.305336 -1.5658288
-2.152945 -7.2762837 -1.5623175
-2.1879182 -7.2310948 -1.555295
-1.080955 -3.4943595 -0.73262328
-2.2859232 -7.2335563 -1.5619044
-2.3332694 -7.2287059 -1.5639699
-2.3830917 -7.2309799 -1.5676877
-1.0852902 -3.2256572 -0.6789214
-1.0968046 -3.1948755 -0.6735512
-1.1089524 -3.1668451 -0.66880065
-2.5595024 -7.1693969 -1.5674812
-2.6098015 -7.1710267 -1.5714055
-1.1517465 -3.104614 -0.65950608
-1.175616 -3.1103024 -0.66239774
-1.2150617 -3.1559927 -0.67437738
-1.2554686 -3.202225 -0.68656361
-2.870244 -7.1921043 -1.5951583
-2.8900197 -7.1145272 -1.5815263
-2.9347405 -7.0993733 -1.5821459
-2.9626956 -7.0442533 -1.5736775
-1.2784524 -2.9876866 -0.64649373
-1.2928572 -2.9708138 -0.64442825
-1.3055199 -2.9502978 -0.64153665
-1.3211902 -2.9368777 -0.64029735
-3.1879585 -6.9731951 -1.5790477
-3.2282119 -6.9481788 -1.5778085
-3.2703667 -6.9273548 -1.5776019
-3.3132336 -6.90804 -1.5778085
-3.3512733 -6.8787842 -1.575743
-3.4181485 -6.9080796 -1.5875161
-3.4455371 -6.8572502 -1.5804936
-3.4742093 -6.8098321 -1.5742972
-3.5294266 -6.8144517 -1.5804936
-3.5766361 -6.8030601 -1.582972
-3.6266017 -6.7965245 -1.5866899
-3.6663728 -6.7707028 -1.5858637
-3.7111459 -6.7540817 -1.5873096
-3.7458489 -6.7192183 -1.5844179
-3.7918229 -6.7046247 -1.5864834
-3.846035 -6.7041478 -1.5920601
-3.9018595 -6.7057943 -1.5982565
-3.9488986 -6.6918392 -1.6007351
-3.9702919 -6.634738 -1.5926797
-4.0494986 -6.6738272 -1.6083772
-4.0652528 -6.6080184 -1.5982565
-2.6187568 -4.1985354 -1.0050571
-2.6564944 -4.2014098 -1.0098077
-2.67061 -4.1669068 -1.0052637
-2.7195766 -4.1865468 -1.0143517
-2.7441378 -4.1681461 -1.0139385
-2.7354543 -4.0999508 -1.0009263
-2.8076837 -4.1528015 -1.0186892
-2.7999368 -4.0870619 -1.0062964
-2.8868842 -4.1590295 -1.029223
-2.9275444 -4.162848 -1.0347997
-2.9189711 -4.0969915 -1.0224069
-2.9480627 -4.0845575 -1.0238528
-2.9851954 -4.0829797 -1.0281903
-3.0142677 -4.0700903 -1.029636
-3.0333138 -4.0436907 -1.0275706
-3.0533335 -4.0187697 -1.0259182
-3.0803213 -4.0030608 -1.0267445
-3.1583481 -4.0527759 -1.045127
-3.2201281 -4.0801744 -1.0577263
-3.2011251 -4.0053048 -1.042855
-3.1764026 -3.9247394 -1.0263313
-3.1260083 -3.8143575 -1.0015459
-3.1830914 -3.8357668 -1.0126994
-3.2525117 -3.8708513 -1.0277772
-3.2742996 -3.8485856 -1.0271575
-3.3061533 -3.8380601 -1.0298426
-3.3495758 -3.8405623 -1.0362456
-3.408047 -3.8595452 -1.047399
-3.427752 -3.8341842 -1.0461597
-3.449244 -3.8109033 -1.0455401
-3.4494288 -3.7644172 -1.038311
-3.4411891 -3.709465 -1.0286033
-3.4766107 -3.7018325 -1.0325277
-3.549819 -3.7336166 -1.0480187
-3.5421302 -3.6800401 -1.0387241
-3.5837617 -3.6778598 -1.0445074
-3.5870233 -3.6362958 -1.0387241
-3.6161809 -3.6211417 -1.0407895
-3.6473742 -3.6078308 -1.0434747
-3.6540477 -3.5703382 -1.0389307
-3.4963768 -3.3745661 -0.98626149
-3.4858596 -3.3233399 -0.97717345
-3.4577532 -3.2562704 -0.96312833
-3.4869807 -3.2436569 -0.96581346
-3.4974523 -3.2135932 -0.96312833
-3.5214515 -3.1960185 -0.96436763
-3.4054956 -3.0528607 -0.92595011
-3.397794 -3.0085547 -0.91851449
-3.597358 -3.1461191 -0.96932471
-3.6832299 -3.1815557 -0.98791385
-3.7428746 -3.1931913 -0.99906731
-3.7878356 -3.1916029 -1.0060898
-3.8960884 -3.2421596 -1.0304623
-3.9544578 -3.2498784 -1.0409961
-3.9940755 -3.2415857 -1.0463663
-3.9970949 -3.2035542 -1.0418223
-4.0051684 -3.1698592 -1.0387241
-4.0222306 -3.1434166 -1.0381044
-3.9717309 -3.0648742 -1.0195153
-3.9671152 -3.022655 -1.013319
-3.991842 -3.0029626 -1.0149714
-3.9685643 -2.9474895 -1.0040244
-3.9479136 -2.8947308 -0.99390364
-3.9965103 -2.8928294 -1.001959
-4.049211 -2.8932843 -1.011047
-4.0197158 -2.8351083 -0.99886078
-4.0667462 -2.8310764 -1.006503
-4.233222 -2.9085877 -1.0447139
-4.2234569 -2.8638859 -1.0376914
-4.1482534 -2.7758772 -1.0141451
-4.1211195 -2.7212543 -1.0029917
-4.0992117 -2.6708093 -0.99328405
-4.1739554 -2.6831765 -1.0079488
-4.1473761 -2.6302624 -0.99720842
-4.2380862 -2.6514761 -1.0157975
-4.2076497 -2.5966427 -1.004231
-4.2510829 -2.5875664 -1.011047
-4.3390207 -2.604748 -1.0288099
-4.2943029 -2.5421832 -1.0139385
-4.2498283 -2.4807599 -0.99927384
-4.332808 -2.4936872 -1.0157975
-4.3071814 -2.4438746 -1.0058833
-4.3357582 -2.4250431 -1.0091881
-4.3925405 -2.4215434 -1.0193088
-4.4193521 -2.4010861 -1.0222005
-4.459878 -2.3877811 -1.0283968
-4.4052157 -2.3238437 -1.0118731
-4.4124465 -2.29316 -1.0102208
-4.5004611 -2.303947 -1.0277772
-4.5485845 -2.2934721 -1.0358324
-4.588861 -2.2785757 -1.0420288
-4.56496 -2.2318935 -1.0331473
-4.5168576 -2.1741314 -1.0186892
-4.5566378 -2.1589458 -1.0248855
-4.4802394 -2.0891747 -1.0040244
-4.5125375 -2.0706241 -1.0085684
-4.6152234 -2.083566 -1.0294296
-4.6037779 -2.0444841 -1.0238528
-4.6296849 -2.0220728 -1.026951
-4.7732592 -2.0500102 -1.0571066
-4.7974653 -2.0256321 -1.0597918
-4.8098044 -1.9961573 -1.0597918
-4.8437047 -1.975477 -1.0647489
-4.7549238 -1.9053149 -1.0418223
-4.7792711 -1.8811213 -1.0447139
-4.8290529 -1.8665798 -1.0533888
-4.8779202 -1.8511504 -1.0618572
-4.8479276 -1.8058128 -1.0525626
-4.8442135 -1.7706569 -1.0492579
-4.859592 -1.7425518 -1.0502907
-4.9403405 -1.7373761 -1.0659881
-4.981432 -1.7175571 -1.0728041
-5.2013593 -1.7577697 -1.1194835
-5.3792343 -1.7811946 -1.1566617
-5.4598641 -1.7707988 -1.1721526
-5.5433636 -1.7603685 -1.1882632
-5.558732 -1.7277743 -1.1892959
-5.5757813 -1.6956272 -1.1907418
-5.7989655 -1.7247139 -1.2376276
-6.0010996 -1.7448388 -1.279763
-6.1641622 -1.7513127 -1.3132234
-6.2511587 -1.7346534 -1.3299536
-7.479938 -2.0263648 -1.5963975
-6.8054819 -1.7988635 -1.4464453
-6.8419728 -1.7636676 -1.4520221
-7.1961789 -1.8079773 -1.5267917
-7.402915 -1.8117119 -1.5693401
-7.5300102 -1.7939243 -1.5945387
-7.5580325 -1.7516645 -1.5982565
-7.8005815 -1.757527 -1.6484472
-8.1553068 -1.7849586 -1.7228036
-8.3010521 -1.763561 -1.7519265
-8.4698362 -1.7451811 -1.7860066
-8.7797461 -1.7529626 -1.8504488
-9.1400127 -1.766662 -1.9256315
-9.1458712 -1.7096477 -1.9245987
-9.1744843 -1.6568019 -1.9285231
-9.1488123 -1.5942607 -1.9208809
-9.2057037 -1.5460373 -1.9310017
-9.1918354 -1.485775 -1.9260446
-9.2355843 -1.4347556 -1.9334803
-9.2277632 -1.3756069 -1.929969
-9.247653 -1.3206209 -1.9324474
-9.2691536 -1.2657074 -1.9353391
-9.2544308 -1.2059003 -1.9305886
-9.2305841 -1.1452371 -1.9239792
-9.3025417 -1.0962528 -1.9378177
-9.2915897 -1.0371982 -1.9340999
-9.2773457 -0.97801155 -1.9297624
-9.2899876 -0.92174494 -1.9312083
-9.2818289 -0.86345595 -1.9283166
-9.264533 -0.80453956 -1.923566
-9.2917261 -0.74948859 -1.9283166
-9.3322515 -0.69515228 -1.9359587
-9.319747 -0.63674307 -1.9324474
-9.2951584 -0.57778466 -1.9264576
-9.2496834 -0.51800221 -1.9161304
-9.3230476 -0.46474788 -1.9310017
-9.3071518 -0.40672156 -1.9270773
-9.3319597 -0.35045177 -1.9318279
-9.3525152 -0.29376978 -1.9357523
-8.8192253 0.64493799 -1.9385086
-8.8180208 0.69927138 -1.9391636
-8.7805052 0.75053442 -1.9317409
-8.7699041 0.80386126 -1.930431
-8.785202 0.85965568 -1.9350156
-8.7263775 0.90798271 -1.9230083
-8.7157917 0.96097428 -1.9219167
-8.7271795 1.0164698 -1.9258463
-8.7033434 1.0678581 -1.9219167
-8.7034016 1.1221151 -1.923445
-8.6895838 1.1745812 -1.9219167
-8.6638546 1.2252785 -1.9177688
-8.6774111 1.2815554 -1.9225717
-8.6491299 1.3316536 -1.9179871
-8.6369419 1.3840805 -1.9171139
-8.631175 1.4375311 -1.9177688
-8.6144991 1.489133 -1.9160223
-8.6023178 1.5414459 -1.9153674
-8.5735083 1.5906367 -1.9110011
-8.6028805 1.650758 -1.9199519
-8.5772743 1.7004747 -1.9164588
-8.6221285 1.7644268 -1.9291211
-8.5328445 1.8007637 -1.9112194
-8.5130529 1.8512191 -1.9092546
-8.5205793 1.907686 -1.9136208
-8.4849396 1.954452 -1.908163
-8.4727879 2.0064778 -1.908163
-8.45368 2.0568123 -1.9066348
-8.4361668 2.1074612 -1.9055432
-8.4174051 2.1577301 -1.9042333
-8.4257135 2.2150474 -1.9092546
-8.39783 2.2628944 -1.9059799
-8.3960161 2.3177574 -1.9088179
-8.3872709 2.3708241 -1.9101278
-8.4025621 2.4309256 -1.9171139
-8.3378954 2.4677517 -1.9055432
-8.3011141 2.512361 -1.900522
-8.3125782 2.5716159 -1.9068531
-8.2631454 2.6119795 -1.8989938
-8.2497492 2.6635318 -1.8996488
-8.2795897 2.7293837 -1.9105644
-8.2229166 2.7667477 -1.9011769
-8.2020931 2.8158824 -1.9003037
-8.1874237 2.8671246 -1.9009587
-8.2045994 2.9297831 -1.9092546
-8.1892195 2.9810724 -1.9099095
-8.1661987 3.0295665 -1.9088179
-8.1602354 3.0844486 -1.9118743
-8.1284065 3.1295502 -1.9088179
-8.0627174 3.1611931 -1.897684
-8.0866718 3.2279768 -1.908163
-8.0585766 3.2742279 -1.9061981
-8.0347271 3.3221207 -1.9053249
-8.0393772 3.3819571 -1.9114376
-7.9610577 3.4066436 -1.8974656
-7.9471631 3.458544 -1.8992121
-7.9329309 3.510402 -1.9009587
-7.9281507 3.5666206 -1.9051065
-7.8821564 3.6042392 -1.8992121
-7.8722816 3.6582947 -1.9022685
-7.868217 3.715282 -1.9068531
-7.8531904 3.7672904 -1.9088179
-7.7983475 3.8000124 -1.9009587
-7.7722607 3.8464916 -1.9003037
-7.7642069 3.9019988 -1.9042333
-7.7114348 3.9349246 -1.897029
-7.6802139 3.978575 -1.8952825
-7.6418386 4.0183563 -1.8917894
-7.632534 4.0734425 -1.8957192
-7.6168346 4.1253119 -1.8981205
-7.5699997 4.1602173 -1.8926628
-7.5485921 4.2089643 -1.8937542
-7.5761323 4.2854791 -1.907508
-7.5268426 4.3187685 -1.9016136
-7.5027313 4.366344 -1.9022685
-7.4657149 4.4063439 -1.8996488
-7.4636559 4.4671082 -1.9061981
-7.4102459 4.4971218 -1.8994304
-7.3891611 4.5465975 -1.9011769
-7.3453941 4.5820355 -1.897029
-7.3295121 4.6348448 -1.9003037
-7.3206515 4.6923723 -1.9055432
-7.256536 4.7143369 -1.8961557
-7.2217679 4.7550159 -1.8946276
-7.2038193 4.8068228 -1.897684
-7.1289225 4.8203173 -1.8854584
-7.0887465 4.8567967 -1.8826203
-7.1077085 4.9341545 -1.8959374
-7.0972528 4.9917116 -1.9013953
-7.0680799 5.0362983 -1.9018319
-7.0322976 5.0761447 -1.900522
-6.9766006 5.1013393 -1.8937542
-6.9404635 5.1405649 -1.8924444
-6.9150352 5.1877403 -1.8941909
-6.8877354 5.2336154 -1.8955008
-6.8647723 5.2829223 -1.8981205
-6.8099084 5.3075442 -1.8917894
-6.7955961 5.3637424 -1.897029
-6.7579837 5.4016819 -1.8957192
-6.6996832 5.4227824 -1.8885148
-6.6843958 5.4786377 -1.8937542
-6.6123595 5.4877596 -1.8826203
-6.5927563 5.5401592 -1.8867682
-6.5467482 5.5703874 -1.8832753
-6.5235343 5.6200085 -1.8865499
-6.4815745 5.6535144 -1.8843668
-6.4409122 5.6880097 -1.8826203
-6.4102545 5.7313266 -1.8839302
-6.3879881 5.7823415 -1.8878598
-6.3624597 5.8306603 -1.8909162
-6.3315706 5.8742366 -1.8924444
-6.3039427 5.9209943 -1.8950641
-6.2583008 5.95082 -1.8922261
-6.2069068 5.9748936 -1.8876415
-6.1869001 6.0292144 -1.892881
-6.1428432 6.0602083 -1.890698
-6.088973 6.081233 -1.8854584
-6.0865388 6.1538701 -1.8965924
-6.0527558 6.1952896 -1.8979023
-6.0200491 6.2379303 -1.8996488
-6.0025315 6.2966509 -1.9064165
-5.9611073 6.3305206 -1.9055432
-5.9241457 6.369122 -1.9061981
-5.884954 6.4053521 -1.9061981
-5.8180003 6.4109855 -1.897029
-5.8000455 6.4705467 -1.9042333
-5.7576466 6.5030904 -1.9033601
-5.7144246 6.5346227 -1.9022685
-5.6684813 6.5629148 -1.9003037
-5.6350708 6.6057401 -1.9027052
-5.5988336 6.6454167 -1.9042333
-5.5854125 6.712656 -1.9138391
-5.5242963 6.7226715 -1.9068531
-5.4804831 6.7534099 -1.9059799
-5.4303994 6.776248 -1.9029235
-5.3990121 6.8224516 -1.9066348
-5.3684635 6.8700624 -1.9107827
-5.2868695 6.8518748 -1.8963741
-5.2748837 6.923779 -1.907508
-5.2369933 6.9622545 -1.9092546
-5.1918478 6.9911227 -1.9083813
-5.1430845 7.014977 -1.9061981
-5.1005168 7.0471926 -1.9064165
-5.0628519 7.0862975 -1.9085996
-5.0147772 7.1108484 -1.9068531
-4.9693794 7.1390815 -1.9061981
-4.9216137 7.1638079 -1.90467
-4.8945389 7.2189131 -1.9114376
-4.861546 7.2658434 -1.9160223
-4.8120341 7.2882066 -1.9140575
-4.7661586 7.3159599 -1.9136208
-4.7143207 7.334394 -1.9107827
-4.671319 7.3664794 -1.911656
-4.6358628 7.4107242 -1.9158039
-4.5933781 7.4440131 -1.9171139
-4.5526886 7.4803944 -1.919297
-4.5242782 7.5374756 -1.9269379
-4.4590588 7.5331798 -1.918642
-4.4201293 7.5730414 -1.9219167
-4.3867183 7.6228595 -1.9278113
-4.3254194 7.6241665 -1.9212618
-4.2961769 7.6820798 -1.9293394
-4.247076 7.7048774 -1.9284662
-4.2053084 7.7410827 -1.9310859
-4.1581912 7.7676005 -1.9313042
-4.1163692 7.8041906 -1.9341424
-4.0648074 7.8223729 -1.9323958
-4.0096207 7.8332672 -1.9289027
-3.9816847 7.8978095 -1.9389452
-3.9223034 7.9002385 -1.9334874
-3.8947501 7.9671187 -1.9441848
-3.8292909 7.9565701 -1.9356705
-3.7829044 7.9852085 -1.9369804
-3.720232 7.9790802 -1.9297761
-3.7094455 8.0851383 -1.9502975
-3.6509356 8.0881777 -1.9454947
-3.6071775 8.123806 -1.9487693
-3.5681951 8.1708288 -1.9548821
-3.5187626 8.1943626 -1.9553187
-3.4627252 8.2023125 -1.952044
-3.3842888 8.1557999 -1.9356705
-3.3492849 8.2134628 -1.9446213
-3.2915688 8.2157402 -1.940255
-3.2578866 8.2784653 -1.9505159
-3.2028096 8.2873755 -1.947896
-3.1491303 8.299572 -1.9461496
-3.1046147 8.3361149 -1.9502975
-3.05776 8.3669233 -1.9531356
-3.0057056 8.3836908 -1.9526989
-2.9503245 8.3909273 -1.9500792
-2.8959219 8.400569 -1.9481144
-2.8527536 8.4431429 -1.9540088
-2.8082516 8.4827232 -1.9592483
-2.7546453 8.4951534 -1.9581568
-2.7030585 8.5137558 -1.9585934
-2.6522155 8.5348415 -1.959685
-2.5958242 8.5378819 -1.9566286
-2.5450561 8.5592623 -1.9579384
-2.4971182 8.5906477 -1.9616498
-2.4424944 8.5992365 -1.9601216
-2.3831656 8.5905523 -1.9546638
-2.3296452 8.6021872 -1.9540088
-2.2798097 8.6276417 -1.9566286
-2.2304795 8.6556435 -1.9599034
-2.1761396 8.6644344 -1.9588118
-2.1233981 8.6795197 -1.9592483
-2.0691977 8.6885872 -1.9583751
-2.0134251 8.6906624 -1.9559736
-1.9566337 8.6876202 -1.9524807
-1.9053751 8.7089958 -1.9546638
-1.8604108 8.7606173 -1.963833
-1.8007196 8.7431917 -1.9572835
-1.7479929 8.7588615 -1.9583751
-1.6932917 8.7646313 -1.9572835
-1.6405556 8.780612 -1.9585934
-1.5856086 8.7847509 -1.9572835
-1.5341864 8.8087358 -1.9605583
-1.4841436 8.8420439 -1.9660161
-1.4242635 8.8163013 -1.9581568
-1.3722352 8.838376 -1.9612132
-1.3156793 8.8311853 -1.9577202
-1.2622939 8.8448887 -1.95903
-1.2056262 8.835063 -1.9551004
-1.1599528 8.9080992 -1.9699457
-1.1046721 8.9102068 -1.9688542
-1.0490673 8.9090633 -1.9671077
-0.99114108 8.8862362 -1.9605583
-0.93455553 8.8727398 -1.956192
-0.88009584 8.8783073 -1.956192
-0.82316816 8.8573046 -1.9502975
-0.7742793 8.9253836 -1.9644879
-0.72028208 8.9396944 -1.966671
-0.66787302 8.9770336 -1.9740937
-0.61171752 8.9653854 -1.9706007
-0.55579048 8.95436 -1.9673259
-0.50023925 8.9468832 -1.9649245
-0.44605836 8.9644041 -1.9681993
-0.39032477 8.9503984 -1.9644879
-0.33507112 8.9438477 -1.9625231
-0.28061235 8.9593916 -1.9655795
-0.22504672 8.9375305 -1.9603399
-0.16977844 8.9163017 -1.9553187
-0.11519048 8.9269342 -1.9575019
-0.060446069 8.9323521 -1.9585934
-0.0056488011 8.9559755 -1.963833
0.049271151 8.9499865 -1.9625231
0.10453089 8.9787903 -1.9690725
0.15932469 8.9613924 -1.9653611
0.21421394 8.9563437 -1.9644879
0.26834053 8.9275484 -1.9583751
0.32318473 8.9276848 -1.9588118
0.37779224 8.9216337 -1.9579384
0.43153197 8.8986788 -1.9533539
0.48842022 8.9377632 -1.9627414
0.54366755 8.9414167 -1.9642695
0.59682232 8.9125957 -1.9585934
0.65313768 8.9311514 -1.9636146
0.7096259 8.9483776 -1.9684175
0.76501817 8.9496889 -1.9697274
0.81857997 8.9302492 -1.9664527
0.87288368 8.9202023 -1.9653611
0.92274672 8.8680887 -1.9548821
0.97799951 8.8700199 -1.9566286
1.0320674 8.8609438 -1.9559736
1.0852281 8.844759 -1.9537905
1.13673 8.8166409 -1.9489876
1.1898905 8.8027306 -1.9474595
1.2494886 8.8348799 -1.9564103
1.298252 8.7903624 -1.9481144
1.3631626 8.8536034 -1.9642695
1.4122072 8.8123112 -1.956847
1.4723492 8.8400583 -1.9651428
1.5210733 8.7991257 -1.9579384
1.5734848 8.780982 -1.9559736
1.6305408 8.7884321 -1.9599034
1.677074 8.7399273 -1.9511708
1.7319988 8.7361727 -1.9526989
1.7853746 8.7244253 -1.9524807
1.8427042 8.7314472 -1.9566286
1.8923023 8.7018585 -1.9524807
1.9531271 8.7234135 -1.9601216
1.9897395 8.6380424 -1.9433115
2.0481043 8.6484613 -1.9485509
2.0988235 8.6262493 -1.9463679
2.157393 8.635931 -1.9516073
2.1926427 8.553525 -1.9356705
2.2622137 8.605031 -1.9507341
2.3073497 8.5627213 -1.9441848
2.3429587 8.4872599 -1.9299943
2.40588 8.5112247 -1.9389452
2.4553454 8.486928 -1.9367621
2.5159633 8.5007105 -1.9435297
2.5604393 8.4598942 -1.9376353
2.601624 8.4095316 -1.9295577
2.6728902 8.4557505 -1.9441848
2.7097254 8.3927593 -1.933269
2.7712579 8.406558 -1.9404734
2.8009942 8.3246536 -1.9251914
2.8678706 8.3534584 -1.9361072
2.9248803 8.3522825 -1.9400368
2.9724624 8.324069 -1.9376353
3.0014424 8.2451544 -1.9232266
3.072011 8.2805614 -1.9361072
3.0954938 8.1894445 -1.9188603
3.1716411 8.2376862 -1.9350156
3.1868494 8.12813 -1.9134026
3.234853 8.1038914 -1.912311
3.296643 8.1137238 -1.9195153
3.3277156 8.048254 -1.9085996
3.4160244 8.1203299 -1.9310859
3.4446635 8.0498743 -1.9190787
3.5048988 8.0536404 -1.9251914
3.5368681 7.9927192 -1.9155856
3.5950551 7.9913349 -1.9206069
3.639962 7.9602509 -1.9184238
3.6850343 7.9298024 -1.9164588
3.7402899 7.9211607 -1.9199519
3.7757347 7.8707871 -1.9131842
3.8231025 7.845717 -1.9127476
3.8612127 7.8019958 -1.9077264
3.9129572 7.7860041 -1.9096912
3.9713056 7.7827086 -1.9149307
4.0109029 7.7425985 -1.9110011
4.0487943 7.6997051 -1.9064165
4.1106696 7.7022653 -1.9134026
4.1308904 7.6271315 -1.9007403
4.1766715 7.5999308 -1.9003037
4.2208486 7.5698986 -1.8992121
4.2749062 7.557447 -1.9027052
4.3216829 7.5319209 -1.9029235
4.3604522 7.4926109 -1.8996488
4.3830256 7.426218 -1.889388
4.4716196 7.4711919 -1.908163
4.5006666 7.4160852 -1.9009587
4.5409708 7.3800192 -1.8987755
4.5897846 7.3578129 -1.9003037
4.6332798 7.3270378 -1.8996488
4.6655087 7.2787542 -1.8944092
4.7037015 7.240171 -1.8917894
4.7276406 7.1802034 -1.8834935
4.7819018 7.166482 -1.8876415
4.8219576 7.1313472 -1.8861133
4.8705888 7.108871 -1.8880781
4.920239 7.0876689 -1.8904796
4.9703741 7.0669236 -1.8930993
4.9915524 7.0053 -1.8845851
5.0304432 6.9690022 -1.8830569
5.069653 6.9332786 -1.881747
5.0975757 6.8824382 -1.8762892
5.1443954 6.857275 -1.8780357
5.2052708 6.8504424 -1.8850218
5.2513733 6.8237877 -1.8865499
5.2955441 6.7945161 -1.8874232
5.3081083 6.7251301 -1.8769442
5.3486638 6.6916714 -1.8767258
5.383482 6.6511421 -1.8745427
5.4111981 6.6021361 -1.8699582
5.4578395 6.5763183 -1.8721412
5.4830179 6.5247769 -1.8669018
5.5242152 6.4924974 -1.8673383
5.5684075 6.463654 -1.8688666
5.6092463 6.4308362 -1.8693032
5.6628132 6.4123878 -1.874106
5.7027025 6.3782482 -1.8743244
5.7240467 6.3236051 -1.8684299
5.7449355 6.2689409 -1.8625355
5.7872758 6.2378645 -1.8638453
5.8307872 6.2079268 -1.8655919
5.8620429 6.1649618 -1.8634087
5.8984065 6.127471 -1.862972
5.9195442 6.0743923 -1.8577325
5.9745264 6.056016 -1.8634087
6.0122628 6.0199337 -1.8636271
6.0331268 5.9671483 -1.8586059
6.0933633 5.9532013 -1.8660284
6.120647 5.9068923 -1.8631904
6.1475921 5.8604732 -1.8603523
6.1841459 5.8233109 -1.8605707
6.2404857 5.8045278 -1.8669018
6.2652035 5.7562256 -1.8636271
6.2852273 5.7039042 -1.8590424
6.3273749 5.6717443 -1.8612256
6.3978634 5.6645069 -1.871923
6.4288263 5.621932 -1.8708314
6.4676323 5.5862064 -1.8721412
6.5158949 5.5584483 -1.8762892
6.5207691 5.4938445 -1.867775
6.5551062 5.4543548 -1.8679932
6.5974984 5.421464 -1.8706131
6.6617112 5.4060888 -1.8795639
6.6604853 5.3376536 -1.8697398
6.7306118 5.326354 -1.8804371
6.7247157 5.2549167 -1.8695215
6.7877407 5.2373977 -1.8782541
6.7902479 5.1731811 -1.8699582
6.8249822 5.1337657 -1.8708314
6.872808 5.1040077 -1.8754159
6.9220996 5.0750098 -1.8804371
6.9586434 5.0364456 -1.8819654
6.9878268 4.9925189 -1.8815287
6.9864259 4.9270554 -1.8727962
7.0517707 4.9086213 -1.8824019
7.1332397 4.900619 -1.8963741
7.0953202 4.8107648 -1.8780357
7.1109157 4.7579141 -1.8743244
7.1587081 4.7265573 -1.8793455
7.190846 4.6846738 -1.8802189
7.2309489 4.6478491 -1.8832753
7.2494411 4.5971231 -1.8806555
7.2924051 4.5618687 -1.8845851
7.327734 4.5216489 -1.8865499
7.3278289 4.4598622 -1.8793455
7.3475251 4.4102964 -1.8773807
7.3946042 4.3770576 -1.8826203
7.4364939 4.3404555 -1.8865499
7.4494524 4.2869582 -1.8830569
7.4993844 4.2546487 -1.8891697
7.5253491 4.2085533 -1.8891697
7.5382104 4.1552343 -1.885895
7.5601339 4.1070399 -1.8850218
7.5903544 4.0633368 -1.8863317
7.6142807 4.016232 -1.8861133
7.6500387 3.9752841 -1.8889514
7.693399 3.9380496 -1.8937542
7.708703 3.8863776 -1.8915712
7.7210402 3.8333647 -1.888733
7.7514305 3.7893448 -1.8904796
7.7463946 3.7281728 -1.8834935
7.7382555 3.6659527 -1.8758526
7.8030605 3.6381915 -1.8863317
7.8287854 3.5918715 -1.8872049
7.8248816 3.5321274 -1.8808738
7.8553267 3.4880075 -1.8830569
7.8747921 3.4389615 -1.8826203
7.9011254 3.3928876 -1.8839302
7.9325838 3.3488965 -1.8865499
8.0016594 3.3203509 -1.8983389
7.9839268 3.2557197 -1.8891697
7.9774814 3.1961484 -1.8828386
8.0641451 3.1735759 -1.8989938
8.0743628 3.1205187 -1.8968107
8.0796709 3.0657253 -1.893536
8.0900984 3.0130274 -1.8915712
8.1029339 2.9613218 -1.8902613
8.1411629 2.9187903 -1.8950641
8.1423464 2.8629575 -1.8911345
8.1911297 2.8237526 -1.8985572
8.2212458 2.7778113 -1.9016136
8.2066355 2.7168908 -1.8941909
8.2398615 2.6719005 -1.8981205
8.2421484 2.6168637 -1.8948458
8.2655058 2.5685573 -1.8965924
8.3128567 2.5274403 -1.9040151
8.2758236 2.4608171 -1.8917894
8.3460579 2.4260552 -1.90467
8.3476439 2.371068 -1.9016136
8.3545122 2.3177171 -1.8998671
8.3874159 2.2715106 -1.9042333
8.4200659 2.2249875 -1.9085996
8.4231644 2.1706038 -1.9061981
8.4486294 2.121968 -1.9090363
8.4444265 2.0659163 -1.9051065
8.4550457 2.0136113 -1.90467
8.4662905 1.9614741 -1.9044516
8.4676943 1.9071318 -1.9020503
8.4801903 1.8553475 -1.9022685
8.5085974 1.8069259 -1.9061981
8.5176134 1.7542906 -1.9057615
8.5167322 1.6997041 -1.9031417
8.5193357 1.6459345 -1.9013953
8.5359898 1.5948836 -1.9029235
8.536972 1.5409187 -1.9009587
8.5904913 1.4962046 -1.9110011
8.552351 1.4355567 -1.9003037
8.6823883 1.4026476 -1.9278113
5.9318414 0.92135465 -1.3032161
5.8485804 0.87172204 -1.2831312
5.8229036 0.83141142 -1.2761452
5.8153253 0.79395342 -1.2733071
5.8007331 0.75573862 -1.2689408
5.7878284 0.71797282 -1.2650112
5.7775869 0.68073583 -1.2617365
5.7816548 0.64527243 -1.2617365
5.7758002 0.60876375 -1.2595534
5.760004 0.57138985 -1.2551872
5.7556281 0.53531492 -1.2534406
5.7519984 0.49939945 -1.2519124
5.7277179 0.46190551 -1.2457997
5.7226586 0.42617396 -1.2440531
5.7611899 0.39350566 -1.2521307
0 0 -0
0 0 -0
0 0 -0
0 0 -0
0 0 -0
0 0 -0
0 0 -0
0 0 -0
0 0 -0
0 0 -0
0 0 -0
0 -0 -0
0 -0 -0
0 -0 -0
0 -0 -0
0 -0 -0
0 -0 -0
0 -0 -0
0 -0 -0
0 -0 -0
0 -0 -0
0 -0 -0
0 -0 -0
0 -0 -0
0 -0 -0
0 -0 -0
0 -0 -0
0 -0 -0
8.6585627 -0.95465678 -1.9090363
8.5817823 -0.99951583 -1.8930993
8.3372126 -1.0228868 -1.8393942
8.06462 -1.0396726 -1.779358
7.9014244 -1.067939 -1.7439911
7.7410898 -1.094653 -1.7092793
7.6550655 -1.1304289 -1.6913776
7.5920448 -1.1687578 -1.6787155
7.6839776 -1.2312376 -1.7012017
7.7321086 -1.2876687 -1.713864
7.7202158 -1.3344223 -1.7129906
7.6945925 -1.378667 -1.709061
7.6792722 -1.4246073 -1.7075328
7.6540942 -1.4685711 -1.7038215
7.6401529 -1.5145586 -1.7027299
7.6144633 -1.558081 -1.6990186
7.5999856 -1.6037649 -1.697927
7.5823736 -1.6487074 -1.6961805
7.5654483 -1.6937076 -1.6946523
7.5358949 -1.7357129 -1.690286
7.4966154 -1.7751694 -1.6837367
7.3841262 -1.7964355 -1.6603771
7.2688217 -1.815679 -1.6363626
7.3615251 -1.8869147 -1.6603771
7.4102101 -1.9479363 -1.6743492
7.4273276 -2.0012429 -1.6811168
7.3960953 -2.0415821 -1.6767507
7.3824902 -2.0866599 -1.6765323
7.3564239 -2.1281199 -1.6734759
7.3301277 -2.1693389 -1.6704195
7.330689 -2.2185173 -1.6736943
7.2721906 -2.2496059 -1.6632152
7.2582502 -2.2941847 -1.6632152
7.2542515 -2.3419769 -1.6656166
7.2314038 -2.3836932 -1.6636518
7.2064681 -2.4245949 -1.6612504
7.1702275 -2.4614761 -1.6562291
7.1623569 -2.5080068 -1.6579757
7.1661325 -2.5588014 -1.6625602
7.1182032 -2.5910361 -1.6549193
7.110405 -2.6377196 -1.6568841
7.0940862 -2.6812987 -1.6568841
7.0620193 -2.7188139 -1.6531727
7.0406613 -2.7603126 -1.6520811
7.0172482 -2.8009281 -1.650553
6.9863691 -2.8384204 -1.6472783
6.9543929 -2.8752666 -1.6437852
6.9294238 -2.9148555 -1.6420387
6.9096136 -2.9565508 -1.6416022
6.8967113 -3.0012288 -1.642912
6.8460412 -3.0292692 -1.6350527
6.8353343 -3.0748231 -1.6370175
6.8012524 -3.1098051 -1.6333061
6.782043 -3.1514783 -1.6333061
6.7722845 -3.1976175 -1.6357076
6.7578158 -3.2416444 -1.6370175
6.7220082 -3.275352 -1.6330879
6.6991611 -3.3152368 -1.6324329
6.6813087 -3.3575947 -1.6330879
6.6501508 -3.3932033 -1.6304681
6.6370034 -3.4379847 -1.6324329
6.621829 -3.4818242 -1.6339612
6.5814009 -3.5122783 -1.6291583
6.5502877 -3.5474813 -1.6267568
6.5309629 -3.5890167 -1.6274117
6.5054092 -3.627121 -1.6265385
6.487278 -3.6693721 -1.62763
6.4731045 -3.7139659 -1.6298132
6.4426041 -3.7491956 -1.6278484
6.410234 -3.7831986 -1.6254469
6.3935986 -3.8264701 -1.6271935
6.384181 -3.8742373 -1.6309048
6.3112555 -3.8831575 -1.6180242
6.379209 -3.9791529 -1.6422571
6.3439517 -4.0114384 -1.639419
6.3060746 -4.0418611 -1.635926
6.4366269 -4.1815128 -1.6774056
6.3994389 -4.2134137 -1.6743492
6.3637252 -4.2460995 -1.6717294
6.3221931 -4.2746787 -1.6675814
6.2894053 -4.3089771 -1.6658349
6.2412052 -4.3324585 -1.6599405
6.2192931 -4.3740411 -1.6612504
6.2042575 -4.4206157 -1.664525
6.150907 -4.4397492 -1.6573207
6.0967684 -4.457819 -1.6498981
6.0583234 -4.487011 -1.6468416
6.0665827 -4.551044 -1.6568841
5.9958119 -4.5557036 -1.6448768
5.9747057 -4.597765 -1.6468416
5.9486909 -4.6361384 -1.6474966
5.9163022 -4.669528 -1.646405
5.8433309 -4.6703963 -1.6337428
5.8851004 -4.7632709 -1.6540459
5.8301039 -4.7782555 -1.6466234
5.8134398 -4.8245349 -1.6503347
5.7650518 -4.8444166 -1.6448768
5.7136674 -4.8613567 -1.6385458
5.6563783 -4.8727527 -1.6304681
5.6366677 -4.9163499 -1.6335245
5.6071267 -4.9514894 -1.6337428
5.5700927 -4.9799461 -1.631778
5.5611339 -5.0336795 -1.6383274
5.5236688 -5.0617723 -1.6363626
5.4746232 -5.0789742 -1.6309048
5.4419341 -5.1111336 -1.6304681
5.3913779 -5.1262698 -1.6245737
5.3556046 -5.1551929 -1.6232638
5.3301611 -5.194088 -1.6252286
5.3093042 -5.2376623 -1.6287216
5.2798285 -5.2729001 -1.6295949
5.2391415 -5.2968702 -1.6269751
5.2010865 -5.3233323 -1.6252286
2.2655537 -2.3465126 -0.68997329
2.2497666 -2.3589568 -0.68953663
2.2365878 -2.3741379 -0.68997329
2.2299528 -2.3963923 -0.69259304
5.0129018 -5.4559331 -1.617806
4.9760518 -5.4829755 -1.6167144
4.9390593 -5.5097709 -1.6156228
4.9122734 -5.5480108 -1.6180242
4.8607969 -5.5582104 -1.6121298
4.8119316 -5.5709429 -1.6071086
4.7960224 -5.6218967 -1.6134397
4.7582936 -5.6474867 -1.6123481
4.7010846 -5.6495681 -1.6044888
4.658278 -5.6685042 -1.6016507
4.6338611 -5.7098637 -1.6053621
4.6139932 -5.7572289 -1.6108199
4.5652599 -5.7685943 -1.606017
2.0227346 -2.5873392 -0.69499451
1.9937078 -2.5827022 -0.69019157
1.969545 -2.584018 -0.68713522
1.9489605 -2.5898147 -0.68538868
1.9295427 -2.5970232 -0.68407881
1.903187 -2.594646 -0.6801492
1.7482191 -2.4141541 -0.62709898
1.7322388 -2.4232473 -0.62666237
1.7893143 -2.5359209 -0.65460646
4.2001472 -6.0336785 -1.6049254
4.1658082 -6.0633588 -1.606017
4.1340013 -6.0968833 -1.6082002
4.0878325 -6.1091561 -1.6047071
4.0561838 -6.1430826 -1.6071086
4.0082955 -6.152318 -1.6029606
3.9720526 -6.1792598 -1.6036155
3.9288375 -6.1952734 -1.6014324
3.8969593 -6.2291923 -1.6040522
3.8668621 -6.2662754 -1.6075453
3.8161662 -6.2698755 -1.6023057
3.7625594 -6.2680693 -1.5957563
3.7289982 -6.2994366 -1.5979394
3.6794555 -6.3036551 -1.5931365
3.6373012 -6.3201919 -1.5916083
1.6683806 -2.9393198 -0.71638924
1.6469804 -2.9435391 -0.71486104
1.631714 -2.9587176 -0.71617091
3.4466367 -6.3440919 -1.5754532
3.4209983 -6.3900728 -1.5817842
3.3821805 -6.4118066 -1.5820025
3.3382759 -6.4237785 -1.5798193
3.3023539 -6.4510908 -1.5815659
3.2653439 -6.4764609 -1.5828757
3.2112267 -6.4675283 -1.5756714
3.1787663 -6.5020156 -1.5793828
3.1506572 -6.5460205 -1.5854956
3.117533 -6.5802231 -1.5892068
3.0931771 -6.6337242 -1.5977211
3.0385828 -6.6224198 -1.5902984
2.9926734 -6.6293759 -1.5874604
2.9578786 -6.6609931 -1.5907351
2.9169519 -6.6790171 -1.5907351
2.8736057 -6.6914086 -1.5894252
2.8298378 -6.702621 -1.5878969
2.7894058 -6.7216616 -1.5883336
2.7488468 -6.7404575 -1.5887703
2.7077992 -6.7581034 -1.5889885
2.6680675 -6.7791314 -1.5900801
2.6176295 -6.7726169 -1.5846223
2.5781007 -6.7940259 -1.5859321
2.5373862 -6.8124604 -1.5865871
2.4935288 -6.8224015 -1.5852772
2.4565589 -6.8513532 -1.5885519
