# .PCD v0.7 - Point Cloud Data file format
VERSION 0.7
FIELDS x y z
SIZE 4 4 4
TYPE F F F
COUNT 1 1 1
WIDTH 1677
HEIGHT 1
VIEWPOINT 0 0 0 1 0 0 0
POINTS 1677
DATA ascii
-0 -0 -0
-0 -0 -0
-0 -0 -0
-0 -0 -0
-0 -0 -0
-0 -0 -0
-0 -0 -0
-0 -0 -0
-0 -0 -0
-0 -0 -0
-0 0 -0
-0 0 -0
-0 0 -0
-0 0 -0
-0 0 -0
-0 0 -0
-0 0 -0
-0 0 -0
-0 0 -0
-0 0 -0
-0 0 -0
-0 0 -0
-0 -0 -0
-0 -0 -0
-0 -0 -0
-0 -0 -0
-0 -0 -0
-0 0 -0
-0 0 -0
-0 0 -0
-0 0 -0
-0 0 -0
-0 0 -0
-0 0 -0
-0 0 -0
-0 0 -0
-0 0 -0
-0 0 -0
-0 0 -0
-0 0 -0
-0 0 -0
-0 0 -0
-0 0 -0
-0 0 -0
-0 0 -0
-0 0 -0
-0 0 -0
-0 0 -0
-0 0 -0
-0 0 -0
-0 0 -0
-0 0 -0
-0 0 -0
-0 0 -0
-0 0 -0
-0 0 -0
-0 0 -0
-0 0 -0
-0 0 -0
-0 0 -0
-0 0 -0
-0 0 -0
-0 0 -0
-0 0 -0
-0 0 -0
-0 0 -0
-0 0 -0
-46.908768 12.018633 -1.8319353
-46.641815 12.2557 -1.8242614
-44.196007 11.903434 -1.7295526
-43.723347 12.064359 -1.7135879
-43.455212 12.277804 -1.7058369
-42.246346 12.216665 -1.6603335
-41.992363 12.42293 -1.6531609
-41.809181 12.648239 -1.6488805
-41.73365 12.905423 -1.6489962
-41.636524 13.155834 -1.6483021
-41.528393 13.402471 -1.6472223
-41.483337 13.66954 -1.6487648
-41.476345 13.949941 -1.6519269
-41.508114 14.244716 -1.6567472
-0 0 -0
-0 0 -0
-0 0 -0
-0 0 -0
-0 0 -0
-0 0 -0
-0 0 -0
-0 0 -0
-43.880413 17.822601 -1.7909437
-43.601231 18.021662 -1.7838868
-43.418903 18.259027 -1.7809175
-0 0 -0
-0 0 -0
-0 0 -0
-0 0 -0
-0 0 -0
-0 0 -0
-44.235867 20.88113 -1.8509465
-43.48521 20.854025 -1.8243386
-42.967453 20.930969 -1.8076411
-42.619678 21.086102 -1.798232
-41.849285 21.02557 -1.7705828
-41.532558 21.186604 -1.7624848
-41.323692 21.400606 -1.7590913
-40.730782 21.411518 -1.7390004
-40.21513 21.456423 -1.7222258
-40.029118 21.673752 -1.7198735
-39.737732 21.83235 -1.7129323
-39.376965 21.949757 -1.7029448
-39.005821 22.057659 -1.6924944
-38.734528 22.219017 -1.6864786
-38.418674 22.352251 -1.6784962
-38.119865 22.492605 -1.6712852
-37.013897 22.147343 -1.627787
-36.988369 22.44142 -1.6328001
-37.258511 22.919258 -1.65131
-37.103615 23.138981 -1.6506929
-36.858738 23.3016 -1.6460268
-36.556896 23.425966 -1.6387771
-36.383976 23.631329 -1.6374661
-36.186543 23.820068 -1.6350752
-36.026405 24.032784 -1.6344582
-35.740837 24.16049 -1.6280569
-35.624897 24.401924 -1.6295993
-33.064255 22.947329 -1.5163808
-0 0 -0
-33.869946 24.127649 -1.5680156
-33.513016 24.184738 -1.558105
-33.277672 24.326817 -1.5539789
-33.135811 24.536493 -1.5543646
-32.90789 24.681791 -1.5506625
-33.058197 25.112938 -1.5653162
-34.208672 26.319471 -1.6288667
-34.141911 26.603191 -1.6335328
-34.162376 26.957647 -1.6425948
-34.177433 27.311478 -1.6515412
-34.095432 27.590443 -1.6558217
-33.865986 27.750362 -1.6528524
-33.445141 27.750269 -1.6403197
-33.131168 27.834764 -1.6331085
-32.901146 27.987675 -1.6301392
-32.785583 28.237934 -1.6330314
-32.966427 28.747896 -1.6511942
-32.898777 29.04619 -1.6568244
-32.798904 29.318096 -1.6609119
-32.644329 29.542263 -1.6622616
-32.538334 29.811535 -1.6662335
-32.510853 30.155367 -1.6744473
-32.474541 30.494507 -1.6823525
-32.346931 30.750336 -1.6855532
-32.398121 31.179665 -1.6984329
-0 0 -0
-26.522882 26.159958 -1.4008484
-26.279137 26.239599 -1.3963366
-25.989031 26.270353 -1.3892797
-25.7617 26.362146 -1.3856548
-25.411385 26.324888 -1.3752044
-25.128702 26.353758 -1.3684561
-24.767153 26.295774 -1.3572345
-24.497116 26.330927 -1.3511031
-24.203241 26.337271 -1.3435835
-23.948498 26.383179 -1.3382618
-23.656084 26.384548 -1.3307422
-23.382448 26.403526 -1.3242638
-23.099604 26.408861 -1.3172069
-22.828033 26.423824 -1.3107671
-22.494236 26.36272 -1.3005866
-22.248985 26.401676 -1.2956121
-22.004108 26.43862 -1.2906375
-21.738045 26.447308 -1.2843519
-21.524347 26.517349 -1.2812283
-21.271235 26.536648 -1.2756754
-21.01622 26.550709 -1.2699682
-20.691685 26.472891 -1.2598649
-20.449492 26.496517 -1.2548518
-20.193859 26.499893 -1.2489518
-19.947371 26.512312 -1.2435917
-19.727711 26.558002 -1.2399282
-19.460968 26.537537 -1.2331798
-19.229212 26.561747 -1.2286681
-19.009512 26.600374 -1.2249275
-18.74456 26.572803 -1.2181406
-18.522921 26.603672 -1.2142072
-18.299345 26.62953 -1.2101196
-18.058765 26.628012 -1.2048366
-17.822229 26.629532 -1.199785
-17.618298 26.677517 -1.1969699
-17.450459 26.779257 -1.1967
-17.350664 26.986689 -1.2013274
-22.677425 35.751888 -1.5970529
-22.399323 35.797184 -1.592811
-12.251212 19.84927 -0.86336821
-21.770247 35.760387 -1.5788515
-21.539099 35.874447 -1.5780032
-21.322136 36.011951 -1.5782731
-21.075579 36.098953 -1.576345
-21.373638 37.130852 -1.6165653
-9.6357059 16.979965 -0.71663898
-0 0 -0
-20.844816 37.804996 -1.6292138
-20.568563 37.85141 -1.625666
-17.156067 32.038723 -1.3657181
-11.065064 20.972368 -0.87829179
-10.701126 20.587687 -0.85862505
-11.093785 21.66692 -0.90258598
-16.808289 33.32983 -1.4037405
-16.555462 33.335682 -1.3995758
-16.337875 33.410603 -1.3984575
-10.601624 22.021784 -0.90640366
-15.829506 33.403599 -1.3897039
-9.3054724 19.952335 -0.81281316
-15.38714 33.527222 -1.3868117
-10.572441 23.414631 -0.95464498
-9.7921276 22.046219 -0.89414084
-14.664599 33.569435 -1.3769011
-14.454401 33.649605 -1.3765156
-9.8989983 23.44059 -0.94515866
-12.287298 29.601257 -1.2000549
-11.136943 27.301945 -1.1011043
-11.984459 29.902855 -1.2064177
-11.72132 29.774061 -1.1980497
-11.530842 29.82585 -1.1972399
-11.349035 29.899776 -1.1973941
-11.169546 29.980087 -1.1978569
-10.942492 29.930744 -1.1930366
-10.808563 30.13653 -1.1987438
-10.626098 30.209824 -1.1990523
-10.435321 30.259342 -1.1984353
-10.271856 30.389067 -1.2011347
-10.10185 30.501797 -1.2031784
-10.166424 31.339758 -1.2346838
-10.215639 32.162487 -1.2654949
-10.279756 33.066174 -1.2995069
-10.398005 34.185013 -1.3421181
-10.293476 34.602547 -1.3563861
-7.2868848 25.057549 -0.97026265
-7.0251021 24.722115 -0.95503062
-6.8468204 24.669432 -0.95121294
-6.6780744 24.647324 -0.94866782
-6.4937673 24.563213 -0.94369328
-6.3065038 24.461325 -0.9380632
-6.1421676 24.443352 -0.9358266
-5.979003 24.427197 -0.93370569
-5.8248386 24.445925 -0.93301159
-5.6681876 24.452976 -0.93189329
-5.5197978 24.495094 -0.93220174
-5.3593512 24.482622 -0.93038934
-5.2169204 24.552189 -0.93185472
-5.0657692 24.581779 -0.9317776
-4.9213009 24.644737 -0.93305016
-4.7891483 24.77356 -0.9369449
-4.6550484 24.898737 -0.94072402
-4.5188818 25.019266 -0.94434887
-2.5960534 14.896229 -0.54673392
-2.4748054 14.734497 -0.53979272
-2.3696761 14.658651 -0.53624499
-2.2704813 14.613671 -0.53393126
-2.1713388 14.564075 -0.53146327
-2.098609 14.693851 -0.5360136
-1.9031956 13.936182 -0.5060122
-1.8199738 13.965433 -0.5067063
-1.8110492 14.595126 -0.53076911
-1.7165475 14.564283 -0.52914953
-1.6267068 14.570569 -0.52899528
-1.5395786 14.602139 -0.52984363
-1.4626853 14.739584 -0.53481817
-1.3827739 14.861707 -0.53921425
-1.2977856 14.941587 -0.54199076
-2.1934347 27.183355 -1.0156504
-2.0138249 27.024906 -1.0090177
-1.8495328 27.059683 -1.0099046
-1.2591941 20.249792 -0.74617767
-1.129552 20.16136 -0.74247569
-0.72025871 14.444295 -0.52132142
-0.632752 14.474399 -0.52232403
-0.99612421 26.505552 -0.98680586
-0.4769772 15.177211 -0.54920185
-0.37873489 14.978066 -0.54141229
-0.28691986 14.985104 -0.54160511
-0.19358689 14.880671 -0.53751755
-0.10196003 14.835613 -0.53574365
-0.010959024 14.87593 -0.53728616
0.079958491 14.808767 -0.53470248
0.17109786 14.831979 -0.53562796
0.26284242 14.872612 -0.5372476
0.35666022 14.978608 -0.54141229
0.45038375 15.037066 -0.54376459
0.54325324 15.050995 -0.54442018
1.0979561 26.000463 -0.9674862
1.2537062 25.915386 -0.96447831
1.4042656 25.75255 -0.95850122
1.5562025 25.643707 -0.95464498
1.7103883 25.586815 -0.95283258
1.8675721 25.578829 -0.95294821
2.023145 25.549953 -0.95229268
2.1827676 25.570911 -0.9536038
2.3342528 25.498325 -0.95132864
2.4868736 25.444736 -0.94982469
2.6368589 25.370358 -0.94754952
2.7948852 25.375553 -0.94839787
2.9500723 25.353956 -0.94824368
3.1033974 25.317524 -0.94754952
3.2563868 25.280167 -0.94685543
3.4115756 25.2607 -0.94689399
2.2532442 15.944596 -0.58464056
2.3430133 15.876101 -0.58251965
2.2308724 14.499471 -0.52934235
2.3248529 14.517084 -0.53057635
4.2251902 25.386644 -0.95638025
4.3672738 25.281467 -0.95329529
4.5527844 25.42436 -0.95996654
4.6928525 25.310467 -0.95661163
4.8584161 25.335173 -0.95873255
5.0077581 25.274498 -0.95753711
5.172956 25.293224 -0.95950383
5.3490882 25.360737 -0.96343714
5.5075693 25.341108 -0.96397704
5.6743016 25.357546 -0.96598226
5.8365111 25.351465 -0.96713912
6.0016208 25.356016 -0.96875876
6.1722002 25.380856 -0.97122675
6.3362899 25.376438 -0.97257638
6.4985738 25.363216 -0.97361761
4.2167783 16.046864 -0.60349745
6.8225832 25.330769 -0.97558427
4.4232144 16.029551 -0.60492426
4.510076 15.96172 -0.60330468
4.2220945 14.599446 -0.54970318
4.3130131 14.578056 -0.549896
4.4211879 14.613486 -0.55240256
7.9973993 25.86153 -1.0078608
8.1577387 25.81769 -1.0080922
8.3206024 25.781414 -1.0086707
8.5133505 25.83522 -1.012951
8.7156706 25.913198 -1.0182726
8.9053202 25.949022 -1.0219361
9.0772476 25.930676 -1.02344
9.2455902 25.900841 -1.0245197
9.4552526 25.983538 -1.0302655
9.6575899 26.041208 -1.0350472
9.8380318 26.036612 -1.0373224
10.034931 26.072742 -1.0413328
10.246499 26.14279 -1.0468087
10.449674 26.187086 -1.0512819
10.635351 26.184504 -1.0538656
10.810702 26.15477 -1.0553695
10.99461 26.144133 -1.0577217
6.2985497 14.723425 -0.58120853
6.3748202 14.65243 -0.57985884
11.661948 26.362263 -1.0756532
11.853403 26.356739 -1.0784682
12.038581 26.335314 -1.0806663
12.213416 26.289949 -1.0819002
12.405637 26.280481 -1.0847154
12.630174 26.336315 -1.090384
12.87424 26.428108 -1.0976722
13.066288 26.409519 -1.1002945
13.242443 26.357422 -1.1015284
13.386665 26.241846 -1.1000631
8.2772102 15.98242 -0.65779305
8.37605 15.9331 -0.65787017
14.015592 26.268707 -1.1122102
14.293075 26.397503 -1.121658
14.467769 26.332951 -1.1226991
8.2702398 14.83596 -0.61869097
8.3606243 14.784065 -0.6186524
8.456152 14.741156 -0.61903805
12.070004 20.745356 -0.88943624
15.889751 26.929295 -1.1698607
16.218868 27.105684 -1.1822006
16.327347 26.910828 -1.1779202
16.655508 27.075689 -1.1899517
16.746773 26.85343 -1.1845143
17.271646 27.320295 -1.2105439
10.12731 15.803538 -0.68756306
17.692148 27.239532 -1.2166752
10.173239 15.454381 -0.67722839
10.306135 15.449026 -0.6798892
18.917479 27.98465 -1.2667675
10.510754 15.344475 -0.68096894
20.517431 29.563002 -1.3519129
20.286915 28.851284 -1.3243023
20.398628 28.635109 -1.3199834
20.903156 28.965605 -1.3416939
21.059853 28.808567 -1.3403442
21.201735 28.632225 -1.3381076
21.679796 28.905293 -1.3575815
21.877298 28.798777 -1.3588927
22.256498 28.927729 -1.3717339
0 0 -0
0 0 -0
0 0 -0
12.010535 14.841896 -0.7000187
0 0 -0
0 0 -0
24.299536 28.923178 -1.4210163
24.419573 28.706556 -1.4176229
18.049381 20.955971 -1.0305355
24.87443 28.524475 -1.4237543
18.32238 20.752375 -1.031538
25.311831 28.316912 -1.4289216
25.5079 28.18626 -1.4302328
25.709394 28.060898 -1.431891
25.890602 27.912876 -1.4324307
26.073698 27.7666 -1.4331249
26.26561 27.629269 -1.434359
26.450583 27.484144 -1.4352459
26.634762 27.337791 -1.4361328
26.820948 27.193058 -1.437174
16.056368 16.080341 -0.84015375
27.396996 27.10363 -1.4504393
16.300373 15.928887 -0.84273744
16.30578 15.739738 -0.83780146
0 0 -0
28.578356 26.917089 -1.4782428
28.756145 26.753483 -1.4789368
28.927855 26.583971 -1.4793611
29.083027 26.399258 -1.4789754
23.764198 21.306656 -1.1949261
29.399561 26.035738 -1.4787054
29.58057 25.873934 -1.4798237
29.796997 25.742247 -1.4827931
30.007597 25.604334 -1.4854923
30.268055 25.507303 -1.4907368
30.589125 25.458538 -1.4990277
30.893747 25.392828 -1.5064702
31.158365 25.291586 -1.5119075
31.374559 25.1493 -1.514954
31.572157 24.991047 -1.5171134
0 0 -0
0 0 -0
32.648331 24.879305 -1.5472691
32.928131 24.774635 -1.553439
33.15974 24.631712 -1.5572952
33.481888 24.553654 -1.565509
29.791281 21.567272 -1.3825313
23.160624 16.551289 -1.0617708
22.77264 16.063841 -1.0386721
35.217541 24.520521 -1.6192647
35.462864 24.369617 -1.6237379
35.726677 24.229525 -1.6290981
36.361305 24.335548 -1.6516955
36.680874 24.224871 -1.6596007
37.036446 24.134644 -1.6691642
0 0 -0
0 0 -0
35.376183 22.135885 -1.5736456
35.405899 21.853323 -1.5688639
35.482136 21.600851 -1.5662802
26.407074 15.854745 -1.1518521
26.460009 15.666451 -1.1498854
26.458988 15.447372 -1.1455665
26.504776 15.256816 -1.143407
28.777502 16.330832 -1.240121
28.862339 16.145657 -1.2394655
28.469961 15.697577 -1.2178321
38.401913 20.867714 -1.6498445
29.302629 15.690907 -1.2459439
0 0 -0
0 0 -0
0 0 -0
0 0 -0
34.266438 17.017715 -1.4396805
36.43755 17.818102 -1.5284892
36.504776 17.574249 -1.5267154
34.807751 16.494932 -1.449668
36.667885 17.101727 -1.5245944
36.84478 16.90976 -1.5276794
36.746578 16.592484 -1.5191572
36.768246 16.331408 -1.5158023
37.007862 16.166698 -1.5217023
0 0 -0
36.719265 15.50685 -1.5014186
37.093361 15.397333 -1.5131029
37.482288 15.289845 -1.5254043
38.346176 15.368493 -1.5574495
39.280289 15.463826 -1.5923097
39.940174 15.441242 -1.6157169
40.880569 15.517163 -1.6506543
41.612682 15.503616 -1.6769152
0 0 -0
43.169296 15.482989 -1.7330618
43.99403 15.474791 -1.7629476
0 0 -0
0 0 -0
0 0 -0
0 0 -0
0 0 -0
0 0 -0
0 0 -0
0 0 -0
0 0 -0
0 0 -0
0 0 -0
0 0 -0
0 0 -0
0 0 -0
0 0 -0
0 0 -0
0 0 -0
0 0 -0
0 0 -0
0 0 -0
0 0 -0
0 0 -0
0 0 -0
0 0 -0
0 0 -0
0 0 -0
0 0 -0
0 0 -0
0 0 -0
0 0 -0
0 0 -0
0 0 -0
0 0 -0
0 0 -0
0 0 -0
0 0 -0
0 0 -0
0 0 -0
0 0 -0
0 0 -0
0 0 -0
0 0 -0
0 0 -0
0 0 -0
0 0 -0
0 0 -0
0 0 -0
0 0 -0
0 0 -0
0 0 -0
0 0 -0
0 0 -0
0 0 -0
0 0 -0
36.870552 0.027753714 -1.386079
30.570808 -0.16463837 -1.1429828
28.638786 -0.32999727 -1.0684806
28.276546 -0.49936852 -1.0545982
28.232992 -0.67191035 -1.0530558
28.099491 -0.84127635 -1.0480812
27.924036 -1.0075527 -1.0415256
27.37921 -1.1561569 -1.0207406
27.375591 -1.3243239 -1.0208949
27.960627 -1.5246358 -1.0438393
27.394184 -1.6624037 -1.0223217
25.649628 -1.7145861 -0.95526195
20.16926 -1.4726912 -0.74363256
27.367908 -2.1670692 -1.0226687
27.406864 -2.3394582 -1.0247126
19.997431 -1.8307583 -0.73815674
19.945047 -1.9494412 -0.73657566
19.956564 -2.0742638 -0.73750114
0 -0 -0
10.591586 -1.2326237 -0.37470785
10.575889 -1.2966168 -0.37439936
10.577644 -1.3627613 -0.37478498
10.574035 -1.4283074 -0.3749778
10.572988 -1.49428 -0.37528628
10.571527 -1.5602934 -0.37559479
13.903925 -2.1392589 -0.50608933
13.996113 -2.241436 -0.51021546
13.827341 -2.3015184 -0.50416118
13.829699 -2.3892095 -0.50481677
36.163445 -6.4756799 -1.3809888
36.089622 -6.6912594 -1.3796777
36.009613 -6.9052362 -1.3781737
35.877369 -7.1083851 -1.3746645
30.870554 -6.3135386 -1.1791928
0 -0 -0
30.575932 -6.6452069 -1.170709
0 -0 -0
0 -0 -0
34.795029 -8.2356272 -1.3430822
34.717625 -8.4425955 -1.342041
0 -0 -0
34.536873 -8.8489017 -1.3390716
24.756525 -6.5052695 -0.95102012
34.218231 -9.2161856 -1.3307807
24.273149 -6.6977506 -0.93493968
24.428728 -6.902257 -0.94284493
7.910665 -2.2879198 -0.28100169
8.0124207 -2.3707149 -0.28566772
8.0015497 -2.4209909 -0.28582194
8.0161381 -2.4791932 -0.28701738
8.1570387 -2.5777054 -0.29334158
31.727777 -10.239614 -1.2498002
31.624491 -10.420965 -1.2481805
31.587421 -10.624051 -1.2492988
30.751339 -10.553326 -1.2178706
30.733164 -10.758321 -1.2197988
30.67128 -10.948373 -1.2199916
30.609158 -11.138412 -1.2202229
18.759563 -6.957253 -0.73534167
18.272512 -6.9044652 -0.71702462
30.060427 -11.569654 -1.2062248
18.48505 -7.2452235 -0.72940308
18.741879 -7.4788671 -0.74193579
29.77479 -12.093557 -1.2034098
29.685249 -12.269917 -1.2027928
29.582691 -12.440598 -1.2016745
29.49202 -12.615986 -1.2010961
29.376486 -12.780364 -1.199515
29.19425 -12.914695 -1.1951575
28.913961 -13.003419 -1.1866738
28.690039 -13.114949 -1.180581
28.570965 -13.27306 -1.1789614
28.441092 -13.425511 -1.1769176
28.25276 -13.549215 -1.1724058
28.131361 -13.703937 -1.1707861
28.03779 -13.871859 -1.1704005
27.957504 -14.046326 -1.1706319
27.932209 -14.248936 -1.1732928
27.958719 -14.479335 -1.1782672
27.848122 -14.639455 -1.1773417
27.698704 -14.778537 -1.1747581
27.553022 -14.918716 -1.1723672
12.90277 -7.0892329 -0.53134757
12.855537 -7.1663232 -0.53119332
26.282158 -14.862621 -1.1284063
12.549066 -7.1987448 -0.52151418
12.606577 -7.3349047 -0.52606452
12.649117 -7.4639139 -0.52999789
25.155769 -15.052156 -1.0945101
12.489079 -7.5776291 -0.52695149
24.856813 -15.290614 -1.08942
24.70402 -15.406361 -1.0867591
24.595509 -15.549109 -1.0861421
21.899054 -14.033288 -0.9669463
23.653658 -15.363176 -1.0516675
23.439589 -15.429458 -1.0461531
23.351955 -15.57798 -1.0465002
24.564774 -16.605719 -1.1074671
23.275274 -15.942991 -1.0519375
23.270597 -16.150455 -1.0563335
23.270786 -16.363056 -1.0610381
21.483599 -15.304272 -0.98113722
21.299347 -15.370898 -0.97685683
21.17317 -15.4783 -0.97535288
21.123573 -15.64182 -0.97755092
19.015108 -14.262046 -0.88048983
20.378609 -15.480975 -0.9508273
20.241261 -15.57343 -0.94878352
20.112217 -15.671539 -0.94716388
20.005482 -15.786604 -0.9466626
19.925415 -15.922782 -0.94751096
20.705112 -16.755033 -0.99108624
20.573318 -16.85833 -0.98965949
20.456417 -16.9734 -0.9890039
20.364126 -17.108883 -0.98962092
20.18874 -17.173948 -0.9860732
19.990612 -17.217943 -0.9813686
19.828104 -17.291023 -0.97847641
19.626501 -17.328369 -0.97357905
18.331512 -16.386303 -0.9120723
18.263964 -16.528646 -0.91380757
19.070656 -17.47271 -0.96135479
19.086168 -17.703558 -0.96783328
19.208828 -18.037853 -0.98009604
18.964529 -18.028698 -0.97300059
18.58427 -17.885574 -0.95857835
18.909342 -18.423235 -0.98202413
18.755392 -18.498917 -0.97982609
18.475357 -18.447729 -0.97076398
18.085627 -18.28157 -0.95560902
17.99197 -18.411493 -0.9566502
17.875189 -18.51795 -0.95645738
17.861217 -18.732141 -0.96204895
17.671949 -18.762825 -0.95788419
17.602095 -18.919922 -0.96046788
17.470797 -19.011383 -0.95961952
17.365234 -19.130802 -0.96027505
6.8331933 -7.6217513 -0.3582418
6.6498246 -7.5094323 -0.35029799
6.6812539 -7.638844 -0.35484833
6.6133523 -7.655499 -0.35361433
16.137831 -18.913338 -0.92267692
16.192122 -19.214489 -0.9328959
6.5103126 -7.822783 -0.35596663
16.203838 -19.71435 -0.94801229
16.088865 -19.821161 -0.94839787
15.931318 -19.875067 -0.94619983
16.640749 -21.023117 -0.99791175
2.0187354 -2.5833514 -0.089733109
1.9906356 -2.5798686 -0.088961862
1.97174 -2.5880604 -0.088769048
1.9516175 -2.5945206 -0.088499114
1.945195 -2.6192811 -0.089116111
1.9332232 -2.6368079 -0.089386046
1.9158357 -2.6470015 -0.089308925
0 -0 -0
14.27535 -20.237291 -0.91893637
10.14889 -14.57673 -0.64865381
10.06322 -14.644493 -0.64892375
13.873507 -20.45693 -0.91708541
13.85388 -20.700283 -0.92445076
13.460073 -20.381329 -0.90578663
13.358767 -20.50037 -0.9074834
13.671541 -21.264452 -0.93879592
13.808966 -21.770691 -0.95811558
13.548439 -21.652557 -0.94889921
12.904124 -20.907068 -0.91133964
12.647251 -20.775032 -0.90181476
12.719117 -21.184643 -0.9167769
12.580746 -21.248529 -0.91615987
12.22341 -20.936998 -0.89880687
12.327521 -21.416037 -0.91681546
12.108587 -21.33745 -0.90998995
11.951091 -21.364254 -0.90790755
11.951498 -21.676069 -0.91843504
11.872185 -21.848209 -0.92279261
11.732243 -21.910072 -0.92232984
11.675923 -22.130123 -0.92880827
11.612273 -22.340549 -0.93486255
11.426701 -22.317101 -0.93077499
10.722603 -21.2626 -0.88218659
10.159906 -20.45809 -0.84470409
11.204056 -22.912338 -0.94747239
7.6168227 -15.82199 -0.64086425
7.5153184 -15.859398 -0.64047861
6.9021416 -14.799476 -0.59339416
10.422058 -22.709057 -0.92745864
9.8026133 -21.709774 -0.88245654
9.6436644 -21.711981 -0.88002712
9.4934597 -21.732286 -0.87840748
9.3508635 -21.769011 -0.87752056
9.8072519 -23.223345 -0.93605798
9.0470085 -21.795368 -0.8738957
8.9444313 -21.927263 -0.87709635
8.7855558 -21.921444 -0.8745898
8.6391697 -21.945185 -0.87335581
8.4737244 -21.918558 -0.87007803
8.3461676 -21.988823 -0.87084931
8.2187653 -22.060221 -0.87169766
8.086339 -22.118681 -0.87204474
7.9309025 -22.113329 -0.86980814
8.4207602 -23.940334 -0.94257498
8.2580681 -23.946209 -0.94072402
8.1164217 -24.012522 -0.94137955
7.327704 -22.125814 -0.86267412
7.5957384 -23.415504 -0.9131906
7.4377027 -23.416908 -0.91137815
6.7803621 -21.810377 -0.84462696
7.3012872 -24.004498 -0.93146908
6.8196411 -22.925377 -0.88623559
6.3361778 -21.788521 -0.83888119
7.099946 -24.985483 -0.96559662
4.1005626 -14.77513 -0.55494761
4.0059071 -14.785545 -0.55436921
3.9128103 -14.801152 -0.55402213
3.8279061 -14.848104 -0.55494761
5.6195321 -22.363611 -0.85307211
5.8157797 -23.760393 -0.90721345
5.6715007 -23.802435 -0.9074834
0.56511551 -2.4395442 -0.059847392
0.54947704 -2.4400413 -0.059731703
0.52701551 -2.4092021 -0.058382027
0.51118445 -2.4075031 -0.058189217
0.49720949 -2.4145093 -0.058343466
0.4821893 -2.4165347 -0.058304902
0.46621457 -2.4135613 -0.058073528
0.44533589 -2.3839629 -0.056800976
0.4520146 -2.5046515 -0.061428443
4.0826783 -23.425192 -0.8808369
0.47637045 -2.8381641 -0.07426966
0.43964815 -2.7216737 -0.069603629
3.9785483 -25.605471 -0.96320581
3.248363 -21.786779 -0.81327593
3.1191425 -21.837955 -0.81450987
0.38624617 -2.8306499 -0.073459849
0.36887038 -2.8329666 -0.073459849
0.35578835 -2.8698843 -0.074809529
0.33571559 -2.8511732 -0.073999725
0.21884969 -1.9633768 -0.039447982
0.20637931 -1.9607077 -0.039293732
0.19483827 -1.9669089 -0.039486542
0.18156207 -1.955133 -0.038985234
0.16982166 -1.9591967 -0.039100919
0.15675206 -1.9472536 -0.03859961
0.14442964 -1.9431963 -0.0384068
0.13236739 -1.942052 -0.038329676
0.12026258 -1.9398357 -0.038213991
0.10779855 -1.9305602 -0.037828367
0.095851235 -1.9291893 -0.037751243
0.085540548 -1.9646816 -0.039100919
0.074272268 -1.9861391 -0.039910726
0.060450587 -1.9346218 -0.037905492
0.047946692 -1.9099829 -0.036941435
0.03657116 -1.9282244 -0.037635557
0.024309272 -1.8954399 -0.036363002
0.012664825 -1.8935549 -0.036285877
0.0010444258 -1.8915985 -0.036208756
-0.010546119 -1.8885715 -0.036093067
-0.022133978 -1.8884712 -0.036093067
-0.033721004 -1.8882999 -0.036093067
-0.045235477 -1.8850605 -0.035977382
-0.05680114 -1.8847475 -0.035977382
-0.068256609 -1.8813677 -0.035861693
-0.12489326 -2.9491663 -0.077123262
-0.14530356 -2.9962525 -0.078974247
-0.15623374 -2.8586094 -0.073691227
-0.24693176 -4.0634804 -0.12031294
-0.19170131 -2.8624592 -0.073922597
-0.20540573 -2.808409 -0.071878798
-0.29234844 -3.6876831 -0.1059678
-0.31896389 -3.7326148 -0.10778022
-0.3474167 -3.7912884 -0.11013252
-0.28204048 -2.8820839 -0.074963778
-0.40104216 -3.8553188 -0.11279331
-0.4253467 -3.8587451 -0.11302468
-0.47118655 -4.0466342 -0.12042863
-0.30175078 -2.4587157 -0.058806211
-0.48864275 -3.7907979 -0.11071095
-0.51764363 -3.8303096 -0.11236913
-0.56350392 -3.9853702 -0.11853908
-0.45447919 -3.077312 -0.083254658
-0.59702325 -3.8784034 -0.1146443
-0.62270528 -3.8865073 -0.11510704
-0.52105176 -3.1285529 -0.085606948
-0 -0 -0
-5.0367665 -28.127329 -1.0659355
-0.78565854 -4.2355499 -0.12945218
-0.83214402 -4.3376198 -0.13365547
-0.51889908 -2.6170745 -0.066171594
-0.87730235 -4.2879214 -0.13211298
-0.45962417 -2.1773677 -0.049088534
-0.46703383 -2.1471653 -0.048008792
-0.47779965 -2.1335328 -0.047584608
-0.49267516 -2.1383512 -0.047893103
-0.50417554 -2.1284811 -0.047623169
-0.51321238 -2.1088412 -0.046967611
-0.52420586 -2.0978966 -0.046659116
-0.54872459 -2.140136 -0.048471536
-0.75356925 -2.8663998 -0.07758601
-0.67291456 -2.4969993 -0.063009493
-0.62709403 -2.2712729 -0.054140184
-0.61086154 -2.1606433 -0.049859777
-0.6107837 -2.1107779 -0.048008792
-0.62060559 -2.0964501 -0.047584608
-0.6392442 -2.1117318 -0.048355851
-0.56362903 -1.8213727 -0.036787186
-0.652466 -2.0637095 -0.04673624
-0.78388464 -2.4276893 -0.061659817
-0.59424454 -1.802148 -0.036440127
-0.60019445 -1.7833139 -0.035823133
-0.60820621 -1.7710912 -0.035476074
-1.168745 -3.3376608 -0.09968216
-0.73134255 -2.0477066 -0.04712186
-0.74457663 -2.0450587 -0.047198985
-0.64245427 -1.7312721 -0.034473456
-0.64317584 -1.7011242 -0.033393715
-0.65934426 -1.7120669 -0.034010708
-1.197093 -3.0532799 -0.089771666
-1.1943257 -2.9920475 -0.087535061
-1.3198279 -3.2485185 -0.098525293
-1.4130207 -3.4176679 -0.10592923
-1.2112366 -2.8792868 -0.083755963
-1.5908315 -3.7179515 -0.11927176
-1.6255734 -3.7356093 -0.12042863
-1.2684764 -2.8665564 -0.084180146
-1.279074 -2.8432264 -0.083524592
-1.7713275 -3.8740935 -0.12760119
-1.9099967 -4.1105561 -0.13812868
-1.5150336 -3.2086711 -0.1001449
-1.8924586 -3.9453499 -0.13207442
-0.9149552 -1.8773624 -0.04380551
-0.91139162 -1.8412613 -0.042494394
-0.9231208 -1.8365273 -0.042532958
-0.94935632 -1.860203 -0.04380551
-0.9575358 -1.8481315 -0.043535575
-0.96699786 -1.8386834 -0.043381326
-1.4467531 -2.7108135 -0.081789292
-0.98140037 -1.8117402 -0.042725768
-0.99682891 -1.8135663 -0.043072827
-1.0064784 -1.8047973 -0.042957142
-1.0135986 -1.7916292 -0.042648643
-1.035511 -1.8044454 -0.043497011
-1.049076 -1.8023762 -0.043689825
-1.0641778 -1.8027902 -0.04399832
-1.0700887 -1.7876517 -0.0436127
-1.0971053 -1.807536 -0.044808127
-1.5427217 -2.5072014 -0.076814763
-2.5230677 -4.045094 -0.14719081
-2.5809457 -4.0819039 -0.14958166
-2.6156476 -4.0811348 -0.15027578
-2.6569681 -4.0901489 -0.15143265
-1.4062815 -2.135685 -0.061891187
-1.4027237 -2.1020777 -0.06073432
-1.3736244 -2.0313418 -0.057842154
-1.3730749 -2.0039139 -0.056955226
-1.3745201 -1.9798535 -0.056222543
-1.382619 -1.9656605 -0.055952609
-1.3795803 -1.9359791 -0.054949991
-1.3978654 -1.936391 -0.055374175
-1.4097205 -1.9277774 -0.055374175
-1.4203334 -1.9174851 -0.055297051
-1.7864118 -2.3811798 -0.078087315
-1.8312114 -2.4099591 -0.080015428
-1.8544947 -2.4097655 -0.080555297
-1.8495923 -2.3731177 -0.07932131
-1.8709277 -2.370353 -0.079745494
-2.8255014 -3.5352428 -0.13785875
-1.9275321 -2.3813941 -0.081442229
-2.5748057 -3.1416688 -0.11996588
-2.5972247 -3.1296558 -0.12015869
-2.6247349 -3.1236069 -0.12066
-2.031363 -2.3874133 -0.084180146
-2.0407567 -2.3688469 -0.083871648
-1.9843251 -2.2749426 -0.07970693
-1.9962624 -2.2604771 -0.079591244
-2.2358468 -2.5007448 -0.092663832
-2.0613992 -2.2773006 -0.081750728
-2.0665584 -2.2550311 -0.081249416
-2.086472 -2.2489021 -0.081596479
-2.3314297 -2.4822719 -0.09463051
-2.4643459 -2.591764 -0.10122465
-2.5099974 -2.607554 -0.10288282
-2.567091 -2.6343319 -0.10515799
-2.2049963 -2.2350655 -0.08437296
-2.2645617 -2.2674565 -0.086879499
-2.6023591 -2.5739839 -0.10446387
-2.6095276 -2.549587 -0.10400113
-2.6251225 -2.5335271 -0.10400113
-2.6558053 -2.5318532 -0.10481093
-2.9418831 -2.7703781 -0.11915608
-2.7386179 -2.5473981 -0.10754885
-2.7976065 -2.5704393 -0.10982402
-2.7171402 -2.465914 -0.10481093
-2.7188277 -2.4371881 -0.10411681
-3.2790766 -2.9034183 -0.13222866
-3.3043511 -2.8898225 -0.13261428
-2.8758938 -2.484067 -0.10986258
-3.5911715 -3.0637462 -0.14537838
-4.2043777 -3.5426359 -0.17537978
-4.2029943 -3.4975946 -0.17422292
-3.4910226 -2.8689542 -0.13758881
-3.4883888 -2.8311059 -0.13658619
-3.4409811 -2.7577741 -0.13338552
-3.4578376 -2.7366087 -0.13338552
-2.980933 -2.3295 -0.10920703
-2.9706478 -2.292239 -0.1080116
-3.0092952 -2.2927439 -0.10920703
-3.0185156 -2.2706313 -0.10897565
-3.0468299 -2.2627931 -0.10966977
-3.0461524 -2.2334187 -0.10897565
-4.4026055 -3.1868272 -0.17295036
-4.4773598 -3.1992614 -0.17557259
-22.73263 -16.035616 -1.0367825
-26.225626 -18.259697 -1.1964301
-4.279367 -2.9402986 -0.16357975
-4.2824416 -2.9038897 -0.16288562
-4.3026705 -2.879226 -0.16300131
-4.6479478 -3.0691903 -0.17815626
-4.8324552 -3.148634 -0.18579158
-4.868494 -3.1297314 -0.18656282
-5.7255163 -3.6312976 -0.2248551
-5.7112651 -3.5733056 -0.22319692
-3.3011637 -2.0371268 -0.112909
-3.8939986 -2.3701756 -0.13913131
-3.9453065 -2.368356 -0.14078948
-4.3458314 -2.5726931 -0.15810391
-4.3623981 -2.5464828 -0.15814248
-3.9180841 -2.2549543 -0.13766594
-4.6123233 -2.617043 -0.16786015
-4.6518402 -2.6018651 -0.16890132
-3.8749218 -2.1361339 -0.13396396
-4.6298609 -2.51548 -0.16654903
-4.6275907 -2.4775898 -0.16577779
-4.4279461 -2.3358369 -0.15640718
-4.4209161 -2.2975626 -0.15548168
-4.4073582 -2.2562749 -0.15428625
-4.3872151 -2.212091 -0.15282089
-4.4087601 -2.1891301 -0.15316795
-7.6914277 -3.7607863 -0.29361153
-7.6342278 -3.6749439 -0.29017949
-7.8209772 -3.7059147 -0.29719782
-5.740768 -2.6770945 -0.20765635
-5.7325654 -2.6305654 -0.20661518
-33.61372 -15.177841 -1.3865032
-33.826763 -15.02485 -1.3915935
-5.8569326 -2.5582042 -0.20985439
-5.8449755 -2.5103867 -0.20869753
-5.8464608 -2.4686439 -0.20811909
-5.8116612 -2.4120367 -0.20603675
-34.696411 -14.153392 -1.4092934
-9.5129223 -3.8122928 -0.35870454
-9.6170263 -3.7856972 -0.36205944
-23.361332 -9.0315294 -0.92977238
-23.285517 -8.8383713 -0.92437363
-35.706959 -13.303264 -1.4337033
-23.609018 -8.631218 -0.93328148
-35.87693 -12.867456 -1.4340889
-35.967461 -12.651388 -1.4345902
-11.438025 -3.9442863 -0.43012175
-7.8610058 -2.6567979 -0.28343111
-7.8790569 -2.6091421 -0.28350821
-7.8065219 -2.5320716 -0.27992195
-29.242533 -9.2881479 -1.1472633
-29.27989 -9.1026106 -1.146492
-37.628551 -11.445461 -1.4810191
-29.859655 -8.8825159 -1.165426
-9.7035751 -2.8216026 -0.35319015
-9.7264729 -2.7636483 -0.35342151
-9.6402216 -2.6753201 -0.34929535
-12.896134 -3.4939485 -0.47882584
-12.861299 -3.3999393 -0.47658923
-9.7052498 -2.5019126 -0.34998947
-15.458602 -3.8843126 -0.57831633
-13.155616 -3.2198877 -0.48588273
-15.586756 -3.7137761 -0.58155555
-13.083166 -3.0324805 -0.48148662
-11.481394 -2.587034 -0.41739622
-15.616357 -3.418339 -0.58012879
-11.476111 -2.4382598 -0.41596943
-16.074049 -3.3123701 -0.59655625
-16.00098 -3.1950884 -0.59289289
-0 -0 -0
-19.773439 -3.696743 -0.73950636
-19.797716 -3.575701 -0.73958349
-0 -0 -0
-19.683418 -3.3061621 -0.73345214
-19.951918 -3.225517 -0.74316978
-42.454559 -6.5968065 -1.6212314
-25.885378 -3.8595314 -0.97319341
-0 -0 -0
-26.105042 -3.5653892 -0.97998035
-25.954016 -3.3826709 -0.97327054
-23.961237 -2.9735103 -0.89498925
-23.971092 -2.825495 -0.89468074
-38.490967 -4.2979202 -1.4578433
-41.182831 -4.3428497 -1.5613058
-41.166939 -4.0859294 -1.5596861
-41.183277 -3.8325162 -1.5593776
-41.191086 -3.5784507 -1.5587991
-41.230194 -3.3270864 -1.5594933
-0 -0 -0
-0 -0 -0
-0 -0 -0
-0 -0 -0
-0 -0 -0
-0 -0 -0
-0 -0 -0
-0 -0 -0
-0 0 -0
-0 0 -0
-37.130245 3.20364 -1.8705027
-0 0 -0
-0 0 -0
-0 0 -0
-0 0 -0
-0 0 -0
-0 0 -0
-37.156517 4.8206983 -1.8807259
-0 0 -0
-37.276489 5.302186 -1.8901311
-37.166203 5.5193653 -1.8861442
-0 0 -0
-0 0 -0
-0 0 -0
-0 0 -0
-0 0 -0
-0 0 -0
-37.509796 7.2286386 -1.9181938
-0 0 -0
-0 0 -0
-38.491001 8.1553125 -1.9768237
-0 0 -0
-38.395821 8.6287947 -1.9772326
-38.416103 8.8813229 -1.9811174
-38.575615 9.1679115 -1.992414
-38.428406 9.3824024 -1.9876602
-38.519295 9.6554174 -1.995532
-0 0 -0
-0 0 -0
-0 0 -0
-0 0 -0
-0 0 -0
-38.785213 11.254545 -2.0300353
-0 0 -0
-38.637493 11.727621 -2.0296774
-38.590557 11.972466 -2.0310576
-0 0 -0
-38.116737 12.340227 -2.0136271
-37.697044 12.460403 -1.9951231
-0 0 -0
-37.504471 12.909389 -1.9931296
-0 0 -0
-37.279289 13.345762 -1.9896537
-37.084122 13.533165 -1.9835198
-36.99477 13.758366 -1.9832132
-36.84708 13.961391 -1.9797884
-36.647987 14.143705 -1.9736034
-36.567947 14.37123 -1.9740123
-36.400265 14.5638 -1.9696674
-36.2131 14.74732 -1.9643003
-35.958633 14.901564 -1.9552528
-0 0 -0
-35.614273 15.273606 -1.9464097
-35.4375 15.455909 -1.9418093
-35.21875 15.618399 -1.9349086
-35.121346 15.833792 -1.9348575
-34.951805 16.016125 -1.9308194
-34.802177 16.206673 -1.9279569
-0 0 -0
-34.501667 16.584932 -1.9223342
-34.324768 16.759945 -1.9180915
-34.197128 16.958261 -1.9167114
-34.058537 17.150703 -1.9147691
-33.949104 17.35754 -1.9145645
-33.816254 17.552179 -1.9130821
-33.694668 17.752357 -1.9123155
-33.537548 17.933338 -1.9095552
-0 0 -0
-33.117241 18.234676 -1.898003
-32.725739 18.28167 -1.8816459
-32.530407 18.435347 -1.8767899
-32.384644 18.616186 -1.8748987
-32.187847 18.766754 -1.8700426
-32.029106 18.938484 -1.8674868
-31.8729 19.111029 -1.8651356
-31.516956 19.16148 -1.8508742
-31.533112 19.437307 -1.8589505
-31.410711 19.628838 -1.8587971
-31.254248 19.798752 -1.8566502
-0 0 -0
-30.982985 20.163912 -1.8550657
-0 0 -0
-30.602028 20.45491 -1.8469894
-0 0 -0
-0 0 -0
-30.179338 20.986219 -1.8444335
-0 0 -0
-30.075602 21.466387 -1.8542478
-0 0 -0
-0 0 -0
-29.65934 22.004442 -1.8532255
-29.261099 21.988617 -1.8364084
-29.089073 22.139923 -1.8340571
-0 0 -0
-0 0 -0
-28.602982 22.613382 -1.8292521
-0 0 -0
-0 0 -0
-0 0 -0
-0 0 -0
-0 0 -0
-27.543762 23.474003 -1.8152975
-0 0 -0
-27.238585 23.797096 -1.8142753
-27.043434 23.920771 -1.8109527
-26.566578 23.791098 -1.7883084
-26.101963 23.665203 -1.7663286
-25.892992 23.766836 -1.7619326
-25.64645 23.832125 -1.7549297
-25.432817 23.926081 -1.7502271
-25.212492 24.012117 -1.7450644
-24.995665 24.099819 -1.7401572
-24.624348 24.035082 -1.7242091
-24.256905 23.968813 -1.7084143
-23.966051 23.973816 -1.6980377
-23.720964 24.021637 -1.6909326
-23.469221 24.060209 -1.6833163
-23.265715 24.146225 -1.6792271
-22.990437 24.155415 -1.6698217
-22.640678 24.082098 -1.6547937
-22.406183 24.127623 -1.648302
-22.186834 24.187372 -1.6429348
-21.945473 24.220917 -1.6358808
-21.627949 24.16683 -1.6229485
-21.436928 24.251192 -1.6196772
-21.243059 24.33111 -1.6162013
-21.044453 24.404272 -1.6123675
-20.819851 24.445499 -1.6064892
-20.565968 24.449738 -1.5982596
-20.383652 24.537056 -1.5957038
-20.209276 24.633097 -1.5938125
-20.033859 24.727148 -1.5918701
-19.736393 24.667904 -1.5799601
-19.635427 24.8528 -1.5841516
-19.514507 25.01376 -1.5868096
-19.341766 25.108501 -1.585225
-19.192175 25.233067 -1.585634
-18.983616 25.279276 -1.5810846
-18.77343 25.321472 -1.576382
-18.60532 25.419262 -1.5753086
-18.429699 25.506231 -1.5736217
-18.26763 25.611515 -1.5731617
-18.117035 25.73292 -1.5737751
-17.979885 25.873945 -1.5756664
-17.993626 26.235809 -1.5913079
-18.005835 26.602116 -1.6071538
-17.789019 26.632368 -1.6022466
-17.569763 26.656797 -1.5970839
-17.384092 26.730612 -1.5950392
-17.998499 28.050545 -1.6688505
-17.845274 28.190832 -1.6706908
-17.85815 28.597982 -1.6886835
-12.291516 19.954418 -1.1625479
-17.74386 29.206753 -1.7121457
-17.644386 29.448723 -1.7201198
-17.476059 29.577929 -1.7213976
-17.381716 29.834755 -1.7302918
-17.241102 30.015322 -1.7346878
-9.6177855 16.983175 -0.96196932
-16.968819 30.399048 -1.744911
-16.879694 30.680223 -1.7552875
-16.835833 31.050116 -1.7708267
-16.646406 31.155476 -1.7709801
-11.03821 20.966858 -1.175787
-10.858778 20.93667 -1.1701642
-11.061303 21.651257 -1.2074277
-0 0 -0
-0 0 -0
-12.223208 25.053778 -1.3898091
-12.058443 25.105799 -1.3885312
-10.419267 22.038157 -1.2106991
-9.2727966 19.92849 -1.088021
-10.84726 23.691717 -1.296676
-10.609817 23.553854 -1.2852261
-9.7636347 22.035208 -1.1965911
-0 0 -0
-0 0 -0
-9.8967772 23.494207 -1.2678467
-10.168816 24.560286 -1.323563
-9.9791632 24.526934 -1.318298
-9.9018688 24.771322 -1.328419
-9.8821669 25.169065 -1.346974
-9.8644171 25.584259 -1.3664491
-9.991477 26.395266 -1.4075463
-9.9545317 26.7931 -1.425948
-9.9968719 27.421347 -1.4568731
-10.085672 28.201561 -1.4959767
-9.9752331 28.441975 -1.5056888
-10.082044 29.32147 -1.5500062
-10.047359 29.814344 -1.573315
-10.446258 31.638412 -1.6683394
-10.338579 31.969885 -1.6827542
-10.250432 32.374531 -1.7011046
-10.198494 32.910931 -1.7265093
-10.171064 33.549202 -1.7573321
-10.104671 34.082069 -1.7824812
-0 0 -0
-7.0753713 24.984467 -1.2920755
-6.9176774 25.012009 -1.2912577
-6.6511221 24.635529 -1.2690735
-6.4718585 24.569641 -1.2634507
-6.3102984 24.567295 -1.2612528
-6.1332502 24.500919 -1.2557322
-6.0185151 24.684605 -1.2634507
-5.8293581 24.562679 -1.2551188
-5.6837001 24.620367 -1.2562945
-5.5082583 24.546612 -1.2506206
-5.3583899 24.583851 -1.250825
-5.2266636 24.707134 -1.2555789
-5.0665379 24.697649 -1.253432
-5.5683169 28.016592 -1.425028
-5.3972487 28.055136 -1.4252836
-2.7444594 14.75019 -0.73092562
-2.6399524 14.689098 -0.72688752
-2.5371518 14.632203 -0.72310489
-2.426595 14.523378 -0.71666431
-2.3288789 14.484748 -0.71390408
-2.2318809 14.446454 -0.71119493
-2.1317823 14.38282 -0.70720786
-2.0354948 14.339269 -0.70429426
-1.8907014 13.932873 -0.68267226
-1.808635 13.970954 -0.68405241
-1.7734079 14.392148 -0.70521438
-1.6875014 14.423589 -0.7062878
-1.5971001 14.416797 -0.70541883
-1.5172249 14.508768 -0.70966142
-1.4266092 14.501902 -0.70884359
-1.3452941 14.593919 -0.71313733
-1.2633308 14.690456 -0.71768665
-1.1826146 14.8164 -0.72376943
-1.0961503 14.884133 -0.72688752
-1.0257562 15.201466 -0.74283564
-1.6331353 26.649035 -1.3295435
-1.1095407 20.12203 -0.994479
-0.70736158 14.432739 -0.70260745
-0.62387031 14.555543 -0.70869023
-0.54635733 14.881459 -0.72520065
-0.45363593 14.838613 -0.72284937
-0.36133942 14.790198 -0.72024244
-0.26974508 14.746205 -0.7178911
-0.17933133 14.753574 -0.71819782
-0.088006876 14.620574 -0.7113483
0.0016988596 14.58988 -0.70976371
0.091163732 14.580606 -0.70930362
0.18096313 14.606735 -0.71068376
0.27088222 14.621326 -0.7115016
0.36118481 14.643351 -0.71272838
0.4514904 14.655831 -0.71349514
0.54639733 14.787517 -0.7203958
0.64280784 14.91559 -0.72714305
0.74376237 15.102881 -0.73695731
1.4130619 25.492424 -1.2697891
1.5691468 25.478289 -1.2695335
1.7234225 25.43829 -1.268
1.8774139 25.399349 -1.2665688
2.0318699 25.370428 -1.2656997
2.1860416 25.340569 -1.2648308
2.337532 25.283916 -1.2626328
2.4964523 25.307858 -1.2646264
2.6436696 25.215584 -1.2606905
2.8114622 25.317005 -1.2667732
2.9645407 25.280432 -1.265802
3.1192353 25.258793 -1.2656487
3.2762182 25.255024 -1.2664665
3.4315221 25.237415 -1.2666199
3.5858893 25.212919 -1.2664665
2.3509674 15.835459 -0.7823993
3.9005213 25.202545 -1.2683067
2.343384 14.553222 -0.71748215
4.2203841 25.217791 -1.2716804
4.370594 25.165838 -1.2703513
4.5449238 25.249613 -1.2761275
4.7061715 25.255613 -1.2779164
4.857079 25.205667 -1.2768431
5.0215931 25.225344 -1.2794499
5.1957788 25.288946 -1.2844082
5.3701053 25.34745 -1.2891619
5.544066 25.398911 -1.293609
5.6846952 25.297182 -1.2900821
5.8582568 25.341614 -1.2942736
6.0293446 25.37126 -1.2977494
6.2213893 25.483196 -1.3056213
6.3871055 25.482323 -1.3076148
6.5493126 25.465866 -1.3088416
6.7197094 25.479277 -1.311704
4.3125019 15.955828 -0.80897957
4.4132562 15.939653 -0.80954182
5.8299246 20.563557 -1.0569937
5.9462485 20.493828 -1.0552046
4.334425 14.604404 -0.74273342
7.6405034 25.173586 -1.3095061
7.7945261 25.125277 -1.3094549
7.9557881 25.099827 -1.3106817
8.1185694 25.078091 -1.3121641
8.2907867 25.08375 -1.3151799
8.4515657 25.053225 -1.3163044
8.620409 25.045279 -1.318707
8.7894716 25.0362 -1.3211094
8.9627867 25.037273 -1.3241252
9.1275434 25.012766 -1.3258121
9.3027802 25.015261 -1.3290323
9.4865294 25.038023 -1.3334283
9.6597595 25.030588 -1.3362397
9.8244877 24.999659 -1.3378242
9.9866018 24.961159 -1.339051
10.159914 24.94936 -1.3418113
10.33881 24.949286 -1.3452872
10.50761 24.923109 -1.3473829
10.676085 24.894878 -1.3494276
6.4010024 14.678006 -0.7826038
11.051635 24.921757 -1.3583728
11.218711 24.88534 -1.3601619
11.40323 24.885944 -1.3640978
11.583961 24.876163 -1.3675226
11.765856 24.866905 -1.3710495
11.956292 24.873451 -1.3755478
12.169163 24.923462 -1.3826017
12.364014 24.933323 -1.3874577
12.563037 24.948862 -1.3927227
12.757712 24.953112 -1.3974254
12.936808 24.924887 -1.400339
8.403367 15.951235 -0.88580668
13.364619 24.994112 -1.4136802
13.540594 24.953772 -1.4161338
13.73199 24.940205 -1.420223
13.911064 24.902557 -1.4229833
8.3765917 14.78235 -0.83264619
11.881179 20.669298 -1.18325
14.616092 25.06934 -1.4482857
14.807256 25.042799 -1.4520682
15.039731 25.083374 -1.4599401
15.248873 25.081926 -1.4654095
15.463278 25.086504 -1.4713389
15.736531 25.182552 -1.4828911
10.059217 15.88052 -0.92516589
16.140429 25.137127 -1.4919897
16.372267 25.157312 -1.4992993
10.197498 15.461747 -0.91100681
10.317153 15.436248 -0.91330707
10.646913 15.719931 -0.93477571
17.374119 25.315264 -1.5345181
10.545367 15.165835 -0.90845102
17.845102 25.329559 -1.5488816
18.048925 25.287867 -1.5531754
18.282749 25.285898 -1.560076
18.559717 25.340015 -1.570657
18.795185 25.333935 -1.5775577
19.033676 25.329105 -1.5846628
19.290354 25.345346 -1.5932503
19.480871 25.272381 -1.5962149
19.734522 25.279112 -1.6044446
0 0 -0
0 0 -0
0 0 -0
12.063128 14.694917 -0.93610471
12.128806 14.591439 -0.93416232
21.20406 25.191919 -1.6483531
17.927402 21.035955 -1.3776435
18.050266 20.918755 -1.3771834
21.746305 24.891363 -1.6547426
21.969427 24.837502 -1.660212
22.176048 24.763237 -1.6644036
22.398684 24.705124 -1.6698217
22.611982 24.634911 -1.6745244
22.78039 24.514723 -1.6758535
22.986496 24.434128 -1.680045
23.169737 24.32806 -1.6825496
23.346996 24.214912 -1.6846454
15.822195 16.210676 -1.122422
23.852283 24.138985 -1.699929
24.040209 24.032419 -1.7028426
24.193613 23.890774 -1.7033026
16.274599 15.875375 -1.1266646
16.319201 15.724634 -1.1229331
16.730797 15.92439 -1.1452197
25.393318 23.873327 -1.7469045
25.554691 23.731339 -1.747978
17.021078 15.613732 -1.1452197
23.682854 21.457993 -1.5987196
23.676392 21.189066 -1.5892632
23.766302 21.008337 -1.5865541
24.023407 20.974428 -1.5952948
24.207621 20.874889 -1.5990775
26.201113 22.314968 -1.7245158
26.300856 22.122925 -1.7220622
26.428421 21.954748 -1.7215511
26.549509 21.781404 -1.720682
26.667913 21.606146 -1.7197108
26.805443 21.446474 -1.7200687
26.884027 21.240116 -1.7166439
19.883612 15.51252 -1.2537898
19.956266 15.37316 -1.2523586
27.353106 20.804546 -1.7219599
0 0 -0
27.597525 20.460772 -1.7213976
27.765263 20.322313 -1.7241068
0 0 -0
23.190145 16.540703 -1.4209386
22.766108 16.028442 -1.3880712
22.913237 15.922642 -1.3911381
28.441469 19.506243 -1.7281961
28.591225 19.352072 -1.7300874
28.69614 19.1674 -1.7292695
0 0 -0
28.943426 18.823067 -1.7301385
0 0 -0
29.104727 18.423738 -1.7260492
29.280758 18.284479 -1.729883
29.440868 18.134325 -1.7327965
28.844851 17.524012 -1.6904726
26.451958 15.848994 -1.5413165
26.464443 15.636605 -1.5363072
26.491716 15.434215 -1.532269
26.54262 15.246504 -1.5297132
28.55018 16.167414 -1.6423215
28.693319 16.016752 -1.6449283
28.819056 15.855796 -1.6465641
29.275766 15.873829 -1.6675216
29.609566 15.820491 -1.6812718
29.927013 15.75481 -1.6940507
30.272247 15.700078 -1.7084143
30.521872 15.592632 -1.7172573
30.648197 15.42077 -1.7190464
31.098404 15.408885 -1.7393905
31.334183 15.286962 -1.7474668
0 0 -0
31.550117 14.915804 -1.7492048
32.105564 14.938047 -1.7754271
32.738728 14.988947 -1.8059434
33.245316 14.974802 -1.8292521
33.986694 15.058558 -1.8656466
34.61314 15.082705 -1.8954983
35.536732 15.226366 -1.9418093
0 0 -0
35.591724 14.735649 -1.934653
36.102379 14.688217 -1.9579108
0 0 -0
0 0 -0
0 0 -0
35.215313 13.32974 -1.8902334
35.380699 13.144711 -1.8948338
0 0 -0
0 0 -0
35.328274 12.390112 -1.8791924
0 0 -0
34.929688 11.771005 -1.8495963
0 0 -0
34.79023 11.250528 -1.834466
34.82814 11.027202 -1.8328303
34.859852 10.802357 -1.8309389
0 0 -0
0 0 -0
0 0 -0
34.335152 9.7229462 -1.789484
0 0 -0
34.360283 9.2761431 -1.784628
34.381786 9.0559816 -1.7827878
34.257755 8.798892 -1.7733314
34.231655 8.5686426 -1.7691399
34.244778 8.348979 -1.7670953
0 0 -0
34.132515 7.8791513 -1.755952
34.1656 7.6662908 -1.7551852
34.232487 7.4609756 -1.7562587
34.176983 7.2295036 -1.7509937
34.183525 7.0120368 -1.7490513
34.213173 6.7996283 -1.7483869
34.244442 6.5876861 -1.7478757
34.232182 6.367764 -1.7451665
34.32172 6.1667814 -1.7478245
34.367771 5.9576063 -1.7482846
34.406635 5.7471108 -1.748438
34.503372 5.5458703 -1.7516583
34.554516 5.3368006 -1.7525784
34.770363 5.1518974 -1.7620859
34.641136 4.9157281 -1.7538052
34.813152 4.7224078 -1.7611659
34.803837 4.5038404 -1.7592235
34.916061 4.3007002 -1.7636194
34.90509 4.0820875 -1.761728
35.112125 3.8880553 -1.7711334
0 0 -0
0 0 -0
35.326916 3.2548363 -1.7788008
35.367115 3.0398085 -1.7798742
35.417953 2.8253622 -1.781561
35.471478 2.6106997 -1.7834524
35.479855 2.3925316 -1.7830945
35.532742 2.1771669 -1.7850881
0 0 -0
35.559776 1.7411081 -1.7852414
35.56081 1.5225004 -1.7847813
35.554512 1.3037263 -1.7840146
35.550861 1.0852085 -1.7834524
0 0 -0
35.574482 0.64909953 -1.7841169
35.716602 0.43248263 -1.791222
0 0 -0
0 -0 -0
31.140598 -0.19602752 -1.5569068
27.343073 -0.3397705 -1.3626155
27.331486 -0.50737083 -1.3621554
27.325861 -0.67501473 -1.3620532
27.284271 -0.84152961 -1.3601619
26.180784 -0.96827632 -1.3039345
27.39262 -1.1814986 -1.366347
27.353933 -1.3480293 -1.3647623
27.314234 -1.5141295 -1.3631778
25.717522 -1.5838914 -1.2818013
25.641556 -1.737203 -1.2784276
25.665274 -1.8970821 -1.2802167
19.611452 -1.5703788 -0.96999454
27.33354 -2.3580604 -1.3672159
19.951689 -1.8443134 -0.98854959
19.908192 -1.9635612 -0.98691386
19.973242 -2.0938048 -0.99090093
30.802036 -3.420831 -1.5492395
10.578629 -1.2398331 -0.50816274
10.579742 -1.3058209 -0.50862277
10.559646 -1.3691702 -0.50800937
10.557973 -1.4348794 -0.50836718
10.559846 -1.5011822 -0.50892949
10.568217 -1.5685891 -0.50984955
13.892262 -2.1495337 -0.6825189
13.895574 -2.2374349 -0.68338788
14.310052 -2.394382 -0.70562327
13.679134 -2.3751385 -0.67362475
13.832377 -2.4892886 -0.6823656
29.006029 -5.4052062 -1.4731791
28.963491 -5.5813808 -1.4727191
28.817041 -5.7367597 -1.4668918
0 -0 -0
28.768898 -6.0951328 -1.4681697
28.557281 -6.2336226 -1.459071
28.410337 -6.3844194 -1.4533973
28.212999 -6.5221753 -1.4451165
28.17342 -6.695395 -1.4451675
28.060984 -6.8508439 -1.4414362
28.000982 -7.0185223 -1.440516
27.93708 -7.1849766 -1.4394426
24.795589 -6.5393662 -1.275514
8.2026863 -2.2164149 -0.3979058
8.1177092 -2.246979 -0.39412323
7.9510007 -2.2534261 -0.38599581
7.9418197 -2.3035617 -0.38625139
7.9868946 -2.3698704 -0.38942057
7.9808035 -2.4214432 -0.38988063
7.9867802 -2.4768779 -0.39100516
8.1713514 -2.5892148 -0.40173951
7.9044762 -2.5580893 -0.38824493
26.416956 -8.7315083 -1.3870488
26.357204 -8.8915205 -1.3867421
26.376751 -9.0787582 -1.3907803
26.719139 -9.3803854 -1.4124023
26.681765 -9.5515594 -1.4135269
18.894062 -6.8944302 -0.99243438
25.812771 -9.5994015 -1.372583
18.257971 -6.9173322 -0.96232712
18.562708 -7.1633644 -0.9813934
18.479368 -7.261785 -0.9792465
18.791441 -7.5178761 -0.9989261
25.252735 -10.283471 -1.3585773
18.266918 -7.5693455 -0.97505498
25.119118 -10.590259 -1.3582706
24.953621 -10.701279 -1.352699
24.82341 -10.82624 -1.3491209
24.709042 -10.957295 -1.3464628
24.590361 -11.085713 -1.3436004
24.466496 -11.211009 -1.3404822
24.387285 -11.356283 -1.33992
24.28194 -11.489047 -1.3379265
24.167784 -11.617052 -1.3354729
24.072714 -11.753731 -1.3341439
23.970617 -11.886574 -1.3324571
23.856199 -12.012768 -1.3301058
23.752699 -12.143917 -1.328419
23.645828 -12.272868 -1.3265787
23.54092 -12.402363 -1.3248919
23.45381 -12.540922 -1.3242786
23.386074 -12.689836 -1.3248408
12.902539 -7.1034513 -0.71686876
23.273926 -13.001191 -1.3274989
23.235418 -13.167389 -1.3299525
12.51765 -7.1948972 -0.70199406
12.600091 -7.3455172 -0.70950812
12.618396 -7.4603081 -0.71329069
22.809349 -13.676126 -1.3242275
12.411549 -7.5450683 -0.70644116
22.082113 -13.611212 -1.2906954
21.953293 -13.718397 -1.2879863
21.826525 -13.826118 -1.2854306
21.72279 -13.947911 -1.2843059
21.610851 -14.06405 -1.2827214
21.496637 -14.17824 -1.2810346
21.503057 -14.372589 -1.2868106
21.459114 -14.534504 -1.2895709
21.38435 -14.676074 -1.290491
21.290617 -14.804729 -1.2902865
21.199375 -14.935086 -1.2902865
21.101646 -15.060821 -1.2899287
20.924673 -15.129155 -1.2846127
20.567991 -15.064283 -1.2678977
20.423038 -15.151523 -1.2645752
19.039515 -14.306971 -1.181972
18.952959 -14.424735 -1.1820742
20.019672 -15.431587 -1.2567545
19.677431 -15.361156 -1.2407042
19.171516 -15.156421 -1.2138683
19.049313 -15.250674 -1.211977
18.914263 -15.333936 -1.2092679
18.753437 -15.395204 -1.2048719
18.574913 -15.440392 -1.1993003
18.413351 -15.498122 -1.1948532
18.266985 -15.56741 -1.1914284
18.099293 -15.617216 -1.1865724
17.887306 -15.626784 -1.1787006
17.696087 -15.652209 -1.1722089
17.409262 -15.58993 -1.1591232
17.308836 -15.692432 -1.1588166
17.098186 -15.693663 -1.1508936
16.850136 -15.657549 -1.1403126
16.735561 -15.743537 -1.1390346
16.864998 -16.061516 -1.1550339
16.75894 -16.157764 -1.1545228
16.238548 -15.849401 -1.1244155
16.109026 -15.917152 -1.1221154
15.974342 -15.978968 -1.1194574
15.519534 -15.715678 -1.0934905
15.331464 -15.716952 -1.0867943
