# .PCD v0.7 - Point Cloud Data file format
VERSION 0.7
FIELDS x y z
SIZE 4 4 4
TYPE F F F
COUNT 1 1 1
WIDTH 1502
HEIGHT 1
VIEWPOINT 0 0 0 1 0 0 0
POINTS 1502
DATA ascii
-11.977963 16.149199 -1.9762174
-11.87277 16.214361 -1.9752208
-11.76548 16.276423 -1.9739251
-11.63996 16.312668 -1.9695398
-11.525326 16.363443 -1.967048
-11.410506 16.413427 -1.9645563
-11.297197 16.465082 -1.9623637
-11.175874 16.504429 -1.9587756
-11.063891 16.556973 -1.956882
-10.957162 16.617071 -1.955985
-10.840345 16.66147 -1.953294
-10.738983 16.729347 -1.9534934
-10.632938 16.789881 -1.9528953
-10.528135 16.852276 -1.9525963
-10.417227 16.904697 -1.951201
-10.301937 16.949591 -1.9490083
-10.192115 17.003096 -1.947912
-10.067849 17.031906 -1.9440249
-9.9496269 17.070148 -1.9413339
-9.7078781 16.892761 -1.9138259
-9.531951 16.824743 -1.8991748
-9.469285 16.955889 -1.9075468
-9.4519053 17.171453 -1.9255866
-9.3734064 17.27898 -1.9312676
-9.2709599 17.343189 -1.9320649
-9.1833792 17.435844 -1.9361513
-9.0698061 17.4795 -1.9347559
-8.944272 17.49938 -1.9307692
-8.8273344 17.535267 -1.9286762
-8.7102947 17.570379 -1.9265832
-8.5940285 17.606504 -1.9246895
-8.4806643 17.648142 -1.9234935
-8.3675385 17.689951 -1.9223971
-8.2542191 17.731037 -1.9213009
-8.1431961 17.776829 -1.9208025
-8.0298786 17.817387 -1.9198059
-7.9167728 17.858135 -1.9189088
-7.804265 17.89999 -1.9182112
-7.6911502 17.940224 -1.9174138
-7.5786076 17.981577 -1.9168159
-7.465086 18.020384 -1.9160185
-7.3517489 18.059399 -1.9153209
-7.2385831 18.098625 -1.9147228
-7.1252131 18.137142 -1.9141248
-7.005198 18.158241 -1.9117328
-6.8894205 18.189714 -1.9105368
-6.772481 18.217655 -1.9090418
-6.6564808 18.24765 -1.9078459
-6.5457306 18.291897 -1.9082445
-6.4330411 18.330778 -1.9081448
-6.3185024 18.36426 -1.9075468
-6.2028413 18.394197 -1.9066498
-6.0870514 18.423409 -1.9057528
-5.9689918 18.445263 -1.9041581
-5.852396 18.471107 -1.9030617
-5.7389493 18.50667 -1.9030617
-5.6244202 18.538677 -1.9027628
-5.5116949 18.576656 -1.9031614
-5.3970528 18.608213 -1.9029621
-5.2833157 18.642893 -1.9031614
-5.1698871 18.678797 -1.9035602
-5.0562167 18.714008 -1.9039588
-4.9443374 18.756227 -1.9051548
-4.8323779 18.79874 -1.9064505
-4.7159734 18.824177 -1.9060518
-4.598259 18.844059 -1.9051548
-4.4811683 18.86611 -1.9045568
-4.3628602 18.882586 -1.9034605
-3.2953942 14.671246 -1.4684136
-3.1828363 14.58814 -1.4578489
-3.0209384 14.265714 -1.4228657
-2.9315481 14.275209 -1.4219688
-2.8413787 14.280241 -1.4206731
-2.7617917 14.339421 -1.4249588
-2.7181888 14.594782 -1.4492775
-2.5581453 14.21946 -1.4094107
-2.478332 14.278026 -1.4137961
-2.3844423 14.25567 -1.4100087
-2.2907624 14.231719 -1.4061217
-2.1301241 13.771537 -1.3580822
-2.0397441 13.744978 -1.3540955
-1.9450129 13.684335 -1.3467201
-1.8555213 13.655587 -1.3426337
-1.77745 13.71112 -1.3471187
-1.6966965 13.749419 -1.3499094
-1.6135726 13.770442 -1.3510058
-1.5289388 13.779095 -1.3509061
-1.444881 13.793165 -1.3514044
-1.3643157 13.843361 -1.3555905
-1.318755 14.278511 -1.3985471
-1.2356424 14.338876 -1.4038293
-1.3090191 16.365612 -1.6067516
-1.1635733 15.763055 -1.5454563
-1.0206757 15.086881 -1.4768853
-0.93729508 15.242826 -1.491935
-0.85203892 15.398309 -1.5069848
-0.71113026 14.458121 -1.4122014
-0.62197649 14.452271 -1.4112047
-0.5594213 15.165779 -1.482367
-0.46495229 15.123178 -1.4777824
-0.37241784 15.136687 -1.4788786
-0.27715573 15.009356 -1.465922
-0.20111957 16.322113 -1.5972831
-0.093798667 15.150928 -1.4798753
-0.00083320832 15.121367 -1.4768853
0.091661803 15.074323 -1.472201
0.18386081 15.049598 -1.4698089
0.27684173 15.083007 -1.4732974
0.36398271 14.861191 -1.4512709
0.45397121 14.81989 -1.4473839
0.54423618 14.798927 -1.4455899
0.63503045 14.795309 -1.4455899
0.78954357 16.088072 -1.5756555
0.77846897 14.097905 -1.3765206
0.86312628 14.063068 -1.3735305
0.94557303 14.000921 -1.3678496
1.0318294 13.999817 -1.3683479
1.1213593 14.038848 -1.3729326
1.20227 13.971231 -1.3668529
1.2910833 13.997278 -1.3702415
1.3795786 14.015828 -1.3729326
1.4667957 14.018975 -1.3741286
1.5369908 13.867301 -1.3597765
1.6263332 13.894176 -1.3634642
1.7080227 13.855296 -1.3605739
1.793133 13.845542 -1.3606735
1.8850183 13.88555 -1.3658562
1.9715828 13.883573 -1.3668529
2.0524991 13.84267 -1.3639625
2.1405907 13.850467 -1.3660555
2.2294874 13.86163 -1.3685472
2.3151553 13.851616 -1.3689458
2.4063985 13.873423 -1.3726336
2.4877799 13.837831 -1.3705405
2.5710011 13.813501 -1.3696436
2.6600382 13.819939 -1.3719358
2.7585695 13.872646 -1.3790122
2.841037 13.842788 -1.3777165
2.9290128 13.839696 -1.3792115
3.0350835 13.918679 -1.3891783
3.1202116 13.898824 -1.3890786
3.2739737 14.176079 -1.4195768
3.3188179 13.978562 -1.4013376
3.5429788 14.525366 -1.4598422
3.5280678 14.088319 -1.4169854
3.5968583 13.997984 -1.409909
3.6933324 14.016061 -1.414095
3.8135202 14.119932 -1.4272511
3.9040678 14.110651 -1.4287461
3.9794528 14.04718 -1.4246597
4.0652928 14.021543 -1.4245601
4.1591749 14.023045 -1.4273508
4.2971354 14.168651 -1.4452909
4.3400817 14.000411 -1.4304404
4.4388275 14.014305 -1.4347261
4.5345368 14.017099 -1.4379154
4.6279502 14.011686 -1.4403075
4.6953969 13.928341 -1.4345268
4.8302994 14.043224 -1.4497759
4.9391098 14.078105 -1.4566529
5.0384727 14.084071 -1.4605399
5.2424326 14.375388 -1.494925
5.3097372 14.28699 -1.488945
5.4008245 14.263447 -1.4899417
5.4814377 14.212401 -1.4880481
5.6045575 14.270186 -1.497915
5.6901646 14.230909 -1.4974167
5.7691236 14.175452 -1.4952241
6.1176023 14.771326 -1.5636953
6.1605911 14.62073 -1.5514363
6.2278395 14.530526 -1.5457553
6.2962017 14.44461 -1.5405726
6.3927784 14.423898 -1.5425659
6.4488649 14.312736 -1.5346923
6.5378079 14.275611 -1.5349913
6.6307373 14.246954 -1.536287
6.7035651 14.175418 -1.5328982
6.8718686 14.303524 -1.5517353
6.9900556 14.323683 -1.558712
7.0831156 14.291221 -1.559908
7.73528 15.369115 -1.6856879
7.3408265 14.365363 -1.5781471
7.3775072 14.22113 -1.5669844
7.6556616 14.538312 -1.6080472
7.8366604 14.663058 -1.627582
7.769917 14.326071 -1.5946919
7.8926997 14.34176 -1.6019676
8.2891006 14.845578 -1.6653558
8.2711525 14.602242 -1.6432297
8.5807142 14.934264 -1.6874819
8.59202 14.743787 -1.6715351
8.6327047 14.606846 -1.6617677
8.7508163 14.601395 -1.6673491
8.8759022 14.606096 -1.6742262
8.8938427 14.435306 -1.6605718
9.2226448 14.765275 -1.70602
9.2933722 14.677304 -1.7023323
9.3961554 14.640101 -1.7047243
9.4717007 14.560487 -1.7021329
9.5143061 14.431486 -1.6936612
9.5518169 14.296723 -1.6844919
10.089018 14.901917 -1.7648236
10.197716 14.865166 -1.7679132
10.301798 14.821105 -1.7702056
10.394836 14.760869 -1.7706043
10.483478 14.69438 -1.7703053
10.574609 14.631391 -1.7705046
10.668889 14.572653 -1.7713019
10.827456 14.600422 -1.7829629
10.968236 14.602127 -1.7915343
11.095585 14.58444 -1.7978133
11.200048 14.535788 -1.800305
11.306781 14.48954 -1.8031954
11.416451 14.446431 -1.806584
11.500526 14.370671 -1.8058864
11.565932 14.272007 -1.8022983
11.662754 14.212308 -1.8037933
11.780266 14.177212 -1.8085774
11.910598 14.156434 -1.8153547
12.077253 14.177003 -1.8277135
12.226408 14.17496 -1.8372815
12.379918 14.176115 -1.8474475
12.522035 14.162498 -1.8558196
12.68436 14.16991 -1.8671817
12.849249 14.178072 -1.8788427
13.024804 14.195737 -1.8919988
13.211215 14.222713 -1.9066498
13.337091 14.182697 -1.9123309
13.493848 14.1741 -1.9224969
13.664119 14.177721 -1.9345566
13.854397 14.199723 -1.949407
14.000003 14.173908 -1.957779
14.240797 14.241821 -1.9796062
14.427731 14.252766 -1.9936591
14.587555 14.234849 -2.0038252
14.73552 14.203766 -2.0122969
14.858428 14.147388 -2.0172803
14.979748 14.088671 -2.0220642
15.074661 14.004619 -2.0232604
15.142712 13.895713 -2.0208683
15.21663 13.792515 -2.0193732
15.269835 13.671014 -2.0151873
15.304979 13.534221 -2.008709
15.315789 13.377223 -1.9991409
15.357649 13.24855 -1.9938585
15.401537 13.12245 -1.9889748
15.46273 13.011685 -1.9864831
15.514728 12.89367 -1.9828951
15.573551 12.781819 -1.9803038
15.625402 12.664721 -1.9769151
15.681842 12.55182 -1.9742241
15.727337 12.430683 -1.9702374
15.77429 12.311298 -1.9665498
15.797514 12.174194 -1.9599717
15.837073 12.050524 -1.9555863
15.882871 11.932206 -1.952098
15.935007 11.819116 -1.9495066
15.987959 11.70701 -1.9471146
16.035297 11.591204 -1.9441246
16.082628 11.475836 -1.9412342
16.118572 11.352876 -1.9370483
16.163418 11.236723 -1.9340582
16.211548 11.123262 -1.9315666
16.264664 11.013539 -1.9297726
16.311253 10.899714 -1.9272809
16.356226 10.785185 -1.9246895
16.395405 10.667259 -1.9215002
16.433752 10.549259 -1.9183109
16.465387 10.427464 -1.9144238
16.502052 10.30937 -1.9112345
16.537891 10.191218 -1.9080452
16.575453 10.074566 -1.9051548
16.608793 9.9557905 -1.9018657
16.647297 9.8405304 -1.8992745
16.69017 9.728179 -1.8972811
16.723665 9.6107149 -1.894291
16.74942 9.4892836 -1.8905038
16.776056 9.3688688 -1.8869157
16.785282 9.2393694 -1.8814341
16.799675 9.1134319 -1.87665
16.824562 8.993763 -1.8731617
16.841574 8.8704243 -1.868876
16.866537 8.7517977 -1.865587
16.893339 8.6345577 -1.862597
16.920227 8.517766 -1.8597066
16.943645 8.3996449 -1.8565172
16.960884 8.2789392 -1.8527299
16.981768 8.1604929 -1.8494409
17.004536 8.0433788 -1.8464509
17.038233 7.9317513 -1.8447565
17.059441 7.8146272 -1.8417665
17.109791 7.7110319 -1.8420656
17.13859 7.5978389 -1.8400722
17.168468 7.4853783 -1.8382782
17.188467 7.3689175 -1.8354875
17.203098 7.2505612 -1.8321985
17.208654 7.1288767 -1.8280125
17.196775 7.0006456 -1.8220325
17.233864 6.8927798 -1.8214345
17.26194 6.7814484 -1.8199394
17.293013 6.6714644 -1.8188431
17.330832 6.5641742 -1.8185441
17.370783 6.4577103 -1.8185441
17.421297 6.3550949 -1.8197401
17.469332 6.2514319 -1.8207368
17.514872 6.14676 -1.8215342
17.561666 6.0424118 -1.8225307
17.603127 5.9361315 -1.8230292
17.641108 5.8286328 -1.8232285
17.683167 5.7224236 -1.8239261
17.729328 5.6174197 -1.8251221
17.766314 5.5094128 -1.8254211
17.811211 5.4037628 -1.8266171
17.835447 5.2918267 -1.8257201
17.87236 5.1836767 -1.8262185
17.900957 5.0731025 -1.8259195
17.923119 4.9607806 -1.8250225
17.944574 4.8483777 -1.8241254
17.976871 4.7389412 -1.8244245
18.011393 4.630034 -1.8250225
18.056837 4.5237827 -1.8268164
18.076521 4.411016 -1.8260192
18.148746 4.3108225 -1.8307035
18.175825 4.1996064 -1.8308032
18.218727 4.0919266 -1.8325971
18.23377 3.9779413 -1.8316004
18.261728 3.8668103 -1.8319992
18.281212 3.7538853 -1.8316004
18.310734 3.6430018 -1.8322982
18.340559 3.5320857 -1.8330954
18.370689 3.4211226 -1.8339925
18.408962 3.3115075 -1.8357865
18.446583 3.2015514 -1.8375806
18.471767 3.0892897 -1.8381785
18.488411 2.9755747 -1.8379792
18.504353 2.8617718 -1.8377799
18.534361 2.7500751 -1.8390756
18.580439 2.6404967 -1.8420656
8.6369915 1.1740259 -0.83532834
8.7446833 1.1340475 -0.84549433
6.849474 0.84582227 -0.65353554
6.7240834 0.788504 -0.64037949
6.6931925 0.74328345 -0.63679147
6.6946583 0.70189005 -0.63649249
6.6919074 0.66011667 -0.63579482
6.6839418 0.61794633 -0.63459879
6.679677 0.57624 -0.63380146
6.6711845 0.53429222 -0.63260549
6.6644144 0.4926168 -0.63160878
6.6573839 0.45104459 -0.63061213
6.6580396 0.41006517 -0.63041282
6.6534762 0.36882019 -0.62971514
6.6516385 0.32779309 -0.62931645
6.6445775 0.28658891 -0.62841946
6.6521773 0.24603276 -0.62901747
6.6605234 0.20542464 -0.62971514
6.6517115 0.16430859 -0.62871844
6.6555786 0.12354625 -0.62901747
6.6651659 0.082815759 -0.62991446
6.6715188 0.041954011 -0.63051248
6.6766257 0.0010174441 -0.63101077
6.6784964 -0.039961834 -0.63121015
6.6890697 -0.081074119 -0.63230646
6.6974001 -0.12228099 -0.63320345
6.7084603 -0.16366644 -0.63439947
6.7192645 -0.20519222 -0.6355955
6.7268281 -0.24674681 -0.63649249
6.7351284 -0.28844467 -0.63748914
6.755096 -0.33083978 -0.63968182
6.7688346 -0.37316114 -0.64127648
6.843883 -0.41944778 -0.64905053
8.7442894 -0.59012091 -0.84011233
16.385363 -1.2078501 -1.6079476
16.26457 -1.299325 -1.5965855
16.221594 -1.3961093 -1.5930972
16.094816 -1.4847316 -1.5812367
16.11709 -1.5865812 -1.5844262
16.079344 -1.6825424 -1.5816355
16.042015 -1.77821 -1.5789444
10.587443 -1.2389967 -1.0299782
10.589518 -1.305155 -1.0309747
10.567495 -1.3683162 -1.0295794
10.541153 -1.4307206 -1.0277854
10.559759 -1.4992924 -1.0305761
10.569062 -1.5668321 -1.0324697
13.856366 -2.1415031 -1.3666536
13.813494 -2.2217412 -1.3636636
13.825118 -2.3107243 -1.3662549
15.773376 -2.7361145 -1.5657884
15.752374 -2.8321419 -1.5653898
14.71443 -2.7387612 -1.461437
15.730112 -3.0278685 -1.5667851
13.406167 -2.6657705 -1.3313714
15.740505 -3.2306795 -1.5717684
15.734987 -3.3302922 -1.5732634
15.724951 -3.4291103 -1.5743598
15.669635 -3.5179012 -1.5708714
15.702045 -3.6265252 -1.5764527
15.755977 -3.740967 -1.5843265
15.783959 -3.8500743 -1.5896088
8.2141361 -2.0565252 -0.81041157
8.1763067 -2.1004472 -0.8078202
15.619013 -4.1158595 -1.5801405
15.575213 -4.2066875 -1.5782467
7.6567731 -2.1178875 -0.75798666
15.448704 -4.3766136 -1.5705724
15.40818 -4.4674425 -1.569177
8.0285873 -2.3807261 -0.80104285
7.9652681 -2.4152119 -0.79595983
7.9398446 -2.4607987 -0.79486346
7.9625378 -2.5214913 -0.79885018
8.4297285 -2.7265332 -0.84968036
15.077414 -4.9800448 -1.552732
15.034316 -5.0683312 -1.5514363
7.7909975 -2.6792393 -0.7874881
14.894938 -5.2257557 -1.5433633
14.826056 -5.303977 -1.5394763
14.772667 -5.3873467 -1.5372835
14.729074 -5.4740748 -1.5361873
14.694277 -5.5639954 -1.5360876
14.652433 -5.6511879 -1.5352902
14.592478 -5.7311645 -1.5325992
14.523778 -5.8072925 -1.5290112
14.462989 -5.8861704 -1.5263202
14.407294 -5.9668059 -1.5242271
14.342904 -6.0435023 -1.5212371
14.286347 -6.1231618 -1.5191442
14.200166 -6.1896305 -1.5138618
14.137359 -6.2657571 -1.5111709
14.064175 -6.3368492 -1.5073835
14.004221 -6.4134951 -1.5050911
13.95378 -6.4942636 -1.5038952
13.898378 -6.5725279 -1.5022007
13.852407 -6.655097 -1.5016028
13.801476 -6.7351675 -1.5005064
13.752757 -6.8161898 -1.4997091
13.681346 -6.8856826 -1.49642
13.62289 -6.9613495 -1.494626
13.226636 -6.8615007 -1.4547592
13.03198 -6.8623128 -1.4375168
12.888713 -6.8882036 -1.4260551
12.757869 -6.9192386 -1.4159888
12.609697 -6.939333 -1.403929
12.453076 -6.9530206 -1.3908726
12.363429 -7.0028152 -1.3854907
12.290895 -7.0616879 -1.3821019
12.297194 -7.1660314 -1.3878826
12.252993 -7.2413507 -1.3878826
12.201503 -7.312305 -1.3870853
12.189567 -7.4071889 -1.3909723
12.18116 -7.5048113 -1.3953576
12.167794 -7.5999722 -1.3992447
12.172211 -7.7069631 -1.4053243
12.149814 -7.7976303 -1.4083143
12.100905 -7.8714905 -1.4082147
12.079792 -7.9636674 -1.4115037
12.478279 -8.3367147 -1.4654236
12.443369 -8.4242802 -1.467417
12.398829 -8.5055389 -1.4683139
12.343955 -8.5797529 -1.468015
12.277249 -8.6455927 -1.4663206
12.20048 -8.7040014 -1.4634303
12.139586 -8.7734518 -1.4625332
12.075891 -8.8407202 -1.4613372
12.007832 -8.9045734 -1.4596429
11.906827 -8.9434204 -1.4538622
11.839849 -9.0072737 -1.4523672
11.785147 -9.0803595 -1.4524668
11.721365 -9.1463785 -1.4514703
11.667365 -9.2199783 -1.4517692
11.604358 -9.2864208 -1.4509718
11.540202 -9.3518105 -1.4500749
11.483372 -9.4230747 -1.4501746
11.424572 -9.4927216 -1.4500749
11.363827 -9.5607214 -1.4497759
11.300405 -9.6263962 -1.4491779
11.241125 -9.6955528 -1.4491779
11.187419 -9.7695818 -1.4499753
11.132481 -9.8426561 -1.4506729
11.26759 -10.085994 -1.476985
11.197381 -10.14759 -1.4758886
11.068192 -10.154885 -1.4668189
10.961934 -10.181973 -1.4608389
10.902151 -10.25177 -1.4612375
10.827513 -10.307493 -1.4596429
10.73684 -10.347495 -1.4558556
10.662464 -10.402757 -1.4543606
10.56304 -10.433022 -1.4493772
10.483347 -10.48216 -1.4471846
10.392961 -10.520094 -1.4434968
10.294165 -10.548769 -1.4386132
10.206459 -10.588092 -1.4353242
10.125519 -10.633944 -1.4330318
6.9864898 -7.4275141 -0.98363292
9.931283 -10.689599 -1.4237628
9.8641605 -10.748869 -1.4235635
9.801362 -10.812879 -1.4240618
9.7441216 -10.883194 -1.4254571
6.7448192 -7.6264009 -0.98203826
6.6769528 -7.6436605 -0.97884893
6.5636363 -7.6076336 -0.96868289
9.5637922 -11.224331 -1.4393108
2.1065955 -2.5019062 -0.28985035
2.0950201 -2.5193768 -0.29044837
9.3934422 -11.444618 -1.4452909
9.3230429 -11.50204 -1.4452909
9.2746744 -11.586995 -1.4488789
6.3826947 -8.0744915 -0.99320096
2.0320566 -2.6020663 -0.29294005
2.0057278 -2.6010869 -0.2912457
1.9794879 -2.5998826 -0.28955138
1.9587171 -2.6056151 -0.28875402
1.9426925 -2.6175845 -0.28875402
1.9177778 -2.6174128 -0.28725901
1.9040129 -2.6323564 -0.28765768
1.8918706 -2.6496596 -0.28835535
8.2842979 -11.761325 -1.4032314
8.2034569 -11.79968 -1.4017364
8.1337156 -11.853895 -1.4022347
1.867556 -2.7562616 -0.29573071
1.860006 -2.7817335 -0.29742506
1.8516659 -2.8063855 -0.29901972
7.9461622 -12.212579 -1.4216697
7.7399368 -12.056786 -1.397351
7.665812 -12.10405 -1.397351
7.6019416 -12.167737 -1.3993443
7.5365338 -12.229401 -1.4011383
7.4520521 -12.260108 -1.3993443
7.3710585 -12.296214 -1.398248
7.285346 -12.324079 -1.3962547
7.20959 -12.368549 -1.3962547
7.1375279 -12.419456 -1.397052
7.0626607 -12.465613 -1.397351
6.9821591 -12.501764 -1.3965536
6.9033995 -12.540884 -1.396155
6.8305898 -12.590878 -1.397052
6.7532048 -12.632553 -1.397052
6.6713929 -12.665829 -1.396155
6.5898857 -12.699459 -1.3953576
6.5077639 -12.731681 -1.3944607
6.422811 -12.75804 -1.3929657
6.3417568 -12.791861 -1.3923676
6.2566018 -12.817119 -1.3908726
6.1860271 -12.872308 -1.3927664
6.1133089 -12.923514 -1.3942614
6.0309572 -12.954468 -1.3935636
5.9414129 -12.969517 -1.3911717
5.8703055 -13.024779 -1.3932647
5.8124528 -13.110585 -1.3987464
5.7315006 -13.145091 -1.3986467
5.6413279 -13.158062 -1.3962547
5.5635767 -13.199764 -1.397052
5.4874291 -13.245605 -1.3983476
5.3985505 -13.260593 -1.3963543
5.2930694 -13.233416 -1.389876
5.2012215 -13.238786 -1.3869857
5.1044941 -13.230532 -1.3827
5.0066552 -13.217868 -1.3780156
4.9188709 -13.230618 -1.3761219
4.8358922 -13.255877 -1.3756236
4.7564759 -13.290921 -1.3762215
4.6708817 -13.308589 -1.3750256
4.5820131 -13.316299 -1.3728329
4.4967227 -13.333792 -1.3717365
4.4148235 -13.361132 -1.3717365
4.3373523 -13.402169 -1.3732315
4.2580414 -13.438017 -1.3742282
4.1731496 -13.456287 -1.3734308
4.0786633 -13.4426 -1.3693446
3.9873323 -13.437801 -1.3662549
3.9023104 -13.453414 -1.3653579
3.8275545 -13.504868 -1.3682482
3.7451489 -13.530016 -1.3684475
3.658946 -13.541214 -1.3672515
3.5826364 -13.589389 -1.3699425
3.5029011 -13.625571 -1.3714375
3.4194717 -13.647774 -1.3715372
3.3340156 -13.661731 -1.3708396
3.2492065 -13.678059 -1.3704408
3.1730564 -13.73167 -1.3739293
3.0933185 -13.771269 -1.3760222
3.0089734 -13.790962 -1.3761219
2.9226484 -13.801378 -1.3753246
2.8367093 -13.813203 -1.3747265
2.7565579 -13.85377 -1.3771186
2.6760154 -13.893873 -1.3795106
2.5927169 -13.920792 -1.3806069
2.5113022 -13.958962 -1.3828993
2.4325781 -14.014304 -1.3869857
2.3445733 -14.01719 -1.3857896
2.2537799 -14.001841 -1.3827996
2.1632633 -13.985906 -1.3798096
0.4188 -2.8158166 -0.24739219
1.9892329 -13.995637 -1.378215
0.26050055 -1.9097062 -0.1552998
0.25056762 -1.9250835 -0.15669514
0.23546275 -1.8999211 -0.15400413
0.22542067 -1.9151659 -0.15539947
0.21267833 -1.9076123 -0.15450247
0.20096943 -1.9088814 -0.15450247
0.18915547 -1.9090884 -0.15440279
0.26365617 -2.8445482 -0.24838886
0.67379332 -7.8127942 -0.74772096
0.62417769 -7.7959523 -0.74562794
0.14436924 -1.9419329 -0.15729314
0.13258523 -1.9447677 -0.15749247
0.12071085 -1.9465379 -0.15759215
0.10903934 -1.9522094 -0.15809049
0.097205162 -1.9558232 -0.15838948
0.10685293 -2.4603934 -0.20892069
0.13143109 -3.5388753 -0.3169598
0.11011098 -3.5525444 -0.31825548
0.088408493 -3.557132 -0.31865415
0.066123344 -3.5327363 -0.31616247
0.043824013 -3.4823332 -0.31107944
0.022790592 -3.5372617 -0.31656113
0.0010843915 -3.6079814 -0.32363752
-0.021476552 -3.6765754 -0.33051455
-0.044084121 -3.6803541 -0.33091322
-0.061054461 -3.3755896 -0.30041507
-0.078930415 -3.259764 -0.2888537
-0.10338985 -3.4044228 -0.30340508
-0.12841801 -3.5160854 -0.31466746
-0.14909223 -3.4943552 -0.31257445
-0.69869179 -14.239563 -1.3902746
-0.80132484 -14.511202 -1.4179821
-0.8920579 -14.53382 -1.4207728
-0.98403835 -14.569769 -1.4249588
-0.28066617 -3.8195734 -0.34586325
-0.30266982 -3.7999258 -0.34406927
-0.32623619 -3.8009713 -0.34436825
-0.27079418 -2.9458129 -0.25855491
-0.2885716 -2.9411252 -0.2582559
-1.5339445 -14.660242 -1.4387128
-0.32420322 -2.9334066 -0.25785723
-0.34277496 -2.9363034 -0.25835556
-1.808161 -14.66705 -1.4425002
-1.8937744 -14.622129 -1.4391115
-1.9889497 -14.650659 -1.4431978
-2.0825865 -14.664778 -1.4458889
-2.1726747 -14.652707 -1.4459885
-0.47023532 -3.0485473 -0.27121261
-0.49114525 -3.0593579 -0.27260795
-0 -0 -0
-0.65539968 -3.7834747 -0.34685993
-0.55635816 -3.0997438 -0.27769098
-0.5708136 -3.0718164 -0.27519929
-0.53885108 -2.8044472 -0.2482892
-2.8900025 -14.533329 -1.4464868
-2.9839258 -14.538714 -1.4488789
-3.0842071 -14.572698 -1.4542609
-0.5790959 -2.6601093 -0.23493381
-0.84984988 -3.7894752 -0.35124528
-0.59646499 -2.5868776 -0.22815645
-0.61416602 -2.5909138 -0.22895378
-0.64137352 -2.6334963 -0.2337378
-0.65631127 -2.6246855 -0.23323946
-0.67512852 -2.6312096 -0.2343358
-0.71332532 -2.7107251 -0.24300684
-0.7392872 -2.7408781 -0.24659485
-4.0020022 -14.464512 -1.4655232
-4.1066856 -14.496165 -1.4714036
-0.94232428 -3.2533648 -0.30151141
-0.81368738 -2.7467117 -0.2491862
-0.8062613 -2.661685 -0.24081416
-4.4874301 -14.4756 -1.480274
-4.558135 -14.390881 -1.4742939
-4.6564593 -14.393882 -1.4775831
-4.7437544 -14.362206 -1.477284
-4.8219337 -14.303599 -1.4741943
-4.9031343 -14.254925 -1.472201
-4.991497 -14.227388 -1.4725
-5.0867462 -14.218978 -1.474892
-1.1885812 -3.2618589 -0.3099831
-5.2792273 -14.204916 -1.4801743
-1.156626 -3.0572016 -0.28965104
-1.1692747 -3.0342655 -0.28795668
-1.2246157 -3.1205723 -0.29802307
-1.2762551 -3.1943004 -0.30679378
-1.3250927 -3.2582934 -0.3145678
-1.2525263 -3.0267186 -0.29034871
-1.2938738 -3.0730743 -0.29622906
-5.9879045 -13.970835 -1.484759
-1.3386455 -3.0733831 -0.29802307
-1.3647366 -3.0814853 -0.29981709
-1.3901596 -3.0875678 -0.30141175
-6.3774447 -13.925518 -1.49642
-6.4707484 -13.903264 -1.4983138
-6.5678477 -13.888484 -1.5011045
-6.6576829 -13.857788 -1.5022007
-1.3794675 -2.8288662 -0.27749166
-1.3830993 -2.7927125 -0.27440196
-1.3729181 -2.7299585 -0.26832229
-1.3982469 -2.7383173 -0.27021596
-7.1144629 -13.714168 -1.5097755
-7.2142425 -13.70019 -1.5131642
-7.3216228 -13.699542 -1.5181475
-1.4735675 -2.7189209 -0.27200997
-1.4892631 -2.7080848 -0.27181062
-7.5240321 -13.47558 -1.5081807
-7.6261935 -13.463789 -1.5121675
-7.7384081 -13.468506 -1.5181475
-7.8239102 -13.425928 -1.5187455
-5.0176139 -8.4909391 -0.95014477
-8.0305376 -13.399741 -1.5270178
-8.158083 -13.42504 -1.5357885
-8.2486553 -13.388285 -1.5373832
-8.3232689 -13.325605 -1.5359879
-5.1032286 -8.0606642 -0.91785264
-5.2488046 -8.1790857 -0.93569309
-5.2918372 -8.1358824 -0.9343974
-5.3509703 -8.1173811 -0.93609172
-5.6201472 -8.4128408 -0.97565955
-8.8577595 -13.083548 -1.5448583
-8.9513826 -13.048642 -1.5472503
-9.0341187 -12.997557 -1.5477487
-9.1045322 -12.928864 -1.5461539
-5.5819712 -7.8250198 -0.92502868
-9.3720894 -12.967769 -1.5648913
-9.445015 -12.901187 -1.563795
-9.5091791 -12.823011 -1.5613034
-1.7220972 -2.2942784 -0.24958487
-1.7030039 -2.2401161 -0.24410318
-1.7306863 -2.247752 -0.24639551
-1.7266922 -2.2143426 -0.24350516
-1.7316089 -2.1927772 -0.24210984
-10.006425 -12.503934 -1.5663863
-10.087344 -12.447712 -1.5670841
-10.164795 -12.387121 -1.5672834
-10.246333 -12.331405 -1.5681803
-1.6436622 -1.9551448 -0.21809007
-1.6543372 -1.9435079 -0.21789072
-1.6603818 -1.9265397 -0.21699373
-10.573366 -12.107709 -1.5723664
-1.6779661 -1.8993106 -0.21609673
-1.6836152 -1.8823071 -0.21519972
-1.6944649 -1.8712039 -0.21510005
-1.6971688 -1.8512409 -0.21380438
-1.7206861 -1.8539143 -0.21559839
-2.5677791 -2.7319536 -0.33779022
-2.5659683 -2.6966898 -0.33509922
-2.5665843 -2.6644173 -0.33280689
-3.2180364 -3.2995257 -0.4239026
-2.4088857 -2.4401789 -0.30569744
-3.4187055 -3.4202011 -0.44662669
-3.2704377 -3.2320416 -0.42280626
-3.3094366 -3.2306755 -0.42549726
-3.4209006 -3.2986925 -0.43825465
-3.410809 -3.2488241 -0.43406865
-11.14383 -10.481344 -1.494626
-11.211578 -10.416155 -1.4951245
-3.1562378 -2.897572 -0.39141113
-3.5263758 -3.1975503 -0.43905199
-3.5377741 -3.1685524 -0.43795565
-3.4490635 -3.0512156 -0.42350394
-3.4669709 -3.0293405 -0.42340425
-3.468164 -2.993063 -0.42111191
-3.3614883 -2.865257 -0.40466684
-11.826421 -9.952136 -1.5104731
-11.88956 -9.8812914 -1.5107721
-3.4167356 -2.8054223 -0.40506551
-3.9603212 -3.2110419 -0.47293881
-10.910347 -8.7331457 -1.3620689
-10.96685 -8.6685047 -1.3624675
-11.03709 -8.6145182 -1.3646601
-11.198508 -8.6304445 -1.3784143
-3.9381723 -2.9976771 -0.45798874
-3.9572873 -2.9740541 -0.4580884
-11.287536 -8.3724737 -1.3699425
-11.435037 -8.3735924 -1.3819026
-11.486201 -8.3032713 -1.3819026
-11.556373 -8.2465067 -1.3842946
-11.608381 -8.176589 -1.3844939
-11.637091 -8.0904408 -1.3819026
-11.670104 -8.0076265 -1.3799093
-3.0800676 -2.0867918 -0.3348999
-3.090332 -2.0661952 -0.3346009
-3.1037824 -2.0477421 -0.33470055
-3.1112845 -2.0254035 -0.33410254
-3.1328647 -2.012187 -0.33519888
-3.209883 -2.0339146 -0.34287325
-3.2712491 -2.0447552 -0.34865394
-3.3887777 -2.0893676 -0.36101267
-3.5103743 -2.1346796 -0.37377006
-3.599365 -2.1586256 -0.38264042
-3.5928407 -2.1248553 -0.38034809
-3.6023722 -2.1007659 -0.37994942
-3.7040567 -2.1296828 -0.39021513
-3.6443303 -2.0657194 -0.38184309
-3.7186184 -2.0777617 -0.38891944
-3.9283056 -2.163332 -0.41144422
-3.9729929 -2.1562665 -0.41503224
-3.980006 -2.1285648 -0.41433457
-3.9921112 -2.1036401 -0.41423488
-14.349333 -7.4458523 -1.5815358
-8.7357082 -4.4656434 -0.94496208
-8.9824753 -4.5224543 -0.96957988
-7.6701083 -3.803091 -0.81978023
-7.6843572 -3.7515924 -0.81878358
-9.1009684 -4.3740177 -0.97366625
-9.1177406 -4.3134136 -0.97256988
-9.0727711 -4.2242165 -0.96469617
-9.1609402 -4.1970568 -0.97157323
-5.7964058 -2.6131649 -0.59911734
-5.7914085 -2.5682759 -0.596825
-5.8170915 -2.5370657 -0.59792131
-9.3316021 -4.0011568 -0.97924757
-9.2532806 -3.9005477 -0.96808487
-9.3606949 -3.8783464 -0.97715455
-9.3529806 -3.8080835 -0.97376591
-9.3733988 -3.7495146 -0.97346687
-9.570344 -3.7603192 -0.99220431
-9.3267984 -3.5987561 -0.96359986
-9.4464102 -3.57846 -0.97406489
-9.4709883 -3.5214705 -0.97436392
-9.5279388 -3.4762468 -0.97815126
-9.3626537 -3.3510158 -0.95831752
-9.235631 -3.2417831 -0.94266975
-9.2242985 -3.1743722 -0.93938076
-9.4906359 -3.2010005 -0.9654935
-7.7999969 -2.5778072 -0.78509611
-9.3673153 -3.031918 -0.94845045
-9.3193436 -2.9533505 -0.94147378
-9.4095192 -2.9185064 -0.94904846
-9.4634323 -2.8716908 -0.9528358
-9.7508383 -2.893651 -0.98104161
-9.6298399 -2.7935851 -0.96658987
-9.7272167 -2.7572293 -0.97496188
-9.6662741 -2.675998 -0.96688884
-9.7055655 -2.6228638 -0.9692809
-9.8311634 -2.5921698 -0.98064291
-9.7977343 -2.5191672 -0.97555989
-9.852581 -2.4689136 -0.97964627
-9.8955784 -2.4152517 -0.98253661
-9.8985939 -2.3517294 -0.98134059
-9.8750277 -2.2822149 -0.97745359
-9.9383583 -2.2326972 -0.98253661
-10.059781 -2.1952097 -0.99359965
-10.286247 -2.1785698 -1.0154268
-10.114229 -2.0773978 -0.99649
-10.275123 -2.044802 -1.0116394
-10.528814 -2.0281785 -1.0362571
-10.825722 -2.01653 -1.0652603
-10.985767 -1.976658 -1.08031
-11.058472 -1.9197589 -1.0864893
-11.08182 -1.8538381 -1.0876853
-12.047869 -1.9394269 -1.1845617
-13.2366 -2.0474279 -1.3038633
-13.538284 -2.0090888 -1.3331654
-14.519727 -2.063679 -1.4312378
-15.823739 -2.1499436 -1.5618017
-16.690193 -2.1633892 -1.6480137
-17.550463 -2.1654263 -1.733528
-17.973551 -2.1057208 -1.7748899
-19.555613 -2.169415 -1.9330616
-19.576473 -2.0502119 -1.9338589
-19.598587 -1.9310293 -1.9348556
-19.570435 -1.8070811 -1.9308689
-19.591066 -1.6878186 -1.9318656
-19.613949 -1.5686088 -1.9331613
-19.619236 -1.4479376 -1.9327626
-19.624771 -1.3273277 -1.9324635
-19.628574 -1.2066435 -1.9320649
-19.636602 -1.086237 -1.9321645
-19.633953 -0.96528941 -1.9312676
-19.633541 -0.84454334 -1.9306695
-19.624434 -0.72354585 -1.9292742
-19.618557 -0.60281396 -1.9282776
-19.57613 -0.48130313 -1.9236928
-19.595627 -0.36148819 -1.9253873
-19.577578 -0.2410011 -1.9233938
-19.560778 -0.1207613 -1.9215999
-19.546225 -0.0007366729 -1.9201049
-19.539892 0.11915996 -1.9195069
-19.528843 0.23892991 -1.9185102
-19.52104 0.35864213 -1.9179121
-19.522451 0.47851199 -1.9183109
-19.518154 0.59825993 -1.9182112
-19.504171 0.71764338 -1.9172145
-19.495424 0.83713424 -1.9168159
-19.489922 0.95674014 -1.9168159
-19.477722 1.0759804 -1.9162178
-19.448904 1.1941304 -1.9140252
-19.438232 1.3132428 -1.9137262
-17.432741 -0.44391105 -1.9211558
-17.426193 -0.3367644 -1.920151
-17.438862 -0.22997734 -1.9213791
-17.422058 -0.12284362 -1.9193695
-17.428446 -0.015947161 -1.9200394
-17.415298 0.090924926 -1.918588
-17.401495 0.19763507 -1.9171367
-17.38505 0.3041445 -1.915462
-17.360006 0.41027197 -1.9128942
-17.354183 0.51669461 -1.9125593
-17.342741 0.62288296 -1.9116662
-17.3237 0.7286582 -1.9099915
-17.330812 0.83551466 -1.9113313
-17.298569 0.94038302 -1.908317
-17.277594 1.0456072 -1.9066423
-17.291676 1.1529888 -1.9089868
-17.264454 1.2576233 -1.9067539
-17.228672 1.3613412 -1.903628
-17.174448 1.4631494 -1.8984923
-17.178013 1.5696776 -1.8999437
-17.162123 1.6744715 -1.8992739
-17.128792 1.7773863 -1.8967061
-17.124477 1.8832134 -1.8974876
-17.147148 1.992265 -1.9013951
-17.055691 2.0877829 -1.8924637
-17.047487 2.1930292 -1.8930219
-17.003181 2.2934721 -1.8895611
-16.999613 2.3992858 -1.890789
-16.995384 2.505142 -1.8920171
-16.962996 2.606811 -1.8901192
-16.958456 2.7127283 -1.8914589
-16.93561 2.8157544 -1.890789
-16.91116 2.9184337 -1.8900076
-16.848915 3.0142696 -1.8849837
-16.860394 3.1232061 -1.8884445
-16.833103 3.225105 -1.8875514
-16.820797 3.3298738 -1.8884445
-16.801022 3.4332206 -1.8885562
-16.768944 3.5339911 -1.8873281
-16.743059 3.6359735 -1.8868816
-16.706858 3.7356031 -1.8853186
-16.673937 3.8358164 -1.8842021
-16.632679 3.9339368 -1.8821926
-16.592777 4.0321646 -1.8804064
-16.556154 4.1310134 -1.8790666
-16.51413 4.2283325 -1.8771687
-16.476339 4.3265533 -1.875829
-16.444685 4.4262772 -1.8752707
-16.399014 4.522078 -1.8731495
-16.376696 4.6242352 -1.8738195
-16.32892 4.7191162 -1.8715866
-16.29394 4.8175292 -1.8709167
-16.24695 4.91224 -1.8689072
-16.201313 5.0071425 -1.8671209
-16.159861 5.1031661 -1.8658928
-16.132973 5.2037501 -1.866451
-16.101683 5.3029532 -1.8665627
-16.082029 5.4060841 -1.8681257
-16.059835 5.5085282 -1.8694654
-16.037928 5.6112323 -1.8709167
-16.009747 5.7118707 -1.8716983
-16.001482 5.8198466 -1.8749359
-15.979447 5.9231009 -1.8766105
-15.972552 6.0322719 -1.880183
-15.951934 6.1365862 -1.8821926
-15.915831 6.2350745 -1.8824159
-15.899426 6.3414502 -1.8850954
-15.891523 6.4515967 -1.8888911
-15.87368 6.5580902 -1.8915706
-15.84322 6.6596012 -1.8927987
-15.84409 6.7746592 -1.8979342
-15.826829 6.8824482 -1.9009485
-15.807023 6.9894767 -1.9037396
-15.792844 7.0993729 -1.9073122
-15.764351 7.2031627 -1.9092101
-15.733377 7.3060331 -1.9108847
-15.694542 7.4054022 -1.9116662
-15.677484 7.5153079 -1.9152387
-15.614993 7.6035314 -1.9132292
-15.609021 7.7194633 -1.9183648
-15.619973 7.8445272 -1.9257331
-15.597219 7.9533124 -1.9289708
-15.590487 8.0707932 -1.9343296
-15.568822 8.1810951 -1.9379021
-15.535868 8.2858219 -1.940135
-15.514449 8.3970737 -1.9439309
-15.50183 8.5136366 -1.9489547
-15.469266 8.6197186 -1.9515225
-15.441174 8.7286549 -1.9547602
-15.433015 8.8494339 -1.9606771
-15.43684 8.9779348 -1.9682689
-15.40115 9.084096 -1.9708366
-15.294803 9.1483288 -1.9642497
-15.27152 9.2621012 -1.9686038
-15.305825 9.4118471 -1.9806612
-15.265497 9.5166245 -1.9830056
-15.211857 9.6132975 -1.9836755
-15.181872 9.725215 -1.987583
-15.136917 9.8279266 -1.9895926
-15.097083 9.9342766 -1.9923836
-15.056513 10.040506 -1.9951746
-15.006972 10.141047 -1.9968493
-14.963326 10.245851 -1.9994171
-14.91079 10.344835 -2.0008686
-14.854352 10.441275 -2.0018733
-14.803767 10.542022 -2.0037711
-14.793608 10.672191 -2.0113628
-14.734264 10.767452 -2.0122559
-14.720636 10.896679 -2.0196245
-14.672581 11.001104 -2.0223038
-14.621424 11.103547 -2.0246482
-14.567197 11.203959 -2.0266578
-14.513856 11.305343 -2.0288906
-14.453578 11.401571 -2.0302303
-14.40664 11.508649 -2.0335796
-14.375156 11.628703 -2.0392735
-14.333515 11.741247 -2.0436275
-14.283384 11.847373 -2.046865
-14.221836 11.944378 -2.0485396
-14.173262 12.05266 -2.0522239
-14.124646 12.161444 -2.0560198
-14.070734 12.266166 -2.0591457
-14.027243 12.380547 -2.0639465
-13.974726 12.487572 -2.0675189
-13.923634 12.596417 -2.0714264
-13.854876 12.689669 -2.0727661
-13.818289 12.812954 -2.0791297
-13.679273 12.84105 -2.0698633
-13.654971 12.976769 -2.0783482
-13.486288 12.974879 -2.0645046
-13.395031 13.046291 -2.0627184
-13.266609 13.080792 -2.0551267
-13.204384 13.180202 -2.0580294
-13.126759 13.264505 -2.0585876
-13.045121 13.3448 -2.0585876
-12.916743 13.376698 -2.0511074
-12.814531 13.434848 -2.0478699
-12.697782 13.477059 -2.0422878
-12.611464 13.551081 -2.0417295
-12.514627 13.613577 -2.0394967
-12.415495 13.673188 -2.0369289
-12.319421 13.735795 -2.0349193
-12.211185 13.784348 -2.0309002
-12.091038 13.818631 -2.0248716
-11.994325 13.879026 -2.022862
-11.893455 13.93422 -2.0201826
-11.776346 13.969706 -2.0147121
-11.743184 14.105088 -2.0239785
-11.645055 14.163061 -2.0219688
-11.56545 14.243505 -2.0233085
-11.465402 14.298695 -2.0210757
-11.382386 14.375009 -2.0219688
-11.295193 14.446145 -2.0221922
-11.200874 14.5081 -2.0211873
-11.096582 14.556796 -2.0183964
-10.958648 14.560297 -2.0093532
-10.869694 14.628062 -2.009465
-10.781497 14.696885 -2.0097997
-10.652645 14.709643 -2.0024314
-10.574325 14.791706 -2.004776
-10.479354 14.850627 -2.0039945
-10.386332 14.912201 -2.0036595
-10.279436 14.95354 -2.0006452
-10.1847 15.012219 -2.000087
-10.078573 15.053785 -1.9972959
-9.982728 15.110368 -1.996626
-9.8757153 15.149693 -1.9937234
-9.7809591 15.207496 -1.9933884
-9.6794777 15.254639 -1.9917138
-9.5772581 15.300266 -1.9899275
-9.4544811 15.312238 -1.9837872
-9.3774071 15.397969 -1.9874713
-9.2633057 15.422847 -1.9832289
-9.1614084 15.467425 -1.981666
-9.0628214 15.517341 -1.9808844
-8.9813242 15.596769 -1.9840105
-8.8658295 15.617017 -1.9795448
-8.7640152 15.660716 -1.9782051
-8.6552782 15.691572 -1.9753023
-8.5407972 15.711208 -1.9710599
-8.4442339 15.763318 -1.9710599
-8.3204479 15.763862 -1.9645847
-8.2331944 15.833133 -1.9669292
-8.1286402 15.869202 -1.9651428
-8.0194769 15.895712 -1.9622402
-7.920907 15.942839 -1.9620169
-7.8198776 15.984892 -1.9612354
-7.7125931 16.013771 -1.9588909
-7.6009922 16.032957 -1.95543
-7.4953289 16.063986 -1.9535321
-7.3941331 16.104256 -1.9528623
-7.2951798 16.149321 -1.9528623
-7.1773887 16.152006 -1.9477267
-7.0765548 16.192101 -1.94728
-6.9743218 16.228825 -1.9464986
-6.8680372 16.255751 -1.9446007
-6.7689266 16.299421 -1.944824
-6.67029 16.34433 -1.9452705
-6.5709872 16.387716 -1.9456055
-6.4692178 16.424953 -1.9452705
-6.3751264 16.481947 -1.9473917
-6.2763448 16.527258 -1.9481733
-6.1748171 16.565458 -1.9481733
-6.079885 16.621698 -1.9504061
-5.9801311 16.665239 -1.9511876
-5.8787527 16.704432 -1.9515225
-5.7761455 16.740189 -1.9515225
-5.6745944 16.779079 -1.951969
-5.5652809 16.794716 -1.9497362
-5.4602847 16.822878 -1.9490664
-5.35425 16.84754 -1.9480616
-5.2552023 16.89431 -1.9497362
-5.1456547 16.907223 -1.9475034
-5.0423841 16.940384 -1.9477267
-4.9369564 16.966232 -1.9471685
-4.8284116 16.980913 -1.9453822
-4.7196069 16.993942 -1.9434843
-4.6103039 17.004358 -1.9413631
-4.4992719 17.007347 -1.9384604
-4.3896184 17.014427 -1.9361159
-4.2805319 17.02273 -1.9339947
-4.1741104 17.040953 -1.9331015
-4.0667043 17.054646 -1.9317619
-3.959512 17.068628 -1.9305338
-3.3266881 14.751506 -1.6609174
-3.1729434 14.483336 -1.6277596
-3.0753331 14.461708 -1.6230706
-2.9379556 14.244778 -1.5960532
-2.8401725 14.21089 -1.5901362
-2.7585866 14.257318 -1.5934855
-2.6774518 14.308164 -1.5973929
-2.5759935 14.249025 -1.5887965
-2.451107 14.050171 -1.5643468
-2.3747387 14.123746 -1.5710453
-2.2813632 14.096849 -1.5663563
-2.182297 14.030064 -1.5572016
-2.0437846 13.69231 -1.5173453
-1.9556514 13.676065 -1.5141077
-1.8712958 13.684854 -1.5137727
-1.7833047 13.665531 -1.5103118
-1.6979502 13.664382 -1.5089722
-1.6203671 13.727836 -1.5150008
-1.5781894 14.113791 -1.5575366
-1.4850863 14.061937 -1.5506147
-1.4074292 14.157805 -1.5604392
-1.3560531 14.547116 -1.6034216
-1.3328757 15.314495 -1.6890513
-1.1894525 14.711238 -1.620168
-1.149507 15.392131 -1.6960847
-1.0411788 15.196644 -1.6733097
-1.0002546 16.041826 -1.7677592
-0.90721571 16.143904 -1.7785885
-0.72182643 14.425185 -1.5846657
-0.63181913 14.395588 -1.5808698
-0.61155593 16.201561 -1.7835008
-0.47603783 15.063763 -1.6552236
-0.38278913 15.034611 -1.6516511
-0.28980079 14.99892 -1.6474087
-0.19798684 15.017309 -1.6493067
-0.10494586 14.892038 -1.635128
-0.013797393 15.136864 -1.6625921
0.078688353 15.06114 -1.6541072
0.17343165 15.266066 -1.6772172
0.27991056 15.997989 -1.7596092
0.38515076 16.296 -1.7933253
0.47901678 16.087713 -1.7702153
0.53138101 14.79343 -1.6250802
0.62155741 14.77599 -1.6235173
0.71240085 14.775869 -1.6239638
0.76891953 14.143104 -1.5532942
0.85490537 14.125224 -1.5518428
0.93389338 14.004693 -1.5388923
1.0447795 14.341628 -1.5775206
1.101926 13.944627 -1.5335335
1.1870462 13.932652 -1.5329752
1.2707952 13.906303 -1.530854
1.357353 13.911101 -1.5323054
1.4495548 13.968737 -1.5397854
1.5389307 13.993165 -1.5435812
1.6197169 13.940026 -1.538669
1.7015991 13.900233 -1.5353197
1.7879983 13.898401 -1.5363245
1.8743061 13.895047 -1.5372176
1.9634172 13.910837 -1.5403436
2.0490253 13.900495 -1.5405669
2.1372969 13.907305 -1.5427998
2.2251015 13.909629 -1.5445861
2.3089409 13.886891 -1.5435812
2.4027233 13.922406 -1.549275
2.5887179 14.469879 -1.6134694
2.5715821 13.882101 -1.5481586
2.6565256 13.865085 -1.5480469
2.7425151 13.853398 -1.5486052
2.8396013 13.895701 -1.5554154
2.927474 13.890657 -1.5568668
3.0198197 13.905451 -1.5606625
3.4921122 15.617764 -1.7599442
3.5771823 15.549557 -1.7545854
3.3319812 14.087344 -1.5883498
3.7583444 15.465863 -1.7501197
3.8276715 15.340306 -1.7382855
3.9076772 15.261658 -1.7319219
3.7435768 14.256041 -1.6179351
3.8777254 14.406489 -1.6381423
3.946502 14.311533 -1.6298808
4.0323515 14.280354 -1.6290994
4.1472106 14.349857 -1.640152
4.264482 14.423249 -1.6517627
4.3244309 14.30264 -1.6407101
4.3695645 14.138166 -1.624522
4.443665 14.071289 -1.619833
4.5485287 14.101451 -1.6266432
4.7655187 14.469707 -1.673533
4.8646617 14.471279 -1.6772172
4.9575553 14.453378 -1.6786685
4.9411364 14.122525 -1.642943
5.030035 14.098494 -1.6437244
5.1422596 14.138341 -1.6522093
5.4793048 14.78208 -1.73315
5.4863462 14.52692 -1.7065791
5.5982122 14.552343 -1.7137243
5.5949712 14.281771 -1.6852554
5.6777115 14.235172 -1.6838042
5.9167075 14.573899 -1.7291309
6.0048814 14.534566 -1.728796
6.0404282 14.370107 -1.7132777
6.1394262 14.358357 -1.7164037
6.2686243 14.415194 -1.7280145
6.3670025 14.39918 -1.7308055
6.4495306 14.347153 -1.7292426
6.5345507 14.300982 -1.728461
6.66361 14.349849 -1.7395136
6.8248925 14.464172 -1.7588278
6.8928962 14.37901 -1.753469
6.9905653 14.356101 -1.7559251
7.0820451 14.320064 -1.7568182
7.1742377 14.28522 -1.7579347
7.2698803 14.256866 -1.7599442
7.3745818 14.245527 -1.7641866
7.4489093 14.175378 -1.7610606
7.5881214 14.227612 -1.7735646
7.6497359 14.133591 -1.7675359
7.8190689 14.237077 -1.78685
7.9227242 14.218347 -1.7906458
8.0107956 14.171197 -1.7908691
8.1252785 14.170053 -1.7971212
8.2155685 14.125944 -1.7979026
8.3323793 14.126626 -1.8046012
8.4173717 14.072675 -1.8042662
8.5231438 14.053051 -1.8085086
8.6336756 14.040276 -1.8137559
8.7496271 14.035105 -1.8201194
8.8822966 14.05508 -1.829944
8.9930258 14.038808 -1.8350796
9.1190414 14.045042 -1.8433411
9.2416458 14.044444 -1.8508211
9.3629322 14.040389 -1.8579662
9.4928598 14.047723 -1.866786
9.6260366 14.058087 -1.876164
9.7551641 14.060813 -1.8846487
9.8921146 14.07305 -1.8945849
10.027851 14.081704 -1.9041861
10.151275 14.071488 -1.9113313
10.279639 14.066707 -1.9193695
10.421332 14.078448 -1.9298639
10.556401 14.079437 -1.9390186
10.681056 14.065051 -1.9461637
10.811988 14.05754 -1.9544252
10.940784 14.045814 -1.9622402
11.119696 14.096232 -1.9790982
11.266141 14.103052 -1.9899275
11.422461 14.120193 -2.0024314
11.568078 14.122104 -2.0129259
11.712877 14.121228 -2.0231969
11.839566 14.097035 -2.0302303
11.937428 14.03775 -2.0322399
12.059648 14.006413 -2.038492
12.102264 13.882711 -2.0311236
12.189192 13.810428 -2.0314584
12.251852 13.710922 -2.0277743
12.319083 13.617064 -2.0249832
12.373543 13.509707 -2.0201826
12.435934 13.41167 -2.0168333
12.477185 13.291638 -2.0101347
12.526332 13.180973 -2.0048876
12.584927 13.080948 -2.0013151
12.643459 12.981413 -1.9978541
12.707524 12.888021 -1.9953979
12.773728 12.797147 -1.9933884
12.829407 12.696159 -1.9898158
12.878643 12.589414 -1.9853501
12.925624 12.481162 -1.9806612
12.978234 12.378982 -1.976977
13.034418 12.280716 -1.9739627
13.092067 12.184258 -1.9712832
13.151218 12.089574 -1.9689387
13.208966 11.993955 -1.9664826
13.25198 11.885476 -1.9619052
13.284492 11.768355 -1.9558766
13.329527 11.663063 -1.9518574
13.37678 11.560262 -1.9482849
13.430077 11.463127 -1.9457171
13.477366 11.36129 -1.9423678
13.536896 11.270115 -1.9409165
13.587371 11.171694 -1.9382371
13.63792 11.073706 -1.9356693
13.681578 10.970544 -1.9322084
13.727599 10.869732 -1.9291941
13.779944 10.774279 -1.9271845
13.835569 10.681628 -1.9257331
13.891366 10.589305 -1.9243934
13.903677 10.464427 -1.917025
13.943695 10.361137 -1.9136758
14.007008 10.275385 -1.9136758
14.038404 10.166513 -1.9093217
14.083543 10.068048 -1.9069772
14.137747 9.9762859 -1.9059725
14.177493 9.8745832 -1.9030697
14.221437 9.7761469 -1.9008368
14.258951 9.6736374 -1.8978225
14.281706 9.5616379 -1.8929102
14.312745 9.4557495 -1.8892261
14.346354 9.3520126 -1.8859885
14.375049 9.2455311 -1.8821926
14.406336 9.14118 -1.8788433
14.434357 9.0352116 -1.8751591
14.471768 8.9355106 -1.8728147
14.498315 8.8294868 -1.8691305
14.53944 8.7326851 -1.8674558
14.583344 8.6377382 -1.8662277
14.617191 8.5370674 -1.8637716
14.648631 8.4353151 -1.8610922
14.684558 8.3364429 -1.8590826
14.721558 8.2384176 -1.8572963
14.759649 8.1412134 -1.8557334
14.798848 8.0448008 -1.8543936
14.834791 7.946806 -1.8527191
14.869212 7.8482099 -1.8509327
14.887111 7.7412376 -1.8471369
14.900721 7.6325297 -1.8428944
14.925092 7.5297661 -1.8401034
14.950544 7.4278755 -1.8375356
14.96906 7.3228998 -1.8341864
15.009233 7.2287574 -1.8336282
15.02547 7.1233287 -1.8301673
15.032874 7.0141916 -1.8257016
15.02054 6.8965249 -1.8188914
15.068913 6.8070946 -1.8196728
15.101315 6.7104697 -1.8185564
15.134922 6.6144996 -1.8176633
15.163354 6.516408 -1.8162119
15.203052 6.4232445 -1.8162119
15.248602 6.3325076 -1.8169935
15.300052 6.244082 -1.8185564
15.326086 6.145277 -1.8171051
15.377374 6.0565848 -1.8187797
15.423514 5.9657025 -1.8198961
15.466332 5.8734226 -1.8206776
15.483457 5.7714705 -1.8184448
15.551243 5.6883059 -1.8223523
15.600818 5.5981488 -1.8241385
15.639561 5.5039682 -1.8246968
15.64016 5.3965564 -1.8207893
15.715339 5.314816 -1.8258132
15.770293 5.225791 -1.8284926
15.816239 5.1335301 -1.8301673
15.858806 5.039999 -1.831507
15.895125 4.9443674 -1.8321768
15.928016 4.8476119 -1.8325118
15.958413 4.7500715 -1.8326234
15.989166 4.6526184 -1.8328466
16.01837 4.5546951 -1.8329583
16.031652 4.4523335 -1.8312837
16.031815 4.3465991 -1.8281577
16.076435 4.2529774 -1.8302789
16.119549 4.1587234 -1.8322885
16.160183 4.0636148 -1.8340747
16.192535 3.9662731 -1.8349679
16.203033 3.8636155 -1.8334049
16.236115 3.7663689 -1.8345213
16.251165 3.6649258 -1.8336282
16.277229 3.5659924 -1.8340747
16.299776 3.4662566 -1.8341864
16.325603 3.3671818 -1.8347446
16.365446 3.2708421 -1.8369775
16.393988 3.1720631 -1.8379822
16.42584 3.0737884 -1.8394336
16.451239 2.9741812 -1.8402151
16.468199 2.8730114 -1.8401034
16.504137 2.7750416 -1.8422246
16.527719 2.6748335 -1.8430061
16.552658 2.5747457 -1.8440109
16.571095 2.4735723 -1.8443458
16.578091 2.3707218 -1.8434527
16.599216 2.2698987 -1.8442342
6.6308331 0.8650918 -0.71329695
6.6212239 0.82255095 -0.7116223
6.5866704 0.77724773 -0.7071566
6.5182338 0.72864401 -0.69889504
6.5107231 0.6873824 -0.69755536
6.5237184 0.64830536 -0.69856012
6.4949212 0.60521972 -0.69487596
6.5094028 0.56630433 -0.69610399
6.507802 0.52595216 -0.69554579
6.5099158 0.48593712 -0.69543415
6.5147576 0.44611976 -0.69565743
6.5084462 0.40558076 -0.69465268
6.5187497 0.36608431 -0.69554579
6.537746 0.32692388 -0.69744372
6.5436001 0.28697726 -0.69789028
6.5323281 0.24633348 -0.69643891
6.5257707 0.20599592 -0.69554579
6.517971 0.16572279 -0.69454104
6.5138969 0.12563002 -0.69398278
6.5095773 0.085593507 -0.69342458
6.5109735 0.045656908 -0.69353622
6.5151062 0.005709195 -0.69398278
6.5140247 -0.034261685 -0.69387114
6.5266099 -0.074376762 -0.69532251
6.5429215 -0.114717 -0.69722044
6.5629573 -0.15535402 -0.69956493
6.5738006 -0.19597526 -0.70090461
6.5943227 -0.23709185 -0.70336074
6.6195512 -0.27867633 -0.70637512
6.6316133 -0.31995749 -0.70793808
6.6592937 -0.36225986 -0.71128738
6.6688485 -0.40383381 -0.71262705
6.6870675 -0.4461334 -0.71497154
6.6941156 -0.48787785 -0.716088
14.431042 -1.1403491 -1.5883498
14.736665 -1.2555238 -1.6236289
14.698995 -1.3432105 -1.6202796
14.62322 -1.4268161 -1.6126879
14.577619 -1.5127215 -1.6085571
14.517684 -1.5966008 -1.6028634
10.601617 -1.2319182 -1.1610945
10.594845 -1.297066 -1.1612061
10.581758 -1.3614165 -1.1606479
10.574191 -1.4264522 -1.1607596
10.606567 -1.4971392 -1.1654485
10.582435 -1.5600183 -1.1637739
13.881767 -2.133373 -1.5398971
13.79482 -2.2067389 -1.5315239
13.820231 -2.2978594 -1.5359896
14.013479 -2.418438 -1.5596578
13.965117 -2.4984283 -1.5558619
13.887964 -2.5726678 -1.5488285
14.253533 -2.7309401 -1.5924807
14.236508 -2.8183467 -1.5924807
13.330994 -2.7242193 -1.4906628
14.209602 -2.9946826 -1.5934855
14.188046 -3.081182 -1.5931505
14.161116 -3.1664457 -1.5922574
14.130767 -3.2508266 -1.5910293
14.123126 -3.3404434 -1.5924807
8.2785225 -2.0119483 -0.91916549
8.2583075 -2.060782 -0.91827232
13.85708 -3.5480797 -1.5690358
13.822554 -3.6297574 -1.5675844
7.6326594 -2.0546422 -0.85005885
7.6218247 -2.101965 -0.85028213
14.041264 -3.9648466 -1.6011888
14.023355 -4.0528588 -1.6019702
8.001152 -2.3658655 -0.89940476
7.9579482 -2.4062877 -0.89605552
7.9411345 -2.4544847 -0.89583224
7.9316106 -2.5049598 -0.89650208
8.4608564 -2.7292819 -0.9608081
13.691003 -4.5090795 -1.5814281
13.634819 -4.5835023 -1.5780787
13.573539 -4.6557937 -1.5741713
7.7403545 -2.708359 -0.88332826
13.463904 -4.8036466 -1.568031
13.430441 -4.8848104 -1.5675844
13.392761 -4.9643636 -1.5666913
13.35833 -5.045042 -1.5662447
13.304862 -5.1183496 -1.5635653
13.244522 -5.1886539 -1.5601044
13.171822 -5.2536259 -1.5551921
13.130131 -5.3306098 -1.5540757
13.064111 -5.3974147 -1.5500566
12.985857 -5.4586053 -1.5445861
12.953033 -5.5385728 -1.5446976
12.897845 -5.6088328 -1.5421299
12.855916 -5.6846519 -1.5412368
12.823513 -5.7646494 -1.5415717
12.766208 -5.833313 -1.5388923
12.711246 -5.9027467 -1.5365478
12.665801 -5.9763899 -1.5354314
12.602009 -6.0411067 -1.5320821
12.544154 -6.1083117 -1.5295143
12.50911 -6.1864877 -1.5298493
12.422072 -6.2385974 -1.5237089
12.357885 -6.3016095 -1.5204713
12.304867 -6.3700085 -1.518685
12.224203 -6.4236646 -1.5134379
12.174036 -6.492938 -1.5120981
12.100757 -6.5495405 -1.5078558
12.038566 -6.6117072 -1.5050646
11.976936 -6.6738415 -1.5023853
11.93576 -6.7472053 -1.5023853
11.96569 -6.861342 -1.5116515
11.84691 -6.8901696 -1.5017154
11.84036 -6.9839349 -1.5064044
11.774257 -7.0426817 -1.5033901
11.718926 -7.1075807 -1.501827
11.648852 -7.1632166 -1.4983661
11.570105 -7.2130041 -1.4937887
11.514708 -7.2769599 -1.4923375
11.392855 -7.2981629 -1.4820663
11.413706 -7.4106803 -1.4908861
11.350587 -7.4691029 -1.4885416
11.288008 -7.5275817 -1.4863087
11.225963 -7.5861306 -1.4841875
11.152144 -7.636342 -1.4805033
11.095281 -7.6978292 -1.4791636
11.038083 -7.7589064 -1.477824
10.984601 -7.822454 -1.4770424
