# .PCD v0.7 - Point Cloud Data file format
VERSION 0.7
FIELDS x y z
SIZE 4 4 4
TYPE F F F
COUNT 1 1 1
WIDTH 1531
HEIGHT 1
VIEWPOINT 0 0 0 1 0 0 0
POINTS 1531
DATA ascii
-15.626007 0.95918179 -1.9173863
-15.614878 1.0547084 -1.9167665
-14.285473 -0.36120349 -1.9166093
-14.269589 -0.27320078 -1.9141695
-14.268025 -0.18560036 -1.9137629
-14.265923 -0.09802939 -1.9133563
-14.285081 -0.010507862 -1.9159316
-14.269024 0.077058777 -1.9137629
-14.257385 0.16448499 -1.912272
-14.256107 0.25196356 -1.912272
-14.254292 0.33943266 -1.912272
-14.223222 0.42602953 -1.9083412
-14.232222 0.51372212 -1.9099677
-14.200095 0.59982789 -1.906037
-14.238701 0.68900472 -1.9118652
-14.211452 0.77511835 -1.9087478
-14.220273 0.86314356 -1.9106454
-14.208777 0.94998491 -1.9098321
-14.211575 1.0377996 -1.911052
-14.189137 1.1237296 -1.9088833
-14.1415 1.207317 -1.9033262
-14.129879 1.2937037 -1.902784
-14.116744 1.3798968 -1.9021062
-14.069578 1.4624956 -1.8968201
-14.092839 1.5523764 -1.9012929
-14.04762 1.6346974 -1.8964134
-14.022573 1.7190533 -1.8943803
-13.998005 1.8032899 -1.8924826
-13.982749 1.8886157 -1.8919405
-13.978745 1.9754856 -1.8930249
-13.971262 2.0619435 -1.8937026
-13.960305 2.1479321 -1.8939737
-13.870555 2.2213321 -1.8834014
-13.879143 2.3101392 -1.8865188
-13.779767 2.380585 -1.8747267
-13.829268 2.4766166 -1.8836725
-13.806019 2.5599799 -1.882588
-13.809511 2.6483755 -1.885299
-13.788142 2.7320964 -1.8846213
-13.775002 2.8174415 -1.8851634
-13.757455 2.9019103 -1.8851634
-13.751008 2.9887946 -1.8867899
-13.74788 3.0765746 -1.8889586
-13.710399 3.1566489 -1.8863833
-13.698485 3.2425404 -1.8874676
-13.639823 3.3171675 -1.8820459
-13.633631 3.4043975 -1.8840791
-13.59041 3.4823322 -1.8809615
-13.580287 3.5686772 -1.882588
-13.543784 3.6480722 -1.8805549
-13.518279 3.7303162 -1.8801483
-13.473207 3.8069968 -1.8770308
-13.448642 3.8893199 -1.8768953
-13.435925 3.9751389 -1.8785218
-13.404643 4.0554972 -1.877573
-13.371934 4.1353283 -1.8764887
-13.329304 4.2119265 -1.8740489
-13.317352 4.2981987 -1.8760821
-13.280377 4.3764205 -1.8745911
-13.25703 4.4590883 -1.8751333
-13.202244 4.5310221 -1.8712025
-13.189156 4.6171813 -1.8733711
-13.168041 4.700686 -1.8744556
-13.127778 4.7773299 -1.872829
-13.11401 4.863647 -1.8751333
-13.065384 4.9370174 -1.8724223
-13.013577 5.0089073 -1.8693049
-12.984444 5.089386 -1.869576
-12.939168 5.1634531 -1.8675429
-12.898981 5.2393937 -1.866323
-12.872999 5.3210912 -1.8672718
-12.855633 5.4065075 -1.869576
-12.767562 5.4619064 -1.8614434
-12.774692 5.55793 -1.8675429
-12.748503 5.6398168 -1.8687627
-12.70914 5.7159019 -1.868085
-12.678333 5.7958355 -1.8687627
-12.617373 5.8618317 -1.8649676
-12.65195 5.9725513 -1.8756754
-12.604344 6.0449286 -1.8740489
-12.592847 6.1347365 -1.8779796
-12.568288 6.2184792 -1.8800128
-12.543176 6.3021517 -1.8820459
-12.521039 6.3875504 -1.8846213
-12.487768 6.4674473 -1.88557
-12.470652 6.5559354 -1.8890941
-12.457289 6.6467881 -1.893296
-12.438923 6.7353644 -1.8968201
-12.399966 6.8129926 -1.8972267
-12.362256 6.8913612 -1.8979044
-12.305078 6.9587941 -1.8956002
-12.312854 7.063251 -1.9035972
-12.288123 7.1496296 -1.9065791
-12.269621 7.2399979 -1.9106454
-12.230068 7.3181987 -1.9114586
-12.169686 7.383853 -1.9090189
-12.129214 7.4615002 -1.9098321
-12.094973 7.5431232 -1.9117297
-12.059349 7.6240768 -1.9134918
-12.032362 7.7107573 -1.9167448
-12.005595 7.7979331 -1.9201334
-11.975729 7.8834352 -1.9231154
-11.899933 7.9386249 -1.9186424
-11.919948 8.0581007 -1.930028
-11.880089 8.1378069 -1.9316546
-11.852723 8.2263651 -1.9354497
-11.832011 8.3200226 -1.9404647
-11.790421 8.3993645 -1.9420913
-11.74991 8.4796677 -1.9439889
-11.69046 8.5463419 -1.9427691
-11.676021 8.6462126 -1.949275
-11.621163 8.7165041 -1.9490039
-11.615587 8.8242044 -1.9572721
-11.498404 8.8469782 -1.9464287
-11.538468 8.9910479 -1.9628294
-11.449638 9.0352869 -1.957001
-11.397079 9.1078444 -1.9575431
-11.387192 9.2149982 -1.9656757
-11.335033 9.2884636 -1.966489
-11.274777 9.3553085 -1.9659468
-11.233851 9.4383335 -1.9689287
-11.16969 9.5019503 -1.9678444
-11.152466 9.6058683 -1.9752992
-11.117211 9.6949549 -1.9796367
-11.060486 9.7656097 -1.9801788
-11.023256 9.8537607 -1.9843806
-10.963322 9.9218769 -1.9845161
-10.906619 9.9929762 -1.9853294
-10.832748 10.048256 -1.9830252
-10.803391 10.145054 -1.9891247
-10.732323 10.20296 -1.987498
-10.663092 10.262437 -1.9862782
-10.599212 10.32698 -1.9861426
-10.546228 10.402257 -1.9881757
-10.495523 10.480073 -1.9907511
-10.434505 10.547796 -1.9914289
-10.397288 10.639967 -1.9968505
-10.335936 10.70784 -1.9976637
-10.285765 10.78755 -2.0007813
-10.241117 10.873539 -2.0051186
-10.185678 10.948503 -2.0074229
-10.111604 11.003501 -2.0060675
-10.049225 11.071206 -2.0071518
-9.9850731 11.137085 -2.0079651
-9.9158916 11.1974 -2.0078294
-9.8685255 11.282641 -2.0123024
-9.8049402 11.34973 -2.0135224
-9.7421894 11.417968 -2.0150132
-9.6764154 11.482833 -2.0159621
-9.6146498 11.552651 -2.0178597
-9.5530195 11.62291 -2.0198927
-9.4808989 11.680538 -2.0197573
-9.4375553 11.774053 -2.0259922
-9.3768167 11.846498 -2.0285676
-9.3088331 11.910055 -2.0296519
-9.2525282 11.988911 -2.033447
-9.178792 12.045458 -2.033447
-9.1035185 12.099967 -2.0331759
-9.0302839 12.157188 -2.033447
-8.9654799 12.22595 -2.0357513
-8.8995905 12.293572 -2.03792
-8.829175 12.355202 -2.0391397
-8.7571964 12.414811 -2.0400887
-8.6893482 12.480508 -2.0421219
-8.6165333 12.539305 -2.0430706
-8.5472174 12.603419 -2.0449681
-8.4868059 12.681151 -2.04917
-8.4077444 12.731333 -2.0488989
-8.3392048 12.797624 -2.0513387
-8.2605228 12.848551 -2.0513387
-8.1905527 12.913218 -2.053643
-8.1053829 12.953992 -2.0521519
-8.0382357 13.023717 -2.0554049
-7.9530201 13.06433 -2.0540495
-7.8579192 13.08825 -2.0501187
-7.7355661 13.065458 -2.0388687
-7.6827273 13.159736 -2.0463235
-7.6018357 13.206629 -2.0463235
-7.5182133 13.248715 -2.045646
-7.432426 13.286815 -2.044426
-7.3383212 13.309611 -2.0409019
-7.2522593 13.346553 -2.0396819
-7.1678915 13.386434 -2.0390043
-7.0689745 13.398617 -2.0341249
-6.9770327 13.423278 -2.0312784
-6.9017625 13.479945 -2.033447
-6.8153524 13.514963 -2.0323627
-6.7318568 13.555639 -2.0322273
-6.6764102 13.653653 -2.0409019
-6.537066 13.579204 -2.023417
-6.4604111 13.633384 -2.0255857
-6.3804059 13.680848 -2.0268054
-6.301301 13.730546 -2.0284319
-6.211225 13.75631 -2.0265343
-6.1170483 13.772431 -2.0232813
-6.0264773 13.796086 -2.0212481
-5.9604831 13.8765 -2.0277543
-5.8609648 13.879042 -2.0227392
-5.7741747 13.911082 -2.022197
-5.6917028 13.953589 -2.0232813
-5.6048722 13.985491 -2.0228748
-5.5142355 14.007634 -2.0211127
-5.4210367 14.022723 -2.0184019
-5.3303218 14.04368 -2.0166397
-5.253737 14.102118 -2.0204349
-5.1688099 14.138741 -2.0211127
-5.0843005 14.176719 -2.0220616
-4.9982042 14.210452 -2.0224681
-4.9080091 14.232424 -2.0212481
-4.8170986 14.251945 -2.0197573
-4.7273788 14.274652 -2.0188084
-4.6403136 14.305274 -2.0190794
-4.5500512 14.325923 -2.0179951
-4.4647107 14.362086 -2.0192151
-4.3747725 14.383524 -2.0184019
-4.2850223 14.405348 -2.017724
-4.1959987 14.429466 -2.017453
-4.1068401 14.453035 -2.0171819
-4.0141063 14.463642 -2.0151489
-3.9146595 14.448792 -2.0095916
-3.8147869 14.430394 -2.0036278
-3.7471979 14.535078 -2.0151489
-3.6625297 14.576054 -2.017724
-3.5661922 14.570344 -2.0137935
-3.3784277 14.179451 -1.9557811
-3.2723424 14.117873 -1.94426
-3.1527648 13.99174 -1.9237931
-3.044606 13.909198 -1.909561
-2.943758 13.854932 -1.8993953
-2.8374915 13.769874 -1.8850279
-2.7407236 13.725815 -1.8764887
-2.6440396 13.678171 -1.8675429
-2.5584233 13.685372 -1.866323
-2.47229 13.689114 -1.8646965
-2.3795719 13.654246 -1.8577838
-2.2973876 13.678361 -1.8591392
-2.2162621 13.709805 -1.8615789
-2.1330113 13.72902 -1.8623922
-2.0440555 13.710491 -1.8580549
-1.9496632 13.651175 -1.8481603
-1.866937 13.670735 -1.8492446
-1.7818673 13.673091 -1.8480247
-1.6979373 13.683767 -1.8480247
-1.6111593 13.670313 -1.8447716
-1.5256002 13.665172 -1.8427385
-1.4411001 13.668364 -1.8419253
-1.3562268 13.667089 -1.8405699
-1.2708726 13.659369 -1.8384012
-1.1866076 13.661975 -1.8377235
-1.1052276 13.699613 -1.8419253
-1.0235777 13.738742 -1.8463982
-0.94162428 13.77936 -1.8511422
-0.86228633 13.868931 -1.8626633
-0.77573049 13.848242 -1.8591392
-0.69849581 14.008099 -1.8804194
-0.61248732 14.01113 -1.8802838
-0.51824147 13.794829 -1.8501934
-0.43807352 13.94035 -1.8697115
-0.35586333 14.074506 -1.8877387
-0.26438791 13.809956 -1.8512777
-0.18025364 13.857881 -1.8576483
-0.096457161 14.038051 -1.8821814
-0.010349746 14.07801 -1.8876032
0.076047458 14.08078 -1.8880098
0.16095044 13.950266 -1.8702537
0.24568808 13.900476 -1.8636121
0.33465028 14.053223 -1.8847568
0.4219102 14.085567 -1.8895007
0.50793684 14.071821 -1.8880098
0.58031374 13.737817 -1.8427385
0.66550583 13.7528 -1.8453139
0.74998677 13.750436 -1.845585
0.83440375 13.746564 -1.8457205
0.91807467 13.7313 -1.844365
1.0034652 13.741219 -1.8465338
1.0901848 13.765421 -1.8507355
1.1761439 13.776242 -1.8531753
1.2605609 13.767779 -1.8530397
1.3460746 13.770632 -1.8545307
1.4323876 13.779852 -1.8569705
1.5143093 13.747168 -1.8537174
1.6020666 13.767141 -1.8577838
1.688318 13.771804 -1.8598169
1.7748134 13.776907 -1.8619856
1.85759 13.752994 -1.8602235
1.942912 13.748204 -1.8611723
2.0294023 13.750727 -1.8632054
2.1190093 13.772289 -1.8679495
2.208174 13.788377 -1.8720157
2.2958264 13.793138 -1.8745911
2.3832831 13.795388 -1.8768953
2.4692824 13.788307 -1.8779796
2.5551035 13.779716 -1.8789284
2.6425915 13.779347 -1.8810971
2.730556 13.780367 -1.8835369
2.8196251 13.785679 -1.8866544
2.9068174 13.780722 -1.8884164
2.9932132 13.771339 -1.8896363
3.0826321 13.774952 -1.8927537
3.1762085 13.795364 -1.898311
3.2662721 13.798756 -1.901564
3.352751 13.786156 -1.9026484
3.4490383 13.812426 -1.90929
3.5361838 13.800601 -1.9106454
3.6248248 13.793975 -1.9128141
3.716609 13.798262 -1.9166093
3.8080552 13.800029 -1.9201334
3.8988545 13.798333 -1.9232509
3.9900515 13.796992 -1.9265039
4.0822215 13.797902 -1.9301635
4.1759872 13.802941 -1.9345009
4.2696757 13.806401 -1.9387027
4.3689361 13.826235 -1.9453443
4.4622102 13.825568 -1.9491395
4.5565705 13.8271 -1.9533414
4.6526961 13.832687 -1.9582208
4.7490616 13.837615 -1.9631004
4.8440256 13.837204 -1.9673022
4.9404955 13.83988 -1.9720463
5.0375185 13.842823 -1.9769257
5.1337299 13.842308 -1.9813987
5.2311749 13.843913 -1.9862782
5.3299003 13.847616 -1.9915644
5.4303131 13.854318 -1.9973927
5.5332117 13.865828 -2.0040343
5.638319 13.881185 -2.0113535
5.7362537 13.87746 -2.0159621
5.830514 13.86392 -2.0192151
5.9306684 13.86341 -2.0245013
6.0314307 13.8631 -2.029923
6.1444364 13.889256 -2.0394108
6.2453914 13.886534 -2.044697
6.3543701 13.900215 -2.0525587
6.4700122 13.926558 -2.0624533
6.5650697 13.907204 -2.0655706
6.6558485 13.878273 -2.0673327
6.7499905 13.855877 -2.0701792
6.8353205 13.815087 -2.0703146
6.9319692 13.79679 -2.0739744
7.001637 13.724872 -2.0695014
7.0889087 13.687811 -2.0704503
7.1464849 13.594068 -2.0627244
7.2250981 13.541221 -2.0613689
7.3325796 13.541939 -2.0684171
7.4112396 13.488877 -2.0671971
7.4591341 13.380839 -2.0574381
7.5235405 13.303772 -2.0525587
7.58531 13.22298 -2.0471368
7.6782598 13.196742 -2.0503898
7.7278728 13.096476 -2.0419862
7.7943506 13.025857 -2.0383265
7.8546004 12.945598 -2.0331759
7.9318089 12.893784 -2.0326338
8.0018616 12.830581 -2.0303295
8.0783205 12.77789 -2.0297873
8.1533642 12.723077 -2.0289741
8.2291193 12.669486 -2.0284319
8.2952633 12.601376 -2.0255857
8.3608818 12.532931 -2.0227392
8.4248638 12.462515 -2.0196216
8.4938946 12.39996 -2.0178597
8.5602169 12.333772 -2.0155554
8.6249065 12.265615 -2.0129802
8.6850586 12.191483 -2.0094559
8.7428875 12.114663 -2.0055254
8.7977619 12.034394 -2.0010524
8.8596458 11.964261 -1.9983416
8.9317017 11.908089 -1.9980705
9.0016031 11.849116 -1.9973927
9.0656805 11.782666 -1.9954951
9.1146669 11.697121 -1.9903445
9.1696959 11.619973 -1.9866848
9.2278337 11.547236 -1.9838384
9.2953968 11.486547 -1.9831607
9.3650732 11.428529 -1.9830252
9.4299603 11.364751 -1.9819409
9.4899559 11.295298 -1.9799078
9.5423927 11.217234 -1.9763836
9.5903511 11.134449 -1.9720463
9.6409082 11.055232 -1.9683865
9.6967573 10.982499 -1.9659468
9.7520771 10.909498 -1.9635071
9.8028774 10.831824 -1.9602541
9.8510847 10.751747 -1.9565943
9.906765 10.680203 -1.9545612
9.9551554 10.601159 -1.9511727
10.00841 10.527668 -1.9488684
10.063888 10.456779 -1.9471064
10.120946 10.387734 -1.945751
10.165709 10.306393 -1.9420913
10.221756 10.236812 -1.9407359
10.267471 10.157176 -1.9374828
10.31472 10.079443 -1.9346365
10.327188 9.9684839 -1.925284
10.395329 9.911767 -1.9266394
10.443689 9.8362474 -1.9243352
10.484987 9.7544346 -1.9208111
10.531511 9.6778488 -1.9183713
10.56942 9.5937347 -1.9144406
10.605219 9.5081978 -1.9102387
10.647785 9.4291515 -1.9073924
10.703949 9.3623362 -1.9071213
10.747699 9.2848225 -1.9046816
10.813511 9.2264185 -1.9063081
10.860071 9.1515942 -1.904546
10.89622 9.0683069 -1.9010218
10.934052 8.9868088 -1.8979044
10.964374 8.8995676 -1.8935671
10.994809 8.8129139 -1.8893652
11.009834 8.7145386 -1.882588
11.066221 8.6492605 -1.8831302
11.109672 8.5739326 -1.8815037
11.146311 8.4935923 -1.8787929
11.176048 8.4083614 -1.8749977
11.226636 8.3390369 -1.8748622
11.268803 8.2635498 -1.8733711
11.296824 8.1779823 -1.869576
11.315353 8.0860453 -1.8642899
11.3348 7.9953322 -1.8592747
11.347055 7.900157 -1.8531753
11.41818 7.8460956 -1.8569705
11.448889 7.7642088 -1.8541241
11.506194 7.7004266 -1.8557507
11.544132 7.6236749 -1.8542596
11.562469 7.5343065 -1.8496512
11.601815 7.4589319 -1.8485669
11.631467 7.377521 -1.8459916
11.678196 7.3070636 -1.8462627
11.705106 7.2243419 -1.8434162
11.752599 7.1544456 -1.8439584
11.786932 7.0765882 -1.8424674
11.812228 6.9935312 -1.8396211
11.837805 6.9109302 -1.8369102
11.843923 6.8174047 -1.8312174
11.896732 6.7509604 -1.8329794
11.937932 6.6778364 -1.8329794
11.96827 6.5987201 -1.8313529
11.986771 6.5133333 -1.8279644
12.009914 6.4307747 -1.825389
12.0509 6.3578873 -1.8256601
12.081772 6.2797117 -1.8244402
12.162407 6.2271361 -1.8309463
12.223388 6.163991 -1.8344704
12.253881 6.0853481 -1.8333861
12.300779 6.014833 -1.834877
12.323171 5.9323673 -1.8327084
12.337852 5.8464589 -1.8294554
12.360921 5.764782 -1.8275578
12.416771 5.6983337 -1.8306752
12.47227 5.6314168 -1.8337927
12.515644 5.558804 -1.8351481
12.554056 5.4838881 -1.8358259
12.597482 5.411056 -1.8373169
12.638661 5.3371267 -1.8385367
12.663851 5.2564383 -1.8374524
12.686691 5.1748929 -1.836097
12.706249 5.0921597 -1.8343349
12.731724 5.0119224 -1.8335216
12.786263 4.9429965 -1.8370458
12.808942 4.8616357 -1.8359615
12.820891 4.7763777 -1.8333861
12.875082 4.7068062 -1.8370458
12.920506 4.633738 -1.8394855
12.948695 4.5543723 -1.8394855
12.98389 4.4774189 -1.8405699
13.028952 4.4036951 -1.8431451
13.04444 4.3199301 -1.8415186
13.064105 4.2376695 -1.8405699
13.087972 4.1568298 -1.8402988
13.091472 4.0696802 -1.8371813
13.11904 3.9901409 -1.837588
13.128081 3.9050486 -1.8354192
13.164163 3.8280196 -1.8371813
13.206464 3.7525904 -1.8398921
13.237833 3.6738713 -1.841112
13.257257 3.591799 -1.8407054
13.307782 3.5179837 -1.8447716
13.30897 3.4310677 -1.8419253
13.331695 3.349824 -1.8421963
13.354885 3.2686658 -1.842603
13.408422 3.1946983 -1.847347
13.439354 3.1150506 -1.8489735
13.458215 3.0325296 -1.8489735
13.433983 2.9405718 -1.8430096
13.476002 2.8632355 -1.8463982
13.480701 2.7778945 -1.8446361
13.498464 2.6953201 -1.8447716
13.542958 2.6178985 -1.8487024
13.565583 2.5360258 -1.8496512
13.601364 2.4564395 -1.8524976
13.589827 2.3683434 -1.848838
13.637323 2.290494 -1.8534464
13.673616 2.2104108 -1.8565639
13.706502 2.1295123 -1.8592747
13.701672 2.0427403 -1.856835
6.4500337 0.92098171 -0.85300606
6.3092966 0.86140859 -0.83281022
6.233902 0.81217813 -0.82169574
6.1915731 0.76805478 -0.81518972
6.1755061 0.72761363 -0.8123433
6.2153015 0.69366616 -0.81722283
6.1928377 0.65271109 -0.81356317
6.2046132 0.61548322 -0.8146475
6.1806507 0.57483006 -0.81085235
0 0 -0
6.1388493 0.49503529 -0.80421072
0 0 -0
0 0 -0
0 0 -0
0 0 -0
0 0 -0
0 0 -0
0 0 -0
0 0 -0
0 0 -0
0 0 -0
0 0 -0
0 0 -0
0 0 -0
0 -0 -0
0 -0 -0
0 -0 -0
0 -0 -0
0 -0 -0
6.2111974 -0.22442311 -0.81193668
6.202774 -0.26223758 -0.81098789
6.206986 -0.30057931 -0.81180114
6.2218432 -0.33957583 -0.81410533
6.2631564 -0.38038591 -0.82006925
6.2953043 -0.42112109 -0.82481325
6.3677006 -0.46522239 -0.83511448
6.3785539 -0.5053798 -0.83701205
6.4701023 -0.55259657 -0.85002416
12.364767 -1.1321437 -1.6602981
12.340824 -1.2063531 -1.6579939
12.31348 -1.280004 -1.6552831
12.245321 -1.3489184 -1.647015
10.59331 -1.2328243 -1.4206587
10.579646 -1.2970773 -1.4198455
10.567557 -1.3614621 -1.4193033
10.549186 -1.4249519 -1.4179479
10.570656 -1.4939506 -1.4221497
10.547568 -1.5567579 -1.4202521
11.96263 -1.8406277 -1.6174667
11.902195 -1.906162 -1.6106895
11.889298 -1.978994 -1.610554
11.868145 -2.0503905 -1.6093341
11.83486 -2.1195061 -1.6064878
11.801174 -2.1882908 -1.6036413
11.765145 -2.2563691 -1.6005238
11.753022 -2.3289013 -1.6007949
11.747248 -2.4027591 -1.6020148
11.757489 -2.4801097 -1.6055388
11.725591 -2.5486286 -1.6032346
11.721334 -2.6231236 -1.6048611
11.707915 -2.6956618 -1.6052678
8.2867918 -1.9617118 -1.1266667
11.635445 -2.8297689 -1.5998461
11.619785 -2.9015894 -1.6001172
11.600803 -2.9725866 -1.5999817
7.5625062 -1.9874862 -1.0313802
7.5539956 -2.0348821 -1.0319223
11.556539 -3.1890416 -1.6017437
11.54438 -3.2620461 -1.602828
11.515582 -3.3303428 -1.6016082
11.49588 -3.4012194 -1.6017437
7.9934802 -2.4185498 -1.1041666
7.9453607 -2.4573071 -1.0994227
7.9329677 -2.5069082 -1.0998293
7.942894 -2.5637524 -1.1034889
11.33062 -3.7339587 -1.5937467
11.366657 -3.8233094 -1.6022859
11.493861 -3.9447584 -1.6241082
11.462894 -4.012918 -1.6231594
7.7242799 -2.7575648 -1.0836997
7.7314215 -2.8137167 -1.0872238
11.367579 -4.2159977 -1.620313
11.344277 -4.2867193 -1.6207197
11.256734 -4.3327584 -1.6117738
11.196729 -4.3887315 -1.6068944
11.143823 -4.4470696 -1.6030991
11.093377 -4.5060425 -1.5997106
11.072845 -4.5770531 -1.6007949
11.050033 -4.647213 -1.6016082
11.0122 -4.7110305 -1.6002527
10.956739 -4.7670493 -1.5963219
10.918222 -4.8301806 -1.5949665
10.88115 -4.8938322 -1.5938822
10.831995 -4.9518557 -1.5910358
10.758277 -4.9981899 -1.5845298
10.712174 -5.0569177 -1.5822256
10.657717 -5.1114125 -1.5787015
10.615464 -5.171504 -1.5770749
10.579093 -5.234345 -1.5763972
10.541465 -5.2964902 -1.5755839
10.476995 -5.3448639 -1.5707045
10.422887 -5.3981142 -1.5674514
10.389568 -5.461966 -1.5674514
10.339251 -5.5167513 -1.5648761
10.290394 -5.5720687 -1.5625719
10.24038 -5.6265168 -1.5601321
10.201337 -5.6868329 -1.5594544
10.151589 -5.7410293 -1.5571501
10.132502 -5.8125768 -1.5597255
10.071811 -5.8601904 -1.5557947
10.01945 -5.9123135 -1.5532194
9.9778833 -5.9706278 -1.5524062
9.9393663 -6.0307107 -1.5521351
9.8616686 -6.0666671 -1.545629
9.8335056 -6.1328301 -1.54712
9.7663794 -6.1745219 -1.542376
9.7374859 -6.240211 -1.543867
9.7064915 -6.3046989 -1.5450869
9.6328659 -6.3412585 -1.5393941
9.5987206 -6.4035444 -1.5402074
9.5099983 -6.4290285 -1.5320748
9.4605627 -6.4805412 -1.5304483
9.387249 -6.5153079 -1.524891
9.3535786 -6.577343 -1.5259753
9.3195 -6.6392107 -1.5270597
9.2753735 -6.6939497 -1.5265175
9.2237282 -6.7431355 -1.5247555
9.168643 -6.7895808 -1.5224513
9.1006536 -6.8260937 -1.5179783
9.072011 -6.891994 -1.5202826
9.0491829 -6.9626327 -1.5236712
9.0156689 -7.0253339 -1.5252976
8.961504 -7.0719285 -1.5234001
8.9148464 -7.1243081 -1.5228579
8.8763561 -7.1832371 -1.5238067
8.8305807 -7.2363105 -1.5235356
8.7905884 -7.2941532 -1.5243489
8.7342882 -7.3383942 -1.5223157
8.672493 -7.3777261 -1.5193337
8.6165514 -7.4217482 -1.5174361
8.5454607 -7.4523392 -1.5128278
8.4832335 -7.4902067 -1.5098457
8.4378538 -7.542778 -1.5099813
8.3693743 -7.5744658 -1.505915
8.3234711 -7.6263461 -1.5060506
8.2852373 -7.6853595 -1.5076771
8.2393694 -7.7374086 -1.5079482
8.1773767 -7.7741661 -1.5052373
8.1280937 -7.8228211 -1.5049663
8.073554 -7.8663244 -1.5037464
8.0103216 -7.9011045 -1.5009
7.9574838 -7.9459057 -1.5000867
7.9037008 -7.9896522 -1.4991379
7.8503737 -8.0337467 -1.4983246
7.0157967 -7.2684216 -1.3436705
7.7477775 -8.1258926 -1.4976469
7.699131 -8.1747208 -1.497918
7.1311984 -7.6654434 -1.3939568
7.1034718 -7.7302113 -1.3978876
7.1571264 -7.8851595 -1.4184901
7.1344042 -7.957696 -1.4237761
6.7767138 -7.6527128 -1.3600712
2.1621852 -2.4724913 -0.4110015
2.1469736 -2.4857116 -0.4110015
2.131038 -2.4980848 -0.41086596
6.7037058 -7.9553609 -1.3848754
6.5577936 -7.8798313 -1.3641374
6.4854136 -7.8908362 -1.3589869
6.4237618 -7.9143271 -1.3561404
6.3874731 -7.9690547 -1.3588513
6.3636675 -8.0399485 -1.3644085
2.0096061 -2.5716717 -0.40815511
1.9889461 -2.5776794 -0.40707076
1.9694892 -2.5851066 -0.40625751
1.9494205 -2.5916007 -0.40530872
1.8968518 -2.5542018 -0.39690506
1.8454028 -2.5170565 -0.38863698
1.8380578 -2.5395677 -0.39053455
1.8558527 -2.5975509 -0.39839604
6.3231144 -8.9642801 -1.4624058
6.33706 -9.1021061 -1.478942
6.2951193 -9.161232 -1.4823307
6.2382326 -9.1988659 -1.4821951
6.1557717 -9.1982708 -1.4758246
6.0790138 -9.2052794 -1.4708095
5.9629149 -9.1510983 -1.4558998
1.8108215 -2.8171585 -0.41981179
1.7961552 -2.8323996 -0.42048949
1.7771654 -2.8408477 -0.42008287
5.8213639 -9.4321051 -1.4779932
5.7407107 -9.4304104 -1.4720293
5.6745787 -9.4518661 -1.4698607
5.6134477 -9.4813919 -1.4690474
5.5556645 -9.5165119 -1.469183
5.4902477 -9.5384007 -1.4672854
5.433085 -9.5744934 -1.467692
5.3781047 -9.6145678 -1.4687763
5.3290558 -9.6656055 -1.4716227
5.2705946 -9.6998634 -1.4718938
5.2161226 -9.7416286 -1.4733849
5.1641111 -9.7883472 -1.4756891
5.0998411 -9.8119373 -1.4744692
5.0354762 -9.8351078 -1.4732493
4.9705729 -9.8569736 -1.4718938
4.91749 -9.9023724 -1.4741981
4.8562021 -9.931469 -1.4740626
4.7917342 -9.9539375 -1.4729782
4.7348108 -9.9921045 -1.4743336
4.6796932 -10.034437 -1.4763668
4.6271267 -10.082772 -1.4793487
4.5716968 -10.125422 -1.4815173
4.5517125 -10.248357 -1.4957494
4.518095 -10.343279 -1.5057795
4.4913034 -10.456378 -1.5185205
4.4166527 -10.459096 -1.5148609
4.351634 -10.484169 -1.5145898
4.283854 -10.502416 -1.5133699
4.2149086 -10.517467 -1.5117434
4.1452141 -10.530226 -1.5098457
4.0790949 -10.551765 -1.5093036
4.0047803 -10.551586 -1.505644
3.9420371 -10.581531 -1.5064572
3.881799 -10.618546 -1.5083548
3.8205855 -10.653357 -1.5099813
3.7528446 -10.670056 -1.5090325
3.6753519 -10.658227 -1.5040175
3.6076641 -10.674007 -1.5030687
3.5383637 -10.684656 -1.5014422
3.4736543 -10.708993 -1.5018488
3.40728 -10.728217 -1.5015777
3.3378589 -10.737569 -1.4999511
3.2690284 -10.748368 -1.4985957
3.1984959 -10.75303 -1.4964271
3.1296897 -10.762939 -1.4950716
3.0616946 -10.77527 -1.4941229
2.9928715 -10.784306 -1.4927675
2.922498 -10.787167 -1.4905987
2.8600528 -10.819263 -1.4926319
2.7938607 -10.837567 -1.4927675
2.7217562 -10.832406 -1.4896499
2.6519406 -10.835429 -1.4877523
2.5886209 -10.86499 -1.4896499
2.5187733 -10.867157 -1.4877523
2.4540067 -10.891106 -1.4889722
2.3845913 -10.894344 -1.4873457
2.3183179 -10.911678 -1.4877523
2.2483215 -10.911142 -1.4857192
2.1817179 -10.926675 -1.4859903
0.51173961 -2.6490357 -0.33076024
0.4825471 -2.5829792 -0.32113671
0.48465291 -2.6853406 -0.33496207
0.47020841 -2.6999767 -0.33658859
0.45396107 -2.7047651 -0.33685967
0.4466866 -2.7652059 -0.34485668
0.41936606 -2.7013211 -0.3356398
0.40234479 -2.7009037 -0.33523315
0.38562468 -2.7023406 -0.33509761
0.36809754 -2.6977844 -0.33414882
0.3519215 -2.7029395 -0.33455545
0.33679435 -2.7168467 -0.33618197
0.32742554 -2.7808514 -0.34472114
1.2359737 -11.071601 -1.4857192
0.20162416 -1.9156191 -0.22517253
0.19104072 -1.9286513 -0.22679904
0.72788411 -7.82516 -1.0368019
0.67788368 -7.8067765 -1.0336845
0.62917238 -7.8009138 -1.0323291
0.58232599 -7.8184595 -1.0342267
0.53677464 -7.8574705 -1.0391061
0.69270349 -11.142643 -1.4889722
0.21399982 -3.8254733 -0.48582104
0.18770902 -3.7703106 -0.47809511
0.16496097 -3.7802997 -0.47931501
0.14042233 -3.7455981 -0.47443548
0.11391742 -3.6344874 -0.45911914
0.087477759 -3.471693 -0.43675461
0.064103939 -3.3641901 -0.42198047
0.044080354 -3.4120731 -0.4284865
0.023177616 -3.4172332 -0.42916423
0.0083063459 -11.401937 -1.5215025
-0.060792495 -11.24127 -1.4995445
-0.13041639 -11.297155 -1.5072705
-0.1998893 -11.305058 -1.5084903
-0.26967612 -11.321447 -1.5109302
-0.33940485 -11.328493 -1.51215
-0.40983731 -11.35194 -1.5156741
-0.47981808 -11.357131 -1.5167584
-0.54930365 -11.350015 -1.5162163
-0.61872 -11.342473 -1.5156741
-0.69016445 -11.369122 -1.5198759
-0.7607699 -11.377523 -1.521638
-0.83063889 -11.37363 -1.5217736
-0.90048873 -11.369307 -1.5219091
-0.97124356 -11.375413 -1.5235356
-1.0416557 -11.376146 -1.5244844
-1.1122097 -11.377429 -1.5255687
-1.1825113 -11.375319 -1.5262464
-1.2544558 -11.387545 -1.5289572
-1.3276252 -11.408173 -1.5328881
-1.3996484 -11.41653 -1.5351923
-1.4686601 -11.399866 -1.5341079
-1.5535632 -11.50159 -1.5494243
-0.41167492 -2.9107924 -0.36383265
-0.43169689 -2.922914 -0.3658658
-1.7588304 -11.430896 -1.543867
-1.8162478 -11.340646 -1.5328881
-1.8983221 -11.404542 -1.5433248
-0.52353543 -3.0285969 -0.38213092
-0.53617138 -2.9921687 -0.37752247
-2.0815523 -11.225439 -1.5235356
-2.1350913 -11.132666 -1.5124211
-2.1987388 -11.09603 -1.509168
-2.2616203 -11.057093 -1.505644
-2.3382144 -11.084694 -1.5114723
-0.6124872 -2.8164668 -0.35597119
-0.62759376 -2.8029869 -0.35461575
-0.63744587 -2.7672212 -0.35014287
-2.598361 -10.97673 -1.5048307
-0.89937049 -3.6968772 -0.4821614
-0.91867709 -3.6778314 -0.4802638
-2.8225889 -11.015342 -1.5173006
-0.7562722 -2.8766868 -0.36857665
-0.76849818 -2.851902 -0.36573026
-0.7817663 -2.8318515 -0.36356157
-3.1230474 -11.052402 -1.5328881
-0.80957806 -2.7982504 -0.36017302
-0.82785678 -2.7970304 -0.36071518
-3.3397272 -11.038564 -1.5393941
-1.0058316 -3.2514172 -0.42726663
-0.98367488 -3.1119764 -0.40815511
-3.5405195 -10.969563 -1.5385808
-3.608691 -10.950455 -1.5389874
-1.08248 -3.2173018 -0.42604673
-3.7444062 -10.910031 -1.5396652
-1.1231891 -3.2075164 -0.42658892
-1.1468457 -3.2117615 -0.42821541
-1.1641595 -3.1981468 -0.42726663
-3.8976855 -10.509228 -1.4950716
-1.1616458 -3.0733283 -0.41113704
-1.1943604 -3.1022043 -0.4164232
-4.0684118 -10.379435 -1.4868035
-1.2209564 -3.0587873 -0.4122214
-1.239329 -3.0503201 -0.41208586
-1.262942 -3.0545616 -0.41384789
-4.3234468 -10.280118 -1.4873457
-4.4004712 -10.286189 -1.4922253
-4.4579697 -10.246276 -1.4903276
-4.5207558 -10.218729 -1.4903276
-4.5902796 -10.20616 -1.4926319
-4.6589956 -10.191319 -1.494665
-4.7197709 -10.158945 -1.4941229
-1.3300992 -2.8168864 -0.3878237
-1.3482151 -2.8104587 -0.38809478
-1.3658682 -2.8030241 -0.38823035
-1.3909498 -2.810575 -0.39067012
-5.0122714 -9.9757442 -1.4889722
-5.0940971 -9.9854002 -1.4952072
-5.1511698 -9.9460373 -1.4939873
-5.2107177 -9.9116125 -1.4935807
-5.2774987 -9.8908167 -1.4953427
-5.3428059 -9.8669615 -1.4966981
-5.4075413 -9.8418074 -1.497918
-5.4712043 -9.8144999 -1.4988668
-4.8329487 -8.5457449 -1.3047698
-4.9089561 -8.5571823 -1.3112758
-4.9658537 -8.5346079 -1.3124957
-4.9984918 -8.4706984 -1.3072095
-5.809876 -9.7092199 -1.5095747
-5.8780775 -9.687788 -1.511879
-5.9509068 -9.67348 -1.515403
-4.921236 -7.8906622 -1.233881
-5.17974 -8.19279 -1.2876914
-5.2122722 -8.1333246 -1.2832185
-5.2674756 -8.109499 -1.2845739
-5.3503652 -8.1275072 -1.292842
-5.6491995 -8.4678955 -1.3542428
-5.6167126 -8.3083076 -1.3336403
-5.6580672 -8.2597914 -1.3313361
-6.4729409 -9.3262014 -1.5147253
-6.5328927 -9.2903614 -1.515403
-6.588625 -9.2484875 -1.515132
-6.6400304 -9.2006559 -1.5139121
-5.6994505 -7.7959986 -1.2828119
-1.7055113 -2.3026173 -0.35366696
-1.7136631 -2.284183 -0.35231152
-6.9333472 -9.1264486 -1.5296351
-1.7294815 -2.2472765 -0.34960067
-1.7359304 -2.2272439 -0.34797418
-1.7679762 -2.2398841 -0.35204044
-7.1570888 -8.9558687 -1.5300417
-7.1963253 -8.8925304 -1.5266531
-7.2639403 -8.8643007 -1.5294995
-7.3264184 -8.8294754 -1.5312616
-7.3951149 -8.8018026 -1.534379
-7.4451308 -8.7517338 -1.5335658
-7.4973974 -8.7043848 -1.5332947
-7.5565257 -8.664938 -1.5345145
-7.6167636 -8.6265793 -1.5360055
-7.6794562 -8.5907612 -1.5380386
-7.7433252 -8.5559683 -1.5403429
-7.7936702 -8.5061035 -1.5399363
-7.8484106 -8.4610281 -1.5404785
-7.913743 -8.4271564 -1.5431893
-7.9762244 -8.3899298 -1.5453579
-8.0399199 -8.3536806 -1.5477977
-8.093792 -8.3070297 -1.5483398
-8.1508722 -8.2635593 -1.5495598
-8.2210236 -8.2330227 -1.553355
-8.2861767 -8.1970568 -1.5562013
-3.4880955 -3.4081624 -0.62881857
-3.3179028 -3.2022817 -0.59249312
-3.3640196 -3.2071609 -0.59750819
-8.5093689 -8.0143318 -1.5608099
-8.5395241 -7.9444218 -1.5572857
-3.1919594 -2.9328473 -0.55467671
-3.4468493 -3.1282992 -0.59845698
-3.5626152 -3.1937354 -0.61621308
-3.5532172 -3.1461976 -0.61092693
-3.4576113 -3.0238812 -0.59005332
-3.4820983 -3.0077906 -0.59113771
-3.41909 -2.9169128 -0.5764991
-3.7066357 -3.1231735 -0.62475228
-3.7866511 -3.1510758 -0.63559568
-3.8357649 -3.1523178 -0.64088184
-3.8027265 -3.0862625 -0.63166493
-9.2129068 -7.3845439 -1.5769393
-9.2634821 -7.33218 -1.5778883
-9.3129807 -7.278863 -1.5787015
-9.3841352 -7.2421646 -1.5833099
-9.4591293 -7.2078686 -1.5885961
-9.5150528 -7.158628 -1.5906292
-5.8986244 -4.3812051 -0.9668619
-9.6229572 -7.0565586 -1.5941533
-6.0506563 -4.3799539 -0.98353368
-6.0089002 -4.2937794 -0.97201252
-6.0343232 -4.2562575 -0.97187698
-5.9863343 -4.1676331 -0.95954263
-6.2289963 -4.2800851 -0.99559695
-6.229722 -4.2245445 -0.99139512
-6.0924973 -4.0771279 -0.96455771
-6.1537762 -4.0636926 -0.97052157
-6.1893859 -4.0328894 -0.9722836
-5.7248206 -3.6803081 -0.8927201
-5.7255416 -3.6313138 -0.88919598
-6.2886062 -3.934572 -0.97648543
-6.1625576 -3.803282 -0.95235884
-6.202704 -3.7757018 -0.95506972
-6.2894611 -3.7758222 -0.96523541
-6.3201833 -3.7417028 -0.96645528
-6.354146 -3.7093465 -0.96821737
-6.2814746 -3.6154227 -0.95317209
-6.2742429 -3.5601859 -0.94856364
-6.3469853 -3.5501599 -0.95656067
-6.6480227 -3.6651924 -1.0002054
-6.362216 -3.4568672 -0.9522233
-6.4680295 -3.4631326 -0.96537095
-6.5618882 -3.461755 -0.97662097
-6.5205894 -3.3889825 -0.96699744
-6.543025 -3.3498123 -0.96726853
-6.5767255 -3.3162942 -0.9693017
-6.6422052 -3.2983534 -0.97621435
-6.7646742 -3.3075891 -0.9918018
-6.7036061 -3.2269096 -0.97946739
-6.6758275 -3.1632288 -0.9722836
-6.6313596 -3.092473 -0.96266007
-6.7150431 -3.0814812 -0.97241914
-6.7284064 -3.0377741 -0.9716059
-5.7916527 -2.5721185 -0.82860839
-5.8318396 -2.5472422 -0.83226806
-6.7240105 -2.8879931 -0.96279562
-6.7580333 -2.8536193 -0.96523541
-6.8184233 -2.829952 -0.9716059
-6.9026279 -2.8153803 -0.98150051
-6.9087367 -2.7685506 -0.97987401
-6.8564515 -2.6988864 -0.96970832
-7.0632496 -2.7303648 -0.99763012
-6.9205484 -2.6264985 -0.97431678
-6.9244647 -2.5794885 -0.97255468
-6.9234123 -2.5308285 -0.97011495
-6.9723845 -2.5003414 -0.97499448
-6.9763794 -2.4535673 -0.97336799
-6.9838099 -2.4081306 -0.9722836
-7.1261039 -2.4083824 -0.99071741
-7.2554917 -2.4026155 -1.0072536
-7.3794179 -2.3935161 -1.0229766
-7.1947227 -2.2849045 -0.99437708
-7.1859002 -2.2336559 -0.99112403
-7.3151131 -2.2246983 -1.0076603
-7.2735467 -2.1633863 -0.99979877
-7.1582508 -2.0813646 -0.98150051
-7.1861358 -2.0417366 -0.98366922
-7.2023473 -1.9986649 -0.98421139
-7.3273172 -1.9850103 -1.0002054
-7.3489375 -1.9425458 -1.0015608
-7.3799062 -1.9023643 -1.0042717
-7.5749712 -1.9031672 -1.0301603
-7.6076779 -1.8618349 -1.0331423
-7.8473763 -1.8695499 -1.0652659
-7.8857245 -1.8276289 -1.069061
-8.2544069 -1.8598011 -1.1192119
-8.2675991 -1.8095417 -1.119483
-8.4258547 -1.7900815 -1.1400855
-9.1916332 -1.8939397 -1.2455376
-9.119525 -1.8208185 -1.233881
-9.7151537 -1.877856 -1.3153421
-10.304986 -1.9263736 -1.3958545
-10.746584 -1.940774 -1.4556288
-11.411271 -1.9886143 -1.5463067
-11.777939 -1.9781405 -1.5955087
-12.313122 -1.9904395 -1.6680241
-12.757831 -1.9820937 -1.7279339
-12.976519 -1.9346082 -1.7565334
-13.782605 -1.9684378 -1.866323
-14.236169 -1.9441719 -1.9273171
-14.142707 -1.8430812 -1.9128141
-14.249123 -1.7681055 -1.9259617
-14.303982 -1.6858611 -1.9320612
-14.241192 -1.5899251 -1.922031
-14.229988 -1.5003306 -1.9191846
-14.273434 -1.416414 -1.9239286
-14.294681 -1.3300009 -1.9256907
-14.299611 -1.242008 -1.925284
-14.3119 -1.1546423 -1.9259617
-14.309824 -1.0661417 -1.9247419
-14.321038 -0.97865611 -1.9254196
-14.313918 -0.88996583 -1.9236575
-14.31812 -0.80206507 -1.923522
-14.308919 -0.71350443 -1.9216244
-14.330844 -0.62647247 -1.9240642
-14.326498 -0.53823054 -1.9229798
-14.295861 -0.44925562 -1.9183713
-13.057958 0.96233302 -1.9206151
-13.031105 1.0407816 -1.9175074
-13.011663 1.119616 -1.9155836
-12.99864 1.1988876 -1.9146957
-13.004819 1.2799805 -1.9167675
-12.998687 1.3599585 -1.9170635
-12.990098 1.4396914 -1.9170635
-12.978073 1.5190248 -1.9166195
-12.953785 1.5968119 -1.9143997
-12.946685 1.6766461 -1.9148437
-12.899894 1.7511284 -1.9093684
-12.880095 1.8289956 -1.9080366
-12.872542 1.9085724 -1.9086285
-12.85277 1.9863119 -1.9074446
-12.849129 2.0665517 -1.9087764
-12.818648 2.1424174 -1.9061128
-12.798441 2.2198472 -1.9050769
-12.772899 2.2962344 -1.9033011
-12.755651 2.3740211 -1.9028572
-12.738902 2.4518695 -1.9025612
-12.700338 2.5253565 -1.8990097
-12.699136 2.6062205 -1.9012294
-12.692581 2.6861405 -1.9027092
-12.695186 2.7681859 -1.9056689
-12.654802 2.8408289 -1.9021173
-12.641952 2.9195368 -1.9028572
-12.625724 2.9975085 -1.9031532
-12.598447 3.0728121 -1.9018213
-12.563046 3.1459715 -1.8993056
-12.533928 3.2205355 -1.8978258
-12.500543 3.2938526 -1.8957541
-12.466729 3.3668811 -1.8936822
-12.426773 3.4380362 -1.8907226
-12.417813 3.5177262 -1.8926464
-12.410243 3.5979862 -1.8948661
-12.394569 3.6760354 -1.895902
-12.330139 3.7393851 -1.8893908
-12.322077 3.8196576 -1.8917586
-12.29275 3.8934002 -1.8908707
-12.294976 3.9772794 -1.8950142
-12.283488 4.0569887 -1.8970859
-12.2593 4.1325984 -1.8972338
-12.200981 4.1964808 -1.8920544
-12.156338 4.2647161 -1.8890948
-12.102007 4.3292298 -1.8846554
-12.119812 4.4196725 -1.8917586
-12.06929 4.4853396 -1.888059
-12.041541 4.5593109 -1.888059
-12.005958 4.6302633 -1.8868752
-11.980083 4.7049279 -1.8873191
-11.943642 4.7754097 -1.8861352
-11.910452 4.8471131 -1.8855432
-11.897846 4.9272943 -1.8883549
-11.866478 4.9998217 -1.888207
-11.826486 5.0686421 -1.8867271
-11.791536 5.1395316 -1.8861352
-11.747121 5.2061749 -1.8840635
-11.719463 5.2801876 -1.8848034
-11.701231 5.3585873 -1.887171
-11.627784 5.4115024 -1.8805119
-11.600618 5.4857073 -1.8815478
-11.549804 5.5486455 -1.8787361
-11.538649 5.6306882 -1.8825836
-11.494135 5.6965504 -1.8809558
-11.489 5.7820888 -1.8859873
-11.442739 5.847074 -1.8842114
-11.38031 5.9035106 -1.8797719
-11.374499 5.9893579 -1.8849514
-11.340152 6.0604367 -1.8853953
-11.315792 6.1369777 -1.8876151
-11.293518 6.214879 -1.8902787
-11.256036 6.2845397 -1.8904266
-11.235332 6.3637247 -1.8935343
-11.232946 6.453732 -1.8998976
-11.199971 6.5265188 -1.9010814
-11.144389 6.5860591 -1.8984177
-11.126672 6.6680446 -1.9024132
-11.111748 6.7521143 -1.9070007
-11.041481 6.802527 -1.9019693
-11.022181 6.8842959 -1.9059649
-10.994771 6.9613214 -1.9086285
-10.916062 7.0056806 -1.9022652
-10.915978 7.100574 -1.9099603
-10.898625 7.1848412 -1.9146957
-10.862558 7.2570734 -1.9161756
-10.837479 7.3368959 -1.9197271
-10.797965 7.4071722 -1.920763
-10.756372 7.4761105 -1.9215029
-10.707871 7.5402613 -1.921059
-10.672675 7.6138635 -1.9231308
-10.657016 7.7018018 -1.928902
-10.616739 7.7723055 -1.9302338
-10.571233 7.8390698 -1.9306778
-10.534004 7.9121022 -1.9327495
-10.492341 7.9819784 -1.9340814
-10.492519 8.08424 -1.9434042
-10.434142 8.1417751 -1.9417764
-10.405714 8.2228155 -1.94592
-10.368962 8.2976332 -1.9485836
-10.322464 8.3648357 -1.9494715
-10.26865 8.4261341 -1.9490275
-10.228925 8.4990959 -1.9513953
-10.178097 8.562973 -1.9516913
-10.147947 8.6445055 -1.9561307
-10.096962 8.7085466 -1.9565747
-10.064939 8.7892036 -1.9608661
-10.010078 8.8501406 -1.9607182
-9.9659023 8.9206295 -1.9627899
-9.9278326 8.9968882 -1.9661934
-9.8549538 9.0415869 -1.962642
-9.8174038 9.1187134 -1.9663415
-9.7807198 9.1970739 -1.970337
-9.7212381 9.2541866 -1.969745
-9.6863461 9.3349371 -1.9743325
-9.6380882 9.4031754 -1.9762563
-9.6083527 9.4899378 -1.9821756
-9.5632296 9.5620022 -1.9849873
-9.5078535 9.6240187 -1.9857271
-9.452076 9.6857166 -1.986467
-9.3897219 9.7406826 -1.9858751
-9.3318233 9.8002625 -1.9863191
-9.2694817 9.855175 -1.9858751
-9.1980677 9.9002724 -1.9835074
-9.1431656 9.9630833 -1.9848392
-9.0904951 10.028523 -1.986763
-9.0340672 10.090008 -1.9879469
-8.976572 10.150436 -1.9889827
-8.9219275 10.214263 -1.9907585
-8.8610239 10.271062 -1.9912025
-8.7965527 10.323732 -1.9909065
-8.743866 10.390378 -1.9934222
-8.6850033 10.449919 -1.994606
-8.6257401 10.509129 -1.9957899
-8.5648308 10.566467 -1.9966778
-8.5023069 10.62191 -1.9972697
-8.4578209 10.70026 -2.0023012
-8.3920059 10.751955 -2.0023012
-8.3512287 10.836148 -2.0085163
-8.298954 10.906076 -2.0120678
-8.2437592 10.972608 -2.0150275
-8.1839361 11.033311 -2.0169513
-8.1184196 11.086511 -2.0175433
-8.0293856 11.10726 -2.0122159
-7.9691229 11.167589 -2.0142877
-7.9055748 11.223554 -2.0156195
-7.855752 11.299461 -2.0206509
-7.7795582 11.337664 -2.0188751
-7.7087359 11.383547 -2.018579
-7.6409407 11.433922 -2.019171
-7.5782609 11.49215 -2.0212429
-7.518929 11.555842 -2.0243504
-7.4452109 11.597599 -2.0236106
-7.3691478 11.635543 -2.0222788
-7.2991862 11.683057 -2.0227227
-7.2341075 11.73857 -2.0246463
-7.157836 11.775975 -2.0234625
-7.0849366 11.818825 -2.0233145
-7.0117812 11.861223 -2.0231667
-6.937376 11.90146 -2.0227227
-6.8622484 11.940373 -2.0221307
-6.7937293 11.990859 -2.0236106
-6.7277412 12.046135 -2.0259783
-6.6618075 12.101918 -2.0284939
-6.5911984 12.149522 -2.0296779
-6.5169926 12.190608 -2.0298257
-6.4411478 12.228616 -2.0295298
-6.3751025 12.285465 -2.0324895
-6.3041005 12.333158 -2.0339692
-6.2376447 12.390158 -2.037077
-6.1650162 12.435287 -2.0382607
-6.0912013 12.478213 -2.0391486
-6.0218029 12.530508 -2.0416644
-5.9528375 12.584208 -2.044476
-5.8713369 12.61153 -2.0429962
-5.7926083 12.644622 -2.0425522
-5.7124753 12.674516 -2.0416644
-5.631793 12.703 -2.0406284
-5.5533476 12.73641 -2.0404804
-5.4770422 12.77479 -2.0412204
-5.3966341 12.803599 -2.0404804
-5.3183498 12.837385 -2.0406284
-5.2413449 12.874356 -2.0413682
-5.1648211 12.912702 -2.0424042
-5.0862164 12.945991 -2.0427003
-5.0073972 12.978801 -2.0429962
-4.9353719 13.029629 -2.0462518
-4.8667011 13.090259 -2.0511351
-4.7934055 13.139385 -2.0542428
-4.7200232 13.189035 -2.0574985
-4.6540704 13.260676 -2.0643055
-4.5674691 13.274021 -2.0619378
-4.4859352 13.301796 -2.0619378
-4.4026818 13.324376 -2.061198
-4.3193197 13.346435 -2.0604579
-4.2358527 13.367971 -2.0597181
-4.1516986 13.387098 -2.0586822
-4.069479 13.412321 -2.0586822
-3.993856 13.459794 -2.0622339
-3.9111931 13.484046 -2.0622339
-3.8345838 13.529676 -2.0656374
-3.7596714 13.582499 -2.0702248
-3.6723914 13.59099 -2.0680051
-3.5869133 13.605618 -2.0668213
-3.5082865 13.646527 -2.0697808
-3.4384234 13.723439 -2.0783639
-3.3574347 13.75773 -2.0804355
-3.2654154 13.746319 -2.0755522
-3.1896889 13.803677 -2.0813234
-3.110348 13.847113 -2.0850232
-3.0139449 13.813758 -2.0770321
-2.9076235 13.730398 -2.0614939
-2.8129795 13.697603 -2.0537989
-2.7155681 13.647676 -2.0435882
-2.6252325 13.630092 -2.0384088
-2.5337672 13.604135 -2.0320456
-2.4444699 13.587304 -2.0271621
-2.3586872 13.588406 -2.0250902
-2.2720044 13.583113 -2.0221307
-2.1864178 13.583128 -2.0200589
-2.1007657 13.581627 -2.0178392
-2.0147793 13.576653 -2.0151756
-1.929072 13.572113 -2.0126598
-1.8449603 13.577815 -2.0117719
-1.761995 13.591822 -2.0122159
-1.6775955 13.594525 -2.0110321
-1.5924243 13.589828 -2.0088122
-1.5078099 13.588531 -2.0071845
-1.4235802 13.589658 -2.0060008
-1.3389089 13.585342 -2.004077
-1.2557982 13.596256 -2.0045209
-1.1730281 13.611588 -2.0057046
-1.0885415 13.606699 -2.0039289
-1.0050319 13.613123 -2.0039289
-0.92168444 13.621993 -2.0043728
-0.83759916 13.619495 -2.0031891
-0.75379747 13.620428 -2.0025971
-0.67006439 13.621834 -2.0021532
-0.58617264 13.618773 -2.0011172
-0.50267118 13.624089 -2.0014131
-0.41906586 13.626917 -2.0014131
-0.33529928 13.6233 -2.0005252
-0.25175655 13.628067 -2.0009692
-0.16819212 13.634299 -2.0017092
-0.084451862 13.622218 -1.9997854
-0.00086560688 13.636326 -2.001857
0.082841873 13.642009 -2.0027452
0.16661905 13.647177 -2.003633
0.25071794 13.665674 -2.0065925
0.33451563 13.661901 -2.0062966
0.41842824 13.662557 -2.0067406
0.5022887 13.660721 -2.0068886
0.5861848 13.659357 -2.0071845
0.67066568 13.669333 -2.0092564
0.75474495 13.66891 -2.0098481
0.83854091 13.663034 -2.0097003
0.92322737 13.67046 -2.0116239
1.0081819 13.679333 -2.0138438
1.0925708 13.678804 -2.0147316
1.176991 13.677754 -2.0156195
1.2624396 13.687016 -2.0181351
1.3488218 13.703619 -2.0218346
1.4344251 13.709839 -2.0240545
1.5197195 13.711592 -2.0256822
1.6023278 13.68924 -2.0237584
1.6912577 13.719394 -2.0298257
1.7726102 13.687181 -2.0265701
1.859089 13.694666 -2.0293818
1.9461439 13.704542 -2.0326374
2.0323737 13.707017 -2.034857
2.1212766 13.725565 -2.0395925
2.2101691 13.741584 -2.0440321
2.2957492 13.735567 -2.0452158
2.382184 13.73389 -2.0471396
2.4700854 13.739455 -2.0502472
2.5581446 13.744458 -2.053355
2.6441138 13.737243 -2.0546868
2.7312486 13.735311 -2.0569065
2.8136854 13.709574 -2.0555747
2.9067662 13.734623 -2.0620859
2.9937258 13.729091 -2.0640097
3.0828938 13.732657 -2.0674131
3.1737766 13.742391 -2.0718527
3.2658088 13.755373 -2.076884
3.3585885 13.769665 -2.0822115
3.4490223 13.772781 -2.085911
3.5378973 13.7686 -2.0885746
3.6386986 13.808794 -2.0981934
3.7228434 13.784298 -2.0978975
3.8102539 13.771681 -2.0995252
3.8946836 13.748042 -2.0995252
3.981446 13.732434 -2.100857
4.0659132 13.708694 -2.1010051
4.120666 13.586956 -2.085911
4.218895 13.609591 -2.0934579
4.253933 13.430715 -2.0694849
4.371582 13.513511 -2.0866508
4.4696193 13.532447 -2.0939019
4.520968 13.411053 -2.0791037
4.6108937 13.405504 -2.0826554
4.7032132 13.40589 -2.0872428
4.7810502 13.364674 -2.085319
4.8653369 13.34159 -2.086355
4.946763 13.310558 -2.0862069
5.0136299 13.24111 -2.0799916
5.0883741 13.193489 -2.077328
5.165978 13.153734 -2.0759962
5.2377763 13.099751 -2.0724447
5.3169379 13.064617 -2.0720007
5.395865 13.029006 -2.0715566
5.4826217 13.012057 -2.0742204
5.5144291 12.866366 -2.0560186
5.5750904 12.790586 -2.0492115
5.6590781 12.768794 -2.0512831
5.7356944 12.730224 -2.0506911
5.8075194 12.681303 -2.0484715
5.8818822 12.638258 -2.0472877
5.9525523 12.587625 -2.04492
6.0245366 12.540167 -2.0431442
6.0961623 12.492299 -2.0413682
6.1700635 12.449343 -2.0404804
6.2387757 12.396232 -2.0379648
6.3057179 12.340105 -2.0350051
6.3653746 12.270457 -2.0298257
6.4391623 12.228543 -2.0293818
6.5094118 12.180081 -2.0279019
6.5774231 12.127741 -2.0258303
6.6459908 12.076756 -2.0240545
6.7127342 12.022799 -2.0218346
6.7766285 11.964173 -2.0188751
6.8430133 11.910363 -2.0168033
6.9119811 11.861315 -2.0156195
6.9811077 11.812721 -2.0145836
7.0529494 11.768815 -2.0144355
7.1240015 11.723627 -2.0141397
7.1797185 11.653593 -2.0095522
7.2584243 11.621063 -2.0116239
7.3216562 11.563774 -2.0094042
7.3844585 11.506147 -2.0071845
7.4468298 11.448186 -2.0049648
7.5071349 11.387416 -2.0023012
7.5697222 11.330448 -2.0003774
7.6302299 11.270686 -1.9980096
7.6858134 11.204083 -1.9944581
7.751029 11.151841 -1.9935702
7.8090587 11.089518 -1.9909065
7.8752322 11.038978 -1.9904625
7.9393415 10.98564 -1.9895747
8.0036774 10.932728 -1.9888347
8.0629501 10.873086 -1.9869109
8.1194153 10.809966 -1.9843953
8.1831961 10.756794 -1.9838034
8.2484407 10.705597 -1.9836553
8.296936 10.632954 -1.9795119
8.3387194 10.552361 -1.9738885
8.3884783 10.482465 -1.970337
8.4445448 10.420809 -1.9684132
8.5001698 10.35886 -1.9664894
8.5534573 10.294338 -1.9641217
8.6126404 10.237122 -1.9632338
8.6714439 10.179565 -1.962346
8.721467 10.111938 -1.9595343
8.7703371 10.043337 -1.9565747
8.8141079 9.9693308 -1.9525791
8.8507051 9.8877974 -1.9471039
8.8992529 9.8201141 -1.9444401
8.9539919 9.7594948 -1.9432563
9.0116863 9.7021971 -1.9428123
9.0588522 9.6337519 -1.9401486
9.0993805 9.5586472 -1.9361532
9.1407013 9.4848337 -1.9324536
9.186985 9.4165354 -1.9299378
9.2390308 9.3543587 -1.9287541
9.292757 9.2939968 -1.9280142
9.343277 9.2305479 -1.9266822
9.3912439 9.1647568 -1.9249065
9.438756 9.0987244 -1.9231308
9.4786491 9.0256357 -1.9198751
9.5158396 8.9503679 -1.9161756
9.5640574 8.8857536 -1.9148437
9.6169415 8.8255644 -1.9145478
9.6584558 8.7550993 -1.912032
9.6987305 8.6837978 -1.9093684
9.743681 8.6169186 -1.9077406
9.7933903 8.554368 -1.9071486
9.8352098 8.4850721 -1.9050769
9.8690205 8.4091721 -1.9015254
9.9136209 8.3427277 -1.9001935
9.9570179 8.2754211 -1.8987137
9.9533272 8.1696253 -1.888207
9.9879007 8.0959454 -1.8852473
10.02735 8.026475 -1.8833236
10.066324 7.9568257 -1.8813998
10.111838 7.8924761 -1.8808079
10.153025 7.8248496 -1.8794761
10.18353 7.7492304 -1.8762205
10.230096 7.6860056 -1.8760724
10.276269 7.6225014 -1.8759245
10.305291 7.5464506 -1.8726689
10.334569 7.4709105 -1.8695612
10.361698 7.3941469 -1.8661577
10.393935 7.3213181 -1.8637899
10.419172 7.2438569 -1.8602383
10.452822 7.1725163 -1.8583146
10.493359 7.1060262 -1.8577226
10.52854 7.0360122 -1.8562429
10.563257 6.9658337 -1.854763
10.61409 6.906281 -1.8562429
10.638788 6.8298059 -1.8531352
10.642894 6.7405896 -1.8464761
10.686569 6.6767311 -1.84692
10.71218 6.6016955 -1.8442563
10.735582 6.5255704 -1.8412967
10.787296 6.4666929 -1.8433684
10.828475 6.4013882 -1.8436644
10.856441 6.3283515 -1.8417406
10.913075 6.271966 -1.8448483
10.94533 6.2014742 -1.8438123
10.983175 6.1341982 -1.8438123
11.044002 6.0795665 -1.8478079
11.078488 6.0102725 -1.8473639
11.11167 5.9403181 -1.846772
11.161036 5.8789392 -1.8489918
11.203043 5.8135338 -1.8500276
11.236742 5.7437835 -1.8497317
11.27354 5.6756172 -1.8500276
11.305495 5.6050196 -1.8495836
11.34234 5.5368462 -1.8500276
11.376991 5.4675751 -1.8501756
11.393339 5.3896303 -1.8473639
11.407366 5.3108568 -1.8442563
11.466713 5.2531171 -1.8486958
11.521271 5.1928177 -1.8523953
11.579137 5.1336484 -1.8566868
11.600447 5.0581565 -1.855059
11.62581 4.9845443 -1.854171
11.664378 4.9165726 -1.855503
11.679707 4.8388534 -1.8531352
11.71101 4.7678428 -1.8534312
11.732697 4.6929579 -1.8522474
11.787968 4.6313643 -1.8565388
11.822622 4.561439 -1.8575747
11.842064 4.4856586 -1.8562429
11.905519 4.4263506 -1.8620142
11.889714 4.3376284 -1.855207
11.926349 4.2682576 -1.8568348
11.951381 4.1946712 -1.8566868
11.985311 4.1241555 -1.8580186
12.017888 4.0530648 -1.8592025
12.040652 3.9786279 -1.8589065
12.097772 3.9153283 -1.8640859
12.106483 3.8362455 -1.8617182
12.101455 3.7531033 -1.8572787
12.114792 3.6759088 -1.8557988
12.167459 3.6105046 -1.8605343
12.207432 3.5410118 -1.863346
12.226074 3.4652331 -1.862902
12.226137 3.3843474 -1.8596464
12.246673 3.3092654 -1.8596464
12.265791 3.2338071 -1.8594985
12.279655 3.1570077 -1.8586105
12.301673 3.0823226 -1.8590544
12.319393 3.0065484 -1.8589065
12.39823 2.9452965 -1.8682294
12.417995 2.8696122 -1.8685254
12.43344 2.7929294 -1.8682294
12.439713 2.7142684 -1.8666016
12.453232 2.6372743 -1.8661577
12.453678 2.5576313 -1.8637899
12.490477 2.4854131 -1.8670455
12.522002 2.4119046 -1.8695612
12.542399 2.3361115 -1.8704491
12.559417 2.259634 -1.870893
12.572071 2.1823592 -1.8707451
12.574495 2.1033835 -1.8691173
12.598882 2.0280733 -1.870893
12.607179 1.9501255 -1.8703011
6.4850364 0.96299547 -0.94245386
6.1608458 0.87631321 -0.89258391
5.9740276 0.81241125 -0.86357939
5.9377065 0.77040339 -0.85736418
5.9226909 0.73153496 -0.85440451
5.9113517 0.69334 -0.85203683
5.9017329 0.65552974 -0.8499651
5.9017096 0.61889327 -0.84937316
5.897522 0.58189404 -0.84818929
5.8970423 0.54533309 -0.84759736
5.8943653 0.50863028 -0.84670949
5.9003329 0.4726899 -0.84715343
5.8922729 0.43567717 -0.84552562
5.873127 0.39804769 -0.84227002
0 0 -0
0 0 -0
5.8557515 0.28871107 -0.83871841
0 0 -0
0 0 -0
0 0 -0
5.8729372 0.14520776 -0.84049422
5.8648186 0.10900573 -0.83916241
0 0 -0
0 0 -0
0 -0 -0
0 -0 -0
0 -0 -0
0 -0 -0
0 -0 -0
