# .PCD v0.7 - Point Cloud Data file format
VERSION 0.7
FIELDS x y z
SIZE 4 4 4
TYPE F F F
COUNT 1 1 1
WIDTH 1590
HEIGHT 1
VIEWPOINT 0 0 0 1 0 0 0
POINTS 1590
DATA ascii
-0.16356781 -3.0123909 -1.0401165
-0.18380536 -3.0404577 -1.0505818
-0.19746263 -2.9641352 -1.0235747
-0.21537369 -2.9591124 -1.0222244
-0.23382226 -2.9614887 -1.0235747
-0.25214866 -2.961874 -1.0242499
-0.27202702 -2.9790194 -1.0310017
-0.28747299 -2.9482512 -1.0205364
-0.30361834 -2.9277062 -1.0137846
-0.32003605 -2.9117529 -1.0087209
-0.34180039 -2.9433954 -1.020874
-0.36305147 -2.9674044 -1.0303265
-0.38257137 -2.9753907 -1.03404
-0.40421316 -2.9981749 -1.0431548
-0.42378429 -3.0040269 -1.0461931
-0.44303113 -3.0069575 -1.0482187
-0.46061641 -2.9986002 -1.0461931
-0.47856128 -2.992929 -1.0451804
-0.49614555 -2.9852934 -1.0434924
-0.51397395 -2.9794099 -1.0424796
-0.53274232 -2.9789801 -1.0434924
-0.55169606 -2.9793575 -1.0448428
-0.57545179 -3.0045762 -1.055308
-0.59734631 -3.0185335 -1.0617222
-0.61265582 -2.9991329 -1.0559832
-0.6289134 -2.9851851 -1.0522697
-0.6474179 -2.9821899 -1.0526073
-0.6609841 -2.9570322 -1.0448428
-0.67785054 -2.9474165 -1.0428172
-0.69159329 -2.9248807 -1.0360655
-0.71241421 -2.9324734 -1.0404541
-0.71081197 -2.8494997 -1.0114216
-0.75371242 -2.9444845 -1.0482187
-0.76794302 -2.9252367 -1.0428172
-0.78881115 -2.9313774 -1.0468683
-0.80628276 -2.9246674 -1.0461931
-0.83801591 -2.968585 -1.064423
-0.86483341 -2.9932301 -1.0755633
-0.88238311 -2.9851592 -1.0745505
-1.2189326 -4.0330343 -1.4691911
-1.2508777 -4.0488629 -1.4779685
-1.2839127 -4.0671439 -1.4877585
-1.294405 -4.0143943 -1.4708791
-1.0088497 -3.0639811 -1.1150612
-1.033626 -3.0755789 -1.1218129
-1.0326385 -3.0113006 -1.0998696
-1.0386689 -2.9693661 -1.0863662
-1.056869 -2.9629369 -1.0863662
-1.0821037 -2.9758589 -1.093793
-1.0839937 -2.9250295 -1.0769137
-1.1118927 -2.9447429 -1.0870413
-1.1302782 -2.9387436 -1.0873789
-1.1479455 -2.9308765 -1.0870413
-1.1498743 -2.8835559 -1.0715122
-1.1569287 -2.8502791 -1.0613846
-1.1693664 -2.8309462 -1.0566584
-1.1790586 -2.8054936 -1.049569
-1.1914419 -2.7869537 -1.0451804
-1.207019 -2.7761376 -1.04383
-1.2255523 -2.7721231 -1.0451804
-1.2467822 -2.7739959 -1.0488938
-1.2626065 -2.7637248 -1.0478811
-1.2783518 -2.7533641 -1.0468683
-1.288798 -2.7318466 -1.041467
-1.9481604 -4.0651293 -1.5748562
-1.3226367 -2.7166717 -1.0418046
-1.3405324 -2.7110364 -1.0428172
-1.3588309 -2.7061253 -1.0441676
-1.393362 -2.73296 -1.0583463
-1.4165936 -2.7368991 -1.0634102
-1.4600595 -2.7789893 -1.084003
-1.462914 -2.7433977 -1.0732002
-1.4792718 -2.733542 -1.0728626
-1.5037168 -2.7384412 -1.0786016
-1.5227814 -2.7332749 -1.0802896
-1.5376716 -2.7206018 -1.0789392
-1.5384215 -2.6833489 -1.0674613
-1.5510727 -2.6673486 -1.0647604
-1.5611954 -2.6472399 -1.0603719
-1.5701637 -2.6254921 -1.055308
-1.5964913 -2.6327119 -1.0623974
-1.6096579 -2.6180549 -1.0603719
-1.6286786 -2.6129222 -1.0623974
-1.6431724 -2.6004922 -1.0613846
-1.6596053 -2.5911536 -1.0617222
-1.6795726 -2.5872386 -1.064423
-1.6980022 -2.5808163 -1.0661108
-1.7122396 -2.5679991 -1.065098
-1.7316525 -2.5629048 -1.0674613
-1.7377758 -2.5382495 -1.0613846
-1.7452713 -2.5159366 -1.0563208
-1.7639228 -2.5098016 -1.0583463
-1.7787436 -2.4981642 -1.0580088
-1.7945892 -2.4879665 -1.0583463
-1.804269 -2.4693072 -1.0549704
-1.8149072 -2.4521365 -1.0522697
-1.8321772 -2.4439673 -1.0536201
-1.8460003 -2.4311798 -1.0529449
-1.8551458 -2.4123447 -1.049569
-1.8728042 -2.4046299 -1.051257
-1.8863578 -2.3916149 -1.0505818
-1.9015844 -2.3807311 -1.0509194
-1.9090542 -2.360235 -1.0468683
-1.9312527 -2.3579447 -1.051257
-1.952894 -2.3547459 -1.055308
-1.973358 -2.3499279 -1.0586839
-1.9724987 -2.3198457 -1.0502442
-1.9866958 -2.307699 -1.0502442
-1.9878318 -2.2805624 -1.0431548
-1.9999194 -2.2662048 -1.042142
-2.0043809 -2.2433608 -1.0370783
-2.0117948 -2.2240384 -1.0337024
-2.0489216 -2.2373402 -1.0461931
-2.0626111 -2.2247262 -1.0461931
-2.0730023 -2.2085962 -1.0445052
-2.0832736 -2.1924226 -1.0428172
-2.0992968 -2.1823125 -1.0441676
-2.1087079 -2.1653438 -1.042142
-2.11799 -2.1483419 -1.0401165
-2.1351211 -2.1393037 -1.042142
-2.1462007 -2.1241758 -1.0411294
-2.1625588 -2.1142576 -1.0428172
-2.1802301 -2.1055264 -1.0451804
-2.1958323 -2.0947084 -1.0465307
-2.2004242 -2.0734482 -1.0424796
-2.2268836 -2.0727358 -1.0492314
-2.2423313 -2.0615816 -1.0505818
-2.279325 -2.069936 -1.0623974
-2.289881 -2.0540254 -1.0613846
-2.3024411 -2.0399363 -1.0613846
-2.3127899 -2.0239105 -1.0603719
-2.3322854 -2.0158374 -1.0637478
-2.3324413 -1.9910979 -1.0580088
-2.3410168 -1.9737146 -1.0563208
-2.3523598 -1.9587109 -1.0559832
-2.3955934 -1.9699525 -1.0704995
-2.3886397 -1.9397856 -1.0617222
-2.4063709 -1.9298046 -1.064423
-2.4292345 -1.9237702 -1.0694867
-2.4491484 -1.9152079 -1.0732002
-2.4615986 -1.9007195 -1.0735378
-2.4717181 -1.884438 -1.0728626
-2.4794743 -1.8664054 -1.0711746
-2.4825699 -1.8449793 -1.0674613
-2.4961205 -1.8313825 -1.0684739
-2.4981635 -1.8094051 -1.064423
-2.5161095 -1.7989707 -1.0674613
-2.5278692 -1.7840412 -1.0677987
-2.5364516 -1.7668824 -1.0667861
-2.56043 -1.7603533 -1.072525
-2.582087 -1.7520102 -1.0772513
-2.596699 -1.738753 -1.0789392
-2.6136012 -1.7269393 -1.0816399
-2.6241481 -1.7108701 -1.0816399
-2.6361797 -1.6957551 -1.0823151
-2.6497138 -1.6815658 -1.0836655
-2.6623752 -1.6667745 -1.0846782
-2.6885686 -1.6603009 -1.0914299
-2.6938825 -1.6408343 -1.0894045
-2.7119679 -1.6291223 -1.0927804
-2.7308209 -1.6177297 -1.0964938
-2.7658901 -1.6156646 -1.106959
-2.7912483 -1.6075908 -1.1133732
-2.8223405 -1.6025205 -1.1221505
-2.8469043 -1.59345 -1.1282271
-2.943162 -1.623705 -1.1636739
-2.9952416 -1.6285517 -1.1808908
-3.0541275 -1.6363767 -1.2008085
-3.1315322 -1.6532094 -1.2281532
-3.175019 -1.651341 -1.2416567
-3.250432 -1.6653136 -1.2679886
-3.292521 -1.6614558 -1.2808169
-3.3060253 -1.642898 -1.2821673
-3.3498619 -1.6391339 -1.2956707
-3.8118296 -1.8363391 -1.4756052
-4.1470551 -1.9666115 -1.6042264
-4.0507216 -1.8905604 -1.5613527
-3.7851098 -1.7383592 -1.4519742
-3.7339468 -1.6871886 -1.4276677
-3.7631514 -1.6726588 -1.4350947
-3.825953 -1.6725416 -1.4556876
-3.8923519 -1.6732031 -1.4776309
-3.9337573 -1.662483 -1.489784
-4.048193 -1.6816568 -1.5302945
-4.087193 -1.6685288 -1.541435
-4.2528558 -1.7058063 -1.6015257
-4.268497 -1.6817498 -1.6035513
-4.3287725 -1.6748925 -1.6227938
-4.3548064 -1.6543185 -1.6288704
-4.4724727 -1.6676981 -1.6700561
-4.5480332 -1.6641653 -1.6950376
-4.6033406 -1.6524508 -1.7122546
-4.6773186 -1.6466854 -1.7365609
-4.7416096 -1.6366942 -1.7571539
-4.7899022 -1.6205442 -1.7716701
-4.8614039 -1.6115654 -1.7949637
-4.9141731 -1.5956631 -1.811168
-4.9893546 -1.5863054 -1.8358119
-5.1158323 -1.5920309 -1.8796983
-5.1993423 -1.5830989 -1.9073806
-5.2513576 -1.563796 -1.9232472
-5.2671804 -1.5333872 -1.9256103
-5.289165 -1.5046462 -1.9303366
-5.3037391 -1.4736766 -1.9323621
-5.3226748 -1.4438171 -1.9360756
-5.3378029 -1.412817 -1.9384387
-5.3463717 -1.3800383 -1.9384387
-5.3602157 -1.348586 -1.9404641
-5.3711319 -1.3163433 -1.9414769
-5.3873482 -1.2853285 -1.9445152
-5.3887153 -1.2507579 -1.9421521
-5.3944516 -1.2172554 -1.9414769
-5.4064164 -1.1851408 -1.9431649
-5.4200311 -1.1533172 -1.945528
-5.4297714 -1.1206098 -1.9465408
-5.386703 -1.0773003 -1.928311
-5.4098458 -1.0474498 -1.9343876
-5.4346747 -1.0177023 -1.9411393
-5.459342 -0.98768955 -1.9478911
-5.4903355 -0.95854592 -1.957006
-5.5146785 -0.9279651 -1.9637578
-5.5416393 -0.89757323 -1.9715223
-0 -0 -0
-0 -0 -0
-0 -0 -0
-0 -0 -0
-0 -0 -0
-0 -0 -0
-0 -0 -0
-0 -0 -0
-0 -0 -0
-0 -0 -0
-0 -0 -0
-0 -0 -0
-0 -0 -0
-0 -0 -0
-0 -0 -0
-0 -0 -0
-0 -0 -0
-0 -0 -0
-0 -0 -0
-0 -0 -0
-5.5536447 -0.17621675 -1.9509294
-0 0 -0
-0 0 -0
-0 0 -0
-0 0 -0
-0 0 -0
-0 0 -0
-0 0 -0
-0 0 -0
-0 0 -0
-0 0 -0
-0 0 -0
-0 0 -0
-0 0 -0
-0 0 -0
-0 0 -0
-0 0 -0
-0 0 -0
-0 0 -0
-0 0 -0
-0 0 -0
-0 0 -0
-0 0 -0
-5.2161736 1.0994097 -1.9362324
-5.2157426 1.132789 -1.9386679
-5.2077789 1.1645662 -1.9383199
-5.1932263 1.1948153 -1.9355366
-5.184885 1.2264419 -1.9351887
-5.1717963 1.2569029 -1.9331012
-5.1612582 1.2879313 -1.9320575
-5.1514421 1.3191104 -1.9313616
-5.1396241 1.349741 -1.9299699
-5.1294351 1.3807639 -1.9292741
-5.1145401 1.4104655 -1.9268386
-5.0976696 1.4395263 -1.9237075
-5.0869398 1.4702569 -1.9230115
-5.0598431 1.4961215 -1.9160533
-5.0577464 1.5293123 -1.9188366
-5.0446849 1.5592091 -1.9174449
-5.0368109 1.5906984 -1.9181408
-5.0314164 1.6230137 -1.9198804
-5.0267057 1.6556163 -1.9219679
-5.0164523 1.6864284 -1.9219679
-5.013104 1.7196121 -1.9247512
-4.998919 1.7491003 -1.9233595
-4.9889755 1.7800554 -1.9237075
-4.9841261 1.8128783 -1.9261428
-4.9834566 1.8473389 -1.9303179
-4.9807978 1.8811965 -1.933797
-4.980535 1.9161013 -1.9383199
-4.9608288 1.9435456 -1.9351887
-4.946198 1.9729055 -1.934145
-4.9253135 1.999689 -1.9306657
-4.9060197 2.0270069 -1.9278824
-4.8865762 2.0541637 -1.9250991
-4.8678465 2.0815268 -1.9226637
-4.8472462 2.1079895 -1.9195324
-4.830791 2.1361747 -1.9181408
-4.8218679 2.1676986 -1.9198804
-4.8016553 2.1941254 -1.917097
-4.7864013 2.2227564 -1.9164011
-4.7887807 2.2596886 -1.9230115
-4.7722893 2.2878129 -1.9219679
-4.7404628 2.3084288 -1.9146615
-4.7077231 2.3283243 -1.9070073
-4.6732435 2.3470635 -1.8986573
-4.6829724 2.3880506 -1.908747
-4.6773887 2.421483 -1.9125741
-4.6657619 2.4518826 -1.9139657
-4.6564193 2.4835546 -1.9164011
-4.6377954 2.5102932 -1.9150095
-4.6214833 2.5382516 -1.9146615
-4.6074595 2.5674736 -1.9153574
-4.5916195 2.5956962 -1.9153574
-4.5812984 2.6270869 -1.9177928
-4.5715752 2.65892 -1.9205762
-4.5543666 2.686444 -1.9202282
-4.5386019 2.7148199 -1.9205762
-4.5218587 2.7426174 -1.9205762
-4.5033479 2.7693286 -1.9198804
-4.4814982 2.7939315 -1.9177928
-4.4706097 2.8253853 -1.9205762
-4.4484534 2.8497279 -1.9184886
-4.426167 2.8739049 -1.9164011
-4.4084496 2.9010093 -1.9164011
-4.3851075 2.9243622 -1.9139657
-4.3678579 2.9517388 -1.9143137
-4.3450236 2.9753046 -1.9122262
-4.3251452 3.0008399 -1.9115303
-4.3089519 3.0289402 -1.9125741
-4.2895217 3.0547783 -1.9122262
-4.2706971 3.0810409 -1.9122262
-4.2517118 3.1071873 -1.9122262
-4.2355804 3.1354487 -1.9136178
-4.2177615 3.162504 -1.9143137
-4.1952915 3.1860554 -1.912922
-4.1786351 3.2140243 -1.9143137
-4.1492224 3.2321115 -1.9097908
-4.1256328 3.2546058 -1.9080511
-4.101191 3.2763469 -1.9059637
-4.0788245 3.2996802 -1.9049199
-4.057776 3.3240509 -1.904572
-4.0401893 3.3512814 -1.9059637
-4.0217037 3.3778176 -1.9070073
-4.0073285 3.4078984 -1.9101386
-3.9984181 3.4428248 -1.9160533
-3.9856966 3.4746888 -1.9202282
-3.9628959 3.497838 -1.9195324
-3.9441545 3.5245874 -1.9209241
-3.9252341 3.5512385 -1.9223157
-3.8999143 3.5720894 -1.9205762
-3.8641768 3.5831993 -1.9136178
-3.8496351 3.6139021 -1.9174449
-3.827388 3.637455 -1.9174449
-3.796216 3.6524189 -1.912922
-3.7710481 3.6730261 -1.9115303
-3.7471049 3.6947789 -1.9108344
-3.7210467 3.7143886 -1.9090949
-3.6929111 3.7318184 -1.9063115
-3.6692884 3.7537367 -1.9059637
-3.6494422 3.7795534 -1.9077032
-3.6255357 3.8011961 -1.9073553
-3.6021438 3.8233705 -1.9073553
-3.5798934 3.8467739 -1.9080511
-3.5524166 3.8645251 -1.9059637
-3.5286374 3.8862495 -1.9059637
-3.5053513 3.9085257 -1.9063115
-3.4825461 3.9313645 -1.9070073
-3.4602096 3.954776 -1.9080511
-3.4401684 3.9808996 -1.9104866
-3.4126348 3.9983668 -1.908747
-3.3844125 4.0149293 -1.9066595
-3.3567152 4.0320168 -1.9049199
-3.3301263 4.0503645 -1.9038761
-3.3069835 4.0729055 -1.9049199
-3.283103 4.094583 -1.9056157
-3.2614081 4.1190615 -1.9077032
-3.23665 4.1397343 -1.9080511
-3.2163429 4.1661963 -1.9111824
-3.1929917 4.1888361 -1.9125741
-3.1627207 4.2023554 -1.9097908
-3.13464 4.2186718 -1.9083991
-3.1064782 4.2348018 -1.9070073
-3.0771372 4.2492261 -1.9049199
-3.0477362 4.2634506 -1.9028324
-3.0198977 4.2797723 -1.9017886
-2.9919739 4.2959132 -1.9007449
-2.9703364 4.3211451 -1.9038761
-2.9469235 4.343945 -1.9059637
-2.9165642 4.3564911 -1.9035282
-2.8871956 4.3703933 -1.9017886
-2.8598132 4.3872409 -1.9014407
-2.8374023 4.4118032 -1.904572
-2.8122871 4.4322972 -1.9059637
-2.7815573 4.4439063 -1.9035282
-2.75473 4.4616876 -1.9038761
-2.7258394 4.4761038 -1.9028324
-2.6920505 4.4822955 -1.8983095
-2.6664071 4.501956 -1.8997011
-2.6358976 4.5133743 -1.8976136
-2.6095576 4.5319004 -1.8986573
-2.5798507 4.5445652 -1.8972657
-2.5523748 4.5611277 -1.8976136
-2.5261507 4.579987 -1.8990053
-2.5015812 4.6019912 -1.9017886
-2.4772794 4.6246929 -1.9049199
-2.4501686 4.6422939 -1.9059637
-2.4250965 4.6638956 -1.908747
-2.3994243 4.6845293 -1.9111824
-2.3638818 4.6857696 -1.9056157
-2.3317504 4.6934686 -1.9028324
-2.3033199 4.7085295 -1.9031802
-2.2695062 4.7124367 -1.8990053
-2.2421541 4.7296624 -1.9003969
-2.2099216 4.7365336 -1.8976136
-2.1812081 4.7508564 -1.8979615
-2.1524022 4.7650051 -1.8983095
-2.1250267 4.7824063 -1.900049
-2.0960176 4.7962146 -1.9003969
-2.0646992 4.804678 -1.8986573
-2.0384614 4.8250294 -1.9017886
-2.0070205 4.8331165 -1.900049
-1.9766191 4.8436046 -1.8993531
-1.948257 4.8591228 -1.9007449
-1.9245858 4.8866882 -1.9070073
-1.8905094 4.8879118 -1.9028324
-1.8571558 4.8906541 -1.8993531
-1.8261306 4.8993216 -1.8983095
-1.7928162 4.901629 -1.8948302
-1.7642888 4.9169497 -1.8965698
-1.7328416 4.9241447 -1.8951782
-1.7047341 4.9408889 -1.8976136
-1.6746855 4.9521441 -1.8979615
-1.6336594 4.9302864 -1.8854365
-1.6100291 4.9607291 -1.8934386
-1.5792766 4.9696212 -1.8930907
-1.5473626 4.9747415 -1.8913511
-1.5176272 4.9868331 -1.8923949
-1.4861983 4.9933553 -1.8913511
-1.4547465 4.9996796 -1.8903073
-1.4253227 5.013021 -1.8920469
-1.3947871 5.0225754 -1.8923949
-1.3651685 5.0355639 -1.8941344
-1.333766 5.0420327 -1.8934386
-1.3021016 5.0473981 -1.8923949
-1.2717921 5.0580206 -1.8934386
-1.2387272 5.0575328 -1.8903073
-1.2096267 5.0732465 -1.8934386
-1.1791099 5.083313 -1.8944824
-1.1497514 5.0986838 -1.8976136
-1.1186453 5.1065583 -1.8979615
-1.0870961 5.1124091 -1.8976136
-1.0545715 5.1134734 -1.8955261
-1.0217079 5.112493 -1.8927428
-0.98942953 5.1140633 -1.8910031
-0.95734268 5.1163516 -1.8896115
-0.92576474 5.1212068 -1.8892636
-0.89384151 5.1240201 -1.8882198
-0.86316043 5.1340308 -1.8899595
-0.83194149 5.1410818 -1.8906553
-0.80196339 5.15628 -1.8944824
-0.77058637 5.1629586 -1.8951782
-0.74035001 5.1777987 -1.8990053
-0.70843887 5.1813149 -1.8986573
-0.67723912 5.1902127 -1.9003969
-0.64584136 5.1979923 -1.9017886
-0.61503172 5.2111678 -1.9052678
-0.5826292 5.2111168 -1.9038761
-0.55054516 5.2136612 -1.9035282
-0.5197472 5.2290692 -1.9080511
-0.48635045 5.2181578 -1.9028324
-0.45602572 5.2406578 -1.9101386
-0.42197767 5.219995 -1.9014407
-0.38931403 5.2140713 -1.8983095
-0.35731375 5.216362 -1.8983095
-0.32500944 5.2137775 -1.8965698
-0.29285502 5.2128658 -1.8955261
-0.26114377 5.2201824 -1.8976136
-0.22935377 5.2273064 -1.8997011
-0.19692388 5.2192469 -1.896222
-0.16477792 5.2166085 -1.8948302
-0.13260081 5.2109609 -1.8923949
-0.10067813 5.2144885 -1.8934386
-0.068668596 5.2140703 -1.8930907
-0.036680754 5.2153311 -1.8934386
-0.0046774922 5.2126455 -1.8923949
0.027347736 5.2200761 -1.8951782
0.059322651 5.2151227 -1.8934386
0.091420665 5.2202849 -1.8955261
0.12338289 5.216814 -1.8944824
0.15561533 5.2234554 -1.8972657
0.18759517 5.2205286 -1.8965698
0.22009967 5.2305193 -1.9007449
0.25159958 5.216897 -1.896222
0.28386071 5.2199354 -1.8979615
0.31548628 5.211545 -1.8955261
0.3472074 5.2057695 -1.8941344
0.37880117 5.1988659 -1.8923949
0.40980482 5.1852283 -1.8882198
0.44241112 5.1919575 -1.891699
0.4739179 5.185411 -1.8903073
0.50590861 5.1842713 -1.8910031
0.53722423 5.1764073 -1.8892636
0.57020843 5.184196 -1.8934386
0.60038102 5.1666312 -1.8882198
0.63195741 5.1619196 -1.8878719
0.66337878 5.156085 -1.887176
0.69613332 5.1602793 -1.8903073
0.72778308 5.1559105 -1.8903073
0.76063788 5.1596951 -1.8934386
0.79342389 5.162344 -1.896222
0.82612264 5.1638584 -1.8986573
0.85809988 5.1605415 -1.8993531
0.88958859 5.1542554 -1.8990053
0.92169368 5.1514688 -1.900049
0.95294321 5.1438727 -1.8993531
0.98431087 5.1370077 -1.8990053
1.0145365 5.124434 -1.8965698
1.046524 5.1208682 -1.8976136
1.0767641 5.1088462 -1.8955261
1.106896 5.0966468 -1.8934386
1.1369189 5.0842695 -1.8913511
1.1676731 5.0753708 -1.8906553
1.197281 5.0617242 -1.8882198
1.2283167 5.0542827 -1.8882198
1.2606691 5.0521083 -1.8903073
1.2930411 5.049727 -1.8923949
1.323763 5.040791 -1.8920469
1.3551556 5.0343843 -1.8927428
1.385771 5.0250707 -1.8923949
1.4165782 5.0164728 -1.8923949
1.445769 5.0022831 -1.8903073
1.4769672 4.9951158 -1.8910031
1.508132 4.9877539 -1.891699
1.539816 4.9819889 -1.8930907
1.5712036 4.9751287 -1.8941344
1.6028528 4.9689631 -1.8955261
1.6336051 4.9599252 -1.895874
1.6640079 4.9498081 -1.895874
1.6952612 4.9421649 -1.8969178
1.7246244 4.9290156 -1.895874
1.7545205 4.9174576 -1.8955261
1.7843398 4.9057188 -1.8951782
1.8114727 4.8867669 -1.8920469
1.8404288 4.8729286 -1.8910031
1.8692834 4.8589196 -1.8899595
1.8973511 4.8429942 -1.8882198
1.9263364 4.8295197 -1.887524
1.9569921 4.8202147 -1.8885678
1.9883225 4.812448 -1.8903073
2.0203581 4.8062067 -1.8927428
2.0531297 4.801477 -1.895874
2.0855448 4.7956662 -1.8986573
2.1118965 4.7759204 -1.895874
2.1430843 4.7671471 -1.8976136
2.1676166 4.7436762 -1.8934386
2.193522 4.723485 -1.8906553
2.2224634 4.7099366 -1.8906553
2.254565 4.7029738 -1.8934386
2.285022 4.6924229 -1.8948302
2.3170977 4.6850362 -1.8976136
2.3474846 4.6740813 -1.8990053
2.3727114 4.6529083 -1.896222
2.4016476 4.6390948 -1.8965698
2.4331214 4.6300797 -1.8990053
2.458837 4.6101003 -1.8969178
2.4848454 4.5908046 -1.8951782
2.5107098 4.5713634 -1.8934386
2.5396249 4.5575094 -1.8941344
2.5652337 4.5377607 -1.8923949
2.5920956 4.520309 -1.891699
2.6183681 4.5018878 -1.8906553
2.6483245 4.4897742 -1.8923949
2.6763048 4.4742446 -1.8927428
2.7041943 4.45854 -1.8930907
2.7295353 4.4386697 -1.891699
2.7606885 4.4282017 -1.8944824
2.7853022 4.407217 -1.8927428
2.8117862 4.3892546 -1.8923949
2.8401973 4.3742776 -1.8934386
2.8664684 4.3559852 -1.8930907
2.8978252 4.3453336 -1.896222
2.9275837 4.3321314 -1.8983095
2.9578192 4.3195004 -1.9007449
2.9842675 4.30127 -1.9007449
3.008446 4.2798104 -1.8993531
3.0313859 4.2566891 -1.8972657
3.0596421 4.2410498 -1.8986573
3.080627 4.215385 -1.8955261
3.1008544 4.188869 -1.8920469
3.1276236 4.1712637 -1.8927428
3.1559949 4.1557269 -1.8944824
3.1791477 4.1333117 -1.8930907
3.2084835 4.1189036 -1.8955261
3.2482166 4.1175375 -1.904224
3.2558603 4.0755587 -1.8937865
3.284935 4.0606055 -1.896222
3.30444 4.0338473 -1.8930907
3.3279316 4.0120525 -1.8923949
3.354296 3.9937105 -1.8934386
3.3787377 3.9730539 -1.8934386
3.4030523 3.9522474 -1.8934386
3.4272387 3.9312923 -1.8934386
3.4525373 3.9115946 -1.8941344
3.4752238 3.8889389 -1.8934386
3.4996495 3.8682373 -1.8937865
3.5226853 3.8459997 -1.8934386
3.5468552 3.8249998 -1.8937865
3.5728254 3.8058982 -1.8951782
3.5986948 3.7866218 -1.8965698
3.6251121 3.7678468 -1.8983095
3.6507802 3.7482183 -1.8997011
3.6723933 3.7244122 -1.8990053
3.6958392 3.702472 -1.8993531
3.7131553 3.6744506 -1.8965698
3.7356312 3.651598 -1.8965698
3.7566175 3.6273057 -1.895874
3.7821965 3.6074219 -1.8976136
3.7885621 3.5693638 -1.8896115
3.8289261 3.5632911 -1.8990053
3.8541696 3.5429018 -1.9007449
3.8758359 3.5191863 -1.9007449
3.895262 3.4934609 -1.8997011
3.9145186 3.4676299 -1.8986573
3.9300761 3.4386079 -1.895874
3.9461346 3.4101388 -1.8934386
3.9712639 3.3895125 -1.8955261
3.9984393 3.3705184 -1.8986573
4.0190454 3.345921 -1.8986573
4.0409484 3.3223882 -1.8993531
4.0663538 3.3016663 -1.9017886
4.084341 3.2748945 -1.9007449
4.1021533 3.2480264 -1.8997011
4.1109252 3.2141354 -1.8944824
4.1409602 3.1968694 -1.8993531
4.1522951 3.1651506 -1.8955261
4.1806283 3.1463761 -1.8997011
4.1945868 3.1167521 -1.8972657
4.2211924 3.0964997 -1.9007449
4.2120132 3.0502012 -1.8878719
4.2603993 3.0455561 -1.9014407
4.2813044 3.0209785 -1.9024844
4.3036075 2.9973302 -1.904224
4.3195996 2.9692748 -1.9031802
4.3392892 2.9437666 -1.9038761
4.3580494 2.9176071 -1.904224
4.3774343 2.891845 -1.9049199
4.3950958 2.8649311 -1.9049199
4.4125919 2.8379092 -1.9049199
4.4346724 2.8137934 -1.9070073
4.4470854 2.7835462 -1.9049199
4.4521136 2.7488217 -1.8997011
4.4841123 2.7307138 -1.9063115
4.5072136 2.7070088 -1.9090949
4.5334201 2.6850331 -1.9132699
4.5660033 2.6666186 -1.9202282
4.5449014 2.6170399 -1.904224
4.5665817 2.5923424 -1.9066595
4.5824018 2.5642734 -1.9066595
4.6054392 2.5401816 -1.9097908
4.6201148 2.5114279 -1.9094428
4.6420498 2.486572 -1.9122262
4.653903 2.4562924 -1.9108344
4.6589041 2.4225025 -1.9066595
4.6970472 2.4058325 -1.9164011
4.7133951 2.3778107 -1.917097
4.727057 2.3484282 -1.9167491
4.7455888 2.3214383 -1.9184886
4.7521405 2.2886167 -1.9153574
4.7635522 2.2582109 -1.9143137
4.7773185 2.2289398 -1.9143137
4.7917571 2.1999757 -1.9146615
4.8068748 2.171304 -1.9153574
4.8209639 2.1421492 -1.9157053
4.8288622 2.1102767 -1.9136178
4.8391356 2.0794976 -1.9125741
4.8561225 2.0515895 -1.9143137
4.8738151 2.0239105 -1.9164011
4.8956909 1.9978616 -1.9202282
4.9078574 1.9677846 -1.9202282
4.9207115 1.937977 -1.9205762
4.9167695 1.9016634 -1.9143137
4.9388638 1.8754505 -1.9184886
4.9414926 1.8418385 -1.9150095
4.9535813 1.8118051 -1.9153574
4.9699001 1.7832751 -1.9174449
4.9842863 1.7539909 -1.9188366
4.9967275 1.723986 -1.9195324
5.0205345 1.6977963 -1.9247512
5.0299673 1.6666642 -1.9244033
5.0418825 1.636348 -1.9250991
5.0589767 1.6076508 -1.9278824
5.0651646 1.5754662 -1.9264908
5.0747361 1.5443573 -1.9264908
5.0886097 1.5145265 -1.9282304
5.0888042 1.4806576 -1.9247512
5.1050086 1.451455 -1.9275346
5.1111083 1.4193519 -1.9264908
5.1133866 1.3862482 -1.9240553
5.1317668 1.3574821 -1.9278824
5.1399994 1.3259686 -1.9278824
5.1462202 1.2939484 -1.9271866
5.1613479 1.26413 -1.9299699
5.1598873 1.2302644 -1.9264908
5.1746454 1.2002739 -1.9292741
5.1855712 1.1693244 -1.9306657
5.1825743 1.1352798 -1.9268386
5.1921935 1.1040431 -1.9278824
5.1988702 1.0721636 -1.9278824
5.2081089 1.0407944 -1.9289262
5.2153177 1.0089962 -1.9292741
5.2333913 0.97921562 -1.933797
5.2439141 0.94791859 -1.9355366
5.2588677 0.91733372 -1.9390157
5.2588501 0.88411725 -1.9369283
5.266952 0.85228157 -1.9379721
5.2757883 0.82052362 -1.9393637
5.2844329 0.78868932 -1.9407554
5.2882442 0.75611728 -1.9404075
5.294642 0.7239086 -1.9411033
5.2924767 0.69055998 -1.9386679
5.3031268 0.65888071 -1.9411033
5.3005524 0.62556118 -1.9386679
5.3145399 0.59416944 -1.942495
5.3152885 0.56125408 -1.9414512
5.3214312 0.52890712 -1.942495
5.3236427 0.49615866 -1.942147
5.3228512 0.4631598 -1.9407554
5.3255925 0.43049067 -1.9407554
5.327199 0.39773574 -1.9404075
5.332345 0.36523277 -1.9414512
5.3372931 0.3326816 -1.942495
5.3336177 0.29961205 -1.9404075
0 0 -0
5.3471956 0.23458758 -1.9442346
5.3532186 0.20194909 -1.9459741
0 0 -0
0 0 -0
0 0 -0
0 0 -0
0 0 -0
0 0 -0
0 -0 -0
0 -0 -0
0 -0 -0
5.3499045 -0.12656002 -1.9438866
5.3452787 -0.15927154 -1.942495
0 -0 -0
0 -0 -0
5.3395686 -0.25754291 -1.9417992
5.3444409 -0.29065883 -1.9442346
0 -0 -0
0 -0 -0
5.3494058 -0.38980332 -1.9484096
5.3469133 -0.42261931 -1.9484096
5.3470221 -0.45565882 -1.9494534
0 -0 -0
0 -0 -0
5.3405261 -0.55429375 -1.950497
5.3370247 -0.58705217 -1.950497
0 -0 -0
5.3229051 -0.65170252 -1.9480617
5.3085775 -0.68303275 -1.9442346
5.2996416 -0.71496499 -1.942495
5.3007245 -0.74825698 -1.9445825
5.3015981 -0.78158915 -1.9466699
5.3439598 -0.82137829 -1.9644138
5.3221564 -0.85148323 -1.9581512
0 -0 -0
5.3057637 -0.9157722 -1.9560637
5.2963533 -0.94764924 -1.9546721
5.2913609 -0.98030019 -1.9550201
5.2806425 -1.0118657 -1.9532804
5.2678971 -1.0429722 -1.950845
5.2512951 -1.0732086 -1.9470179
5.2464457 -1.1057968 -1.9477137
5.2020006 -1.1298014 -1.9334491
5.1638646 -1.1547359 -1.9216199
5.058012 -1.1636755 -1.8840448
4.9832664 -1.1787045 -1.8582989
4.8657141 -1.1824455 -1.8162009
4.7719569 -1.1906961 -1.7831488
4.7282343 -1.2106435 -1.769232
4.6880746 -1.2310528 -1.756707
4.6333599 -1.2471128 -1.7386153
4.5939898 -1.2667887 -1.7264382
4.5563583 -1.2865387 -1.7149569
4.5321674 -1.3097826 -1.7086943
4.5222478 -1.3370348 -1.7079985
4.5480576 -1.3750762 -1.7212194
4.5655088 -1.410991 -1.7313089
4.5603409 -1.4401079 -1.7327007
4.5380359 -1.4637424 -1.7274818
4.5343113 -1.4933206 -1.7295694
4.5223975 -1.5202177 -1.7285256
4.5156446 -1.5488511 -1.7295694
4.4936681 -1.572192 -1.7246985
4.4839368 -1.5997349 -1.7246985
4.4696317 -1.6256144 -1.7229589
4.4472671 -1.6484442 -1.7180882
4.4458385 -1.6790155 -1.7215673
4.430203 -1.7042421 -1.7194798
4.4126797 -1.7286558 -1.7166965
4.4037313 -1.756394 -1.7173923
4.3893971 -1.7819703 -1.7160006
4.3740482 -1.8070786 -1.7142611
4.349051 -1.8280673 -1.7086943
4.3282709 -1.8506614 -1.7048672
4.3202724 -1.8786807 -1.7062589
4.3069491 -1.9043953 -1.7055631
4.2943282 -1.9304018 -1.7052152
4.2806973 -1.9559352 -1.7045193
4.252461 -1.9746581 -1.6979089
4.2300911 -1.9959104 -1.6937339
4.215229 -2.0206118 -1.6926901
4.2044373 -2.0472591 -1.693386
4.1934767 -2.0738502 -1.6940818
4.1588926 -2.0885971 -1.6850359
4.1576905 -2.1200414 -1.6899068
4.1379437 -2.1420629 -1.6871234
4.1089559 -2.1591227 -1.680513
4.0881863 -2.1803217 -1.6773818
4.0772047 -2.2067046 -1.6784256
4.0742688 -2.23755 -1.6829485
4.0612817 -2.2629635 -1.6832963
4.0456882 -2.2869174 -1.6826005
4.0315795 -2.3116984 -1.6826005
4.0173192 -2.3363922 -1.6826005
4.0150189 -2.3681455 -1.6878192
4.0068483 -2.3965881 -1.6906027
4.0056934 -2.4293966 -1.6965172
3.9867191 -2.451473 -1.6947776
3.9747839 -2.4778736 -1.6961693
3.947619 -2.4947002 -1.6909505
3.9353948 -2.5208991 -1.6923422
3.916708 -2.5429556 -1.6909505
3.9049461 -2.5695181 -1.6926901
3.8898861 -2.5939503 -1.6930381
3.8715668 -2.616194 -1.6919943
3.8554413 -2.6399002 -1.6919943
3.8253076 -2.6538844 -1.6857318
3.8028166 -2.6729915 -1.6829485
3.7878711 -2.6973629 -1.6836443
3.7689683 -2.7189078 -1.6826005
3.7537282 -2.7430894 -1.6832963
3.7436068 -2.7710919 -1.6864276
3.7310331 -2.7973857 -1.6885151
3.713052 -2.819659 -1.6881672
3.6912229 -2.8389583 -1.6860797
3.6707759 -2.8592486 -1.684688
3.652427 -2.8811374 -1.6843401
3.6456652 -2.9122739 -1.6895589
3.6364722 -2.9416661 -1.6937339
3.6227047 -2.9674895 -1.6958214
3.6102002 -2.9944518 -1.6986047
3.5924764 -3.0171502 -1.6989527
3.5646131 -3.0312388 -1.6944298
3.5438156 -3.051218 -1.693386
3.5518758 -3.0963218 -1.7066069
2.4400277 -2.1530924 -1.1655949
2.4295664 -2.1705232 -1.1669866
2.4036911 -2.1740654 -1.160724
3.4409492 -3.1515207 -1.6895589
3.4222343 -3.1732123 -1.6899068
3.4013326 -3.1928675 -1.689211
3.3755627 -3.2078636 -1.6860797
3.3652725 -3.2376175 -1.6909505
3.3339286 -3.2470825 -1.6850359
3.3139422 -3.267478 -1.6850359
3.2845435 -3.2784755 -1.6801651
3.2557945 -3.2899024 -1.6756421
3.242754 -3.317194 -1.6794692
3.2281985 -3.3430998 -1.6826005
3.2030966 -3.3580949 -1.6801651
3.177932 -3.3729079 -1.6777297
3.1629233 -3.3985219 -1.6808609
3.1426454 -3.4185555 -1.6812088
3.1134193 -3.4287491 -1.6766859
3.0979545 -3.4540708 -1.6798172
3.083539 -3.4807355 -1.6836443
3.0639751 -3.5017076 -1.684688
3.0485599 -3.5275366 -1.6881672
3.0353765 -3.5561612 -1.6930381
3.0195401 -3.5818884 -1.6965172
2.9945068 -3.5967453 -1.6947776
2.9557142 -3.5947709 -1.6850359
2.940691 -3.6215744 -1.689211
2.9231048 -3.6454027 -1.6919943
2.8890455 -3.6485667 -1.6850359
1.99893 -2.5559523 -1.1621158
1.9809183 -2.5652006 -1.160724
1.9702549 -2.5840185 -1.1638553
1.9537989 -2.59531 -1.1635075
1.9344836 -2.6027336 -1.16142
1.9157053 -2.610774 -1.1596804
1.8985505 -2.6209605 -1.1589845
1.6366181 -2.2885327 -1.0020736
1.619303 -2.2939348 -0.99998617
1.5853785 -2.2753582 -0.98711318
2.617281 -3.8072901 -1.6725109
2.5780859 -3.799999 -1.6620734
2.5442932 -3.800163 -1.655115
2.5157619 -3.8078794 -1.6516359
2.4918382 -3.8224585 -1.6512879
2.4632676 -3.8297899 -1.6478088
2.4447429 -3.8527493 -1.6512879
2.4285157 -3.8795996 -1.6565067
2.4022033 -3.8904383 -1.6547672
2.3734124 -3.8970964 -1.6512879
2.348973 -3.9107823 -1.6509401
2.3320966 -3.937223 -1.6561588
2.3069489 -3.9498391 -1.655463
2.2798638 -3.9590445 -1.6533754
2.2485888 -3.9607277 -1.6481566
2.2283628 -3.9818144 -1.6512879
2.2038889 -3.9954123 -1.6512879
2.1784368 -4.0072126 -1.6505921
2.1462855 -4.0064526 -1.6446775
2.1194749 -4.0154004 -1.6429379
2.0922029 -4.0233383 -1.6408504
2.0721762 -4.04528 -1.6446775
2.0430949 -4.0495472 -1.6411983
2.0240462 -4.0737629 -1.6460692
2.0002472 -4.0886326 -1.647113
1.9791882 -4.1092763 -1.6505921
1.9559441 -4.1255794 -1.6523317
1.9301969 -4.1366534 -1.6519837
1.9043876 -4.1475668 -1.6516359
1.8785169 -4.1583195 -1.6512879
1.3906549 -3.12871 -1.2285681
1.3714314 -3.1371841 -1.2285681
1.3499364 -3.1403713 -1.2264805
1.3255366 -3.1365035 -1.2216097
1.7615769 -4.2416949 -1.6624213
1.733747 -4.2480836 -1.6606817
1.7066025 -4.256031 -1.6596379
1.6794257 -4.2638049 -1.6585943
1.6566119 -4.2827744 -1.6620734
1.6319653 -4.2972412 -1.663813
1.6088396 -4.3159595 -1.6672921
1.5849019 -4.3327942 -1.6700755
1.5608181 -4.3494973 -1.6728588
1.5337896 -4.358108 -1.6725109
1.5082422 -4.3709826 -1.6739026
1.477192 -4.3677201 -1.6690317
1.4530166 -4.3847117 -1.672163
1.4266636 -4.3953285 -1.6728588
1.4002349 -4.4057865 -1.6735547
1.3731753 -4.4142957 -1.6735547
1.3444272 -4.4172564 -1.6714672
1.3175654 -4.426321 -1.671815
1.2898577 -4.4325213 -1.6711192
1.2631484 -4.4421563 -1.671815
1.2391267 -4.4615674 -1.676338
1.2100118 -4.4627519 -1.6739026
1.1866786 -4.4855013 -1.6798172
1.1610057 -4.4999609 -1.6826005
1.1331441 -4.5060906 -1.6822526
1.1041371 -4.5074949 -1.6801651
0.68977219 -2.8908091 -1.0608717
0.66863531 -2.8803737 -1.055305
0.64847672 -2.8734469 -1.0511301
0.63143462 -2.8801193 -1.0521739
0.61160791 -2.8738518 -1.0483468
0.59169286 -2.8665316 -1.0441717
0.57501066 -2.8747051 -1.0459113
0.55576003 -2.8698947 -1.04278
0.53659016 -2.8649566 -1.0396488
0.52000046 -2.8737309 -1.0417362
0.50284052 -2.8796382 -1.04278
0.48205721 -2.8641777 -1.0358217
0.46267915 -2.8559754 -1.0316466
0.44226894 -2.8402321 -1.0246884
0.42580062 -2.8493836 -1.0271237
0.40989909 -2.8630798 -1.0312988
0.39156306 -2.8599677 -1.0292113
0.37449163 -2.866035 -1.0306029
0.35609117 -2.8617661 -1.0281675
0.33720884 -2.8527241 -1.0239924
0.32073817 -2.8640571 -1.0274717
0.30188137 -2.8538504 -1.0229487
0.28529006 -2.8649783 -1.0264279
0.26970187 -2.8881454 -1.03443
0.25124586 -2.8813398 -1.0312988
0.2343149 -2.8921721 -1.0347779
0.21628606 -2.8898156 -1.0333862
0.20084947 -2.9247608 -1.0459113
0.18121414 -2.8988023 -1.0358217
0.16337164 -2.8989236 -1.0354737
0.14698017 -2.9279623 -1.0459113
0.12913443 -2.9316189 -1.046955
0.11114392 -2.9323561 -1.046955
0.093413755 -2.9414165 -1.0500863
0.075860284 -2.961616 -1.0573926
0.057650942 -2.9601512 -1.0566968
0.039547406 -2.9651363 -1.0584363
0.021467887 -2.9821982 -1.0646988
0.003161449 -2.9710236 -1.0605239
-0.014940506 -2.9475491 -1.0518259
-0.032873854 -2.9342775 -1.046955
-0.050844379 -2.9321458 -1.0462592
-0.068499118 -2.9177198 -1.0410404
-0.08631625 -2.9144332 -1.0399966
-0.10453599 -2.923218 -1.0434759
-0.12278753 -2.9300151 -1.0462592
-0.14062734 -2.9263971 -1.0452155
-0.15883631 -2.9301598 -1.046955
-0.17760843 -2.9422312 -1.0518259
-0.19572088 -2.9420216 -1.0521739
-0.21383743 -2.9417002 -1.0525217
-0.23255 -2.9487441 -1.055653
-0.24992052 -2.9388547 -1.0525217
-0.26683632 -2.9251289 -1.0479988
-0.28505334 -2.9262357 -1.0490426
-0.30222714 -2.9169717 -1.0462592
-0.3209413 -2.9225173 -1.0490426
-0.34016854 -2.9316678 -1.0532175
-0.35826465 -2.9304559 -1.0535655
-0.3781563 -2.9430799 -1.0591321
-0.39783967 -2.9527822 -1.0636551
-0.4171313 -2.9586401 -1.0667863
-0.43418181 -2.9486053 -1.064003
-0.45340696 -2.9532986 -1.0667863
-0.47315088 -2.9606438 -1.0706134
-0.49038425 -2.9521363 -1.0685259
-0.50912762 -2.9527669 -1.0699176
-0.52822781 -2.9551244 -1.0720052
-0.54378545 -2.9380007 -1.0667863
-0.56286222 -2.9401331 -1.0688739
-0.58508438 -2.9577758 -1.0768759
-0.59983939 -2.937597 -1.0706134
-0.61862707 -2.9375305 -1.0720052
-0.63843238 -2.9419246 -1.0751363
-0.65503812 -2.9315476 -1.072701
-0.66943651 -2.9119418 -1.0667863
-0.68469924 -2.8968318 -1.0626113
-0.70046657 -2.8843775 -1.0594801
-0.71110886 -2.8518281 -1.0486946
-0.72603357 -2.8374212 -1.0448675
-0.74319166 -2.8320062 -1.0445197
-1.0751711 -3.9951611 -1.4933333
-0.81754953 -2.9663665 -1.0998385
-0.83905017 -2.9730227 -1.1043614
-0.85831851 -2.9714208 -1.1057531
-0.87653464 -2.9660983 -1.1057531
-1.2091638 -3.9997833 -1.5086417
-1.2500288 -4.0451322 -1.5291688
-1.2782161 -4.0481133 -1.5333439
-1.326936 -4.1142459 -1.5622211
-0.99704188 -3.0286362 -1.1412407
-0.97226012 -2.8936162 -1.0907927
-0.95773166 -2.793602 -1.0539134
-0.9807415 -2.8044851 -1.0605239
-1.0007683 -2.806361 -1.0636551
-1.0163656 -2.7957628 -1.0619155
-1.0318707 -2.7850788 -1.0601759
-1.0486088 -2.777818 -1.059828
-1.0646229 -2.7687068 -1.0587842
-1.0833023 -2.7664864 -1.0605239
-1.1075548 -2.7780726 -1.0678301
-1.1288143 -2.7816477 -1.0720052
-1.1404881 -2.761673 -1.0667863
-1.1603199 -2.7615366 -1.0695697
-1.1753986 -2.7500553 -1.0678301
-1.1922505 -2.7427914 -1.0678301
-1.2086781 -2.7345669 -1.0674822
-1.2231268 -2.7219691 -1.0653946
-1.2331783 -2.699918 -1.0594801
-1.2461659 -2.6846485 -1.0563488
-1.2590127 -2.6693218 -1.0532175
-1.2745566 -2.6598556 -1.0525217
-1.283051 -2.6359718 -1.0459113
-1.3091803 -2.648216 -1.0542613
-1.3430849 -2.6753168 -1.0688739
-1.3684229 -2.6845627 -1.0761801
-1.3646027 -2.6369891 -1.059828
-1.4034451 -2.6717169 -1.0779197
-1.4308467 -2.6837332 -1.0866176
-1.4330003 -2.6485226 -1.0754843
-2.0962293 -3.8170948 -1.5740502
-1.480003 -2.6569414 -1.0866176
-1.49397 -2.6437299 -1.0848781
-1.4971001 -2.6117439 -1.0751363
-1.4918784 -2.5660446 -1.0594801
-1.5075953 -2.5568423 -1.0594801
-1.5295141 -2.5580018 -1.064003
-1.5490718 -2.5549808 -1.0667863
-1.5617721 -2.5406368 -1.0646988
-1.5832857 -2.5405517 -1.0688739
-1.5993454 -2.5315814 -1.0692217
-1.6173784 -2.525667 -1.0709614
-1.6333559 -2.5164816 -1.0713092
-1.6539212 -2.5142426 -1.0747885
-1.6687969 -2.5032673 -1.0744405
-1.6662716 -2.4665737 -1.0626113
-1.6813748 -2.4563034 -1.0626113
-1.6969494 -2.4467106 -1.0629592
-1.706537 -2.4285834 -1.0594801
-1.7197744 -2.415776 -1.0584363
-1.7362109 -2.4074588 -1.0594801
-1.7614636 -2.4111397 -1.0660905
-1.775667 -2.3995328 -1.0657426
-1.7993581 -2.4005919 -1.0713092
-1.8134868 -2.3887594 -1.0709614
-1.8212489 -2.3686712 -1.0667863
-1.8345959 -2.3559725 -1.0660905
-1.8472749 -2.3424635 -1.0650468
-1.8569306 -2.3252258 -1.0622634
-1.8664445 -2.3079581 -1.0594801
-1.8799765 -2.2957373 -1.0591321
-1.8910339 -2.2805514 -1.0573926
-1.9068009 -2.2710588 -1.0584363
-1.9134097 -2.2507474 -1.0542613
-1.9314673 -2.2439368 -1.0566968
-1.9488969 -2.2362826 -1.0587842
-1.970649 -2.233418 -1.0633072
-1.9699441 -2.2052088 -1.055305
-1.9815506 -2.1909947 -1.0542613
-1.9987572 -2.1829422 -1.0563488
-2.0031874 -2.1610146 -1.0514779
-2.0125585 -2.1445823 -1.0493904
-2.0043614 -2.1097717 -1.0379092
-2.0172689 -2.0974333 -1.0379092
-2.0484207 -2.103817 -1.0476508
-2.0586574 -2.0885389 -1.0462592
-2.0767336 -2.0811749 -1.0490426
-2.085465 -2.0644374 -1.046955
-2.1182101 -2.0712583 -1.0573926
-2.1126657 -2.0406432 -1.0479988
-2.11429 -2.0172911 -1.0424321
-2.1505163 -2.0267761 -1.0546092
-2.1574202 -2.0084343 -1.0518259
-2.189033 -2.0129197 -1.0615675
-2.2117562 -2.0089014 -1.0667863
-2.224041 -1.9952923 -1.0667863
-2.2572994 -2.0002534 -1.0772239
-2.2709417 -1.9875997 -1.0779197
-2.2830946 -1.973628 -1.0779197
-2.2851765 -1.9510634 -1.0730488
-2.2992558 -1.9388174 -1.0740926
-2.3002992 -1.9156777 -1.0688739
-2.325772 -1.9128369 -1.0754843
-2.3301859 -1.8926224 -1.0720052
-2.3607755 -1.8935331 -1.081051
-2.3804362 -1.8854121 -1.0848781
-2.4089503 -1.8840482 -1.0928801
-2.4160118 -1.8657953 -1.0907927
-2.4207029 -1.8458221 -1.0876614
-2.4417229 -1.838261 -1.0921843
-2.4476876 -1.8193313 -1.0897489
-2.4550245 -1.8015065 -1.0880094
-2.453881 -1.7776134 -1.0824426
-2.4655049 -1.7630683 -1.0827905
-2.4624858 -1.7381806 -1.0765281
-2.4669492 -1.7187533 -1.0737447
-2.4789944 -1.7046459 -1.0744405
-2.4956148 -1.6936122 -1.0772239
-2.5114138 -1.6819172 -1.0796593
-2.5216866 -1.6664758 -1.0796593
-2.5546441 -1.6658134 -1.0897489
-2.5798016 -1.6597394 -1.0963594
-2.5938954 -1.6463892 -1.0980989
-2.6277926 -1.6453598 -1.1085365
-2.6657631 -1.6464373 -1.1207136
-2.7006414 -1.6451606 -1.1314991
-2.7565026 -1.6560628 -1.1513304
-2.7488632 -1.6286112 -1.1436762
-2.7604239 -1.6126591 -1.144372
-2.784893 -1.6041087 -1.1506345
-2.8289309 -1.6064223 -1.1652471
-2.8870103 -1.6160351 -1.1857742
-2.9929326 -1.6512462 -1.2264805
-3.0063033 -1.6346412 -1.2278723
-0 -0 -0
-3.1074004 -1.6404938 -1.2619681
-3.1673214 -1.647336 -1.2828432
-3.2224343 -1.6509404 -1.3016307
-3.2793829 -1.6547737 -1.3211141
-3.3255823 -1.6525493 -1.3360746
-3.3988285 -1.6629965 -1.3621684
-3.5415962 -1.7059479 -1.4167914
-3.7163618 -1.7620597 -1.4842875
-3.796778 -1.7717127 -1.5128167
-3.6916914 -1.6952082 -1.4654999
-3.7490203 -1.6937408 -1.4846354
-3.8724449 -1.7209319 -1.5305605
-3.9155793 -1.7113978 -1.5437814
-3.9432354 -1.6947391 -1.5507398
-3.9803345 -1.6818167 -1.5615252
-4.095355 -1.7008449 -1.6036233
-4.2446113 -1.7323308 -1.6592901
-4.2455878 -1.702418 -1.655463
-4.2568259 -1.6766788 -1.6558108
-4.3291216 -1.674526 -1.680513
-4.3515863 -1.6525884 -1.6853839
-4.4670715 -1.6651258 -1.727134
-4.5141873 -1.6512027 -1.7417465
-4.5295291 -1.6253717 -1.743834
-4.5889449 -1.6149656 -1.7633175
-4.6510611 -1.6048075 -1.7838446
-4.7052298 -1.591246 -1.8012404
-4.7905555 -1.5873936 -1.8308134
-4.8777919 -1.5831316 -1.8610823
-4.963366 -1.5772903 -1.8906553
-5.0284581 -1.5640578 -1.9122262
-5.0810151 -1.5462666 -1.9289262
-5.1011906 -1.5182679 -1.9331012
-5.1347175 -1.4940057 -1.942495
-5.1428857 -1.4622153 -1.942147
-5.1418238 -1.4278743 -1.9383199
-5.1432486 -1.3943369 -1.9355366
-5.1616778 -1.3653874 -1.9393637
-5.1726823 -1.3343922 -1.9404075
-5.1725888 -1.3005724 -1.9372762
-5.2050595 -1.2748259 -1.9466699
-5.2073116 -1.2415609 -1.9445825
-5.2066116 -1.2076813 -1.9414512
-5.2102656 -1.1748873 -1.9400595
-5.2091336 -1.1410918 -1.9369283
-5.2142034 -1.1087182 -1.9362324
-5.2254992 -1.0776492 -1.9379721
-5.227416 -1.0446483 -1.9362324
-5.2374096 -1.0132654 -1.9376241
-5.2444501 -0.98128235 -1.9379721
-5.2420688 -0.9475854 -1.9348408
-5.2403955 -0.91411561 -1.9320575
-5.2431321 -0.88147825 -1.9310137
-5.2521439 -0.84988862 -1.9324054
-0 -0 -0
-0 -0 -0
-5.3160877 -0.76009226 -1.950845
-0 -0 -0
-0 -0 -0
-0 -0 -0
-0 -0 -0
-0 -0 -0
-0 -0 -0
-0 -0 -0
-0 -0 -0
-0 -0 -0
-0 -0 -0
-0 -0 -0
-0 -0 -0
-0 -0 -0
-0 -0 -0
-0 -0 -0
-0 -0 -0
-0 -0 -0
-0 -0 -0
-0 -0 -0
-0 -0 -0
-0 -0 -0
-0 -0 -0
-5.2951479 -0.0047332896 -1.9230115
-0 0 -0
-0 0 -0
-0 0 -0
-0 0 -0
-0 0 -0
-0 0 -0
-0 0 -0
-0 0 -0
-0 0 -0
-0 0 -0
-0 0 -0
-5.173357 -0.13235292 -1.9411713
-5.1834078 -0.10078958 -1.9447501
-0 -0 -0
-0 -0 -0
-0 -0 -0
-0 0 -0
-0 0 -0
-0 0 -0
-0 0 -0
-0 0 -0
-0 0 -0
-0 0 -0
-0 0 -0
-0 0 -0
-0 0 -0
-0 0 -0
-0 0 -0
-0 0 -0
-0 0 -0
-0 0 -0
-0 0 -0
-0 0 -0
-0 0 -0
-0 0 -0
-0 0 -0
-0 0 -0
-0 0 -0
-0 0 -0
-0 0 -0
-0 0 -0
-0 0 -0
-0 0 -0
-0 0 -0
-0 0 -0
-0 0 -0
-0 0 -0
-0 0 -0
-5.0932684 1.040152 -1.9501183
-5.0730844 1.0684984 -1.9447501
-5.0563946 1.0974284 -1.9408134
-5.0358963 1.1253796 -1.9354453
-5.0352664 1.1577222 -1.9379504
-5.0089846 1.1840866 -1.9304349
-4.9989028 1.2141379 -1.9293613
-4.9868288 1.2436583 -1.9275719
-4.9800086 1.274465 -1.9279298
-4.968482 1.3040498 -1.9264983
-4.9594851 1.3342688 -1.9261404
-4.952105 1.3649225 -1.9264983
-4.9436369 1.3952824 -1.9264983
-4.9340854 1.4253306 -1.9261404
-4.9198737 1.4539913 -1.9239931
-4.9108596 1.4841517 -1.9239931
-4.893631 1.5117763 -1.9207722
-4.8896055 1.5434607 -1.9229195
-4.877377 1.5725744 -1.9218459
-4.8729577 1.6042233 -1.9239931
-4.8683338 1.6358771 -1.9261404
-4.8511381 1.6632956 -1.9232774
-4.8522997 1.6970369 -1.9279298
-4.8400364 1.7261509 -1.927214
-4.8275986 1.7551783 -1.9264983
-4.8036036 1.7799013 -1.9211301
-4.7987075 1.8116503 -1.9236352
-4.7718124 1.8350289 -1.9171934
-4.7622023 1.8649546 -1.9179091
-4.7480674 1.8931025 -1.9168355
-4.7398233 1.9236047 -1.9182671
-4.7322464 1.9544334 -1.9200565
-4.7227478 1.9845182 -1.9211301
-4.7190685 2.0171285 -1.9247088
-4.7048903 2.0453017 -1.9239931
-4.6845651 2.0707347 -1.9207722
-4.6751781 2.1009705 -1.9222038
-4.6562529 2.1269021 -1.9196986
-4.6380329 2.1530735 -1.9175513
-4.6154447 2.1771102 -1.9136146
-4.6028414 2.2057924 -1.9139725
-4.5825033 2.2307243 -1.9111094
-4.5762634 2.2625241 -1.9143304
-4.5597911 2.2893043 -1.9132568
-4.5464902 2.3176634 -1.9136146
-4.5197439 2.3390799 -1.9082465
-4.498693 2.3632951 -1.9053835
-4.4923472 2.3952465 -1.9089622
-4.4808507 2.4245431 -1.9103937
-4.476531 2.4578328 -1.9150462
-4.4613657 2.485254 -1.9150462
-4.4517231 2.5157971 -1.9175513
-4.4402537 2.5453868 -1.9193407
-4.4261665 2.5735223 -1.9200565
-4.4078789 2.5992095 -1.9189829
-4.3894434 2.6247694 -1.9179091
-4.3668675 2.6477807 -1.9150462
-4.3425837 2.6696358 -1.9114674
-4.3269138 2.6967249 -1.9118253
-4.3055487 2.7202315 -1.909678
-4.2942815 2.7501233 -1.9121832
-4.2788925 2.7774374 -1.9128989
-4.2625504 2.804153 -1.9132568
-4.2452641 2.8302548 -1.9132568
-4.2254968 2.854682 -1.9121832
-4.2063599 2.8795004 -1.9114674
-4.1878452 2.9047239 -1.9111094
-4.1699433 2.9303653 -1.9111094
-4.1450377 2.9510229 -1.9078885
-4.1336689 2.9813163 -1.9111094
-4.1115284 3.00387 -1.9093201
-4.0907674 3.027375 -1.9082465
-4.0706205 3.0512984 -1.9075307
-4.0436401 3.0700076 -1.903594
-4.0328698 3.1010215 -1.9075307
-4.014503 3.126282 -1.9078885
-3.9945118 3.1502776 -1.9075307
-3.9743772 3.1741455 -1.9071728
-3.9504697 3.1949492 -1.9050256
-3.9344039 3.2220867 -1.9068149
-3.9145594 3.2461669 -1.9068149
-3.896713 3.2719264 -1.9078885
-3.8794096 3.2981937 -1.9093201
-3.8626378 3.3249807 -1.9111094
-3.8386433 3.3455515 -1.9093201
-3.8208442 3.3715131 -1.9107516
-3.7979958 3.3930278 -1.909678
-3.7840307 3.4225311 -1.9132568
-3.7670915 3.4494684 -1.9154041
-3.7479095 3.474422 -1.9164777
-3.7231157 3.4941587 -1.9146882
-3.7016058 3.5169375 -1.9146882
-3.6772645 3.5369949 -1.9132568
-3.6548238 3.5588403 -1.9128989
-3.6335833 3.5818543 -1.9132568
-3.605588 3.5981462 -1.9100358
-3.5814714 3.6182113 -1.9089622
-3.5624673 3.6434567 -1.9107516
-3.5361521 3.6612172 -1.9086044
-3.5123315 3.6814947 -1.9078885
-3.490957 3.7043357 -1.9086044
-3.4707069 3.7284198 -1.9100358
-3.4458683 3.7475834 -1.9089622
-3.4265759 3.7728035 -1.9111094
-3.4052327 3.7958426 -1.9121832
-3.3800197 3.8145688 -1.9111094
-3.3565502 3.8352363 -1.9111094
-3.326237 3.8479893 -1.9071728
-3.3025634 3.8683264 -1.9071728
-3.2817755 3.8920867 -1.9089622
-3.2536492 3.9071276 -1.9064571
-3.2313938 3.9291816 -1.9075307
-3.2089903 3.9511094 -1.9086044
-3.1730006 3.9561574 -1.9014468
-3.1625817 3.9931188 -1.9100358
-3.1391714 4.0139198 -1.9107516
-3.1133418 4.0316281 -1.9100358
-3.0913768 4.0543675 -1.9118253
-3.0647564 4.0710216 -1.9107516
-3.0397193 4.0897503 -1.9107516
-3.0101483 4.1023021 -1.9078885
-2.9865637 4.1229634 -1.9089622
-2.9595799 4.1389322 -1.9078885
-2.9325128 4.1547256 -1.9068149
-2.9053631 4.1703424 -1.9057413
-2.8797197 4.1880913 -1.9057413
-2.8529191 4.2041368 -1.9050256
-2.8286281 4.2238903 -1.9060992
-2.8021426 4.2403879 -1.9057413
-2.7770915 4.2590656 -1.9064571
-2.7514114 4.2768106 -1.9068149
-2.7251177 4.2936125 -1.9068149
-2.7016947 4.315001 -1.9089622
-2.6746769 4.3307028 -1.9086044
-2.6456246 4.3430457 -1.9068149
-2.6218121 4.3639994 -1.9089622
-2.5930815 4.3767915 -1.9075307
-2.5675905 4.3950386 -1.9086044
-2.5363796 4.4034281 -1.9053835
-2.5106964 4.4213443 -1.9064571
-2.4816957 4.4334073 -1.9050256
-2.451288 4.4428282 -1.9025204
-2.4257655 4.4610667 -1.9039519
-2.3979063 4.4750438 -1.903594
-2.3664784 4.4822416 -1.9003731
-2.3380694 4.4950209 -1.8996574
-2.3147032 4.5175924 -1.9032362
-2.2848363 4.5275421 -1.9014468
-2.2524409 4.5322785 -1.8975101
-2.2266414 4.5502076 -1.8992995
-2.2003014 4.5671492 -1.900731
-2.1682346 4.5721269 -1.8971522
-2.1393499 4.583653 -1.8964365
-2.1119645 4.5983906 -1.8971522
-2.084094 4.6121135 -1.8975101
-2.0568933 4.6273742 -1.8985838
-2.0307064 4.645041 -1.900731
-2.0036421 4.6608453 -1.9021626
-1.9757332 4.6747718 -1.9028783
-1.9477286 4.6885314 -1.903594
-1.9168057 4.6952071 -1.9014468
-1.8858743 4.7016802 -1.8992995
-1.8593863 4.7192445 -1.9018047
-1.8307316 4.7314353 -1.9021626
-1.7996756 4.7373424 -1.9000152
-1.7731844 4.7552948 -1.9028783
-1.7439731 4.7660856 -1.9028783
-1.7172205 4.7837272 -1.9057413
-1.6887662 4.7968159 -1.9068149
-1.657778 4.8026748 -1.9050256
-1.6303735 4.8189478 -1.9075307
-1.6001865 4.8270879 -1.9068149
-1.5679419 4.8288226 -1.903594
-1.5371513 4.8347931 -1.9021626
-1.5038488 4.8325434 -1.8975101
-1.4752567 4.845253 -1.8989416
-1.4446993 4.8515291 -1.8978679
-1.415948 4.8638883 -1.8992995
-1.3840326 4.8653002 -1.8964365
-1.3524033 4.867403 -1.8939313
-1.3220229 4.8738074 -1.8932155
-1.290898 4.8773141 -1.8914262
-1.2602466 4.8824306 -1.8903525
-1.2304928 4.8909769 -1.8907104
-1.2011262 4.9011559 -1.8917841
-1.1699468 4.903892 -1.8899946
-1.1402575 4.9127975 -1.8907104
-1.108858 4.9142365 -1.8885632
-1.079284 4.9236841 -1.8896368
-1.0486637 4.9283872 -1.888921
-1.0195367 4.9402161 -1.8910682
-0.98993772 4.9500413 -1.8924998
-0.96078914 4.9624391 -1.895005
-0.93032211 4.9682412 -1.895005
-0.90098417 4.9802876 -1.8975101
-0.87024808 4.9848022 -1.8971522
-0.84026557 4.9937315 -1.8985838
-0.80931008 4.9969497 -1.8978679
-0.77834672 4.9999762 -1.8971522
-0.74848104 5.0101991 -1.8992995
-0.71772492 5.0146976 -1.8992995
-0.68605494 5.0125308 -1.8967943
-0.65528572 5.0166464 -1.8967943
-0.62472248 5.0224257 -1.8975101
-0.59345514 5.0224552 -1.8960786
-0.56179512 5.0185781 -1.8932155
-0.53187543 5.0302882 -1.8964365
-0.50072247 5.0306697 -1.8953629
-0.46871632 5.0215607 -1.8907104
-0.43838269 5.0299239 -1.8928577
-0.40637979 5.018558 -1.8874894
-0.37557885 5.020957 -1.8874894
-0.34501982 5.0268936 -1.888921
-0.31434378 5.0317116 -1.8899946
-0.28288552 5.0232906 -1.886058
-0.2525264 5.0342579 -1.8896368
-0.2218377 5.0403767 -1.8914262
-0.19097716 5.043509 -1.8921419
-0.16005686 5.0455194 -1.8924998
-0.12904721 5.0445395 -1.8917841
-0.098037392 5.0424356 -1.8907104
-0.06705825 5.0401411 -1.8896368
-0.036165107 5.0451264 -1.8914262
-0.0052091493 5.0461874 -1.8917841
0.025763152 5.0479918 -1.8924998
0.056746982 5.0486722 -1.8928577
0.087772429 5.0510297 -1.8939313
0.11882894 5.0531969 -1.895005
0.14986014 5.0533061 -1.8953629
0.18073051 5.0485587 -1.8939313
0.21209504 5.056684 -1.8975101
0.24276003 5.0478258 -1.894647
0.27362734 5.0443764 -1.8939313
0.30485502 5.0472631 -1.8957207
0.33612838 5.0499558 -1.8975101
0.36710802 5.0477986 -1.8975101
0.39792708 5.0435891 -1.8967943
0.42989451 5.0531478 -1.9014468
0.46012887 5.0420461 -1.8982259
0.49223399 5.0512094 -1.9028783
0.52167928 5.0332332 -1.8971522
0.55214524 5.0262251 -1.8957207
0.58297521 5.0227423 -1.8957207
0.61344337 5.0162902 -1.894647
0.64421123 5.0124316 -1.894647
0.67507941 5.0093098 -1.895005
0.70645481 5.0096965 -1.8967943
0.73772436 5.0089626 -1.8982259
0.76660347 4.9923434 -1.8935734
0.79884189 4.9976883 -1.8975101
0.82933915 4.9917717 -1.8971522
0.86011106 4.9875093 -1.8975101
0.88938361 4.9747839 -1.894647
0.92057115 4.9729061 -1.8960786
0.95159358 4.9699154 -1.8971522
0.98188931 4.9630666 -1.8967943
1.0125104 4.9578633 -1.8971522
1.0425274 4.9497299 -1.8964365
1.0732747 4.945065 -1.8971522
1.1038005 4.9392977 -1.8975101
1.1338775 4.9315219 -1.8971522
1.1643301 4.9253807 -1.8975101
1.1943095 4.9172363 -1.8971522
1.2228775 4.9034734 -1.894647
1.2538673 4.8994961 -1.8960786
1.2810627 4.8808718 -1.8917841
1.3102595 4.8702145 -1.8907104
1.3393737 4.8593826 -1.8896368
1.3709401 4.8573637 -1.8921419
1.4017549 4.8524485 -1.8935734
1.4317671 4.8446517 -1.8939313
1.4628167 4.8402448 -1.8957207
1.4927639 4.8320699 -1.8960786
1.5223848 4.8228197 -1.8960786
1.5539536 4.8196087 -1.8985838
1.5832051 4.8090963 -1.8982259
1.6117913 4.7966361 -1.8971522
1.6430092 4.7919559 -1.8992995
1.6723812 4.7817841 -1.8992995
1.699495 4.765276 -1.8967943
1.7255123 4.7459826 -1.8932155
1.7533032 4.7318029 -1.8917841
1.7813147 4.7183352 -1.8907104
1.8092271 4.7047014 -1.8896368
1.8438479 4.7082934 -1.8957207
1.8758146 4.7046976 -1.8989416
