# .PCD v0.7 - Point Cloud Data file format
VERSION 0.7
FIELDS x y z
SIZE 4 4 4
TYPE F F F
COUNT 1 1 1
WIDTH 1483
HEIGHT 1
VIEWPOINT 0 0 0 1 0 0 0
POINTS 1483
DATA ascii
-0.27436766 -2.9788702 -0.18860979
-0.29773304 -3.0287323 -0.1925268
-0.31027821 -2.9693286 -0.18815784
-0.43573275 -3.932663 -0.26152614
-0.44963086 -3.8427629 -0.25489739
-0.45804125 -3.717217 -0.24555686
-0.49020892 -3.7865238 -0.25105572
-0.52942604 -3.9010239 -0.2600196
-0.55433547 -3.9046125 -0.26054689
-0.49199054 -3.3201849 -0.21617942
-0.41761592 -2.7051578 -0.16940147
-0.45038381 -2.8029599 -0.1770848
-2.7860019 -16.649418 -1.2378368
-0.5345819 -3.084096 -0.19908023
-0.56020987 -3.1180501 -0.20194265
-3.1064255 -16.672758 -1.2437876
-3.2124438 -16.672966 -1.2452942
-3.373105 -16.946329 -1.2678922
-3.4710004 -16.896011 -1.2656325
-0.5557487 -2.6282332 -0.1655598
-0.566122 -2.59847 -0.16352597
-0.87616611 -3.9034808 -0.26484051
-3.9439077 -17.062223 -1.2855188
-4.069509 -17.125984 -1.2923735
-4.09764 -16.785866 -1.2678922
-4.2231097 -16.850359 -1.2748977
-0.69044483 -2.6888614 -0.17233922
-0.7186296 -2.7289264 -0.17580424
-0.63412619 -2.350014 -0.14650212
-0.91547579 -3.3099475 -0.2220549
-0.9463774 -3.341682 -0.22499265
-0.95852625 -3.3070829 -0.22273284
-4.9472804 -16.668781 -1.2761029
-0.80526304 -2.6567349 -0.17233922
-0.83691514 -2.7012672 -0.17625621
-1.0421095 -3.2911181 -0.22341079
-5.5406952 -17.116295 -1.3216757
-5.6086836 -16.970257 -1.3127871
-1.3913262 -4.1273956 -0.29165688
-1.4266869 -4.1480093 -0.29399201
-1.4379066 -4.098721 -0.29075295
-1.1971602 -3.3472276 -0.23116945
-1.2156247 -3.3341987 -0.23071748
-1.5217974 -4.0949244 -0.29263613
-1.5476015 -4.0873747 -0.29278678
-1.1855905 -3.0749691 -0.21158448
-1.1898456 -3.0305145 -0.2085714
-1.3480754 -3.3721817 -0.23696961
-1.3815293 -3.3952458 -0.23953073
-1.3977549 -3.3756506 -0.23862679
-7.1057982 -16.855286 -1.3444242
-1.2563046 -2.932106 -0.20359984
-1.2918134 -2.9645581 -0.20691422
-1.4607716 -3.2965777 -0.23501112
-1.8469715 -4.0993214 -0.30227795
-1.4396329 -3.1442411 -0.22386275
-1.4580566 -3.1335406 -0.22371209
-1.8939636 -4.0051417 -0.29730639
-1.9115903 -3.9790659 -0.29610115
-1.8292083 -3.7486291 -0.27772141
-1.4304049 -2.8868809 -0.2060103
-1.4485401 -2.8789403 -0.20608562
-0.91234034 -1.7868459 -0.11418692
-0.92971873 -1.7936046 -0.11524149
-2.0060873 -3.8098505 -0.28789052
-1.9085773 -3.5714834 -0.26853153
-1.9109553 -3.523772 -0.26544315
-1.9411985 -3.527703 -0.26679903
-1.4667449 -2.6277964 -0.18996568
-1.4848078 -2.6222172 -0.190267
-1.4770144 -2.5715621 -0.1866513
-1.4947745 -2.5658965 -0.18695261
-1.5155659 -2.5652597 -0.18770587
-1.524611 -2.5447946 -0.18672663
-1.5018613 -2.4723418 -0.18115245
-9.9829226 -16.19636 -1.3998648
-1.4591596 -2.3370316 -0.17075735
-5.0643559 -7.9961972 -0.67763144
-1.3772744 -2.1469426 -0.15531535
-1.3942294 -2.1443014 -0.15584265
-1.4457943 -2.1939731 -0.16111551
-1.4226549 -2.1303468 -0.15614395
-1.426752 -2.1083679 -0.15493871
-10.955215 -15.963249 -1.4251746
-1.4861073 -2.1390016 -0.159383
-1.4963324 -2.125767 -0.15900637
-1.4954439 -2.0970671 -0.15719852
-1.5030245 -2.0805793 -0.15652058
-1.5063345 -2.0584466 -0.15531535
-1.6282628 -2.1965141 -0.16917549
-1.5979779 -2.1282902 -0.16367663
-1.5868489 -2.0867069 -0.16066356
-1.6002315 -2.0777206 -0.16073889
-1.5957682 -2.045855 -0.15862973
-1.617568 -2.0477581 -0.15975964
-12.406494 -15.497052 -1.4622355
-1.6532514 -2.0409214 -0.16104019
-1.6499246 -2.0114715 -0.15915702
-1.6533113 -1.9905748 -0.15810244
-1.6661363 -1.9811556 -0.15817778
-1.6698524 -1.9610293 -0.15719852
-1.6877167 -1.9575408 -0.15787646
-1.6891989 -1.9351336 -0.15667124
-1.7208612 -1.9471387 -0.15893105
-2.2436888 -2.5070214 -0.21678203
-2.2550106 -2.488775 -0.21633007
-2.2607987 -2.4646072 -0.2152755
-2.2684116 -2.4426541 -0.2144469
-2.3072717 -2.4541085 -0.21708333
-2.3160968 -2.4334066 -0.21640539
-3.371964 -3.4987524 -0.32969689
-3.1969464 -3.2767725 -0.30845475
-3.1833491 -3.2230496 -0.30483907
-3.4132259 -3.4135342 -0.32728645
-3.2751677 -3.2355881 -0.31041324
-3.5026851 -3.4180405 -0.33233336
-2.4823573 -2.3932886 -0.22310948
-2.5388904 -2.4178836 -0.22747843
-2.5623968 -2.4104557 -0.22838235
-2.5924835 -2.4089367 -0.22996421
-3.1201448 -2.8634555 -0.28254232
-2.6454968 -2.398366 -0.23237467
-2.595516 -2.3242369 -0.22582124
-2.6807065 -2.3710041 -0.23297729
-2.7868476 -2.4345174 -0.24216716
-3.5946779 -3.101099 -0.3212603
-2.6601248 -2.2669513 -0.22664984
-3.3867381 -2.8500767 -0.29700509
-15.435237 -12.823066 -1.478506
-15.527504 -12.7395 -1.4798619
-3.3836136 -2.7426887 -0.29165688
-15.708364 -12.568551 -1.4823477
-4.08601 -3.2294714 -0.35606128
-3.8376451 -2.995194 -0.33037484
-16.090303 -12.395329 -1.4969611
-16.186693 -12.312063 -1.4989196
-16.323332 -12.258615 -1.5047197
-3.0849216 -2.2884462 -0.25278825
-3.0634997 -2.2435617 -0.24947385
-16.357073 -11.819429 -1.4870933
-16.469879 -11.747792 -1.4908596
-3.0398626 -2.1414459 -0.24352305
-3.0160954 -2.0971484 -0.24013333
-3.0692019 -2.1062367 -0.24382435
-3.1629965 -2.1421375 -0.25120637
-3.2283216 -2.1575806 -0.25595197
-3.3888693 -2.2348568 -0.26928481
-3.507848 -2.282516 -0.27877599
-3.6527133 -2.3449509 -0.29052696
-3.6897819 -2.3368936 -0.29256079
-5.7746053 -3.6070774 -0.47696081
-17.309599 -10.662543 -1.4983923
-3.6145635 -2.1971364 -0.28216571
-3.5903394 -2.1523676 -0.2788513
-3.7228129 -2.2008002 -0.28932175
-3.8456721 -2.2416623 -0.29888824
-17.746122 -10.1941 -1.5086367
-17.856062 -10.112043 -1.5127797
-3.980319 -2.2229836 -0.30702353
-3.9292319 -2.1629515 -0.30144936
-3.9397998 -2.1373756 -0.30122337
-3.8657691 -2.0666425 -0.29376602
-3.9216132 -2.0656433 -0.29745704
-3.8651679 -2.0057354 -0.29158154
-3.9360106 -2.0119202 -0.29655311
-3.9580798 -1.9926611 -0.2973817
-17.019911 -8.4337502 -1.3975297
-7.6781931 -3.746928 -0.60802943
-7.7118254 -3.7049251 -0.60893339
-17.308393 -8.1833916 -1.4089041
-5.7523146 -2.6774871 -0.44193384
-5.7505016 -2.6338398 -0.4404273
-19.163561 -8.6324501 -1.5503678
-5.8161225 -2.5780187 -0.44321442
-5.8336596 -2.5430799 -0.44336507
-5.7959924 -2.4844611 -0.43899611
-19.517593 -8.2218695 -1.5624954
-11.328224 -4.6909604 -0.88884777
-11.368802 -4.6262484 -0.88982701
-9.6237974 -3.8476994 -0.7455762
-9.6370153 -3.7845681 -0.74474758
-11.643695 -4.4900923 -0.90534437
-11.685016 -4.4238577 -0.90647423
-11.927866 -4.4322901 -0.92387474
-11.982006 -4.3689222 -0.92605925
-12.018916 -4.2990131 -0.92688781
-12.070475 -4.2340951 -0.92892164
-12.206556 -4.1978836 -0.9377349
-11.58857 -3.9060705 -0.88643736
-7.7897158 -2.572906 -0.58234304
-7.8148441 -2.5281286 -0.58309627
-12.508391 -3.9611604 -0.95377952
-12.595325 -3.9038138 -0.95875108
-11.58174 -3.5120175 -0.87687081
-11.659478 -3.4576085 -0.88131511
-12.94567 -3.7526331 -0.98082179
-12.973249 -3.6744876 -0.98119843
-9.7076616 -2.6856296 -0.72350544
-9.7181816 -2.6244547 -0.72305351
-12.878616 -3.3929138 -0.96869421
-12.98998 -3.3371432 -0.97577494
-13.229794 -3.3123319 -0.99287409
-13.079361 -3.1895289 -0.97961658
-13.02786 -3.0924101 -0.97411776
-13.10683 -3.0263183 -0.97878802
-13.104719 -2.9412551 -0.97720611
-11.546112 -2.5172675 -0.85532737
-13.394452 -2.8340712 -0.99686641
-13.429173 -2.7554371 -0.99822229
-13.516245 -2.6869781 -1.0036458
-13.509956 -2.5996616 -1.0019133
-13.643294 -2.5385964 -1.0109526
-13.476065 -2.4220417 -0.99694175
-13.66556 -2.3696189 -1.0103499
-13.601159 -2.2725837 -1.0043237
-13.657182 -2.195889 -1.0075629
-13.759092 -2.1257441 -1.0143422
-14.020448 -2.0781021 -1.0333246
-14.523609 -2.0616474 -1.070762
-14.667405 -1.9903159 -1.0807805
-15.955045 -2.0653222 -1.1779521
-16.508774 -2.0340469 -1.2191558
-22.640705 -2.6482019 -1.6846001
-22.740772 -2.5185571 -1.691003
-23.275478 -2.4332776 -1.7304742
-23.831808 -2.3436751 -1.7716026
-25.75321 -2.3730826 -1.9163054
-0 -0 -0
-25.859913 -2.0632133 -1.9223316
-25.838274 -1.9020137 -1.9197705
-25.839508 -1.7427666 -1.9190172
-25.851706 -1.5843076 -1.9191679
-25.856958 -1.4254352 -1.9188665
-25.858246 -1.2664119 -1.9183393
-25.867521 -1.1078101 -1.9184899
-25.883797 -0.94943422 -1.9192432
-25.88814 -0.79056597 -1.9191679
-25.887518 -0.63158303 -1.9187912
-25.883926 -0.47260123 -1.9182639
-25.861412 -0.31347051 -1.9163808
-25.833933 -0.15461022 -1.9141963
-25.802485 0.0039004497 -1.9117858
-25.778044 0.1620699 -1.9099779
-25.761608 0.32005149 -1.908848
-25.757166 0.4780786 -1.9086974
-25.74976 0.63601393 -1.9083961
-25.751352 0.79418421 -1.908848
-25.750977 0.95236111 -1.9092247
-25.729706 1.1097031 -1.9080948
-25.720421 1.2674584 -1.9079441
-25.669348 1.422877 -1.904705
-25.658142 1.5802317 -1.9045545
-25.636024 1.736828 -1.9036505
-22.320187 -0.568479 -1.9197582
-22.316284 -0.43137929 -1.9191469
-22.312534 -0.2943621 -1.918623
-22.308939 -0.15741417 -1.9181863
-22.295538 -0.020513052 -1.9169637
-22.279306 0.11620734 -1.9155664
-22.263231 0.25273904 -1.9142565
-22.245325 0.3890605 -1.9128592
-22.21563 0.52491307 -1.9105012
-22.181124 0.66029739 -1.9077941
-22.151766 0.79549247 -1.9056108
-22.104666 0.92964089 -1.901943
-22.076654 1.0642002 -1.9000217
-22.05081 1.198613 -1.8983625
-22.021164 1.3325683 -1.8964412
-21.998657 1.466735 -1.8952186
-21.981295 1.6011097 -1.8945199
-21.964106 1.7354052 -1.8939086
-21.941132 1.8691273 -1.8928607
-21.926275 2.0034485 -1.8925987
-21.911587 2.1377544 -1.8924241
-21.893103 2.2716472 -1.8919874
-21.8738 2.4053936 -1.8915508
-21.860609 2.5397933 -1.8917254
-21.836702 2.6729116 -1.8910267
-21.809023 2.8054509 -1.8900661
-21.777576 2.9373517 -1.8888435
-21.740402 3.0682764 -1.8871843
-21.689629 3.1969674 -1.8843898
-21.649912 3.3269665 -1.8826431
-21.627123 3.4594305 -1.8824685
-21.594679 3.59027 -1.8815079
-21.56439 3.7213497 -1.8808092
-21.540171 3.853421 -1.8807219
-21.514162 3.9851534 -1.8805473
-21.479519 4.1152124 -1.879674
-21.448002 4.2457705 -1.8791499
-21.417643 4.3764954 -1.8788006
-21.406956 4.5113211 -1.8802853
-21.374004 4.6415296 -1.8798486
-21.324707 4.7680264 -1.8780147
-21.287283 4.896996 -1.877316
-21.216118 5.0178909 -1.8736482
-21.161697 5.1423311 -1.8715522
-21.125881 5.2711158 -1.8712029
-21.09507 5.4011364 -1.8713776
-21.062496 5.5307245 -1.871465
-21.090691 5.6766858 -1.8771414
-21.089073 5.8152566 -1.8801979
-21.146948 5.9710741 -1.8887562
-21.164461 6.1164808 -1.893734
-21.16761 6.2583723 -1.8974892
-21.183165 6.4045687 -1.902467
-21.18725 6.5479555 -1.9064841
-21.171371 6.6856337 -1.9087547
-21.172615 6.8291731 -1.9126846
-21.199385 6.9817038 -1.9190596
-21.211859 7.1303759 -1.924212
-21.206343 7.2736459 -1.9277925
-21.201746 7.4177737 -1.9315478
-21.198053 7.562788 -1.9354775
-21.183081 7.7042904 -1.9384468
-21.180246 7.8507404 -1.9426386
-21.20064 8.0065956 -1.949101
-21.20225 8.1562004 -1.9539042
-21.209312 8.3086691 -1.9593185
-21.205124 8.4574709 -1.9637723
-21.203596 8.6080322 -1.9685755
-21.234163 8.7725859 -1.9765224
-21.186365 8.9054127 -1.9771338
-21.177122 9.0548239 -1.9815003
-21.192421 9.2155781 -1.988312
-21.159164 9.3559132 -1.9905826
-21.153151 9.5088472 -1.9955603
-21.132462 9.6558485 -1.9992281
-21.084564 9.7907877 -2.0003633
-21.055624 9.9348536 -2.0034199
-21.023014 10.077641 -2.0062146
-20.999296 10.225198 -2.0099697
-21.007597 10.389181 -2.0169561
-21.018234 10.555439 -2.0242918
-20.98502 10.700497 -2.0274355
-20.945509 10.842795 -2.0300555
-20.905041 10.985011 -2.0326755
-20.887346 11.139795 -2.0376532
-20.860653 11.290507 -2.0418451
-20.818052 11.433159 -2.0445523
-20.797979 11.588803 -2.0496173
-20.809734 11.763258 -2.058001
-20.806301 11.930364 -2.0649874
-20.81193 12.103879 -2.0730217
-20.748425 12.237929 -2.074157
-20.692608 12.37677 -2.0761654
-20.617128 12.504021 -2.0762529
-20.528984 12.623507 -2.0751176
-20.425781 12.733423 -2.0724976
-20.306843 12.83297 -2.068306
-20.179905 12.926702 -2.063328
-20.05509 13.020987 -2.0586123
-19.942362 13.122442 -2.0552065
-19.816713 13.214715 -2.0504906
-19.685732 13.302594 -2.0452509
-19.581545 13.407938 -2.0428929
-19.466984 13.50569 -2.0394871
-19.347889 13.599678 -2.0356445
-19.244604 13.70427 -2.0335486
-19.152882 13.81685 -2.0327628
-19.060505 13.92882 -2.0319767
-18.967474 14.040176 -2.0311909
-18.872997 14.150318 -2.0303175
-18.764397 14.249588 -2.0279596
-18.655289 14.348059 -2.0256016
-18.54175 14.442667 -2.0228071
-18.423061 14.532721 -2.0194886
-18.30241 14.620619 -2.0159955
-18.192993 14.716983 -2.0138123
-18.075375 14.806242 -2.0107558
-17.965017 14.900973 -2.0085723
-17.851126 14.992345 -2.0060399
-17.746656 15.091269 -2.0046425
-17.615976 15.167378 -2.0002761
-17.509815 15.264054 -1.9987916
-17.384457 15.343519 -1.9951236
-17.237242 15.402773 -1.9889233
-17.138714 15.504908 -1.9884866
-17.031502 15.599011 -1.9870894
-16.917204 15.686289 -1.9849061
-16.769068 15.741388 -1.9787058
-16.705383 15.875552 -1.9827229
-16.562429 15.934244 -1.9772211
-16.405828 15.978577 -1.9700601
-16.301092 16.072645 -1.9692742
-16.19582 16.166031 -1.9684881
-16.077402 16.245985 -1.9661303
-15.956525 16.322958 -1.9635104
-15.837385 16.401209 -1.9611524
-15.708261 16.468523 -1.957572
-15.591204 16.54792 -1.9555633
-15.476479 16.629419 -1.9539042
-15.367409 16.716736 -1.9530308
-15.253833 16.798914 -1.9516336
-15.137167 16.877361 -1.9498869
-15.018791 16.953518 -1.9479657
-14.899396 17.028111 -1.9459571
-14.769229 17.089815 -1.9425513
-14.644687 17.157387 -1.9399314
-14.523726 17.228642 -1.9378355
-14.409453 17.307482 -1.9367002
-14.286535 17.375565 -1.9344296
-14.169604 17.450523 -1.9330323
-14.049176 17.520819 -1.9311984
-13.929656 17.591854 -1.9295391
-13.806726 17.658159 -1.9274433
-13.690203 17.732292 -1.9263079
-13.570271 17.801701 -1.924736
-13.453597 17.87508 -1.9236881
-12.523705 16.85387 -1.8031732
-13.231462 18.036421 -1.923426
-13.118791 18.114847 -1.9231641
-13.002178 18.187708 -1.9223781
-12.888613 18.264704 -1.9221162
-12.76719 18.330364 -1.9207188
-12.635289 18.380445 -1.9177496
-12.508848 18.437843 -1.9156537
-12.392155 18.509283 -1.9151298
-12.269565 18.571672 -1.9137325
-12.150484 18.639097 -1.9129465
-12.027266 18.699896 -1.9115492
-11.460218 18.060907 -1.837581
-11.362397 18.151997 -1.8397644
-11.2037 18.145088 -1.8319046
-11.557988 18.978367 -1.910414
-11.43414 19.036972 -1.9091914
-11.310009 19.094772 -1.9079688
-11.168516 19.12252 -1.9037769
-11.038047 19.168245 -1.9015063
-9.6050768 16.919121 -1.667987
-10.769397 19.244011 -1.8956553
-10.648709 19.305368 -1.8952186
-10.529577 19.369469 -1.8951312
-10.41006 19.432835 -1.895044
-10.285511 19.486652 -1.8940833
-10.159315 19.537024 -1.8928607
-10.032888 19.586578 -1.891638
-9.9039927 19.630873 -1.8899788
-9.7753744 19.675215 -1.8884069
-9.6435213 19.712454 -1.8862237
-9.5167665 19.759586 -1.8850883
-9.384676 19.795105 -1.8829051
-9.256299 19.837872 -1.8815079
-9.1294136 19.88343 -1.8804599
-8.9978065 19.918192 -1.8784513
-8.8665209 19.952999 -1.8765301
-8.7307596 19.976906 -1.8736482
-8.5981855 20.007219 -1.871465
-8.4678946 20.042166 -1.8698057
-8.3397923 20.081787 -1.8686703
-8.2111454 20.119667 -1.8674477
-8.0816069 20.154879 -1.8660505
-7.9501195 20.184622 -1.8642166
-7.8121033 20.196789 -1.8608108
-7.6721153 20.202435 -1.8568809
-7.53966 20.226727 -1.854785
-7.4102755 20.258575 -1.8534751
-7.2801118 20.287724 -1.8519905
-7.1551609 20.331072 -1.8519031
-7.0250778 20.359526 -1.8505058
-6.8955536 20.389036 -1.8492832
-6.7674985 20.422451 -1.8484973
-6.6399083 20.456959 -1.847886
-6.5115461 20.488771 -1.8471
-6.3815641 20.515022 -1.8458774
-6.2538257 20.548075 -1.8453534
-6.1259222 20.580332 -1.8448294
-5.9967446 20.607967 -1.8439561
-5.8680038 20.636709 -1.8432574
-5.7386031 20.662729 -1.8423842
-5.6072788 20.681206 -1.8408996
-5.4779825 20.706554 -1.8401136
-5.3490844 20.733025 -1.8395023
-5.2220111 20.766422 -1.8395896
-5.0966258 20.806782 -1.8403757
-4.9690928 20.838631 -1.8404629
-4.841361 20.869699 -1.8405503
-4.7101474 20.885406 -1.8393277
-4.5851064 20.928511 -1.8406376
-4.4603353 20.973789 -1.8422096
-3.0685034 14.877653 -1.2941289
-2.9451351 14.735997 -1.2798069
-2.8281643 14.616866 -1.2675807
-2.7235796 14.55463 -1.260507
-2.6258922 14.524995 -1.2564025
-2.5324383 14.516299 -1.2542193
-2.4246521 14.420555 -1.244351
-2.3326218 14.413527 -1.2424297
-2.2458227 14.438396 -1.2433904
-2.1195321 14.199678 -1.221034
-1.9952694 13.95306 -1.1980664
-1.9082676 13.955171 -1.197193
-1.823249 13.971556 -1.1976297
-1.7958503 14.452052 -1.2391112
-1.6546961 14.0186 -1.1999003
-1.5668768 14.012649 -1.198503
-1.482751 14.039831 -1.2000749
-1.4046593 14.129951 -1.2072359
-1.3050772 14.000432 -1.1950971
-1.2728024 14.624473 -1.2493289
-1.1877825 14.690591 -1.2544812
-1.1365094 15.218149 -1.3002419
-1.0576886 15.43752 -1.3189305
-0.94576645 15.168313 -1.2947402
-0.8596673 15.298157 -1.3056564
-0.72344184 14.45745 -1.2314262
-0.63454419 14.457636 -1.231077
-0.57285661 15.177 -1.2938669
-0.47839883 15.138411 -1.290199
-0.38654292 15.181891 -1.2937796
-0.29368964 15.199913 -1.2951769
-0.18995771 14.409535 -1.2257499
-0.1017503 14.440314 -1.2283697
-0.013263901 14.568178 -1.2395478
0.078439541 15.013271 -1.2785842
0.16741909 14.735587 -1.2543066
0.25499529 14.57193 -1.2400719
0.34611863 14.642792 -1.246447
0.44804499 15.046654 -1.2820774
0.53210682 14.813652 -1.2619042
0.62152725 14.775273 -1.2588477
0.71083242 14.74332 -1.2564025
0.76771653 14.120965 -1.2021708
0.85428655 14.114994 -1.2020835
0.94021589 14.099547 -1.2012101
1.0241791 14.058739 -1.1981536
1.1043823 13.975722 -1.1914293
1.1911293 13.980594 -1.1924772
1.2765276 13.969053 -1.1921279
1.3660847 14.000617 -1.1956211
1.4456947 13.931529 -1.190294
1.5291899 13.904572 -1.188722
1.6147079 13.896906 -1.1888967
1.7099917 13.968807 -1.1961451
1.7851228 13.876045 -1.1888967
1.873027 13.885563 -1.1907307
1.9563824 13.860985 -1.1895953
2.0522883 13.922635 -1.1961451
2.1355593 13.895996 -1.1949224
2.2210979 13.884598 -1.1950971
2.3114781 13.902154 -1.1978917
2.4009712 13.912251 -1.2000749
2.4892719 13.913928 -1.2015595
2.6509778 14.31077 -1.2383252
2.6596425 13.881354 -1.2014722
2.7387705 13.83448 -1.1987649
2.8377645 13.886712 -1.2049654
2.9352427 13.927525 -1.2102052
3.0341737 13.971556 -1.2157942
3.1263649 13.981841 -1.2184141
3.2234859 14.011907 -1.222868
3.319947 14.036458 -1.2268851
3.4123614 14.04196 -1.229243
3.5008683 14.030423 -1.2301162
3.6264229 14.163087 -1.244089
3.7140167 14.143459 -1.244351
3.7971048 14.106937 -1.2431284
3.8857102 14.091056 -1.243827
3.9707448 14.062155 -1.2433904
4.0541883 14.027956 -1.2425171
4.1418805 14.008547 -1.243041
4.2401533 14.023872 -1.2467963
4.3408289 14.045179 -1.2511628
4.4494238 14.089526 -1.2577125
4.5305934 14.045842 -1.2562279
4.615757 14.01494 -1.2559658
4.7048383 13.995797 -1.2568392
4.8287616 14.077857 -1.2671441
4.9416966 14.124127 -1.2742177
5.0259247 14.086971 -1.2736064
5.1538038 14.170083 -1.2842606
5.2420378 14.14193 -1.2846099
5.339622 14.138389 -1.2873172
5.4359298 14.130464 -1.2896751
5.5697651 14.217424 -1.3010279
5.6664915 14.20704 -1.3032985
5.7389445 14.136005 -1.2998927
5.818727 14.083953 -1.2983208
5.9602327 14.17931 -1.3108089
6.0400739 14.125984 -1.3092369
6.120677 14.074954 -1.307927
6.2230377 14.073577 -1.3114202
6.3627777 14.154156 -1.3228604
6.4362583 14.085853 -1.3200657
6.5351524 14.073201 -1.3226857
6.6685648 14.132841 -1.3323792
6.778409 14.140166 -1.337095
6.8763824 14.121595 -1.3393656
6.9942541 14.142537 -1.345566
7.0867109 14.110929 -1.3467013
7.2595906 14.236687 -1.3633813
7.3339863 14.167104 -1.360936
7.4226294 14.125363 -1.3612853
7.5274429 14.113833 -1.3646913
7.6252818 14.088408 -1.3667871
7.7576175 14.125178 -1.3751708
7.8649912 14.114732 -1.3789259
7.996058 14.145125 -1.3868729
8.1079712 14.13987 -1.3913268
8.214612 14.1243 -1.39482
8.2899885 14.054753 -1.3928987
8.4420328 14.113908 -1.4041642
8.5765171 14.141059 -1.4122858
8.7153025 14.173027 -1.4210188
8.8463688 14.190295 -1.4283545
9.0285301 14.286489 -1.4439865
9.1788864 14.328966 -1.4542041
9.2829084 14.297442 -1.4568239
9.3655329 14.232724 -1.456038
9.4836369 14.221404 -1.4609284
9.5902405 14.191835 -1.463985
9.7232885 14.200125 -1.471146
11.729509 16.906721 -1.7663201
11.827298 16.826283 -1.7654468
11.936098 16.761509 -1.7663201
12.020653 16.66291 -1.7636129
12.116791 16.580795 -1.7627395
12.145995 16.408451 -1.7520853
11.981721 15.980526 -1.7133983
12.068707 15.892426 -1.7118264
12.160527 15.810968 -1.7110405
12.201608 15.664537 -1.7030934
0 0 -0
11.906093 14.904186 -1.6347144
11.999198 14.833175 -1.6349764
12.050219 14.710719 -1.6294746
12.151702 14.650305 -1.6310465
12.907649 15.368827 -1.7218693
13.004289 15.292374 -1.7222186
13.121924 15.240225 -1.7254498
13.232209 15.178947 -1.7277204
13.360692 15.137803 -1.7324362
13.528993 15.140221 -1.7423918
13.6477 15.085735 -1.7457976
13.808636 15.076643 -1.7547053
13.930009 15.023042 -1.7584604
14.034198 14.95036 -1.7600324
14.109199 14.846635 -1.7579365
14.17862 14.737529 -1.7552292
14.291717 14.673803 -1.7581111
14.42275 14.627687 -1.7632636
14.512936 14.53962 -1.7633508
14.608249 14.456604 -1.7641369
14.700952 14.370875 -1.7646608
14.854064 14.343373 -1.7726078
15.038385 14.344096 -1.78431
15.230522 14.349926 -1.7968855
15.40579 14.337645 -1.8073651
15.552877 14.297457 -1.8144387
15.761999 14.312255 -1.8288481
15.968916 14.322361 -1.8429081
16.146721 14.304038 -1.8534751
16.352636 14.308342 -1.8672731
16.556192 14.308048 -1.8807219
16.789907 14.331015 -1.8975765
17.064127 14.385035 -1.9189723
17.204895 14.324041 -1.924998
17.469439 14.363724 -1.9450839
17.692577 14.366156 -1.9603665
17.977016 14.414995 -1.9824609
18.169779 14.387287 -1.994163
18.349531 14.347322 -2.0043807
18.454567 14.247855 -2.0063019
18.541643 14.134352 -2.0063019
18.624838 14.01792 -2.0059526
18.717695 13.908724 -2.0067384
18.736822 13.745294 -1.9995775
18.773207 13.595592 -1.9944251
18.80522 13.443647 -1.9889233
18.840961 13.295268 -1.9839455
18.859241 13.135571 -1.9772211
18.874634 12.975022 -1.970322
18.920094 12.836035 -1.9667416
18.948832 12.686448 -1.9615017
18.984758 12.542484 -1.9571353
19.022972 12.400735 -1.9531181
19.055138 12.255756 -1.948577
19.069418 12.100176 -1.9422892
19.095173 11.952812 -1.9373115
19.143574 11.820243 -1.9347789
19.186813 11.68494 -1.9318097
19.232531 11.551603 -1.9291898
19.271336 11.414593 -1.9259586
19.316927 11.282063 -1.9235134
19.352121 11.143937 -1.9201075
19.403675 11.01564 -1.9184483
19.430912 10.873995 -1.9144311
19.467611 10.738205 -1.9114619
19.498999 10.599996 -1.908056
19.502205 10.447223 -1.901943
19.539511 10.313413 -1.8993231
19.543209 10.162532 -1.893472
19.569733 10.024259 -1.8899788
19.586403 9.8815565 -1.8856124
19.615442 9.745676 -1.8825558
19.594336 9.5857344 -1.8746961
19.598934 9.4393883 -1.8694564
19.585373 9.2852392 -1.8625573
19.620312 9.1547813 -1.8604615
19.602785 9.0005503 -1.8533877
19.620422 8.8632851 -1.8498073
19.644396 8.7293797 -1.8469254
19.661989 8.5931206 -1.8435194
19.668583 8.4526472 -1.8391529
19.686125 8.3174591 -1.8359218
19.695389 8.1793165 -1.8319919
19.693556 8.0372334 -1.8271015
19.711065 7.9036388 -1.8241323
19.725822 7.769402 -1.8209884
19.689505 7.6158752 -1.8131287
19.699545 7.4811258 -1.8097229
19.713341 7.34828 -1.8067538
19.718763 7.2128091 -1.8030858
19.716705 7.0751939 -1.7988067
19.729677 6.9434981 -1.7960122
19.745543 6.8132095 -1.7935669
19.790751 6.6932015 -1.7939162
19.839958 6.5744624 -1.7947022
19.886557 6.4547558 -1.7953135
19.937181 6.3362336 -1.7963614
19.985197 6.2167411 -1.7972348
20.044884 6.1006689 -1.7992433
20.10199 5.9835296 -1.8010772
20.152674 5.8642488 -1.8023872
20.199776 5.7437534 -1.8034352
20.235598 5.6199684 -1.8035225
20.274508 5.4970031 -1.8039591
20.310743 5.3732619 -1.8042212
20.340437 5.2477899 -1.8039591
20.391577 5.1277432 -1.8057058
20.423624 5.0027637 -1.805793
20.459749 4.8787389 -1.8063171
20.4893 4.7531085 -1.8063171
20.515163 4.6266413 -1.8060551
20.545111 4.501102 -1.8062297
20.579165 4.3764057 -1.806841
20.617336 4.2524667 -1.807889
20.657694 4.1288099 -1.809199
20.699266 4.0051966 -1.8106835
20.75087 3.883244 -1.8131287
20.787048 3.7581503 -1.8142641
20.81953 3.6322448 -1.8151374
20.85125 3.5060823 -1.8160106
20.877287 3.3788714 -1.8164473
20.904516 3.2517791 -1.8170586
20.9359 3.1252153 -1.8181065
20.969473 2.998812 -1.8194165
21.026958 2.875489 -1.8229097
21.065937 2.7492523 -1.8248309
21.120964 2.6247344 -1.8282368
6.8767834 0.81149977 -0.56946778
6.9172735 0.77327561 -0.57261163
6.8327279 0.72139871 -0.56475198
6.8013391 0.67591166 -0.56160814
6.7904806 0.63277942 -0.5602982
6.8111067 0.59257066 -0.56178278
6.8096495 0.55036581 -0.56134611
6.8128982 0.50857222 -0.56134611
6.8158908 0.4667595 -0.56134611
6.7917819 0.42325467 -0.55898821
6.7912669 0.38140538 -0.55872625
6.7894998 0.3395285 -0.55837691
6.7904601 0.29781881 -0.55828959
6.8001232 0.25644854 -0.55898821
6.8025646 0.21475042 -0.55907559
6.796783 0.17282896 -0.55846423
6.8196273 0.13154538 -0.56038553
6.817318 0.089658983 -0.5601235
6.8167439 0.047819972 -0.56003618
6.8298593 0.0060044695 -0.56117147
6.8178134 -0.035840735 -0.5601235
6.8423681 -0.077955633 -0.56230676
6.8606853 -0.12026878 -0.56396604
6.8886995 -0.16304478 -0.56649858
6.9005141 -0.20569508 -0.56763387
6.9160461 -0.24863942 -0.5691185
6.9382772 -0.29207498 -0.57121438
6.9303846 -0.33435425 -0.57069039
6.9799275 -0.37968266 -0.57523155
18.614481 -1.1264819 -1.59725
18.394508 -1.2264986 -1.5785614
18.336958 -1.3357246 -1.5741949
18.301605 -1.4460948 -1.5718371
18.248713 -1.5546445 -1.5679946
18.167402 -1.660062 -1.5617068
14.253443 -1.3907464 -1.2178901
18.079275 -1.8759918 -1.5558558
18.062473 -1.9863445 -1.5554191
10.582985 -1.2297539 -0.89642984
10.580184 -1.2952718 -0.8968665
10.564133 -1.3591495 -0.89616787
10.55362 -1.4236779 -0.89599317
10.551591 -1.4893813 -0.89660454
10.553094 -1.5556943 -0.89756513
13.836918 -2.126482 -1.1896827
13.827544 -2.211973 -1.190032
18.157217 -3.0188322 -1.5760288
18.129517 -3.1286616 -1.5752429
18.055065 -3.2300205 -1.5703524
17.972216 -3.3291326 -1.5647633
13.431296 -2.5734253 -1.1613005
18.118612 -3.5867603 -1.581618
18.104073 -3.6994617 -1.5823166
18.076159 -3.8094497 -1.58188
18.033947 -3.9162748 -1.5802207
17.971663 -4.0183787 -1.5768149
17.812695 -4.0977578 -1.5647633
17.766857 -4.2021627 -1.5629294
17.698147 -4.3007498 -1.5590869
17.64146 -4.4017868 -1.5563797
8.2222137 -2.1054518 -0.70648795
8.200469 -2.1535857 -0.70570201
17.485304 -4.7063456 -1.54983
7.6999745 -2.123513 -0.6626485
7.7471981 -2.187772 -0.66815025
17.312452 -5.003335 -1.5422323
8.0245104 -2.372771 -0.69600838
7.9764256 -2.4118738 -0.69295186
7.9633799 -2.4613593 -0.6931265
8.0022745 -2.5272729 -0.69810432
16.892948 -5.4488635 -1.5184786
16.849735 -5.5492978 -1.5176054
7.8439207 -2.6370053 -0.68788671
16.735138 -5.7401395 -1.5134135
16.682676 -5.8367949 -1.5118417
16.626844 -5.9320188 -1.5100077
16.576092 -6.0288205 -1.5086977
16.449116 -6.0971799 -1.5003141
16.387163 -6.1888447 -1.4980435
16.313549 -6.2756872 -1.494725
16.229286 -6.3578629 -1.4904459
16.135376 -6.4355516 -1.4852934
16.066048 -6.5224447 -1.4824989
16.003628 -6.611773 -1.4804029
15.941635 -6.7009668 -1.4783944
15.889227 -6.7939572 -1.4773464
15.837192 -6.8869543 -1.4763858
15.792813 -6.9831939 -1.4762112
15.734222 -7.0730224 -1.4747266
15.663344 -7.1570129 -1.4721067
15.588414 -7.2387223 -1.4691374
15.524786 -7.3253078 -1.4673035
15.476851 -7.4191365 -1.4670415
15.427454 -7.5122166 -1.4666922
15.37214 -7.6023207 -1.4658189
15.302948 -7.6853228 -1.4636357
15.235979 -7.7691197 -1.4617144
15.160597 -7.8482633 -1.4590071
15.105983 -7.9378958 -1.4583958
13.070471 -6.9710116 -1.2610309
14.98378 -8.109869 -1.456038
14.916274 -8.1920652 -1.4542913
14.850063 -8.2747078 -1.4527194
14.782534 -8.3563566 -1.4510602
12.431349 -7.1283412 -1.2186761
12.60955 -7.3336926 -1.2412071
12.566889 -7.4124432 -1.2414691
12.995658 -7.7732048 -1.289937
14.409369 -8.7392378 -1.4397947
14.325773 -8.8092241 -1.4367381
14.241018 -8.8779888 -1.4335942
12.267914 -7.752933 -1.2346574
14.102479 -9.0338106 -1.4306251
14.042605 -9.1174593 -1.4301884
13.983068 -9.2012606 -1.4298391
13.928834 -9.2885447 -1.4301012
13.876531 -9.3771811 -1.4306251
13.824486 -9.4660892 -1.4312364
13.793971 -9.5700426 -1.4342055
13.774926 -9.6825705 -1.4384848
13.75096 -9.7923346 -1.4423273
13.793221 -9.9505396 -1.4534181
13.748796 -10.047329 -1.4552521
13.651658 -10.105423 -1.4514096
13.532008 -10.145972 -1.4451218
13.423484 -10.193871 -1.4400567
13.327518 -10.250536 -1.4363889
13.226646 -10.302736 -1.432197
13.116253 -10.346683 -1.4269572
12.952893 -10.347384 -1.415779
12.851982 -10.396595 -1.4115872
12.76637 -10.457582 -1.409142
12.685861 -10.522364 -1.4073081
12.61877 -10.598083 -1.4070461
12.54895 -10.671438 -1.4065222
12.47644 -10.742387 -1.4057361
12.420805 -10.827903 -1.4069587
12.354879 -10.904571 -1.4070461
12.275109 -10.968889 -1.4055614
12.182457 -11.021279 -1.4025923
12.074198 -11.058817 -1.3977891
11.966668 -11.09612 -1.3930733
11.873663 -11.146156 -1.3901042
11.77833 -11.193411 -1.3868729
11.709427 -11.265471 -1.3868729
11.636515 -11.333632 -1.3864363
11.512841 -11.351664 -1.3797992
11.404193 -11.383386 -1.3749961
11.346044 -11.465183 -1.3764807
11.289409 -11.548832 -1.3782274
11.22041 -11.620035 -1.3784893
11.157838 -11.698034 -1.3796246
11.087216 -11.767727 -1.3797992
6.9623737 -7.4813704 -0.85835415
10.937254 -11.897765 -1.3791879
10.87476 -11.976451 -1.3805852
10.706618 -11.937646 -1.3681844
6.7462878 -7.6156821 -0.85433698
6.6909037 -7.6471872 -0.85320169
6.5643868 -7.5961456 -0.84254748
10.251976 -12.01117 -1.3467886
10.172305 -12.066995 -1.3460027
10.103808 -12.136073 -1.3467886
10.032948 -12.202457 -1.3473126
9.9522352 -12.256829 -1.3465266
9.8861895 -12.329322 -1.3478366
9.8072605 -12.385845 -1.3474
2.0074735 -2.5680237 -0.24818215
1.9941137 -2.5834472 -0.24853148
1.9758086 -2.5924652 -0.24818215
1.9544728 -2.5973763 -0.24739619
1.9402813 -2.6117187 -0.24765818
1.9265766 -2.6267877 -0.24800749
1.9156815 -2.6458209 -0.24879345
1.9324342 -2.7037172 -0.25377125
9.0977573 -12.892814 -1.3457407
1.8951244 -2.7215056 -0.25315994
1.8823402 -2.7388291 -0.25377125
1.8660589 -2.7511516 -0.25385857
1.8618902 -2.7815886 -0.25586715
8.6968927 -13.164156 -1.345566
8.6039867 -13.198912 -1.3436447
8.4910431 -13.202024 -1.3384924
8.3735828 -13.196679 -1.3325539
8.2824087 -13.231767 -1.3308947
8.2026348 -13.284881 -1.3311566
8.1080112 -13.313691 -1.3289734
8.0220642 -13.356359 -1.3282747
7.9440212 -13.412186 -1.3289734
7.8635859 -13.464118 -1.3293227
7.7967319 -13.53974 -1.3321173
7.7282619 -13.613313 -1.3347372
7.6494517 -13.669169 -1.3356105
7.5668788 -13.718466 -1.3358724
7.487319 -13.773389 -1.3367457
7.4036074 -13.820827 -1.3369204
7.3009939 -13.832518 -1.3336018
7.2072492 -13.860262 -1.3319426
7.1079893 -13.876739 -1.3292354
7.0159783 -13.906751 -1.3279254
6.9358354 -13.960243 -1.3289734
6.8434796 -13.989116 -1.3276634
6.7246618 -13.962633 -1.3210264
6.6299 -13.98473 -1.3191925
6.5342779 -14.004383 -1.3171839
6.4457316 -14.038781 -1.3166599
6.3533177 -14.06445 -1.3153499
6.2616415 -14.091334 -1.3142147
6.1810451 -14.143182 -1.3155247
6.1153884 -14.230264 -1.3202405
6.0333862 -14.280366 -1.3214631
5.9403009 -14.304238 -1.3202405
5.8460202 -14.324739 -1.3187559
5.796946 -14.457423 -1.3279254
5.7106833 -14.499208 -1.3285367
5.6230478 -14.537692 -1.328886
5.5330329 -14.570058 -1.3287114
5.4442244 -14.6056 -1.328886
5.3538194 -14.63686 -1.3287114
5.2628989 -14.666622 -1.3284495
5.1754532 -14.706156 -1.3291481
5.0867453 -14.742343 -1.3295847
4.9974685 -14.777052 -1.329934
4.893856 -14.768668 -1.3263535
4.8025298 -14.796523 -1.3261789
4.7110462 -14.823813 -1.3260041
4.6176333 -14.844831 -1.3253056
4.5194983 -14.850013 -1.3232096
4.3922 -14.756208 -1.3121188
4.284317 -14.723577 -1.3067044
4.1952562 -14.754379 -1.3071409
4.1560988 -14.965093 -1.3239956
4.0626326 -14.984544 -1.3234717
3.9193988 -14.815618 -1.3059183
3.8276713 -14.836494 -1.3056564
3.7329199 -14.845209 -1.3043464
3.6462646 -14.886219 -1.3060057
3.5629439 -14.942226 -1.3090622
3.4788475 -14.996801 -1.3120315
3.3996949 -15.075199 -1.3171839
3.3084104 -15.101614 -1.3177079
3.2196238 -15.140142 -1.3193672
3.1369288 -15.209371 -1.3238209
3.0445232 -15.233216 -1.3242576
2.951375 -15.253567 -1.3244323
2.8595581 -15.28118 -1.3253056
2.7685766 -15.314123 -1.3267028
2.6803806 -15.364189 -1.3296721
0.44764724 -2.6643503 -0.19927756
0.42890307 -2.6522961 -0.19796763
0.41445845 -2.6666899 -0.19901559
0.4019126 -2.6947997 -0.20128615
0.37916401 -2.6538246 -0.19744365
0.37893742 -2.7735531 -0.20783587
0.25347868 -1.9450859 -0.13439167
0.24104761 -1.9426503 -0.13404235
0.22982401 -1.9500285 -0.13456634
0.21641503 -1.938532 -0.13343105
0.20367913 -1.931898 -0.13273241
0.19004709 -1.9152682 -0.13116047
0.18282357 -1.9650002 -0.13543962
0.16817109 -1.9363122 -0.13281974
0.1566885 -1.9422723 -0.13325639
0.14551014 -1.9531313 -0.13412969
0.16369976 -2.3942618 -0.17281669
0.14869566 -2.39025 -0.17238005
0.11065307 -1.975371 -0.13587627
0.098380901 -1.9730279 -0.13561429
0.086535022 -1.9795657 -0.13613826
0.074086204 -1.9720957 -0.13543962
0.065731764 -2.0909994 -0.14583185
0.051605932 -2.0405746 -0.14137805
0.036964446 -1.9312936 -0.13177179
0.024508236 -1.8856637 -0.12775461
0.012874138 -1.8768133 -0.12696865
0.0023467182 -2.9308143 -0.21936338
-0.013943283 -2.6050272 -0.1908066
-0.029769104 -2.5909472 -0.18958399
-0.058961444 -3.3516805 -0.25630382
-0.078891002 -3.3243663 -0.25394592
-0.10067976 -3.3706195 -0.25805041
-0.11950149 -3.3181703 -0.25350925
-0.13964994 -3.312398 -0.25307262
-0.15431409 -3.1940658 -0.24276772
-0.16174808 -2.9692488 -0.22311856
-0.18170846 -2.9970369 -0.22565112
-0.2102976 -3.1489375 -0.23909988
-1.1666391 -16.015036 -1.3701056
-1.265119 -16.010555 -1.3703676
-1.3618124 -15.984625 -1.3687958
-1.4591415 -15.968031 -1.3680971
-1.5545775 -15.933 -1.3658265
-0.3083781 -2.9686351 -0.22407918
-0.32506329 -2.9528239 -0.22285657
-1.7610343 -15.156572 -1.3000673
-1.8567834 -15.168224 -1.3020759
-0.47949937 -3.7249162 -0.29167229
-0.49955004 -3.7011719 -0.28983837
-0.42843279 -3.0331991 -0.23097822
-0.44645512 -3.026571 -0.23062891
-0.46592516 -3.0296824 -0.23115288
-0.48088759 -3.0041418 -0.2291443
-0.50078189 -3.0099788 -0.22993027
-0.473676 -2.7427795 -0.2064386
-0.48856696 -2.7290347 -0.20547797
-0.50385141 -2.7181494 -0.20477934
-0.52351904 -2.7306609 -0.20617661
-3.1701155 -16.013681 -1.39351
-3.2501667 -15.90511 -1.385563
-3.3507786 -15.89949 -1.3868729
-0.56352949 -2.5933568 -0.19508575
-0.57595378 -2.5742955 -0.19368848
-0.59441829 -2.5823629 -0.19473644
-0.60727173 -2.5660644 -0.19360115
-0.61853641 -2.5438976 -0.19194189
-3.9219079 -15.718022 -1.3825938
-4.0111132 -15.665676 -1.3800613
-0.65134209 -2.4790878 -0.18713875
-0.67948598 -2.5231421 -0.19150524
-4.2678065 -15.47683 -1.3698437
-0.92558867 -3.2767801 -0.26093227
-0.93489146 -3.2337153 -0.25752643
-4.5536561 -15.401383 -1.3703676
-0.80787718 -2.6708443 -0.20704991
-0.79454315 -2.5697086 -0.19822961
-4.808177 -15.225661 -1.3621587
-4.9834599 -15.44996 -1.385563
-5.1657233 -15.684972 -1.4101026
-5.2698026 -15.676586 -1.4122858
-5.3720336 -15.66186 -1.4139451
-5.4736238 -15.644588 -1.4154297
-5.5514393 -15.560042 -1.4107139
-1.1903521 -3.2718976 -0.26765665
-5.7918215 -15.625254 -1.4232894
-1.1871256 -3.142415 -0.25691512
-1.1849258 -3.0792861 -0.25167534
-1.2016176 -3.0663922 -0.25115135
-1.3270599 -3.3263748 -0.27638963
-1.3658055 -3.3633976 -0.28066877
-1.2540526 -3.0345478 -0.25027806
-1.2471727 -2.9661844 -0.24451432
-1.2637829 -2.9548123 -0.24416499
-1.2977791 -2.9835441 -0.24765818
-6.8115849 -15.404687 -1.4390087
-1.4004583 -3.114588 -0.26180556
-1.4336183 -3.1367431 -0.26477477
-7.0117507 -15.099607 -1.4218922
-7.1085191 -15.065309 -1.4227654
-1.8988876 -3.9605227 -0.34747592
-7.3046331 -15.001124 -1.4251233
-1.39492 -2.8198318 -0.23822658
-1.3607841 -2.708843 -0.22818367
-1.3552065 -2.6569564 -0.22390452
-1.3751473 -2.6556685 -0.22460316
-1.3932699 -2.650708 -0.22495247
-1.4249775 -2.6711159 -0.22783436
-1.9463165 -3.5953677 -0.32084039
-1.9654634 -3.5781186 -0.3203164
-1.5015403 -2.6940365 -0.23281214
-1.5092187 -2.6691625 -0.23124021
-1.5305231 -2.6684937 -0.23211351
-8.6342878 -14.845937 -1.4680022
-8.7338219 -14.807265 -1.4694867
-5.0477796 -8.4388714 -0.82447022
-8.9040241 -14.681086 -1.4676528
-8.984024 -14.610052 -1.4659935
-1.3710634 -2.1986537 -0.18958399
-1.3781422 -2.1800942 -0.18853603
-5.2166815 -8.1433287 -0.8102355
-5.2632952 -8.1061535 -0.80971158
-1.4048953 -2.1343853 -0.18644013
-1.3947531 -2.0909147 -0.18277228
-9.6448994 -14.272725 -1.4725432
-9.8003922 -14.312734 -1.4831102
-9.8891649 -14.253967 -1.4832848
-5.5271602 -7.8629236 -0.80499578
-1.6720337 -2.3473904 -0.21508422
-1.6759151 -2.3225446 -0.2135123
-1.6378248 -2.2406332 -0.20573996
-1.7054754 -2.3034048 -0.21368696
-1.7285404 -2.3048525 -0.2149969
-1.6631262 -2.1894794 -0.2034694
-1.5823963 -2.0568376 -0.1899333
-1.6335521 -2.0966017 -0.19543506
-1.6605757 -2.1045282 -0.19744365
-10.923118 -13.673634 -1.4966463
-11.010571 -13.611001 -1.4971702
-11.095773 -13.545497 -1.4974322
-1.6334999 -1.96883 -0.1867021
-1.6340178 -1.9450388 -0.18513018
-1.6459216 -1.934976 -0.18513018
-1.6571134 -1.9240855 -0.18504284
-1.6701974 -1.9153832 -0.1852175
-1.6819185 -1.905099 -0.1852175
-1.6949037 -1.8962288 -0.18539216
-1.7138582 -1.8939196 -0.18635279
-1.7341936 -1.8929181 -0.18748808
-2.2720499 -2.4498332 -0.25534317
-2.2890844 -2.4380248 -0.25560516
-2.3225288 -2.4434307 -0.25796306
-3.3962395 -3.5296745 -0.39183936
-2.3648493 -2.4275916 -0.25953501
-12.438539 -12.615203 -1.5155095
-3.3677397 -3.3734944 -0.38031185
-3.2354355 -3.2014081 -0.36144865
-3.3910756 -3.3145034 -0.37812862
-3.3733692 -3.2569582 -0.37350014
-3.4149151 -3.2568259 -0.37612003
-12.946644 -12.198013 -1.5217972
-3.5085864 -3.2648971 -0.38258243
-2.57884 -2.3702209 -0.26949057
-3.4849632 -3.1640024 -0.37507206
-3.4813223 -3.1219399 -0.37236485
-3.4452341 -3.0516369 -0.36590245
-2.6879604 -2.3514829 -0.27551633
-3.5389509 -3.0579827 -0.3724522
-3.3682258 -2.8745236 -0.35061979
-13.585709 -11.452625 -1.5201379
-13.650366 -11.364588 -1.5195266
-3.3559308 -2.7588925 -0.3432841
-3.902528 -3.1684005 -0.40310487
-3.8068743 -3.0521615 -0.39018011
-13.629946 -10.792405 -1.486516
-13.701403 -10.712866 -1.4871273
-13.771609 -10.632246 -1.4876513
-3.3023036 -2.5169399 -0.32642949
-11.260976 -8.4753361 -1.197979
-11.271989 -8.3757772 -1.1935252
-11.361724 -8.3347406 -1.197717
-4.0763001 -2.9516754 -0.40362886
-14.23709 -10.177821 -1.4966463
-3.0728357 -2.1679575 -0.29210895
-3.0754535 -2.1416605 -0.29097366
-3.0245056 -2.0787308 -0.28416196
-3.1567354 -2.1412313 -0.29682475
-3.1665032 -2.1196046 -0.29647544
-3.1495275 -2.0803666 -0.29333156
-3.158895 -2.0588262 -0.29298225
-3.2602789 -2.0965276 -0.30223918
-5.72328 -3.6312766 -0.55663031
-3.4428165 -2.1546755 -0.31848249
-3.4661438 -2.1397908 -0.31953046
-15.165898 -9.2360678 -1.5190899
-3.589494 -2.1555698 -0.32948601
-3.5640833 -2.1106584 -0.32555619
-3.595031 -2.0993009 -0.3273901
-15.532161 -8.9441175 -1.533674
-15.597144 -8.8545475 -1.534722
-15.659005 -8.7630577 -1.5355079
-3.8251557 -2.109561 -0.34538001
-3.8529065 -2.0941391 -0.34686461
-3.9403226 -2.1104443 -0.35428762
-3.9329355 -2.0755317 -0.35227904
-3.9376421 -2.0472243 -0.35149309
-3.9315104 -2.0134871 -0.34965917
-3.8868701 -1.9606073 -0.34407008
-7.6653905 -3.8081751 -0.71277571
-7.6778746 -3.7558162 -0.71172774
-7.6576953 -3.6878853 -0.70753592
-16.56992 -7.8555722 -1.5700032
-10.019701 -4.6749463 -0.93171102
-5.7688212 -2.6484213 -0.51890397
-5.7531886 -2.5986202 -0.51584738
-5.8063488 -2.5798569 -0.5194279
-5.8038135 -2.5362022 -0.5176813
-10.137339 -4.3563471 -0.9297024
-10.163878 -4.2940636 -0.9297024
-10.303193 -4.278615 -0.94044399
-10.336631 -4.2183266 -0.94114262
-10.150584 -4.0699172 -0.92114413
-9.6266594 -3.7914269 -0.86944503
-10.424603 -4.0320201 -0.94227791
-10.440766 -3.964797 -0.9414919
-10.336083 -3.8526402 -0.92944044
-10.370755 -3.7932534 -0.93048841
-10.536355 -3.7806935 -0.94376248
-10.429679 -3.6703327 -0.93171102
-10.404919 -3.5900209 -0.92734456
-7.8099637 -2.6410604 -0.68517953
-7.8004904 -2.5846286 -0.68282163
-10.449338 -3.3914332 -0.92551059
-10.511724 -3.3405302 -0.92935312
-10.532974 -3.2762644 -0.92944044
-10.548114 -3.2101233 -0.92900378
-10.380476 -3.0896344 -0.91188717
-10.961661 -3.1895545 -0.96323699
-10.901495 -3.0996192 -0.95598865
-10.867517 -3.0180078 -0.95118552
-9.7061176 -2.6313906 -0.84403211
-11.030857 -2.9180524 -0.962713
-11.080385 -2.8585265 -0.96559489
-11.109309 -2.7934003 -0.96664286
-11.15817 -2.7330041 -0.96952474
-11.180544 -2.6658738 -0.97004873
-11.190868 -2.5958703 -0.96952474
-11.433007 -2.5782237 -0.98987252
-11.467101 -2.5120745 -0.99153179
-11.288396 -2.4004266 -0.97415322
-11.306815 -2.3319223 -0.9745025
-11.498698 -2.2980385 -0.9903965
-11.532143 -2.231226 -0.99214309
-11.550512 -2.1613402 -0.99257976
-11.558655 -2.0895407 -0.99214309
-11.935341 -2.0821049 -1.0245423
-11.768115 -1.9785994 -1.008561
-11.997361 -1.9415318 -1.0278609
-12.529763 -1.9488903 -1.0740583
-13.439057 -2.0059752 -1.1536156
-14.153247 -2.0239017 -1.2157942
-15.171143 -2.0745783 -1.3047831
-15.887888 -2.0733807 -1.3670491
-15.778717 -1.9607425 -1.3563076
-19.628967 -2.3170824 -1.6951464
-20.221968 -2.2613747 -1.7462343
-21.956251 -2.3190351 -1.8979259
-22.192116 -2.2063506 -1.9174876
-22.247887 -2.0741179 -1.9212428
-22.318748 -1.9426659 -1.9263953
-22.320318 -1.804881 -1.925522
-22.338921 -1.6684859 -1.9262207
-22.338799 -1.5307043 -1.9253473
-22.339817 -1.393111 -1.9246486
-22.339987 -1.2555629 -1.9239501
-22.350256 -1.1186131 -1.924212
-22.344755 -0.98092896 -1.9231641
-22.341394 -0.84346724 -1.9223781
-22.319265 -0.70551687 -1.9200202
-19.412939 1.431244 -1.9120318
-19.394865 1.5496188 -1.9111348
-19.378054 1.6679966 -1.9104371
-19.349619 1.7852203 -1.9086431
-19.322456 1.9023528 -1.9070485
-19.287661 2.0184941 -1.9047561
-19.255133 2.134609 -1.9027628
-19.223883 2.2506323 -1.9009688
-19.205761 2.3680582 -1.9005702
-19.183962 2.4849629 -1.8998724
-19.16441 2.6020908 -1.8994738
-19.142172 2.7187927 -1.8988757
-19.121193 2.8356116 -1.8984771
-19.091635 2.9510589 -1.8972811
-19.065308 3.0668828 -1.8964838
-19.034355 3.1818383 -1.8952878
-18.998787 3.2958488 -1.8936931
-18.961559 3.4093666 -1.8919988
-18.918762 3.521641 -1.889806
-18.875301 3.6335189 -1.8876134
-18.837036 3.746161 -1.8860188
-18.797127 3.8582702 -1.8843243
-18.757524 3.9702368 -1.8827296
-18.727949 4.0841956 -1.8822314
-18.69574 4.1975055 -1.8815337
-18.666725 4.3114691 -1.8812346
-18.632174 4.4240856 -1.8804374
-18.613377 4.5404496 -1.8813343
-18.57262 4.6514306 -1.8800387
-18.53602 4.7633209 -1.8792413
-18.506443 4.876966 -1.8792413
-18.478092 4.9909468 -1.8794407
-18.444242 5.103436 -1.8791417
-18.415455 5.2173257 -1.8794407
-18.380228 5.329391 -1.8791417
-18.343365 5.4409375 -1.8787431
-18.324869 5.5580096 -1.8803377
-18.304678 5.6747646 -1.8818327
-18.298918 5.7962894 -1.8849224
-18.303717 5.9216328 -1.8892081
-18.315222 6.0497499 -1.894291
-18.318298 6.1756873 -1.8985767
-18.305466 6.2967105 -1.9012678
-18.291834 6.4178081 -1.9039588
-18.280216 6.5399804 -1.9069488
-18.266851 6.661911 -1.9098392
-18.255478 6.7849636 -1.9130285
-18.239555 6.9067168 -1.9158192
-18.228397 7.0306792 -1.9192078
-18.219181 7.1558552 -1.9228956
-18.208191 7.2808127 -1.9264835
-18.190821 7.4036536 -1.9294735
-18.174467 7.5273166 -1.932663
-18.147194 7.6468062 -1.9347559
-18.138342 7.7744775 -1.938942
-18.120398 7.8987484 -1.9422309
-18.107067 8.0255108 -1.946118
-18.103746 8.1573124 -1.951201
-18.096777 8.2881317 -1.955985
-18.072643 8.4116125 -1.958975
-18.056669 8.5393639 -1.9629617
-18.040703 8.6676664 -1.967048
-18.035467 8.8017673 -1.9724301
-18.050657 8.9467354 -1.9802041
-17.971424 9.0452442 -1.9775131
-17.969631 9.1829672 -1.9835927
-17.973005 9.3242159 -1.9903702
-17.941868 9.4482317 -1.9933602
-17.916903 9.5759668 -1.9971476
-17.898041 9.7075472 -2.0017321
-17.868649 9.8339777 -2.0052207
-17.827953 9.9545908 -2.0075128
-17.812422 10.089788 -2.0127952
-17.785547 10.21922 -2.0168817
-17.738842 10.337678 -2.0187752
-17.696491 10.458984 -2.0212669
-17.651613 10.579137 -2.0235593
-17.606775 10.699649 -2.0259514
-17.566206 10.823141 -2.0289414
-17.538284 10.954971 -2.0335259
-17.512768 11.088996 -2.0385094
-17.470354 11.212906 -2.041599
-17.450432 11.351906 -2.0474794
-17.417002 11.482866 -2.0518646
-17.374344 11.608315 -2.0552535
-17.346457 11.744271 -2.0605357
-17.29212 11.862871 -2.0627284
-17.238613 11.982381 -2.0651205
-17.195679 12.109702 -2.0689077
-17.14373 12.231167 -2.0716984
-17.094971 12.355365 -2.0749874
-17.033289 12.470606 -2.0767815
-16.964441 12.580812 -2.0777781
-16.886131 12.68407 -2.0776784
-16.807985 12.787442 -2.0776784
-16.718174 12.88183 -2.0762832
-16.623913 12.972537 -2.0743895
-16.524487 13.058871 -2.0718977
-16.42618 13.145717 -2.0696056
-16.326658 13.231222 -2.0672135
-16.266703 13.348826 -2.0700042
-16.151583 13.42104 -2.0657184
-16.039236 13.494906 -2.0618315
-15.925077 13.566609 -2.057745
-15.815919 13.641971 -2.0543563
-15.710182 13.719777 -2.051466
-15.588433 13.782958 -2.0464828
-15.493191 13.869056 -2.0450873
-15.374624 13.933788 -2.0406024
-15.270511 14.011045 -2.0381107
-15.163112 14.084839 -2.0352204
-15.054659 14.157163 -2.0322304
-14.94661 14.229372 -2.02934
-14.840393 14.302861 -2.0267487
-14.735261 14.376973 -2.0243566
-14.634734 14.455229 -2.0226622
-14.532395 14.531384 -2.0207686
-14.428974 14.606122 -2.0187752
-14.323793 14.678714 -2.0165825
-14.227242 14.759879 -2.0156856
-14.116513 14.825998 -2.0127952
-14.005509 14.891316 -2.0099049
-13.890849 14.952186 -2.0065162
-13.783371 15.020274 -2.0042238
-13.678921 15.091293 -2.00243
-13.57611 15.163821 -2.0009348
-13.47622 15.239383 -1.9999381
-13.374605 15.312791 -1.9987422
-13.271947 15.384773 -1.9974465
-13.166328 15.453042 -1.9957522
-13.059091 15.519073 -1.9938585
-12.950268 15.582838 -1.9917655
-12.845572 15.651237 -1.9903702
-12.731754 15.708117 -1.9875795
-12.625184 15.773512 -1.9859848
-12.519525 15.839752 -1.9845895
-12.408018 15.898231 -1.9822971
-12.30477 15.966972 -1.9814001
-12.199336 16.032669 -1.9802041
-12.095353 16.100061 -1.9793071
-11.980334 16.152395 -1.9766161
-11.856312 16.191881 -1.9724301
-11.741583 16.243359 -1.9698387
-11.624935 16.291607 -1.9669484
-11.501263 16.329275 -1.962862
-11.399716 16.397905 -1.9626627
-11.267364 16.421595 -1.9570813
-11.160812 16.482182 -1.9560847
-11.050625 16.537115 -1.9544899
-10.939636 16.590488 -1.9527956
-10.840345 16.66147 -1.953294
-10.735759 16.724321 -1.9528953
-10.625485 16.778111 -1.9514999
-10.511267 16.82527 -1.949407
-10.402612 16.880978 -1.9484103
-10.293152 16.935137 -1.947314
-10.179327 16.981758 -1.9454203
-10.064812 17.026766 -1.943427
-9.9481239 17.06757 -1.9410349
-9.8164425 17.081701 -1.935653
-9.5412693 16.841192 -1.9010684
-9.4299917 16.885519 -1.8994738
-9.4883671 17.237703 -1.9331613
-9.388113 17.306093 -1.9343573
-9.2920666 17.382679 -1.9365499
-9.1759605 17.421759 -1.9345566
-9.0560598 17.453003 -1.9317659
-8.939291 17.489634 -1.9296728
-8.8206244 17.521936 -1.9271812
-8.7120619 17.573946 -1.9269819
-8.5983925 17.615446 -1.9256862
-8.4871283 17.661594 -1.9249885
-8.3743448 17.704344 -1.9239919
-8.2600975 17.743668 -1.9226962
-8.1477537 17.786779 -1.9218988
-8.0347834 17.828274 -1.9210019
-7.922821 17.87178 -1.9204038
-7.8094344 17.911848 -1.9195069
-7.6985984 17.9576 -1.9193075
-7.5836306 17.993496 -1.9181116
-7.46699 18.024981 -1.9165168
-7.3506236 18.056635 -1.9150218
-7.2345195 18.088463 -1.9136264
-7.1121178 18.103802 -1.9105368
-6.9969621 18.136889 -1.9094405
-6.8841348 18.175756 -1.9090418
-6.7676277 18.204597 -1.9076464
-6.6537533 18.240171 -1.9070485
-6.5403676 18.276907 -1.9066498
-6.4267817 18.312939 -1.9062511
-6.3117056 18.344501 -1.9054538
-6.1952119 18.371569 -1.9042578
-6.0833058 18.412071 -1.9045568
-5.961947 18.423489 -1.9018657
-5.8421798 18.438856 -1.8996731
-5.7283421 18.472456 -1.8994738
-5.6174884 18.515825 -1.9003707
-5.5077333 18.563301 -1.9017661
-5.3959446 18.604391 -1.9025635
-5.2838583 18.644808 -1.9033607
-5.1701527 18.679756 -1.9036598
-5.0549197 18.709206 -1.9034605
-4.9400268 18.73987 -1.9034605
-4.823462 18.764046 -1.9028624
-4.7079954 18.792324 -1.9027628
-4.5928354 18.821825 -1.9028624
