# .PCD v0.7 - Point Cloud Data file format
VERSION 0.7
FIELDS x y z
SIZE 4 4 4
TYPE F F F
COUNT 1 1 1
WIDTH 1503
HEIGHT 1
VIEWPOINT 0 0 0 1 0 0 0
POINTS 1503
DATA ascii
0.46204218 -2.653126 -0.33008254
0.44903696 -2.6754527 -0.33279338
0.43719825 -2.7065215 -0.33672413
0.41784471 -2.6915309 -0.33428437
0.40365991 -2.709723 -0.33645305
0.38128129 -2.6719353 -0.33089581
0.36394081 -2.6673529 -0.32994699
0.36267877 -2.7854662 -0.34594104
0.35363474 -2.8525321 -0.35488686
1.3066684 -11.087423 -1.4889722
0.9189679 -8.232852 -1.0949497
1.1712377 -11.109521 -1.489921
1.101483 -11.100723 -1.4877523
1.0325233 -11.098394 -1.4865324
0.68011338 -7.8324399 -1.0372086
0.6284551 -7.7920256 -1.0311091
0.2830525 -3.8031015 -0.48338127
0.53562582 -7.8406663 -1.0368019
0.23568466 -3.7954113 -0.48189032
0.62321162 -11.1269 -1.4862614
0.38677073 -7.7601385 -1.0246031
0.15933225 -3.6516225 -0.46169445
0.13353598 -3.5624349 -0.44936007
0.10874687 -3.4701006 -0.43661907
0.086073779 -3.4162276 -0.42916423
0.064844675 -3.4028232 -0.42726663
0.043744572 -3.3863153 -0.4249624
0.022945201 -3.3835478 -0.42455578
0.0081951348 -11.256293 -1.5015777
-0.061244927 -11.325484 -1.5110657
-0.13062163 -11.314988 -1.5097102
-0.20034379 -11.330814 -1.5120145
-0.27017084 -11.342248 -1.5137765
-0.33981976 -11.342358 -1.5140476
-0.40955162 -11.34402 -1.5145898
-0.48052844 -11.37396 -1.5190626
-0.55145729 -11.394547 -1.5223157
-0.62087721 -11.382046 -1.5210959
-0.69028443 -11.371099 -1.5201471
-0.76063776 -11.375546 -1.521367
-0.83049464 -11.371654 -1.5215025
-0.90033233 -11.367332 -1.521638
-0.97124356 -11.375413 -1.5235356
-1.0427394 -11.387986 -1.5261109
-1.113366 -11.389262 -1.5271952
-1.1850716 -11.399955 -1.5296351
-1.2570586 -11.41118 -1.5322104
-1.3286556 -11.41703 -1.5341079
-1.3991662 -11.412597 -1.5346501
-1.4680272 -11.394953 -1.5334302
-1.5257195 -11.2954 -1.5209603
-0.41472438 -2.932375 -0.36681461
-0.43863901 -2.9699616 -0.37237185
-1.7601862 -11.439709 -1.5450869
-1.8200072 -11.364125 -1.536141
-0.50396657 -3.0258882 -0.38131768
-0.52387267 -3.0305495 -0.382402
-0.54525197 -3.0428822 -0.38457069
-2.0739667 -11.184524 -1.5178428
-2.1339719 -11.126828 -1.5116079
-2.1966207 -11.08534 -1.5076771
-2.2598336 -11.048357 -1.5044241
-2.3359654 -11.07403 -1.5099813
-0.61795771 -2.8416393 -0.35949531
-0.63386768 -2.8310261 -0.3585465
-0.62988871 -2.7343936 -0.34553441
-2.6026967 -10.995049 -1.507406
-2.651618 -10.902817 -1.4966981
-0.92251718 -3.6932118 -0.48243248
-2.8203759 -11.006704 -1.5160807
-0.75753111 -2.8814781 -0.36925438
-0.76824051 -2.8509452 -0.36559471
-0.77965814 -2.8242109 -0.36247724
-3.1198149 -11.040959 -1.5312616
-0.80957806 -2.7982504 -0.36017302
-0.80284268 -2.7124741 -0.34865189
-3.3603826 -11.106843 -1.5491532
-1.0040755 -3.2457378 -0.42645338
-1.0027788 -3.1724396 -0.41682982
-3.5420408 -10.974277 -1.5392586
-3.6052802 -10.940104 -1.5374964
-1.0799533 -3.209789 -0.4249624
-3.7514811 -10.930649 -1.5426471
-1.122207 -3.204711 -0.42618227
-1.1455134 -3.208029 -0.42767325
-1.163482 -3.1962848 -0.42699555
-3.9741631 -10.715456 -1.5251621
-1.1739023 -3.105767 -0.41588104
-1.1858195 -3.0800126 -0.41317019
-4.0882964 -10.430169 -1.4942584
-1.2290345 -3.0790319 -0.41520333
-1.2452942 -3.0650072 -0.41425452
-1.2697541 -3.0710433 -0.41628766
-4.3384256 -10.315737 -1.4926319
-4.3969641 -10.277991 -1.4910053
-4.4611316 -10.253544 -1.491412
-4.5279703 -10.235039 -1.4927675
-4.5951562 -10.217003 -1.4942584
-4.6610551 -10.195824 -1.4953427
-4.7193537 -10.158047 -1.4939873
-1.3398265 -2.8374937 -0.3909412
-1.3576403 -2.8301127 -0.39107674
-1.3762816 -2.8244011 -0.39148337
-1.3957826 -2.8203435 -0.39216107
-5.0162749 -9.9837122 -1.4901921
-5.0810409 -9.9598055 -1.4912765
-5.1406908 -9.9258022 -1.4908698
-5.2305408 -9.9493227 -1.499409
-5.2774987 -9.8908167 -1.4953427
-5.3399754 -9.8617334 -1.4958849
-5.410881 -9.8478861 -1.4988668
-5.4794049 -9.8292122 -1.5011711
-4.8295345 -8.5397081 -1.303821
-4.8926878 -8.528821 -1.3068029
-4.9509063 -8.5089159 -1.3084294
-4.9864082 -8.4502182 -1.3039565
-5.7997017 -9.6922159 -1.5068638
-5.863174 -9.6632233 -1.5079482
-5.9316998 -9.6422558 -1.510388
-4.9165177 -7.8830957 -1.232661
-5.1871519 -8.2045145 -1.2895889
-5.2218943 -8.1483402 -1.2856582
-5.2685552 -8.1111603 -1.284845
-5.3558125 -8.1357832 -1.2941974
-5.6590962 -8.4827309 -1.3566825
-5.6377969 -8.3394985 -1.338791
-5.665906 -8.2712355 -1.3332337
-6.4768949 -9.3318996 -1.5156741
-6.5277638 -9.2830667 -1.5141832
-6.5903492 -9.2509089 -1.5155386
-6.6533651 -9.2191343 -1.5170295
-5.6976967 -7.7935991 -1.2824053
-1.6948986 -2.288285 -0.35122719
-1.7053405 -2.2730865 -0.35041395
-6.9039803 -9.0877895 -1.5229934
-1.7349188 -2.254344 -0.35082057
-1.7475007 -2.2420931 -0.35054949
-1.7618387 -2.2321062 -0.35068503
-7.1447186 -8.9403887 -1.5273308
-7.2056737 -8.9040833 -1.5286862
-7.2595444 -8.8589363 -1.5285506
-7.3169284 -8.818038 -1.5292283
-7.3855553 -8.7904234 -1.5323459
-7.4438472 -8.7502241 -1.5332947
-7.505156 -8.7133932 -1.5349212
-7.5702004 -8.6806202 -1.5373609
-7.6298785 -8.6414337 -1.5387163
-7.6840782 -8.595932 -1.5389874
-7.747314 -8.5603762 -1.5411562
-7.7983551 -8.5112171 -1.5408851
-7.8571696 -8.4704714 -1.5422405
-7.9218817 -8.4358234 -1.5448158
-7.9728112 -8.3863392 -1.5446802
-8.0158739 -8.3286943 -1.5430537
-8.0758152 -8.288579 -1.5448158
-8.1487846 -8.2614431 -1.5491532
-8.2119236 -8.2239075 -1.5515929
-8.2671604 -8.1782436 -1.5525417
-3.4859698 -3.406085 -0.62841195
-3.3414261 -3.2249894 -0.59696603
-3.3862479 -3.2283564 -0.60171002
-8.6096191 -8.1087561 -1.5796503
-8.5569324 -7.9606185 -1.5605388
-3.2342708 -2.9717312 -0.56253821
-3.482796 -3.1609294 -0.60509861
-3.5648282 -3.1957197 -0.61661971
-3.5413496 -3.1356876 -0.60875821
-3.4441881 -3.0121396 -0.58761358
-3.4656043 -2.9935408 -0.58815575
-3.4612966 -2.9529266 -0.58408946
-3.6346619 -3.0625191 -0.61187571
-3.779036 -3.1447377 -0.63424027
-3.8227532 -3.1416228 -0.63857764
-3.7973418 -3.0818915 -0.63071615
-9.2167721 -7.3876419 -1.5776172
-9.2665901 -7.3346395 -1.5784304
-9.335619 -7.2965574 -1.5826322
-9.3880568 -7.2451911 -1.5839876
-9.4378519 -7.1916547 -1.5849364
-9.500803 -7.1479058 -1.5881895
-5.8986244 -4.3812051 -0.9668619
-5.9365811 -4.3531322 -0.96875954
-6.0498538 -4.3793726 -0.98339814
-6.0604892 -4.3306479 -0.98068726
-6.0424194 -4.2619686 -0.97323245
-5.9432402 -4.1376281 -0.95235884
-6.2722735 -4.3098254 -1.0027807
-6.2756405 -4.2556868 -0.99898553
-6.0752068 -4.0655556 -0.96171129
-6.1322808 -4.0494967 -0.96699744
-6.182745 -4.0285621 -0.97119927
-5.7398214 -3.6899529 -0.89515984
-5.723032 -3.6297216 -0.88878936
-6.3196821 -3.9540176 -0.98150051
-6.1617146 -3.8027616 -0.9522233
-6.1849318 -3.7648823 -0.9522233
-6.3123956 -3.7895923 -0.96889508
-6.3116579 -3.736655 -0.96509987
-6.3455901 -3.7043509 -0.9668619
-6.2522798 -3.5986171 -0.94856364
-6.257009 -3.5504057 -0.94585282
-6.2622476 -3.5027561 -0.94327748
-6.5716724 -3.6230934 -0.98827767
-6.4335999 -3.4956584 -0.96333784
-6.450561 -3.4537783 -0.96266007
-6.6021972 -3.4830229 -0.98285598
-6.5249848 -3.3912673 -0.96767515
-6.5112772 -3.3335562 -0.96238899
-6.607688 -3.3319089 -0.97404569
-6.6519666 -3.3032012 -0.97770536
-6.7682347 -3.30933 -0.99234396
-6.7018209 -3.2260501 -0.97919631
-6.6641884 -3.1577129 -0.97052157
-6.635849 -3.0945668 -0.96333784
-6.7078395 -3.0781751 -0.97133482
-6.7338243 -3.0402205 -0.97241914
-5.7844086 -2.5689008 -0.82752407
-5.7882595 -2.528204 -0.82576203
-6.7048936 -2.879781 -0.95994925
-6.7644219 -2.8563175 -0.9661842
-6.8413 -2.8394482 -0.97499448
-6.8934541 -2.8116381 -0.9801451
-6.8526378 -2.7460663 -0.9716059
-6.8426232 -2.6934423 -0.96767515
-7.0909729 -2.7410831 -1.0016963
-6.941853 -2.6345854 -0.97743428
-6.9133234 -2.5753376 -0.97092819
-6.9280648 -2.5325296 -0.97079265
-6.9966321 -2.5090382 -0.97851861
-6.9978762 -2.461129 -0.97648543
-7.0025425 -2.4145911 -0.97499448
-7.1007614 -2.399816 -0.98705781
-7.2902908 -2.4141414 -1.0122687
-7.3040242 -2.3690579 -1.0121331
-7.1843352 -2.281605 -0.99288613
-7.1830621 -2.2327735 -0.99071741
-7.2516046 -2.2053802 -0.99857891
-7.2507553 -2.1566062 -0.99654579
-7.1420779 -2.0766611 -0.97919631
-7.1689811 -2.0368617 -0.98122942
-7.22335 -2.0044944 -0.98719335
-7.3301859 -1.9857876 -1.000612
-7.3508534 -1.9430523 -1.0018319
-7.3463273 -1.8937066 -0.99952769
-7.5394182 -1.8942329 -1.0251453
-7.6336617 -1.8681953 -1.0368019
-7.8512311 -1.8704685 -1.0658081
-7.8818641 -1.8267339 -1.0685189
-8.2660055 -1.8624148 -1.1208384
-8.2569523 -1.8072109 -1.1179919
-8.4084101 -1.7863746 -1.1376457
-9.2547083 -1.906939 -1.2543479
-9.1088371 -1.8186842 -1.2323899
-9.6509514 -1.8654436 -1.3063962
-10.304986 -1.9263736 -1.3958545
-10.725134 -1.9368994 -1.4526467
-11.352708 -1.9784065 -1.5381742
-11.807251 -1.9830647 -1.599575
-12.441249 -2.0111558 -1.6857802
-12.643285 -1.964294 -1.7120755
-12.935362 -1.928471 -1.7508407
-13.803203 -1.97138 -1.8691694
-14.210646 -1.9406856 -1.9237931
-14.246848 -1.8566558 -1.9271816
-14.266821 -1.7703022 -1.9284015
-14.302013 -1.6856291 -1.9317901
-14.275655 -1.5937735 -1.926775
-14.292063 -1.5068771 -1.9277238
-14.279349 -1.4170012 -1.9247419
-14.285802 -1.3291745 -1.9244708
-14.290728 -1.2412362 -1.9240642
-14.291162 -1.1529686 -1.9231154
-14.307848 -1.0659944 -1.9244708
-14.317084 -0.97838581 -1.9248774
-14.318863 -0.89027339 -1.9243352
-14.329991 -0.80273038 -1.9251485
-14.334647 -0.71478808 -1.9251485
-14.313027 -0.62569314 -1.9216244
-14.312636 -0.53770936 -1.9210821
-14.320618 -0.45003432 -1.92176
-13.02541 0.95993137 -1.9157317
-13.022232 1.0400722 -1.9161756
-13.003781 1.118937 -1.9143997
-12.988792 1.1979784 -1.9132159
-12.980213 1.2775565 -1.9130679
-12.970162 1.3569716 -1.9127719
-12.928171 1.4328225 -1.9077406
-12.927977 1.5131568 -1.9090724
-12.923356 1.5930583 -1.9098123
-12.924127 1.6737227 -1.9114401
-12.901855 1.7513947 -1.9096644
-12.889886 1.8303869 -1.9095163
-12.888195 1.9108946 -1.9109962
-12.830291 1.9828358 -1.9040411
-12.836434 2.0645092 -1.9068527
-12.817673 2.1422544 -1.9059649
-12.800389 2.2201855 -1.9053729
-12.782632 2.2979851 -1.904781
-12.719677 2.3673222 -1.8973819
-12.752499 2.4544876 -1.9046329
-12.751748 2.5355837 -1.9068527
-12.746606 2.6159673 -1.9084805
-12.689678 2.6855259 -1.9022652
-12.657501 2.7599652 -1.8998976
-12.639363 2.8373616 -1.8997495
-12.632315 2.9173107 -1.9013773
-12.641119 3.0011652 -1.9055208
-12.613819 3.0765631 -1.904189
-12.60046 3.1553442 -1.9050769
-12.564579 3.2284141 -1.9025612
-12.545489 3.3057003 -1.9027092
-12.520196 3.381326 -1.9019693
-12.481103 3.4530728 -1.8991576
-12.44731 3.5260849 -1.8972338
-12.427341 3.6029449 -1.8975298
-12.404999 3.6791296 -1.8975298
-12.380298 3.754602 -1.8972338
-12.338135 3.8246372 -1.8942742
-12.300293 3.8957899 -1.8920544
-12.278039 3.9717987 -1.8923504
-12.2309 4.0396147 -1.8887988
-12.20682 4.114902 -1.8889469
-12.171055 4.1861849 -1.8873191
-12.160071 4.266026 -1.8896868
-12.127148 4.3382258 -1.8886509
-12.091939 4.4095049 -1.8873191
-12.066509 4.4843059 -1.8876151
-12.044316 4.5603619 -1.888503
-12.025334 4.6377382 -1.8899827
-11.985605 4.7070975 -1.888207
-11.943642 4.7754097 -1.8861352
-11.905871 4.8452487 -1.8848034
-11.880486 4.9201031 -1.8855432
-11.850073 4.992908 -1.8855432
-11.819214 5.0655246 -1.8855432
-11.796069 5.1415076 -1.8868752
-11.761587 5.2125878 -1.8864312
-11.721267 5.2810006 -1.8850993
-11.675156 5.3466434 -1.8828796
-11.651095 5.4223537 -1.8843595
-11.596148 5.4835925 -1.8808079
-11.543564 5.5456467 -1.8777002
-11.540426 5.6315556 -1.8828796
-11.505654 5.7022605 -1.8828796
-11.466916 5.7709718 -1.8822876
-11.426006 5.8385224 -1.8813998
-11.398745 5.9130759 -1.8828796
-11.370999 5.9875145 -1.8843595
-11.333174 6.0567069 -1.8842114
-11.304491 6.1308475 -1.8856913
-11.267526 6.200572 -1.8858392
-11.245674 6.2787533 -1.8886509
-11.236194 6.364212 -1.8936822
-11.214082 6.4428916 -1.896642
-11.182882 6.5165586 -1.8981217
-11.136727 6.5815301 -1.8970859
-11.102921 6.6538076 -1.8982698
-11.072871 6.7284861 -1.9001935
-11.027167 6.7937069 -1.8994536
-11.009599 6.8764362 -1.9037451
-11.013153 6.9729624 -1.9118841
-10.960174 7.0339956 -1.9101083
-10.933387 7.1119003 -1.9130679
-10.893672 7.1815743 -1.9138079
-10.869137 7.2614689 -1.9173595
-10.823558 7.3274693 -1.9172114
-10.801228 7.4094105 -1.9213549
-10.769365 7.4851427 -1.9238707
-10.701404 7.5357051 -1.9198751
-10.677505 7.61731 -1.9240186
-10.619344 7.6745715 -1.9219469
-10.598386 7.7588673 -1.9268303
-10.549785 7.8231626 -1.9266822
-10.516608 7.8990335 -1.9294939
-10.497064 7.9855719 -1.9349693
-10.461185 8.0600929 -1.937485
-10.418549 8.1296062 -1.9388168
-10.400283 8.218523 -1.9448841
-10.366646 8.2957792 -1.9481397
-10.309402 8.35425 -1.9469558
-10.270944 8.4280157 -1.9494715
-10.238052 8.5066814 -1.953171
-10.178097 8.562973 -1.9516913
-10.150207 8.6464291 -1.9565747
-10.105947 8.7162991 -1.9583504
-10.058234 8.7833481 -1.9595343
-10.004892 8.8455544 -1.9596822
-9.9437971 8.9008398 -1.9583504
-9.9256344 8.994895 -1.9657495
-9.863698 9.0496101 -1.9644177
-9.8116074 9.113328 -1.9651576
-9.7677517 9.1848783 -1.9676733
-9.7226706 9.2555504 -1.970041
-9.6863461 9.3349371 -1.9743325
-9.6402111 9.4052477 -1.9767002
-9.5921707 9.4739523 -1.9787719
-9.5380545 9.5368261 -1.9796598
-9.5036831 9.6197977 -1.9848392
-9.4410248 9.6743908 -1.9840993
-9.3835459 9.7342739 -1.9845432
-9.3277321 9.7959642 -1.9854312
-9.264739 9.850132 -1.9848392
-9.2155685 9.9191122 -1.9873549
-9.1538639 9.9747429 -1.9872069
-9.1024494 10.041714 -1.9894266
-9.0439615 10.101061 -1.9901665
-8.9863987 10.16155 -1.9912025
-8.9225779 10.215008 -1.9909065
-8.8810492 10.294277 -1.9957899
-8.8266964 10.359116 -1.9978616
-8.762331 10.412324 -1.9977137
-8.7096539 10.479584 -2.0003774
-8.6615009 10.552706 -2.0042248
-8.5959654 10.604884 -2.004077
-8.5307331 10.657429 -2.004077
-8.4670191 10.7119 -2.0045209
-8.4060001 10.769888 -2.0057046
-8.3530397 10.838498 -2.0089602
-8.298954 10.906076 -2.0120678
-8.2360373 10.962328 -2.0131037
-8.1786337 11.026161 -2.0156195
-8.1061506 11.069753 -2.0144355
-8.0282269 11.105657 -2.01192
-7.9587836 11.153098 -2.0116239
-7.9106998 11.230831 -2.0169513
-7.8534942 11.296213 -2.0200589
-7.7901883 11.353159 -2.0216868
-7.7264791 11.409753 -2.0233145
-7.6486325 11.445435 -2.0212429
-7.5657401 11.47316 -2.0178392
-7.488728 11.509418 -2.0160635
-7.4275823 11.570133 -2.0187271
-7.3633275 11.626352 -2.0206509
-7.2960424 11.678024 -2.0218346
-7.2273631 11.727624 -2.0227227
-7.1568084 11.774285 -2.0231667
-7.0813775 11.812887 -2.0222788
-7.0107746 11.859521 -2.0228705
-6.9423556 11.910005 -2.0242023
-6.8745666 11.961811 -2.0258303
-6.8078651 12.015815 -2.0279019
-6.7412419 12.070312 -2.0301218
-6.6727753 12.121846 -2.0318975
-6.6020436 12.169517 -2.0330813
-6.5305119 12.215902 -2.0341172
-6.4545121 12.253992 -2.0338213
-6.3755579 12.286343 -2.0326374
-6.2968998 12.319067 -2.0316014
-6.222527 12.360122 -2.0320456
-6.1531577 12.411362 -2.0342653
-6.0838275 12.463104 -2.036633
-6.0085254 12.502873 -2.037077
-5.9295821 12.535035 -2.0363369
-5.8525572 12.571182 -2.0363369
-5.7790179 12.614949 -2.0376687
-5.7055683 12.659187 -2.0391486
-5.6257815 12.689437 -2.0384088
-5.5521622 12.73369 -2.0400364
-5.4770422 12.77479 -2.0412204
-5.4046993 12.822738 -2.0435882
-5.3281894 12.861141 -2.044476
-5.2480559 12.890844 -2.0440321
-5.1721654 12.931067 -2.0453639
-5.094171 12.966243 -2.0459559
-5.0152273 12.999101 -2.0462518
-4.9385242 13.037953 -2.0475836
-4.8584318 13.06801 -2.0475836
-4.7795119 13.101292 -2.0481756
-4.7043648 13.14527 -2.0505433
-4.640645 13.222415 -2.0582383
-4.5632873 13.261863 -2.060014
-4.48246 13.291488 -2.0603101
-4.4005103 13.317802 -2.0601621
-4.3144488 13.331379 -2.0580902
-4.2346582 13.364201 -2.0591261
-4.1557989 13.400323 -2.0607541
-4.0749331 13.430303 -2.0614939
-4.0017314 13.486342 -2.0663774
-3.9158754 13.500194 -2.0647495
-3.8367405 13.537289 -2.0668213
-3.7583525 13.577733 -2.0694849
-3.673681 13.595764 -2.0687451
-3.59145 13.622831 -2.0694849
-3.5060711 13.637906 -2.068449
-3.4403458 13.731114 -2.0795476
-3.3529813 13.739474 -2.0776238
-3.2706709 13.76845 -2.0789559
-3.1936955 13.821022 -2.0839872
-3.0945311 13.77667 -2.0742204
-3.0050938 13.773174 -2.0708168
-2.9178641 13.778776 -2.068893
-2.8141727 13.703416 -2.0546868
-2.7167256 13.653497 -2.044476
-2.6265414 13.636889 -2.0394447
-2.5368443 13.620664 -2.0345612
-2.4477956 13.605799 -2.0299737
-2.3581798 13.585482 -2.0246463
-2.271189 13.578236 -2.0213907
-2.1835902 13.565552 -2.0173953
-2.0981972 13.565012 -2.0153234
-2.0139086 13.570783 -2.0142877
-1.9312974 13.58778 -2.0150275
-1.8464242 13.588594 -2.0133998
-1.760216 13.578091 -2.0101442
-1.6752957 13.575875 -2.0082204
-1.590814 13.576077 -2.0067406
-1.506502 13.576735 -2.0054088
-1.4234772 13.588675 -2.0058527
-1.3391027 13.587311 -2.0043728
-1.2539806 13.57656 -2.0015612
-1.1708225 13.585969 -2.001857
-1.0878325 13.597827 -2.0025971
-1.0044501 13.605232 -2.0027452
-0.92028421 13.601272 -2.0012653
-0.83656853 13.602714 -2.0006733
-0.75237876 13.594753 -1.9987495
-0.66938531 13.608005 -2.0000813
-0.58587557 13.611856 -2.0000813
-0.50241649 13.61717 -2.0003774
-0.41897494 13.623951 -2.0009692
-0.33551753 13.632197 -2.001857
-0.25170198 13.6251 -2.0005252
-0.16807097 13.624411 -2.0002294
-0.084578842 13.642987 -2.002893
-0.00086517539 13.656106 -2.0048168
0.082933217 13.656843 -2.0049648
0.16664337 13.649155 -2.0039289
0.25049922 13.653809 -2.0048168
0.33436987 13.655969 -2.0054088
0.41815501 13.65366 -2.0054088
0.50243437 13.664674 -2.0074804
0.58686459 13.675167 -2.0095522
0.67119974 13.680199 -2.010884
0.75545484 13.681747 -2.0117719
0.83963293 13.680803 -2.0123639
0.92442834 13.688221 -2.0142877
1.0086914 13.686236 -2.0148795
1.0932014 13.68669 -2.0159154
1.17767 13.685637 -2.0168033
1.2644398 13.708682 -2.0213907
1.34824 13.697713 -2.0209467
1.4330862 13.697052 -2.0221307
1.5175389 13.691933 -2.0227227
1.6015224 13.682364 -2.0227227
1.6884727 13.696817 -2.0264223
1.7731186 13.691104 -2.0271621
1.8598878 13.700546 -2.0302696
1.9480916 13.71825 -2.0347092
2.0341153 13.718757 -2.036633
2.1190095 13.710904 -2.0373728
2.2057693 13.714244 -2.0398886
2.2926497 13.717033 -2.0424042
2.3752508 13.693938 -2.0410724
2.4679844 13.727775 -2.0484715
2.5539806 13.722095 -2.0499513
2.6411219 13.721704 -2.052319
2.7306697 13.7324 -2.0564625
2.8194537 13.737669 -2.0598662
2.9088147 13.744299 -2.0635657
2.9996278 13.756146 -2.0681531
3.0904787 13.766431 -2.0725925
3.1786745 13.76359 -2.0751083
3.2667229 13.759222 -2.077476
3.3590572 13.771586 -2.0825074
3.4519062 13.784293 -2.0876868
3.5413444 13.78201 -2.0906463
3.6291196 13.772454 -2.0925701
3.7169106 13.762339 -2.0944939
3.8049779 13.752618 -2.0965657
3.8971105 13.756606 -2.100857
3.981446 13.732434 -2.100857
4.0732265 13.733346 -2.1048527
4.1226759 13.59358 -2.0869467
4.2200665 13.61337 -2.0940499
4.3062057 13.595705 -2.0953817
4.3901553 13.570909 -2.0956779
4.4587603 13.499579 -2.0887227
4.5332923 13.447601 -2.0848751
4.6147547 13.416727 -2.0844312
4.6996112 13.395624 -2.0856149
4.7890472 13.387022 -2.0888705
4.8768597 13.373179 -2.0913863
4.951932 13.324464 -2.0884266
5.0367489 13.302153 -2.0897584
5.0851707 13.185184 -2.0759962
5.1580224 13.133483 -2.0727406
5.2425508 13.111688 -2.0743682
5.3105989 13.049046 -2.0694849
5.387917 13.009818 -2.068449
5.462265 12.963755 -2.0663774
5.5339127 12.911816 -2.0634177
5.6011767 12.850419 -2.0589783
5.6674953 12.787781 -2.0543907
5.7397575 12.739241 -2.052171
5.8141093 12.69569 -2.0508392
5.8864732 12.64812 -2.0489154
5.9580498 12.599247 -2.0468438
6.0258217 12.542841 -2.0435882
6.0965962 12.493188 -2.0415163
6.1647925 12.438709 -2.0387046
6.2303267 12.379448 -2.0351532
6.2971663 12.323373 -2.0321934
6.3644638 12.268702 -2.0295298
6.4363971 12.223293 -2.0284939
6.5131416 12.187059 -2.0290859
6.5901551 12.151213 -2.0298257
6.6650667 12.111414 -2.0299737
6.736362 12.065108 -2.0290859
6.8044157 12.013222 -2.0273101
6.8715935 11.960097 -2.0253863
6.9373794 11.904892 -2.0231667
7.002244 11.848479 -2.0207989
7.0692201 11.79596 -2.019171
7.1353016 11.74222 -2.0173953
7.198915 11.684747 -2.0150275
7.26052 11.624418 -2.0122159
7.3269472 11.572129 -2.010884
7.3908696 11.516135 -2.0089602
7.4468298 11.448186 -2.0049648
7.5038686 11.382462 -2.0014131
7.5686235 11.328804 -2.0000813
7.6313391 11.272324 -1.9983056
7.6919684 11.213054 -1.9960859
7.754416 11.156713 -1.9944581
7.8176007 11.101645 -1.9931262
7.8763809 11.040588 -1.9907585
7.9329686 10.976823 -1.9879469
7.987318 10.910385 -1.9846913
8.041151 10.843695 -1.9814357
8.0998125 10.783872 -1.9795119
8.1628351 10.730034 -1.9787719
8.2242937 10.674262 -1.9777361
8.2835503 10.615802 -1.9762563
8.3387194 10.552361 -1.9738885
8.396513 10.492502 -1.9722607
8.4557533 10.434639 -1.9710768
8.5102091 10.371091 -1.9688572
8.5654669 10.30879 -1.9669334
8.6215553 10.247716 -1.9653056
8.663106 10.169779 -1.9604222
8.7098389 10.098459 -1.9568707
8.7631807 10.035143 -1.9549469
8.8160734 9.9715528 -1.9530231
8.8698349 9.9091654 -1.9513953
8.9284773 9.8523569 -1.9509513
8.9860878 9.7944717 -1.9503595
9.0392847 9.731904 -1.9488796
9.0832443 9.659687 -1.9454761
9.117794 9.5779867 -1.9401486
9.1558008 9.5004988 -1.9357092
9.2001085 9.4299841 -1.9327495
9.2438955 9.3592844 -1.9297899
9.2906599 9.2918987 -1.9275702
9.3348331 9.2222071 -1.9249065
9.385581 9.1592312 -1.9237226
9.4344835 9.0946064 -1.9222429
9.4786491 9.0256357 -1.9198751
9.5273666 8.9612083 -1.9185432
9.5734768 8.8945036 -1.9167675
9.6162128 8.8248959 -1.9143997
9.6569901 8.7537718 -1.9117361
9.7009411 8.6857767 -1.9098123
9.7214537 8.5972652 -1.9033011
9.7606144 8.5257435 -1.9006375
9.8060036 8.4598799 -1.8993056
9.8584805 8.4001932 -1.8994536
9.9022694 8.3331776 -1.8979738
9.9189854 8.2438183 -1.8913146
9.94874 8.1658611 -1.8873191
9.9794493 8.0890961 -1.8836195
10.031211 8.0295649 -1.8840635
10.083395 7.9703164 -1.8846554
10.124313 7.9022112 -1.8831756
10.151458 7.8236427 -1.8791801
10.178807 7.7456374 -1.8753325
10.235631 7.6901636 -1.8771083
10.269915 7.6177883 -1.8747406
10.285341 7.5318446 -1.8689693
10.320943 7.461062 -1.8670455
10.360087 7.3929982 -1.8658617
10.401213 7.3264432 -1.8651217
10.438662 7.2574043 -1.8637899
10.474026 7.1870632 -1.8621621
10.509738 7.1171155 -1.8606822
10.535941 7.040957 -1.8575747
10.56656 6.9680114 -1.8553549
10.594193 6.8933377 -1.8526913
10.61798 6.8164506 -1.8494357
10.652085 6.7464099 -1.8481039
10.696635 6.6830187 -1.8486958
10.726494 6.6105151 -1.846772
10.760092 6.5404654 -1.8455881
10.800021 6.4743195 -1.8455881
10.826773 6.4003816 -1.8433684
10.845333 6.321878 -1.8398168
10.872772 6.2488079 -1.8378931
10.898002 6.1746645 -1.8356733
10.966769 6.1250372 -1.8410007
11.005012 6.0581079 -1.8411486
11.07675 6.0093293 -1.847068
11.108181 5.9384537 -1.8461801
11.163661 5.8803215 -1.8494357
11.193386 5.8085237 -1.8483998
11.214725 5.732532 -1.846032
11.255873 5.6667247 -1.847068
11.284228 5.5944786 -1.846032
11.324564 5.5281711 -1.847068
11.36362 5.4611506 -1.8479558
11.401385 5.393436 -1.8486958
11.428885 5.3208728 -1.8478079
11.473906 5.256412 -1.8498796
11.524878 5.1944427 -1.8529873
11.577329 5.1328468 -1.8563908
11.600447 5.0581565 -1.855059
11.613084 4.9790897 -1.8520993
11.651619 4.9111958 -1.8534312
11.685189 4.8411241 -1.8540231
11.730246 4.775672 -1.8565388
11.76392 4.7054429 -1.8572787
11.772319 4.6252179 -1.8540231
11.806936 4.5553885 -1.855059
11.858712 4.4919629 -1.8589065
11.886978 4.4194593 -1.8590544
11.906439 4.3437281 -1.8578707
11.917968 4.2652593 -1.855503
11.941115 4.1910691 -1.855059
11.956319 4.1141825 -1.8534312
11.994458 4.045166 -1.855503
12.04253 3.9792483 -1.8592025
12.067661 3.9055862 -1.8593504
12.104597 3.8356481 -1.8614222
12.122237 3.7595463 -1.8605343
12.155487 3.6882527 -1.8621621
12.1722 3.6119111 -1.8612742
12.191284 3.5363295 -1.8608303
12.205141 3.4593017 -1.8596464
12.224231 3.3838198 -1.8593504
12.259085 3.3126183 -1.8615702
12.256227 3.2312865 -1.8580186
12.284445 3.1582384 -1.8593504
12.321819 3.0873685 -1.8621621
12.33957 3.0114708 -1.8620142
12.376099 2.9400413 -1.8648258
12.385233 2.8620443 -1.8634939
12.41607 2.7890294 -1.8655657
12.422321 2.7104752 -1.8639379
12.435816 2.6335878 -1.8634939
12.469179 2.5608132 -1.8661577
12.448768 2.4771173 -1.8606822
12.486069 2.4049869 -1.8640859
12.507397 2.3295953 -1.8651217
12.538003 2.2557831 -1.8676375
12.562326 2.1806686 -1.8692653
12.579372 2.1041989 -1.8698572
12.598882 2.0280733 -1.870893
12.623795 1.9526941 -1.8728168
6.4234042 0.95385456 -0.93313098
6.1285334 0.87172329 -0.8877005
5.9975476 0.8156051 -0.86713099
5.9396682 0.77065754 -0.85766011
5.9275985 0.73214018 -0.85514444
5.9152808 0.69380009 -0.85262877
5.9095969 0.65640163 -0.8511489
5.8958077 0.61827552 -0.84848523
5.8965378 0.58179712 -0.8480413
5.8911333 0.54478782 -0.84670949
5.8864827 0.50795162 -0.84552562
5.8796301 0.47103542 -0.84404582
5.8794508 0.43473163 -0.84360182
5.8899012 0.39918125 -0.84478569
0 0 -0
0 0 -0
5.8597026 0.28890508 -0.83931035
0 0 -0
0 0 -0
0 0 -0
5.8768921 0.14530477 -0.84108615
5.8845949 0.10936937 -0.84212202
0 0 -0
0 0 -0
0 -0 -0
0 -0 -0
0 -0 -0
0 -0 -0
0 -0 -0
0 -0 -0
0 -0 -0
0 -0 -0
0 -0 -0
0 -0 -0
0 -0 -0
0 -0 -0
0 -0 -0
0 -0 -0
0 -0 -0
6.2753963 -0.57818675 -0.90442246
11.505843 -1.1323113 -1.6913909
11.486876 -1.2016525 -1.6896151
11.45078 -1.2689502 -1.6853236
10.595076 -1.2398907 -1.5576152
10.573526 -1.3031824 -1.5555434
10.560428 -1.3674003 -1.5548035
10.560658 -1.4333701 -1.5561353
10.569289 -1.5006465 -1.558799
10.583362 -1.5689535 -1.5623505
11.075905 -1.7115462 -1.6384133
11.065195 -1.7794745 -1.6384133
11.043338 -1.8455415 -1.6367855
11.027908 -1.912591 -1.6361935
11.015965 -1.9802209 -1.6361935
10.990968 -2.0454228 -1.6342698
10.97724 -2.1126366 -1.6341218
10.96892 -2.1809165 -1.6348617
10.954363 -2.2479808 -1.6347138
10.936493 -2.3143337 -1.6341218
10.917255 -2.3803413 -1.633382
10.890864 -2.4446828 -1.6316061
8.3143921 -1.9197201 -1.2382699
10.857158 -2.577461 -1.6311622
10.850746 -2.6463749 -1.632642
10.829508 -2.7117026 -1.6319021
10.800213 -2.7748995 -1.6299783
7.4913139 -1.9734551 -1.1206242
7.490521 -2.0224791 -1.1223999
10.733009 -2.9692688 -1.6277586
10.719345 -3.0364177 -1.6284986
10.702413 -3.1026843 -1.6287944
10.692655 -3.1711075 -1.6302743
7.9729218 -2.4175339 -1.2080816
7.9409347 -2.4611368 -1.2054179
7.930398 -2.5113087 -1.2061578
7.9157805 -2.560226 -1.2063057
10.588471 -3.4969897 -1.6299783
10.51621 -3.5448294 -1.6219873
10.482103 -3.6051061 -1.6200635
10.444854 -3.6641157 -1.6176958
10.414725 -3.7254694 -1.6165119
7.6935396 -2.8051131 -1.1867721
10.416429 -3.870913 -1.624207
10.469246 -3.9638276 -1.6364895
10.458569 -4.0333304 -1.6387093
10.433623 -4.0974269 -1.6387093
10.419305 -4.1657763 -1.640485
10.37706 -4.222918 -1.6378213
10.329024 -4.2774272 -1.6342698
10.294382 -4.3372674 -1.6329379
10.213036 -4.3769703 -1.6240591
10.132499 -4.4162345 -1.6153281
10.109732 -4.4803276 -1.616068
10.021639 -4.5150504 -1.6061532
10.032411 -4.5941672 -1.6125164
9.9932728 -4.65063 -1.6107407
9.9565029 -4.7080541 -1.6094089
9.9140558 -4.7626324 -1.6071891
9.8677597 -4.8151317 -1.6043774
9.8247375 -4.869 -1.6021577
9.7858429 -4.9247451 -1.6006778
9.7457542 -4.9797459 -1.59905
9.7220383 -5.0430951 -1.6002339
9.6777859 -5.0957403 -1.5980142
9.6245317 -5.1433706 -1.5943147
9.5806208 -5.1957269 -1.592243
9.5468273 -5.2534609 -1.591947
9.5040512 -5.3061538 -1.5901712
9.4618492 -5.3590074 -1.5885434
9.4133539 -5.4080935 -1.5858797
9.3535051 -5.4503126 -1.5812923
9.3079672 -5.5005565 -1.5792205
9.2893105 -5.5667176 -1.5818841
9.257514 -5.6251521 -1.5823281
9.2000914 -5.667841 -1.5783325
9.1592693 -5.7205167 -1.5772967
9.1206551 -5.7744927 -1.5767047
9.0584183 -5.813252 -1.5719694
9.0134592 -5.8627911 -1.5703416
8.9517212 -5.9011092 -1.5657542
8.9194555 -5.9586725 -1.566494
8.8745365 -6.0077438 -1.5650142
8.8407688 -6.064322 -1.5656061
8.8033924 -6.1184535 -1.5656061
8.7519388 -6.162674 -1.5630904
8.6954441 -6.2030468 -1.5596869
8.6700439 -6.265554 -1.5620546
8.6194668 -6.3098702 -1.5598348
8.5845594 -6.3655853 -1.5605748
8.5026407 -6.3860621 -1.5525837
8.4420452 -6.4219441 -1.5485882
8.4212837 -6.488111 -1.5521398
8.3961277 -6.5512218 -1.5549514
8.3293915 -6.5817657 -1.5499201
8.2819004 -6.6271882 -1.5485882
8.2310925 -6.6697845 -1.5466645
8.183897 -6.7151446 -1.5454806
8.1356936 -6.7595448 -1.5441488
8.0509319 -6.7730422 -1.5357138
8.0001879 -6.8146176 -1.5339381
7.9904242 -6.8913555 -1.5403012
7.9241529 -6.9194355 -1.5355657
7.8496895 -6.9397559 -1.5292026
7.808434 -6.9891095 -1.5294986
7.7807908 -7.050837 -1.5326061
7.7351952 -7.0964403 -1.5321622
7.6828117 -7.1356916 -1.5303864
7.6345606 -7.1786327 -1.5294986
7.5882211 -7.2232966 -1.5290546
7.5430446 -7.2690349 -1.5289066
7.4990087 -7.3158717 -1.5290546
7.4469423 -7.3547969 -1.5275748
7.1289444 -7.1276107 -1.4698617
7.0760412 -7.1620717 -1.4679381
7.0036445 -7.1763325 -1.4618708
6.9546757 -7.2141862 -1.4608349
6.9041419 -7.250277 -1.4595031
6.8331013 -7.2644053 -1.4537318
6.7722449 -7.2888055 -1.4501802
6.7421041 -7.3462539 -1.4534358
6.6816263 -7.3706298 -1.4500322
6.5762477 -7.3444333 -1.4365659
2.1667402 -2.4487522 -0.45070958
2.151674 -2.4620011 -0.45070958
2.1391108 -2.4781528 -0.45130149
6.4350724 -7.5517921 -1.4460367
6.4312754 -7.6418376 -1.4559515
6.3722553 -7.6667027 -1.4531398
6.2824306 -7.6536713 -1.443077
6.2285008 -7.6836233 -1.4414493
6.2016306 -7.7471771 -1.4463326
6.1552043 -7.7866359 -1.4466286
2.0058105 -2.5684335 -0.44908178
1.9803548 -2.5681584 -0.44671404
1.9603678 -2.5747516 -0.44567817
1.9439385 -2.5859408 -0.44553021
1.9327478 -2.6041751 -0.44671404
1.8425343 -2.514642 -0.42792034
1.8259114 -2.5242972 -0.42762437
1.8149835 -2.541894 -0.42880824
5.9147744 -8.3967037 -1.4982743
5.8795118 -8.4563885 -1.5025659
5.848774 -8.5232944 -1.5081891
5.8013563 -8.5663919 -1.509521
5.7486849 -8.6018276 -1.509521
5.6968856 -8.6385899 -1.5098169
5.6329865 -8.6568031 -1.5068573
5.5749555 -8.683712 -1.5055255
1.7909613 -2.8261993 -0.46210417
1.7730623 -2.8362963 -0.4619562
1.7566633 -2.8488064 -0.46225217
5.3324323 -8.772275 -1.4975344
5.2820649 -8.8107672 -1.4985703
5.2193494 -8.828537 -1.4960546
5.166574 -8.8629599 -1.4964986
5.0933714 -8.8619089 -1.4908752
5.0510859 -8.9145079 -1.4945748
4.980381 -8.9168377 -1.4896914
4.9374962 -8.9688892 -1.4933909
4.8818994 -8.998147 -1.493243
4.828927 -9.0322933 -1.4939828
4.7757192 -9.0661287 -1.4947227
4.7186341 -9.0926275 -1.4942788
4.6645541 -9.1249323 -1.4948708
4.606698 -9.149848 -1.4942788
4.5495906 -9.1761694 -1.4939828
4.4910321 -9.1994686 -1.493243
4.4340725 -9.2259607 -1.4930949
4.3744197 -9.2467356 -1.4920591
4.318018 -9.2742987 -1.4922071
4.2618542 -9.3024178 -1.492503
4.2026639 -9.323884 -1.4917631
4.1429701 -9.3440704 -1.4908752
4.0863485 -9.371129 -1.4911712
4.0295506 -9.3978443 -1.4914671
3.9695063 -9.4169235 -1.4905792
3.9093797 -9.4356203 -1.4896914
3.8532743 -9.4640102 -1.4904313
3.793663 -9.4838028 -1.4898393
3.7306998 -9.4949341 -1.4879156
3.6691663 -9.5093422 -1.4865837
3.610749 -9.5316772 -1.4865837
3.5539186 -9.5582876 -1.4873236
3.4972365 -9.5854893 -1.4882115
3.4393547 -9.609561 -1.4886554
3.376725 -9.6202183 -1.4870276
3.3124855 -9.6257925 -1.48466
3.255888 -9.6534338 -1.4858438
3.1984556 -9.6788645 -1.4867318
3.1429648 -9.7105398 -1.4886554
3.0875041 -9.7428417 -1.4907272
3.0270793 -9.7597132 -1.4904313
2.9651284 -9.7714787 -1.4893954
2.9037097 -9.7847481 -1.4886554
2.8436167 -9.8023806 -1.4886554
2.7858434 -9.828208 -1.4899874
2.72786 -9.8536949 -1.4913192
2.6658001 -9.8645182 -1.4904313
2.6044662 -9.877821 -1.4899874
2.5445466 -9.8964891 -1.4904313
2.4840152 -9.9128752 -1.4905792
2.4231441 -9.9279308 -1.4905792
2.3633244 -9.947423 -1.4913192
2.3015759 -9.9588461 -1.4908752
2.2378263 -9.9612007 -1.4890994
2.1749773 -9.9670143 -1.4879156
2.1121416 -9.9724312 -1.4867318
0.53373784 -2.5943117 -0.35777685
0.51645893 -2.5907481 -0.35674098
0.50148749 -2.5987239 -0.35748088
0.48679963 -2.6085582 -0.35851678
0.47341016 -2.6260965 -0.36073649
0.45880935 -2.6377218 -0.36206833
0.44636673 -2.6629229 -0.36547193
0.43520284 -2.6978338 -0.37035534
0.42181399 -2.7209785 -0.37346295
0.40511045 -2.7235153 -0.37346295
0.38588807 -2.7083249 -0.37079927
0.37046051 -2.7194617 -0.37213111
0.35503787 -2.7314916 -0.37361094
0.34359691 -2.7768071 -0.38012215
1.17986 -10.066393 -1.4780008
0.29990444 -2.6943133 -0.36709973
0.28254318 -2.6882339 -0.36591586
1.0094897 -10.239944 -1.501086
0.72626632 -7.8577914 -1.1422296
0.67608702 -7.8394365 -1.138826
0.62537259 -7.8109045 -1.1339426
0.57830679 -7.8264303 -1.1357183
0.53247428 -7.8623939 -1.1406018
0.63262922 -10.282008 -1.5028617
0.20693697 -3.7238674 -0.51952124
0.1778266 -3.597641 -0.50043154
0.15332924 -3.5423439 -0.49199656
0.13046314 -3.5125799 -0.48740911
0.10757402 -3.4698193 -0.4808979
0.08543285 -3.4358099 -0.47571853
0.064985894 -3.4708781 -0.4808979
0.12585071 -10.178039 -1.484512
0.02186192 -3.3853738 -0.46802348
0.00093909621 -10.267826 -1.4978304
-0.062026579 -10.261704 -1.4969425
-0.12469825 -10.237397 -1.4933909
-0.18736559 -10.228528 -1.4922071
-0.24988021 -10.217299 -1.4907272
-0.31226408 -10.205688 -1.4892474
-0.37458774 -10.195674 -1.4880636
-0.4370552 -10.191207 -1.4877676
-0.4994334 -10.18537 -1.4873236
-0.56202948 -10.184089 -1.4876196
-0.62529594 -10.193281 -1.4895434
-0.68842947 -10.198133 -1.4908752
-0.76867568 -10.433391 -1.5268348
-0.84473979 -10.579311 -1.5494761
-0.91396588 -10.624182 -1.5570232
-0.98168319 -10.645948 -1.5611666
-1.0477626 -10.647598 -1.5623505
-1.1143113 -10.652772 -1.5641264
-1.1799816 -10.648683 -1.5645703
-1.2435726 -10.626508 -1.5623505
-1.3057251 -10.594139 -1.558651
-1.3445214 -10.383885 -1.5281667
-1.3802551 -10.169642 -1.4970905
-1.440542 -10.146295 -1.4948708
-1.5014651 -10.12846 -1.4935389
-0.45409289 -2.9441566 -0.40720284
-0.47780603 -2.9764664 -0.41253021
-1.6997133 -10.171289 -1.5044895
-0.51886159 -2.9966884 -0.41652572
-0.5424915 -3.0226493 -0.42096519
-0.56120896 -3.020236 -0.42111316
-1.9424591 -10.093494 -1.4994582
-2.0045481 -10.082355 -1.4996061
-2.0659766 -10.067928 -1.4993103
-2.1246405 -10.040549 -1.4970905
-0.62555557 -2.8730865 -0.40143156
-0.63948864 -2.8527896 -0.39891586
-0.66321456 -2.8757932 -0.40305936
-2.3658373 -9.9661398 -1.4941308
-2.4274127 -9.9533567 -1.4944268
-2.4898818 -9.9440317 -1.4953147
-0.94286698 -3.6728263 -0.52884406
-0.76699793 -2.9143443 -0.41238222
-0.77815902 -2.8847597 -0.40853471
-0.79267937 -2.8684926 -0.4067589
-0.79246891 -2.8007743 -0.39699209
-0.81349587 -2.8091571 -0.39906386
-0.82171571 -2.773772 -0.39432842
-2.9687836 -9.7900066 -1.4922071
-0.99248165 -3.2046165 -0.46343604
-1.0178015 -3.2163796 -0.46624768
-3.1460469 -9.7261744 -1.4910232
-3.2118714 -9.7254686 -1.4939828
-3.2708533 -9.7037039 -1.4936869
-3.3329065 -9.6909332 -1.4948708
-1.1274462 -3.2163072 -0.47142705
-1.1454939 -3.2046728 -0.47068715
-3.4859798 -9.5601187 -1.484068
-3.5807574 -9.6358852 -1.4996061
-1.1612023 -3.0692849 -0.45248535
-1.1903359 -3.0888608 -0.45677683
-3.7654712 -9.5885935 -1.5028617
-1.1987714 -3.0005591 -0.44493827
-1.2436341 -3.0581832 -0.45544499
-3.9538181 -9.5478115 -1.5077451
-3.9996529 -9.4932966 -1.5028617
-4.0625033 -9.4794846 -1.5046376
-4.1245446 -9.4634447 -1.5061173
-4.1837358 -9.440671 -1.5065613
-4.2423968 -9.416626 -1.5068573
-4.2976251 -9.3850231 -1.5059694
-1.3237448 -2.8464341 -0.43117595
-1.3411853 -2.8382583 -0.43117595
-1.3684272 -2.8504779 -0.43457952
-1.3867593 -2.8438053 -0.43487549
-4.6120377 -9.3063736 -1.5155882
-4.6766133 -9.2929173 -1.518104
-4.7411971 -9.2790174 -1.5206196
-4.797132 -9.2479954 -1.5203236
-4.8533254 -9.2175121 -1.5201757
-4.9079266 -9.1840706 -1.5195837
-4.9641867 -9.1537828 -1.5195837
-4.717432 -8.572978 -1.4256152
-4.7458363 -8.5006971 -1.418216
-4.7725563 -8.426672 -1.410521
-4.7748957 -8.3114805 -1.3957227
-4.8073778 -8.250411 -1.3902475
-4.8543878 -8.214798 -1.3892115
-4.8889394 -8.1585617 -1.3846241
-4.9183612 -8.0946045 -1.3787049
-4.9871325 -8.0954266 -1.3841802
-4.9303417 -7.894403 -1.3541398
-5.0892754 -8.0386305 -1.3850681
-5.2079554 -8.115448 -1.4043057
-5.2587314 -8.0849972 -1.4046017
-5.3311062 -8.0872564 -1.4108169
-5.438323 -8.1407347 -1.426355
-5.4482465 -8.0482502 -1.4157003
-5.4326229 -7.9200711 -1.3985344
-5.4850688 -7.8922725 -1.3995703
-5.545351 -7.8754482 -1.4026779
-5.6199932 -7.8783073 -1.4094851
-5.6838708 -7.8653164 -1.4134806
-5.681777 -7.7616687 -1.4007542
-6.2689633 -8.4542856 -1.5363057
-6.3337884 -8.4330568 -1.5395613
-6.4596725 -8.4916306 -1.557911
-1.7250788 -2.2404754 -0.3845616
-1.741836 -2.2337465 -0.3853015
-1.7628682 -2.2323277 -0.3870773
-1.7752963 -2.2199247 -0.38678133
-1.8113021 -2.2366495 -0.39210868
-6.7716131 -8.2527008 -1.558799
-6.8202271 -8.2087135 -1.558355
-6.881928 -8.1803322 -1.5610187
-6.9281435 -8.1334343 -1.5601308
-6.979857 -8.0930176 -1.5605748
-7.0339375 -8.0552521 -1.5616106
-7.0884724 -8.017868 -1.5627944
-7.1474304 -7.9852757 -1.5650142
-7.204927 -7.9507957 -1.5669379
-7.2589259 -7.9122667 -1.5681218
-7.3073382 -7.867578 -1.5681218
-7.3554749 -7.8225927 -1.5681218
-7.4012895 -7.7751646 -1.5676779
-7.4543481 -7.735301 -1.5688617
-7.5189385 -7.7071123 -1.5725613
-7.5855479 -7.6805325 -1.5767047
-7.6381264 -7.6394382 -1.5778886
-7.6771178 -7.5847826 -1.5762608
-3.4989698 -3.4156051 -0.69310415
-3.4066393 -3.2849474 -0.66957498
-3.3601165 -3.200563 -0.65581268
-7.93083 -7.4598122 -1.5906152
-7.9279046 -7.365912 -1.5807003
-3.5306818 -3.2411416 -0.67860186
-3.2639747 -2.9597342 -0.62074089
-3.3528132 -3.0029767 -0.63494718
-3.5667744 -3.1552958 -0.67401445
-3.447515 -3.0123491 -0.6464898
-3.429987 -2.9601326 -0.63938665
-3.4277587 -2.9217141 -0.63539112
-3.7225945 -3.1336687 -0.68955255
-3.8147745 -3.171447 -0.70375884
-3.8823268 -3.1875062 -0.71308172
-5.2425799 -4.2502174 -0.97131032
-5.3697124 -4.2989225 -0.99069595
-5.3393459 -4.2211289 -0.97989327
-5.3635864 -4.1870713 -0.97959733
-5.4918022 -4.2331595 -0.99898297
-5.4617896 -4.1568661 -0.98847628
-5.5148692 -4.1440644 -0.99365562
-5.540987 -4.1107368 -0.99380362
-5.5629139 -4.0743237 -0.99321169
-5.6960177 -4.1183233 -1.0131892
-5.7421122 -4.0982299 -1.0170368
-5.6256461 -3.9632661 -0.99113995
-5.8260784 -4.0511651 -1.023252
-5.7700896 -3.9599516 -1.0086018
-5.5928197 -3.7880726 -0.97219825
-5.7319055 -3.8311548 -0.99306369
-5.7379656 -3.7844803 -0.98995608
-5.7793169 -3.7610664 -0.99321169
-5.6349931 -3.6181588 -0.9634673
-5.7247686 -3.6263714 -0.97545385
-5.6655488 -3.5403531 -0.96109957
-5.6097016 -3.4577942 -0.94748521
-5.764348 -3.5044606 -0.97086638
-5.9570985 -3.5717268 -1.0007588
-5.9627256 -3.5255466 -0.9979471
-5.9321227 -3.4585171 -0.98892021
-5.9789577 -3.4368348 -0.99335963
-5.8545055 -3.3177044 -0.96835071
-5.8885679 -3.289434 -0.97071838
-5.9415655 -3.2713611 -0.97634172
-5.9337072 -3.2197537 -0.97160631
-5.8879352 -3.1483204 -0.96050763
-5.9797721 -3.150382 -0.97279018
-5.8997898 -3.062166 -0.95606816
-5.9413652 -3.0376093 -0.9599157
-5.9007039 -2.9713056 -0.95000094
-6.0464244 -2.9982903 -0.97131032
-6.017602 -2.938144 -0.9634673
-6.2271752 -2.9932511 -0.99528342
-6.2445302 -2.9545627 -0.99513543
-6.4553156 -3.0059183 -1.0269516
-6.254241 -2.8657672 -0.99084395
-6.253674 -2.819212 -0.98788434
-5.818778 -2.5804071 -0.91389328
-5.8381281 -2.546236 -0.91448522
-6.2854176 -2.6954424 -0.98477668
-6.3774824 -2.6887012 -0.99705923
-6.3308139 -2.6234059 -0.98684847
-6.545568 -2.665417 -1.0189606
-6.5213947 -2.6090467 -1.0124494
-6.6109228 -2.5979085 -1.0242879
-6.5842934 -2.5409238 -1.0174807
-6.4619508 -2.4482892 -0.99543142
-6.5167136 -2.4234095 -1.0017946
-6.477572 -2.3637238 -0.99321169
-6.4807792 -2.3199358 -0.99143589
-6.530354 -2.2925694 -0.99705923
-6.5601964 -2.2579257 -0.9995749
-6.6517115 -2.2438557 -1.0118574
-6.6446948 -2.1961749 -1.0086018
-6.6759233 -2.1611466 -1.0114135
-6.7277136 -2.1323884 -1.0174807
-6.7501178 -2.0939965 -1.0189606
-6.7978563 -2.0631607 -1.0244359
-6.8113356 -2.0216923 -1.0245838
-6.852108 -1.9881235 -1.0290233
-6.8679843 -1.9471208 -1.0296153
-6.7282481 -1.8630058 -1.0060861
-6.8111606 -1.8410296 -1.0171847
-6.8997917 -1.8196176 -1.0291713
-6.9079533 -1.7765086 -1.0287274
-7.1873436 -1.8013682 -1.0701623
-7.3356576 -1.7907518 -1.0913237
-7.3234138 -1.7402235 -1.0877721
-7.7993803 -1.8027636 -1.1592475
-7.9492502 -1.7860737 -1.1805569
-8.1774721 -1.7846816 -1.2138529
-8.2434187 -1.7461461 -1.2222879
-8.9737883 -1.8432925 -1.3322384
-9.3574057 -1.8622774 -1.3890636
-9.835783 -1.8947569 -1.460243
-10.320726 -1.9225187 -1.5323102
-11.292079 -2.0317395 -1.6782205
-11.342336 -1.9690076 -1.6839918
-11.58246 -1.937535 -1.7186196
-11.80797 -1.9008322 -1.7510276
-12.310056 -1.904193 -1.8253146
-12.852718 -1.9074099 -1.9056689
-13.030638 -1.8521563 -1.9308258
-12.932978 -1.7573953 -1.9143997
-13.013153 -1.6870283 -1.9249065
-13.074301 -1.6134435 -1.9326016
-13.101636 -1.535261 -1.9352652
-13.145213 -1.4586565 -1.9404446
-13.131292 -1.3756037 -1.937041
-13.130628 -1.2941334 -1.9357092
-13.131428 -1.2129049 -1.9346733
-13.142564 -1.1326485 -1.9352652
-13.152224 -1.0522223 -1.9357092
-13.169282 -0.97230202 -1.937337
-13.185854 -0.89221197 -1.9389648
-13.151595 -0.80886334 -1.9330455
-13.141499 -0.72733295 -1.9308258
-13.159543 -0.6473636 -1.9328976
-13.139554 -0.56558734 -1.929346
-13.133882 -0.48462647 -1.9280142
-13.146494 -0.40433252 -1.9294939
-13.136863 -0.32336855 -1.9277182
-13.152443 -0.24301076 -1.9297899
-13.145775 -0.16220738 -1.928606
-13.12971 -0.081440575 -1.9260904
-13.154688 -0.00087611465 -1.9297899
-13.15049 0.079815187 -1.929198
-13.14283 0.16041847 -1.9281621
-13.119844 0.24065737 -1.9249065
-13.120098 0.32120329 -1.9252025
-13.107995 0.40139705 -1.9237226
-13.090461 0.48127228 -1.9215029
-13.057619 0.56031018 -1.9170635
-13.05591 0.64051676 -1.9173595
-13.061609 0.72116035 -1.9188392
-13.060887 0.801534 -1.9194312
-13.047829 0.88112521 -1.9182473
-12.149979 -0.3071484 -1.9232351
-12.11314 -0.23185368 -1.9170198
-12.137039 -0.15782046 -1.9206852
-12.135804 -0.083332397 -1.9203664
-12.144972 -0.0088737141 -1.9218007
-12.125054 0.06554053 -1.9186134
-12.118501 0.13986906 -1.9176573
-12.103596 0.2139803 -1.9154261
-12.095146 0.28807822 -1.9143106
-12.118807 0.36305499 -1.9184541
-12.0907 0.43648258 -1.9143106
-12.090754 0.51078641 -1.9147887
-12.12289 0.58668101 -1.9205258
-12.113148 0.66073221 -1.9195696
-12.087186 0.73372936 -1.9160637
-12.068666 0.80695951 -1.9138325
-12.064472 0.88106817 -1.9139919
-12.037188 0.95336372 -1.9104859
-12.045866 1.0284638 -1.9128764
-12.009835 1.0996569 -1.9080954
-12.0176 1.1747675 -1.9104859
-12.005257 1.2479737 -1.9096891
-11.999335 1.3218292 -1.9100078
-12.016495 1.3983971 -1.9141512
-11.961634 1.466458 -1.9066612
-11.916183 1.5351596 -1.9007647
-11.921213 1.6102287 -1.9031551
-11.914042 1.6837599 -1.9036332
-11.901532 1.7565432 -1.9033145
-11.888579 1.8292363 -1.9029957
-11.902476 1.906207 -1.9071392
-11.870106 1.9758 -1.9037926
-11.793553 2.0375061 -1.8932745
-11.782772 2.1101797 -1.8935933
-11.797752 2.1876566 -1.8982148
-11.765686 2.2564726 -1.8951869
-11.752587 2.328815 -1.8953463
-11.734208 2.4000924 -1.8947088
-11.713465 2.4708247 -1.8937526
-11.694224 2.5418119 -1.8931152
-11.679372 2.6137342 -1.8932745
-11.625594 2.6767108 -1.8870593
-11.656024 2.759135 -1.8948681
-11.655183 2.8345685 -1.8975774
-11.625119 2.902921 -1.8955057
-11.628127 2.9795871 -1.8990116
-11.603897 3.0493746 -1.8980554
-11.530633 3.1058836 -1.8889717
-11.522779 3.1797266 -1.890884
-11.460299 3.2382908 -1.8837126
-11.472459 3.317873 -1.8891311
-11.445258 3.3862438 -1.8880155
-11.442219 3.461838 -1.8910434
-11.388694 3.5220649 -1.885625
-11.383813 3.5972321 -1.8884935
-11.347434 3.6624663 -1.8861032
-11.305058 3.7255356 -1.8827565
-11.276371 3.792944 -1.8818003
-11.314514 3.8832121 -1.8923184
-11.270907 3.945714 -1.8889717
-11.200926 3.9985349 -1.8811629
-11.202156 4.0766392 -1.885625
-11.173229 4.1439247 -1.8849876
-11.171603 4.2214766 -1.8891311
-11.119693 4.2800159 -1.8846688
-11.081273 4.3434815 -1.8825971
-11.060832 4.4139543 -1.8837126
-11.039028 4.4839683 -1.8846688
-10.957478 4.5293694 -1.8752663
-10.95314 4.6064677 -1.8794098
-10.889271 4.6584458 -1.8731946
-10.915703 4.749197 -1.8829159
-10.857467 4.8033051 -1.8778162
-10.831391 4.8714547 -1.8784536
-10.776156 4.926331 -1.8739915
-10.762737 5.0002623 -1.8770194
-10.729176 5.0649428 -1.8765413
-10.713028 5.1379375 -1.8792505
-10.666213 5.1962247 -1.8765413
-10.661559 5.2751446 -1.8814815
-10.648398 5.3502135 -1.8849876
-10.646149 5.4311509 -1.8905653
-10.519699 5.4482503 -1.8736727
-10.480828 5.5099392 -1.8727165
-10.438112 5.5694976 -1.8711228
-10.373358 5.6169882 -1.8655452
-10.37071 5.6981206 -1.8714416
-10.352798 5.7712598 -1.8746289
-10.310317 5.8307872 -1.873354
-10.270921 5.8919759 -1.8727165
-10.214095 5.9429712 -1.8688918
-10.190191 6.0130568 -1.8712822
-10.1692 6.0851002 -1.8743101
-10.13758 6.1509676 -1.8754257
-10.090398 6.207365 -1.8736727
-10.080601 6.2869229 -1.8790911
-10.064365 6.3629012 -1.8833939
-10.010173 6.4149475 -1.8805254
-9.9904928 6.4891534 -1.8843502
-9.981823 6.5709581 -1.890406
-9.9068241 6.6090722 -1.8837126
-9.8685389 6.6713939 -1.8841908
-9.9007206 6.7820296 -1.8985336
-9.8370228 6.8274541 -1.8942307
-9.7844467 6.8803024 -1.892159
-9.7910938 6.9751487 -1.9018801
-9.7665234 7.0483813 -1.9055456
-9.7501888 7.1279836 -1.910964
-9.6737394 7.1635885 -1.90443
-9.6296024 7.2228107 -1.90443
-9.6079006 7.2990789 -1.9090515
-9.5770168 7.3687301 -1.9119202
-9.5300655 7.4261413 -1.9116014
-9.4928455 7.4912038 -1.9133544
-9.4227934 7.5302052 -1.9084141
-9.3664351 7.5798073 -1.9063424
-9.3854198 7.6909466 -1.9200478
-9.3175392 7.7313695 -1.9157449
-9.2684135 7.7871251 -1.9154261
-9.2264738 7.8489656 -1.9167011
-9.1938486 7.9189601 -1.9200478
-9.1339245 7.9654908 -1.9176573
-9.0981979 8.0331469 -1.9205258
-9.0928993 8.1282959 -1.9300877
-9.0443172 8.1852608 -1.9304065
-9.0310469 8.2746134 -1.938534
-8.9967518 8.3453121 -1.9421993
-8.9684067 8.4219828 -1.947299
-8.8993893 8.4605284 -1.9434743
-8.8366385 8.5047064 -1.9410838
-8.7821674 8.5567007 -1.9406058
-8.7182531 8.5993338 -1.9380559
-8.6827898 8.670105 -1.94204
-8.6301212 8.7239199 -1.9421993
-8.5695305 8.7696486 -1.9406058
-8.5141878 8.8206444 -1.940287
-8.5021439 8.9170179 -1.9501675
-8.4330559 8.953927 -1.946821
-8.385354 9.0134525 -1.9485739
-8.3425827 9.0785456 -1.9516019
-8.2946835 9.1383352 -1.9535142
-8.2331829 9.1831789 -1.9522393
-8.1819172 9.2394361 -1.9535142
-8.1426201 9.3095284 -1.9578171
-8.0963163 9.372015 -1.9605262
-8.0290461 9.4102516 -1.9581358
-7.9622488 9.4487715 -1.9559047
-7.8927546 9.4837904 -1.9530362
-7.8456979 9.5457687 -1.9559047
-7.826798 9.6427841 -1.966104
-7.7853899 9.712966 -1.9707255
-7.7348366 9.7721643 -1.973116
-7.6947927 9.845108 -1.9783751
-7.6306205 9.8874474 -1.9774189
-7.5805793 9.9482155 -1.9802874
-7.5188022 9.9937534 -1.980128
-7.4573402 10.0397 -1.980128
-7.3827534 10.067754 -1.9766221
-7.341681 10.141652 -1.9823592
-7.2649646 10.166429 -1.9783751
-7.2013097 10.209201 -1.9780563
-7.1278133 10.237802 -1.9750284
-7.0620656 10.277276 -1.9742316
-6.9927773 10.311427 -1.9724786
-6.9112558 10.327066 -1.9672196
-6.8613615 10.389873 -1.9712037
-6.848146 10.509525 -1.9861839
-6.7845998 10.553008 -1.9865026
-6.7191911 10.593605 -1.9863433
-6.6509213 10.629613 -1.9853871
-6.584537 10.668542 -1.9850683
-6.5215187 10.712959 -1.9858652
-6.4582038 10.757005 -1.986662
-6.3885574 10.790483 -1.9855465
-6.3192415 10.824364 -1.9845903
-6.2600932 10.875768 -1.9869808
-6.1986027 10.923419 -1.9887338
-6.1309791 10.960385 -1.9885744
-6.0578918 10.987424 -1.986662
-5.9931884 11.029592 -1.9876182
-5.9295936 11.073991 -1.9890524
-5.8500161 11.088337 -1.9850683
-5.7927971 11.145046 -1.9888932
-5.7238531 11.179502 -1.9887338
-5.6604838 11.22499 -1.9906461
-5.5972109 11.271005 -1.9927179
-5.53055 11.310457 -1.993674
-5.4571919 11.336174 -1.9922397
-5.3900685 11.374798 -1.9931959
-5.3310223 11.430919 -1.9973394
-5.2554297 11.45175 -1.9952676
-5.1944084 11.504475 -1.9989331
-5.121316 11.530718 -1.9979769
-5.0516543 11.564638 -1.9984549
-4.9747548 11.581811 -1.9960645
-4.9116621 11.631215 -1.9994111
-4.8500428 11.68484 -2.0035546
-4.7763901 11.709809 -2.0027578
-4.712163 11.75814 -2.0061045
