# .PCD v0.7 - Point Cloud Data file format
VERSION 0.7
FIELDS x y z
SIZE 4 4 4
TYPE F F F
COUNT 1 1 1
WIDTH 1600
HEIGHT 1
VIEWPOINT 0 0 0 1 0 0 0
POINTS 1600
DATA ascii
-6.2886076 -0.93733048 -1.9270831
-6.3008604 -0.89967233 -1.9291531
-6.3081551 -0.86125261 -1.9297445
-6.3388968 -0.82586408 -1.9377286
-6.3628049 -0.789307 -1.9436427
-0 -0 -0
-6.4261265 -0.71720916 -1.9604981
-0 -0 -0
-0 -0 -0
-0 -0 -0
-0 -0 -0
-0 -0 -0
-0 -0 -0
-0 -0 -0
-0 -0 -0
-0 -0 -0
-0 -0 -0
-0 -0 -0
-0 -0 -0
-0 -0 -0
-6.1255364 0.44652641 -1.9377506
-6.1321697 0.48485559 -1.9408175
-0 0 -0
-6.1380796 0.56119913 -1.9448044
-0 0 -0
-0 0 -0
-0 0 -0
-0 0 -0
-0 0 -0
-0 0 -0
-0 0 -0
-0 0 -0
-0 0 -0
-0 0 -0
-0 0 -0
-6.070775 1.0096604 -1.9417375
-6.0616522 1.0464047 -1.9408175
-6.0401273 1.0808932 -1.9359103
-6.034317 1.1181079 -1.9362171
-6.0217342 1.1540368 -1.934377
-6.0089378 1.1898534 -1.9325367
-5.990334 1.2244117 -1.9288565
-5.9780521 1.2601622 -1.927323
-5.9646268 1.2956059 -1.9254829
-5.9519205 1.3311402 -1.9239494
-5.9445686 1.367849 -1.9242561
-5.9360638 1.4042984 -1.9242561
-5.9282598 1.44092 -1.9245628
-5.9193072 1.477268 -1.9245628
-5.9092093 1.513324 -1.9242561
-5.8786402 1.5439887 -1.9172021
-5.8607845 1.5778018 -1.9144419
-5.880353 1.6218369 -1.9242561
-5.840981 1.6496038 -1.9144419
-5.8600078 1.6938758 -1.9242561
-5.8449407 1.7284497 -1.9227226
-5.8351359 1.7645568 -1.9230293
-5.8251081 1.8006085 -1.923336
-5.7957993 1.8305801 -1.9172021
-5.7880807 1.8672776 -1.9184289
-5.7647629 1.8988841 -1.9144419
-5.7511988 1.9336132 -1.9138285
-5.7401261 1.9691745 -1.9141352
-5.7288342 2.0046728 -1.9144419
-5.7307677 2.0449073 -1.919349
-5.7306342 2.0845897 -1.9236426
-5.7132735 2.1180577 -1.9221092
-5.687705 2.1483631 -1.9178156
-5.6877398 2.1883509 -1.922416
-5.6485071 2.2131345 -1.9135219
-5.6259813 2.2442234 -1.9104549
-5.626214 2.2844334 -1.915362
-5.5874624 2.3087301 -1.9067746
-5.5626626 2.3385422 -1.9030943
-5.5735865 2.3834879 -1.9119884
-5.5824208 2.427896 -1.9202691
-5.5604553 2.4590223 -1.9178156
-5.5487347 2.4946561 -1.9190423
-5.5281296 2.5262809 -1.9172021
-5.5177035 2.5625598 -1.9190423
-5.4838014 2.5878339 -1.9126017
-5.4746852 2.6247263 -1.9150553
-5.4482093 2.653266 -1.911375
-5.4343858 2.6879122 -1.9122951
-5.4126878 2.718642 -1.9104549
-5.373013 2.7401228 -1.9021742
-5.3772278 2.7839837 -1.9098415
-5.3844757 2.829771 -1.9187356
-5.3569345 2.857379 -1.9150553
-5.3393011 2.8901947 -1.9150553
-5.3147936 2.9192345 -1.9126017
-5.3059258 2.9568889 -1.9159753
-5.2851977 2.9879842 -1.9150553
-5.2618108 3.0175152 -1.9132152
-5.2431965 3.0497444 -1.9132152
-5.2202864 3.0794399 -1.9116817
-5.2053766 3.1138568 -1.9132152
-5.1902409 3.1482067 -1.9147487
-5.1692047 3.1789966 -1.9141352
-5.1479864 3.2096469 -1.9135219
-5.115324 3.2330353 -1.9086148
-5.0937872 3.2633343 -1.9080014
-5.0720716 3.2934906 -1.907388
-5.0462027 3.3208866 -1.9052411
-5.0391912 3.3607674 -1.9104549
-5.0184751 3.391624 -1.9104549
-4.995214 3.4207392 -1.9095348
-4.9647479 3.4448118 -1.9058546
-4.9450746 3.4763052 -1.9064679
-4.9352794 3.5148666 -1.9110683
-4.911304 3.5434117 -1.9101483
-4.8979216 3.5796597 -1.9135219
-4.8697457 3.6051135 -1.9110683
-4.8528633 3.6389239 -1.9132152
-4.8319597 3.6697838 -1.9138285
-4.8002996 3.6923976 -1.9101483
-4.7783036 3.722367 -1.9104549
-4.7486496 3.746309 -1.9076947
-4.7389565 3.7860723 -1.9132152
-4.7111974 3.8114858 -1.911375
-4.702445 3.8523879 -1.9175088
-4.6750565 3.87813 -1.9159753
-4.6438856 3.9006195 -1.9129084
-4.6097155 3.9204056 -1.9086148
-4.6064863 3.9666314 -1.9175088
-4.582778 3.9954472 -1.9178156
-4.5239301 3.9932508 -1.9030943
-4.5121155 4.0323529 -1.9086148
-4.4992847 4.0708208 -1.9138285
-4.4707131 4.0951362 -1.9122951
-4.4343371 4.1121335 -1.907388
-4.4055533 4.1360068 -1.9058546
-4.3814721 4.1642728 -1.9064679
-4.3565235 4.1917386 -1.9067746
-4.3348117 4.2223763 -1.9086148
-4.3108549 4.2508998 -1.9095348
-4.2806497 4.2732353 -1.9076947
-4.2503333 4.2953606 -1.9058546
-4.2179108 4.3152318 -1.9030943
-4.1913533 4.3410316 -1.9030943
-4.1659522 4.3680453 -1.9037077
-4.1442924 4.3990679 -1.9061612
-4.1087942 4.4153543 -1.9021742
-4.0822687 4.4411831 -1.902481
-4.0466256 4.4569855 -1.8984939
-4.0179315 4.4803138 -1.8978806
-4.0029845 4.519135 -1.9040143
-3.9845791 4.554359 -1.9086148
-3.952826 4.5743999 -1.9067746
-3.9172707 4.589879 -1.9030943
-3.8927135 4.6181955 -1.9049344
-3.8661301 4.6441889 -1.9058546
-3.8309135 4.6597347 -1.902481
-3.80165 4.6824141 -1.9021742
-3.7668953 4.6982255 -1.8991073
-3.7350433 4.7175183 -1.8975738
-3.7030964 4.7365975 -1.8960404
-3.6774523 4.7637515 -1.8978806
-3.6544986 4.7945542 -1.9012542
-3.628444 4.8214512 -1.9030943
-3.5885766 4.8298702 -1.8975738
-3.5504315 4.8402843 -1.8929734
-3.531827 4.877399 -1.8991073
-3.4946399 4.8889103 -1.8951203
-3.4568961 4.8993716 -1.8908266
-3.4224186 4.9142413 -1.8883731
-3.394357 4.9382863 -1.8895998
-3.369334 4.9668984 -1.8926668
-3.3610263 5.0207024 -1.9055479
-3.3107512 5.0118427 -1.8942002
-3.2970829 5.0583797 -1.9043211
-3.2644393 5.0761127 -1.903401
-3.2311924 5.0928321 -1.9021742
-3.1988728 5.110949 -1.9015609
-3.1474581 5.0980811 -1.8892932
-3.1299741 5.1400628 -1.8978806
-3.0934777 5.1510105 -1.8948137
-3.0613286 5.1690755 -1.8945069
-3.0305138 5.1894064 -1.8951203
-3.0062115 5.2211027 -1.9000274
-2.9689522 5.2303438 -1.8966538
-2.9391265 5.2526159 -1.8981873
-2.9077609 5.2722182 -1.8988006
-2.874902 5.2891245 -1.8984939
-2.8419452 5.3058257 -1.8981873
-2.8088915 5.3223219 -1.8978806
-2.7722313 5.3318558 -1.8951203
-2.7394636 5.3487654 -1.8951203
-2.7031643 5.3586745 -1.8926668
-2.6719265 5.3785701 -1.8938936
-2.6451447 5.4076896 -1.8984939
-2.6094372 5.4186726 -1.8966538
-2.5749171 5.4320011 -1.8957337
-2.5415385 5.4476981 -1.8957337
-2.5044916 5.4554048 -1.8929734
-2.4690125 5.4663315 -1.89144
-2.436198 5.4831181 -1.8920534
-2.4028893 5.4988351 -1.8923601
-2.3672259 5.5091028 -1.8908266
-2.3330078 5.5226474 -1.89052
-2.3019962 5.5438914 -1.8929734
-2.2711711 5.5658436 -1.8957337
-2.2359149 5.577024 -1.8948137
-2.1992128 5.5844383 -1.8926668
-2.1638765 5.5951643 -1.8917466
-2.1308553 5.6118956 -1.8929734
-2.1026936 5.6418118 -1.8988006
-2.0654225 5.6474557 -1.896347
-2.0220573 5.6358318 -1.8880664
-1.9915433 5.6598058 -1.8920534
-1.9539858 5.6638203 -1.8892932
-1.9179776 5.6720963 -1.8880664
-1.8780521 5.6683974 -1.8828527
-1.8520449 5.7069759 -1.8920534
-1.8201615 5.7282114 -1.895427
-1.7841321 5.7365451 -1.8945069
-1.7491766 5.7482948 -1.8948137
-1.7068186 5.735199 -1.8868396
-1.6729245 5.7501335 -1.8883731
-1.6391715 5.7657838 -1.8902133
-1.6004541 5.7638102 -1.8862263
-1.5655557 5.7753592 -1.8868396
-1.5259547 5.7692127 -1.8816259
-1.4926648 5.7867627 -1.8843861
-1.458753 5.8022742 -1.8865329
-1.4251596 5.8194366 -1.8892932
-1.3914102 5.8364048 -1.8920534
-1.3525645 5.831851 -1.8877597
-1.3213571 5.8604684 -1.8945069
-1.2855766 5.8693957 -1.8948137
-1.2495385 5.8771734 -1.8948137
-1.2146056 5.8903232 -1.8966538
-1.1750866 5.8808637 -1.8911333
-1.1397026 5.8917012 -1.8923601
-1.106153 5.9126177 -1.8969605
-1.0691767 5.9155469 -1.8957337
-1.0313892 5.9135566 -1.8929734
-0.9928785 5.9066324 -1.8886797
-0.95965415 5.931406 -1.8948137
-0.92105061 5.9230747 -1.8902133
-0.88426906 5.9257903 -1.8892932
-0.85071731 5.950892 -1.8957337
-0.81315744 5.9484553 -1.8932801
-0.77615136 5.9495573 -1.8920534
-0.73857659 5.9457064 -1.8892932
-0.70085561 5.9397283 -1.8859196
-0.66334146 5.9344578 -1.8828527
-0.62701553 5.9393625 -1.8831593
-0.58999687 5.9374151 -1.8813192
-0.55267328 5.9314466 -1.8782523
-0.51725584 5.946105 -1.8819325
-0.48053205 5.9463205 -1.8810124
-0.44439039 5.9539027 -1.8825459
-0.40804407 5.9593663 -1.883466
-0.3715294 5.962708 -1.8837727
-0.33557406 5.9762793 -1.887453
-0.29889798 5.9782257 -1.887453
-0.26225215 5.9808979 -1.8877597
-0.22658375 6.0099778 -1.8966538
-0.18925536 5.996985 -1.8920534
-0.15271901 6.0084996 -1.895427
-0.11566705 5.9998074 -1.8923601
-0.078505673 5.9737558 -1.8837727
-0.042057402 6.0045819 -1.8935869
-0.0051951646 5.9780765 -1.8849995
0.031542882 5.9884653 -1.8883731
0.068121277 5.9738832 -1.8837727
0.1046738 5.9676428 -1.8819325
0.14126587 5.9659367 -1.8816259
0.17704147 5.9373674 -1.8727318
0.21367548 5.9418764 -1.8745719
0.25000945 5.9376006 -1.8736519
0.28643718 5.935955 -1.8736519
0.32316548 5.9397879 -1.875492
0.36006704 5.9452934 -1.8779455
0.39698476 5.9496202 -1.8800924
0.43410787 5.955616 -1.8828527
0.47154507 5.9642262 -1.8865329
0.50562036 5.9318213 -1.8770255
0.54409194 5.9513555 -1.8843861
0.5809691 5.951694 -1.8856128
0.61796939 5.9527507 -1.8871464
0.65615147 5.9639845 -1.8920534
0.69361407 5.9674091 -1.8945069
0.72859412 5.9498148 -1.8902133
0.76058608 5.9103041 -1.8788656
0.79811132 5.9149585 -1.8819325
0.83545572 5.9174895 -1.8843861
0.87105387 5.9075437 -1.8828527
0.90945745 5.9161987 -1.887453
0.94483805 5.9048681 -1.8856128
0.97698724 5.8745489 -1.8776388
1.017553 5.8947048 -1.8862263
1.0486678 5.8602433 -1.8770255
1.0887718 5.8761592 -1.8843861
1.1233722 5.8618898 -1.8819325
1.1570983 5.8436828 -1.8782523
1.1936958 5.8402028 -1.8794791
1.2310802 5.840219 -1.8819325
1.2662852 5.8297648 -1.8810124
1.3036954 5.8293161 -1.883466
1.3402934 5.8249173 -1.8846928
1.3762285 5.8175097 -1.8849995
1.4112232 5.8061814 -1.8840793
1.4459001 5.7937193 -1.8828527
1.479532 5.7773623 -1.8803991
1.5142275 5.7654138 -1.8794791
1.5461085 5.7431474 -1.8751854
1.5858769 5.7500677 -1.8807058
1.6156927 5.720994 -1.8742652
1.6547328 5.7246876 -1.8788656
1.6903678 5.7162519 -1.8794791
1.726513 5.7094164 -1.8807058
1.7612315 5.6978059 -1.8803991
1.7961595 5.686892 -1.8803991
1.8330666 5.6821046 -1.8825459
1.8681948 5.6716537 -1.8828527
1.9011393 5.6546712 -1.8810124
1.9357998 5.6428995 -1.8810124
1.9710168 5.6327124 -1.8816259
2.0077817 5.6267872 -1.8837727
2.0448735 5.6215167 -1.8862263
2.0780039 5.6052942 -1.8849995
2.1150501 5.5995612 -1.887453
2.1507363 5.5900311 -1.8886797
2.1863854 5.5802736 -1.8899065
2.2170558 5.5579133 -1.8868396
2.2475343 5.535387 -1.8837727
2.2836385 5.5267696 -1.8856128
2.3193521 5.5170403 -1.8871464
2.3494163 5.4939547 -1.8840793
2.381943 5.4768171 -1.8831593
2.4158885 5.4629688 -1.883466
2.4505346 5.4506469 -1.8843861
2.4807668 5.4285831 -1.8819325
2.5140293 5.413259 -1.8819325
2.5455716 5.3942885 -1.8807058
2.5823271 5.3862915 -1.883466
2.6132436 5.3660669 -1.8819325
2.6452758 5.3482251 -1.8813192
2.6853073 5.3463511 -1.8865329
2.7102749 5.3145132 -1.8810124
2.746773 5.3053894 -1.8837727
2.7775028 5.2850657 -1.8825459
2.8125677 5.2729621 -1.8843861
2.8430562 5.2522578 -1.8831593
2.8761466 5.2363825 -1.8837727
2.9110034 5.2236242 -1.8856128
2.94628 5.2114635 -1.8877597
2.9758332 5.1891594 -1.8862263
3.0119257 5.1782064 -1.8889865
3.0426745 5.1579885 -1.8883731
3.074266 5.1392221 -1.8883731
3.1067293 5.1218896 -1.8889865
3.1341081 5.0962453 -1.8865329
3.165319 5.0769186 -1.8865329
3.200989 5.0646415 -1.8892932
3.2232735 5.0312824 -1.8840793
3.2566767 5.0154009 -1.8856128
3.2852957 4.9921436 -1.8843861
3.3137522 4.9687247 -1.8831593
3.3484421 4.9546065 -1.8856128
3.3803937 4.9363232 -1.8865329
3.4138753 4.9201798 -1.8883731
3.4440007 4.8991399 -1.8883731
3.4717872 4.874815 -1.8871464
3.5016332 4.8534207 -1.8871464
3.5313473 4.8318439 -1.8871464
3.5569632 4.8047309 -1.8849995
3.5875199 4.784338 -1.8856128
3.6173842 4.7629933 -1.8859196
3.651185 4.7467422 -1.8883731
3.6761463 4.7189946 -1.8862263
3.705622 4.6970963 -1.8865329
3.7325902 4.67204 -1.8856128
3.7599895 4.6475697 -1.8849995
3.7842124 4.6192584 -1.8828527
3.8143079 4.5981493 -1.8837727
3.8442867 4.5768447 -1.8846928
3.8716805 4.5524454 -1.8843861
3.9038894 4.5336514 -1.8865329
3.9353876 4.513916 -1.8883731
3.9623804 4.4889708 -1.8880664
3.9968278 4.4723787 -1.89144
4.0107813 4.4329515 -1.8849995
4.0494804 4.4208894 -1.89052
4.0836511 4.403635 -1.8938936
4.1008205 4.3680882 -1.8892932
4.1295128 4.344913 -1.8902133
4.1620355 4.325665 -1.8929734
4.1772065 4.2884569 -1.8877597
4.2007675 4.260035 -1.8865329
4.2322083 4.2395673 -1.8889865
4.2588186 4.2141886 -1.8892932
4.2866387 4.1899729 -1.8902133
4.323225 4.1741676 -1.8951203
4.3453112 4.1442785 -1.8935869
4.3727369 4.1194959 -1.8945069
4.4000225 4.0945325 -1.895427
4.4271655 4.0693893 -1.896347
4.4506421 4.0408688 -1.8957337
4.4739351 4.0122132 -1.8951203
4.4991817 3.9853172 -1.895427
4.5199685 3.9545028 -1.8938936
4.5441475 3.9266944 -1.8938936
4.5565701 3.888854 -1.8889865
4.5941758 3.8724749 -1.8948137
4.6317511 3.8557801 -1.9006407
4.647234 3.8206403 -1.8972671
4.681675 3.8010504 -1.9018675
4.6922836 3.7621334 -1.8966538
4.7212501 3.7379966 -1.8991073
4.7395973 3.7054408 -1.8972671
4.7592301 3.6739633 -1.8960404
4.7763839 3.6406543 -1.8938936
4.8016748 3.6135671 -1.8951203
4.8344545 3.5919816 -1.8994139
4.8771286 3.5774462 -1.9076947
4.8951325 3.544663 -1.9061612
4.8896847 3.495193 -1.895427
4.9328175 3.4804852 -1.9040143
4.9454875 3.4441707 -1.9006407
4.9618206 3.4105268 -1.8988006
4.9818664 3.3794832 -1.8984939
5.0001354 3.3472636 -1.8975738
5.0245509 3.3191426 -1.8991073
5.0551896 3.2950046 -1.9030943
5.0809169 3.2675273 -1.9052411
5.1000667 3.2357802 -1.9049344
5.1149836 3.2013969 -1.9030943
5.1337204 3.169452 -1.9027876
5.1579494 3.1408615 -1.9046278
5.1730442 3.1067045 -1.9030943
5.1936474 3.0758746 -1.9037077
5.2148886 3.0453885 -1.9046278
5.2442007 3.0195053 -1.9086148
5.2576623 2.9844522 -1.9067746
5.2825212 2.9558527 -1.9092282
5.3138952 2.9307363 -1.9141352
5.3367958 2.9008019 -1.9159753
5.3729553 2.8778849 -1.9227226
5.346736 2.8217702 -1.9067746
5.3327003 2.7726703 -1.895427
5.3530016 2.741632 -1.8966538
5.3841715 2.7160199 -1.9018675
5.43995 2.7024038 -1.9159753
5.4188056 2.6505795 -1.902481
5.4452591 2.6222341 -1.9061612
5.4707079 2.593256 -1.9095348
5.4856544 2.5592372 -1.9092282
5.4960637 2.5231481 -1.907388
5.5235868 2.4948602 -1.9116817
5.5431404 2.4628527 -1.9132152
5.568615 2.4333658 -1.9168955
5.5764446 2.3961468 -1.9144419
5.5884113 2.3607745 -1.9135219
5.5992751 2.324981 -1.9122951
5.5940461 2.2826731 -1.9055479
5.6026459 2.2461815 -1.9037077
5.6145515 2.2110648 -1.9030943
5.6333394 2.178632 -1.9049344
5.6501608 2.1453762 -1.9061612
5.6676779 2.1123283 -1.9076947
5.6778502 2.0765321 -1.9067746
5.7039242 2.0464733 -1.911375
5.7289443 2.0158567 -1.9156687
5.7403059 1.9803563 -1.915362
5.7559557 1.946316 -1.9165888
5.7686934 1.9112607 -1.9168955
5.7803121 1.8758287 -1.9168955
5.7862701 1.8385977 -1.9150553
5.7901711 1.8007993 -1.9126017
5.8083968 1.7674528 -1.9150553
5.8209572 1.7323225 -1.9156687
5.8333049 1.6971046 -1.9162821
5.8426924 1.66102 -1.9159753
5.8518572 1.6248842 -1.9156687
5.8764162 1.5929289 -1.9205757
5.8888407 1.5575715 -1.9214958
5.8945999 1.5204587 -1.9202691
5.914896 1.4870442 -1.9239494
5.9285316 1.4518542 -1.9254829
5.9299212 1.4136858 -1.9230293
5.9403381 1.3777035 -1.9236426
5.9496083 1.3414376 -1.9239494
5.9595866 1.3053131 -1.9245628
5.9600358 1.2671392 -1.9221092
5.9602404 1.2290088 -1.9196557
5.9816704 1.1952091 -1.9242561
5.9795461 1.156678 -1.9211892
5.9706254 1.1169939 -1.9159753
5.9970369 1.083889 -1.922416
6.0167022 1.0493585 -1.9267097
6.0239663 1.0125786 -1.9270163
6.0460396 0.97817838 -1.9322301
6.0444036 0.9398936 -1.9297765
6.0321698 0.90012252 -1.9239494
6.0413485 0.86363095 -1.9251761
6.0305018 0.82435721 -1.9199624
6.0345025 0.78721631 -1.9196557
6.048665 0.75134599 -1.9227226
6.0663948 0.71577686 -1.9270163
6.0744567 0.67896289 -1.928243
6.0804014 0.64187741 -1.9288565
6.0918026 0.60530818 -1.9313099
6.1077223 0.56906372 -1.935297
6.1158404 0.53198826 -1.9368304
6.1199384 0.49452865 -1.9371371
6.1171622 0.45654413 -1.935297
6.1075039 0.41815847 -1.9313099
6.1118546 0.38079369 -1.9319234
6.1140757 0.34328488 -1.9319234
6.1084623 0.30538437 -1.9294698
6.1187792 0.26827142 -1.9322301
6.1326747 0.23118605 -1.9362171
6.1197076 0.19310471 -1.9316167
6.1179228 0.15547925 -1.9306966
6.1282783 0.11811909 -1.9337635
6.1403084 0.08066234 -1.9374439
6.1463981 0.043023504 -1.939284
6.1446428 0.005307816 -1.9386706
6.1569333 -0.03246266 -1.9426576
6.161377 -0.070295461 -1.9441911
6.1646361 -0.10816714 -1.9454179
6.1648078 -0.14601332 -1.9457245
6.1733098 -0.18412265 -1.9487915
6.1720638 -0.2219979 -1.9487915
6.1800952 -0.26026705 -1.9518584
6.1717267 -0.29786009 -1.9497116
6.165031 -0.335464 -1.9481781
6.1600065 -0.37311244 -1.947258
6.1490541 -0.41033056 -1.9444977
6.1435728 -0.44784459 -1.9435776
6.1331186 -0.48493078 -1.9411242
6.148046 -0.52409315 -1.9469513
6.1589322 -0.56310958 -1.9515517
6.1847272 -0.60376173 -1.9610591
6.155345 -0.63904065 -1.9527785
6.1598229 -0.67773551 -1.9555386
6.1801295 -0.71838063 -1.9635127
6.1945 -0.75860512 -1.9696466
6.1708484 -0.79416627 -1.9635127
6.1432219 -0.82895595 -1.9561521
6.1380196 -0.86663443 -1.9561521
6.1297617 -0.90386325 -1.955232
6.1335077 -0.94290572 -1.9582989
6.1106896 -0.97781223 -1.9527785
6.0961251 -1.0138813 -1.9500182
6.0785346 -1.0493224 -1.9463379
6.0635495 -1.0850892 -1.9435776
6.0053058 -1.1127268 -1.9267097
0 -0 -0
5.7129722 -1.1311902 -1.8353153
5.5697799 -1.1383688 -1.7905383
5.5021558 -1.1597503 -1.7706033
0 -0 -0
5.3769794 -1.2024412 -1.7341069
5.3398194 -1.2285756 -1.7242928
5.2997632 -1.2536416 -1.7135586
5.271625 -1.2811872 -1.7068113
5.2904444 -1.3201979 -1.7157054
5.29884 -1.3568882 -1.7212259
5.3106666 -1.3946989 -1.7279731
5.2808709 -1.4215633 -1.7209191
5.2867293 -1.4579912 -1.7258263
5.2795153 -1.4909202 -1.7264396
5.2638674 -1.5214353 -1.7242928
5.2361794 -1.5483035 -1.718159
5.2147374 -1.5768191 -1.7141719
5.1904154 -1.6042862 -1.7092649
5.1686754 -1.6323749 -1.7052778
5.1431642 -1.6590878 -1.7000641
5.1274633 -1.6888267 -1.6982239
5.1142979 -1.7193459 -1.6973039
5.0811458 -1.7429687 -1.6896366
5.0676608 -1.7731695 -1.6887164
5.044136 -1.7997501 -1.6844227
5.0294204 -1.8293643 -1.6831959
5.0216703 -1.8615139 -1.6844227
5.0226188 -1.8970021 -1.6887164
4.9931188 -1.9209456 -1.6825826
4.9865551 -1.953631 -1.6844227
4.9762421 -1.9848968 -1.6850362
4.9560328 -2.0121689 -1.6822759
4.9462318 -2.0436316 -1.6831959
4.9309673 -2.0728354 -1.6822759
4.9155307 -2.1019292 -1.6813558
4.8676305 -2.1168597 -1.6690881
4.8684764 -2.152849 -1.6739953
4.8534393 -2.1819 -1.6733818
4.8339005 -2.2088687 -1.671235
4.8193932 -2.2380862 -1.6709284
4.8004055 -2.265177 -1.6690881
4.7812672 -2.2921193 -1.667248
4.7645459 -2.3201628 -1.666328
4.760457 -2.3544195 -1.6700082
4.731463 -2.3763196 -1.6647944
4.7040758 -2.3988178 -1.660194
4.7044811 -2.4355164 -1.6657145
4.6692295 -2.4537058 -1.6583539
4.6633229 -2.4872386 -1.6617275
4.661365 -2.5230575 -1.6666346
4.6457963 -2.5516117 -1.6666346
4.6350403 -2.5828507 -1.6684748
4.643959 -2.6252997 -1.6776755
4.6170306 -2.6475875 -1.6736885
4.5990529 -2.6749098 -1.6730752
4.5653396 -2.6929197 -1.6666346
4.5560808 -2.7252805 -1.6693949
4.5547338 -2.7625666 -1.675222
4.5466142 -2.7959483 -1.6785957
4.551178 -2.8373938 -1.6868763
4.5256376 -2.8601789 -1.6838094
4.5007906 -2.8832717 -1.6810491
4.4718399 -2.9035747 -1.6767554
4.4428101 -2.9236312 -1.6724617
4.4374552 -2.9592888 -1.6773689
4.4152713 -2.9837954 -1.6758354
4.4039469 -3.0156722 -1.6785957
4.3712859 -3.0328681 -1.6730752
4.3222308 -3.0382788 -1.6611142
4.3035069 -3.0647423 -1.6611142
4.2892518 -3.0944328 -1.6629543
4.2625003 -3.1150753 -1.6598874
4.2410116 -3.1394713 -1.6589673
4.2262368 -3.1688616 -1.6608075
4.2051978 -3.1935821 -1.660194
4.1945753 -3.22629 -1.6638744
4.1762013 -3.2531369 -1.6644877
4.1681166 -3.2881351 -1.6693949
4.1590152 -3.3225617 -1.6739953
4.1415095 -3.3504138 -1.675222
4.1142483 -3.3703325 -1.6724617
4.0905609 -3.3930824 -1.671235
4.0587339 -3.4089329 -1.6666346
4.0319409 -3.4288385 -1.6641811
4.0173163 -3.4591045 -1.6669413
3.9795179 -3.4692998 -1.6598874
3.9610095 -3.4961724 -1.6611142
3.952965 -3.532464 -1.6669413
3.9326272 -3.55793 -1.6675547
3.919143 -3.5897095 -1.671235
3.8900652 -3.6072161 -1.6681681
2.3893716 -2.2424586 -1.014607
2.3762569 -2.2577331 -1.0149137
2.3726454 -2.282172 -1.0195141
3.7799175 -3.6816688 -1.6589673
3.7565784 -3.7041242 -1.6586607
3.7378206 -3.7311399 -1.6605008
3.7041469 -3.7431774 -1.6555938
3.6744576 -3.7590272 -1.6525267
3.6500015 -3.7801328 -1.6519134
3.6405306 -3.8169246 -1.6583539
3.6268299 -3.8495843 -1.6629543
3.6193478 -3.8891883 -1.6706216
3.5780287 -3.8923995 -1.6623409
3.5451224 -3.9044132 -1.6580472
3.5198281 -3.9246747 -1.6574339
3.4843228 -3.9333713 -1.6519134
3.4544833 -3.9482284 -1.6491531
3.4208596 -3.9585459 -1.6445528
3.3835332 -3.9642553 -1.6381122
3.3530123 -3.9776628 -1.6350453
3.3364575 -4.0076728 -1.6390324
3.3226817 -4.0413055 -1.6445528
3.2918243 -4.0542269 -1.6414858
3.2781959 -4.0884604 -1.647313
3.2565918 -4.1129761 -1.6491531
2.0040209 -2.5624669 -1.0069396
1.9865158 -2.5724545 -1.0060196
1.9643489 -2.576267 -1.002646
1.9462155 -2.5852292 -1.0014192
1.9297487 -2.5963581 -1.0011126
1.9165955 -2.6119878 -1.002646
1.7766367 -2.4525316 -0.9345603
1.6746792 -2.3418007 -0.88640964
1.6844164 -2.386256 -0.89990413
3.043932 -4.3705502 -1.6749153
3.0192134 -4.3922834 -1.6761421
2.9777834 -4.3894558 -1.6678613
2.9555581 -4.4147639 -1.6706216
2.9153023 -4.4129591 -1.6629543
2.8975224 -4.4451184 -1.6684748
2.8429151 -4.4203792 -1.6522201
2.8514218 -4.4940052 -1.6736885
2.8005717 -4.474299 -1.6595807
2.7885609 -4.5165086 -1.6690881
2.7612906 -4.5343471 -1.6693949
2.7363555 -4.5561008 -1.671235
2.6981661 -4.5556049 -1.6647944
2.6677635 -4.5679646 -1.6632611
2.6406343 -4.5858979 -1.6638744
2.6082189 -4.5945635 -1.6611142
2.5776548 -4.6063271 -1.6595807
2.5447474 -4.6137214 -1.6565138
2.5154815 -4.6275759 -1.6559004
2.4811997 -4.6320152 -1.6519134
2.4589486 -4.6589384 -1.6562071
2.439533 -4.6916742 -1.6626476
2.411567 -4.7082491 -1.6632611
2.3830607 -4.7238073 -1.6635677
2.3603806 -4.7511282 -1.6681681
2.325331 -4.7535505 -1.6638744
1.4795964 -3.0713315 -1.0572373
1.4603157 -3.0794923 -1.0569305
1.4405882 -3.0866694 -1.0563171
2.2036061 -4.7996693 -1.6605008
2.161974 -4.7862077 -1.6509933
2.1325657 -4.7993832 -1.6509933
2.0981245 -4.8010387 -1.6470063
2.0678754 -4.8120732 -1.6463929
2.0371995 -4.8220401 -1.6454729
2.0141406 -4.8502736 -1.6509933
2.005908 -4.9154205 -1.6693949
1.9711076 -4.9161501 -1.6654079
1.9377682 -4.9201813 -1.6626476
1.9071989 -4.9310908 -1.6623409
1.8748802 -4.9373608 -1.6605008
1.8455466 -4.951448 -1.6614208
1.8164374 -4.9662542 -1.6626476
1.7888221 -4.9853702 -1.6654079
1.7528309 -4.9809875 -1.660194
1.7209941 -4.98805 -1.6589673
1.690051 -4.9976139 -1.6586607
1.6584568 -5.0051794 -1.6577406
1.6247782 -5.0062075 -1.6546736
1.59403 -5.0160823 -1.6546736
1.561527 -5.0203152 -1.6528335
1.5298628 -5.02707 -1.6519134
1.4984457 -5.0345378 -1.6513
1.4691205 -5.0491214 -1.6531402
1.4394126 -5.0626187 -1.6546736
1.4075584 -5.068604 -1.6537535
1.3771781 -5.0799012 -1.6546736
1.3459824 -5.0882559 -1.6546736
1.3161615 -5.1019487 -1.6565138
1.2869188 -5.1182365 -1.659274
1.2543585 -5.1214142 -1.6577406
1.2246749 -5.1364217 -1.660194
0.74621826 -3.2151809 -1.0222743
0 -0 -0
1.1368407 -5.1897068 -1.6706216
0.68691087 -3.2283716 -1.0222743
0.66670495 -3.2306612 -1.0216609
0.6502232 -3.2514923 -1.0271814
0.63387197 -3.274111 -1.0333152
0.61307108 -3.2741964 -1.0320884
0.59161657 -3.2704031 -1.029635
0.57447904 -3.2908502 -1.0351554
0.55506396 -3.2990065 -1.0366888
0.53906262 -3.3286595 -1.0452762
0.52359462 -3.3638825 -1.0557038
0.5019623 -3.3604422 -1.0535569
0.4818716 -3.3672278 -1.0547837
0.46532106 -3.4002991 -1.0645978
0.4369489 -3.3455164 -1.0458896
0.40996969 -3.2961831 -1.0290215
0.38906884 -3.2929649 -1.0271814
0.36579531 -3.267858 -1.0182873
0.35022572 -3.3126364 -1.0320884
0.33327481 -3.3488209 -1.0431293
0.31351364 -3.3593323 -1.0458896
0.29256603 -3.3573997 -1.0446628
0.26989484 -3.3335159 -1.0363821
0.25381669 -3.3939586 -1.055397
0.23324633 -3.3992505 -1.0566238
0.21203049 -3.3949177 -1.0547837
0.1899194 -3.373347 -1.047423
0.16874389 -3.3649426 -1.0443561
0.14709753 -3.3430929 -1.0369955
0.12490512 -3.2992291 -1.022581
0.10582283 -3.3370357 -1.034542
0.085897222 -3.3595068 -1.0415959
0.065245733 -3.3580673 -1.0409825
0.044368666 -3.3374665 -1.0342352
0.023947876 -3.346242 -1.0369955
0.0034101219 -3.3387115 -1.034542
-0.017107069 -3.3443801 -1.0363821
-0.037748881 -3.3546815 -1.0397557
-0.058180224 -3.3458219 -1.0369955
-0.078663275 -3.3434987 -1.0363821
-0.098948695 -3.3353422 -1.0339286
-0.11927454 -3.3308675 -1.0327018
-0.1387447 -3.3072498 -1.0253413
-0.15931135 -3.3120406 -1.0271814
-0.17931929 -3.3052983 -1.0253413
-0.19930823 -3.2993855 -1.0238078
-0.22043885 -3.3113959 -1.0281014
-0.2411693 -3.3156767 -1.0299416
-0.26241177 -3.3255205 -1.0336219
-0.28394616 -3.3371248 -1.0379156
-0.30476436 -3.3391111 -1.0391424
-0.32608092 -3.3457038 -1.0419025
-0.34581593 -3.3360665 -1.0394491
-0.36398518 -3.3130679 -1.0327018
-0.38232559 -3.2937546 -1.0271814
-0.40252849 -3.2913468 -1.0271814
-0.41906622 -3.2604947 -1.0179806
-0.43791723 -3.249373 -1.0152204
-0.45718056 -3.2419126 -1.0136869
-0.47609079 -3.2324553 -1.0115401
-0.50416929 -3.2830946 -1.0290215
-0.52023917 -3.254564 -1.0207409
-0.55192381 -3.321727 -1.0437428
-0.57894081 -3.3567319 -1.0563171
-0.60422593 -3.3793495 -1.0649046
-0.6235612 -3.3680916 -1.062451
-0.64493299 -3.3679411 -1.0636778
-0.66188496 -3.3452477 -1.0575439
-0.67667508 -3.3131487 -1.0483432
-0.69758093 -3.3117282 -1.0492632
-0.72941428 -3.3604002 -1.0667447
-0.79680026 -3.5648465 -1.1357504
-0.77807295 -3.3836596 -1.0774789
-0.80232877 -3.393641 -1.082386
-0.82313669 -3.3886542 -1.082386
-0.84714264 -3.3964679 -1.0866797
-0.858751 -3.3552477 -1.0747187
-0.85561007 -3.2597024 -1.0446628
-0.81716043 -3.037498 -0.97228348
-0.8294518 -3.0094893 -0.96461618
-0.84609002 -2.9979317 -0.96246934
-0.86473358 -2.993598 -0.96277601
-1.0038134 -3.3962061 -1.0998675
-1.0334549 -3.4191351 -1.1096816
-1.0670718 -3.4536483 -1.1234827
-1.093406 -3.4633718 -1.1290032
-1.146508 -3.5553279 -1.1624327
-1.1256942 -3.4189582 -1.1185757
-1.0680461 -3.1783361 -1.0391424
-1.0838196 -3.1609201 -1.035462
-1.0969034 -3.1362436 -1.0293282
-1.106845 -3.1034589 -1.0204341
-1.117728 -3.074249 -1.0127668
-1.1375633 -3.0700099 -1.0136869
-1.1755593 -3.1137218 -1.0311683
-1.4774357 -3.841043 -1.2848028
-1.4349712 -3.6635373 -1.2265313
-1.476123 -3.7015154 -1.242786
-1.4307411 -3.524843 -1.1845145
-1.4236141 -3.4465094 -1.1602858
-1.4052478 -3.3438323 -1.1274698
-1.4167527 -3.3141451 -1.1201091
-1.4412388 -3.31499 -1.1234827
-1.4534645 -3.2878058 -1.1170422
-1.4720489 -3.2753534 -1.1158154
-1.478662 -3.2368283 -1.1053879
-1.4920777 -3.2138836 -1.1004808
-1.5109569 -3.2029464 -1.0998675
-1.5186437 -3.1687276 -1.0909734
-1.5301369 -3.1430924 -1.0851462
-1.5278646 -3.0901377 -1.0695049
-1.5502155 -3.0875084 -1.0719584
-1.5937879 -3.1262648 -1.0894399
-1.5910517 -3.0741687 -1.0741053
-1.6001395 -3.045814 -1.067358
-1.6291047 -3.0552521 -1.074412
-1.6265177 -3.0058615 -1.0599974
-1.6288873 -2.9666293 -1.0492632
-1.6526215 -2.9665546 -1.0529435
-1.669387 -2.9538732 -1.0520234
-1.6912695 -2.9501791 -1.054477
-1.7217863 -2.9611354 -1.062451
-1.7278291 -2.9300222 -1.0547837
-1.7462636 -2.920182 -1.0550903
-1.7641487 -2.9094121 -1.0550903
-1.7884512 -2.9090714 -1.0590774
-1.8062673 -2.8980429 -1.0590774
-1.8250327 -2.8885143 -1.0596907
-1.8406675 -2.8740563 -1.0584639
-1.8541197 -2.8563225 -1.0560105
-1.8684704 -2.8401222 -1.0541703
-1.877938 -2.8167276 -1.0495698
-1.8951858 -2.8051519 -1.0495698
-1.9129002 -2.7942557 -1.0498766
-1.9696298 -2.8395445 -1.0722651
-1.9656621 -2.7970419 -1.0603042
-1.96898 -2.7655487 -1.0526369
-1.9836837 -2.7503281 -1.0514101
-1.9949044 -2.7304213 -1.0483432
-2.0048227 -2.7089508 -1.0446628
-2.0145528 -2.6874616 -1.0409825
-2.0281258 -2.6712606 -1.0394491
-2.0380931 -2.6504683 -1.0360755
-2.0549028 -2.6386638 -1.0363821
-2.0728238 -2.6282468 -1.0373023
-2.090694 -2.6177094 -1.0382223
-2.1192913 -2.6203687 -1.0446628
-2.1461895 -2.6205666 -1.0501833
-2.1664834 -2.6124756 -1.0523301
-2.1959434 -2.6151648 -1.0590774
-2.2144156 -2.6045413 -1.0603042
-2.2315974 -2.5923471 -1.0609175
-2.2261906 -2.5542169 -1.05049
-2.2468612 -2.5462167 -1.0529435
-2.2478514 -2.516062 -1.0458896
-2.2658024 -2.5050447 -1.0471164
-2.2914188 -2.5023229 -1.0520234
-2.3041403 -2.4854248 -1.0507966
-2.3258634 -2.478178 -1.0538636
-2.3331552 -2.4555826 -1.0501833
-2.3494985 -2.4425919 -1.0507966
-2.3551421 -2.418586 -1.0465029
-2.3518903 -2.3857944 -1.0382223
-2.38868 -2.3935437 -1.0483432
-2.4141488 -2.3895514 -1.0532502
-2.419915 -2.3660462 -1.0492632
-2.4398661 -2.3564413 -1.0517168
-2.4487679 -2.3361719 -1.0492632
-2.4554341 -2.3139248 -1.0458896
-2.4737673 -2.3027046 -1.0477297
-2.4892516 -2.2887704 -1.0483432
-2.5060675 -2.2760122 -1.0495698
-2.5334516 -2.2726638 -1.055397
-2.5616009 -2.2696955 -1.0615309
-2.5733297 -2.2520554 -1.0606108
-2.582778 -2.2324903 -1.0587707
-2.6000481 -2.2196894 -1.0603042
-2.6172583 -2.2067604 -1.0618376
-2.6292863 -2.1894422 -1.0612242
-2.6360526 -2.167829 -1.0584639
-2.6485655 -2.1510139 -1.0581573
-2.6557724 -2.1299601 -1.0557038
-2.6598353 -2.1065364 -1.0520234
-2.6772106 -2.0936928 -1.0538636
-2.7035706 -2.087693 -1.0593841
-2.7110298 -2.0670269 -1.0572373
-2.7229013 -2.0497813 -1.0569305
-2.7400119 -2.0364404 -1.0587707
-2.7470827 -2.0156498 -1.0566238
-2.7586277 -1.998198 -1.0563171
-2.7762575 -1.9851073 -1.0584639
-2.7914968 -1.9702294 -1.0596907
-2.8933673 -2.0156014 -1.0949603
-2.8248782 -1.9422932 -1.0633711
-2.8572249 -1.938812 -1.0713451
-2.8310976 -1.895836 -1.0566238
-2.8490312 -1.8826247 -1.0590774
-2.8661113 -1.8687451 -1.0612242
-2.8823278 -1.8542118 -1.0630643
-2.9000812 -1.8405694 -1.0655179
-2.9210029 -1.8287979 -1.0691983
-2.9345992 -1.8123401 -1.0701183
-2.9546077 -1.7997434 -1.0734919
-2.9696753 -1.7840297 -1.0750253
-2.9953091 -1.7745022 -1.0805458
-3.0225811 -1.7656864 -1.0866797
-3.0325332 -1.7466322 -1.086373
-3.0448489 -1.7289314 -1.0869863
-3.0753372 -1.7213669 -1.094347
-3.1225171 -1.722683 -1.1078414
-3.151428 -1.7134876 -1.1145886
-3.172791 -1.6999588 -1.1185757
-3.2277806 -1.7039957 -1.1348304
-3.266046 -1.6986426 -1.1449512
-3.303519 -1.6924498 -1.1547654
-3.3291395 -1.6798612 -1.1602858
-3.3555818 -1.6674451 -1.1661129
-3.408504 -1.667727 -1.1814475
-3.4263916 -1.6504966 -1.1842078
-3.4863429 -1.6530786 -1.201996
-3.664634 -1.7100937 -1.2618009
-3.7260981 -1.7109957 -1.2798958
-3.7651541 -1.7010244 -1.2900167
-3.7676914 -1.6744131 -1.2872564
-3.9340265 -1.7194545 -1.3421543
-4.0538235 -1.742233 -1.3804908
-4.0889893 -1.7276927 -1.3890781
-4.1127 -1.7080431 -1.3936785
-4.1442552 -1.6914023 -1.4010391
-4.2252369 -1.6942635 -1.4255745
-4.2284679 -1.6655173 -1.423121
-4.3193974 -1.6707673 -1.45103
-4.4666104 -1.696238 -1.4982606
-4.5010166 -1.6777698 -1.5065413
-4.5255299 -1.6553485 -1.5114484
-4.5508327 -1.6330106 -1.5166621
-4.9756002 -1.7509364 -1.6583539
-5.0177441 -1.7312322 -1.6690881
-5.0580287 -1.7104669 -1.679209
-5.1208358 -1.6967514 -1.6969972
-5.1356773 -1.6667668 -1.6985306
-5.1766515 -1.6450176 -1.7089581
-5.2248225 -1.6250881 -1.7218392
-5.3722014 -1.6348122 -1.7681497
-5.4469061 -1.6210818 -1.7899249
-5.5700822 -1.6205785 -1.8279548
-5.7081022 -1.622785 -1.8708916
-5.8261766 -1.6177588 -1.9070814
-5.8800912 -1.5939243 -1.9218025
-5.9072447 -1.5624356 -1.9276297
-5.9259372 -1.5285356 -1.9306966
-5.937974 -1.4928416 -1.9316167
-5.9525695 -1.4577361 -1.9334568
-5.9734387 -1.4240515 -1.9374439
-5.9857731 -1.3882319 -1.9386706
-6.0062494 -1.3541969 -1.9426576
-6.0256033 -1.3197595 -1.9463379
-6.0261393 -1.2811801 -1.9438844
-6.0077844 -1.238803 -1.935297
-6.0218062 -1.203221 -1.9374439
-6.0178614 -1.1640821 -1.9337635
-6.0258265 -1.1273102 -1.9340702
-6.061667 -1.0955575 -1.9435776
-6.0598359 -1.056873 -1.9408175
-6.0690227 -1.0201434 -1.9417375
-6.0864429 -0.98470742 -1.9454179
-6.0810843 -0.94559032 -1.9417375
-6.1140728 -0.9123283 -1.9506316
-6.1214399 -0.87506491 -1.951245
-6.1332955 -0.8383891 -1.9533918
-6.1439872 -0.80147779 -1.955232
-6.149734 -0.76388109 -1.9555386
-6.1514697 -0.72579855 -1.9546186
-0 -0 -0
-0 -0 -0
-0 -0 -0
-0 -0 -0
-0 -0 -0
-0 -0 -0
-0 -0 -0
-0 -0 -0
-0 -0 -0
-0 -0 -0
-0 -0 -0
-0 -0 -0
-0 -0 -0
-0 -0 -0
-0 -0 -0
-0 -0 -0
-0 -0 -0
-0 -0 -0
-0 -0 -0
-0 0 -0
-0 0 -0
-0 0 -0
-0 0 -0
-0 0 -0
-0 0 -0
-0 0 -0
-0 0 -0
-0 0 -0
-0 0 -0
-6.1680479 0.41160157 -1.9506316
-0 -0 -0
-0 -0 -0
-0 -0 -0
-0 -0 -0
-0 -0 -0
-0 0 -0
-0 0 -0
-0 0 -0
-0 0 -0
-0 0 -0
-0 0 -0
-0 0 -0
-0 0 -0
-0 0 -0
-0 0 -0
-0 0 -0
-0 0 -0
-0 0 -0
-0 0 -0
-0 0 -0
-0 0 -0
-0 0 -0
-0 0 -0
-0 0 -0
-0 0 -0
-0 0 -0
-0 0 -0
-0 0 -0
-0 0 -0
-0 0 -0
-0 0 -0
-5.8322954 0.96995884 -1.9345064
-5.8215609 1.0049205 -1.9329215
-5.8124843 1.040121 -1.9319706
-5.7966671 1.0740389 -1.9288009
-5.793694 1.1103002 -1.9300689
-5.7811899 1.1447238 -1.928167
-5.7647648 1.1782763 -1.9249972
-5.7629948 1.2147994 -1.9268991
-5.7452374 1.2479239 -1.9234123
-5.7300673 1.281497 -1.9208765
-5.718399 1.3157815 -1.9196087
-5.701911 1.3488796 -1.9167559
-5.6990571 1.385184 -1.9186578
-5.6950517 1.4212747 -1.9202427
-5.6678476 1.4514875 -1.9139031
-5.6780987 1.4912956 -1.9205596
-5.6743364 1.5275866 -1.9224614
-5.6401701 1.5555682 -1.9139031
-5.6405592 1.5929811 -1.9173899
-5.6124558 1.6222949 -1.9110503
-5.6114912 1.6593906 -1.9142201
-5.604835 1.6948887 -1.915488
-5.5807376 1.725047 -1.9107335
-5.5519595 1.7535455 -1.9043939
-5.557343 1.792819 -1.9100995
-5.5462379 1.8268845 -1.9100995
-5.5313282 1.8596724 -1.9088316
-5.5225048 1.8945001 -1.9097825
-5.5116715 1.9286631 -1.9100995
-5.5024133 1.9634018 -1.9110503
-5.4947195 1.9987478 -1.9126352
-5.4912448 2.0357213 -1.915805
-5.470665 2.066361 -1.9129522
-5.4552274 2.0988679 -1.9120013
-5.4360647 2.1298797 -1.9097825
-5.4290605 2.1656539 -1.9120013
-5.403367 2.1939309 -1.9075637
-5.4204841 2.2397184 -1.9186578
-5.387404 2.2648509 -1.9116843
-5.3638129 2.2937632 -1.9081976
-5.3661628 2.3338177 -1.9142201
-5.3569465 2.3690012 -1.916122
-5.3457699 2.4033813 -1.9173899
-5.3386865 2.4396846 -1.9202427
-5.3270574 2.473994 -1.9215105
-5.3092036 2.5054195 -1.9205596
-5.288599 2.5354891 -1.9186578
-5.266973 2.5649853 -1.9164389
-5.253686 2.5985157 -1.9173899
-5.2359476 2.6298516 -1.9167559
-5.2171779 2.6606369 -1.915805
-5.2015963 2.6930346 -1.916122
-5.1799369 2.7222536 -1.9142201
-5.1606255 2.7526469 -1.9132692
-5.1286244 2.7761343 -1.9075637
-5.1189756 2.8116596 -1.9104165
-5.1016273 2.8430161 -1.9104165
-5.0824356 2.873332 -1.9097825
-5.0671778 2.9058785 -1.9107335
-5.0410533 2.9321475 -1.9075637
-5.0335875 2.9692872 -1.9116843
-5.0112038 2.9976828 -1.9100995
-4.9927158 3.0283744 -1.9100995
-4.975656 3.0599458 -1.9107335
-4.9575915 3.09092 -1.9110503
-4.9385328 3.1212809 -1.9110503
-4.9192882 3.1515245 -1.9110503
-4.9022446 3.1831987 -1.9120013
-4.8770742 3.209569 -1.9097825
-4.8588672 3.2404861 -1.9104165
-4.8388925 3.2702386 -1.9104165
-4.8109097 3.2945096 -1.9072467
-4.7867084 3.3212638 -1.9056618
-4.7701187 3.3532989 -1.9072467
-4.7525439 3.3847053 -1.9085146
-4.730917 3.4132478 -1.9081976
-4.7144794 3.4455693 -1.9100995
-4.697823 3.4778175 -1.9120013
-4.6794305 3.5088532 -1.9132692
-4.6547909 3.5352051 -1.9120013
-4.6315084 3.5625434 -1.9113673
-4.5998344 3.5833182 -1.9072467
-4.5785055 3.6120622 -1.9075637
-4.5607023 3.6436391 -1.9094656
-4.5419469 3.6745369 -1.9110503
-4.5193148 3.7023365 -1.9110503
-4.4979725 3.7312078 -1.9116843
-4.4749937 3.7587366 -1.9116843
-4.4525685 3.7867384 -1.9120013
-4.4292498 3.8139875 -1.9120013
-4.4021897 3.8379769 -1.9104165
-4.3714466 3.8586402 -1.9072467
-4.3469806 3.8847582 -1.9069297
-4.3096991 3.8992686 -1.9009073
-4.2870913 3.9269202 -1.9015411
-4.2670884 3.9570205 -1.903443
-4.2427282 3.9831283 -1.903443
-4.2209582 4.0116997 -1.9047109
-4.2037821 4.0447564 -1.9081976
-4.180923 4.0724592 -1.9091486
-4.1578822 4.1000338 -1.9100995
-4.1306329 4.1234589 -1.9091486
-4.1012511 4.1446819 -1.9072467
-4.0717645 4.1656995 -1.9053448
-4.0461278 4.1906047 -1.9053448
-4.0203385 4.2153525 -1.9053448
-3.9904954 4.2357998 -1.903443
-3.956676 4.251874 -1.8996394
-3.9427083 4.2893376 -1.9056618
-3.9093018 4.3057256 -1.9021751
-3.8821754 4.3289256 -1.9018581
-3.8605721 4.3583441 -1.9043939
-3.8300097 4.3776674 -1.902492
-3.7999759 4.3974977 -1.9009073
-3.7723062 4.4200096 -1.9005903
-3.7438917 4.4416223 -1.8999563
-3.7135339 4.4608665 -1.8983715
-3.6824782 4.4791727 -1.8964696
-3.6555231 4.5024199 -1.8967866
-3.6284213 4.5255051 -1.8971035
-3.603529 4.5514011 -1.8986884
-3.5790396 4.5779095 -1.9005903
-3.5445068 4.591526 -1.8971035
-3.526042 4.6260104 -1.902492
-3.5061462 4.6589255 -1.9072467
-3.4724023 4.6734996 -1.9043939
-3.444222 4.6954827 -1.9047109
-3.4203529 4.7234411 -1.9075637
-3.3973737 4.7528257 -1.9110503
-3.3632252 4.7666082 -1.9081976
-3.3279517 4.778594 -1.9047109
-3.2974937 4.7973609 -1.9040769
-3.2605407 4.8065157 -1.8996394
-3.2235999 4.8153982 -1.8952017
-3.1924238 4.8327131 -1.8942508
-3.1621928 4.8514161 -1.8939338
-3.1323657 4.8707275 -1.8939338
-3.0998797 4.8858514 -1.8923489
-3.0718553 4.9079957 -1.8936168
-3.0366995 4.9186821 -1.8904471
-3.0148487 4.9509926 -1.8958356
-2.9824598 4.966146 -1.8945677
-2.9509652 4.9827209 -1.8939338
-2.9232063 5.0056477 -1.8958356
-2.8895974 5.0185585 -1.8939338
-2.8587496 5.0361943 -1.8939338
-2.8287206 5.0552955 -1.8945677
-2.7994812 5.0758791 -1.8958356
-2.7696424 5.0954604 -1.8967866
-2.7369814 5.1098509 -1.8958356
-2.7069046 5.1290646 -1.8967866
-2.6688187 5.1329556 -1.8920319
-2.6377056 5.1500783 -1.8923489
-2.6052012 5.1644726 -1.8917149
-2.5802159 5.1939507 -1.8967866
-2.5457971 5.2045732 -1.8948847
-2.5150492 5.2226591 -1.8958356
-2.4829562 5.2379928 -1.8958356
-2.4507697 5.2531295 -1.8958356
-2.4157207 5.2620349 -1.8936168
-2.3876832 5.2862659 -1.8971035
-2.3528912 5.2956166 -1.8952017
-2.3222528 5.3142996 -1.8967866
-2.2847328 5.3171206 -1.8926659
-2.2528028 5.3327866 -1.8932998
-2.2233131 5.3543925 -1.8961526
-2.191134 5.3696899 -1.8967866
-2.1546149 5.3742304 -1.8936168
-2.1229892 5.3908792 -1.8948847
-2.0888448 5.4011507 -1.8939338
-2.0543177 5.4103193 -1.8926659
-2.023401 5.4290433 -1.8948847
-1.9959158 5.4573894 -1.9005903
-1.9623923 5.4695334 -1.9005903
-1.9228123 5.4644732 -1.8945677
-1.888628 5.4743752 -1.8939338
-1.8540908 5.4831653 -1.8929828
-1.8257821 5.5106435 -1.8986884
-1.7892996 5.5136237 -1.8958356
-1.7476784 5.5000944 -1.8872774
-1.7169967 5.5206761 -1.8907641
-1.6825377 5.5292931 -1.8901302
-1.6466848 5.5331497 -1.8879113
-1.6105829 5.5358639 -1.8853755
-1.5765852 5.5456419 -1.8853755
-1.5435433 5.558867 -1.8866434
-1.5091575 5.567318 -1.8863264
-1.4764242 5.5819745 -1.8882283
-1.4409612 5.5863366 -1.8866434
-1.4094328 5.6061106 -1.8904471
-1.3713971 5.5999141 -1.8853755
-1.3350309 5.5999203 -1.8825227
-1.3004309 5.6070824 -1.8822057
-1.2662107 5.6158814 -1.8825227
-1.2280747 5.6068687 -1.8768172
-1.1946349 5.618937 -1.8784021
-1.163201 5.6410236 -1.8834736
-1.1280087 5.6452646 -1.8825227
-1.0947903 5.6595287 -1.8850585
-1.0612649 5.6726656 -1.8872774
-1.0269443 5.6818705 -1.8882283
-0.99238771 5.6899333 -1.8888623
-0.95666981 5.6912389 -1.8872774
-0.921731 5.6970019 -1.8872774
-0.88515377 5.6922412 -1.8837906
-0.84964997 5.6938133 -1.8825227
-0.81389165 5.6932859 -1.880621
-0.77932858 5.7009921 -1.8815719
-0.74347401 5.6990833 -1.879353
-0.70837408 5.7025967 -1.8790361
-0.67392629 5.7115455 -1.880621
-0.63897365 5.7165155 -1.8809379
-0.60468286 5.7278743 -1.8834736
-0.5695259 5.7314763 -1.8834736
-0.53452361 5.736752 -1.8841076
-0.49939576 5.7408686 -1.8844246
-0.4648492 5.7523327 -1.8872774
-0.42947415 5.7541308 -1.8869604
-0.39331627 5.7443571 -1.8828397
-0.35782596 5.7428761 -1.8815719
-0.32290104 5.7506452 -1.8834736
-0.28708798 5.7420983 -1.879987
-0.25193295 5.745647 -1.880621
-0.21688835 5.7527709 -1.8825227
-0.18167588 5.7568374 -1.8834736
-0.1463975 5.7597399 -1.8841076
-0.11120043 5.768116 -1.8866434
-0.075655498 5.7573094 -1.8828397
-0.04040169 5.7680979 -1.8863264
-0.0049978695 5.756856 -1.8825227
0.03029112 5.7501392 -1.880304
0.065594241 5.7517419 -1.8809379
0.10081875 5.747438 -1.87967
0.13603771 5.7448149 -1.8790361
0.17136927 5.746716 -1.879987
0.20683135 5.7512431 -1.8818887
0.24223593 5.7527089 -1.8828397
0.27835101 5.7681661 -1.8885453
0.31276083 5.7483559 -1.8825227
0.34773982 5.7415953 -1.8809379
0.38384613 5.7526021 -1.8853755
0.41872293 5.744463 -1.8834736
0.45381302 5.7398944 -1.8828397
0.48765555 5.7209368 -1.8774512
0.52387106 5.7301154 -1.8815719
0.55902052 5.7267933 -1.8815719
0.59297454 5.7119346 -1.8777682
0.62832206 5.7110171 -1.8787191
0.66269577 5.7014017 -1.8768172
0.6972056 5.6934624 -1.8755493
0.73115897 5.6815519 -1.8730135
0.76676714 5.6825981 -1.8749154
0.80241561 5.6834211 -1.8768172
0.83685845 5.6755757 -1.8758663
0.87209952 5.6731462 -1.8768172
0.90764177 5.6723709 -1.8784021
0.94165206 5.6620169 -1.8768172
0.9760533 5.6542635 -1.8761833
1.0134008 5.663106 -1.8812549
1.04623 5.646523 -1.8777682
1.0813919 5.6427913 -1.8787191
1.1165476 5.6388412 -1.87967
1.150936 5.6309547 -1.879353
1.1850741 5.6219306 -1.8787191
1.2207549 5.6201143 -1.880621
1.2554232 5.6134439 -1.8809379
1.2894177 5.6037865 -1.880304
1.3239959 5.5966921 -1.880621
1.3596553 5.5939927 -1.8825227
1.3918875 5.5772624 -1.87967
1.4258475 5.567698 -1.879353
1.4561297 5.544167 -1.8742814
1.4943109 5.5506973 -1.87967
1.5283412 5.5414243 -1.87967
1.5602523 5.5246401 -1.8771342
1.5957012 5.5204296 -1.8790361
1.6300818 5.5123534 -1.87967
1.665521 5.5076947 -1.8815719
1.7034847 5.5109639 -1.8863264
1.734697 5.4922681 -1.8834736
1.7709844 5.4896445 -1.8863264
1.8043382 5.4777741 -1.8860095
1.8367065 5.4630036 -1.8847415
1.8735769 5.4614992 -1.8882283
1.9058 5.4463196 -1.8869604
1.9379075 5.4309502 -1.8856925
1.9757328 5.4314356 -1.8901302
2.0100112 5.4218783 -1.8910811
2.0449166 5.4138794 -1.8926659
2.0719681 5.3852968 -1.8869604
2.102551 5.3663001 -1.8847415
2.1333303 5.3480124 -1.8828397
2.1657484 5.3339429 -1.8825227
2.198436 5.3205538 -1.8825227
2.2321434 5.3095875 -1.8834736
0 0 -0
2.2937284 5.2739677 -1.880621
2.3283467 5.2649989 -1.8825227
2.3590529 5.2471533 -1.8812549
2.3904161 5.2308545 -1.880621
2.4236653 5.2186694 -1.8815719
2.4572597 5.2071309 -1.8828397
2.4916236 5.1970868 -1.8847415
2.5259566 5.1868172 -1.8866434
2.558996 5.1737709 -1.8875943
2.592396 5.1613622 -1.8888623
2.6201394 5.1377535 -1.8860095
2.6494346 5.1173687 -1.8844246
2.6803432 5.1001763 -1.8841076
2.711587 5.0836339 -1.8841076
2.738214 5.0585589 -1.8809379
2.7701144 5.0433254 -1.8815719
2.8037772 5.0312042 -1.8834736
2.8299284 5.0056491 -1.880304
2.8620045 4.9906592 -1.8812549
2.891619 4.9713645 -1.880621
2.923032 4.955162 -1.8812549
2.9519207 4.9346919 -1.880304
2.9811604 4.9148641 -1.87967
3.0127516 4.8989034 -1.880621
3.0427539 4.8803253 -1.880621
3.0746684 4.8647704 -1.8818887
3.1065066 4.8490076 -1.8831567
3.1367173 4.8306508 -1.8834736
3.1631706 4.8065596 -1.8815719
3.1952345 4.7910056 -1.8831567
3.2282887 4.7768106 -1.8853755
3.2628961 4.7647381 -1.8885453
3.2985578 4.7539787 -1.8923489
3.3303926 4.7375293 -1.8939338
3.3555479 4.7115974 -1.8917149
3.3816202 4.6870737 -1.8901302
3.3985646 4.6501551 -1.8834736
3.4236479 4.6246405 -1.8815719
3.4553733 4.608099 -1.8834736
3.4824359 4.5853 -1.8828397
3.5180218 4.5736194 -1.8869604
3.5431049 4.5482059 -1.8853755
3.5744696 4.530848 -1.8872774
3.6027951 4.5095711 -1.8875943
3.6309938 4.4881172 -1.8879113
3.6596661 4.4672208 -1.8885453
3.6864021 4.4439516 -1.8882283
3.7136004 4.4212484 -1.8882283
3.7369723 4.3940439 -1.8863264
3.7657197 4.373188 -1.8872774
3.7937286 4.3514295 -1.8879113
3.8253779 4.3337584 -1.8904471
3.8474736 4.305254 -1.8882283
3.8719089 4.2794552 -1.8872774
3.9038596 4.2619119 -1.8901302
3.9247777 4.2323141 -1.8875943
3.9526203 4.210227 -1.8885453
3.977726 4.1852074 -1.8882283
3.9987283 4.1559377 -1.8860095
4.0268002 4.1340413 -1.8872774
4.0547538 4.1119571 -1.8885453
4.0946484 4.101768 -1.8955187
4.1089535 4.0658922 -1.8904471
4.1358585 4.0425925 -1.8913981
4.1544452 4.01121 -1.8885453
4.1851559 3.9915347 -1.8913981
4.2150912 3.9709833 -1.8939338
4.2484026 3.9534452 -1.8980545
4.267693 3.9228098 -1.8958356
4.2874699 3.8927245 -1.8939338
4.2992716 3.8555782 -1.8885453
4.3271074 3.8328993 -1.8904471
4.3426929 3.7994065 -1.8869604
4.3817105 3.7863324 -1.8939338
4.405582 3.7599912 -1.8942508
4.4365463 3.7396126 -1.8977375
4.4637818 3.7159612 -1.8996394
4.4835682 3.6860926 -1.8983715
4.5090466 3.6609039 -1.8996394
4.5255051 3.6284213 -1.8971035
4.5469398 3.5999963 -1.8967866
4.5637136 3.5679395 -1.8945677
4.5975313 3.5491438 -1.8996394
4.6079082 3.5122421 -1.8948847
4.6278567 3.4827616 -1.8942508
4.6552296 3.4588256 -1.8967866
4.6748352 3.4290745 -1.8961526
4.6996284 3.4031074 -1.8977375
4.7196493 3.3736553 -1.8974205
4.7371612 3.3424451 -1.8961526
4.7381248 3.2997637 -1.8882283
4.7942343 3.2953444 -1.902809
4.8112249 3.2637355 -1.9015411
4.8295836 3.2330978 -1.9009073
4.8422089 3.1986978 -1.8980545
4.8681006 3.17307 -1.9005903
4.8890738 3.1441662 -1.9012241
4.9114776 3.1161408 -1.902492
4.9192505 3.0789006 -1.8980545
4.9453125 3.0531433 -1.9009073
4.963953 3.022742 -1.9009073
4.9807811 2.99125 -1.9002733
5.0055695 2.9644992 -1.902809
5.0302167 2.9375565 -1.9053448
5.0481462 2.9066365 -1.9053448
5.0584631 2.8713925 -1.902492
5.0908842 2.8486376 -1.9081976
5.0958099 2.8104756 -1.903443
5.1054597 2.7750783 -1.9005903
5.1299152 2.7477305 -1.903443
5.1743574 2.7308123 -1.9139031
5.1977477 2.7025125 -1.9164389
5.1779346 2.6519752 -1.902809
5.2042704 2.6252806 -1.9066128
5.2296243 2.5979407 -1.9100995
5.2505779 2.5683041 -1.9120013
5.2662377 2.5360389 -1.9120013
5.2782717 2.5020528 -1.9107335
5.2866488 2.4664104 -1.9081976
5.3051305 2.435509 -1.9094656
5.3217034 2.4036922 -1.9100995
5.3233514 2.3652163 -1.9053448
5.3473234 2.3366864 -1.9088316
5.365046 2.3053298 -1.9100995
5.3860793 2.2753203 -1.9126352
5.3894281 2.2378638 -1.9088316
5.4048142 2.2054696 -1.9094656
5.4182448 2.1722648 -1.9094656
5.426177 2.1368926 -1.9075637
5.4436097 2.105269 -1.9091486
5.4670644 2.0758686 -1.9129522
5.48592 2.0446033 -1.915171
5.5010343 2.0118814 -1.916122
5.5204167 1.9806526 -1.9186578
5.5306764 1.9461129 -1.9180238
5.5425134 1.9121407 -1.9180238
5.547853 1.8759694 -1.915805
5.5574584 1.8412963 -1.915171
5.5650434 1.8059905 -1.9139031
5.5787315 1.7726718 -1.914854
5.5922203 1.7392533 -1.915805
5.6000652 1.7040788 -1.914854
5.6195059 1.6723913 -1.9180238
5.6160016 1.633904 -1.9132692
5.6386933 1.6030459 -1.9177068
5.6511645 1.5691788 -1.9186578
5.6661792 1.5359637 -1.9205596
5.6773305 1.5016528 -1.9211935
5.6836824 1.4660783 -1.9202427
5.6962504 1.4321016 -1.9215105
5.7049303 1.3971231 -1.9215105
5.7133956 1.362092 -1.9215105
5.7170262 1.3259379 -1.9199257
5.7315307 1.2922946 -1.9221444
5.7374992 1.2566962 -1.9215105
5.7506685 1.2226518 -1.9234123
5.760849 1.1879182 -1.9243633
5.7726793 1.1534774 -1.9259481
5.7852354 1.1191163 -1.92785
5.7901287 1.0832489 -1.9272161
5.7919998 1.0468571 -1.9256312
5.7955112 1.0108093 -1.9246802
5.8062811 0.9760161 -1.9262651
0 0 -0
0 0 -0
0 0 -0
0 0 -0
0 0 -0
0 0 -0
5.8465991 0.72627228 -1.927533
5.8556547 0.69094056 -1.9291179
5.8626118 0.65531421 -1.9300689
0 0 -0
0 0 -0
5.880291 0.54790807 -1.9322876
5.8769283 0.51124114 -1.9300689
5.8827906 0.47540075 -1.9310197
0 0 -0
0 0 -0
0 0 -0
0 0 -0
0 0 -0
0 0 -0
0 0 -0
0 0 -0
0 0 -0
0 0 -0
0 0 -0
0 0 -0
0 0 -0
0 -0 -0
0 -0 -0
0 -0 -0
5.9439306 -0.14073882 -1.9456005
5.9420071 -0.17717923 -1.9452835
0 -0 -0
5.93749 -0.25000378 -1.9446496
0 -0 -0
0 -0 -0
0 -0 -0
5.917264 -0.39482179 -1.9405289
5.9109464 -0.43084645 -1.9392611
5.9148102 -0.46763006 -1.9414798
0 -0 -0
0 -0 -0
5.9014244 -0.57605481 -1.9402119
5.9326835 -0.61587554 -1.9519399
5.9023957 -0.64936388 -1.9430647
0 -0 -0
0 -0 -0
0 -0 -0
5.8959613 -0.79554147 -1.9468684
5.9257164 -0.8366068 -1.9585965
5.8951378 -0.86921692 -1.9500381
5.8606329 -0.90090722 -1.9402119
5.8521852 -0.93640107 -1.9392611
5.8594275 -0.97446924 -1.9436986
5.8439918 -1.008791 -1.9405289
5.8078165 -1.039286 -1.9303857
5.7845435 -1.0717934 -1.9246802
5.748982 -1.1017348 -1.914854
5.690012 -1.1266763 -1.8971035
5.5761299 -1.1397341 -1.8606516
5.4855065 -1.1563267 -1.832124
5.3568926 -1.1635994 -1.7906004
5.2783823 -1.1805127 -1.7661934
5.207263 -1.198208 -1.7443223
5.1545873 -1.2194409 -1.7287905
5.1212025 -1.2447757 -1.7199153
