# .PCD v0.7 - Point Cloud Data file format
VERSION 0.7
FIELDS x y z
SIZE 4 4 4
TYPE F F F
COUNT 1 1 1
WIDTH 1543
HEIGHT 1
VIEWPOINT 0 0 0 1 0 0 0
POINTS 1543
DATA ascii
4.9147148 13.224346 -2.0724447
5.0080252 13.226312 -2.0776238
5.0698647 13.145508 -2.069633
5.1580224 13.133483 -2.0727406
5.2421832 13.110769 -2.0742204
5.3117175 13.051793 -2.0699289
0 0 -0
5.4760923 12.996564 -2.0717046
5.5214434 12.882728 -2.0586822
5.5746951 12.789679 -2.0490634
5.6590781 12.768794 -2.0512831
5.7369132 12.732929 -2.0511351
5.8128738 12.692992 -2.0503953
5.8864732 12.64812 -2.0489154
5.9588957 12.601035 -2.0471396
6.0283918 12.548189 -2.044476
6.0965962 12.493188 -2.0415163
6.1656709 12.440481 -2.0390007
6.2343287 12.387398 -2.036485
6.304368 12.337463 -2.0345612
6.3735733 12.286259 -2.0324895
6.4433103 12.236419 -2.0307136
6.5159392 12.192292 -2.0299737
6.5844965 12.14078 -2.0280499
6.6493292 12.082822 -2.0250902
6.7127342 12.022799 -2.0218346
6.7849159 11.978802 -2.0213907
6.8351293 11.896643 -2.0144355
6.923933 11.881822 -2.019171
6.9941921 11.834857 -2.0184312
7.0621018 11.784084 -2.0170994
7.1234875 11.722782 -2.0139916
7.1916513 11.672958 -2.0129559
7.2568521 11.618546 -2.0111799
7.3200688 11.561268 -2.0089602
7.3865957 11.509477 -2.0077765
7.4495268 11.452331 -2.0057046
7.5120349 11.394847 -2.003633
7.5735688 11.336205 -2.0014131
7.6335573 11.275599 -1.9988976
7.6936469 11.2155 -1.9965298
7.7549806 11.157525 -1.994606
7.8147535 11.097603 -1.9923863
7.8752322 11.038978 -1.9904625
7.9329686 10.976823 -1.9879469
7.9960818 10.922355 -1.9869109
8.0605927 10.869908 -1.9863191
8.122386 10.813919 -1.9851352
8.183795 10.757581 -1.9839513
8.2430077 10.698546 -1.9823235
8.3011961 10.638412 -1.9805478
8.3528242 10.570206 -1.9772922
8.4199963 10.521844 -1.9778841
8.4744349 10.457688 -1.9755163
8.5114632 10.372621 -1.9691532
8.5642023 10.307269 -1.9666374
8.6241016 10.250743 -1.9658976
8.6759329 10.184835 -1.9633818
8.7318029 10.12392 -1.961902
8.789854 10.065683 -1.9610142
8.8409681 9.9997063 -1.9586464
8.8850079 9.9261131 -1.9547988
8.9271488 9.8508911 -1.9506553
8.9733829 9.7806273 -1.9475478
9.0251493 9.7166882 -1.9457719
9.0683384 9.6438379 -1.9422204
9.1034727 9.5629454 -1.937041
9.1475649 9.4919538 -1.9339334
9.2014904 9.4314003 -1.9330455
9.2605772 9.3761702 -1.9333415
9.2654829 9.2667236 -1.9222429
9.3418694 9.2291574 -1.9263864
9.3983231 9.1716633 -1.9263864
9.4487257 9.1083326 -1.9252025
9.4872446 9.0338192 -1.9216509
9.5295277 8.9632406 -1.9189873
9.5662308 8.8877726 -1.9152876
9.603096 8.8128605 -1.9117361
9.6489286 8.7464657 -1.9101083
9.6994667 8.6844578 -1.9095163
9.744421 8.6175737 -1.9078885
9.7732773 8.5368032 -1.9031532
9.805254 8.4592333 -1.8991576
9.8449297 8.388649 -1.8967899
9.8909187 8.3236265 -1.8957541
9.9471292 8.2672043 -1.8967899
9.9770269 8.1890745 -1.8927944
10.007877 8.1121359 -1.8890948
10.044338 8.0400705 -1.8865792
10.085722 7.972156 -1.8850993
10.118075 7.8973436 -1.8819917
10.160858 7.8308864 -1.8809558
10.195336 7.758213 -1.8784401
10.228515 7.6848178 -1.8757764
10.261176 7.6113081 -1.8731128
10.302099 7.5441136 -1.8720769
10.321744 7.4616413 -1.8671935
10.330299 7.3717451 -1.8603864
10.38504 7.3150544 -1.8621621
10.431354 7.2523241 -1.8624581
10.462608 7.1792302 -1.8600904
10.49254 7.1054716 -1.8575747
10.526073 7.0343637 -1.8557988
10.564083 6.9663782 -1.854911
10.591706 6.8917198 -1.8522474
10.626304 6.8217926 -1.8509154
10.657934 6.7501135 -1.8491397
10.689086 6.6783028 -1.8473639
10.697024 6.5923572 -1.8415927
10.749105 6.5337882 -1.8436644
10.794931 6.4712687 -1.8447002
10.828475 6.4013882 -1.8436644
10.85815 6.3293476 -1.8420366
10.896782 6.2626042 -1.8420366
10.940166 6.1985493 -1.8429245
10.972814 6.1284122 -1.8420366
11.002412 6.0566773 -1.8407047
11.045454 5.9923544 -1.8417406
11.083758 5.9254003 -1.8420366
11.132158 5.8637319 -1.8441083
11.162661 5.792583 -1.8432205
11.222651 5.7365828 -1.8473639
11.263824 5.6707263 -1.8483998
11.305495 5.6050196 -1.8495836
11.347673 5.5394487 -1.8509154
11.378775 5.4684315 -1.8504715
11.417479 5.4010468 -1.8513595
11.450403 5.3308887 -1.8513595
11.487393 5.2625895 -1.8520993
11.521271 5.1928177 -1.8523953
11.541162 5.1168165 -1.8504715
11.573249 5.0463004 -1.8506196
11.612175 4.9786997 -1.8519514
11.634303 4.9038987 -1.8506196
11.657778 4.8297706 -1.8495836
11.678948 4.7547932 -1.8482518
11.721678 4.6885514 -1.8504715
11.761272 4.6208787 -1.8522474
11.797709 4.5518293 -1.8535792
11.811543 4.4741006 -1.8513595
11.847116 4.4046431 -1.8526913
11.885998 4.3362732 -1.8546151
11.917968 4.2652593 -1.855503
11.95978 4.197618 -1.8580186
11.98157 4.1228685 -1.8574266
11.98415 4.0416903 -1.8538752
12.001211 3.9655991 -1.8526913
12.039432 3.8964529 -1.854911
12.085741 3.829675 -1.8584626
12.117514 3.7580819 -1.8597944
12.143184 3.6845207 -1.8602383
12.174097 3.6124735 -1.8615702
12.181786 3.5335751 -1.8593504
12.182303 3.4528315 -1.8560948
12.195635 3.3759072 -1.854911
12.231397 3.3051391 -1.8572787
12.287786 3.2396038 -1.862902
12.30456 3.163408 -1.8624581
12.333332 3.0902519 -1.8639379
12.33861 3.0112362 -1.8618661
12.376099 2.9400413 -1.8648258
12.389088 2.8629346 -1.8640859
12.413176 2.7883794 -1.8651217
12.411692 2.7081571 -1.8623101
12.432913 2.6329734 -1.86305
12.473054 2.5616086 -1.8667495
12.495327 2.4863775 -1.8677855
12.51229 2.4100349 -1.8680815
12.524898 2.3328536 -1.8677855
12.507828 2.2503572 -1.86305
12.546736 2.1779637 -1.8668976
12.549133 2.0991435 -1.8652698
12.570565 2.0235178 -1.8666016
12.5847 1.9466504 -1.8668976
6.4957972 0.9645915 -0.94408166
6.1451793 0.87408775 -0.89021617
5.9975476 0.8156051 -0.86713099
5.9475145 0.77167404 -0.85884398
5.9334879 0.73286647 -0.85603231
5.9201922 0.69437516 -0.85336864
5.9154944 0.65705556 -0.85203683
5.9046607 0.61920208 -0.8498171
5.8965378 0.58179712 -0.8480413
5.889164 0.54460609 -0.84641349
5.8874679 0.50803643 -0.84567362
5.8825874 0.47127178 -0.84448975
5.8794508 0.43473163 -0.84360182
5.8721399 0.39798102 -0.84212202
0 0 -0
0 0 -0
5.856739 0.28875956 -0.83886641
0 0 -0
0 0 -0
0 0 -0
5.8729372 0.14520776 -0.84049422
5.8786621 0.10926028 -0.84123415
0 0 -0
0 0 -0
0 -0 -0
0 -0 -0
0 -0 -0
0 -0 -0
0 -0 -0
0 -0 -0
0 -0 -0
0 -0 -0
0 -0 -0
0 -0 -0
0 -0 -0
0 -0 -0
0 -0 -0
0 -0 -0
0 -0 -0
6.1995668 -0.57118601 -0.89302784
11.50978 -1.1326991 -1.6919827
11.494744 -1.2024765 -1.6907989
11.492064 -1.2735295 -1.6915388
10.581324 -1.2382799 -1.5555434
10.577453 -1.3036667 -1.5561353
10.569254 -1.3685442 -1.5561353
10.569478 -1.4345683 -1.5574671
10.575164 -1.5014813 -1.5596869
10.581405 -1.5686632 -1.5620546
11.078837 -1.7119997 -1.6388572
11.051525 -1.7772746 -1.6363416
11.027731 -1.8429315 -1.6344178
11.026934 -1.9124218 -1.6360456
11.024726 -1.9817966 -1.6375254
11.008469 -2.0486815 -1.6369334
11.001518 -2.1173117 -1.6378213
10.98735 -2.1845829 -1.6376734
10.967925 -2.2507656 -1.6367855
10.943266 -2.3157678 -1.6351577
10.907593 -2.3782334 -1.6319021
10.890864 -2.4446828 -1.6316061
8.3143921 -1.9197201 -1.2382699
10.86678 -2.5797462 -1.632642
10.844982 -2.6449685 -1.6317542
10.82567 -2.7107413 -1.6313101
10.809792 -2.7773614 -1.6314582
7.5142655 -1.9795049 -1.1241758
7.5191641 -2.0302174 -1.1268394
10.76637 -2.9785018 -1.6329379
10.736473 -3.0412712 -1.6311622
10.713811 -3.1059899 -1.6305703
10.705929 -3.1750457 -1.632346
7.9738679 -2.4178209 -1.2082295
7.9437685 -2.4620156 -1.2058618
7.930398 -2.5113087 -1.2061578
7.9157805 -2.560226 -1.2063057
10.564055 -3.4889233 -1.6261308
10.518084 -3.5454614 -1.6222832
10.487715 -3.6070366 -1.6209514
10.462584 -3.6703377 -1.6205075
10.411932 -3.7244699 -1.616068
7.704689 -2.80918 -1.188548
10.315385 -3.8333511 -1.6080769
10.477571 -3.9669802 -1.6378213
10.453032 -4.0311947 -1.6378213
10.428101 -4.0952573 -1.6378213
10.41104 -4.1624713 -1.6391532
10.37706 -4.222918 -1.6378213
10.31806 -4.2728853 -1.632494
10.275244 -4.3292017 -1.6298304
10.223944 -4.3816466 -1.6258348
10.15607 -4.4265113 -1.6191757
10.107019 -4.479125 -1.6156241
10.067624 -4.5357738 -1.6137003
10.036007 -4.5958147 -1.6131084
10.017481 -4.6618991 -1.6147362
9.9556084 -4.7076316 -1.6092608
9.9033594 -4.7574921 -1.6054133
9.8642044 -4.8133965 -1.6037855
9.8176489 -4.8654857 -1.6009738
9.7893763 -4.9265237 -1.6012698
9.7439928 -4.9788456 -1.5987542
9.711504 -5.0376291 -1.5984582
9.667285 -5.09021 -1.5962384
9.6297655 -5.1461678 -1.5952026
9.5927916 -5.2023287 -1.5943147
9.5424957 -5.2510762 -1.591207
9.4841919 -5.295063 -1.5867676
9.4411974 -5.3473077 -1.5849918
9.3996344 -5.4002094 -1.5835119
9.3543596 -5.4508104 -1.5814402
9.2968998 -5.4940143 -1.5772967
9.2604694 -5.5494304 -1.5768528
9.2270889 -5.6066604 -1.5770007
9.1874619 -5.6600585 -1.5761129
9.1525593 -5.7163248 -1.5761129
9.0847263 -5.7517405 -1.5703416
9.0276241 -5.7934847 -1.566494
9.0084858 -5.8595548 -1.5694537
8.9575005 -5.9049201 -1.56679
8.9243898 -5.9619694 -1.567382
8.8827257 -6.013289 -1.566494
8.8334293 -6.0592861 -1.5642743
8.7912121 -6.1099858 -1.5633864
8.7325335 -6.1490064 -1.5595388
8.6922245 -6.2007489 -1.5590949
8.621953 -6.230792 -1.5531757
8.5995178 -6.2952638 -1.5561353
8.5861483 -6.3667636 -1.5608708
8.5216179 -6.4003191 -1.5561353
8.4507036 -6.4285316 -1.550216
8.402482 -6.4736228 -1.5485882
8.3610439 -6.5238404 -1.5482923
8.3061142 -6.5633683 -1.5454806
8.2896223 -6.633368 -1.550068
8.2549105 -6.6890893 -1.5512519
8.1854258 -6.7163997 -1.5457766
8.1433001 -6.7658658 -1.5456285
8.0933084 -6.8087006 -1.5440007
8.0506258 -6.8575907 -1.5438528
7.9971638 -6.8971691 -1.541633
7.9494791 -6.941555 -1.5405972
7.8689523 -6.9567895 -1.5330501
7.8268547 -7.0056009 -1.5331981
7.7961793 -7.064785 -1.5357138
7.7439394 -7.1044645 -1.5339381
7.689333 -7.1417499 -1.5317183
7.6396036 -7.1833758 -1.5305344
7.5875049 -7.2226148 -1.5289066
7.5451808 -7.2710938 -1.5293505
7.5025477 -7.3193254 -1.5297945
7.4384995 -7.3464565 -1.525799
7.1450286 -7.1436954 -1.4732654
7.0774312 -7.1634789 -1.4682339
6.9946661 -7.16713 -1.459947
6.9416356 -7.2006564 -1.4580232
6.8884573 -7.2338023 -1.4560994
6.8242936 -7.2550397 -1.451808
6.7762837 -7.2931528 -1.451068
6.7434416 -7.3477111 -1.4537318
6.6915884 -7.3816218 -1.4522519
6.5848231 -7.354013 -1.4384896
2.1759117 -2.4591248 -0.45278132
2.1601312 -2.4716849 -0.45263332
2.1584899 -2.5006192 -0.45574096
6.4042873 -7.515656 -1.4389335
6.4134469 -7.6206484 -1.451808
6.3627744 -7.655293 -1.4509201
6.2999978 -7.6750774 -1.4472206
6.2260098 -7.6805501 -1.4408573
6.1756759 -7.714747 -1.4401174
6.1662421 -7.8006024 -1.4492923
2.0082443 -2.5715523 -0.44967368
1.985184 -2.5744255 -0.44789791
1.9639608 -2.5794742 -0.44656608
1.9409685 -2.5819871 -0.4447903
1.923911 -2.5922594 -0.44449434
1.8396131 -2.5106523 -0.42718044
1.8259114 -2.5242972 -0.42762437
1.8224506 -2.5523601 -0.43073198
5.9722891 -8.4783716 -1.5132205
5.9077358 -8.4969921 -1.5099649
5.8868189 -8.5787506 -1.5182519
5.8218718 -8.596693 -1.5149963
5.7591238 -8.6174517 -1.5123326
5.6974297 -8.6394157 -1.5099649
5.6168075 -8.6319323 -1.5024178
5.5525188 -8.648756 -1.4993103
1.7872577 -2.8203504 -0.4610683
1.776206 -2.8413291 -0.4628441
1.7582197 -2.8513322 -0.46269611
5.2630935 -8.6581783 -1.4775568
5.2815566 -8.8099184 -1.4984223
5.2238779 -8.8361998 -1.4973865
5.1511369 -8.8364716 -1.4919111
5.0933714 -8.8619089 -1.4908752
5.0432868 -8.9007387 -1.4922071
4.9958105 -8.9444695 -1.4944268
4.9293895 -8.9541597 -1.4908752
4.8842573 -9.0024939 -1.4939828
4.8373184 -9.0479937 -1.4966465
4.7803273 -9.0748796 -1.4962026
4.7181787 -9.0917501 -1.4941308
4.6614037 -9.1187677 -1.4938349
4.6102552 -9.1569147 -1.4954627
4.5623279 -9.2018671 -1.4982743
4.5018764 -9.2216883 -1.4969425
4.4327879 -9.2232857 -1.492651
4.3659635 -9.2288542 -1.4890994
4.3109231 -9.2590561 -1.4896914
4.2610307 -9.3006191 -1.4922071
4.2055082 -9.3301964 -1.492799
4.1437716 -9.3458796 -1.4911712
4.0796299 -9.3557167 -1.4886554
4.0233164 -9.3832998 -1.4890994
3.9691222 -9.4160118 -1.4904313
3.9131641 -9.4447575 -1.4911712
3.8555114 -9.4695063 -1.4913192
3.7984366 -9.4957399 -1.4917631
3.7357616 -9.507822 -1.4899874
3.6777084 -9.5314875 -1.4901353
3.6209061 -9.5584984 -1.4908752
3.5566752 -9.5657043 -1.4885075
3.4979141 -9.587347 -1.4885075
3.4390213 -9.6086292 -1.4885075
3.3809817 -9.63235 -1.4889514
3.3202064 -9.6482372 -1.4882115
3.2622073 -9.6721773 -1.4888035
3.2000067 -9.6835594 -1.4874716
3.1393116 -9.6992483 -1.4868797
3.0710778 -9.6909866 -1.4825882
3.0124357 -9.7124815 -1.4830322
2.9559422 -9.7411938 -1.48466
2.9020221 -9.7790585 -1.4877676
2.8422396 -9.7976313 -1.4879156
2.7826083 -9.8167896 -1.4882115
2.7231123 -9.8365374 -1.4886554
2.6639948 -9.8578348 -1.4893954
2.6052225 -9.8806896 -1.4904313
2.5447927 -9.8974476 -1.4905792
2.4830542 -9.9090376 -1.4899874
2.4210346 -9.9192829 -1.4892474
2.3605826 -9.9358759 -1.4895434
2.3000178 -9.9521008 -1.4898393
2.2384763 -9.9640961 -1.4895434
2.1791923 -9.9863396 -1.4908752
2.1191051 -10.005328 -1.4917631
2.0580714 -10.020081 -1.4920591
1.9969364 -10.03446 -1.492355
0.50765741 -2.6307721 -0.36236429
0.49403977 -2.6474495 -0.36443606
0.47866121 -2.655298 -0.36517596
0.46641698 -2.6815712 -0.36872754
0.45125899 -2.6921864 -0.36991137
0.43583119 -2.7017395 -0.37094727
0.42241839 -2.7248878 -0.37405488
0.40699667 -2.7362332 -0.37538671
0.38686168 -2.715179 -0.37183514
0.36939591 -2.7116218 -0.37094727
0.35719791 -2.7481651 -0.37612662
0.3442021 -2.7817147 -0.38086206
1.1826204 -10.089968 -1.4815524
0.92058671 -8.2923079 -1.2098573
1.0642713 -10.156836 -1.4895434
1.0028024 -10.172032 -1.4908752
0.72581196 -7.8528671 -1.1414896
0.67532355 -7.8305683 -1.1374941
0.6251362 -7.8079472 -1.1334987
0.57852501 -7.8293896 -1.1361623
0.53287435 -7.8683143 -1.1414896
0.63208359 -10.273124 -1.5015299
0.20633675 -3.7130051 -0.51789343
0.18311374 -3.7053111 -0.51656157
0.44207543 -10.264244 -1.4987183
0.13322805 -3.5876925 -0.49865574
0.10972641 -3.5400045 -0.49140462
0.086160332 -3.4654706 -0.480158
0.064822249 -3.4619787 -0.47956607
0.12721969 -10.289786 -1.5012339
0.022019137 -3.411087 -0.47187099
0.00093829783 -10.304419 -1.5033057
-0.06197786 -10.253793 -1.4957587
-0.12460099 -10.229486 -1.4922071
-0.18723801 -10.221606 -1.4911712
-0.25000167 -10.222242 -1.4914671
-0.31284091 -10.22447 -1.4920591
-0.37560761 -10.223347 -1.4922071
-0.43786246 -10.209981 -1.4905792
-0.50045294 -10.206114 -1.4904313
-0.56339467 -10.208776 -1.4913192
-0.62474996 -10.184398 -1.4882115
-0.68882984 -10.204054 -1.4917631
-0.75492102 -10.246978 -1.4988662
-0.84552807 -10.58917 -1.5509559
-0.91422051 -10.627137 -1.5574671
-0.98050123 -10.633145 -1.559243
-1.0466961 -10.636771 -1.5607227
-1.1121484 -10.632116 -1.5610187
-1.1763836 -10.616245 -1.5596869
-1.2426522 -10.61865 -1.5611666
-1.3080257 -10.612788 -1.5614626
-1.3273623 -10.251479 -1.5081891
-1.3782583 -10.154943 -1.4948708
-1.4381768 -10.129649 -1.492355
-1.4985623 -10.108894 -1.4905792
-0.45348835 -2.9402473 -0.40661094
-0.47639188 -2.9676785 -0.41119838
-1.6876426 -10.099107 -1.4935389
-0.52139813 -3.0113049 -0.41874546
-0.54231638 -3.0216761 -0.4208172
-0.5619331 -3.0241251 -0.4217051
-1.9361007 -10.060475 -1.4944268
-2.0022323 -10.070716 -1.4978304
-2.0641863 -10.05921 -1.4979783
-2.1273036 -10.053127 -1.4990143
-2.1822033 -10.008965 -1.4942788
-0.63602132 -2.8373504 -0.39654815
-0.66143352 -2.8680844 -0.4018755
-2.3745217 -10.002704 -1.4997542
-2.4330392 -9.9764166 -1.4979783
-2.4949286 -9.9641771 -1.4984223
-0.93917382 -3.6584585 -0.52662432
-0.76775414 -2.9172134 -0.41282618
-0.77351606 -2.867574 -0.405871
-0.78634822 -2.8456168 -0.40320733
-0.77763867 -2.7484405 -0.38885307
-0.81790346 -2.8243546 -0.40143156
-0.81130773 -2.7386909 -0.38885307
-2.972229 -9.801363 -1.4939828
-0.99628949 -3.2168965 -0.46535978
-1.0225807 -3.2314646 -0.46861538
-3.1749725 -9.8155651 -1.5050815
-3.2183867 -9.7451897 -1.4970905
-3.2743292 -9.7140121 -1.4953147
-3.3226104 -9.6610069 -1.4901353
-1.1258087 -3.2116411 -0.47068715
-1.142495 -3.1962924 -0.46935531
-3.5154648 -9.6409512 -1.4969425
-3.5769668 -9.6256876 -1.4979783
-1.1555978 -3.054487 -0.45011765
-1.173606 -3.0454934 -0.44982168
-3.7567925 -9.5665016 -1.4993103
-1.2006077 -3.0051503 -0.44567817
-1.2238717 -3.009635 -0.44760194
-3.9462483 -9.5295372 -1.5047855
-4.0065665 -9.5097008 -1.5055255
-4.0671797 -9.4903917 -1.5064133
-4.1134777 -9.4380608 -1.5019739
-4.1809301 -9.4343424 -1.5055255
-4.2480855 -9.4292488 -1.508929
-4.3116283 -9.4155941 -1.5110008
-1.3220754 -2.8428476 -0.43058401
-1.3403395 -2.8364701 -0.43087998
-1.3572903 -2.8273013 -0.43073198
-1.3811197 -2.8322513 -0.43295172
-4.6107197 -9.3037157 -1.5151442
-4.6730556 -9.2858496 -1.5169201
-4.7429976 -9.2825403 -1.5212115
-4.8016868 -9.2567739 -1.5218035
-4.857934 -9.2262621 -1.5216554
-4.9088593 -9.1858149 -1.5198797
-4.9594707 -9.1450901 -1.518104
-4.7346001 -8.6041689 -1.4309425
-4.7332988 -8.4782467 -1.4143685
-4.7603693 -8.405159 -1.4068215
-4.7822871 -8.3243427 -1.3979425
-4.8098679 -8.2546835 -1.3909874
-4.856401 -8.2182035 -1.3898035
-4.8894477 -8.1594095 -1.3847721
-4.9086018 -8.0785465 -1.3758932
-4.9596348 -8.0508022 -1.3763372
-4.9334855 -7.8994355 -1.3550277
-5.0723433 -8.0118923 -1.3803327
-5.2015443 -8.1054602 -1.40253
-5.2700572 -8.1024065 -1.4077094
-5.3267508 -8.0806503 -1.409633
-5.4300809 -8.1283998 -1.4241353
-5.431057 -8.0228643 -1.4111129
-5.4438133 -7.9363813 -1.401494
-5.5053911 -7.9215064 -1.4048977
-5.563005 -7.9005141 -1.4072654
-5.636652 -7.9016538 -1.4137766
-5.6861882 -7.8685222 -1.4140725
-5.6852827 -7.7664566 -1.4016421
-6.3231659 -8.5273666 -1.5499201
-6.344481 -8.4472904 -1.542225
-6.4111648 -8.4278784 -1.5459245
-1.7250788 -2.2404754 -0.3845616
-1.7387936 -2.2298484 -0.3845616
-1.7548959 -2.2222409 -0.38515353
-1.7771503 -2.2222412 -0.38722527
-1.7944885 -2.2159047 -0.38811317
-6.7559276 -8.2335882 -1.5550994
-6.814538 -8.2018681 -1.5570232
-6.8806543 -8.1788187 -1.5607227
-6.930068 -8.1356926 -1.5605748
-6.9779191 -8.0907707 -1.5601308
-7.0280824 -8.0485477 -1.5602788
-7.0766797 -8.0045319 -1.5601308
-7.1296196 -7.9653807 -1.5610187
-7.1856661 -7.9295449 -1.5626465
-7.2422094 -7.8940496 -1.5644222
-7.2979145 -7.8574338 -1.5660501
-7.3527651 -7.8197112 -1.5675299
-7.3992434 -7.7730155 -1.5672339
-7.4536619 -7.7345891 -1.5687138
-7.5106502 -7.6986184 -1.5707855
-7.5640016 -7.658721 -1.5721173
-7.6213427 -7.6226549 -1.5743371
-7.6447515 -7.5528126 -1.5694537
-3.4904754 -3.4073169 -0.69132835
-3.4101999 -3.288379 -0.67031491
-3.351521 -3.1923797 -0.65403688
-7.9337115 -7.4625225 -1.591207
-7.9641347 -7.3995667 -1.5880994
-3.5343254 -3.2444847 -0.67934179
-3.2727685 -2.9677041 -0.62251669
-3.3727088 -3.020787 -0.63894272
-3.5845561 -3.1710184 -0.67756599
-3.4393208 -3.005193 -0.644862
-3.4367268 -2.9659462 -0.64071846
-3.4006567 -2.8986254 -0.63006377
-3.7725406 -3.1756926 -0.69931936
-3.7896731 -3.1505888 -0.69887543
-3.8593915 -3.1686845 -0.70864224
-5.2648621 -4.2682753 -0.97560179
-5.3450036 -4.2791476 -0.98596054
-5.3354664 -4.2180629 -0.97915339
-5.3955536 -4.2120171 -0.98566461
-5.4698672 -4.2162576 -0.99483949
-5.4688735 -4.1622553 -0.98980808
-5.4974728 -4.1309967 -0.99040002
-5.5338378 -4.1054349 -0.99247175
-5.4982777 -4.0270004 -0.98122513
-5.7248735 -4.1391792 -1.0185165
-5.7743158 -4.1212063 -1.022956
-5.6078572 -3.9507382 -0.98788434
-5.8366356 -4.0585032 -1.0251758
-5.8076038 -3.985688 -1.015409
-5.6280341 -3.8119149 -0.97856146
-5.7573977 -3.8481872 -0.99765116
-5.7486997 -3.7915573 -0.99187982
-5.7900944 -3.7680774 -0.99513543
-5.6724467 -3.6421981 -0.97012645
-5.7322884 -3.6311331 -0.97678566
-5.6345134 -3.520967 -0.95562422
-5.6408553 -3.4769895 -0.95296055
-5.8032255 -3.5280869 -0.97767353
-5.9545536 -3.5702014 -1.0003148
-5.9806046 -3.536114 -1.0010548
-5.9432311 -3.4649906 -0.99084395
-5.9909625 -3.443733 -0.99543142
-5.8338528 -3.3060055 -0.96479911
-5.8920221 -3.2913625 -0.97131032
-5.926836 -3.2632544 -0.97382605
-5.8850241 -3.1933479 -0.9633193
-5.876596 -3.1422601 -0.95858389
-5.9508953 -3.1351748 -0.96790677
-5.9147139 -3.0699086 -0.95858389
-5.9598589 -3.0470603 -0.96302336
-5.8750854 -2.958411 -0.94570947
-6.0003467 -2.9754512 -0.96361524
-5.999826 -2.9294686 -0.96050763
-6.2004323 -2.980402 -0.99084395
-6.2650933 -2.9642878 -0.99853903
-6.3109589 -2.9387274 -1.0031265
-6.2821155 -2.8785338 -0.99543142
-6.2762156 -2.8293695 -0.99158388
-5.7997909 -2.5719912 -0.91078568
-5.8834577 -2.5659964 -0.92188436
-6.3072338 -2.7047937 -0.98832828
-6.3729258 -2.6867809 -0.99631929
-6.3152804 -2.6169724 -0.98433274
-6.6096892 -2.6915157 -1.0293193
-6.6591382 -2.6641281 -1.0346466
-6.6348567 -2.6073093 -1.0281354
-6.6064386 -2.5494657 -1.0210323
-6.4859982 -2.4573956 -0.99927896
-6.5065165 -2.4196193 -1.0001668
-6.5416813 -2.3871057 -1.0034224
-6.5170956 -2.3329289 -0.99720716
-6.5340867 -2.2938793 -0.99765116
-6.5405574 -2.2511699 -0.99646729
-6.6207852 -2.233429 -1.006974
-6.6334257 -2.1924522 -1.006826
-6.6646318 -2.1574934 -1.0096377
-6.7550554 -2.1410496 -1.0217721
-6.7557855 -2.0957537 -1.0198485
-6.7770352 -2.0568452 -1.0211803
-6.8331432 -2.028161 -1.0279875
-6.869206 -1.9930813 -1.031687
-6.8632264 -1.9457728 -1.0288754
-6.7120442 -1.8585219 -1.0035704
-6.834075 -1.8472192 -1.0207363
-6.8940539 -1.8181053 -1.0282834
-6.9012485 -1.7747854 -1.0276915
-7.1719937 -1.7975237 -1.0677946
-7.3346968 -1.7905174 -1.0911758
-7.3224516 -1.739995 -1.0876242
-7.8311801 -1.8101089 -1.1641309
-7.9116163 -1.7776237 -1.1747856
-8.2025948 -1.7901609 -1.2177004
-8.3159847 -1.7615068 -1.2333865
-8.9476309 -1.837923 -1.328243
-9.3525562 -1.8613127 -1.3883237
-9.8561773 -1.8986832 -1.4633505
-10.418927 -1.9408001 -1.5472564
-11.262877 -2.0264883 -1.673781
-11.332592 -1.967317 -1.6825119
-11.57173 -1.9357412 -1.7169918
-11.824569 -1.9035027 -1.7535433
-12.272915 -1.8984514 -1.8196913
-12.884024 -1.912053 -1.9104042
-13.040429 -1.8535471 -1.9323056
-12.992757 -1.7655131 -1.9234266
-13.056309 -1.6926191 -1.9314177
-13.08608 -1.6148961 -1.9343773
-13.084937 -1.5333058 -1.9327495
-13.110809 -1.4548421 -1.9352652
-13.096866 -1.3720003 -1.9318616
-13.120786 -1.2931643 -1.9342294
-13.14423 -1.2140863 -1.9365971
-13.171139 -1.1351086 -1.9395567
-13.167011 -1.053404 -1.9379289
-13.155474 -0.97128373 -1.9352652
-13.154279 -0.89007825 -1.9342294
-13.163441 -0.80959082 -1.9348212
-13.16816 -0.72880626 -1.9348212
-13.160531 -0.64741212 -1.9330455
-13.155363 -0.56626642 -1.9317137
-13.130917 -0.48451734 -1.9275702
-13.084216 -0.40242267 -1.920171
-13.086439 -0.32213184 -1.920171
-13.126734 -0.24253801 -1.9259424
-13.124019 -0.16194086 -1.9253504
-13.151468 -0.081573606 -1.929346
-13.161611 -0.0008759636 -1.9308258
-13.146534 0.079790831 -1.928606
-13.107229 0.15998077 -1.9228348
-13.109956 0.24047512 -1.9234266
-13.086482 0.32037732 -1.920171
-13.101075 0.40118453 -1.9226868
-13.124063 0.48251069 -1.9265343
-13.125796 0.56324178 -1.9272742
-13.11419 0.64338118 -1.9260904
-13.103084 0.72345394 -1.9250544
-13.093462 0.803536 -1.9243146
-13.021187 0.87932366 -1.9142518
-12.13024 -0.30664879 -1.9200478
-12.127946 -0.23213756 -1.9194102
-12.130129 -0.15773039 -1.9195696
-12.10915 -0.083148487 -1.9160637
-12.123254 -0.0088571301 -1.9182947
-12.104322 0.065429151 -1.9152668
-12.112577 0.13980089 -1.9167011
-12.108531 0.21406738 -1.9162229
-12.102055 0.28824255 -1.9154261
-12.069468 0.36157852 -1.9104859
-12.082808 0.43619791 -1.9130358
-12.11048 0.51161915 -1.917976
-12.089364 0.58505964 -1.9151075
-12.073717 0.65858269 -1.913195
-12.109851 0.73510444 -1.919729
-12.066696 0.80682784 -1.9135138
-12.069395 0.88142753 -1.9147887
-12.046045 0.95406491 -1.9119202
-12.048818 1.0287156 -1.9133544
-12.039329 1.1023564 -1.9128764
-11.989107 1.171983 -1.9058644
-11.973834 1.2447084 -1.9045894
-12.01013 1.323018 -1.9117608
-11.981193 1.3942901 -1.9084141
-11.976332 1.4682595 -1.9090515
-11.917161 1.5352857 -1.900924
-11.912409 1.6090397 -1.9017209
-11.916974 1.6841742 -1.9041113
-11.887859 1.7545257 -1.9010834
-11.87004 1.8263844 -1.8999678
-11.860559 1.8994954 -1.9002866
-11.849655 1.9723967 -1.9004459
-11.834411 2.0445635 -1.8999678
-11.816784 2.1162698 -1.899171
-11.79387 2.1869366 -1.8975774
-11.771503 2.2575881 -1.8961431
-11.730314 2.3244023 -1.8916808
-11.705192 2.3941586 -1.8899279
-11.694145 2.4667501 -1.8905653
-11.664319 2.5353129 -1.8881749
-11.654323 2.6081295 -1.8891311
-11.635214 2.6789255 -1.8886529
-11.623361 2.7514043 -1.8894498
-11.651345 2.8336353 -1.8969399
-11.588722 2.8938336 -1.8894498
-11.576486 2.9663563 -1.890406
-11.603897 3.0493746 -1.8980554
-11.599267 3.1243684 -1.9004459
-11.547522 3.1865537 -1.8950275
-11.518251 3.2546639 -1.8934339
-11.470562 3.3173244 -1.8888123
-11.471765 3.3940852 -1.8924778
-11.403477 3.4501181 -1.8845094
-11.367002 3.5153573 -1.8819597
-11.344276 3.5847402 -1.8818003
-11.322067 3.6542799 -1.8818003
-11.328499 3.7332597 -1.8867406
-11.283857 3.7954614 -1.8830752
-11.256621 3.8633447 -1.8824377
-11.244817 3.9365814 -1.8845094
-11.213013 4.0028491 -1.8832346
-11.176181 4.0671873 -1.8811629
-11.131577 4.1284781 -1.8778162
-11.140204 4.2096128 -1.8837126
-11.091131 4.2690239 -1.8797286
-11.07392 4.3405995 -1.8813221
-11.05533 4.4117594 -1.8827565
-10.997869 4.4672513 -1.8774974
-11.011307 4.5516181 -1.8846688
-10.974981 4.6156521 -1.8832346
-10.938285 4.6794124 -1.8818003
-10.897598 4.7413206 -1.8797286
-10.862884 4.8057013 -1.8787724
-10.842196 4.8763132 -1.880366
-10.812969 4.9431586 -1.8805254
-10.814667 5.0243859 -1.8862625
-10.75328 5.0763206 -1.8808441
-10.740623 5.1511707 -1.8841908
-10.685739 5.2057362 -1.8800473
-10.620856 5.2550073 -1.8741508
-10.516076 5.2837348 -1.8610829
-10.579313 5.397058 -1.8784536
-10.545999 5.4618697 -1.8784536
-10.495684 5.5177479 -1.8754257
-10.462501 5.582509 -1.8755851
-10.404611 5.6339097 -1.8712822
-10.407916 5.7185612 -1.8782942
-10.364009 5.7775087 -1.8767006
-10.31977 5.8361325 -1.875107
-10.264926 5.8885374 -1.871601
-10.234575 5.954886 -1.8727165
-10.181689 6.00804 -1.8696886
-10.181908 6.0927038 -1.8767006
-10.159524 6.1642814 -1.8795692
-10.132441 6.2332273 -1.8816409
-10.101543 6.299983 -1.8830752
-10.051849 6.3549881 -1.8810035
-10.039265 6.4335899 -1.8861032
-9.9830418 6.484314 -1.8829159
-9.9933681 6.578557 -1.892637
-9.9544573 6.6408472 -1.8929558
-9.8938932 6.6885328 -1.8891311
-9.8200874 6.7267995 -1.8827565
-9.846755 6.8342085 -1.8961431
-9.8199797 6.9052873 -1.899171
-9.8128033 6.9906135 -1.906183
-9.7529144 7.0385604 -1.9028364
-9.7549706 7.1314793 -1.9119202
-9.6975412 7.1812129 -1.9092109
-9.6927843 7.2701979 -1.9171792
-9.6102591 7.3008704 -1.9095297
-9.5832767 7.3735461 -1.913195
-9.554985 7.4455581 -1.9167011
-9.4819956 7.4826427 -1.9111233
-9.4436169 7.546845 -1.912717
-9.3710394 7.5835338 -1.9072986
-9.3380766 7.652153 -1.9101671
-9.2970257 7.7143493 -1.911442
-9.2653904 7.784585 -1.9147887
-9.2505369 7.8694348 -1.9218007
-9.2110529 7.9337778 -1.9237131
-9.1770802 8.0031233 -1.9269004
-9.1551828 8.083457 -1.9327968
-9.0744982 8.1118479 -1.9261036
-9.0465136 8.1872473 -1.9308845
-9.0062981 8.2519388 -1.9331156
-8.9308863 8.2842188 -1.9276972
-8.904356 8.3618383 -1.9331156
-8.877924 8.4401236 -1.9386934
-8.808897 8.4780092 -1.9348686
-8.7687321 8.5436115 -1.9375778
-8.7316074 8.6125059 -1.9410838
-8.6806936 8.6680117 -1.9415619
-8.652339 8.7463779 -1.947299
-8.6040297 8.8049517 -1.9485739
-8.5470991 8.8547382 -1.9479365
-8.4980564 8.9127312 -1.9492114
-8.4472704 8.969018 -1.9501675
-8.3880434 9.0163441 -1.9492114
-8.340579 9.0763655 -1.9511237
-8.2853937 9.1281023 -1.9512831
-8.2437277 9.1949387 -1.9547892
-8.1936989 9.252739 -1.9563828
-8.1582193 9.3273621 -1.9616418
-8.1189051 9.3981609 -1.966104
-8.0508337 9.4357853 -1.9635541
-7.9762444 9.4653788 -1.9594107
-7.9135952 9.508831 -1.9582951
-7.8438172 9.5434809 -1.9554266
-7.8075104 9.6190233 -1.9611638
-7.7705708 9.694479 -1.9669008
-7.7176805 9.7504902 -1.9686538
-7.6637869 9.8054399 -1.9702475
-7.6083031 9.858531 -1.9715225
-7.5404887 9.895607 -1.96961
-7.4790349 9.9408989 -1.9694507
-7.4332037 10.007207 -1.9735942
-7.3839207 10.069346 -1.9769408
-7.3497858 10.152847 -1.9845903
-7.2752967 10.180886 -1.9812436
-7.2018785 10.210008 -1.9782157
-7.134583 10.247524 -1.9769408
-7.0704527 10.289481 -1.9766221
-7.0171585 10.347377 -1.9794906
-6.9414563 10.37219 -1.9759846
-6.8765945 10.412939 -1.9756659
-6.8476071 10.508698 -1.9860245
-6.7797942 10.545534 -1.9850683
-6.7176046 10.591105 -1.9858652
-6.6519685 10.631287 -1.9857059
-6.588685 10.675262 -1.9863433
-6.5235724 10.716331 -1.9865026
-6.4546461 10.75108 -1.9855465
-6.3905692 10.79388 -1.9861839
-6.3257122 10.835446 -1.986662
-6.2581229 10.872345 -1.9863433
-6.1883702 10.905388 -1.9853871
-6.1213398 10.943154 -1.9853871
-6.0531249 10.978779 -1.9850683
-5.991303 11.026122 -1.9869808
-5.9286618 11.07225 -1.9887338
-5.8550839 11.097941 -1.9868214
-5.7955289 11.150302 -1.9898493
-5.7324023 11.196198 -1.9917617
-5.67382 11.251433 -1.995427
-5.5972109 11.271005 -1.9927179
-5.5288153 11.30691 -1.9930366
-5.4623308 11.346848 -1.9941522
-5.4158573 11.429216 -2.0029171
-5.3134956 11.393341 -1.9906461
-5.2533708 11.447264 -1.9944708
-5.1862831 11.48648 -1.9957458
-5.1249228 11.538837 -1.9994111
-5.0599537 11.583636 -2.0018017
-4.9805999 11.595417 -1.9984549
-4.9147348 11.638491 -2.0006862
-4.8504214 11.685752 -2.0037141
-4.7741528 11.704325 -2.0018017
-4.7055521 11.741645 -2.0032358
-4.6377578 11.781321 -2.0051482
-4.5760617 11.837179 -2.0099292
-4.5036941 11.865957 -2.0100884
-4.4463115 11.934998 -2.0172598
-4.3872337 12.000997 -2.0239532
-4.3058486 12.006318 -2.020288
-4.2370119 12.046481 -2.0226784
-4.1630163 12.072252 -2.0226784
-4.0977159 12.123755 -2.0271406
-4.0282149 12.163665 -2.0296903
-3.9510672 12.18064 -2.0284154
-3.8804379 12.217827 -2.0306466
-3.8162417 12.276287 -2.0365431
-3.745441 12.314584 -2.0390928
-3.676847 12.36099 -2.043077
-3.6050673 12.397536 -2.0454674
-3.533787 12.436517 -2.048336
-3.4571476 12.457014 -2.0481765
-3.3796148 12.474181 -2.0475392
-3.3050299 12.502318 -2.0488141
-3.2363887 12.553908 -2.0540731
-3.1612232 12.58119 -2.0553479
-3.0900698 12.625282 -2.0594914
-3.0175788 12.665132 -2.0629976
-2.9433773 12.698796 -2.0655472
-2.8660545 12.719506 -2.0660255
-2.7856328 12.726245 -2.0642724
-2.7072885 12.742132 -2.0641131
-2.6366258 12.795246 -2.070169
-2.5530391 12.786013 -2.0660255
-2.4730384 12.793683 -2.0647504
-2.3937654 12.804734 -2.0641131
-2.3146257 12.816267 -2.0636349
-2.2581501 12.957633 -2.0845118
-2.17026 12.921592 -2.0763841
-2.1018062 13.00191 -2.0873802
-2.0215337 13.011635 -2.0869021
-1.9416577 13.023794 -2.0869021
-1.85054 12.957279 -2.0741529
-1.7716689 12.97328 -2.0749497
-1.6920331 12.983907 -2.0749497
-1.6261952 13.105731 -2.0931175
-1.5404326 13.070362 -2.0857866
-1.4569185 13.050135 -2.0810056
-1.3760922 13.051956 -2.07989
-1.2937381 13.037559 -2.0762248
-1.2207612 13.12094 -2.0884957
-1.1375805 13.097695 -2.0835555
-1.0507605 13.024723 -2.070647
-0.97390437 13.072273 -2.0773404
-0.8936761 13.078003 -2.0773404
-0.81482381 13.105903 -2.0810056
-0.73654664 13.149097 -2.0872209
-0.6559006 13.154355 -2.0873802
-0.57413924 13.134461 -2.0835555
-0.49476084 13.170292 -2.0888145
-0.4131332 13.147425 -2.084671
-0.33190477 13.128 -2.0811651
-0.25138447 13.131763 -2.0814838
-0.17085622 13.137008 -2.0821211
-0.090286702 13.143732 -2.0830774
-0.0096509056 13.162796 -2.0861053
0.071013905 13.14385 -2.0830774
0.15121864 13.104668 -2.0768621
0.23249541 13.152846 -2.0848305
0.31328928 13.15512 -2.0854678
0.39382452 13.14703 -2.0845118
0.473952 13.129567 -2.0821211
0.55404657 13.115562 -2.0803683
0.63236576 13.067542 -2.0731969
0.71054655 13.026943 -2.0673003
0.78837252 12.987849 -2.0617225
0.8695637 13.005423 -2.065388
0.94826901 12.985073 -2.0629976
1.0260562 12.955391 -2.0591729
1.1110704 13.013772 -2.0696907
1.188201 12.977217 -2.0649099
1.2657889 12.949048 -2.0615633
1.3459333 12.947911 -2.0626788
1.4248145 12.934503 -2.061882
1.5103128 12.978469 -2.0704877
1.5857153 12.934662 -2.0649099
1.6644205 12.919793 -2.0641131
1.750005 12.956297 -2.0717626
1.8308516 12.955091 -2.0733562
1.9097316 12.939706 -2.0727186
1.9919441 12.946283 -2.0757465
2.0661926 12.901649 -2.0704877
2.1521235 12.929629 -2.0771809
2.2250323 12.879213 -2.071125
2.3118458 12.909048 -2.0782964
2.3821929 12.847056 -2.0704877
2.4555845 12.804081 -2.065866
2.5323758 12.780057 -2.0644319
2.6125255 12.772983 -2.065866
2.6753664 12.683298 -2.0537543
2.7254655 12.539303 -2.0327182
2.820246 12.602306 -2.0459456
2.8778081 12.499141 -2.0317621
2.9858243 12.613822 -2.0537543
3.0496359 12.539626 -2.0445113
3.1298683 12.534087 -2.0467424
3.2258284 12.589241 -2.0591729
3.2872083 12.509057 -2.0491328
3.3628736 12.484838 -2.0484953
3.4483435 12.496326 -2.0539138
3.499187 12.383729 -2.0386147
3.5696216 12.343059 -2.0354276
3.6374485 12.294416 -2.0309653
3.7162476 12.283205 -2.0328777
3.7921293 12.262058 -2.0331964
3.8744347 12.261151 -2.0370212
3.9547491 12.253119 -2.0397303
4.0286226 12.224872 -2.0390928
4.0953746 12.175594 -2.0349493
4.1744919 12.163309 -2.0371804
4.2421966 12.117898 -2.0338337
4.3114924 12.077694 -2.0314434
4.3703279 12.009265 -2.024272
4.4456496 11.986851 -2.0250688
4.5215583 11.965812 -2.0261843
4.5835471 11.90836 -2.0210848
4.6540074 11.873578 -2.0199692
4.7212868 11.831044 -2.0175786
4.7971349 11.810084 -2.0190129
4.8695102 11.780427 -2.0190129
4.9405537 11.747597 -2.0185349
5.020308 11.735214 -2.0217221
5.0827675 11.682463 -2.0178974
5.1647377 11.674529 -2.0220408
5.1925445 11.54538 -2.0048296
5.2714963 11.531259 -2.0080168
5.3442311 11.503173 -2.0088136
5.4126053 11.465701 -2.0080168
5.4662075 11.397558 -2.0018017
5.5399299 11.371791 -2.0032358
5.6012836 11.320772 -2.0002079
5.6675391 11.280016 -1.9990925
5.720047 11.21249 -1.9931959
5.786468 11.172798 -1.9923991
5.8516984 11.130965 -1.9912835
5.9091983 11.074818 -1.9876182
5.9709306 11.027065 -1.9855465
6.042757 10.998008 -1.9869808
6.1029158 10.947788 -1.9845903
6.1597705 10.89209 -1.9812436
6.2294345 10.859227 -1.9821998
6.2969413 10.822506 -1.9825186
6.3647332 10.786216 -1.9829966
6.4079866 10.708838 -1.9758252
6.4628205 10.651592 -1.9724786
6.5363317 10.625191 -1.9750284
6.5967021 10.577346 -1.9735942
6.6583142 10.531663 -1.9726379
6.719614 10.485622 -1.9716817
6.7666192 10.417701 -1.9665821
6.8238997 10.366091 -1.9646697
6.8808026 10.31417 -1.9627573
6.945065 10.273392 -1.9630761
6.9839821 10.195561 -1.9562234
7.0616069 10.174415 -1.9605262
7.1278777 10.136547 -1.9616418
7.1767664 10.074126 -1.9579765
7.2211137 10.005885 -1.9531955
7.2829556 9.9621859 -1.9533548
7.3357205 9.9062033 -1.9511237
7.3969579 9.8617954 -1.9512831
7.4549408 9.8130779 -1.9506457
7.5011668 9.749155 -1.9469802
7.5432491 9.6803617 -1.9423587
7.5976124 9.6276951 -1.9410838
7.6546946 9.5785818 -1.9406058
7.7207756 9.5406427 -1.9425181
7.7729135 9.4854527 -1.9409244
7.8013415 9.4018726 -1.9334344
7.8379273 9.3288832 -1.9281753
7.8969398 9.2828712 -1.9286534
7.9511728 9.2312498 -1.9280159
7.9992299 9.1726151 -1.9259442
8.0357599 9.1011581 -1.9211633
8.0453987 9.0001583 -1.9100078
8.1382284 8.9923458 -1.9190916
8.1912508 8.9400578 -1.9186134
8.2150698 8.8563337 -1.9112827
8.2692566 8.8057604 -1.9112827
8.31497 8.7462692 -1.9093703
8.365057 8.6915283 -1.9085735
8.4085846 8.6301384 -1.9063424
8.4523678 8.5692444 -1.9042706
8.4838629 8.4962626 -1.8994898
8.5175877 8.4259949 -1.8953463
8.5754833 8.3797827 -1.8967805
8.6238976 8.3242645 -1.8961431
8.6662388 8.2630167 -1.8942307
8.6923428 8.1866732 -1.8888123
8.7214508 8.1136818 -1.8841908
8.7834282 8.071372 -1.8868999
8.8203611 8.0060453 -1.8841908
8.8259525 7.9128909 -1.8747883
8.880991 7.8644776 -1.8762225
8.9238777 7.8052874 -1.875107
8.9828072 7.7600651 -1.8774974
9.0370121 7.7105689 -1.8789318
9.0728292 7.645431 -1.8765413
9.1028767 7.5757236 -1.8730353
9.1247845 7.4996667 -1.8679357
9.1775284 7.4491367 -1.8693699
9.218441 7.3889794 -1.8684137
9.238061 7.312057 -1.8631546
9.2570858 7.2351732 -1.8578956
9.2950535 7.1734109 -1.8566208
9.3373232 7.115046 -1.856302
9.3815928 7.0582128 -1.8564614
9.3985729 6.9810886 -1.8512024
9.4412308 6.9232888 -1.8512024
9.4499483 6.8409133 -1.844509
9.4732714 6.7695985 -1.8408437
9.5372181 6.7272782 -1.8453059
9.5880384 6.6754012 -1.8472183
9.6320724 6.618681 -1.8478557
9.6626978 6.5528059 -1.8459433
9.688776 6.4840589 -1.8432342
9.7151985 6.4157825 -1.8406843
9.7337046 6.3425756 -1.8367002
9.7608137 6.2752566 -1.8344691
9.8149738 6.2252946 -1.837497
9.8429441 6.1586699 -1.8355846
9.8881083 6.1028256 -1.837019
9.9346437 6.0476851 -1.8387719
9.9774895 5.990171 -1.8398875
10.025949 5.9358792 -1.8421186
10.051951 5.8682761 -1.8402063
10.104881 5.8163385 -1.8433934
10.135228 5.7513027 -1.8424373
10.158264 5.6822586 -1.8402063
10.167004 5.6055212 -1.8354253
10.19687 5.5406752 -1.8346285
10.289855 5.5096946 -1.8454652
10.319102 5.44415 -1.8446684
10.364576 5.387105 -1.8468995
10.410617 5.3301568 -1.84929
10.435193 5.2621775 -1.8478557
10.439875 5.1844363 -1.8429154
10.472376 5.1207147 -1.8430748
10.543627 5.0756316 -1.8502462
10.577249 5.0121102 -1.8507242
10.661485 4.9721522 -1.8602861
10.675642 4.899229 -1.8574176
10.649718 4.8084426 -1.8475369
10.635715 4.7237706 -1.8398875
10.674451 4.6627698 -1.8416405
10.72735 4.6077051 -1.8459433
10.765425 4.5460215 -1.8476963
10.797675 4.4817729 -1.8484931
10.818573 4.4128251 -1.8473777
10.875686 4.3584805 -1.8526366
10.958259 4.3137264 -1.8623579
10.981758 4.2453389 -1.8618797
11.002063 4.1757741 -1.8609235
10.999724 4.0978479 -1.8561426
11.004263 4.02282 -1.8526366
11.055688 3.9648888 -1.8572582
11.074221 3.8950121 -1.856302
11.119376 3.8343916 -1.8599674
11.108091 3.7543955 -1.8540709
11.186211 3.7044797 -1.8634734
11.186193 3.6284614 -1.8596487
11.198837 3.5567672 -1.858055
11.244961 3.4956057 -1.8621985
11.255809 3.423382 -1.8604455
11.284172 3.3565052 -1.8617204
11.290336 3.2830684 -1.8593299
11.338757 3.2218261 -1.8641108
11.340238 3.1471756 -1.8610829
11.368863 3.0801158 -1.8626766
11.432406 3.0221598 -1.8701667
11.423013 2.9448071 -1.8655452
11.457143 2.8787518 -1.8682543
11.448701 2.8020601 -1.8639514
11.473361 2.7335901 -1.8652264
11.465875 2.6575661 -1.8612423
11.515673 2.594759 -1.8668201
11.533306 2.5244734 -1.8671387
11.539887 2.4518123 -1.8657045
11.540211 2.3779695 -1.863314
11.579756 2.3121421 -1.8674575
11.628618 2.2477927 -1.8731946
11.627636 2.1736767 -1.8708042
11.651441 2.1042204 -1.8725572
11.665105 2.0328584 -1.8727165
11.677359 1.9612443 -1.8727165
11.694046 1.8903444 -1.8735133
11.673233 1.8135531 -1.8682543
0 0 -0
0 0 -0
0 0 -0
0 0 -0
5.9068737 0.73271978 -0.92210847
5.8955712 0.6946128 -0.91955864
0 0 -0
0 0 -0
0 0 -0
0 0 -0
0 0 -0
0 0 -0
0 0 -0
0 0 -0
0 0 -0
0 0 -0
0 0 -0
0 0 -0
0 0 -0
0 0 -0
0 0 -0
0 0 -0
0 0 -0
0 0 -0
0 0 -0
0 -0 -0
0 -0 -0
0 -0 -0
0 -0 -0
0 -0 -0
0 -0 -0
0 -0 -0
0 -0 -0
0 -0 -0
0 -0 -0
5.9536462 -0.39828783 -0.92449892
5.9658594 -0.4358893 -0.92688942
5.9758663 -0.47349977 -0.92896116
5.9817014 -0.51091361 -0.93039542
0 -0 -0
6.0663571 -0.59320915 -0.9452163
10.325171 -1.0733813 -1.6370168
10.250681 -1.1292586 -1.6260206
10.372019 -1.2070793 -1.6468973
10.349718 -1.2688967 -1.6445068
10.360341 -1.3347735 -1.6475347
10.380328 -1.4021496 -1.6521564
10.372507 -1.4659537 -1.6523157
10.319367 -1.5230857 -1.6451443
10.317634 -1.5875763 -1.6464192
10.301849 -1.6499177 -1.645463
10.284715 -1.7119632 -1.6443474
10.272072 -1.7747008 -1.6440288
10.240582 -1.8340416 -1.6406821
10.214575 -1.8941426 -1.6382916
10.190157 -1.9543656 -1.6362199
10.176036 -2.0164707 -1.6359012
10.152832 -2.0766959 -1.6341481
10.125409 -2.1358976 -1.6317577
10.112113 -2.1979856 -1.6317577
8.3354187 -1.8655062 -1.340121
10.058404 -2.3159316 -1.6274549
10.061296 -2.3816979 -1.6303234
10.0628 -2.4473536 -1.6330327
10.042806 -2.5078559 -1.6322358
10.041574 -2.5731053 -1.6346263
7.4609756 -1.9608088 -1.2065737
9.9796906 -2.6881785 -1.629686
9.9982195 -2.7590775 -1.6355824
9.981102 -2.8203735 -1.6355824
9.987318 -2.8884192 -1.6395665
9.9570999 -2.9460051 -1.6374948
7.9828334 -2.415329 -1.3076108
7.9301367 -2.4525993 -1.3012362
7.9205866 -2.5029962 -1.3021923
7.9201112 -2.5564001 -1.3047422
8.7031364 -2.86818 -1.4405205
9.7941971 -3.2944522 -1.6293672
9.7784672 -3.3560884 -1.630164
9.7614174 -3.4173295 -1.6308016
9.7170219 -3.4688632 -1.6268175
9.7076139 -3.532809 -1.6288892
7.6567912 -2.8398831 -1.2795626
9.6192026 -3.6349216 -1.6212397
9.5681562 -3.682883 -1.6162994
9.5159655 -3.7299953 -1.6111997
9.4424696 -3.7681909 -1.6024346
9.40728 -3.8212285 -1.6003629
9.4584694 -3.9098003 -1.6134309
9.5034637 -3.9968472 -1.6255425
9.4733143 -4.0527544 -1.6245863
9.4699955 -4.1202569 -1.6284111
9.4517584 -4.1814814 -1.629686
9.4160194 -4.2349434 -1.6279329
9.3853674 -4.2905874 -1.6271361
9.3123074 -4.3264661 -1.6188492
9.3105831 -4.3953233 -1.6233114
9.2540627 -4.4382825 -1.6180524
9.1991434 -4.4815784 -1.6131121
9.1564293 -4.5304966 -1.6104029
9.1143436 -4.5795031 -1.6078531
9.0992641 -4.6420703 -1.6102436
9.0863886 -4.705987 -1.6131121
9.0494776 -4.7575169 -1.6116778
8.9965992 -4.8004069 -1.607375
8.9574251 -4.850348 -1.6056219
8.9326868 -4.9080706 -1.6065781
8.8170357 -4.9152031 -1.5908011
8.8038969 -4.9789295 -1.5939884
8.7303638 -5.0082951 -1.5860201
8.7088556 -5.0672302 -1.5877732
8.6333866 -5.0944843 -1.5794863
8.6282272 -5.1630754 -1.5844265
8.590476 -5.2123356 -1.583311
8.566741 -5.2701197 -1.5849046
8.4915209 -5.2959433 -1.576777
8.4939137 -5.3701024 -1.5834703
8.4599724 -5.4215865 -1.583311
8.3950853 -5.45296 -1.5772551
8.3589945 -5.5027404 -1.576777
8.3250732 -5.5539265 -1.576777
8.2851133 -5.6010337 -1.5756614
8.2497759 -5.651207 -1.5755022
8.204402 -5.6944027 -1.5734304
8.1604233 -5.7383909 -1.5716773
8.1113911 -5.7786169 -1.5689682
8.0973959 -5.8438768 -1.573271
8.0438519 -5.8806343 -1.569765
8.006031 -5.9287047 -1.5694462
7.9529176 -5.9652781 -1.5660996
7.9075179 -6.0073948 -1.5643466
7.8603368 -6.0479755 -1.5622748
7.8075047 -6.0839567 -1.5590876
7.7700272 -6.1317477 -1.5590876
7.7268586 -6.1749945 -1.5579721
7.6734753 -6.2098694 -1.5547848
7.5970473 -6.2255507 -1.5468166
7.5693417 -6.2808733 -1.5490476
7.510252 -6.3100543 -1.5447448
7.4706407 -6.3553777 -1.5445855
7.4696536 -6.4339542 -1.552713
7.4136658 -6.4653916 -1.549207
7.3753352 -6.5120659 -1.5495257
7.3308229 -6.5532503 -1.5485696
7.2699795 -6.5795603 -1.5441073
7.246213 -6.6393828 -1.5477728
7.2408042 -6.7166157 -1.5555816
7.1548362 -6.7190199 -1.545701
7.1077504 -6.7573533 -1.5444261
7.0405464 -6.7761941 -1.5386889
6.9585309 -6.7799988 -1.5296052
6.9189072 -6.8246474 -1.5300833
6.8538475 -6.8439541 -1.5248243
6.8020043 -6.8760543 -1.5225931
6.737606 -6.8950672 -1.5174935
6.7301397 -6.9725027 -1.5256211
6.6872306 -7.0136666 -1.5256211
6.6481309 -7.0588784 -1.5265772
6.6020036 -7.0966468 -1.5259398
6.5242667 -7.0999508 -1.5178123
6.4367862 -7.0916052 -1.5072942
2.1990402 -2.4532182 -0.49309978
2.1800191 -2.4622307 -0.49214357
2.16747 -2.4785328 -0.49278104
6.1827178 -7.1570439 -1.4880111
6.1111321 -7.1625533 -1.4811585
6.0804286 -7.2157688 -1.4845051
6.065721 -7.2886052 -1.4919952
6.0490937 -7.3600059 -1.4991666
6.0274625 -7.4261103 -1.5052224
6.044147 -7.5407534 -1.5213182
5.9732552 -7.5467353 -1.5149437
2.0152032 -2.5788324 -0.48959374
1.989691 -2.5786445 -0.48704392
1.9672493 -2.5821674 -0.48529091
1.9495877 -2.5918229 -0.48481283
1.93718 -2.6084914 -0.485769
1.844658 -2.5160408 -0.4648923
1.8309219 -2.529711 -0.46537039
1.8256975 -2.5553553 -0.46823892
5.567523 -7.8931603 -1.5205214
5.5359097 -7.951479 -1.5253024
5.4495549 -7.9307842 -1.514625
5.4107637 -7.9787793 -1.5174935
5.3578615 -8.0060863 -1.5163779
5.318429 -8.0536385 -1.5192465
5.2581329 -8.0695782 -1.5160593
5.2106557 -8.105011 -1.5166967
5.1624126 -8.1393318 -1.5171747
1.7854863 -2.8541455 -0.50473338
1.7700142 -2.8684075 -0.5053708
1.7539207 -2.8817439 -0.50584888
1.7407793 -2.900069 -0.50728321
4.9118199 -8.2964058 -1.5176529
4.8443956 -8.298254 -1.5123938
4.7992978 -8.338089 -1.5143062
4.7456093 -8.3630877 -1.5135094
4.6715522 -8.3515549 -1.5060192
4.6402407 -8.4163713 -1.5127126
4.5870972 -8.4420824 -1.5122344
4.5426679 -8.4839935 -1.5147843
4.465188 -8.463685 -1.5060192
4.4140821 -8.4926758 -1.506338
4.3731375 -8.5415678 -1.5103221
4.3250904 -8.577055 -1.5119158
4.245595 -8.5494967 -1.5021945
4.1891532 -8.5674047 -1.5007602
4.1365056 -8.592947 -1.5007602
4.0777836 -8.6056767 -1.4985292
4.0228167 -8.6260624 -1.4977323
3.9656947 -8.6416111 -1.4961387
3.9146276 -8.6702805 -1.4969355
3.8701706 -8.7139854 -1.5004416
3.8162344 -8.7366638 -1.5002822
3.7590485 -8.7517519 -1.4988478
3.7121913 -8.7910223 -1.5017165
3.6490972 -8.7917519 -1.4978917
3.6111174 -8.853282 -1.5047444
3.5508504 -8.860611 -1.5021945
3.5032871 -8.8996849 -1.5052224
3.4489696 -8.9219341 -1.5053818
3.3871539 -8.9244699 -1.5021945
3.3295732 -8.9376841 -1.5009196
3.2692461 -8.9431105 -1.4983698
3.2013123 -8.9267607 -1.4921546
3.1589267 -8.9816246 -1.4982104
3.103435 -8.9999046 -1.498051
3.0481544 -9.0187778 -1.498051
2.9952419 -9.0448084 -1.499326
2.9351182 -9.0489311 -1.4969355
2.8696771 -9.0357208 -1.4916764
2.8135948 -9.0512733 -1.4913578
2.7577169 -9.0674219 -1.4911984
2.7023098 -9.0851183 -1.4913578
2.6539574 -9.1271229 -1.4956605
2.6051905 -9.1688757 -1.4999634
2.5459781 -9.1742239 -1.4982104
2.4790523 -9.1506062 -1.4916764
2.4251297 -9.1742353 -1.4931108
2.3665738 -9.1803389 -1.4916764
2.3114028 -9.1994743 -1.4924734
2.250922 -9.1971827 -1.4897641
2.1953621 -9.2146616 -1.4904016
2.1419017 -9.2414227 -1.4926326
2.0827699 -9.2437973 -1.4908797
2.0245337 -9.2496529 -1.4897641
1.9720502 -9.2821798 -1.4931108
0.53748542 -2.6099336 -0.39142534
0.52223444 -2.6170547 -0.39206278
0.50672883 -2.6231177 -0.3925409
0.49443442 -2.6465561 -0.39588755
0.48029193 -2.6611979 -0.39779991
0.46225891 -2.6543694 -0.39620626
0.44579974 -2.6561821 -0.39604691
0.43264478 -2.6783588 -0.39923421
0.42453995 -2.7346163 -0.40799922
0.40979108 -2.7508395 -0.41023034
0.39485902 -2.7669845 -0.41246143
0.38629097 -2.8309777 -0.42250139
0.36023611 -2.766727 -0.41166461
0.34009156 -2.743413 -0.40752113
0.98159975 -8.3299809 -1.3152602
0.92323834 -8.2710924 -1.3047422
0.99816883 -9.4684772 -1.4982104
0.27305248 -2.7548625 -0.4081586
0.74202037 -7.9770494 -1.2545424
0.67921698 -7.8221226 -1.2287254
0.6309703 -7.8231907 -1.2282473
0.58339649 -7.8328223 -1.2292035
0.53835422 -7.8805757 -1.2363749
0.58664322 -9.4375734 -1.4876924
0.52889007 -9.4439526 -1.4881705
0.17798591 -3.5754287 -0.53915602
0.15561272 -3.5665908 -0.53756243
0.13357724 -3.5635324 -0.53692496
0.25677267 -8.1762695 -1.2817937
0.23810044 -9.4221773 -1.4827521
0.18041505 -9.4303694 -1.4838676
0.1228697 -9.4559774 -1.4878517
0.064812541 -9.4516172 -1.4870549
0.0068112551 -9.4439392 -1.48578
-0.051151708 -9.4467649 -1.4862581
-0.10919453 -9.4531832 -1.4873736
-0.1673703 -9.4622059 -1.4889673
-0.22516795 -9.4501448 -1.4872143
-0.28314871 -9.4485855 -1.4872143
-0.34104764 -9.4446974 -1.4868956
-0.39982551 -9.4621534 -1.4900829
-0.45835355 -9.4693823 -1.4916764
-0.51660919 -9.4693489 -1.4921546
-0.57464248 -9.4650154 -1.4919952
-0.6331687 -9.4682064 -1.4931108
-0.69168389 -9.4700508 -1.494067
-0.75024545 -9.4715338 -1.4950231
-0.80599695 -9.4392099 -1.4905609
-0.86533946 -9.4498167 -1.4931108
-0.92599452 -9.4718399 -1.497573
-0.98419726 -9.4669619 -1.4977323
-1.0435637 -9.4725199 -1.4996448
-1.1002973 -9.4541712 -1.4977323
-1.1573255 -9.4394026 -1.4964575
-1.2163578 -9.4409361 -1.4978917
-1.2710927 -9.4098148 -1.494067
-1.3310162 -9.4174786 -1.4966167
-1.3942518 -9.4462471 -1.5026727
-1.4530872 -9.4433689 -1.5036288
-1.5067891 -9.4079552 -1.499326
-0.49374345 -2.9644578 -0.44640604
-0.51410818 -2.9740191 -0.44847777
-0.53547877 -2.9883003 -0.45134631
-0.55866343 -3.0111668 -0.45564917
-0.57508403 -2.9970171 -0.45389614
-1.8445662 -9.3083515 -1.4931108
-1.9121298 -9.3481207 -1.5015571
-1.9657856 -9.3188248 -1.4986885
-2.0315235 -9.3461399 -1.5052224
-0.64971668 -2.9018579 -0.44130635
-0.66440928 -2.8843477 -0.43907526
-0.69892031 -2.9513071 -0.45086822
-2.2586446 -9.2867537 -1.5041069
-2.3186934 -9.2851725 -1.5061786
-2.3766024 -9.2745953 -1.5068161
-0.76486653 -2.9093955 -0.44688413
-0.78039324 -2.8960683 -0.44544983
-0.79604787 -2.8836122 -0.44417492
-0.80916339 -2.8625228 -0.44146574
-0.8239699 -2.8480203 -0.43987209
-2.7384882 -9.255621 -1.5194058
-2.7755041 -9.1734438 -1.5084097
