# .PCD v0.7 - Point Cloud Data file format
VERSION 0.7
FIELDS x y z
SIZE 4 4 4
TYPE F F F
COUNT 1 1 1
WIDTH 1507
HEIGHT 1
VIEWPOINT 0 0 0 1 0 0 0
POINTS 1507
DATA ascii
4.0387182 -5.0425644 -1.6401492
3.9998965 -5.0573831 -1.6368767
2.008224 -2.571744 -0.80842817
1.9823585 -2.5709898 -0.80414873
1.9647869 -2.580795 -0.80339354
1.946588 -2.5897079 -0.80238664
1.9295076 -2.600049 -0.80188316
1.8706132 -2.5532923 -0.78300327
1.7454305 -2.4133863 -0.73441911
1.7238401 -2.4145994 -0.73139834
1.6694027 -2.3689685 -0.71352541
3.6944067 -5.3106198 -1.6424148
3.6420295 -5.3044672 -1.6333525
3.602355 -5.3162994 -1.63008
3.5755851 -5.3471522 -1.632849
3.5400431 -5.3649521 -1.6315904
3.5081139 -5.3881946 -1.6320938
3.462955 -5.3908911 -1.626304
3.4287755 -5.4104028 -1.6258005
3.3862779 -5.4165688 -1.6212693
3.356535 -5.4430108 -1.6230315
3.3306189 -5.4759059 -1.6268075
3.2964587 -5.4954095 -1.6265557
3.2508504 -5.495542 -1.6205142
3.2199953 -5.520401 -1.6220245
3.1971602 -5.55935 -1.6278144
3.1567829 -5.5679183 -1.6245419
3.1192539 -5.5812697 -1.6227797
3.0807459 -5.5926752 -1.6205142
3.0468338 -5.6123233 -1.6207659
1.5914936 -2.9753447 -0.83737731
1.5732073 -2.985054 -0.83737731
1.5561999 -2.9972274 -0.8381325
2.9196432 -5.7078075 -1.6273109
2.8806465 -5.7178364 -1.6250453
2.8364744 -5.7171984 -1.619759
2.7962427 -5.7240601 -1.6167382
2.7577119 -5.7341328 -1.6147243
2.7295165 -5.7658157 -1.6190038
2.6899991 -5.7736831 -1.6164864
2.6500845 -5.7804027 -1.6137174
2.6133728 -5.7939081 -1.6129622
2.5742397 -5.8018727 -1.6106967
2.539366 -5.8193331 -1.6112001
2.5051382 -5.8383622 -1.6122071
2.4670103 -5.8482733 -1.6106967
2.4377525 -5.8793921 -1.6152278
2.4027271 -5.8969278 -1.615983
2.3686574 -5.9169502 -1.6174934
2.323806 -5.9097571 -1.6114519
2.2847114 -5.9166822 -1.6094379
2.2541974 -5.9459734 -1.6137174
2.2156458 -5.9542508 -1.6122071
2.1701055 -5.9431887 -1.6054102
2.1391468 -5.9718809 -1.6096897
2.1008599 -5.9803286 -1.6084311
2.0638103 -5.9921918 -1.6081793
2.0273137 -6.0056591 -1.6084311
1.9931612 -6.0262547 -1.6106967
1.9600254 -6.0503402 -1.6139691
1.9173037 -6.0447254 -1.6091863
1.8824738 -6.0637698 -1.6112001
1.8429812 -6.0677986 -1.6091863
1.8048884 -6.0762095 -1.6084311
1.7651421 -6.078805 -1.6061654
1.72781 -6.0895214 -1.6061654
1.6878277 -6.090682 -1.6036482
1.6478964 -6.0915818 -1.6011308
1.6141938 -6.1156144 -1.6049068
1.5771214 -6.1272783 -1.6054102
1.5404376 -6.1405945 -1.6064172
1.501352 -6.1442904 -1.6049068
1.465415 -6.1609187 -1.6069206
1.4275848 -6.1697946 -1.6069206
1.3897008 -6.1784377 -1.6069206
1.3558972 -6.2057581 -1.6119553
1.3208064 -6.2281618 -1.6157312
0.80125332 -3.8966231 -0.99445778
1.2478726 -6.2619348 -1.6205142
0.75906003 -3.9356205 -1.0022615
0.73951328 -3.9649396 -1.0088065
0.71448416 -3.9655929 -1.0077996
0.69080168 -3.973716 -1.0088065
0.6676864 -3.9855158 -1.0108204
0.64214015 -3.9828496 -1.0090582
0.61828285 -3.9905403 -1.0100652
0.59734577 -4.0181904 -1.0163585
0.57186025 -4.0160313 -1.014848
0.54328823 -3.9906964 -1.0072961
0.52053815 -4.007391 -1.0108204
0.49784136 -4.025877 -1.014848
0.74121052 -6.3097382 -1.6122071
0.44840017 -4.031683 -1.014848
0.42466545 -4.0439835 -1.0173653
0.3997488 -4.0455499 -1.0171137
0.37473956 -4.0459991 -1.0166101
0.3489055 -4.0366521 -1.0135894
0.32420802 -4.0396814 -1.0138412
0.29991606 -4.0483508 -1.0156033
0.27355975 -4.0279069 -1.0098134
0.24794362 -4.0150204 -1.0060375
0.22378762 -4.0251627 -1.008303
0.19932491 -4.0312934 -1.0095617
0.17328496 -4.0024667 -1.001758
0.14861496 -4.0005536 -1.0010028
0.12409531 -4.0023575 -1.0012546
0.099148542 -3.9875636 -0.99722683
0.074424431 -3.97455 -0.99370259
0.049826931 -3.9584806 -0.98942316
0.025638646 -3.9741962 -0.99345088
0.0012537548 -3.9762144 -0.99395436
-0.02324353 -3.9935672 -0.99848551
-0.048034042 -4.0175428 -1.0047787
-0.072806209 -4.0239458 -1.0065409
-0.098265849 -4.0553513 -1.014848
-0.12385003 -4.0778885 -1.0208896
-0.14939746 -4.0915594 -1.0246656
-0.1745823 -4.0924993 -1.025169
-0.200161 -4.1010175 -1.0276864
-0.22357102 -4.0678229 -1.0193793
-0.24917491 -4.0770006 -1.0221483
-0.27405646 -4.0734634 -1.0216448
-0.47107866 -6.4171515 -1.6333525
-0.3212617 -4.0350628 -1.0125824
-0.34444427 -4.0146947 -1.0077996
-0.36880586 -4.0096145 -1.0070443
-0.39122882 -3.9851229 -1.0012546
-0.41617557 -3.9874601 -1.0025132
-0.44892371 -4.0598631 -1.0221483
-0.47663045 -4.0810642 -1.0284415
-0.49918294 -4.0578909 -1.0231552
-0.5248161 -4.0605102 -1.0246656
-0.55283737 -4.0802307 -1.0307071
-0.58044171 -4.0949683 -1.03549
-0.6079644 -4.107605 -1.0397695
-0.62902731 -4.0770154 -1.032721
-0.65510499 -4.0797682 -1.0344831
-0.67789674 -4.0623074 -1.0309589
-0.70198452 -4.0533032 -1.0297002
-0.72462004 -4.0365357 -1.0264277
-0.74495536 -4.0082259 -1.0201344
-0.76661396 -3.9883726 -1.0161067
-0.78466564 -3.9513183 -1.0075479
-0.8104496 -3.9540141 -1.0095617
-0.83849669 -3.9669578 -1.0143446
-0.86590952 -3.9759231 -1.0181205
-0.89071232 -3.9724238 -1.0186241
-0.91506988 -3.9668837 -1.0186241
-0.94274139 -3.9753199 -1.0224
-0.96848977 -3.9751022 -1.0239104
-0.74987912 -2.9973328 -0.76336825
-0.76705366 -2.987988 -0.76210958
-0.78389555 -2.9776096 -0.7605992
-0.80114305 -2.9690061 -0.75959224
-0.8196032 -2.9649673 -0.75984401
-0.83883429 -2.9636075 -0.76085091
-0.85269618 -2.9435308 -0.75682324
-1.1653957 -3.9329998 -1.0266794
-1.1925923 -3.9359639 -1.0294485
-1.2172929 -3.9304211 -1.0299519
-1.2460569 -3.9376416 -1.0339797
-1.2496632 -3.8663783 -1.0166101
-1.0923533 -3.3099492 -0.86632645
-1.0882444 -3.2307255 -0.84643966
-1.0982991 -3.1956136 -0.83863598
-1.1038035 -3.1486275 -0.82755977
-1.3934029 -3.8982232 -1.036497
-1.1257964 -3.0893779 -0.81497318
-1.1393422 -3.0678952 -0.81094551
-1.164308 -3.0771403 -0.81547666
-1.501176 -3.8953645 -1.0455593
-1.5459037 -3.9392357 -1.0604115
-1.2200328 -3.0533905 -0.81497318
-1.2340066 -3.0341921 -0.8117007
-1.2526008 -3.0265632 -0.8117007
-1.2707725 -3.0179284 -0.81144893
-1.6591547 -3.8739474 -1.0558803
-1.6902349 -3.8805532 -1.0606632
-1.7085282 -3.8577199 -1.0571389
-1.7333583 -3.8498116 -1.0578941
-1.7537264 -3.832063 -1.0558803
-1.7588444 -3.7817395 -1.0445523
-1.7638249 -3.7323742 -1.0334762
-1.7996755 -3.7485285 -1.0412799
-1.8633586 -3.8209269 -1.0654461
-1.8266438 -3.6880007 -1.0302037
-1.8383693 -3.6551073 -1.0239104
-1.8616421 -3.6454823 -1.0244138
-1.8844208 -3.63485 -1.0246656
-1.9157006 -3.6403489 -1.0297002
-1.9398247 -3.6319406 -1.0307071
-1.9565402 -3.6097591 -1.0276864
-1.9819167 -3.6036222 -1.0294485
-1.9978613 -3.5804064 -1.026176
-2.003109 -3.5386012 -1.0173653
-2.0546575 -3.5782816 -1.0329727
-2.1204026 -3.6408789 -1.0556285
-2.1367974 -3.6177998 -1.0526078
-2.152492 -3.5938263 -1.0493352
-2.1870601 -3.6012325 -1.0556285
-2.2101302 -3.5893934 -1.0561321
-2.1757486 -3.4854524 -1.0284415
-2.2146866 -3.4998438 -1.0370004
-2.240299 -3.4927063 -1.0390143
-2.2727637 -3.495935 -1.0443007
-2.2606306 -3.4310071 -1.0284415
-2.3240905 -3.48066 -1.0483284
-2.3096137 -3.4134283 -1.0317141
-2.3398166 -3.4127629 -1.0359935
-2.3645775 -3.4039061 -1.0377556
-2.4227338 -3.4423628 -1.0546216
-2.4134736 -3.3848774 -1.0410281
-2.4347641 -3.3707895 -1.0412799
-2.4856858 -3.3971851 -1.0546216
-2.5174315 -3.3966432 -1.0594045
-2.5225399 -3.3602338 -1.0526078
-2.5554099 -3.360872 -1.0578941
-2.5854301 -3.3573985 -1.0619218
-2.6024115 -3.3368921 -1.0604115
-2.647428 -3.3520024 -1.0707325
-2.6280537 -3.2858093 -1.0541182
-2.6414661 -3.2613485 -1.0513492
-2.6749279 -3.2615435 -1.0568873
-2.6194656 -3.1542289 -1.026176
-2.6562083 -3.1588387 -1.0332245
-2.8424091 -3.3385096 -1.100185
-2.8944321 -3.3576605 -1.1127716
-2.7139022 -3.1094115 -1.0332245
-2.851475 -3.2268772 -1.0797948
-2.9305816 -3.2756827 -1.1029541
-2.9324358 -3.2375531 -1.0959057
-2.9509377 -3.2180724 -1.0954021
-2.9930131 -3.2240226 -1.103961
-3.0551538 -3.250735 -1.1200719
-3.0903845 -3.2480555 -1.1258616
-2.8786454 -2.9885345 -1.0390143
-3.2468891 -3.3297696 -1.1694112
-4.1530886 -4.2072959 -1.4974174
-4.6261959 -4.6294746 -1.6620499
-2.9167087 -2.8829682 -1.0264277
-2.9211879 -2.8521702 -1.0216448
-3.4568577 -3.3340952 -1.2089331
-3.453428 -3.2901223 -1.2003742
-3.39744 -3.1972325 -1.1731871
-3.4495981 -3.2066391 -1.1847669
-3.4392705 -3.1579185 -1.1741941
-3.4614496 -3.1393569 -1.1752011
-3.4301913 -3.0728514 -1.1575799
-3.18155 -2.8150754 -1.0646909
-3.8021004 -3.322875 -1.2731246
-3.1455297 -2.7151065 -1.0405247
-3.1775951 -2.7089415 -1.0458111
-3.2585604 -2.7436292 -1.0677117
-3.2708693 -2.7198703 -1.0662013
-3.3046973 -2.7138779 -1.0719911
-3.3235421 -2.6953785 -1.0727463
-3.3521035 -2.6846156 -1.076774
-3.3267655 -2.6309748 -1.0629288
-3.2780156 -2.559875 -1.0415316
-3.3158853 -2.5568538 -1.0488318
-3.3723197 -2.5675352 -1.0621736
-3.367898 -2.5316732 -1.0556285
-3.4455369 -2.5571077 -1.075767
-3.3955894 -2.487865 -1.0546216
-3.3809941 -2.4454274 -1.0450559
-3.3289902 -2.3768289 -1.0236586
-3.3996744 -2.395947 -1.0415316
-3.4016006 -2.3661983 -1.0375038
-3.4934428 -2.3984227 -1.0619218
-3.5433443 -2.4008315 -1.072998
-3.5016959 -2.3413839 -1.0553769
-3.4441059 -2.2724109 -1.0329727
-3.4871809 -2.2702472 -1.0420351
-3.500231 -2.2482843 -1.0417833
-3.5433879 -2.2454169 -1.0508456
-3.5464311 -2.2169628 -1.0475732
-3.5632622 -2.1971927 -1.0485801
-3.5651011 -2.1682458 -1.0450559
-3.5758486 -2.1448364 -1.0443007
-3.6006029 -2.1297541 -1.0478249
-3.5885246 -2.0929909 -1.040273
-3.627306 -2.0858912 -1.0480766
-3.6375108 -2.0621631 -1.0473214
-3.6500955 -2.0398049 -1.0473214
-3.6599998 -2.015969 -1.0465662
-3.6578419 -1.9856231 -1.0422868
-3.6281435 -1.9407697 -1.0299519
-3.6468325 -1.9220819 -1.0319659
-3.6413801 -1.8907479 -1.0269312
-3.6822069 -1.883356 -1.03549
-3.700608 -1.8642108 -1.0375038
-3.7501221 -1.8603971 -1.0485801
-3.7901621 -1.8513719 -1.0568873
-3.8311036 -1.8423444 -1.0654461
-3.8309646 -1.8134185 -1.0621736
-3.8920217 -1.8131782 -1.0765222
-3.8986752 -1.7872461 -1.0752636
-3.9510307 -1.7819957 -1.087095
-3.9840057 -1.7675329 -1.0933883
-3.986793 -1.7395703 -1.0911227
-4.0471959 -1.7364486 -1.1052197
-4.0640159 -1.7142164 -1.1069818
-4.0753517 -1.6896185 -1.1072335
-4.2093225 -1.7149836 -1.1419725
-4.3401594 -1.7373275 -1.1757045
-4.3147116 -1.6964955 -1.1656352
-4.4080977 -1.7020676 -1.1887945
-4.4148388 -1.6736155 -1.1877877
-4.439537 -1.6518962 -1.1918154
-4.6850381 -1.7106134 -1.2570138
-4.6608248 -1.6694304 -1.247448
-4.9357719 -1.7338392 -1.3204502
-4.9051414 -1.6893365 -1.3091222
-5.0016074 -1.6883091 -1.332785
-5.1469398 -1.7022704 -1.3697895
-5.254879 -1.702279 -1.3964731
-5.3464036 -1.6957579 -1.4186255
-5.4445133 -1.6901858 -1.4425399
-5.9946437 -1.8207569 -1.5892994
-6.0530167 -1.7979975 -1.6021378
-6.3083644 -1.8318162 -1.6683432
-6.3827953 -1.8110418 -1.6854609
-6.27068 -1.7377203 -1.6522323
-6.4381704 -1.741679 -1.6945232
-6.4992657 -1.7154827 -1.7081168
-6.5921459 -1.6968061 -1.7302691
-6.714138 -1.6843554 -1.7602252
-6.7666521 -1.6534666 -1.771553
-7.0054584 -1.6663499 -1.8327239
-7.2220402 -1.6711254 -1.887853
-7.3511267 -1.6535474 -1.9195713
-7.3734255 -1.611097 -1.9228437
-7.3888521 -1.5670291 -1.9243542
-7.4163394 -1.525368 -1.929137
-7.4388471 -1.4824822 -1.9326613
-7.450654 -1.4373605 -1.9334165
-7.4916797 -1.3976535 -1.9419754
-7.4810658 -1.3482251 -1.9369407
-7.4625001 -1.297653 -1.9298922
-7.4369149 -1.2462395 -1.9210817
-7.4558873 -1.2024337 -1.9241024
-7.4975543 -1.1620004 -1.9331647
-7.5246453 -1.1189648 -1.9384511
-7.5237045 -1.0716813 -1.9364372
-7.5176725 -1.0237981 -1.9331647
-7.5324507 -0.97877407 -1.9354303
-7.5411959 -0.93289399 -1.9361855
-7.5333214 -0.88502294 -1.9326613
-7.5491905 -0.83996046 -1.9354303
-7.5513148 -0.79332018 -1.9346751
-7.5512247 -0.74649495 -1.9334165
-7.5469899 -0.69934332 -1.9311509
-7.5588527 -0.65369016 -1.9331647
-7.5704389 -0.60791773 -1.9351786
-7.5749917 -0.56152654 -1.9354303
-7.5696044 -0.51444566 -1.9331647
-7.5542655 -0.46685457 -1.9283818
-7.5666509 -0.42103186 -1.9308991
-7.5565257 -0.37397328 -1.9276266
-7.5780158 -0.32843941 -1.9326613
-7.5963297 -0.28254777 -1.9369407
-7.5911489 -0.23572165 -1.9351786
-7.199038 0.52876407 -1.926142
-7.2283583 0.57553554 -1.9350793
-7.1958523 0.61739808 -1.9271934
-7.1976933 0.66207051 -1.9287705
-7.1925349 0.70612788 -1.9285077
-7.1727133 0.74864215 -1.924302
-7.161272 0.79189557 -1.9224619
-7.1831107 0.83895969 -1.9298221
-7.1787853 0.88313663 -1.9300849
-7.1713176 0.92692053 -1.9295592
-7.1568904 0.96973813 -1.9271934
-7.1383872 1.0118713 -1.9237761
-7.1520867 1.0586226 -1.9292964
-7.1254325 1.0993942 -1.9237761
-7.1223626 1.1437068 -1.9248277
-7.123776 1.188818 -1.9271934
-7.1077914 1.2310231 -1.9248277
-7.1058021 1.2756362 -1.9264048
-7.0874071 1.3172716 -1.9235133
-7.0810857 1.3610989 -1.9240391
-7.0678692 1.4035815 -1.9227247
-7.0572338 1.446535 -1.922199
-7.0567207 1.4916073 -1.9245648
-7.0257535 1.5301526 -1.9185189
-6.993638 1.5681629 -1.9122102
-7.0017467 1.615169 -1.9172046
-7.0226831 1.6654526 -1.9258791
-7.0029583 1.7062261 -1.9232504
-6.9624066 1.741666 -1.9148389
-6.9581304 1.786034 -1.9166789
-6.9237156 1.8225507 -1.9101074
-6.935689 1.8712864 -1.9166789
-6.9268665 1.9145794 -1.9174675
-6.8927083 1.9507364 -1.9111588
-6.8954363 1.9972898 -1.9153646
-6.871026 2.0359964 -1.9119474
-6.8427076 2.073359 -1.9074787
-6.8584261 2.1241596 -1.9156275
-6.8415842 2.1650369 -1.9145761
-6.8235807 2.2054911 -1.9132617
-6.785183 2.2391505 -1.9061644
-6.7850304 2.2853632 -1.9101074
-6.7727051 2.32758 -1.9106331
-6.7837887 2.3780336 -1.9179932
-6.7645268 2.417989 -1.9166789
-6.7368727 2.4548233 -1.9129988
-6.6945505 2.4860327 -1.905113
-6.6990223 2.5345776 -1.9108959
-6.6752419 2.5725102 -1.9085301
-6.671905 2.6183572 -1.9122102
-6.6476502 2.6560228 -1.9098445
-6.6339092 2.6978528 -1.9106331
-6.6163392 2.7381377 -1.9103702
-6.589633 2.7745633 -1.9074787
-6.5715976 2.8145642 -1.9072158
-6.5639334 2.8590736 -1.9101074
-6.5321531 2.8930416 -1.9059016
-6.5353918 2.9425781 -1.9122102
-6.5172133 2.9826231 -1.9122102
-6.4882922 3.0176713 -1.9090558
-6.4513364 3.0487659 -1.9035357
-6.4455538 3.0945592 -1.9074787
-6.4403191 3.1408191 -1.9116845
-6.406229 3.1729946 -1.9072158
-6.3806062 3.2092071 -1.9053758
-6.3375964 3.2364457 -1.8982785
-6.3278966 3.2806022 -1.9014329
-6.2974029 3.3139741 -1.8982785
-6.2982244 3.363919 -1.9048501
-6.2800102 3.4038806 -1.9056387
-6.2649231 3.4456058 -1.9074787
-6.2327113 3.4778681 -1.9040614
-6.2381206 3.5312598 -1.9124731
-6.206296 3.5637028 -1.9093188
-6.1809778 3.5997739 -1.9082673
-6.1571126 3.6366503 -1.9077415
-6.1057153 3.6570048 -1.8985413
-6.0922318 3.6999106 -1.9014329
-6.0628428 3.7331741 -1.89933
-6.0357304 3.7677493 -1.8980156
-6.0279875 3.8145182 -1.90301
-6.0028443 3.8503911 -1.9024843
-5.9580765 3.8734748 -1.8956499
-5.9535313 3.9227035 -1.9019586
-5.9189196 3.952193 -1.8985413
-5.8889651 3.9846506 -1.8967013
-5.8628135 4.019618 -1.8961756
-5.8507161 4.0643253 -1.9003814
-5.7988448 4.0812635 -1.8914441
-5.7870469 4.1262922 -1.8959128
-5.7631836 4.1628532 -1.8964385
-5.7383108 4.1987071 -1.8967013
-5.7163153 4.236711 -1.8980156
-5.7071848 4.284452 -1.9037986
-5.6685014 4.3100443 -1.8995929
-5.6526494 4.3529878 -1.9032729
-5.609098 4.3745332 -1.8974899
-5.5912356 4.4160452 -1.9006443
-5.5768414 4.4605165 -1.905113
-5.5156322 4.467319 -1.8932841
-5.511241 4.5200496 -1.9014329
-5.4841452 4.5543971 -1.9016957
-5.4265623 4.5631185 -1.8911812
-5.4131517 4.6088414 -1.8964385
-5.3913469 4.6476398 -1.8988042
-5.3496456 4.6692109 -1.8940727
-5.3172808 4.6987529 -1.8927584
-5.2854738 4.7287169 -1.8917069
-5.2856741 4.7876201 -1.9024843
-5.2199373 4.7866993 -1.8890783
-5.2173338 4.8435874 -1.899067
-5.1200328 4.8120642 -1.8738322
-5.1595993 4.9092431 -1.8998557
-5.134243 4.9454956 -1.9016957
-5.0989671 4.9721894 -1.8998557
-5.0807195 5.0155854 -1.9045873
-5.0355196 5.032341 -1.899067
-5.0059032 5.0645161 -1.8995929
-4.9666467 5.0868511 -1.8964385
-4.9480643 5.1304269 -1.9014329
-4.9138303 5.1578965 -1.9003814
-4.8642397 5.1689758 -1.8932841
-4.8173261 5.1824689 -1.8872383
-4.8017468 5.2297001 -1.8938098
-4.771512 5.261209 -1.8945985
-4.7236919 5.2731371 -1.8882897
-4.6950831 5.3063583 -1.8898669
-4.6611662 5.3336134 -1.8893412
-4.6214185 5.3540783 -1.8864497
-4.5803437 5.3727875 -1.8830324
-4.5590954 5.4148159 -1.8880268
-4.541821 5.4619789 -1.8948613
-4.5069966 5.4882531 -1.8943356
-4.4689837 5.5105577 -1.8924955
-4.4188061 5.517539 -1.8853983
-4.3896551 5.5506034 -1.8875011
-4.3466086 5.5660253 -1.8835582
-4.3111963 5.5910625 -1.8830324
-4.2750559 5.6151071 -1.8822439
-4.2445793 5.6466317 -1.8840839
-4.2104273 5.6733446 -1.8843467
-4.1515927 5.6663804 -1.8733065
-4.1184421 5.6940932 -1.8740951
-4.0923944 5.7318215 -1.8783009
-4.0588145 5.7591901 -1.8790895
-4.0267053 5.7887392 -1.8806667
-4.0113111 5.8427711 -1.8903927
-3.9651048 5.8520961 -1.8853983
-3.9355562 5.885941 -1.8885525
-3.902554 5.9148111 -1.8901298
-3.8719769 5.9475408 -1.8930212
-3.8359318 5.9719987 -1.8932841
-3.8059282 6.0060186 -1.8967013
-3.7863884 6.0570779 -1.9056387
-3.7425702 6.069519 -1.9022214
-3.6887176 6.0651627 -1.8935469
-3.6583791 6.099267 -1.897227
-3.6208858 6.1215997 -1.897227
-3.5881159 6.1520367 -1.8998557
-3.5426068 6.1605535 -1.8956499
-3.4899931 6.1561527 -1.8875011
-3.4709754 6.211144 -1.8980156
-3.423492 6.2154207 -1.8927584
-3.4000156 6.2634468 -1.90117
-3.3565154 6.2748318 -1.8982785
-3.3309925 6.3200636 -1.9059016
-3.3059292 6.36693 -1.9140503
-3.2610905 6.3759274 -1.9106331
-3.2284162 6.4087429 -1.9145761
-3.1500263 6.349772 -1.8906555
-3.1169319 6.3811188 -1.8943356
-3.0697775 6.3836017 -1.8893412
-3.042105 6.4267368 -1.8967013
-3.008316 6.4575272 -1.9003814
-2.9843118 6.5100727 -1.9106331
-2.9288459 6.4939575 -1.9003814
-2.8756464 6.4818182 -1.8914441
-2.8269491 6.4790001 -1.8853983
-2.7936063 6.5112987 -1.8898669
-2.7734668 6.5754366 -1.9037986
-2.7375007 6.6030269 -1.906953
-2.6980255 6.6223803 -1.9077415
-2.6605661 6.6468725 -1.9101074
-2.6130266 6.6460104 -1.905113
-2.5721982 6.6619186 -1.905113
-2.5384519 6.6965232 -1.9106331
-2.4993327 6.7173986 -1.9122102
-2.4511228 6.7135739 -1.9066901
-2.4069562 6.7203121 -1.9043244
-2.3749444 6.7613549 -1.9119474
-2.3384368 6.7903967 -1.9161532
-2.2846999 6.7689629 -1.9059016
-2.2407012 6.7755256 -1.9037986
-2.1999764 6.7919006 -1.9045873
-2.1658404 6.8291845 -1.9114217
-2.121038 6.8331304 -1.908793
-2.0773892 6.8404765 -1.9072158
-2.0372996 6.8595691 -1.9090558
-1.988719 6.8497019 -1.9027472
-1.9463894 6.860847 -1.9024843
-1.9122372 6.9014859 -1.9106331
-1.8607908 6.8795586 -1.90117
-1.8224804 6.9057736 -1.9053758
-1.7707007 6.8803835 -1.8951242
-1.727981 6.8892474 -1.8945985
-1.6865922 6.9034696 -1.8956499
-1.6491092 6.9343395 -1.9014329
-1.6056606 6.9405675 -1.9003814
-1.5624093 6.9474649 -1.8995929
-1.5209855 6.9625769 -1.90117
-1.4774355 6.9680028 -1.9001186
-1.4410607 7.0081248 -1.908793
-1.3978441 7.0158887 -1.9085301
-1.3580552 7.0413871 -1.9132617
-1.314471 7.0476904 -1.9127359
-1.2700059 7.0489759 -1.9108959
-1.2315181 7.0842037 -1.9185189
-1.1865938 7.0830622 -1.9161532
-1.1397353 7.0692534 -1.9103702
-1.0964854 7.0770674 -1.9106331
-1.0500647 7.0636201 -1.905113
-1.0110507 7.1004972 -1.9135245
-0.96720392 7.1046553 -1.9129988
-0.92520601 7.1228948 -1.916416
-0.88136506 7.12748 -1.9161532
-0.83390671 7.101131 -1.9074787
-0.79191667 7.1204982 -1.9114217
-0.74680275 7.1117892 -1.9077415
-0.70353043 7.1200781 -1.908793
-0.66080624 7.134829 -1.9116845
-0.6156885 7.1233692 -1.9074787
-0.57250792 7.1337452 -1.9093188
-0.5269472 7.1130686 -1.9027472
-0.48198792 7.0969152 -1.8974899
-0.43867022 7.1035914 -1.8985413
-0.39737141 7.1475735 -1.9098445
-0.35312733 7.142168 -1.9077415
-0.30992079 7.158659 -1.9116845
-0.26606157 7.1623545 -1.9122102
-0.22106817 7.1300988 -1.90301
-0.17752898 7.1400023 -1.9053758
-0.1336796 7.1390276 -1.9048501
-0.089968726 7.1474314 -1.906953
-0.046171889 7.1574974 -1.9095817
-0.002255359 7.1701884 -1.9129988
0.04164777 7.1546302 -1.908793
0.085593745 7.1580992 -1.9098445
0.1300946 7.1892734 -1.9185189
0.17342819 7.1565099 -1.9098445
0.21686526 7.1398807 -1.9056387
0.26067066 7.1384158 -1.9056387
0.30578724 7.1675282 -1.9140503
0.34943026 7.1587715 -1.9122102
0.39249936 7.1410785 -1.9080044
0.43530551 7.1221642 -1.9035357
0.47971228 7.1299486 -1.9064273
0.52472675 7.1441908 -1.9111588
0.56824583 7.1369896 -1.9101074
0.61194426 7.1324072 -1.9098445
0.65507668 7.1217928 -1.9080044
0.69630784 7.0926743 -1.90117
0.74222207 7.1112986 -1.9074787
0.78265619 7.0778413 -1.8995929
0.82797569 7.0891972 -1.9040614
0.87051493 7.0763226 -1.9019586
0.90648806 7.0134368 -1.8861868
0.95170957 7.0239959 -1.8906555
1.0010262 7.0619659 -1.9027472
1.0436316 7.0509191 -1.9014329
1.0896738 7.0624995 -1.9064273
1.1328348 7.054728 -1.9061644
1.1764184 7.0495477 -1.9066901
1.2171794 7.0279365 -1.9027472
1.2613029 7.0260334 -1.9043244
1.3033314 7.0124707 -1.9027472
1.3474282 7.0100265 -1.9043244
1.3898513 6.9987879 -1.9035357
1.4302484 6.9778409 -1.9001186
1.4756325 6.981205 -1.9035357
1.5157695 6.9597645 -1.9001186
1.5601352 6.9578643 -1.9022214
1.6054028 6.9594417 -1.9053758
1.6411685 6.9203587 -1.897227
1.6886282 6.9307804 -1.90301
1.7329972 6.9277763 -1.905113
1.7689917 6.8917809 -1.8980156
1.8082964 6.8696008 -1.8948613
1.8531798 6.8686223 -1.8977528
1.8824304 6.810626 -1.8846097
1.9257616 6.8045173 -1.8861868
1.9690886 6.7981334 -1.887764
2.0143294 6.7979484 -1.8911812
2.0540435 6.7789974 -1.8893412
2.0964568 6.7690315 -1.8901298
2.1391163 6.7597198 -1.8911812
2.1766934 6.7345328 -1.887764
2.2152522 6.7128043 -1.8853983
2.2644107 6.7228575 -1.8922327
2.2993441 6.690589 -1.8869754
2.3336477 6.6572347 -1.8814553
2.3738019 6.6409736 -1.8809296
2.4211149 6.6444125 -1.8861868
2.465199 6.6384759 -1.8888154
2.5116923 6.6385646 -1.8932841
2.5679979 6.6635389 -1.905113
2.5968473 6.6171217 -1.8961756
2.6205685 6.5589552 -1.883821
2.6524012 6.5221972 -1.8777752
2.6879416 6.4951024 -1.8746209
2.7172568 6.4535909 -1.8672607
2.7587042 6.4412308 -1.868575
2.8043418 6.4383345 -1.8727808
2.8426213 6.4183598 -1.8719922
2.8815539 6.3999171 -1.8717294
2.9199655 6.3803611 -1.8712037
2.9578385 6.3597002 -1.8704151
2.9926815 6.3327088 -1.8677864
3.0381656 6.3281426 -1.8719922
3.0680528 6.2911716 -1.8664721
3.0988863 6.2566667 -1.8617406
3.1432896 6.2496009 -1.8654207
3.1877224 6.2422252 -1.8691007
3.2179682 6.2071309 -1.8643692
3.2519488 6.1795855 -1.8620034
3.290714 6.1612177 -1.8625292
3.3284566 6.1409101 -1.8625292
3.3660738 6.1203713 -1.8625292
3.4129701 6.1164517 -1.8677864
3.4494846 6.0937157 -1.8672607
3.4896936 6.077455 -1.8688378
3.5463467 6.0892749 -1.8793523
3.5664647 6.0383272 -1.8701522
3.6049356 6.0188127 -1.8709408
3.6207578 5.9619474 -1.8599006
3.6395609 5.9108667 -1.8507004
3.675761 5.8884234 -1.8507004
3.7278202 5.8910303 -1.858849
3.7633758 5.8672338 -1.8585862
3.8403354 5.9071202 -1.8790895
3.8690748 5.8721671 -1.8754095
3.9061048 5.8499212 -1.8759352
3.9327316 5.8122602 -1.8714665
3.9765067 5.7999554 -1.8754095
4.0032105 5.7627697 -1.8712037
4.0323849 5.7294197 -1.8683121
4.0646625 5.7006421 -1.8669978
4.1035204 5.6810689 -1.8688378
4.151978 5.674469 -1.8751466
4.1792474 5.6388102 -1.8717294
4.2027597 5.598402 -1.866735
4.2399526 5.5763488 -1.8680493
4.2770324 5.5540495 -1.8693635
4.3050961 5.5200944 -1.866735
4.3424745 5.4981174 -1.8683121
4.3791423 5.4751358 -1.8696265
4.4235878 5.4616566 -1.8743579
4.4606881 5.4388866 -1.8759352
4.4834957 5.3987975 -1.8714665
4.5084639 5.361587 -1.8680493
4.5431538 5.3360262 -1.8688378
4.5789599 5.3117032 -1.8701522
4.6146383 5.2871413 -1.8714665
4.6437979 5.2551122 -1.8701522
4.683033 5.2344279 -1.8730437
4.7053452 5.19487 -1.8691007
4.7540889 5.1843867 -1.8759352
4.7812142 5.1501698 -1.8740951
4.8054557 5.1130033 -1.8712037
4.832747 5.0792284 -1.8696265
4.8678379 5.053648 -1.8712037
4.889997 5.0147061 -1.8677864
4.9294877 4.9935317 -1.8712037
4.9559417 4.9590969 -1.8696265
4.9759822 4.9184222 -1.8656836
5.019186 4.9006023 -1.8706779
5.0859737 4.9052052 -1.8846097
5.077549 4.8373094 -1.8701522
5.1176758 4.8159795 -1.8740951
5.1697469 4.8055038 -1.8825067
5.1763897 4.7528152 -1.8740951
5.2183213 4.7326288 -1.8788266
5.2407932 4.6947279 -1.8764609
5.2868452 4.677824 -1.8827696
5.3030963 4.6345053 -1.8783009
5.3336248 4.6037698 -1.8790895
5.3764591 4.5834727 -1.8843467
5.4066963 4.5522614 -1.8851354
5.4271069 4.5128331 -1.8825067
5.4382887 4.4659796 -1.8767238
5.501564 4.4616923 -1.8893412
5.5062413 4.409761 -1.8814553
5.5490899 4.3884583 -1.8869754
5.5667858 4.3472023 -1.883821
5.617044 4.3312235 -1.8919698
5.6120362 4.2727189 -1.8811924
5.6358333 4.2364645 -1.8804039
5.6400251 4.1857076 -1.8730437
5.6881752 4.1675553 -1.8806667
5.7066031 4.1274872 -1.8783009
5.7341771 4.0940762 -1.8790895
5.7623453 4.0610375 -1.880141
5.7958684 4.0316629 -1.8830324
5.8149285 3.9922025 -1.8811924
5.864079 3.9732208 -1.8893412
5.8819304 3.9328754 -1.8872383
5.8954811 3.8898046 -1.883821
5.9346018 3.8635566 -1.8888154
5.9663153 3.8322828 -1.8914441
5.9734163 3.7852759 -1.8861868
5.978529 3.737304 -1.8804039
6.0021696 3.7010562 -1.8806667
6.0560942 3.6832042 -1.8906555
6.0628576 3.6365485 -1.8856611
6.0858874 3.5997701 -1.885924
6.1070271 3.5618742 -1.8856611
6.1254215 3.5224118 -1.8846097
6.1679044 3.4966528 -1.8911812
6.190928 3.4596825 -1.8917069
6.2247176 3.428611 -1.8956499
6.2363095 3.3852904 -1.8927584
6.2671742 3.3524208 -1.8959128
6.281651 3.310755 -1.8940727
6.3172617 3.2801497 -1.8988042
6.3321147 3.2386909 -1.897227
6.3363566 3.1919658 -1.8924955
6.3610091 3.1555984 -1.8940727
6.3681135 3.1105821 -1.8903927
6.3966455 3.0760474 -1.8932841
6.4337139 3.0454063 -1.8988042
6.4653988 3.0119817 -1.9027472
6.4881439 2.9742637 -1.9040614
6.4781251 2.9217083 -1.8956499
6.5012221 2.8842511 -1.897227
6.5400229 2.8535628 -1.9035357
6.5627289 2.8156619 -1.905113
6.5789928 2.774966 -1.9048501
6.5958962 2.7345459 -1.9048501
6.6000404 2.6889284 -1.90117
6.6298523 2.6537566 -1.905113
6.6487045 2.6140852 -1.9059016
6.664619 2.5732403 -1.9059016
6.6748691 2.5302474 -1.9043244
6.6794171 2.485208 -1.90117
6.6972594 2.4451692 -1.9019586
6.7348461 2.4121592 -1.9085301
6.7486095 2.37047 -1.9082673
6.7584662 2.3274467 -1.906953
6.7890759 2.2914848 -1.9116845
6.8020921 2.2494819 -1.9114217
6.8120947 2.2065141 -1.9103702
6.8264251 2.1649659 -1.9106331
6.8423452 2.1238966 -1.9114217
6.8460159 2.0790706 -1.908793
6.8521695 2.0351033 -1.906953
6.8747206 1.9959784 -1.9098445
6.8896227 1.9545479 -1.9106331
6.8931174 1.9099199 -1.9082673
6.8795586 1.8607908 -1.90117
6.9216337 1.8266631 -1.9098445
6.9383183 1.7856003 -1.9114217
6.9622459 1.746278 -1.9151018
6.9643941 1.7014662 -1.9127359
6.9962931 1.6638322 -1.9187818
6.9903898 1.6171781 -1.9143132
7.0077119 1.5759478 -1.916416
7.0031099 1.5298332 -1.9124731
7.0142531 1.4872341 -1.9129988
7.0402579 1.4476626 -1.9177303
7.0575247 1.4061326 -1.9200962
7.0574927 1.3611588 -1.9177303
7.0581241 1.3164152 -1.9156275
7.0698667 1.2737663 -1.9166789
7.061389 1.2275559 -1.9122102
7.0840139 1.186753 -1.916416
7.0606804 1.1383547 -1.9080044
6.5021181 1.007501 -1.7521268
6.4833641 0.96390122 -1.7452923
5.9293971 0.84448934 -1.5912547
5.8369517 0.79483193 -1.5644428
5.8273664 0.75714022 -1.5604998
5.8070059 0.7182954 -1.5536654
5.7978883 0.68107748 -1.5499853
5.7866149 0.6437856 -1.5457795
5.7837396 0.60756326 -1.5439395
5.7739162 0.57073742 -1.5402594
5.7705841 0.53467685 -1.5384194
5.7651048 0.49851277 -1.5360535
5.7642083 0.46282127 -1.5350021
5.7640529 0.42723066 -1.5342135
5.7550144 0.39107242 -1.5310591
0 0 -0
0 0 -0
0 0 -0
0 0 -0
0 0 -0
0 0 -0
0 0 -0
0 0 -0
0 0 -0
0 0 -0
0 0 -0
0 -0 -0
0 -0 -0
0 -0 -0
0 -0 -0
0 -0 -0
0 -0 -0
0 -0 -0
0 -0 -0
0 -0 -0
0 -0 -0
0 -0 -0
0 -0 -0
0 -0 -0
0 -0 -0
6.0246015 -0.55397528 -1.6078151
6.5280757 -0.64078677 -1.7466067
7.2024612 -0.75175184 -1.9324507
7.2111382 -0.79741794 -1.9361308
7.1955686 -0.84041679 -1.9332392
7.2055979 -0.8864395 -1.937445
7.1847134 -0.92865419 -1.9332392
7.192265 -0.97453707 -1.9369193
7.1670451 -1.0159383 -1.9316621
7.1396794 -1.056784 -1.9258791
6.989078 -1.0783334 -1.8861868
6.7508469 -1.0839876 -1.8223112
6.6136932 -1.103611 -1.786299
6.5003238 -1.125713 -1.7568583
6.4277701 -1.1538032 -1.7387208
6.3228679 -1.1750463 -1.711646
6.2880626 -1.2085346 -1.7040229
6.2228031 -1.2356216 -1.6879883
6.3521509 -1.3018944 -1.7261033
6.2760792 -1.3264687 -1.7071773
6.2593379 -1.3631039 -1.7048115
6.2734504 -1.4065548 -1.7111201
6.260941 -1.4441534 -1.7100687
6.2463298 -1.4812059 -1.7084916
6.2371235 -1.5195048 -1.7084916
6.1939883 -1.5493119 -1.6990285
6.168479 -1.5832078 -1.6945598
6.1549163 -1.620044 -1.6935084
6.1020117 -1.6462113 -1.6814166
6.0908661 -1.6833644 -1.6811538
6.0822792 -1.7212313 -1.6816795
6.0706768 -1.7582505 -1.6814166
6.0412731 -1.7899811 -1.6761594
6.0126333 -1.8216971 -1.671165
6.0124016 -1.8619828 -1.6743194
6.0008636 -1.8988392 -1.6743194
5.9936895 -1.9371085 -1.6756337
5.967032 -1.9690084 -1.6714278
5.9475236 -2.0031195 -1.669325
5.9159603 -2.0329866 -1.6638049
5.8851652 -2.0628614 -1.6585476
5.9014688 -2.1093304 -1.6669593
5.8856955 -2.14451 -1.6661706
5.8398666 -2.1684866 -1.6567075
5.8318653 -2.2063279 -1.6582848
5.8110161 -2.2392931 -1.6561818
5.792676 -2.2731435 -1.6548675
5.8010168 -2.3175972 -1.6614391
5.7714944 -2.3469665 -1.6569704
5.7489619 -2.3790138 -1.6546047
5.7333674 -2.4138694 -1.6543418
5.7122402 -2.4463432 -1.6525018
5.7201195 -2.4913681 -1.6593362
5.7064891 -2.5272009 -1.6598619
5.6917548 -2.5625639 -1.6601248
5.693469 -2.6054726 -1.665382
5.6660032 -2.6350667 -1.6619649
5.6680455 -2.6784432 -1.667485
5.6593313 -2.7169309 -1.6698507
5.6382184 -2.7494893 -1.6685364
5.6030869 -2.7750373 -1.6630163
5.5911255 -2.8119669 -1.6645935
5.5419755 -2.8299794 -1.6548675
5.5159421 -2.859489 -1.652239
5.5162215 -2.9027188 -1.6577591
5.4923501 -2.9333284 -1.655919
5.4861226 -2.9734123 -1.6595991
5.4584761 -3.0019023 -1.6567075
5.4525909 -3.0423925 -1.6606505
5.43466 -3.0762672 -1.6609133
5.4123354 -3.1076334 -1.6598619
5.3939991 -3.1412702 -1.6601248
5.3663168 -3.1693997 -1.6574962
5.3368368 -3.1963165 -1.6543418
5.3303175 -3.2370179 -1.6585476
5.3226776 -3.2772534 -1.6624906
5.3065605 -3.3124063 -1.6638049
5.2739077 -3.3371637 -1.6598619
5.2086697 -3.3408029 -1.6454045
5.1921167 -3.37533 -1.6467187
5.1705031 -3.4065938 -1.6464559
5.1446896 -3.4350398 -1.6448787
5.1155252 -3.4611342 -1.6422502
5.1101055 -3.5033715 -1.6475074
5.0948515 -3.5390654 -1.6496103
5.0138717 -3.5286021 -1.6298956
5.0227604 -3.5811508 -1.6401472
5.0280638 -3.6316803 -1.6493474
5.0142498 -3.6687319 -1.652239
5.0032701 -3.7080493 -1.6561818
4.9865956 -3.743314 -1.6582848
4.9481745 -3.7621586 -1.6530275
4.9058886 -3.7777293 -1.6464559
4.8780522 -3.8041992 -1.6448787
4.8637033 -3.8412364 -1.6480331
4.8528495 -3.8812542 -1.6525018
4.8229461 -3.9060986 -1.6503989
4.7765102 -3.9172592 -1.642513
4.7137928 -3.9144337 -1.6288441
4.6837788 -3.9383147 -1.6267412
4.6485076 -3.9575956 -1.6227983
4.6650543 -4.0213289 -1.6375186
4.6257563 -4.0371861 -1.6322613
4.5763192 -4.043767 -1.623324
4.5018129 -4.0273738 -1.6051865
4.5542359 -4.1248865 -1.6335757
4.5572805 -4.1788416 -1.6440902
4.548522 -4.2224832 -1.6503989
4.5218244 -4.2496519 -1.650136
4.5096416 -4.2906213 -1.6553932
4.4880934 -4.322897 -1.6572334
4.4228072 -4.3126264 -1.642513
2.3188617 -2.2882478 -0.84709007
2.3047776 -2.302433 -0.84709007
2.2919631 -2.3179042 -0.84761578
4.3870735 -4.4930573 -1.6703764
4.3540649 -4.5143347 -1.6682736
4.2956748 -4.5088267 -1.6561818
4.2672672 -4.5343966 -1.655919
4.2295127 -4.5498929 -1.651976
4.1917291 -4.5650969 -1.6480331
4.2258525 -4.6593513 -1.673268
4.1798048 -4.6657867 -1.6661706
4.1453447 -4.6848412 -1.6638049
4.0974774 -4.6883903 -1.655919
4.0604386 -4.7039475 -1.6525018
4.0264926 -4.7228985 -1.6503989
3.9676154 -4.7120838 -1.6377815
3.9312267 -4.7274365 -1.6346271
3.9627533 -4.8252964 -1.6606505
3.9367168 -4.8540177 -1.6622277
3.90505 -4.8758221 -1.6614391
3.8738623 -4.8981771 -1.6609133
2.0103519 -2.5733314 -0.84919298
1.9886341 -2.5779765 -0.84656435
1.9692725 -2.5855236 -0.84498715
1.9498932 -2.5929301 -0.84341002
1.932222 -2.6025209 -0.84262139
1.9145066 -2.6119926 -0.84183282
1.715281 -2.3703649 -0.75666529
1.704628 -2.3863423 -0.75850528
1.6938434 -2.4022779 -0.76034534
3.5171885 -5.0560069 -1.6375186
3.4702663 -5.0544229 -1.6298956
3.4456806 -5.085207 -1.63305
3.4063711 -5.0942216 -1.629107
3.3792992 -5.12147 -1.6312099
3.352021 -5.1485782 -1.6333128
3.312026 -5.1560588 -1.629107
3.2880714 -5.1885095 -1.63305
3.2469699 -5.1938591 -1.6283184
3.2221277 -5.2251835 -1.6319984
3.1935143 -5.2506266 -1.6338385
3.1552832 -5.2601929 -1.6306841
3.1200016 -5.2744713 -1.629107
3.0904951 -5.2985168 -1.6306841
3.0574448 -5.3165436 -1.6304213
3.0266683 -5.3385615 -1.6314727
2.9962072 -5.3612437 -1.6327871
2.9576707 -5.3693848 -1.6296327
2.9347925 -5.4060884 -1.6354157
2.8933771 -5.408679 -1.6306841
1.5770845 -2.990973 -0.88073653
1.5587026 -3.0005934 -0.88073653
1.5407012 -3.0109601 -0.88099939
2.7333002 -5.4254909 -1.6146495
2.7363927 -5.5156331 -1.6369928
2.692338 -5.5115113 -1.6306841
2.6542895 -5.5192318 -1.6280556
2.6187234 -5.5319257 -1.627004
2.5912476 -5.5618839 -1.6312099
2.5494354 -5.5610132 -1.6262155
2.5152655 -5.5765519 -1.6262155
2.4759166 -5.5804143 -1.6227983
2.4420149 -5.5963855 -1.6230612
2.4072499 -5.6103773 -1.6227983
2.3772779 -5.6357107 -1.6259526
2.3385899 -5.6403866 -1.6230612
2.2915652 -5.624248 -1.6141238
2.2570121 -5.6382031 -1.6141238
2.220257 -5.6465578 -1.6125467
2.1859159 -5.660975 -1.6128095
2.1545582 -5.6833034 -1.6154381
2.1166189 -5.6882772 -1.6130724
2.0892835 -5.7220044 -1.6191182
2.0560858 -5.7401662 -1.6206954
2.032012 -5.7845368 -1.6298956
1.9848622 -5.7631407 -1.6201696
1.9519302 -5.7825251 -1.6222725
1.9267074 -5.8255401 -1.6312099
1.8787426 -5.7996173 -1.6204325
1.8416637 -5.806437 -1.6191182
1.8057156 -5.8167067 -1.6188554
1.7694305 -5.8258305 -1.6183296
1.7383178 -5.8523016 -1.6227983
1.6975366 -5.8461785 -1.6180668
1.6624227 -5.8592691 -1.6188554
1.6292717 -5.8795877 -1.6217468
1.5914023 -5.8829541 -1.6199068
1.560196 -5.9112668 -1.625164
1.5183686 -5.8992367 -1.6191182
1.4812046 -5.9046988 -1.6180668
1.4417425 -5.9005537 -1.6143867
1.4070718 -5.9158602 -1.6162267
1.3748753 -5.9422431 -1.6212211
1.33585 -5.939271 -1.6180668
1.2975303 -5.9388719 -1.615701
1.2610656 -5.9467216 -1.615701
1.2224176 -5.9439516 -1.6128095
1.1840395 -5.9418774 -1.6101809
0.75321931 -3.9026394 -1.0423971
0.72201234 -3.8682988 -1.0316198
0.69501573 -3.8546143 -1.0266254
0.66590303 -3.8274364 -1.0179509
0.64336139 -3.8371599 -1.0195282
0.62057197 -3.845798 -1.0208424
0.59725803 -3.8514402 -1.0213681
0.57985032 -3.8970246 -1.0329341
0.55782974 -3.9138823 -1.0366142
0.53354412 -3.9153194 -1.0360885
0.50826889 -3.9089513 -1.0334598
0.48131812 -3.8880575 -1.0268883
0.45565438 -3.8756051 -1.0226824
0.43367592 -3.89463 -1.0271511
0.40866408 -3.8866625 -1.0242596
0.38812336 -3.9227028 -1.0334598
0.36431327 -3.9278927 -1.0342485
0.33813214 -3.9060225 -1.0276768
0.31639269 -3.9359145 -1.0352999
0.29116952 -3.9233487 -1.0313569
0.26532993 -3.8990705 -1.0242596
0.24086687 -3.891958 -1.0218939
0.21714194 -3.8962529 -1.0226824
0.19337337 -3.9004028 -1.023471
0.1689384 -3.8899486 -1.0203167
0.14503127 -3.8899479 -1.0200539
0.12068439 -3.8753345 -1.015848
0.096712902 -3.8682859 -1.0137451
0.072707124 -3.8543363 -1.0098022
0.049187854 -3.8653224 -1.0126936
0.025481891 -3.867481 -1.0132194
0.0017557094 -3.8984392 -1.021631
-0.022222424 -3.9080248 -1.0242596
-0.046247967 -3.9116738 -1.0253111
-0.07030151 -3.9142106 -1.0260997
-0.094411455 -3.9175637 -1.0271511
-0.1183885 -3.9149818 -1.0266254
-0.14216058 -3.9074323 -1.0247854
-0.16534913 -3.8881714 -1.019791
-0.18943936 -3.8919022 -1.0211053
-0.21315673 -3.8877764 -1.0203167
-0.23736177 -3.8921735 -1.0218939
-0.26007059 -3.873316 -1.0171623
-0.28255695 -3.8543272 -1.0124308
-0.30735233 -3.8669477 -1.0163738
-0.33355269 -3.8938277 -1.0242596
-0.35876644 -3.9061191 -1.0282025
-0.38282162 -3.9048045 -1.0284654
-0.40747604 -3.9090993 -1.0303055
-0.43187895 -3.9103613 -1.0313569
-0.45407104 -3.8923049 -1.0271511
-0.48018646 -3.9076397 -1.0321455
-0.50378275 -3.9017494 -1.0313569
-0.5261575 -3.8871119 -1.0282025
-0.55325204 -3.9067364 -1.0345113
-0.58046567 -3.9252198 -1.0405571
-0.60468674 -3.9225378 -1.04082
-0.63195926 -3.9387584 -1.0463401
-0.65993035 -3.9576461 -1.0526488
-0.68008149 -3.9297559 -1.0460773
-0.70059788 -3.9055669 -1.0405571
-0.72684276 -3.9135258 -1.0439743
-0.75084203 -3.9089923 -1.0439743
-0.774813 -3.9043117 -1.0439743
-0.79817319 -3.8966486 -1.0431857
-0.81667608 -3.8661914 -1.0360885
-0.83463001 -3.8347118 -1.0287282
-0.85455233 -3.8135142 -1.0242596
-0.882276 -3.8270013 -1.0295169
-0.90908331 -3.835597 -1.0334598
-0.92757297 -3.8093245 -1.0276768
-0.78153569 -3.1268666 -0.83762699
-0.76926297 -2.9995928 -0.80319202
-0.78765368 -2.9948163 -0.80319202
-0.80651766 -2.9917901 -0.80371773
-0.82511693 -2.9877148 -0.80398059
-0.84290791 -2.9807391 -0.80345488
-0.86037576 -2.9727309 -0.80266625
-1.1205013 -3.783273 -1.0345113
-1.1484528 -3.7920232 -1.0389799
-1.1691282 -3.7766106 -1.0366142
-1.1832504 -3.7408514 -1.0284654
-1.1957906 -3.7013898 -1.0192652
-1.1243987 -3.4090502 -0.9375149
-1.0873673 -3.2301967 -0.88809669
-1.1049708 -3.217077 -0.88625664
-1.1320341 -3.2311771 -0.89230251
-1.3854446 -3.8773694 -1.0813009
-1.1243428 -3.0874166 -0.85471308
-1.1446098 -3.0840774 -0.85576457
-1.1843476 -3.1320393 -0.87179917
-1.4610922 -3.7926881 -1.0668434
-1.208236 -3.0804482 -0.86102182
-1.2238915 -3.0649133 -0.85865605
-1.2415836 -3.0546649 -0.85786748
-1.2584578 -3.042532 -0.85655314
-1.5239328 -3.6207123 -1.0297798
-1.5677804 -3.661844 -1.044763
-1.6017826 -3.6786904 -1.0526488
-1.6219794 -3.6635001 -1.0510716
-1.6341249 -3.6306064 -1.0442373
-1.6652074 -3.639811 -1.0500202
-1.6814041 -3.6164033 -1.0460773
-1.6953145 -3.588573 -1.04082
-1.7143776 -3.5720153 -1.0389799
-1.7299169 -3.5484216 -1.035037
-1.7490869 -3.5325532 -1.0334598
-1.7720302 -3.5243402 -1.0342485
-1.7997671 -3.5254297 -1.0379285
-1.8195881 -3.5108941 -1.036877
-1.8446919 -3.5064933 -1.0389799
-1.8752664 -3.5121281 -1.0442373
-1.8921821 -3.4920738 -1.0416086
-1.9149687 -3.4829338 -1.0423971
-1.9400657 -3.4778578 -1.0445001
-1.9551883 -3.4549742 -1.0410829
-1.9600111 -3.4144669 -1.0321455
-1.9784964 -3.3982079 -1.0308312
-1.98704 -3.3652375 -1.0242596
-2.0131061 -3.3620858 -1.0271511
-2.0402102 -3.3603899 -1.0305684
-2.0714171 -3.3650596 -1.0360885
-2.105824 -3.3743823 -1.0431857
-2.1192644 -3.3499846 -1.0395057
-2.1387374 -3.335294 -1.0389799
-2.1633704 -3.3285787 -1.0410829
-2.1848154 -3.316853 -1.0416086
-2.1970875 -3.2913501 -1.0376656
-2.2291396 -3.2953854 -1.0434486
-2.2607777 -3.2983546 -1.0489687
-2.2859287 -3.2915516 -1.0513345
-2.3105259 -3.2837746 -1.0534374
-2.3614459 -3.3127379 -1.0678948
-2.3314362 -3.2285843 -1.0445001
-2.3563313 -3.221225 -1.0468658
-2.4122539 -3.2555344 -1.0634261
-2.4414539 -3.253016 -1.067632
-2.4864845 -3.2709956 -1.0789351
-2.5065081 -3.2556772 -1.0789351
-2.5216897 -3.2341506 -1.0768322
-2.56601 -3.2496562 -1.0876095
-2.5581739 -3.1991951 -1.0755179
-2.5139806 -3.1047239 -1.0479172
-2.5115645 -3.0631328 -1.038717
-2.5426428 -3.0625074 -1.0439743
-2.5601442 -3.0453718 -1.0434486
-2.5656445 -3.0141807 -1.0379285
-2.5677085 -2.9793837 -1.0310941
-2.5979979 -2.9773817 -1.0360885
-2.6162179 -2.9613845 -1.0360885
-2.6587899 -2.9725964 -1.0460773
-2.7229755 -3.0069909 -1.0647405
-2.7342005 -2.9824054 -1.061849
-2.7517922 -2.9648654 -1.0615861
-3.6713784 -3.9067454 -1.4201311
-2.765352 -2.9071116 -1.0526488
-2.7108359 -2.8150523 -1.0242596
-2.7381635 -2.8087258 -1.0282025
-2.7607694 -2.797364 -1.0303055
-2.7908423 -2.7933362 -1.0352999
-2.802439 -2.7707341 -1.0331969
-2.8249106 -2.758878 -1.0352999
-2.8397019 -2.7394836 -1.0345113
-3.4580178 -3.2949159 -1.2608361
-2.8499153 -2.6826136 -1.0258368
-3.2387996 -3.0111964 -1.1643655
-3.4320731 -3.1517634 -1.2290298
-3.2783668 -2.9738169 -1.165417
-3.3871157 -3.0347455 -1.1985377
-2.9438713 -2.6054368 -1.0305684
-2.9816005 -2.6063681 -1.0384542
-2.9873099 -2.5791998 -1.0347742
-3.0126259 -2.5689571 -1.0381913
-3.0334992 -2.5547726 -1.0400314
-3.0572793 -2.5428958 -1.0429229
-4.6552696 -3.8231721 -1.6007178
-4.6778908 -3.7939284 -1.6004549
-3.1359549 -2.5121195 -1.054226
-3.1339018 -2.4790678 -1.0481801
-3.1338434 -2.4479177 -1.0429229
-3.1533897 -2.4321768 -1.0445001
-3.1828413 -2.4238846 -1.0494945
-3.1837702 -2.3938766 -1.044763
-3.1999485 -2.3754458 -1.0452887
-3.2635021 -2.3916831 -1.061849
-3.3015718 -2.3885732 -1.0697349
-3.341296 -2.3862064 -1.0781465
-3.3456209 -2.3584359 -1.0747293
-3.3267589 -2.3147283 -1.063689
-3.2931688 -2.2615147 -1.0479172
-3.3165693 -2.2477584 -1.0510716
-3.3615825 -2.248276 -1.0613233
-3.3463192 -2.2084835 -1.0518602
-3.3137133 -2.1579118 -1.036877
-3.3366342 -2.1437941 -1.0400314
-3.4059649 -2.1589057 -1.0581689
-3.4428759 -2.1527941 -1.065792
-3.4609482 -2.1346662 -1.0673691
-3.4649124 -2.1078765 -1.0644777
-3.4628861 -2.077646 -1.0597461
-3.4730775 -2.0548859 -1.0589576
-3.5047915 -2.0447137 -1.0650034
-3.5155988 -2.0222085 -1.0644777
-3.520386 -1.9963179 -1.0621119
-3.5452037 -1.9817376 -1.0660548
-3.5699744 -1.9669278 -1.0699978
-3.5641675 -1.9353224 -1.0644777
-3.5649145 -1.9075023 -1.0610604
-3.5628936 -1.878397 -1.0568546
-3.5572252 -1.8476106 -1.0515974
-3.608012 -1.8459527 -1.063689
-3.5882478 -1.8081582 -1.054226
-3.7168322 -1.8444015 -1.0899754
-3.7402174 -1.8274873 -1.0936555
-3.7461426 -1.8019954 -1.0920782
-3.7606175 -1.7806262 -1.0931296
-3.777595 -1.7603689 -1.0949697
-3.7944653 -1.7399703 -1.0968097
-3.8314576 -1.7285511 -1.1046957
-3.9160798 -1.7378637 -1.1267761
-3.9974201 -1.7446588 -1.1478051
-5.51195 -2.3650396 -1.5936205
-4.0300865 -1.7003456 -1.1512223
-4.0484657 -1.6789098 -1.1535882
-4.1614528 -1.6958841 -1.1838174
-4.3912511 -1.7581249 -1.2482188
-4.357955 -1.713856 -1.2353384
-4.3881917 -1.6947261 -1.2411214
-4.4309888 -1.6800752 -1.2505845
-4.4593005 -1.6595817 -1.2558417
-4.6343589 -1.692385 -1.3036828
-4.6982508 -1.6831028 -1.3191917
-4.8040776 -1.6878014 -1.3467923
-4.8782048 -1.6802731 -1.3651927
-5.0346971 -1.6996542 -1.4072508
-5.1943541 -1.7180847 -1.4500974
-5.2185669 -1.6906379 -1.4540403
-5.3925557 -1.7104771 -1.5008299
-5.3688536 -1.6667794 -1.491104
-5.8359861 -1.7725129 -1.6212211
-6.0298915 -1.7910309 -1.673268
-6.0704193 -1.7626022 -1.6816795
-6.1414561 -1.7424281 -1.6987656
-6.176208 -1.7114064 -1.7056
-6.2508597 -1.6908494 -1.7237376
-6.3469467 -1.6750993 -1.747921
-6.4673676 -1.6644809 -1.7789388
-6.5710473 -1.6482244 -1.805225
-6.7722468 -1.6545558 -1.858849
-6.977519 -1.6593707 -1.9135245
-7.0214109 -1.6243495 -1.9229876
-7.0472488 -1.5848324 -1.9274563
-7.0756931 -1.5456767 -1.9327135
-7.1029778 -1.5060315 -1.9377079
-7.1281514 -1.465721 -1.9421766
-7.1417422 -1.4228978 -1.9434909
-7.1427593 -1.3775896 -1.941388
-7.1444378 -1.3324993 -1.939548
-7.1135473 -1.2816288 -1.9287705
-7.1326842 -1.239938 -1.9319249
-7.1458678 -1.1971048 -1.9335021
-7.1445055 -1.1518553 -1.9311364
-7.1419039 -1.1065201 -1.9285077
-7.1638288 -1.0649449 -1.9327135
-7.1625867 -1.0198815 -1.9306107
-7.17349 -0.97656345 -1.9319249
-7.1707354 -0.93141222 -1.9295592
-7.1734428 -0.88704115 -1.9287705
-7.1873751 -0.84402043 -1.9311364
-7.1905007 -0.7996906 -1.9306107
-7.1933532 -0.75535429 -1.9300849
-7.1959319 -0.71101302 -1.9295592
-7.2289815 -0.66951096 -1.937445
-7.2185345 -0.62389827 -1.9335021
-7.2376146 -0.58082682 -1.9377079
-7.2102518 -0.53413075 -1.9292964
-7.2037668 -0.48922724 -1.9266677
-7.2172265 -0.44566897 -1.9295592
-7.2342753 -0.40217754 -1.9335021
-7.2578073 -0.35882604 -1.9392852
-7.2386661 -0.31337157 -1.9335021
-7.2462378 -0.269164 -1.9350793
-7.2120709 -0.22359636 -1.9253534
-7.2605696 -0.18050717 -1.9382336
-7.2258477 -0.1352912 -1.9285077
-7.2304006 -0.090999633 -1.9295592
-7.230823 -0.046633016 -1.9295592
-7.2329025 -0.0022649365 -1.9300849
-7.2453232 0.04219041 -1.9335021
-7.23528 0.086529158 -1.9308735
-7.249083 0.13118654 -1.9348165
-7.2462125 0.17561656 -1.9342908
-7.2382479 0.21986903 -1.9324507
-7.2329059 0.26413649 -1.9313992
-7.2205458 0.3080577 -1.9285077
-7.2059917 0.3517428 -1.9250906
-7.2008076 0.39579201 -1.924302
-7.2049847 0.44038099 -1.926142
-7.1915579 0.48386747 -1.9232504
-6.9504356 -0.17674515 -1.9411517
-6.9408126 -0.13389011 -1.9381363
-6.9415035 -0.091299564 -1.9381363
-6.9400096 -0.048691977 -1.9375881
-6.9372926 -0.0061052544 -1.9367657
-6.9246979 0.036396306 -1.933202
-6.9320374 0.07897196 -1.9353951
-6.9179606 0.12126946 -1.9315573
-6.9142017 0.16364689 -1.9307349
-6.9188352 0.20624013 -1.9323797
-6.9107118 0.24844797 -1.9304608
-6.9129009 0.29100817 -1.9315573
-6.9205909 0.33388233 -1.9342985
-6.9116898 0.37597474 -1.9323797
-6.9044533 0.41808665 -1.9310091
-6.9007983 0.46037975 -1.9307349
-6.8920889 0.50229448 -1.9290901
-6.8927116 0.54487699 -1.9301866
-6.8825312 0.58658838 -1.9282677
-6.8404942 0.62530816 -1.9173027
-6.8805575 0.67156363 -1.9299126
-6.8715243 0.71327311 -1.9285419
-6.8574591 0.75437152 -1.9258006
-6.8383722 0.79476941 -1.9216887
-6.8534131 0.83916724 -1.9274454
-6.842412 0.88046712 -1.9258006
-6.8368807 0.92243481 -1.9258006
-6.8282351 0.96396464 -1.9249783
-6.7965035 1.0020579 -1.9175768
-6.8291993 1.0497297 -1.928816
-6.8083854 1.089335 -1.9247041
-6.7920866 1.1295128 -1.9219629
-6.7897663 1.1719847 -1.9233335
-6.7890739 1.2148092 -1.9252523
-6.7824378 1.2566184 -1.9255265
-6.7849894 1.3002013 -1.9285419
-6.7325444 1.3330324 -1.9156579
-6.7374296 1.3770126 -1.9194957
-6.7250896 1.4175336 -1.9183992
-6.7331815 1.4624444 -1.9233335
-6.7128191 1.5012131 -1.9200439
-6.6978579 1.5410804 -1.9183992
-6.6920195 1.5830339 -1.9194957
-6.6690974 1.6208867 -1.9156579
-6.6674242 1.6638721 -1.918125
-6.658021 1.7049899 -1.9183992
-6.6474338 1.7458106 -1.9183992
-6.625453 1.7835665 -1.9151096
-6.6273637 1.8277646 -1.9189475
-6.6141729 1.8678724 -1.9183992
-6.5924249 1.9054842 -1.9153838
-6.5575528 1.9390825 -1.9085306
-6.5501342 1.9806739 -1.9099013
-6.5433707 2.022531 -1.911546
-6.5235009 2.0603259 -1.909353
-6.499753 2.0967722 -1.9060634
-6.4922457 2.1384192 -1.9077083
-6.4990568 2.1849556 -1.9137391
-6.4755216 2.22136 -1.9107237
-6.4399838 2.2534294 -1.9041445
-6.4133549 2.2883782 -1.9003068
-6.4127498 2.332617 -1.9044187
-6.4253688 2.3819478 -1.9126425
-6.4241276 2.4264245 -1.9167545
-6.3821912 2.4554386 -1.9085306
-6.3607364 2.4920974 -1.9066117
-6.3596177 2.5367794 -1.9109977
-6.3091812 2.561646 -1.9003068
-6.3173428 2.6102242 -1.9077083
-6.2834764 2.641485 -1.9022257
-6.2777615 2.6845267 -1.9055152
-6.2576437 2.7214618 -1.9044187
-6.239068 2.7590289 -1.9038705
-6.230793 2.8012021 -1.9066117
-6.2126136 2.8389812 -1.9063376
-6.2046714 2.8815026 -1.909353
-6.1860042 2.9191093 -1.9090788
-6.170578 2.9582579 -1.9099013
-6.1410704 2.9905913 -1.9063376
-6.1432939 3.0384471 -1.9129167
-6.1159406 3.0717685 -1.9101753
-6.0969772 3.1092374 -1.9101753
-6.0769305 3.1461473 -1.9099013
-6.0643225 3.186954 -1.9120942
-6.0336218 3.2182209 -1.9085306
-6.0213737 3.2593017 -1.9109977
-5.9970469 3.2938721 -1.9096271
-5.9742031 3.3292029 -1.9088048
-5.9595232 3.3691099 -1.9107237
-5.9262242 3.398438 -1.9066117
-5.904429 3.4342532 -1.9063376
-5.8832459 3.4704175 -1.9063376
-5.8527622 3.5010211 -1.9033222
-5.8344593 3.5388618 -1.9044187
-5.8183699 3.5781209 -1.9063376
-5.8044667 3.6188419 -1.9090788
-5.772397 3.6482244 -1.9057894
-5.7458539 3.6809807 -1.9044187
-5.7223535 3.7156436 -1.9041445
-5.6962333 3.7485709 -1.903048
-5.6843271 3.7909214 -1.9068859
-5.6577721 3.8235745 -1.9057894
-5.6262693 3.8527849 -1.903048
-5.596992 3.8833973 -1.9011291
-5.5699115 3.9154546 -1.9000326
-5.5442152 3.9484417 -1.8994844
-5.5089645 3.9745092 -1.8956467
-5.4914618 4.0133433 -1.8981137
-5.4729166 4.0515399 -1.9003068
-5.4433374 4.0815835 -1.8986621
-5.4158931 4.1131616 -1.8978397
-5.4012256 4.1545234 -1.9016775
-5.3756323 4.1875868 -1.9016775
-5.3505917 4.2210875 -1.9019516
-5.3275962 4.2562399 -1.903048
-5.2916603 4.2809863 -1.8994844
-5.2667809 4.3145938 -1.9000326
-5.2498307 4.3548102 -1.9035963
-5.2222748 4.386322 -1.9033222
-5.1959953 4.4189057 -1.9035963
-5.1680546 4.4500771 -1.9033222
