# .PCD v0.7 - Point Cloud Data file format
VERSION 0.7
FIELDS x y z
SIZE 4 4 4
TYPE F F F
COUNT 1 1 1
WIDTH 1604
HEIGHT 1
VIEWPOINT 0 0 0 1 0 0 0
POINTS 1604
DATA ascii
5.0404639 2.5416205 -1.9131205
5.0585036 2.5119052 -1.9141022
5.068727 2.4783301 -1.9121388
5.081284 2.4459534 -1.9111573
5.0987587 2.4159424 -1.9121388
5.1066346 2.381418 -1.9095211
5.1185737 2.3488576 -1.9085394
5.1415029 2.3212931 -1.9118116
5.1573768 2.2904685 -1.912466
5.1782618 2.2618048 -1.9150838
5.200726 2.2337162 -1.9183559
5.209981 2.1999261 -1.9167199
5.2312369 2.1711755 -1.9196649
5.2374601 2.1361828 -1.9170471
5.2478371 2.1029522 -1.9160655
5.2606421 2.0707123 -1.9160655
5.2758927 2.0394163 -1.9170471
5.2900743 2.0076759 -1.9177016
5.3049502 1.9761678 -1.9186832
5.3178635 1.9439043 -1.9190104
5.33147 1.9118755 -1.9196649
5.3439922 1.8794396 -1.9199921
5.3572106 1.8472297 -1.9206465
5.3756061 1.8167427 -1.9232643
5.3839607 1.7828338 -1.9222826
5.3912034 1.7485994 -1.9209738
5.3964267 1.7137717 -1.9190104
5.4068408 1.6806276 -1.9190104
5.4116263 1.6457717 -1.9170471
5.4216228 1.6125356 -1.9170471
5.4305077 1.5789752 -1.9167199
5.4473658 1.547689 -1.9193376
5.4531174 1.5132256 -1.9180288
5.4741573 1.482947 -1.9222826
5.4959445 1.4527084 -1.9268637
5.5001793 1.4177802 -1.9252275
5.5106077 1.3844651 -1.925882
5.5171633 1.3501776 -1.9252275
5.5253439 1.3162996 -1.9252275
5.5323958 1.2821589 -1.9249003
5.5429249 1.248811 -1.925882
5.5504827 1.2147768 -1.925882
5.560605 1.1812853 -1.9268637
5.5751534 1.1486678 -1.9294814
5.5793161 1.1138833 -1.9284997
5.5888295 1.0801656 -1.9294814
5.5925651 1.0453326 -1.9284997
5.6044536 1.0120039 -1.9304631
5.6114883 0.97775865 -1.9307903
5.6183143 0.94346505 -1.9311175
5.6249304 0.90912455 -1.9314448
5.6285353 0.87430382 -1.9307903
5.63099 0.83933395 -1.9298086
5.6491308 0.80663443 -1.9343897
5.6427383 0.77042514 -1.9304631
5.642674 0.73517793 -1.9288269
5.6489544 0.7007736 -1.9294814
5.6512709 0.6658783 -1.9288269
5.6580677 0.63150412 -1.9298086
5.6655951 0.59717041 -1.9311175
5.6710334 0.5625819 -1.9317719
5.671556 0.52751255 -1.9307903
5.6784515 0.49302879 -1.9320991
5.680428 0.45810142 -1.9317719
5.6812472 0.42309836 -1.9311175
5.6818509 0.38810253 -1.9304631
0 0 -0
0 0 -0
0 0 -0
0 0 -0
0 0 -0
0 0 -0
0 0 -0
0 0 -0
0 0 -0
0 0 -0
0 0 -0
0 -0 -0
0 -0 -0
0 -0 -0
0 -0 -0
0 -0 -0
0 -0 -0
0 -0 -0
0 -0 -0
0 -0 -0
0 -0 -0
0 -0 -0
0 -0 -0
0 -0 -0
0 -0 -0
0 -0 -0
0 -0 -0
0 -0 -0
0 -0 -0
0 -0 -0
0 -0 -0
0 -0 -0
0 -0 -0
0 -0 -0
0 -0 -0
0 -0 -0
0 -0 -0
0 -0 -0
5.6631413 -0.97854924 -1.94846
5.6347075 -1.0092762 -1.9406068
0 -0 -0
0 -0 -0
5.626298 -1.1150283 -1.9445335
5.4943757 -1.1239378 -1.900359
5.3727307 -1.133419 -1.859784
5.2964244 -1.1512955 -1.8352426
5.2016616 -1.1641473 -1.8041569
5.1511426 -1.1860673 -1.7887777
5.0683703 -1.1997859 -1.7619458
5.0168424 -1.2201335 -1.7462394
4.9570069 -1.2378322 -1.7275879
4.9209437 -1.2609468 -1.7174442
4.8866119 -1.2841465 -1.7079549
4.854919 -1.3077105 -1.6994473
4.9296904 -1.3603683 -1.7292241
4.8839698 -1.3800472 -1.7158082
4.8745027 -1.409726 -1.7154809
4.855794 -1.4366575 -1.7118815
4.8468876 -1.4664252 -1.7118815
4.8314795 -1.4941818 -1.7095909
4.8195176 -1.5229442 -1.7086093
4.8028889 -1.550164 -1.7059916
4.8004661 -1.5819725 -1.7086093
4.7915645 -1.6116992 -1.7089366
4.7887344 -1.643525 -1.7115543
4.777668 -1.6725647 -1.7112271
4.7601967 -1.6993053 -1.7086093
4.7434649 -1.7262179 -1.7063187
4.7301259 -1.7543044 -1.7053372
4.7289953 -1.7869713 -1.7089366
4.6941328 -1.8067839 -1.7001016
4.6803193 -1.8345175 -1.69912
4.6716075 -1.8642521 -1.7001016
4.6635823 -1.8943048 -1.7014105
4.6518712 -1.9228842 -1.7014105
4.641727 -1.9521245 -1.702065
4.6131563 -1.9735034 -1.6958479
4.6182885 -2.0093157 -1.7023922
4.599824 -2.0349379 -1.7001016
4.6053472 -2.0712671 -1.7069732
4.5607567 -2.0849423 -1.6948662
4.5384521 -2.1085055 -1.6912668
4.5203028 -2.1338918 -1.6893035
4.4892335 -2.1530023 -1.6824319
4.4555526 -2.1705701 -1.6745787
4.4286008 -2.1911602 -1.6693431
4.4437776 -2.232723 -1.6804686
4.4350443 -2.2625253 -1.6824319
4.418561 -2.2883914 -1.6814502
4.4194903 -2.3233783 -1.6873401
4.3693066 -2.3313158 -1.6732697
4.3482728 -2.3544805 -1.670652
4.3354001 -2.3820269 -1.6713065
4.3314314 -2.4145675 -1.6755604
4.33216 -2.4499409 -1.6817775
4.2981963 -2.4656575 -1.6742514
4.283803 -2.4924598 -1.6745787
4.2611055 -2.514374 -1.6716337
4.2447867 -2.5399871 -1.6713065
4.2493157 -2.5782437 -1.6794869
4.2454872 -2.6116982 -1.6843952
4.2317872 -2.6391995 -1.6853769
4.2131176 -2.6636 -1.6843952
4.2038541 -2.6939914 -1.6873401
4.1761522 -2.7125263 -1.682759
4.1602192 -2.7386196 -1.6830863
4.1456947 -2.7656684 -1.684068
4.1247334 -2.7884068 -1.6824319
4.1075463 -2.8136632 -1.6824319
4.0855479 -2.8355799 -1.6804686
4.0680718 -2.8605947 -1.6804686
4.0473652 -2.8833084 -1.6791598
4.0165734 -2.8986845 -1.673597
3.9903219 -2.9171388 -1.6699976
3.9791811 -2.9466307 -1.6729425
3.9663165 -2.9749613 -1.6752331
3.9397125 -2.9929523 -1.6716337
3.9369984 -3.0291741 -1.6785053
3.9198282 -3.054436 -1.6791598
3.9017544 -3.0790157 -1.6794869
3.8857408 -3.1052587 -1.6807958
3.8717549 -3.1332049 -1.6830863
3.8531878 -3.1575019 -1.6834135
3.8359225 -3.1828959 -1.6843952
3.8112569 -3.2021165 -1.6821047
3.7879393 -3.2223794 -1.6804686
3.7616534 -3.2400093 -1.6775236
3.7424142 -3.2636507 -1.6778508
3.7350662 -3.2978129 -1.6837407
3.7330742 -3.3370469 -1.6922485
2.4460616 -2.2131884 -1.1006385
2.4338288 -2.2294326 -1.1012928
2.4201035 -2.2443242 -1.1012928
3.6300826 -3.4088924 -1.682759
3.5974579 -3.4200311 -1.6771964
3.574363 -3.440074 -1.6762147
3.5498047 -3.4586432 -1.6745787
3.5184269 -3.4704032 -1.6696703
3.5030835 -3.4979372 -1.6726153
3.4656088 -3.5032394 -1.6647621
3.4440482 -3.5244381 -1.6647621
3.4381044 -3.5618248 -1.6726153
3.4064057 -3.572593 -1.6677071
3.3824775 -3.5913627 -1.6667254
3.366169 -3.6182778 -1.6696703
3.3458219 -3.6409519 -1.670652
3.3157992 -3.6530147 -1.6667254
3.2889078 -3.6683652 -1.6644349
3.2669635 -3.6891842 -1.6647621
3.2554607 -3.7219658 -1.670652
3.2381201 -3.7483077 -1.673597
3.2267103 -3.7817667 -1.6798141
3.2046626 -3.8029399 -1.6804686
3.1728075 -3.8123612 -1.6758876
3.155354 -3.8390589 -1.6791598
3.1186409 -3.8422034 -1.6719609
3.0879171 -3.8524172 -1.6680343
3.052495 -3.8564703 -1.66149
1.9967748 -2.5541091 -1.0810053
1.9787568 -2.5633202 -1.0796965
1.9612737 -2.573158 -1.0787148
1.9420406 -2.5806124 -1.0767516
1.9261696 -2.5924799 -1.0767516
1.9074332 -2.6004391 -1.0751154
1.8654064 -2.5761125 -1.0597363
1.643605 -2.2991548 -0.93702954
1.6370896 -2.3200088 -0.94161057
1.6185056 -2.3238049 -0.9389928
2.7570953 -4.0122786 -1.6441474
2.7403774 -4.040853 -1.6490557
2.742326 -4.0976486 -1.6657438
2.7186933 -4.1167641 -1.6667254
2.6815209 -4.1151567 -1.6591994
2.6710346 -4.1545868 -1.6686888
2.6409388 -4.1637149 -1.6657438
2.603817 -4.1614137 -1.6582178
2.5812106 -4.1821375 -1.660181
2.5466599 -4.1833658 -1.6542912
2.5165675 -4.1916208 -1.6513462
2.4859886 -4.1988511 -1.648074
2.4735124 -4.2368784 -1.6572361
2.4526522 -4.2609859 -1.6608355
2.4222655 -4.2685571 -1.6578906
2.4043288 -4.2981858 -1.6637805
2.3838391 -4.3236165 -1.6680343
2.3577158 -4.3389926 -1.6683615
2.3341689 -4.3592095 -1.670652
2.3100219 -4.3784652 -1.6726153
2.2857263 -4.3975878 -1.6745787
2.2587001 -4.41153 -1.6745787
2.2290373 -4.4202433 -1.6726153
2.2018733 -4.4338369 -1.6726153
2.172137 -4.4421701 -1.670652
2.1407425 -4.4468994 -1.6673799
2.1101811 -4.4531188 -1.6647621
1.4588703 -3.1272945 -1.1533206
1.4250785 -3.1044071 -1.1412135
1.4203837 -3.1449616 -1.1533206
1.4194614 -3.1950748 -1.169027
1.9793946 -4.5313411 -1.670652
1.9481989 -4.5355859 -1.6677071
1.918128 -4.5422311 -1.6657438
1.8938419 -4.5626435 -1.669016
1.8654536 -4.5733027 -1.6686888
1.8313849 -4.5697503 -1.663126
1.7991598 -4.5703492 -1.6591994
1.7778933 -4.5989318 -1.6657438
1.7496413 -4.6097541 -1.6657438
1.7233015 -4.6257162 -1.6677071
1.6965075 -4.6406412 -1.6693431
1.6664071 -4.6465158 -1.6677071
1.6369253 -4.6539783 -1.6667254
1.6046441 -4.653214 -1.6627988
1.576667 -4.664763 -1.6634532
1.5465305 -4.6698637 -1.6618172
1.5152255 -4.671175 -1.6588722
1.4865352 -4.6803846 -1.6588722
1.4569479 -4.6867104 -1.6578906
1.428713 -4.6973701 -1.658545
1.4025556 -4.715106 -1.6618172
1.3738614 -4.7245307 -1.6621444
1.346911 -4.7401438 -1.6647621
1.3210829 -4.7601566 -1.669016
1.2901222 -4.7617879 -1.6667254
1.261604 -4.7723556 -1.6677071
1.2339473 -4.7864122 -1.6699976
1.2050153 -4.7957263 -1.670652
1.1735467 -4.7947688 -1.6677071
1.1436669 -4.8000407 -1.6670526
0.71495396 -3.082695 -1.0541735
0.68668789 -3.0455391 -1.0394487
0.67606151 -3.0866208 -1.0525374
0.65514791 -3.0814674 -1.0492653
0.63813305 -3.0946848 -1.0525374
0.61950201 -3.1003954 -1.0531919
0.59813803 -3.0920765 -1.048938
0.58158219 -3.1086931 -1.0535191
0.55930984 -3.0945342 -1.0473019
0.54063565 -3.0997696 -1.0479563
0.52160567 -3.1030285 -1.0479563
0.49954438 -3.0875132 -1.041412
0.48116976 -3.0942554 -1.0427209
0.45716634 -3.0635021 -1.030941
0.4394275 -3.0737333 -1.0335588
0.4188998 -3.0642002 -1.029305
0.39765248 -3.0479717 -1.0227606
0.37940755 -3.0541053 -1.0240694
0.3612127 -3.0610683 -1.0257056
0.3443068 -3.0801315 -1.0315955
0.32411578 -3.0699692 -1.0273416
0.30638984 -3.0831845 -1.0312682
0.289911 -3.1113517 -1.0404304
0.27717528 -3.1865029 -1.0659534
0.25595114 -3.1674218 -1.0587546
0.28151342 -3.7748659 -1.2691556
0.21571442 -3.150526 -1.051883
0.19713855 -3.1640513 -1.0561368
0.17661534 -3.1453881 -1.0492653
0.18045126 -3.6126437 -1.2109109
0.13812643 -3.1501508 -1.050247
0.11819554 -3.1348863 -1.0446842
0.098575041 -3.1232741 -1.0404304
0.078841195 -3.1011484 -1.0325772
0.059739947 -3.0977948 -1.0312682
0.040417291 -3.0735362 -1.0227606
0.021727018 -3.0992393 -1.0315955
0.0027014979 -3.0823054 -1.0257056
-0.016131364 -3.06809 -1.0207973
-0.035012115 -3.0726576 -1.0224334
-0.054118719 -3.0865569 -1.0273416
-0.073488064 -3.1041155 -1.0335588
-0.093046397 -3.1206076 -1.0394487
-0.11479967 -3.1917467 -1.0643172
-0.13205585 -3.1362245 -1.0453386
-0.14973652 -3.1032648 -1.0342132
-0.17099737 -3.1428597 -1.0482836
-0.19033584 -3.1426945 -1.0486108
-0.20619953 -3.0905545 -1.030941
-0.22488277 -3.0854616 -1.0296322
-0.24268822 -3.0698938 -1.0247239
-0.26603386 -3.1210713 -1.0430481
-0.2821562 -3.0864453 -1.0315955
-0.30118111 -3.0855963 -1.0319227
-0.32138124 -3.0959086 -1.0361766
-0.34120077 -3.1013923 -1.0387943
-0.36011469 -3.0983016 -1.038467
-0.37646911 -3.0744619 -1.030941
-0.39689898 -3.0842774 -1.0351949
-0.41492936 -3.0752292 -1.0329044
-0.43312857 -3.0679471 -1.0312682
-0.45443231 -3.0820582 -1.0371581
-0.47794023 -3.1090972 -1.0476291
-0.4956615 -3.0977089 -1.0446842
-0.50191927 -3.018178 -1.0178523
-0.54571909 -3.161227 -1.0692255
-0.5707767 -3.1894429 -1.080351
-0.58516109 -3.1580086 -1.0705345
-0.60149795 -3.1385827 -1.0649717
-0.62479007 -3.1552243 -1.0721705
-0.64470708 -3.1541085 -1.0731522
-0.70563555 -3.3470242 -1.1428496
-0.84811467 -3.9031005 -1.3414708
-0.8765924 -3.9181089 -1.3486696
-0.75247985 -3.269933 -1.1202716
-0.74355203 -3.1429622 -1.0767516
-0.83792377 -3.4468338 -1.1866968
-0.80475026 -3.2243588 -1.1091461
-0.87288094 -3.4079165 -1.176553
-0.82743114 -3.1502702 -1.0862409
-0.80861849 -3.0037162 -1.0355221
-0.82250541 -2.9823027 -1.0296322
-0.83924603 -2.9717441 -1.0276688
-0.86009181 -2.9756155 -1.030941
-0.92260247 -3.1197822 -1.084932
-1.0159413 -3.359154 -1.1736081
-0.98903638 -3.199398 -1.117981
-1.0881438 -3.4446394 -1.2092748
-0.99162662 -3.0737207 -1.0767516
-1.0089881 -3.0630913 -1.0751154
-1.0639396 -3.1643112 -1.1143817
-1.0676808 -3.1121445 -1.0976934
-1.0773835 -3.0787804 -1.0878769
-1.0911679 -3.057874 -1.0826415
-1.1076467 -3.0449057 -1.080351
-1.1276242 -3.0415957 -1.0816598
-1.203418 -3.185761 -1.1376141
-1.2423023 -3.2285795 -1.1562655
-1.5850505 -4.0442958 -1.4625415
-1.6729144 -4.1924558 -1.5214406
-1.3153961 -3.2393064 -1.169027
-1.3175496 -3.1883876 -1.1529933
-1.257185 -2.9903722 -1.0816598
-1.3472801 -3.1502616 -1.1448128
-1.9150183 -4.4016871 -1.6205877
-1.9408431 -4.3872619 -1.619606
-1.3701365 -3.047375 -1.1153632
-1.2909337 -2.8249412 -1.033886
-1.3584337 -2.9249346 -1.0751154
-1.3230814 -2.8037601 -1.0319227
-1.444919 -3.0136843 -1.1156905
-1.4298459 -2.9359593 -1.0891858
-1.4633459 -2.9584644 -1.1012928
-1.4364809 -2.8599377 -1.0666078
-1.454002 -2.8510697 -1.0666078
-1.4432088 -2.78756 -1.0453386
-1.4607258 -2.7794886 -1.0456659
-1.4701874 -2.7563021 -1.0401032
-1.4861718 -2.7455678 -1.0394487
-1.533035 -2.7910497 -1.0610451
-1.5423068 -2.7675612 -1.0554824
-1.5699621 -2.7769613 -1.0630084
-1.5963795 -2.7836671 -1.0695528
-1.6143806 -2.7754526 -1.0702072
-1.6284976 -2.7606125 -1.0682439
-1.6206506 -2.7092199 -1.0515558
-1.6347917 -2.6951859 -1.0499197
-1.6547655 -2.6907375 -1.0522102
-1.6727451 -2.6829383 -1.0531919
-1.6896809 -2.6734226 -1.0535191
-1.7091131 -2.6677775 -1.0554824
-1.7249353 -2.6564481 -1.0551552
-1.7412025 -2.6458142 -1.0551552
-1.7636992 -2.6445119 -1.0590818
-1.7745984 -2.625813 -1.0558096
-1.7885399 -2.611757 -1.0545007
-1.8115382 -2.6108239 -1.0587546
-1.8209991 -2.5903852 -1.0548279
-1.8357623 -2.5776238 -1.0541735
-1.8432462 -2.5548196 -1.0492653
-1.8572141 -2.5411735 -1.0482836
-1.8761466 -2.5342855 -1.050247
-1.8950645 -2.5272608 -1.0522102
-1.904246 -2.5073099 -1.0486108
-1.9224766 -2.4993224 -1.050247
-1.936033 -2.4852436 -1.0492653
-1.9465613 -2.4673843 -1.0466475
-1.9640247 -2.4583461 -1.0479563
-1.983234 -2.4513898 -1.050247
-2.0048285 -2.4472132 -1.0538464
-2.0173922 -2.4319572 -1.0525374
-2.0298443 -2.4166396 -1.0512285
-2.0464716 -2.4062982 -1.0522102
-2.0531788 -2.3843901 -1.0479563
-2.0516183 -2.3532343 -1.0394487
-2.0972986 -2.3760118 -1.0558096
-2.0765619 -2.3236544 -1.0374854
-2.1212239 -2.344492 -1.0531919
-2.1279073 -2.3230734 -1.0492653
-2.1376219 -2.3051245 -1.0469748
-2.158196 -2.298852 -1.050247
-2.1761682 -2.2896745 -1.0522102
-2.1823113 -2.2681103 -1.0482836
-2.1948678 -2.2533238 -1.0476291
-2.20998 -2.2411592 -1.0482836
-2.2216866 -2.2255511 -1.0473019
-2.2494111 -2.2258298 -1.0541735
-2.2440982 -2.1934984 -1.0450114
-2.2473145 -2.1698458 -1.0401032
-2.2770033 -2.1716619 -1.0479563
-2.2985418 -2.1654222 -1.051883
-2.2896414 -2.1306865 -1.041412
-2.3270297 -2.1389701 -1.0528647
-2.3744025 -2.1557636 -1.0688983
-2.3601401 -2.1165593 -1.0561368
-2.3801584 -2.1083007 -1.059409
-2.3966069 -2.0967665 -1.0610451
-2.4058514 -2.078934 -1.059409
-2.4200001 -2.0653591 -1.0600635
-2.4369638 -2.0541239 -1.0620267
-2.4378984 -2.0294633 -1.0567913
-2.4488449 -2.0132668 -1.0561368
-2.4684901 -2.0041566 -1.059409
-2.4807408 -1.9889724 -1.059409
-2.5062375 -1.9842668 -1.0652989
-2.5109191 -1.963034 -1.0620267
-2.5229168 -1.9475904 -1.0620267
-2.5438404 -1.938944 -1.0659534
-2.5496476 -1.9187554 -1.0633357
-2.5788233 -1.9160305 -1.0708616
-2.5836718 -1.8951435 -1.0679166
-2.5929549 -1.8775929 -1.0669351
-2.6113474 -1.8665905 -1.06988
-2.60885 -1.8407315 -1.0639901
-2.6138902 -1.8203713 -1.0613723
-2.6180003 -1.7994837 -1.0584273
-2.6282103 -1.7828559 -1.0581001
-2.6438129 -1.7698481 -1.0600635
-2.6664522 -1.7614009 -1.0649717
-2.72947 -1.7790431 -1.0865681
-3.9494843 -2.5392394 -1.5842665
-2.7111917 -1.7201171 -1.0702072
-2.7321103 -1.7099626 -1.074461
-2.753006 -1.699616 -1.0787148
-2.8142407 -1.7136356 -1.0993296
-2.8757491 -1.7269665 -1.1199443
-2.8342445 -1.6784903 -1.0990024
-2.857549 -1.6686877 -1.1042379
-2.8906682 -1.6643167 -1.1134
-2.918087 -1.6563382 -1.1202716
-2.9248958 -1.6365575 -1.1189626
-2.9746079 -1.6404704 -1.1346691
-3.0153422 -1.6388735 -1.1467762
-3.0520022 -1.6346085 -1.1572472
-3.1580992 -1.6665365 -1.1948773
-3.1976149 -1.6623735 -1.2063298
-3.223738 -1.6509007 -1.2125469
-3.2844372 -1.6566062 -1.23218
-3.3309367 -1.6544862 -1.2462504
-3.3359318 -1.6315274 -1.2442871
-3.4489141 -1.660599 -1.2838805
-3.5265062 -1.6713569 -1.3097306
-4.2801251 -1.9961915 -1.5937558
-4.1565838 -1.9076498 -1.5420554
-3.7814775 -1.707602 -1.3951346
-3.7746103 -1.6766999 -1.3885902
-3.7943535 -1.6576663 -1.3921896
-3.8530798 -1.6552267 -1.4105138
-3.9545765 -1.6701308 -1.4448717
-3.9752238 -1.6501793 -1.4487983
-4.0167756 -1.6385976 -1.4605782
-4.1425467 -1.6602939 -1.5037709
-4.2106934 -1.6576757 -1.5253673
-4.3133388 -1.6675633 -1.5597252
-4.3747344 -1.6605021 -1.5787038
-4.5159054 -1.682421 -1.6271321
-4.6095757 -1.685159 -1.6578906
-4.673202 -1.6759708 -1.6775236
-4.7511511 -1.6710778 -1.7023922
-4.797051 -1.6542078 -1.7154809
-4.8438168 -1.6371394 -1.7288969
-4.9165683 -1.628168 -1.7518021
-4.9857941 -1.6171991 -1.7733985
-5.0505648 -1.6040121 -1.7933588
-5.1559682 -1.6027042 -1.8280438
-5.2778163 -1.6051075 -1.8686188
-5.3464422 -1.5901916 -1.889888
-5.4232483 -1.576866 -1.9141022
-5.4600925 -1.551302 -1.9239187
-5.4886308 -1.5230725 -1.9307903
-5.5069938 -1.4918352 -1.9340625
-5.5224395 -1.4597058 -1.936353
-5.5349522 -1.4267361 -1.9376619
-5.5399365 -1.3918271 -1.936353
-5.5557156 -1.359604 -1.9389707
-5.5630341 -1.3252704 -1.9386435
-5.5655375 -1.2898324 -1.9366802
-5.5816441 -1.2575262 -1.9396251
-5.5744843 -1.2200247 -1.9343897
-5.5948067 -1.1885437 -1.9389707
-5.6205049 -1.1580023 -1.945515
-5.6293578 -1.1238633 -1.9461695
-5.6120248 -1.0846437 -1.9376619
-5.6176453 -1.0500152 -1.9373347
-5.6137528 -1.0136812 -1.9337353
-5.6021791 -0.97613847 -1.9275181
-5.605267 -0.94127685 -1.9265364
-5.6016088 -0.90536004 -1.9232643
-5.5986543 -0.86966848 -1.9203193
-5.5992117 -0.83460379 -1.9186832
-5.6154532 -0.80183256 -1.9226098
-5.6183949 -0.76710641 -1.9219553
-5.639863 -0.73481226 -1.9278454
-5.655519 -0.7015866 -1.9317719
-0 -0 -0
-0 -0 -0
-0 -0 -0
-0 -0 -0
-0 -0 -0
-0 -0 -0
-0 -0 -0
-0 -0 -0
-0 -0 -0
-0 -0 -0
-0 -0 -0
-0 -0 -0
-0 -0 -0
-0 -0 -0
-0 -0 -0
-0 -0 -0
-0 -0 -0
-0 -0 -0
-0 -0 -0
-0 -0 -0
-0 0 -0
-0 0 -0
-0 0 -0
-0 0 -0
-0 0 -0
-0 0 -0
-0 0 -0
-0 0 -0
-0 0 -0
-0 0 -0
-0 0 -0
-0 -0 -0
-5.5290375 -0.10753727 -1.9414769
-5.5220637 -0.073508926 -1.9387763
-0 -0 -0
-0 -0 -0
-0 0 -0
-0 0 -0
-0 0 -0
-0 0 -0
-0 0 -0
-0 0 -0
-0 0 -0
-0 0 -0
-0 0 -0
-0 0 -0
-0 0 -0
-0 0 -0
-0 0 -0
-0 0 -0
-0 0 -0
-0 0 -0
-0 0 -0
-0 0 -0
-0 0 -0
-0 0 -0
-0 0 -0
-0 0 -0
-0 0 -0
-0 0 -0
-0 0 -0
-0 0 -0
-0 0 -0
-0 0 -0
-0 0 -0
-5.3979044 0.99921042 -1.9269607
-5.3953695 1.0330203 -1.928311
-5.3815422 1.0646453 -1.9256103
-5.3739862 1.0974575 -1.9252727
-5.368072 1.130605 -1.9256103
-5.3573542 1.1627233 -1.92426
-5.347363 1.1949579 -1.9232472
-5.3353434 1.2266918 -1.9215592
-5.3249679 1.2587564 -1.9205465
-5.3171444 1.2914062 -1.9205465
-5.2999868 1.3217301 -1.9171706
-5.289041 1.3535255 -1.9161578
-5.2860994 1.3873863 -1.9181833
-5.2765779 1.4195507 -1.9178458
-5.2804732 1.4554011 -1.922572
-5.2651024 1.4859848 -1.9202089
-5.2640243 1.5206133 -1.9232472
-5.2500815 1.5515506 -1.9215592
-5.233254 1.5815574 -1.9188585
-5.214457 1.6108606 -1.9154826
-5.2008843 1.6416924 -1.9141324
-5.1835461 1.6712633 -1.9114317
-5.1776643 1.7045089 -1.9131196
-5.1680007 1.736546 -1.9134572
-5.1643715 1.7706654 -1.9161578
-5.1569638 1.8035628 -1.9175082
-5.1422539 1.8339069 -1.9161578
-5.1282506 1.86446 -1.915145
-5.1087694 1.8929484 -1.9121068
-5.0970588 1.9242595 -1.9121068
-5.0772481 1.9524581 -1.9090685
-5.0695553 1.9852906 -1.9107565
-5.0590267 2.0170567 -1.9114317
-5.0517888 2.0501838 -1.9134572
-5.040854 2.0818608 -1.9141324
-5.0279851 2.1127517 -1.9141324
-5.0149269 2.143563 -1.9141324
-4.9999533 2.1735432 -1.9134572
-5.0054636 2.2125523 -1.9208841
-4.9849243 2.2401376 -1.9181833
-4.980504 2.2749836 -1.9218968
-4.9340062 2.290442 -1.9090685
-4.9215622 2.3214765 -1.9097437
-4.8995852 2.3479705 -1.9067054
-4.889318 2.380049 -1.9083933
-4.8839045 2.4145927 -1.9121068
-4.8782506 2.4491596 -1.9158202
-4.8648086 2.4799006 -1.9164954
-4.8528442 2.5114341 -1.9178458
-4.8415098 2.5433519 -1.9195337
-4.8249826 2.5725682 -1.9191961
-4.8057952 2.6003337 -1.9178458
-4.7955251 2.6329432 -1.9202089
-4.7801018 2.6627765 -1.9205465
-4.7620344 2.6911304 -1.9198713
-4.7413487 2.7179587 -1.9181833
-4.7221413 2.7455807 -1.9171706
-4.7019625 2.7725914 -1.9158202
-4.6856694 2.8018727 -1.9161578
-4.6595349 2.8252032 -1.9124444
-4.6429138 2.8542333 -1.912782
-4.6117325 2.8742051 -1.907043
-4.601172 2.9069724 -1.9100813
-4.5840411 2.9356575 -1.9104189
-4.5651526 2.963217 -1.9100813
-4.5484576 2.9922068 -1.9107565
-4.5362778 3.024236 -1.9134572
-4.5215364 3.0546477 -1.915145
-4.4996014 3.0802071 -1.9137948
-4.4790697 3.1066854 -1.9131196
-4.4553018 3.130863 -1.9110941
-4.4413753 3.1619623 -1.9134572
-4.4096746 3.1803458 -1.9080558
-4.3931179 3.209564 -1.9094061
-4.3710713 3.2347796 -1.9083933
-4.354907 3.2643616 -1.9100813
-4.3400435 3.2950053 -1.9124444
-4.3197441 3.3215733 -1.9124444
-4.3007674 3.3491728 -1.9131196
-4.2860494 3.3801615 -1.9158202
-4.2681708 3.408746 -1.9171706
-4.244247 3.4325032 -1.9158202
-4.2165508 3.4531138 -1.912782
-4.1981821 3.4813244 -1.9141324
-4.1767421 3.5070183 -1.9141324
-4.1572967 3.5344093 -1.915145
-4.1291103 3.5543251 -1.9121068
-4.1008368 3.5740283 -1.9090685
-4.0731831 3.5941415 -1.9063678
-4.048245 3.6165581 -1.9050175
-4.0182986 3.6343846 -1.901304
-3.9973111 3.6602433 -1.9019791
-3.974777 3.6847014 -1.9019791
-3.9493477 3.7064445 -1.9006288
-3.927896 3.731904 -1.901304
-3.9062803 3.7572398 -1.9019791
-3.8892229 3.7870471 -1.9050175
-3.8659127 3.8108397 -1.9050175
-3.8424571 3.8344889 -1.9050175
-3.8188567 3.8579936 -1.9050175
-3.7964289 3.8826988 -1.9056926
-3.7712257 3.9045663 -1.9050175
-3.7510958 3.9317186 -1.907043
-3.7301285 3.9580858 -1.9087309
-3.7051306 3.9802101 -1.9083933
-3.6819131 4.0042548 -1.9090685
-3.6572742 4.0267715 -1.9090685
-3.6268399 4.0428305 -1.9060302
-3.599468 4.0621905 -1.9046799
-3.5713754 4.0806584 -1.9029919
-3.5419602 4.0975108 -1.9006288
-3.5130842 4.114872 -1.8986033
-3.4889834 4.1377892 -1.8992784
-3.4641311 4.1598425 -1.899616
-3.4391396 4.181747 -1.8999536
-3.4175706 4.2078848 -1.9023167
-3.3928652 4.2302437 -1.9029919
-3.3668449 4.2509823 -1.9029919
-3.3389583 4.2693367 -1.9019791
-3.3023424 4.2763343 -1.8959025
-3.2885988 4.312983 -1.9033295
-3.2558446 4.3248091 -1.899616
-3.2326162 4.3492374 -1.9016416
-3.2064259 4.3697495 -1.9019791
-3.1762397 4.384768 -1.8999536
-3.1569414 4.4148932 -1.9046799
-3.1325071 4.438026 -1.9063678
-3.1019881 4.452529 -1.9043423
-3.0644753 4.4567428 -1.8979281
-3.0460579 4.4887023 -1.9036671
-3.0200298 4.5096545 -1.9046799
-2.9839981 4.5155354 -1.8992784
-2.9521215 4.5274525 -1.8965777
-2.9253047 4.5470643 -1.8972529
-2.8958359 4.5625439 -1.8962401
-2.8702841 4.5842156 -1.8979281
-2.8421018 4.6017408 -1.8979281
-2.8147922 4.6207008 -1.8986033
-2.7863872 4.6378851 -1.8986033
-2.7559576 4.6516557 -1.8972529
-2.7302132 4.6733546 -1.8992784
-2.6944382 4.6777844 -1.8942146
-2.6707988 4.7032328 -1.8979281
-2.6386712 4.7137823 -1.8955649
-2.610153 4.7307086 -1.8959025
-2.5783784 4.7416735 -1.893877
-2.5510142 4.7607236 -1.8952274
-2.5213153 4.775454 -1.8948898
-2.4945729 4.795845 -1.8969153
-2.4650991 4.8110614 -1.8969153
-2.4376533 4.8302979 -1.8986033
-2.4062934 4.8417926 -1.8972529
-2.3777807 4.8590026 -1.8982657
-2.34547 4.868413 -1.8962401
-2.3151505 4.8818622 -1.8959025
-2.2839577 4.8934169 -1.8948898
-2.2546751 4.90905 -1.8955649
-2.2283883 4.9313693 -1.8989408
-2.1938815 4.9354882 -1.8952274
-2.1688364 4.9609308 -1.8999536
-2.1402149 4.9784689 -1.9016416
-2.1026635 4.9750342 -1.8952274
-2.0735426 4.9913192 -1.8965777
-2.0428772 5.0039482 -1.8965777
-2.0121353 5.0163889 -1.8965777
-1.9823527 5.0312681 -1.8975905
-1.9483864 5.0354362 -1.8945522
-1.9221338 5.0596151 -1.8992784
-1.8926971 5.0757236 -1.9009664
-1.862488 5.0898933 -1.9019791
-1.8312219 5.1012259 -1.9019791
-1.7980111 5.1070385 -1.8999536
-1.7678698 5.1215339 -1.901304
-1.7324888 5.1206937 -1.8969153
-1.6888895 5.0945964 -1.8830742
-1.6666118 5.132616 -1.8935394
-1.6310935 5.130187 -1.8888133
-1.6029416 5.1508842 -1.8928642
-1.5718548 5.1624236 -1.8935394
-1.5401492 5.1719708 -1.8935394
-1.5104909 5.1885538 -1.8962401
-1.4786261 5.1977243 -1.8962401
-1.4467057 5.2066994 -1.8962401
-1.4125123 5.2073021 -1.8932018
-1.3807752 5.2167807 -1.8935394
-1.3496809 5.2288008 -1.8948898
-1.3175722 5.2369838 -1.8948898
-1.2838451 5.2385697 -1.8925266
-1.2521147 5.2481799 -1.8932018
-1.2190373 5.2520967 -1.8918515
-1.1863735 5.2576408 -1.8911763
-1.1518731 5.2547078 -1.8874629
-1.1184332 5.2561526 -1.8854374
-1.0878739 5.2712126 -1.8884757
-1.0534786 5.2676353 -1.8847622
-1.0241802 5.2897105 -1.8905011
-0.99239707 5.2995958 -1.8918515
-0.95885485 5.3000278 -1.8898259
-0.92728817 5.3113751 -1.8918515
-0.89468074 5.3169646 -1.8918515
-0.86234075 5.3242126 -1.8925266
-0.82980061 5.3303337 -1.8928642
-0.79735696 5.3371868 -1.8935394
-0.76472706 5.3429108 -1.893877
-0.73218459 5.3493676 -1.8945522
-0.69873774 5.349093 -1.8928642
-0.6655544 5.3504772 -1.8918515
-0.63215929 5.3497863 -1.8901635
-0.59900737 5.3507581 -1.8891507
-0.56477773 5.341228 -1.8844246
-0.53236717 5.3483396 -1.885775
-0.50006568 5.3571286 -1.8878005
-0.46644932 5.3516564 -1.8847622
-0.43367943 5.3553562 -1.8850998
-0.40102232 5.3607321 -1.8861125
-0.36792833 5.3602748 -1.8850998
-0.33520767 5.3652496 -1.8861125
-0.30217481 5.3653259 -1.8854374
-0.26915362 5.3651986 -1.8847622
-0.23635271 5.3695703 -1.885775
-0.20340121 5.3709197 -1.885775
-0.17035227 5.3692441 -1.8847622
-0.13779037 5.3852439 -1.8901635
-0.10481802 5.3897524 -1.8915139
-0.071757749 5.3912354 -1.8918515
-0.0386764 5.3915744 -1.8918515
-0.0055998787 5.3973579 -1.893877
0.027465779 5.3869367 -1.8901635
0.060508378 5.3857255 -1.8898259
0.093406916 5.3767824 -1.8867877
0.12644058 5.3779898 -1.8874629
0.15957606 5.3818173 -1.8891507
0.19252807 5.3788557 -1.8884757
0.2256466 5.3803945 -1.8894883
0.25874612 5.3807888 -1.8901635
0.29089168 5.3631215 -1.8844246
0.32419044 5.3678126 -1.8867877
0.3571206 5.3657227 -1.8867877
0.38996914 5.3624911 -1.8864501
0.42271751 5.3581209 -1.885775
0.45439062 5.3413577 -1.8807111
0.48818165 5.3497176 -1.8847622
0.51999426 5.3363161 -1.8810487
0.55311537 5.3367701 -1.8823991
0.58636433 5.337954 -1.884087
0.62019086 5.343606 -1.8874629
0.65273857 5.3378315 -1.8867877
0.68475908 5.328124 -1.8847622
0.717439 5.323822 -1.8847622
0.74982911 5.3174558 -1.884087
0.78312767 5.3174109 -1.885775
0.81573993 5.3125057 -1.885775
0.84876704 5.3101888 -1.8867877
0.88071692 5.3011665 -1.8854374
0.91498655 5.3058667 -1.8891507
0.94818783 5.3038592 -1.8905011
0.97934371 5.2905364 -1.8878005
1.0119643 5.2853522 -1.8881381
1.0436451 5.2753501 -1.8867877
1.0763711 5.2706914 -1.8874629
1.109079 5.26583 -1.8881381
1.1403707 5.2543263 -1.8864501
1.1725892 5.2472301 -1.8864501
1.2043419 5.238102 -1.885775
1.2364596 5.2306132 -1.885775
1.2678645 5.2201838 -1.8847622
1.3000988 5.2132196 -1.8850998
1.3318287 5.2042322 -1.8847622
1.3642139 5.1977835 -1.8854374
1.3968147 5.1920419 -1.8864501
1.4313966 5.1933556 -1.8901635
1.4627243 5.182663 -1.8894883
1.4947581 5.1744947 -1.8898259
1.5256801 5.1625175 -1.8888133
1.5565112 5.1503558 -1.8878005
1.5889171 5.1434064 -1.8888133
1.6210132 5.1353555 -1.8894883
1.6519151 5.1235209 -1.8888133
1.6833212 5.1132884 -1.8888133
1.7149639 5.1037555 -1.8891507
1.7514365 5.108274 -1.8948898
1.7787085 5.0858803 -1.8905011
1.8127264 5.08285 -1.8935394
1.8403429 5.0619006 -1.8898259
1.8743104 5.0584569 -1.8928642
1.9066428 5.050384 -1.8942146
1.9386088 5.0412259 -1.8952274
1.9691615 5.0283594 -1.8948898
1.9985837 5.0126843 -1.8935394
2.0296571 5.0011992 -1.893877
2.0581503 4.9834313 -1.8918515
2.085408 4.9628983 -1.8888133
2.1176701 4.9543371 -1.8905011
2.1525319 4.9516091 -1.8945522
2.179069 4.9296989 -1.8911763
2.2115905 4.9213872 -1.8932018
2.2413549 4.906868 -1.8928642
2.2726097 4.8955846 -1.893877
2.3001966 4.8764396 -1.8918515
2.3300745 4.8622341 -1.8918515
2.3602767 4.8486919 -1.8921891
2.3874805 4.8290553 -1.8901635
2.4170661 4.8143153 -1.8901635
2.4469881 4.8002324 -1.8905011
2.4768283 4.7859635 -1.8908387
2.5022087 4.763176 -1.8878005
2.5398011 4.763515 -1.8942146
2.5716689 4.752809 -1.8962401
2.5989714 4.7336392 -1.8948898
2.6288836 4.7192478 -1.8955649
2.6568646 4.7013898 -1.8948898
2.6842577 4.682549 -1.893877
2.7101002 4.6611075 -1.8918515
2.7410395 4.6484456 -1.8935394
2.7685442 4.6299233 -1.8928642
2.7983646 4.6152635 -1.893877
2.8261378 4.5972042 -1.8935394
2.8557861 4.5821733 -1.8945522
2.8813343 4.5605855 -1.8928642
2.9092634 4.54282 -1.8928642
2.9370828 4.5248837 -1.8928642
2.961688 4.5020585 -1.8908387
2.9908228 4.4861507 -1.8918515
3.0156586 4.4638147 -1.8901635
3.0424595 4.4444504 -1.8898259
3.0643089 4.4179635 -1.8864501
3.0919003 4.3998485 -1.8867877
3.1177473 4.3792601 -1.8861125
3.1462109 4.3623381 -1.8871253
3.1723633 4.3421912 -1.8867877
3.2017462 4.3264275 -1.8884757
3.2248454 4.3021812 -1.8864501
3.2500441 4.2808132 -1.885775
3.2796917 4.2652683 -1.8878005
3.3086927 4.2487779 -1.8894883
3.3370316 4.2313528 -1.8908387
3.3611698 4.2085905 -1.8898259
3.3863382 4.1871557 -1.8894883
3.4155445 4.1706686 -1.8915139
3.4368653 4.1445603 -1.8891507
3.4622312 4.123394 -1.8891507
3.4886858 4.103507 -1.8898259
3.515027 4.0834503 -1.8905011
3.5406346 4.0625153 -1.8908387
3.5623815 4.0371847 -1.8891507
3.5914755 4.0201645 -1.8915139
3.6160753 3.9980519 -1.8915139
3.6481664 3.9841201 -1.8955649
3.6680646 3.9568279 -1.8932018
3.6684425 3.9088492 -1.8807111
3.727366 3.9231188 -1.8989408
3.7494102 3.8981388 -1.8979281
3.7693183 3.8710129 -1.8959025
3.7903564 3.8451302 -1.8945522
3.8178675 3.8257987 -1.8965777
3.8345809 3.7956784 -1.8932018
3.8672204 3.781292 -1.8979281
3.8883181 3.7555301 -1.8969153
3.9078834 3.7283521 -1.8952274
3.9252067 3.6991384 -1.8925266
3.9636757 3.6897368 -1.9002912
3.9834695 3.6627979 -1.8989408
4.0100493 3.6420844 -1.9009664
4.0351238 3.619925 -1.9023167
4.0607815 3.5982194 -1.9040047
4.0834918 3.5738552 -1.9043423
4.1039195 3.5475008 -1.9036671
4.1205983 3.5179741 -1.901304
4.141387 3.4920175 -1.9009664
4.1634593 3.4671433 -1.901304
4.1744771 3.4331601 -1.8965777
4.1954641 3.4074812 -1.8965777
4.222167 3.3863862 -1.8992784
4.2399144 3.3580778 -1.8979281
4.2515426 3.3250396 -1.893877
4.2770791 3.3029177 -1.8962401
4.2965164 3.276041 -1.8959025
4.3195453 3.2518814 -1.8972529
4.343194 3.2281237 -1.8989408
4.3659554 3.2036412 -1.9002912
4.3862925 3.1773443 -1.9006288
4.3957524 3.1432521 -1.8962401
4.4264908 3.1243641 -1.901304
4.44944 3.0998356 -1.9029919
4.4738054 3.0762095 -1.905355
4.489481 3.0465865 -1.9040047
4.50809 3.0189822 -1.9040047
4.5241737 2.9897072 -1.9029919
4.5400677 2.9603486 -1.9019791
4.5518136 2.9283607 -1.8992784
4.5665174 2.8983583 -1.8979281
4.5834179 2.8697846 -1.8975905
4.5993385 2.8406179 -1.8969153
4.6207008 2.8147922 -1.8986033
4.6451464 2.7907505 -1.9016416
4.6678514 2.7655549 -1.9040047
4.6896091 2.7397108 -1.9060302
4.711225 2.7137036 -1.9080558
4.7343354 2.6884639 -1.9107565
4.7367797 2.6515467 -1.9050175
4.7183466 2.6033311 -1.8908387
4.7515965 2.583775 -1.8979281
4.7814646 2.5621302 -1.9036671
4.7954311 2.5318644 -1.9029919
4.8175564 2.505868 -1.9056926
4.8403807 2.4801245 -1.9087309
4.8613896 2.453347 -1.9110941
4.8873091 2.4289186 -1.9154826
4.9088845 2.4021955 -1.9181833
4.9150519 2.3679438 -1.9148074
4.9269371 2.3365307 -1.9137948
4.9428868 2.3070519 -1.91447
4.9552393 2.2758937 -1.9137948
4.9699683 2.2458339 -1.9141324
4.9784942 2.213002 -1.9121068
4.9928417 2.1827898 -1.9124444
5.0052762 2.1517415 -1.9121068
5.0192518 2.1213558 -1.9124444
5.0278273 2.0887122 -1.9107565
5.0527492 2.0628047 -1.9154826
5.0557013 2.0279074 -1.9117692
5.0715523 1.9982284 -1.9131196
5.0889845 1.9691108 -1.915145
5.1062508 1.9398544 -1.9171706
5.1259947 1.911447 -1.9202089
5.1446981 1.8825468 -1.9229096
5.1641259 1.853807 -1.9259479
5.1780667 1.8230236 -1.9269607
5.1900449 1.7915244 -1.9272983
5.2036147 1.7605504 -1.928311
5.2089586 1.7268109 -1.9262855
5.2113986 1.6921998 -1.9232472
5.2163014 1.6584798 -1.9212216
5.2245822 1.6258824 -1.9205465
5.2335596 1.5935202 -1.9202089
5.2378259 1.5597653 -1.9181833
5.2581429 1.5307554 -1.9222344
5.2674365 1.4984632 -1.9222344
5.2756248 1.4658625 -1.9218968
5.2854285 1.4337108 -1.9222344
5.3023152 1.4034213 -1.9252727
5.3008013 1.3682718 -1.9215592
5.3209639 1.3387076 -1.9259479
5.3272495 1.3055853 -1.9252727
5.3351603 1.2728733 -1.9252727
5.3483715 1.2413907 -1.9272983
5.3549695 1.2083431 -1.9269607
5.3466525 1.1720353 -1.9212216
5.3712358 1.1429304 -1.9276358
5.388288 1.1120452 -1.9313493
5.389472 1.0778543 -1.9293238
5.3932118 1.0442278 -1.928311
5.3976669 1.0107695 -1.9276358
5.4056196 0.97796625 -1.928311
5.4198642 0.94623715 -1.9313493
5.4097881 0.91030723 -1.9256103
0 0 -0
0 0 -0
0 0 -0
0 0 -0
0 0 -0
0 0 -0
0 0 -0
0 0 -0
0 0 -0
0 0 -0
0 0 -0
0 0 -0
0 0 -0
0 0 -0
0 0 -0
0 0 -0
0 0 -0
0 0 -0
0 0 -0
0 0 -0
0 0 -0
0 0 -0
0 0 -0
0 0 -0
0 0 -0
0 0 -0
0 0 -0
0 -0 -0
0 -0 -0
0 -0 -0
0 -0 -0
0 -0 -0
0 -0 -0
0 -0 -0
0 -0 -0
0 -0 -0
0 -0 -0
0 -0 -0
5.5267849 -0.40190437 -1.945528
5.5298452 -0.4362523 -1.9475535
0 -0 -0
5.5100141 -0.50279707 -1.9424897
5.507762 -0.53668767 -1.9428273
5.5034289 -0.57037556 -1.9424897
5.4942117 -0.603517 -1.9404641
0 -0 -0
0 -0 -0
0 -0 -0
5.4796119 -0.7384212 -1.9411393
5.4954834 -0.77491957 -1.9485663
5.5176315 -0.81259996 -1.9583564
5.5013771 -0.84472674 -1.9543053
5.4914427 -0.87772411 -1.9526174
5.4748111 -0.9095521 -1.9485663
5.4626336 -0.94200855 -1.9462032
5.4576774 -0.97567445 -1.9465408
5.4488111 -1.00863 -1.945528
5.4434443 -1.0422212 -1.9458656
5.4230957 -1.0728627 -1.9408017
5.4044213 -1.1036706 -1.9364132
5.3699145 -1.1309928 -1.9262855
5.291122 -1.1483538 -1.8999536
5.2123213 -1.164791 -1.8736217
5.1115041 -1.1752446 -1.8391877
4.9979334 -1.181475 -1.8000275
4.9100947 -1.1925755 -1.7703198
4.8634109 -1.2128898 -1.7558035
4.8130169 -1.2317432 -1.7399368
4.7671285 -1.2512187 -1.7257581
4.7366366 -1.2743338 -1.7173184
4.7051339 -1.2968721 -1.7085412
4.6798754 -1.3208613 -1.702127
4.6942911 -1.3560807 -1.7105666
4.7138662 -1.3931267 -1.7210319
4.7115369 -1.4239299 -1.723395
4.705409 -1.4536458 -1.7244078
4.6910152 -1.4807906 -1.7223822
4.6603394 -1.5026156 -1.7142801
4.6474552 -1.5300056 -1.7129297
4.6290569 -1.5554955 -1.7095538
4.6381245 -1.5902792 -1.7166432
4.6256137 -1.6177762 -1.7156305
4.616487 -1.6464441 -1.715968
4.608067 -1.6753825 -1.7166432
4.589756 -1.7006826 -1.7136049
4.5748315 -1.7271509 -1.711917
4.5659046 -1.7558646 -1.7125922
4.5550451 -1.7838475 -1.7125922
4.5396419 -1.8100203 -1.7109042
4.5240893 -1.8360715 -1.7092164
4.4909873 -1.8548149 -1.7007766
4.4682398 -1.8775966 -1.696388
4.4678874 -1.9097866 -1.7007766
4.4543586 -1.9364147 -1.7001014
4.4423933 -1.9637097 -1.7001014
4.4319777 -1.9917022 -1.7007766
4.4093986 -2.0141666 -1.6967255
4.3943954 -2.0399952 -1.6957128
4.3673224 -2.0600948 -1.6899738
4.3401685 -2.0799391 -1.6842347
4.3307099 -2.1081784 -1.6855851
4.3117862 -2.1317916 -1.6832221
4.3045135 -2.161164 -1.6855851
4.2936878 -2.1888177 -1.6865979
4.2617841 -2.2056055 -1.679171
4.2265038 -2.2203338 -1.6703937
4.2119699 -2.2457826 -1.6700561
4.2171526 -2.2818859 -1.6778206
4.2137985 -2.3136072 -1.6822093
4.2044573 -2.3421671 -1.6842347
4.1949244 -2.3706994 -1.6862603
4.177032 -2.3945222 -1.6849099
4.1549373 -2.4158492 -1.6818717
4.1392245 -2.44082 -1.6815341
4.1298256 -2.469553 -1.6838971
4.1242542 -2.5007021 -1.6879482
4.102417 -2.522018 -1.6852475
4.0868649 -2.5471423 -1.6852475
4.0695672 -2.5711656 -1.6845723
4.0632272 -2.6021783 -1.6886234
4.0558691 -2.6326978 -1.6923369
4.0325613 -2.652879 -1.6892986
4.0138578 -2.6760063 -1.6882858
3.9934626 -2.6979501 -1.6865979
3.9760561 -2.7218709 -1.6862603
3.9616008 -2.7478256 -1.687273
3.9354236 -2.765588 -1.6832221
3.9229813 -2.7929585 -1.6852475
3.9050066 -2.8164263 -1.6849099
3.888412 -2.8408892 -1.6852475
3.8648541 -2.8602154 -1.6825469
3.8291538 -2.8703275 -1.6744447
3.8242154 -2.9034438 -1.6801838
3.8078208 -2.9280016 -1.6808589
3.782356 -2.945528 -1.677483
3.7752988 -2.9774232 -1.6825469
3.7540164 -2.9981825 -1.6811965
3.7428684 -3.0270789 -1.6845723
3.7213111 -3.0476022 -1.6832221
3.7032659 -3.0709791 -1.6835597
3.6821902 -3.0918286 -1.6825469
3.655978 -3.1082673 -1.679171
3.6389775 -3.1324837 -1.6801838
3.6239464 -3.1584635 -1.6822093
3.6235561 -3.1974542 -1.6913241
2.4469454 -2.186229 -1.1349789
2.4341831 -2.2018335 -1.1353164
2.41785 -2.2141852 -1.1339661
3.5108583 -3.2547035 -1.6751199
3.4942539 -3.2794049 -1.6768079
3.4781606 -3.3046734 -1.6788334
3.4781718 -3.3455269 -1.688961
3.4515085 -3.3608961 -1.6859227
3.4274695 -3.3787072 -1.6842347
3.393347 -3.3863771 -1.677483
3.3585975 -3.3930869 -1.6703937
3.313364 -3.3887308 -1.657903
3.3278241 -3.4455557 -1.6761327
3.2968726 -3.4556949 -1.6710688
3.27367 -3.473804 -1.6700561
3.2599905 -3.5020926 -1.6741072
3.2384405 -3.5220296 -1.6741072
3.2129714 -3.5376537 -1.6720816
3.1912043 -3.5573015 -1.6720816
3.1661954 -3.573293 -1.6703937
3.1491704 -3.5983193 -1.6730944
3.1368821 -3.6289678 -1.6784958
3.1096661 -3.6424203 -1.6757951
3.0896854 -3.6643107 -1.6771455
3.064734 -3.6803064 -1.6757951
3.0438881 -3.7012229 -1.6768079
3.0151858 -3.7125239 -1.673432
2.9935274 -3.7324233 -1.6741072
2.9635556 -3.7418668 -1.6700561
1.9929197 -2.5484989 -1.1184371
1.9783956 -2.5621691 -1.1191121
1.963208 -2.5750084 -1.1194497
1.9451063 -2.5839982 -1.1180995
1.9292146 -2.5958846 -1.1180995
1.8881887 -2.5735242 -1.102908
1.7431343 -2.4066916 -1.0239123
1.6796007 -2.3492002 -0.99386698
1.6363831 -2.3187056 -0.9759748
2.7043085 -3.881799 -1.6548647
2.6889734 -3.9107287 -1.660266
2.6659842 -3.9287119 -1.6609412
2.6418281 -3.9449961 -1.6609412
2.6175721 -3.9611318 -1.6609412
2.5942461 -3.9786954 -1.6616163
2.5687659 -3.9929552 -1.6609412
2.5336232 -3.9919531 -1.6538519
2.5085819 -4.0066261 -1.6535143
2.4770248 -4.0107317 -1.648788
2.4435532 -4.0113854 -1.6427114
2.4232571 -4.033565 -1.6457497
2.4008613 -4.0524068 -1.6474377
2.3821244 -4.0776272 -1.6518263
2.352361 -4.0840111 -1.6484505
2.3272576 -4.0983677 -1.6484505
2.3066652 -4.1207838 -1.6518263
2.2849753 -4.1414528 -1.6545271
2.2734625 -4.1810293 -1.6649922
2.23576 -4.1724997 -1.6558774
2.2096763 -4.185307 -1.6555398
2.1891673 -4.208807 -1.6595908
2.1572912 -4.2104325 -1.6548647
2.1314158 -4.2235904 -1.6548647
2.1079741 -4.2416463 -1.6568902
2.0852187 -4.2612643 -1.6595908
2.0610759 -4.2782187 -1.6612788
2.0355933 -4.2924857 -1.6619539
2.0124021 -4.3117185 -1.6646546
1.4570181 -3.1726737 -1.210261
1.4154258 -3.1326623 -1.1910185
1.3961775 -3.1412883 -1.1910185
1.3772538 -3.1506584 -1.1913561
1.8743602 -4.360178 -1.660266
1.8603994 -4.4019418 -1.6720816
1.8261307 -4.3958893 -1.6653298
1.7973446 -4.4026542 -1.6636419
1.7731005 -4.4205885 -1.6663426
1.7455977 -4.4305091 -1.666005
1.7173605 -4.4385033 -1.6649922
1.6951094 -4.4621558 -1.6700561
1.6584877 -4.4477782 -1.6606036
1.64443 -4.4941125 -1.6744447
1.6072807 -4.4775405 -1.6643171
1.5910325 -4.5192809 -1.6764703
1.5614295 -4.5236197 -1.6744447
1.5312299 -4.5259824 -1.671744
1.5031339 -4.534399 -1.6714064
1.4749923 -4.5426416 -1.6710688
1.4488029 -4.5569887 -1.6730944
1.4174573 -4.5550075 -1.6690433
1.3933212 -4.5762258 -1.6737696
1.3622599 -4.5747652 -1.6700561
1.3349534 -4.5857491 -1.6710688
1.3067907 -4.593854 -1.6710688
1.2770663 -4.5963445 -1.6690433
1.2441562 -4.586833 -1.6626291
1.2171931 -4.5989304 -1.6643171
1.1901284 -4.6108694 -1.666005
1.1627332 -4.6217365 -1.6673554
0.72733963 -2.9685569 -1.0542953
1.1076779 -4.6429815 -1.6700561
0.68894005 -2.9690068 -1.051257
0.67195314 -2.9786875 -1.0532825
0.65184903 -2.9744794 -1.0502442
0.63260579 -2.9738197 -1.0485562
0.61510819 -2.9813328 -1.0499066
0.60105079 -3.0062799 -1.0576712
0.58187729 -3.0062149 -1.0563208
0.56168729 -3.0004766 -1.0529449
0.54242796 -2.9992354 -1.051257
0.52045172 -2.9821074 -1.04383
0.50339419 -2.9926705 -1.0465307
0.48246238 -2.979907 -1.0407917
0.46257544 -2.9725804 -1.0370783
0.44335327 -2.9688461 -1.0347152
0.42406091 -2.9640563 -1.0320145
0.40624899 -2.9694002 -1.0330272
0.38765547 -2.9690371 -1.0320145
0.36977929 -2.9741619 -1.0330272
0.35141268 -2.97544 -1.0326896
0.33388266 -2.9840884 -1.0350528
0.31497204 -2.9804645 -1.0330272
0.29723814 -2.9879611 -1.0350528
0.27977434 -2.9991007 -1.0384287
0.26177594 -3.0054495 -1.0401165
0.24492694 -3.0267017 -1.0472059
0.22719432 -3.0394115 -1.051257
0.20925041 -3.0510783 -1.0549704
0.19146566 -3.0673361 -1.0603719
0.17290623 -3.0731523 -1.0620598
0.15489666 -3.0910773 -1.0681363
0.13592726 -3.0919695 -1.0681363
0.11591763 -3.0654674 -1.0583463
0.096507676 -3.0473046 -1.0515946
0.07821846 -3.0638361 -1.0573336
0.058921564 -3.0388484 -1.0482187
0.040123254 -3.027858 -1.0441676
0.021441564 -3.0139282 -1.0391037
0.0029522334 -3.0177684 -1.0404541
-0.015460476 -2.9970214 -1.0330272
-0.033713013 -2.9846339 -1.0286386
-0.052253652 -2.9975471 -1.0333648
-0.070424736 -2.9877598 -1.0299889
-0.089340329 -3.00703 -1.0370783
-0.10852864 -3.0271204 -1.0445052
-0.12721877 -3.0292189 -1.0455179
-0.14557761 -3.0236802 -1.04383
-0.16356781 -3.0123909 -1.0401165
-0.18091491 -2.9925389 -1.0333648
-0.19846167 -2.9791627 -1.0289762
-0.21612391 -2.9694395 -1.0259379
-0.2337483 -2.9605503 -1.0232371
-0.25254723 -2.9665637 -1.0259379
-0.27074498 -2.9649582 -1.0259379
-0.28838518 -2.9576199 -1.0239123
-0.30487892 -2.939878 -1.0181733
-0.31757098 -2.8892968 -1.0006187
-0.342668 -2.9508755 -1.0235747
-0.3628231 -2.9655356 -1.0296513
-0.38437009 -2.9893951 -1.0391037
-0.40195161 -2.9813831 -1.0370783
-0.42247063 -2.9947062 -1.0428172
-0.44138616 -2.9957826 -1.0441676
-0.4586173 -2.9855747 -1.041467
-0.47722483 -2.9845634 -1.042142
-0.49552876 -2.9815791 -1.042142
-0.5128547 -2.9729168 -1.0401165
-0.53373581 -2.9845397 -1.0455179
-0.55426502 -2.9932413 -1.0499066
-0.57421321 -2.9981046 -1.0529449
-0.59844196 -3.0240741 -1.0637478
-0.61246753 -2.9982107 -1.0556456
-0.6289134 -2.9851851 -1.0522697
-0.64721829 -2.9812698 -1.0522697
-0.66159976 -2.9597881 -1.0458555
-0.67995906 -2.9565904 -1.0461931
-0.6952734 -2.9404538 -1.0418046
-0.71618974 -2.9480236 -1.0461931
-0 -0 -0
-0.77820885 -3.0402365 -1.0836655
-0.77510971 -2.9525509 -1.0529449
-0.79076689 -2.9386494 -1.049569
-0.80603272 -2.9237599 -1.0458555
-0.83418179 -2.9549961 -1.0593591
-0.86248296 -2.9850912 -1.072525
-0.87758237 -2.9689102 -1.0684739
-1.2017814 -3.9762673 -1.4479231
-1.2397672 -4.012888 -1.4644649
-1.2686156 -4.0186701 -1.4695287
-1.2828537 -3.9785581 -1.4573755
-0.98913348 -3.0040755 -1.0924428
-1.0555079 -3.1407163 -1.1464568
-1.0253131 -2.9899302 -1.0917675
-1.0427077 -2.9809172 -1.0907547
-1.0654044 -2.9868758 -1.095481
-1.0792097 -2.9678969 -1.0907547
-1.0888984 -2.9382696 -1.0819775
-1.1112279 -2.9429815 -1.0863662
-1.127238 -2.9308362 -1.0843406
-1.1493182 -2.9343824 -1.0883917
-1.1582394 -2.904541 -1.0796144
-1.1678997 -2.8773184 -1.0718498
-1.1819402 -2.8613977 -1.0684739
-1.1918188 -2.8358672 -1.0613846
-1.1958807 -2.7973406 -1.0492314
-1.2133975 -2.7908134 -1.049569
-1.2335427 -2.7902033 -1.0522697
-1.2595125 -2.80233 -1.0600343
-1.2579142 -2.7534499 -1.04383
-1.2783518 -2.7533641 -1.0468683
-1.2883965 -2.7309952 -1.0411294
-1.9432797 -4.0549426 -1.5708052
-1.3218129 -2.7149789 -1.0411294
-1.3376126 -2.7051296 -1.0404541
-1.3588309 -2.7061253 -1.0441676
-1.3907974 -2.7279279 -1.0563208
-1.4105375 -2.7251949 -1.0586839
-1.4416764 -2.743989 -1.0698243
-1.4651279 -2.747551 -1.0748881
-1.4819591 -2.7385094 -1.0748881
-1.5000932 -2.7318401 -1.0759009
-1.5163692 -2.7217619 -1.0755633
-1.5284106 -2.7042112 -1.0721874
-1.5337409 -2.6751821 -1.0640854
-1.540192 -2.6486316 -1.056996
-1.5549806 -2.6366987 -1.0559832
-1.5701637 -2.6254921 -1.055308
-1.5901477 -2.6222477 -1.0580088
-1.6180372 -2.6316876 -1.0661108
-1.619718 -2.5985425 -1.0563208
-1.6406589 -2.5965133 -1.0596967
-1.6590978 -2.5903611 -1.0613846
-1.6698363 -2.5722363 -1.0580088
-1.6871396 -2.5643013 -1.0590215
-1.7033643 -2.5546842 -1.0593591
-1.7216418 -2.5480845 -1.0610471
-1.7340542 -2.5328121 -1.0590215
-1.7495626 -2.5221245 -1.0590215
-1.7671697 -2.5144227 -1.0603719
-1.7902068 -2.5142682 -1.065098
-1.8033981 -2.5001824 -1.0637478
-1.8120421 -2.4799488 -1.0596967
-1.8199462 -2.4589467 -1.055308
-1.8366933 -2.4499931 -1.0563208
-1.8499843 -2.4364281 -1.055308
-1.8597356 -2.4183147 -1.0522697
-1.8722259 -2.403887 -1.0509194
-1.8851922 -2.3901367 -1.0499066
-1.9056958 -2.38588 -1.0532825
-1.9131972 -2.3653586 -1.0492314
-1.9348308 -2.3623145 -1.0532825
-1.9474869 -2.3482242 -1.0522697
-1.9509645 -2.3232539 -1.0461931
-1.9578671 -2.302633 -1.042142
-1.9645905 -2.2820151 -1.0380911
-1.9760822 -2.2670789 -1.0367407
-1.9918238 -2.2570288 -1.0377535
-2.0018728 -2.2405527 -1.0357279
-2.0124261 -2.2247365 -1.03404
-2.043201 -2.2310917 -1.0431548
-2.0626111 -2.2247262 -1.0461931
-2.0684936 -2.2037914 -1.042142
-2.0800321 -2.1890104 -1.0411294
-2.0953817 -2.1782417 -1.042142
-2.1126475 -2.1693904 -1.0441676
-2.1100609 -2.1402969 -1.0360655
-2.1231537 -2.1273096 -1.0360655
-2.13416 -2.1122553 -1.0350528
-2.1470804 -2.0991206 -1.0350528
-2.1592429 -2.085253 -1.0347152
-2.1808503 -2.0804124 -1.0391037
-2.1880944 -2.0618269 -1.0364031
-2.2082827 -2.0554178 -1.0401165
-2.2381742 -2.0577586 -1.0485562
-2.2619061 -2.0541131 -1.0539577
-2.2919829 -2.0559113 -1.0623974
-2.3094859 -2.0461795 -1.0647604
-2.3248305 -2.0344501 -1.0661108
-2.3194683 -2.0047565 -1.0576712
-2.342463 -1.9996552 -1.062735
-2.3690801 -1.9973812 -1.0694867
-2.3675487 -1.9713615 -1.0630726
-2.383235 -1.9597871 -1.0647604
-2.4010601 -1.9498749 -1.0674613
-2.418119 -1.9392285 -1.0698243
-2.4329236 -1.9266926 -1.0711746
-2.4476655 -1.914048 -1.072525
-2.4601088 -1.8995687 -1.0728626
-2.470221 -1.8832964 -1.0721874
-2.4727066 -1.8613096 -1.0681363
-2.4833255 -1.8455408 -1.0677987
-2.5082622 -1.8402933 -1.0738754
-2.502737 -1.8127186 -1.0664485
-2.5145781 -1.7978755 -1.0667861
-2.5240245 -1.7813268 -1.0661108
-2.5464914 -1.7738781 -1.0711746
-2.5658593 -1.764087 -1.0748881
-2.5805295 -1.7509531 -1.0765761
-2.5998273 -1.7408483 -1.0802896
-2.6088893 -1.7238252 -1.0796144
-2.6233597 -1.7103559 -1.0813023
-2.6393459 -1.6977925 -1.0836655
-2.6497138 -1.6815658 -1.0836655
-2.6599817 -1.6652758 -1.0836655
-2.6829629 -1.6568381 -1.0890669
-2.6954901 -1.6418138 -1.0900797
-2.7119679 -1.6291223 -1.0927804
-2.7372992 -1.6215686 -1.0991945
-2.7797065 -1.6237376 -1.112698
-2.7945108 -1.6094704 -1.1147236
-2.8337994 -1.6090287 -1.1268767
-2.8756506 -1.6095444 -1.1400427
-2.9423378 -1.6232502 -1.1633363
-2.9613385 -1.6101129 -1.1670498
-3.045831 -1.6319302 -1.1974326
-3.0890815 -1.6307926 -1.2109362
-3.172514 -1.6500376 -1.240644
-3.2378666 -1.6588742 -1.2629248
-3.2807567 -1.6555177 -1.2760907
-3.2706232 -1.6253004 -1.2679886
-3.3802984 -1.654031 -1.307824
-3.8542287 -1.8567697 -1.4924847
-4.1411018 -1.9637877 -1.6018633
-4.1129856 -1.9196272 -1.5859966
-3.763726 -1.7285359 -1.4435344
-3.7476709 -1.6933914 -1.4330692
-3.7502496 -1.6669227 -1.4300309
-3.8363023 -1.677067 -1.4597386
-3.9105115 -1.6810114 -1.4847202
-3.9476295 -1.6683472 -1.4951854
-4.0716624 -1.6914089 -1.5394094
-4.0732498 -1.6628352 -1.5360336
-4.2414989 -1.7012498 -1.5971371
-4.257988 -1.6776084 -1.5995002
-4.3278947 -1.6745528 -1.6224562
-4.4014421 -1.6720392 -1.6467625
-4.4936395 -1.6755929 -1.6781582
-4.5489173 -1.6644888 -1.6953752
-4.6086564 -1.6543593 -1.7142801
-4.6737671 -1.6454347 -1.7352105
-4.7149167 -1.6274781 -1.7470262
-4.7720699 -1.6145093 -1.7649183
-4.8337069 -1.6023812 -1.7844985
-4.9293928 -1.6006063 -1.8169069
-5.0198531 -1.5960047 -1.8472899
-5.1284151 -1.5959475 -1.8844246
-5.2092471 -1.5861155 -1.9110941
-5.2486515 -1.56299 -1.9222344
-5.290678 -1.5402297 -1.9343876
-5.3054614 -1.5092834 -1.9364132
-5.3218775 -1.4787178 -1.9391139
-5.3326674 -1.4465286 -1.9397891
-5.3387132 -1.4130579 -1.9387763
-5.3500171 -1.3809797 -1.9397891
-5.3638668 -1.3495049 -1.9418145
-5.3629041 -1.3143262 -1.9384387
-5.3717833 -1.2816138 -1.9387763
-5.3932996 -1.2518224 -1.94384
-5.4063883 -1.2199497 -1.9458656
-5.4100943 -1.1859473 -1.9445152
-5.4089832 -1.1509655 -1.9414769
-5.4048815 -1.115471 -1.9374259
-5.3848567 -1.076931 -1.9276358
-5.4015288 -1.0458388 -1.9313493
-5.4106197 -1.013196 -1.9323621
-5.4222922 -0.98098379 -1.9343876
-5.4319186 -0.94834262 -1.935738
-5.4432044 -0.91593271 -1.9377635
-5.4570847 -0.88387167 -1.9408017
-5.4670558 -0.85109532 -1.9424897
