# .PCD v0.7 - Point Cloud Data file format
VERSION 0.7
FIELDS x y z
SIZE 4 4 4
TYPE F F F
COUNT 1 1 1
WIDTH 1512
HEIGHT 1
VIEWPOINT 0 0 0 1 0 0 0
POINTS 1512
DATA ascii
9.3232927 -5.5096149 -1.5818841
9.2944002 -5.5697684 -1.582772
9.2270889 -5.6066604 -1.5770007
9.1824102 -5.6569452 -1.575225
9.1273966 -5.7006054 -1.5716734
9.0805483 -5.749095 -1.5696017
9.037612 -5.7998958 -1.5682698
8.9861031 -5.8449926 -1.5654582
8.9277773 -5.8853211 -1.5614626
8.9005423 -5.9460344 -1.5630904
8.8696232 -6.0044169 -1.5641264
8.8350601 -6.0604053 -1.5645703
8.7879639 -6.107728 -1.5627944
8.7478962 -6.1598263 -1.5623505
8.6841736 -6.1950045 -1.5576152
8.6508074 -6.2516494 -1.558503
8.5979223 -6.294095 -1.5558393
8.5662899 -6.352035 -1.5571712
8.5216179 -6.4003191 -1.5561353
8.4609346 -6.436317 -1.5521398
8.4079657 -6.4778485 -1.5496241
8.3415518 -6.5086284 -1.5445927
8.2937002 -6.5535564 -1.5431129
8.2595091 -6.6092663 -1.5442967
8.2234097 -6.6635575 -1.5451846
8.1770163 -6.7094979 -1.5441488
8.1242847 -6.7500634 -1.541929
8.0880108 -6.8042431 -1.5429649
8.0363226 -6.8454041 -1.5410411
7.9761958 -6.8790812 -1.5374895
7.9159594 -6.9122791 -1.5339381
7.8378353 -6.9292736 -1.5268348
7.7914867 -6.973937 -1.5260949
7.7727304 -7.0435309 -1.5309783
7.7162495 -7.0790553 -1.5283147
7.6733923 -7.1269412 -1.5284626
7.628077 -7.1725349 -1.5281667
7.5760446 -7.2117033 -1.5265388
7.535924 -7.2621713 -1.5274268
7.4954696 -7.3124185 -1.5283147
7.4314632 -7.3395061 -1.5243192
7.1513224 -7.1499896 -1.4745972
7.0482411 -7.1339273 -1.4620187
6.9932847 -7.1657143 -1.459651
6.9382038 -7.1970959 -1.4572833
6.8891392 -7.2345185 -1.4562474
6.8344564 -7.2658463 -1.4540277
6.7762837 -7.2931528 -1.451068
6.7387609 -7.3426099 -1.4526958
6.6836185 -7.372828 -1.4504762
6.5927386 -7.362855 -1.4402654
2.1746013 -2.457643 -0.45248535
2.1529751 -2.463491 -0.45100555
2.1436327 -2.4833949 -0.45233738
6.3773503 -7.4840369 -1.4327183
6.4312754 -7.6418376 -1.4559515
6.385529 -7.6826763 -1.4562474
6.2799211 -7.6506128 -1.4424851
6.2197833 -7.6728663 -1.4393774
6.1800017 -7.7201519 -1.4411533
6.1668553 -7.8013783 -1.4494402
2.0155456 -2.5809085 -0.45144948
1.9960495 -2.5885267 -0.45056158
1.9729432 -2.5912805 -0.44878581
1.9498783 -2.5938485 -0.44701001
1.9262675 -2.5954368 -0.44508624
1.8396131 -2.5106523 -0.42718044
1.8276494 -2.5267019 -0.42806831
1.8345131 -2.569267 -0.43383962
5.9546361 -8.4533052 -1.508633
5.8806405 -8.4580126 -1.5028617
5.835906 -8.5045376 -1.5047855
5.7869401 -8.5450993 -1.5056734
5.7398939 -8.5886698 -1.5071533
5.6800098 -8.6129942 -1.5052295
5.624897 -8.6443672 -1.5046376
5.5648055 -8.6678991 -1.5027138
1.7941358 -2.8312128 -0.46299207
1.7777779 -2.8438456 -0.46328804
1.7618513 -2.8572261 -0.46373197
5.3550315 -8.8094616 -1.5040456
5.2678294 -8.787014 -1.4944268
5.2153234 -8.8217258 -1.4948708
5.166574 -8.8629599 -1.4964986
5.1155438 -8.9004974 -1.4975344
5.0622973 -8.9342995 -1.4979783
4.9982209 -8.9487867 -1.4951667
4.9417877 -8.9766874 -1.4947227
4.8861432 -9.005971 -1.4945748
4.8410478 -9.0549717 -1.4978304
4.7900047 -9.093256 -1.4993103
4.7327528 -9.1198416 -1.4988662
4.6726551 -9.1407833 -1.4975344
4.6178145 -9.1719332 -1.4979783
4.5451984 -9.1673088 -1.492503
4.4884295 -9.1941357 -1.492355
4.4306459 -9.2188292 -1.4919111
4.3685002 -9.2342186 -1.4899874
4.3138447 -9.2653322 -1.4907272
4.2560887 -9.2898293 -1.4904313
4.1986012 -9.314867 -1.4902833
4.1449738 -9.3485918 -1.4916152
4.0903006 -9.3801947 -1.492651
4.0299401 -9.3987532 -1.4916152
3.9679701 -9.4132776 -1.4899874
3.9074874 -9.4310522 -1.4889514
3.8506646 -9.4575987 -1.4893954
3.793663 -9.4838028 -1.4898393
3.7357616 -9.507822 -1.4899874
3.6784201 -9.5333328 -1.4904313
3.6188047 -9.5529499 -1.4899874
3.5532296 -9.5564337 -1.4870276
3.4924922 -9.5724812 -1.4861398
3.4390213 -9.6086292 -1.4885075
3.3822913 -9.6360826 -1.4895434
3.3211715 -9.6510429 -1.4886554
3.2590477 -9.6628056 -1.4873236
3.1941128 -9.6657171 -1.48466
3.139616 -9.7001896 -1.4870276
3.0824268 -9.7268133 -1.4882115
3.0185859 -9.7323189 -1.4861398
2.955081 -9.7383547 -1.484216
2.8961155 -9.7591476 -1.48466
2.8400362 -9.7900324 -1.4867318
2.7828777 -9.8177404 -1.4883596
2.72364 -9.8384438 -1.4889514
2.6647685 -9.8606997 -1.4898393
2.6062305 -9.8845148 -1.4910232
2.5462697 -9.9031944 -1.4914671
2.4844959 -9.914794 -1.4908752
2.4229097 -9.9269695 -1.4904313
2.3621819 -9.9426117 -1.4905792
2.2997952 -9.9511366 -1.4896914
2.2399929 -9.9708509 -1.4905792
2.1802459 -9.9911709 -1.4916152
2.1184907 -10.002426 -1.4913192
0.53811294 -2.6156251 -0.36103246
0.5214749 -2.6159678 -0.36058852
0.50934011 -2.6395125 -0.36369613
0.49096271 -2.6309206 -0.36192036
0.48058656 -2.6660051 -0.36680377
0.47453177 -2.7283442 -0.37583068
0.45859742 -2.7360818 -0.37657058
0.44604188 -2.7652078 -0.38056609
0.42604461 -2.7483451 -0.37760645
0.4038046 -2.7147107 -0.37213111
0.38588807 -2.7083249 -0.37079927
0.36912975 -2.7096617 -0.3706513
0.35452962 -2.7275684 -0.37301901
0.34577563 -2.7944751 -0.38278583
0.32057139 -2.7277844 -0.37242708
0.30153927 -2.7090578 -0.36931947
0.29201493 -2.7787266 -0.37953022
1.0013487 -10.157269 -1.4886554
0.7251758 -7.8459735 -1.1404538
0.6748994 -7.8256416 -1.1367543
0.62568772 -7.8148479 -1.1345345
0.57859772 -7.8303757 -1.1363103
0.53287435 -7.8683143 -1.1414896
0.2265086 -3.6692226 -0.51153016
0.19989796 -3.596482 -0.50043154
0.1778266 -3.597641 -0.50043154
0.15451767 -3.5700099 -0.49614006
0.13195473 -3.5531011 -0.49347636
0.10821064 -3.4905784 -0.48400551
0.086548321 -3.4812896 -0.48252571
0.18835416 -10.180041 -1.4849559
0.12618992 -10.205729 -1.4886554
0.022013089 -3.4100981 -0.47172302
0.00093967875 -10.241123 -1.4938349
-0.062032666 -10.262693 -1.4970905
-0.12484415 -10.249264 -1.4951667
-0.18747494 -10.234462 -1.4930949
-0.25012314 -10.227186 -1.4922071
-0.31284091 -10.22447 -1.4920591
-0.37538907 -10.217417 -1.4913192
-0.43769249 -10.206028 -1.4899874
-0.50016165 -10.200188 -1.4895434
-0.56252092 -10.192976 -1.4889514
-0.62517464 -10.191307 -1.4892474
-0.68963051 -10.215895 -1.4935389
-0.75528491 -10.251909 -1.4996061
-0.84820819 -10.622688 -1.5559874
-0.91617262 -10.6498 -1.5608708
-0.9828651 -10.658751 -1.5630904
-1.0491201 -10.661377 -1.5644222
-1.1157533 -10.666542 -1.5661981
-1.1809629 -10.65753 -1.5659021
-1.2443781 -10.633384 -1.5633864
-1.3094788 -10.624567 -1.5632384
-1.3737555 -10.609467 -1.5622026
-1.3819857 -10.182382 -1.4990143
-1.4447159 -10.175669 -1.4993103
-1.5029165 -10.138243 -1.4950187
-0.45152357 -2.9275413 -0.40468717
-0.47230649 -2.9422915 -0.40735084
-1.6858482 -10.088377 -1.4919111
-0.51869249 -2.9957139 -0.41637775
-0.5424915 -3.0226493 -0.42096519
-0.56211418 -3.0250974 -0.42185307
-1.9417111 -10.08961 -1.4988662
-2.0037761 -10.078476 -1.4990143
-2.0657778 -10.066959 -1.4991622
-2.1279182 -10.05603 -1.4994582
-0.61796731 -2.8383007 -0.39610422
-0.63905525 -2.8508599 -0.39861989
-0.64518178 -2.7977409 -0.39107281
-2.3781784 -10.0181 -1.5021218
-2.4381969 -9.9975538 -1.5012339
-2.4978125 -9.9756899 -1.5001981
-0.93769658 -3.6527114 -0.52573645
-0.76800627 -2.9181697 -0.41297415
-0.77790111 -2.8838048 -0.40838671
-0.78502923 -2.8408511 -0.40246743
-0 -0 -0
-0.8088128 -2.7930095 -0.39654815
-2.9246914 -9.8620825 -1.5006421
-2.9756744 -9.8127193 -1.4957587
-1.0041981 -3.2424011 -0.46935531
-1.025269 -3.2399497 -0.46994722
-3.1466558 -9.728056 -1.4913192
-3.2193172 -9.7480068 -1.4975344
-3.2790694 -9.7280693 -1.4975344
-3.3364456 -9.7012205 -1.4964986
-1.128756 -3.2200398 -0.47201899
-1.1458271 -3.2056041 -0.47083512
-3.5174983 -9.6465254 -1.4978304
-3.5762775 -9.6238337 -1.4976825
-1.1643549 -3.0776088 -0.45381719
-1.1789454 -3.059334 -0.45204142
-3.7911453 -9.6539497 -1.5133685
-1.2042801 -3.014333 -0.44715801
-1.2182785 -2.9958949 -0.44538221
-3.9504116 -9.539588 -1.5064133
-3.9985008 -9.4905624 -1.5024178
-4.0621138 -9.4785757 -1.5044895
-4.1261253 -9.4670706 -1.5067093
-4.1881447 -9.4506168 -1.5081891
-4.2460537 -9.4247408 -1.5081891
-4.3062739 -9.4039049 -1.509077
-1.3312576 -2.8625729 -0.43383962
-1.3492198 -2.8552446 -0.43398759
-1.3654288 -2.844238 -0.43354365
-1.4357793 -2.9442365 -0.45159745
-4.6151123 -9.3125763 -1.5166241
-4.671277 -9.2823162 -1.5163281
-4.7281442 -9.253479 -1.5163281
-4.7862 -9.2269268 -1.516772
-4.843647 -9.1991358 -1.517068
-4.8990684 -9.1674986 -1.516772
-4.9589992 -9.1442204 -1.5179559
-4.7379384 -8.6102333 -1.4319783
-4.7540336 -8.5153761 -1.4207318
-4.765244 -8.413764 -1.4083012
-4.7798233 -8.320055 -1.3972026
-4.8123579 -8.258955 -1.3917272
-4.8503618 -8.2079878 -1.3880277
-4.8858886 -8.1534719 -1.3837363
-4.9086018 -8.0785465 -1.3758932
-4.9471827 -8.0305948 -1.3727856
-4.9366298 -7.9044681 -1.3559157
-5.0786929 -8.0219193 -1.3821084
-5.2068868 -8.1137829 -1.4040098
-5.2544165 -8.0783653 -1.4034178
-5.3479834 -8.1128511 -1.4154044
-5.4438176 -8.1489573 -1.4278349
-5.3789334 -7.9458857 -1.3972026
-5.4259086 -7.9102855 -1.3967587
-5.4867625 -7.8947086 -1.4000143
-5.5550323 -7.889194 -1.4051937
-5.6240144 -7.8839426 -1.410521
-5.6711249 -7.847683 -1.410225
-5.6905413 -7.7736382 -1.4029739
-6.2990108 -8.4947977 -1.5438528
-6.350421 -8.4551973 -1.5437047
-6.4105659 -8.4270916 -1.5457766
-1.7124015 -2.2240245 -0.38145399
-1.7424445 -2.2345264 -0.3854495
-1.7561225 -2.2237928 -0.3854495
-1.7715883 -2.215292 -0.38589343
-1.7907523 -2.2112949 -0.38722527
-6.7659664 -8.24582 -1.5574671
-6.820859 -8.2094746 -1.558503
-6.8742867 -8.1712513 -1.559243
-6.930068 -8.1356926 -1.5605748
-6.9811492 -8.0945158 -1.5608708
-7.0287328 -8.0492926 -1.5604268
-7.0891275 -8.018609 -1.5629425
-7.1487498 -7.9867492 -1.5653101
-7.1982856 -7.9434676 -1.5654582
-7.2535768 -7.9064374 -1.5669379
-7.30128 -7.8610568 -1.56679
-7.3507323 -7.8175497 -1.567086
-7.3999252 -7.7737317 -1.567382
-7.4522891 -7.7331648 -1.5684178
-7.5016708 -7.6894164 -1.5688617
-7.5605264 -7.6552033 -1.5713774
-7.6325316 -7.6338434 -1.5767047
-7.678525 -7.5861726 -1.5765568
-3.4904754 -3.4073169 -0.69132835
-3.4158964 -3.2938695 -0.67149878
-3.3694282 -3.2094281 -0.65773642
-7.9077754 -7.4381313 -1.5858797
-7.9554396 -7.3914895 -1.5863236
-3.5445275 -3.2538455 -0.68141353
-3.2573795 -2.953757 -0.61940908
-3.394078 -3.0399165 -0.64323419
-3.5882607 -3.1742938 -0.67830592
-3.430382 -2.9973865 -0.64308619
-3.4262424 -2.9569027 -0.63864672
-3.4428155 -2.9345412 -0.63835078
-3.7664864 -3.1705987 -0.6981355
-3.7889125 -3.1499567 -0.69872743
-3.863214 -3.1718214 -0.70938218
-5.2325916 -4.2421222 -0.96938658
-5.3504086 -4.2834735 -0.98699641
-5.3649516 -4.241365 -0.98477668
-5.3885365 -4.2065411 -0.98433274
-5.487102 -4.2295375 -0.9980951
-5.4759574 -4.167645 -0.99113995
-5.5006356 -4.1333728 -0.99099195
-5.5401931 -4.110148 -0.99365562
-5.4990759 -4.0275846 -0.98137313
-5.7064376 -4.1258545 -1.015113
-5.7380867 -4.0953579 -1.0162969
-5.6458611 -3.9775023 -0.99483949
-5.7676091 -4.0105224 -1.0125973
-5.7513328 -3.9470835 -1.0051982
-5.6001902 -3.7930629 -0.97353005
-5.7606869 -3.850385 -0.99824303
-5.6454892 -3.7235098 -0.97338206
-5.7221155 -3.7238543 -0.98300093
-5.6824346 -3.6486087 -0.97190225
-5.7264395 -3.6274295 -0.97574979
-5.6881962 -3.5544999 -0.9650951
-5.6198058 -3.4640198 -0.94926101
-5.7567415 -3.4998379 -0.96953458
-5.9503121 -3.5676594 -0.9995749
-5.9635768 -3.5260496 -0.9980951
-5.9637384 -3.4769421 -0.99439555
-5.9858174 -3.4407766 -0.99454349
-5.7761984 -3.2733462 -0.95488435
-5.9334698 -3.3145065 -0.97841346
-5.9181719 -3.2584858 -0.97234619
-5.9032803 -3.2032502 -0.96642691
-5.8696184 -3.1385305 -0.95740002
-5.9657712 -3.1430089 -0.97042245
-5.8962784 -3.0603442 -0.95547628
-5.9466491 -3.0403097 -0.96080363
-5.8874531 -2.9646358 -0.94778121
-6.0712357 -3.0105882 -0.97545385
-6.0256009 -2.9420478 -0.96479911
-6.1897349 -2.9752622 -0.98906815
-6.2436361 -2.9541399 -0.99498743
-6.2715077 -2.9203646 -0.99661523
-6.2488461 -2.8632963 -0.98995608
-6.2554774 -2.8200247 -0.98818028
-5.778091 -2.5623729 -0.90723413
-5.8589797 -2.5553257 -0.91788882
-6.3017797 -2.7024558 -0.98744035
-6.3756599 -2.6879332 -0.99676323
-6.3719311 -2.6404362 -0.99350762
-6.5858731 -2.6818218 -1.0254718
-6.6664848 -2.6670659 -1.0358305
-6.6495852 -2.6130943 -1.0305032
-6.5215478 -2.5167217 -1.0074179
-6.4869232 -2.4577458 -0.9994269
-6.518568 -2.4240987 -1.0020906
-6.5258861 -2.3813448 -1.0009067
-6.5031276 -2.3279316 -0.99498743
-6.5872798 -2.3125434 -1.0060861
-6.5957341 -2.2701507 -1.0051982
-6.6254711 -2.2350087 -1.0077139
-6.623096 -2.1890399 -1.0051982
-6.6749825 -2.1608422 -1.0112655
-6.7852259 -2.1506066 -1.0265076
-6.7567301 -2.0960464 -1.0199964
-6.7789278 -2.0574193 -1.0214763
-6.8265061 -2.0261922 -1.0269516
-6.8768048 -1.9952848 -1.0328709
-6.8822575 -1.9511647 -1.031835
-6.7530308 -1.8698635 -1.0099336
-6.8025675 -1.8387085 -1.0158529
-6.90553 -1.8211298 -1.0300592
-6.8849645 -1.7706006 -1.0251758
-7.20749 -1.8064142 -1.07327
-7.3010683 -1.7823137 -1.0859964
-7.336885 -1.7434224 -1.089844
-7.7849264 -1.7994248 -1.1570277
-7.9955683 -1.7964737 -1.1876601
-8.2141905 -1.7926898 -1.2194762
-8.2666397 -1.7510616 -1.2258394
-8.9321299 -1.8347411 -1.3258753
-9.378746 -1.8665217 -1.3923192
-9.8454943 -1.8966266 -1.4617227
-10.335311 -1.9252337 -1.5345299
-11.280398 -2.029639 -1.6764446
-11.326745 -1.9663026 -1.6816241
-11.575632 -1.9363935 -1.7175837
-11.808946 -1.9009893 -1.7511756
-12.272915 -1.8984514 -1.8196913
-13.012179 -1.9310602 -1.9297899
-13.060013 -1.8563288 -1.9352652
-13.056457 -1.774163 -1.9330455
-13.04552 -1.6912214 -1.9297899
-13.047799 -1.6101754 -1.928606
-13.052522 -1.5295103 -1.9278661
-13.069525 -1.4502646 -1.92905
-13.125391 -1.3749859 -1.9361532
-13.13358 -1.2944242 -1.9361532
-13.137337 -1.2134502 -1.9355612
-13.150447 -1.1333271 -1.9364491
-13.147295 -1.0518284 -1.9349693
-13.148569 -0.97077459 -1.9342294
-13.155266 -0.89014488 -1.9343773
-13.168377 -0.80989397 -1.9355612
-13.177048 -0.72929734 -1.9361532
-13.155592 -0.64716959 -1.9323056
-13.14647 -0.56588447 -1.9303819
-13.122022 -0.48418993 -1.9262383
-13.118814 -0.40348369 -1.9253504
-13.134886 -0.32332006 -1.9274222
-13.125745 -0.24251983 -1.9257944
-13.107207 -0.16173491 -1.9228348
-13.122787 -0.081398249 -1.9250544
-13.110184 -0.00087708555 -1.9231308
-13.101041 0.079510696 -1.9217988
-13.087451 0.15973762 -1.9198751
-13.074358 0.23981899 -1.9180993
-13.073629 0.32006153 -1.9182473
-13.076362 0.40042558 -1.9189873
-13.068717 0.48047099 -1.9182473
-13.055642 0.56022519 -1.9167675
-13.083569 0.64187616 -1.9215029
-13.076422 0.7219795 -1.921059
-13.045093 0.80056334 -1.9170635
-13.025134 0.87959057 -1.9148437
-12.134189 -0.30674872 -1.9206852
-12.153608 -0.23262961 -1.9235537
-12.113348 -0.15751162 -1.9168605
-12.136791 -0.083339207 -1.9205258
-12.178537 -0.0088993441 -1.9272192
-12.091489 0.065360203 -1.913195
-12.094809 0.1395964 -1.9138325
-12.116427 0.21420673 -1.9174979
-12.098106 0.28814864 -1.9147887
-12.089204 0.36216909 -1.9136732
-12.070969 0.4357709 -1.9111233
-12.075958 0.51016188 -1.9123982
-12.111057 0.58610874 -1.9186134
-12.054002 0.65750796 -1.9100078
-12.046784 0.73127818 -1.9095297
-12.052906 0.80590624 -1.9112827
-12.040842 0.87934321 -1.9101671
-12.018489 0.95188338 -1.9074579
-12.05767 1.0294712 -1.9147887
-12.0236 1.1009167 -1.9103265
-11.996967 1.1727512 -1.9071392
-11.969907 1.2443002 -1.9039519
-11.989523 1.3207486 -1.9084141
-11.985115 1.3947464 -1.9090515
-11.986131 1.4694604 -1.9106452
-11.96416 1.5413388 -1.9085735
-11.957412 1.6151168 -1.9090515
-11.945322 1.6881795 -1.9087329
-11.891766 1.755102 -1.9017209
-11.811496 1.8173785 -1.890406
-11.846912 1.8973103 -1.8980554
-11.858419 1.9738553 -1.9018801
-11.857759 2.0485964 -1.9037926
-11.82553 2.1178358 -1.9006053
-11.789017 2.1860368 -1.8967805
-11.770534 2.2574022 -1.8959837
-11.716757 2.3217163 -1.8894498
-11.7197 2.3971255 -1.8923184
-11.711533 2.4704173 -1.8934339
-11.712554 2.5457954 -1.8961431
-11.690932 2.6163208 -1.8951869
-11.723723 2.699301 -1.9033145
-11.682923 2.7655013 -1.8993304
-11.61969 2.8259377 -1.8916808
-11.62895 2.9038777 -1.8961431
-11.588918 2.9695415 -1.8924778
-11.609626 3.05088 -1.8990116
-11.572576 3.1171799 -1.8959837
-11.545618 3.1860285 -1.8947088
-11.560053 3.266474 -1.9004459
-11.480045 3.3200667 -1.890406
-11.476498 3.3954854 -1.8932745
-11.42143 3.4555492 -1.8875374
-11.395296 3.5241065 -1.8867406
-11.382872 3.5969348 -1.8883343
-11.362466 3.6673174 -1.8886529
-11.321935 3.731097 -1.885625
-11.279179 3.7938881 -1.8822784
-11.266892 3.8668697 -1.8841908
-11.232704 3.9323413 -1.8824377
-11.242765 4.0134692 -1.8883343
-11.209579 4.07934 -1.8868999
-11.170452 4.1428947 -1.8845094
-11.150363 4.2134509 -1.8854656
-11.083761 4.2661872 -1.8784536
-11.084949 4.3449225 -1.8832346
-11.074586 4.4194427 -1.8861032
-11.063724 4.4939985 -1.8889717
-11.037766 4.5625539 -1.8892905
-10.991362 4.6225405 -1.8861032
-10.961884 4.689507 -1.8859438
-10.914798 4.7488031 -1.8827565
-10.85837 4.8037043 -1.8779756
-10.825989 4.8690252 -1.8774974
-10.827334 4.9497252 -1.8830752
-10.801236 5.018147 -1.883872
-10.766671 5.0826421 -1.8832346
-10.728161 5.1451941 -1.8819597
-10.675088 5.2005482 -1.878135
-10.617316 5.2532558 -1.8735133
-10.539012 5.295258 -1.8652264
-10.525669 5.3696933 -1.8687325
-10.572298 5.4754891 -1.8832346
-10.48345 5.5113173 -1.8731946
-10.431145 5.5657797 -1.869848
-10.430655 5.6480112 -1.8760632
-10.413973 5.7218885 -1.8794098
-10.383842 5.7885637 -1.880366
-10.312896 5.8322453 -1.8738321
-10.269208 5.8909931 -1.8723978
-10.198736 5.9340348 -1.8660232
-10.213999 6.0271039 -1.8757445
-10.191226 6.0982795 -1.8784536
-10.163744 6.1668415 -1.880366
-10.129918 6.2316751 -1.8811629
-10.114946 6.308341 -1.885625
-10.051015 6.3544607 -1.8808441
-10.046745 6.4383836 -1.8875374
-9.9855251 6.4859271 -1.8833939
-10.006561 6.5872421 -1.8951869
-9.9881287 6.6633086 -1.8994898
-9.9789524 6.7460313 -1.905705
-9.9324856 6.8037868 -1.9047488
-9.8962278 6.8685431 -1.9058644
-9.7812157 6.8780313 -1.8915216
-9.8063707 6.9860315 -1.9049081
-9.7961435 7.0697565 -1.911442
-9.7438126 7.123323 -1.9096891
-9.7070618 7.1882629 -1.9111233
-9.6635628 7.2482815 -1.9112827
-9.6173344 7.3062449 -1.910964
-9.555891 7.3524766 -1.9076173
-9.5479765 7.4400973 -1.9152668
-9.4951706 7.4930387 -1.9138325
-9.4281921 7.5345192 -1.9095297
-9.4140158 7.61831 -1.9162229
-9.2892056 7.6121082 -1.8999678
-9.3350134 7.7458682 -1.9194102
-9.3167896 7.8277669 -1.9256254
-9.2603121 7.8777504 -1.9238725
-9.2147932 7.9369993 -1.9245099
-9.1458292 7.975872 -1.9202071
-9.1226206 8.0547085 -1.9257848
-9.0995235 8.1342173 -1.931522
-9.0208941 8.1640635 -1.9253068
-8.9939232 8.2406015 -1.9304065
-8.9808283 8.3305416 -1.9386934
-8.9000378 8.3577833 -1.9321594
-8.8686218 8.4312811 -1.9366217
-8.8337936 8.5019684 -1.9404464
-8.7538824 8.5291443 -1.9342312
-8.7175503 8.5986404 -1.9378965
-8.6450653 8.6324377 -1.9334344
-8.6328983 8.7267275 -1.9428369
-8.5840197 8.7844753 -1.9439523
-8.5375004 8.8447943 -1.9457054
-8.4694433 8.8827229 -1.9425181
-8.4289951 8.9496145 -1.9458648
-8.3954411 9.0242949 -1.9509645
-8.3325624 9.0676422 -1.9492114
-8.2867212 9.1295643 -1.9516019
-8.178483 9.1221704 -1.9390121
-8.1923895 9.2512608 -1.9560641
-8.1816187 9.3541117 -1.967379
-8.1059971 9.3832207 -1.9629167
-8.0450668 9.4290266 -1.9621199
-7.96034 9.4465065 -1.9554266
-7.8965435 9.4883432 -1.9539924
-7.8306532 9.5274649 -1.95208
-7.8068881 9.6182566 -1.9610044
-7.7631612 9.685235 -1.9649885
-7.725646 9.7605534 -1.9707255
-7.6899295 9.8388853 -1.9771001
-7.6559544 9.9202719 -1.9841121
-7.5626283 9.9246597 -1.9755065
-7.4962473 9.9637766 -1.9740722
-7.4355583 10.010377 -1.9742316
-7.3757472 10.058201 -1.9747096
-7.3277869 10.12246 -1.9785345
-7.2575026 10.155987 -1.9763033
-7.1939116 10.198714 -1.9759846
-7.1249928 10.233751 -1.9742316
-7.0643024 10.280531 -1.974869
-7.0287952 10.364535 -1.9828373
-6.9590273 10.398443 -1.9810842
-6.910326 10.464013 -1.9855465
-6.8486848 10.510352 -1.9863433
-6.7797942 10.545534 -1.9850683
-6.7197199 10.594439 -1.9865026
-6.6493502 10.627102 -1.9849091
-6.5829816 10.666021 -1.9845903
-6.5184388 10.707899 -1.9849091
-6.4505811 10.744308 -1.9842715
-6.3900661 10.793031 -1.9860245
-6.3257122 10.835446 -1.986662
-6.2566457 10.869779 -1.9858652
-6.1854467 10.900236 -1.9844309
-6.1247134 10.949184 -1.9865026
-6.0578918 10.987424 -1.986662
-5.9941311 11.031327 -1.987937
-5.9253993 11.066158 -1.9876182
-5.8615336 11.110166 -1.9890524
-5.8005376 11.159937 -1.9916023
-5.7180042 11.168077 -1.986662
-5.664485 11.232923 -1.9920805
-5.5985279 11.273657 -1.9931959
-5.5331521 11.315779 -1.9946302
-5.4434881 11.30771 -1.9871401
-5.3549786 11.300753 -1.9799687
-5.3159995 11.398709 -1.9916023
-5.2455463 11.430216 -1.9914429
-5.1728759 11.456788 -1.9904867
-5.1237206 11.536131 -1.9989331
-5.0484924 11.557401 -1.9971801
-4.9961858 11.6317 -2.0048296
-4.9243369 11.661227 -2.0046701
-4.8511782 11.687575 -2.0040326
-4.7890682 11.740889 -2.0081761
-4.7099595 11.752642 -2.0051482
-4.6298018 11.761111 -2.0016422
-4.5618215 11.800347 -2.0035546
-4.4879289 11.824424 -2.0029171
-4.4287333 11.887817 -2.0091324
-4.3702841 11.954638 -2.015985
-4.305182 12.004459 -2.0199692
-4.2343912 12.039031 -2.0214033
-4.1652694 12.078785 -2.0237939
-4.0983481 12.125626 -2.0274594
-4.0201449 12.139298 -2.0255468
-3.9550273 12.192847 -2.0304873
-3.8843231 12.230058 -2.0327182
-3.8097939 12.255548 -2.0330369
-3.7422807 12.304194 -2.0373399
-3.6692464 12.335441 -2.0387743
-3.5981753 12.373837 -2.0414834
-3.5262311 12.409927 -2.0438738
-3.4545074 12.447501 -2.0465829
-3.3876188 12.503719 -2.0524795
-3.3156281 12.542404 -2.0555074
-3.2420576 12.575895 -2.0577385
-3.1561704 12.561084 -2.0520015
-3.0853753 12.606104 -2.0563042
-3.0079677 12.624798 -2.0563042
-2.9291091 12.637246 -2.0553479
-2.8599777 12.692541 -2.0615633
-2.7697988 12.653916 -2.05232
-2.6999013 12.707368 -2.0583758
-2.6539624 12.879366 -2.0840335
-2.5534258 12.787949 -2.0663443
-2.4805341 12.832454 -2.071125
-2.3885038 12.776593 -2.0594914
-2.3230488 12.862899 -2.0712845
-2.2415371 12.862322 -2.0688939
-2.16519 12.891411 -2.0714438
-2.0847883 12.896657 -2.070169
-2.0003111 12.875064 -2.0645912
-1.9202543 12.88026 -2.0634756
-1.8554263 12.991485 -2.0797307
-1.7632517 12.911657 -2.0649099
-1.6876945 12.950624 -2.0695314
-1.6123334 12.994044 -2.0749497
-1.5287589 12.971339 -2.0696907
-1.4458526 12.951041 -2.0649099
-1.3824081 13.111844 -2.0896113
-1.3012468 13.113203 -2.0884957
-1.2204866 13.117991 -2.0880177
-1.1365552 13.085893 -2.0816431
-1.0606875 13.147725 -2.0905676
-0.98094851 13.166784 -2.0926392
-0.89596546 13.11149 -2.0827587
-0.81463993 13.102947 -2.0805275
-0.73527604 13.126427 -2.0835555
-0.65471995 13.130691 -2.0835555
-0.5746569 13.146297 -2.0854678
-0.49275798 13.11702 -2.0802088
-0.41291595 13.140517 -2.0835555
-0.33175486 13.122079 -2.0802088
-0.25178188 13.152492 -2.0848305
-0.17108785 13.154776 -2.0849898
-0.090327576 13.149655 -2.0840335
-0.0096252756 13.12923 -2.080687
0.07109876 13.159645 -2.0856273
0.15188894 13.16291 -2.0862646
0.23298311 13.180485 -2.0892925
0.31389961 13.18078 -2.0896113
0.39125547 13.06118 -2.070647
0.47224399 13.082211 -2.0744717
0.55308896 13.092876 -2.0767028
0.63331956 13.087264 -2.0763841
0.71248108 13.06243 -2.0730374
0.79399228 13.080478 -2.0767028
0.87417179 13.074374 -2.0765436
0.95330012 13.053995 -2.0741529
1.0304193 13.010503 -2.0680971
1.1081321 12.979344 -2.0641131
1.1865813 12.95952 -2.0620413
1.2672292 12.963786 -2.0639536
1.3439945 12.929255 -2.0596509
1.4249226 12.935484 -2.0620413
1.5039241 12.923555 -2.0615633
1.5863159 12.939561 -2.0657067
1.6650511 12.924688 -2.0649099
1.7427387 12.902489 -2.0629976
1.8091676 12.801621 -2.048336
1.8987793 12.865481 -2.060607
0 0 -0
2.0538621 12.824639 -2.0578978
2.1436963 12.87899 -2.0688939
2.2164626 12.8296 -2.0629976
2.3014059 12.850742 -2.0687346
2.3839924 12.856763 -2.0720813
2.4555845 12.804081 -2.065866
2.5273876 12.754879 -2.0602884
2.5984819 12.704311 -2.0545511
2.6702733 12.659149 -2.0497704
2.7520912 12.66182 -2.0529575
2.8178747 12.591709 -2.0441926
2.8899891 12.552054 -2.0405271
2.9753654 12.569631 -2.0464237
3.0710962 12.627878 -2.0591729
3.1344121 12.552286 -2.0497704
3.2162728 12.551944 -2.0529575
3.2924769 12.529108 -2.0524795
3.3662112 12.497231 -2.0505672
3.4294379 12.427807 -2.0424395
3.4954293 12.370429 -2.0363836
3.5792198 12.376251 -2.0410051
3.6545317 12.352163 -2.0406866
3.7333987 12.339901 -2.0424395
3.8040867 12.300727 -2.0397303
3.8738399 12.259269 -2.0367024
3.9411051 12.210841 -2.0325589
4.0153375 12.184554 -2.0322402
4.0881367 12.154073 -2.0312841
4.1629562 12.129693 -2.0314434
4.2239313 12.065719 -2.0249095
4.3035274 12.05538 -2.0276186
4.3595257 11.979578 -2.0191724
4.438098 11.966488 -2.0215628
4.4995756 11.907632 -2.0161445
4.5892205 11.923101 -2.0236344
4.6507654 11.865306 -2.0185349
4.7275062 11.846632 -2.020288
4.7937918 11.801852 -2.0175786
4.860837 11.759442 -2.0153475
4.9309864 11.724846 -2.0145507
5.0094366 11.709799 -2.0172598
5.0772538 11.669788 -2.0156662
5.1415739 11.622165 -2.0127978
5.2083354 11.580494 -2.0110447
5.2731376 11.53485 -2.0086544
5.3488059 11.513021 -2.0105667
5.4067059 11.453202 -2.0057857
5.4764524 11.418921 -2.0056264
5.5528998 11.398417 -2.0080168
5.6060991 11.330506 -2.001961
5.6622205 11.26943 -1.9971801
5.7361965 11.244148 -1.9989331
5.7932777 11.185947 -1.9947896
5.8425117 11.113488 -1.9880962
5.8868923 11.03301 -1.9799687
5.9709306 11.027065 -1.9855465
6.0441833 11.000604 -1.9874588
6.110126 10.960723 -1.9869808
6.1743488 10.91787 -1.9860245
6.2294345 10.859227 -1.9821998
6.2790689 10.791787 -1.9767814
6.3481779 10.758158 -1.9777377
6.4135623 10.718156 -1.9775783
6.4735742 10.669317 -1.9758252
6.53478 10.622668 -1.9745504
6.5935678 10.572319 -1.9726379
6.6540937 10.524987 -1.9713631
6.7121572 10.473986 -1.9694507
6.7580156 10.404454 -1.9640323
6.8249855 10.36774 -1.9649885
6.8764195 10.307599 -1.9614824
6.9588871 10.293839 -1.9670602
7.0185704 10.246059 -1.966104
7.0531635 10.162249 -1.9581358
7.0955114 10.090515 -1.952558
7.1687474 10.06287 -1.9557453
7.2378674 10.0291 -1.9578171
7.2957726 9.9797192 -1.9568609
7.3527575 9.9292116 -1.9557453
7.4046583 9.8720627 -1.9533548
7.4441919 9.7989283 -1.9477772
7.5059829 9.755414 -1.9482552
7.5535641 9.6935997 -1.9450679
7.613512 9.6478453 -1.9452273
7.6627064 9.5886078 -1.9426775
7.7127028 9.5306654 -1.9404464
7.7547684 9.4633083 -1.9363029
7.7609973 9.3532476 -1.9232351
7.8493581 9.3424892 -1.9310439
7.9071741 9.2949028 -1.9312032
7.9492397 9.2290049 -1.9275378
7.995337 9.1681509 -1.924988
8.0481739 9.1152201 -1.9241912
8.1006632 9.061985 -1.9233943
8.1362419 8.9901505 -1.9186134
8.1865826 8.9349623 -1.9174979
8.2325249 8.8751535 -1.9154261
8.2733116 8.8100786 -1.9122388
8.3292532 8.7612953 -1.912717
8.3630028 8.689395 -1.9080954
8.4037619 8.6251888 -1.9052268
8.4385033 8.5551872 -1.9010834
8.4761896 8.4885778 -1.8977367
8.5119734 8.4204397 -1.8940713
8.5535955 8.3583927 -1.8918402
8.6011686 8.3023233 -1.8910434
8.6512346 8.2487106 -1.890884
8.6736584 8.1690741 -1.8846688
8.7178373 8.1103201 -1.8833939
8.7667103 8.0560074 -1.8832346
8.8210926 8.0067091 -1.8843502
8.861969 7.9451838 -1.8825971
8.8758173 7.8598962 -1.875107
8.9149609 7.7974877 -1.8731946
8.9738426 7.7523203 -1.8755851
9.0212412 7.6971121 -1.8755851
9.0705652 7.6435223 -1.8760632
9.0854244 7.5611982 -1.8693699
9.1430883 7.5147119 -1.8717604
9.1752291 7.4472699 -1.8688918
9.2115078 7.3834224 -1.8669794
9.2612829 7.3304386 -1.8679357
9.2687521 7.2442923 -1.8602861
9.2895823 7.1691885 -1.8555052
9.3286858 7.1084638 -1.8545491
9.3744936 7.0528708 -1.8550271
9.412838 6.9916849 -1.8540709
9.458745 6.9361324 -1.8547083
9.4851332 6.8663859 -1.8515211
9.4547977 6.7563963 -1.8371783
9.5364122 6.7267089 -1.8451465
9.5847979 6.6731448 -1.8465807
9.6198683 6.6102943 -1.8454652
9.6251144 6.5273161 -1.8386126
9.672368 6.4730768 -1.8400469
9.7184935 6.4179587 -1.8413217
9.7543821 6.3560505 -1.8406843
9.7832336 6.2896724 -1.8387719
9.8216429 6.2295251 -1.8387719
9.8529863 6.1649537 -1.837497
9.9049101 6.1131959 -1.8402063
9.9194651 6.0384445 -1.8359034
9.9487123 5.9728928 -1.8344691
9.9936686 5.9167662 -1.8360628
10.051951 5.8682761 -1.8402063
10.128838 5.8301287 -1.8478557
10.203916 5.7902832 -1.8551865
10.197897 5.7044291 -1.8475369
10.226655 5.638412 -1.8464215
10.25412 5.5717854 -1.8451465
10.302039 5.5162191 -1.8476963
10.341805 5.4561281 -1.8488119
10.393482 5.4021306 -1.8521585
10.389527 5.3193583 -1.8454652
10.406104 5.2475076 -1.8425967
10.410697 5.1699457 -1.8376564
10.471489 5.1202812 -1.8429154
10.521389 5.0649257 -1.8462621
10.542456 4.9956222 -1.844509
10.610487 4.9483666 -1.8512024
10.621808 4.8745213 -1.8478557
10.664114 4.8149433 -1.8500868
10.707892 4.7558308 -1.8526366
10.726016 4.6852965 -1.8507242
10.765448 4.6240706 -1.8526366
10.769063 4.5475578 -1.8483338
10.832323 4.4961557 -1.8545491
10.856964 4.4284863 -1.8540709
10.889431 4.3639894 -1.8550271
10.901305 4.2913046 -1.8524773
10.939402 4.2289629 -1.8545491
10.887615 4.1323318 -1.8411624
10.971046 4.087163 -1.8512024
10.987574 4.0167179 -1.849768
11.054759 3.9645555 -1.8570988
11.077946 3.8963225 -1.8569394
11.110044 3.8311729 -1.8583738
11.144566 3.7667246 -1.8602861
11.201205 3.709446 -1.8660232
11.210608 3.6363819 -1.8637922
11.209188 3.5600548 -1.859808
11.244961 3.4956057 -1.8621985
11.240697 3.4187853 -1.8578956
11.264301 3.3505938 -1.8583738
11.275168 3.2786574 -1.8567801
11.294125 3.2091427 -1.8566208
11.320261 3.1416311 -1.8577362
11.351712 3.0754685 -1.859808
11.382776 3.0090382 -1.8618797
11.39051 2.9364269 -1.8601267
11.400654 2.8645558 -1.8588518
11.450619 2.8025296 -1.8642702
11.50121 2.7402265 -1.869848
11.471645 2.6589036 -1.8621985
11.513747 2.5943248 -1.8665013
11.554523 2.5291183 -1.8706448
11.565961 2.4573526 -1.8700074
11.579854 2.3861396 -1.869848
11.580724 2.3123355 -1.8676169
11.598571 2.2419834 -1.8682543
11.624724 2.1731324 -1.870326
11.649498 2.1038694 -1.8722384
11.676776 2.0348926 -1.8746289
11.677359 1.9612443 -1.8727165
11.71841 1.8942838 -1.8774974
11.659575 1.8114308 -1.8660232
0 0 -0
0 0 -0
0 0 -0
5.9238033 0.77175713 -0.92561448
5.908833 0.73296297 -0.92242718
5.9004736 0.69519067 -0.92035544
0 0 -0
0 0 -0
0 0 -0
0 0 -0
0 0 -0
0 0 -0
0 0 -0
0 0 -0
0 0 -0
0 0 -0
0 0 -0
0 0 -0
0 0 -0
0 0 -0
0 0 -0
0 0 -0
0 0 -0
0 0 -0
0 0 -0
0 -0 -0
0 -0 -0
0 -0 -0
0 -0 -0
0 -0 -0
0 -0 -0
0 -0 -0
0 -0 -0
0 -0 -0
0 -0 -0
5.9487209 -0.39795867 -0.92370212
5.9550285 -0.43509871 -0.92513639
5.9699612 -0.4730323 -0.92800492
5.9994068 -0.51242471 -0.93326396
0 -0 -0
6.0545669 -0.59205699 -0.94330394
10.324188 -1.0732793 -1.6368574
10.29582 -1.1342297 -1.6333513
10.340639 -1.2034286 -1.6417977
10.353638 -1.269377 -1.6451443
10.381882 -1.3375479 -1.6510408
10.378371 -1.4018853 -1.6518376
10.36762 -1.4652631 -1.6515188
10.327181 -1.5242386 -1.6464192
10.331294 -1.5896777 -1.6486503
10.279429 -1.6463279 -1.6417977
10.283741 -1.7118012 -1.6441882
10.264289 -1.7733564 -1.6427538
10.22309 -1.8309095 -1.6378136
10.202927 -1.8919832 -1.6363792
10.18337 -1.9530642 -1.6351043
10.169257 -2.0151277 -1.6347857
10.141226 -2.0743225 -1.6322358
10.116715 -2.134064 -1.6303234
10.098607 -2.1950507 -1.6295266
8.3257847 -1.8633505 -1.3385274
10.090152 -2.3232403 -1.6327139
10.083392 -2.3869276 -1.6339889
10.074311 -2.4501526 -1.634945
10.057173 -2.5114431 -1.6346263
10.041574 -2.5731053 -1.6346263
7.4571567 -1.9598053 -1.2059363
9.9958954 -2.692543 -1.6323951
9.9925098 -2.7575021 -1.6346263
9.9773016 -2.8192999 -1.634945
9.9797306 -2.8862252 -1.6382916
9.9514198 -2.944325 -1.6365386
7.983778 -2.4156148 -1.3077701
7.944284 -2.456974 -1.3036267
7.9299998 -2.5059705 -1.3037859
7.9060187 -2.551852 -1.3023517
8.7003241 -2.8672533 -1.4400425
9.8110399 -3.3001168 -1.6322358
9.7878046 -3.3592927 -1.6317577
9.7707357 -3.4205911 -1.6323951
9.7198105 -3.4698589 -1.6272955
9.6899881 -3.5263951 -1.6258612
7.6660476 -2.8433158 -1.2811562
9.6164322 -3.6338747 -1.6207615
9.57092 -3.6839468 -1.6167774
9.5242386 -3.7332373 -1.6126339
9.4433861 -3.7685568 -1.602594
9.4777088 -3.8498333 -1.6126339
9.5150356 -3.9331803 -1.6233114
9.5207539 -4.004118 -1.6285704
9.5041752 -4.0659556 -1.6300046
9.4745216 -4.1222262 -1.6292078
9.4752321 -4.191865 -1.6338295
9.4367275 -4.2442565 -1.6315984
9.3799801 -4.288125 -1.6261799
9.3185749 -4.3293777 -1.6199647
9.3186178 -4.399116 -1.6247457
9.2291384 -4.4263296 -1.6135901
9.1911554 -4.4776874 -1.6116778
9.1511202 -4.5278702 -1.6094466
9.1275759 -4.5861511 -1.6102436
9.1150932 -4.6501451 -1.6131121
9.0618429 -4.6932755 -1.6086498
9.0206413 -4.7423582 -1.6064187
8.9730816 -4.7878599 -1.6030722
8.9643707 -4.8541083 -1.6068969
8.9093256 -4.895236 -1.6022753
8.8032389 -4.9075122 -1.5882512
8.7987413 -4.9760137 -1.5930321
8.7517729 -5.0205755 -1.5900042
8.7344551 -5.0821238 -1.5925541
8.6988564 -5.1331134 -1.5917573
8.6807508 -5.1945024 -1.5943071
8.640274 -5.2425475 -1.5927135
8.6028986 -5.2923613 -1.5917573
8.5375938 -5.3246746 -1.5855421
8.4763899 -5.3590245 -1.5801237
8.4466724 -5.413064 -1.5807611
8.4025364 -5.4577999 -1.5786893
8.3878565 -5.5217381 -1.5823548
8.3423195 -5.5654316 -1.5801237
8.3055601 -5.6148553 -1.5796456
8.2660646 -5.6623645 -1.5786893
8.1752043 -5.6741395 -1.5676932
8.1410418 -5.7247629 -1.5678526
8.0888767 -5.7625794 -1.5645059
8.0925922 -5.8404107 -1.5723149
8.0502281 -5.8852949 -1.5710399
8.0330067 -5.948679 -1.5748646
7.9576559 -5.968832 -1.5670558
7.9083042 -6.0079923 -1.5645059
7.8619018 -6.0491796 -1.5625936
7.8332028 -6.1039801 -1.5643466
7.783977 -6.1427555 -1.5619562
7.7152901 -6.16575 -1.5555816
7.6941962 -6.2266364 -1.5590876
7.6298823 -6.2524562 -1.5536692
7.5632634 -6.2758303 -1.5477728
7.5087399 -6.308784 -1.5444261
7.5059829 -6.3854413 -1.5520755
7.4853621 -6.4474835 -1.5560597
7.4211063 -6.47188 -1.5508007
7.3620143 -6.5003052 -1.5466572
7.3087416 -6.5335126 -1.5437886
7.2546077 -6.5656495 -1.5407606
7.212729 -6.6087055 -1.540442
7.2067857 -6.6850624 -1.5480914
7.1663508 -6.7298322 -1.5482508
7.1127586 -6.7621145 -1.5455416
7.0625973 -6.7974153 -1.5436293
6.9931788 -6.813755 -1.5374141
6.9336672 -6.8392053 -1.53343
6.8615322 -6.8516269 -1.5265772
6.821445 -6.8957047 -1.5270554
6.7824554 -6.9409609 -1.5278522
6.723969 -6.9661102 -1.5241868
6.6797366 -7.0058074 -1.5238681
6.6745291 -7.0869055 -1.5327924
6.6167974 -7.1125479 -1.5294458
6.548315 -7.1261191 -1.5235493
6.4022822 -7.0535946 -1.4990072
2.1871774 -2.4399877 -0.49023122
2.1702013 -2.4511447 -0.48975313
2.1564205 -2.4659009 -0.49007183
6.179491 -7.1533089 -1.4872143
6.1053653 -7.1557946 -1.4797242
6.0766115 -7.2112393 -1.4835489
6.0575113 -7.2787409 -1.4899235
6.0616312 -7.3752589 -1.5023539
6.0455055 -7.448338 -1.5098441
6.0534091 -7.5523076 -1.5237087
6.0210476 -7.6071119 -1.527374
2.0066917 -2.5679431 -0.48736265
1.9884847 -2.5770814 -0.48672518
1.968446 -2.5837376 -0.48560965
1.9513683 -2.5941894 -0.48529091
1.9336479 -2.6037366 -0.48481283
1.8475771 -2.5200212 -0.46568909
1.8430793 -2.5465038 -0.46871704
1.8750619 -2.6244299 -0.48194426
5.5811806 -7.9125214 -1.5243461
5.5268841 -7.9385161 -1.5227525
5.4780703 -7.9722791 -1.5227525
5.4356995 -8.0155458 -1.5246649
5.388062 -8.0512094 -1.525143
5.3091803 -8.0396347 -1.5165373
5.2629843 -8.0770226 -1.5174935
5.1941047 -8.0792694 -1.5117564
5.1333289 -8.0934811 -1.5084097
1.784439 -2.8524716 -0.50441462
1.7684586 -2.8658874 -0.50489271
1.7493005 -2.8741546 -0.50441462
1.7245175 -2.8729846 -0.50218356
4.9037724 -8.282814 -1.515103
4.8304586 -8.2743826 -1.5079316
4.7781196 -8.3012991 -1.5074536
4.7397623 -8.3527842 -1.511597
4.6874576 -8.3799868 -1.5112783
4.6311836 -8.3999453 -1.5096847
4.584269 -8.4368773 -1.5112783
4.5165701 -8.435257 -1.5058599
4.4744015 -8.4811478 -1.5092065
4.4213672 -8.506691 -1.5088879
4.3659387 -8.5275087 -1.5077723
4.3206453 -8.5682402 -1.5103221
4.2592077 -8.5769062 -1.5071348
4.1926227 -8.5744991 -1.5020351
4.1429291 -8.6062899 -1.5031507
4.090044 -8.6315479 -1.5031507
4.041595 -8.6663237 -1.5049037
3.9945202 -8.7044172 -1.5072942
3.9394104 -8.7251644 -1.5066568
3.8942156 -8.7681189 -1.5100033
3.8340187 -8.7773733 -1.5074536
3.7508659 -8.7327032 -1.4955013
3.7060463 -8.7764711 -1.4991666
3.6513681 -8.7972221 -1.4988478
3.6073885 -8.844141 -1.5031507
3.5618684 -8.8881016 -1.5069754
3.4996707 -8.8904991 -1.5036288
3.4390018 -8.8961515 -1.5009196
3.3920586 -8.9373913 -1.5044256
3.3292286 -8.936759 -1.5007602
3.2641613 -8.929203 -1.4959793
3.2083113 -8.9462748 -1.4955013
3.1527026 -8.9639301 -1.4951825
3.1018257 -8.9952383 -1.4972543
3.0396187 -8.9935265 -1.4937482
2.9815848 -9.0035734 -1.492314
2.942734 -9.0724068 -1.5009196
2.8813329 -9.0724154 -1.4978917
2.8256114 -9.0899239 -1.4978917
2.7689216 -9.1042576 -1.4974136
2.7197626 -9.1437855 -1.5012383
2.6487193 -9.1091127 -1.4926326
2.5976346 -9.1422863 -1.4955013
2.54545 -9.1723213 -1.4978917
2.4875727 -9.1820507 -1.4969355
2.4309335 -9.196187 -1.4967761
2.3742144 -9.2099733 -1.4966167
2.3150117 -9.2138357 -1.4948637
2.2504525 -9.1952648 -1.4894453
2.1987946 -9.2290668 -1.492792
2.1447999 -9.2539253 -1.4947044
2.0884128 -9.268837 -1.4950231
2.0315008 -9.281477 -1.4950231
1.9761542 -9.3014927 -1.4962981
0.53529346 -2.5992978 -0.38967234
0.51875436 -2.5996289 -0.38919425
0.50429273 -2.6105173 -0.39046916
0.48862827 -2.6155031 -0.39078787
0.48064291 -2.663141 -0.39811864
0.46005514 -2.641726 -0.39413452
0.44089329 -2.6269748 -0.39126599
0.42649946 -2.6403508 -0.39301899
0.41635412 -2.6819386 -0.39939356
0.40134624 -2.694207 -0.40098721
0.39290452 -2.7533023 -0.41023034
1.2854706 -9.4138403 -1.4950231
0.35602519 -2.734422 -0.4064056
0.33778128 -2.7247984 -0.40449321
0.98021281 -8.3182154 -1.3133478
0.92389572 -8.2769794 -1.3056984
0.87619793 -8.3119459 -1.3104793
0.82459521 -8.3112717 -1.3095231
0.75153482 -8.079278 -1.2711163
0.67896062 -7.8191719 -1.2282473
0.63073206 -7.8202386 -1.2277693
0.58332312 -7.8318377 -1.2290441
0.53754622 -7.8687568 -1.2344625
0.58523357 -9.4149113 -1.484027
0.19732459 -3.5279427 -0.53166592
0.17557544 -3.5271151 -0.53134722
0.41377813 -9.4684706 -1.4911984
0.35545036 -9.4649124 -1.4902422
0.2576727 -8.2048845 -1.2864152
0.23865002 -9.4438887 -1.4862581
0.1808314 -9.4520845 -1.4873736
0.12272815 -9.4451189 -1.4860988
0.064764865 -9.4447069 -1.4859394
0.0068187932 -9.4538116 -1.4873736
-0.051194135 -9.4546623 -1.487533
-0.109115 -9.4462738 -1.4862581
-0.16749223 -9.4691153 -1.4900829
-0.22561395 -9.4688969 -1.4902422
-0.28379834 -9.470294 -1.4907203
-0.34232864 -9.4802141 -1.4926326
-0.40136606 -9.4986477 -1.4959793
-0.45983186 -9.4999504 -1.4966167
-0.51795262 -9.4939928 -1.4961387
-0.57476205 -9.4669867 -1.492314
-0.63244462 -9.4573717 -1.4913578
-0.691037 -9.4611893 -1.4926326
-0.74923259 -9.4587393 -1.4929514
-0.80750805 -9.4569149 -1.4934295
-0.86515951 -9.4478502 -1.492792
-0.92388225 -9.4502239 -1.494067
-0.98072785 -9.4335756 -1.492314
-1.0417266 -9.4558382 -1.4969355
-1.0997269 -9.4492683 -1.4969355
-1.1570853 -9.4374428 -1.4961387
-1.2132051 -9.4164581 -1.4939076
-1.2742634 -9.4332952 -1.4978917
-1.330878 -9.416501 -1.4964575
-1.3887756 -9.4091349 -1.4966167
-1.4485842 -9.4140959 -1.4988478
-1.5049161 -9.3962574 -1.4974136
-0.49050221 -2.9449813 -0.44321874
-0.51091552 -2.9555357 -0.44544983
-0.53443474 -2.9824698 -0.45039013
-0.55272478 -2.9791343 -0.45039013
-0.5743404 -2.9931388 -0.45325869
-1.8459092 -9.3151312 -1.4942263
-1.9224151 -9.3984146 -1.5098441
-1.9745458 -9.3603611 -1.5055412
-2.0237665 -9.3104458 -1.499326
-0.65381241 -2.9201624 -0.4443343
-0.6668455 -2.8949304 -0.44082826
-0.70142138 -2.9618745 -0.45262122
-2.2621436 -9.3011427 -1.5064974
-2.3191717 -9.2870874 -1.5064974
-2.383708 -9.3023291 -1.5114377
-0.76260859 -2.9008021 -0.44544983
-0.78142017 -2.8998814 -0.4460873
-0.79027116 -2.8626757 -0.44066891
-0.80513722 -2.8482723 -0.43907526
-0.82067907 -2.8366401 -0.43795973
-2.7695737 -9.3607006 -1.5370953
-2.7852232 -9.2055712 -1.5138282
-2.8364055 -9.1713314 -1.5109595
-1.0167507 -3.2166603 -0.50584888
-1.0337398 -3.2019055 -0.50441462
-3.0223496 -9.1710138 -1.5200434
-3.0820267 -9.1625891 -1.5217963
-3.1023002 -9.0389233 -1.5039475
-1.1325555 -3.2342744 -0.5144546
-1.1357856 -3.1807759 -0.50648636
-3.2857053 -9.0285301 -1.5122344
-3.3832624 -9.1220512 -1.5318363
-1.1630858 -3.0771396 -0.49230295
-1.1833633 -3.0736306 -0.4929404
-1.1852692 -3.0231118 -0.48545027
-1.2059916 -3.0212836 -0.48640648
-3.6068783 -8.8795223 -1.5084097
-3.6703444 -8.8791208 -1.5122344
-3.7385333 -8.8891935 -1.5179716
-3.7805815 -8.8370419 -1.512872
-3.8390656 -8.8236361 -1.514625
-3.8963289 -8.8071365 -1.5158999
-3.9527247 -8.7884655 -1.5168561
-1.3129754 -2.8713765 -0.47094813
-1.330985 -2.8641615 -0.47110748
-1.3506411 -2.8604047 -0.47190431
-4.1906924 -8.7377729 -1.5256211
-4.2277989 -8.6781693 -1.5195652
-4.2853451 -8.6609125 -1.5211589
-4.3339748 -8.6256342 -1.5195652
-4.4038658 -8.6322966 -1.5256211
-4.4576578 -8.6068659 -1.5259398
-4.5071692 -8.5732346 -1.5248243
-4.5731649 -8.5706778 -1.5294458
-4.6162667 -8.5250931 -1.5262586
-4.6537528 -8.4697847 -1.5213182
-4.6546845 -8.3496666 -1.5044256
-4.6722994 -8.2616549 -1.4934295
-4.7125888 -8.2148466 -1.4900829
-4.7276573 -8.1251917 -1.478768
-4.7508349 -8.0509672 -1.4703217
-4.7758145 -7.9810014 -1.4626722
-4.8006277 -7.9118781 -1.4551821
-4.8449459 -7.875546 -1.4539071
-4.8853421 -7.8331046 -1.4515166
-4.9227629 -7.7862921 -1.4483294
-4.9448795 -7.716042 -1.4406799
-4.9899802 -7.6822438 -1.4400425
-5.0533075 -7.6762195 -1.4448234
-5.1074347 -7.655745 -1.4468951
-5.155972 -7.6267157 -1.4473732
-5.236702 -7.644619 -1.4570944
-5.3296652 -7.6788483 -1.4701623
-5.4022336 -7.6823425 -1.4773337
-5.4813457 -7.694078 -1.4862581
-5.5428948 -7.6803141 -1.4902422
-5.6073942 -7.6700683 -1.4950231
-5.6731505 -7.6609058 -1.5001228
-5.7289352 -7.6377988 -1.5025133
-5.8115225 -7.6496701 -1.5120751
-5.9293847 -7.7061954 -1.5308801
-6.0657535 -7.7841425 -1.5543066
-1.7543361 -2.2225983 -0.41835791
-1.7697896 -2.2141058 -0.418836
-6.177577 -7.6335688 -1.5464978
-6.3037634 -7.6924987 -1.5667371
-6.3640833 -7.6696296 -1.5700837
-6.3907022 -7.6062479 -1.5649841
-6.4110274 -7.5360613 -1.5584501
-6.4700322 -7.5115428 -1.5616374
-6.5127563 -7.4679818 -1.5608406
-6.5525761 -7.4212189 -1.5594063
-6.6144361 -7.3992743 -1.5633904
-6.666337 -7.3658695 -1.5649841
-6.7407508 -7.3568549 -1.5719961
-6.789793 -7.3196988 -1.5729523
-6.8487692 -7.2930131 -1.576299
-6.8743443 -7.2308183 -1.5718367
-6.9185824 -7.1885018 -1.5718367
-6.9728937 -7.1565213 -1.5742272
-7.0298457 -7.1269565 -1.5772551
-7.085999 -7.0962629 -1.5801237
-7.1371274 -7.0602875 -1.5818766
-3.489048 -3.4090934 -0.74872011
-3.4069099 -3.2882023 -0.72561228
-3.3570037 -3.2004712 -0.70999455
-3.4204152 -3.2211022 -0.71971577
-7.3814211 -6.866951 -1.5887294
-3.5265594 -3.2403426 -0.73437732
-3.528101 -3.2020545 -0.73039323
-3.4918196 -3.1302595 -0.71828151
-3.3683217 -2.9824538 -0.6875242
-3.3895304 -2.96433 -0.68816167
-3.4061613 -2.9421856 -0.68784297
-4.7954488 -4.091331 -0.97884214
-3.7560496 -3.1648161 -0.75413847
-3.8095434 -3.1701288 -0.76130986
-4.9111276 -4.0362201 -0.98744786
-4.8530207 -3.9388151 -0.97023648
-4.8647728 -3.8990839 -0.96768665
-4.8769946 -3.8599699 -0.96529621
-4.9029202 -3.8317964 -0.9657743
-5.0271559 -3.8794508 -0.9863323
-5.0445838 -3.8437448 -0.98505735
-5.0317855 -3.7854164 -0.97772664
-5.1222796 -3.8045094 -0.99127257
-5.2625527 -3.8588293 -1.0146991
-5.2157612 -3.775521 -1.0006751
-5.1954565 -3.7124505 -0.99206942
-5.2253981 -3.6856234 -0.99350369
-5.055902 -3.5197988 -0.95573431
-5.3068461 -3.6463828 -1.0006751
-5.3756909 -3.6453369 -1.0097588
-5.2338724 -3.5024643 -0.97788596
-5.2412605 -3.461035 -0.97517675
-5.2144265 -3.3975487 -0.96593362
-5.2941332 -3.4033968 -0.97724849
-5.289073 -3.3544557 -0.97230822
-5.3580952 -3.3523126 -0.98155135
-5.3130374 -3.2789276 -0.96912092
-5.520257 -3.3602321 -1.0044998
-5.540771 -3.3262973 -1.0044998
-5.4183636 -3.2077372 -0.97772664
-5.399579 -3.1520314 -0.97055519
-5.3315482 -3.0686045 -0.95430005
-5.3803272 -3.0528867 -0.95987779
-5.4041271 -3.0227082 -0.96083397
-5.7294736 -3.1587141 -1.0174084
-5.4234653 -2.9467363 -0.95764673
-5.6398711 -3.0196595 -0.99398178
-5.6731367 -2.9928286 -0.99669099
-5.6791301 -2.9515882 -0.99445987
-5.6558337 -2.895539 -0.98696971
-5.4998446 -2.7732067 -0.95557499
-5.6122484 -2.7868333 -0.97278631
-5.6939836 -2.784004 -0.98441988
-5.6024389 -2.696769 -0.96497744
-5.7892742 -2.7430916 -0.99541605
-5.7755771 -2.6933298 -0.98999768
-5.7408524 -2.6343687 -0.98091388
-5.7722039 -2.6060007 -0.98362309
-5.81425 -2.5821557 -0.98824465
-5.9304018 -2.5902996 -1.0059341
-5.9888163 -2.5721762 -1.0134242
-5.9899349 -2.5292358 -1.0108744
-5.9652228 -2.4757812 -1.0038624
-6.0689683 -2.4753027 -1.0193207
-5.9475045 -2.3832941 -0.99557543
-6.1016426 -2.4017258 -1.0197988
-5.9698577 -2.3076377 -0.99445987
-5.9423714 -2.2551985 -0.98728848
-6.1309404 -2.2838376 -1.0174084
-6.1021876 -2.2305822 -1.0100776
-6.074872 -2.1784329 -1.0030656
-6.222229 -2.1882896 -1.026014
-6.2075405 -2.1404135 -1.0212331
-5.9932952 -2.0254643 -0.98250753
-6.2652025 -2.0746295 -1.0266515
-6.3642063 -2.0641742 -1.0413129
-6.3776932 -2.0253839 -1.0414723
-6.336266 -1.9695072 -1.0323886
-6.2141137 -1.8897955 -1.0097588
-6.421463 -1.9099004 -1.0427473
-6.4292693 -1.8693603 -1.0421097
-6.4681578 -1.8377019 -1.0467314
-6.5297284 -1.8119731 -1.0551777
-6.6331511 -1.7969177 -1.070636
-6.6879554 -1.767791 -1.0779668
-6.840158 -1.7631998 -1.1015527
-6.9159546 -1.7375574 -1.1123894
-7.1604595 -1.7523625 -1.1512743
-7.4169221 -1.7669764 -1.1920716
-8.1114054 -1.8799453 -1.3053796
-8.1141205 -1.8281859 -1.3039453
-8.2968445 -1.8159442 -1.3323122
-9.021452 -1.9166456 -1.4500824
-8.9924326 -1.8528855 -1.4433891
-9.5728769 -1.9113559 -1.5370953
-10.006058 -1.9340975 -1.6064187
-10.48353 -1.9597571 -1.6829137
-10.550734 -1.9053971 -1.6919974
-10.809256 -1.8836812 -1.732476
-11.005589 -1.8483956 -1.7627552
-11.604386 -1.8758478 -1.8588518
-12.031245 -1.8691864 -1.926741
-12.069828 -1.7994057 -1.9312032
-12.04155 -1.7197285 -1.9248286
-12.025466 -1.6422031 -1.9205258
-12.093073 -1.5759139 -1.9299283
-12.067245 -1.4973052 -1.9241912
-12.08699 -1.4245051 -1.9259442
-12.141616 -1.3554634 -1.9334344
-12.13596 -1.2794887 -1.9312032
-12.086603 -1.1993439 -1.9219601
-12.09865 -1.1256168 -1.9227569
-12.106312 -1.0514451 -1.9229163
-12.086951 -0.97507763 -1.9187728
-12.120273 -0.90294963 -1.9232351
-12.108841 -0.82741934 -1.9205258
-12.123543 -0.75371826 -1.9221195
-12.12794 -0.67931539 -1.9221195
-12.118075 -0.60419822 -1.9198884
-12.113665 -0.5294866 -1.9186134
-12.096955 -0.4544068 -1.9154261
-12.112343 -0.38057619 -1.9174979
-11.234307 0.82580382 -1.9230133
-11.222154 0.89417219 -1.9218123
-11.122228 0.9549132 -1.9053401
-11.225052 1.0331739 -1.924386
-11.171439 1.0974022 -1.91615
-11.13902 1.1632651 -1.9116887
-11.152236 1.2338681 -1.915292
-11.156197 1.303647 -1.917351
-11.14701 1.3719553 -1.9171795
-11.144244 1.4410849 -1.918209
-11.102977 1.5050671 -1.9125466
-11.108164 1.5752417 -1.9151205
-11.097315 1.643226 -1.9149488
-11.069498 1.7085801 -1.9118603
-11.03157 1.7720912 -1.907056
-11.051584 1.8449404 -1.9125466
-11.034231 1.9117073 -1.9115171
-11.03199 1.9811184 -1.913233
-11.012847 2.0475109 -1.9120319
-10.987499 2.1126263 -1.9098012
-10.980127 2.1811569 -1.9108309
-10.951097 2.245321 -1.9080855
-10.93133 2.3112502 -1.907056
-10.924644 2.3799584 -1.9084285
-10.882919 2.4409063 -1.9036242
-10.871576 2.508523 -1.9043106
-10.85598 2.5751824 -1.9043106
-10.825618 2.6382446 -1.9017367
-10.812093 2.7053375 -1.9022515
-10.798152 2.7723634 -1.9027663
-10.759027 2.8327959 -1.8988198
-10.759514 2.9036376 -1.9020799
-10.733898 2.9675012 -1.9007072
-10.732551 3.0381391 -1.9037958
-10.723169 3.106678 -1.9055116
-10.680292 3.1654146 -1.901222
-10.648412 3.2271721 -1.8989915
-10.623705 3.2909908 -1.8981335
-10.585466 3.3504643 -1.8948734
-10.590018 3.4235373 -1.8995062
-10.567877 3.488143 -1.8993345
-10.543474 3.5519767 -1.8988198
-10.545704 3.6249323 -1.9032811
-10.50374 3.6827242 -1.8996778
-10.481874 3.7474365 -1.8998493
-10.456831 3.8110065 -1.8995062
-10.425862 3.8723519 -1.8981335
-10.410198 3.9393897 -1.8996778
-10.379396 4.0007105 -1.8984767
-10.353736 4.063962 -1.8983051
-10.343242 4.1332655 -1.9010504
