# .PCD v0.7 - Point Cloud Data file format
VERSION 0.7
FIELDS x y z
SIZE 4 4 4
TYPE F F F
COUNT 1 1 1
WIDTH 1523
HEIGHT 1
VIEWPOINT 0 0 0 1 0 0 0
POINTS 1523
DATA ascii
-7.8357811 1.1094496 -1.9257356
-7.8000245 1.1532456 -1.9185034
-7.8321271 1.2071509 -1.9283874
-7.8169069 1.2539544 -1.9264588
-7.8023648 1.3007762 -1.9247713
-7.7904115 1.3479638 -1.923807
-7.7619338 1.3921386 -1.9187444
-7.7570624 1.440448 -1.9197087
-7.7585616 1.4900323 -1.9223605
-7.7540326 1.538555 -1.923566
-7.7368402 1.584545 -1.9216373
-7.7003851 1.6263682 -1.9148872
-7.6912093 1.6737927 -1.9151284
-7.6931052 1.7237139 -1.9182622
-7.6729274 1.7687041 -1.9158516
-7.6713734 1.8179903 -1.9182622
-7.6072702 1.8521622 -1.904762
-7.6230655 1.9056343 -1.9117533
-7.6149898 1.9533378 -1.9127176
-7.6113076 2.0022492 -1.9148872
-7.5913825 2.0468912 -1.9129586
-7.5899057 2.096535 -1.9158516
-7.5572882 2.1375165 -1.910789
-7.5449624 2.1841168 -1.9110301
-7.5090866 2.2237537 -1.9052442
-7.4906564 2.2683797 -1.9040389
-7.4849405 2.3168826 -1.9062085
-7.4779859 2.3651083 -1.9081371
-7.4818025 2.4169171 -1.9129586
-7.4677534 2.4630833 -1.9131997
-7.4359441 2.5032821 -1.9088603
-7.4277868 2.5513844 -1.910789
-7.4330568 2.6042964 -1.9163337
-7.4014015 2.6443026 -1.9122354
-7.3996267 2.694983 -1.9160926
-7.3729434 2.7366192 -1.9134408
-7.3178892 2.7673836 -1.9033157
-7.3197885 2.819562 -1.9083782
-7.2915092 2.8601677 -1.9054853
-7.2873406 2.910255 -1.9091015
-7.2873268 2.9622262 -1.9139229
-7.2313499 2.9912984 -1.9037977
-7.2164373 3.0371192 -1.904762
-7.2083716 3.0859263 -1.907655
-7.2008681 3.1351359 -1.910789
-7.2010183 3.1879065 -1.9160926
-7.1636229 3.2240624 -1.9112711
-7.1216435 3.2578604 -1.9052442
-7.0997596 3.3006783 -1.904762
-7.0899029 3.3491552 -1.907655
-7.0403476 3.3787339 -1.8996994
-7.029079 3.4265485 -1.9023514
-7.0140095 3.4726286 -1.9040389
-7.0055752 3.5221415 -1.907655
-6.9881535 3.5672674 -1.9088603
-6.9454551 3.5993586 -1.9030745
-6.8931794 3.6260891 -1.894637
-6.8999062 3.6838617 -1.9028335
-6.8694935 3.7219675 -1.9006639
-6.8584323 3.7705953 -1.9040389
-6.8351669 3.8126068 -1.9040389
-6.8040433 3.8501723 -1.9018692
-6.7525172 3.875901 -1.8939137
-6.736156 3.9216564 -1.8960834
-6.7328572 3.9752536 -1.9021102
-6.6916871 4.0065174 -1.8972888
-6.683568 4.0575767 -1.9021102
-6.6511073 4.0939302 -1.8999406
-6.6489139 4.1490531 -1.9066907
-6.6315317 4.1949615 -1.9091015
-6.5762587 4.2167101 -1.9004227
-6.5714173 4.2707353 -1.9066907
-6.540226 4.3077722 -1.9052442
-6.5039854 4.3413544 -1.9023514
-6.4675794 4.3746538 -1.8994584
-6.4134002 4.395597 -1.8912619
-6.3918881 4.4387422 -1.8929495
-6.4065957 4.5074825 -1.9057264
-6.3551111 4.5298052 -1.8984941
-6.3264108 4.5681458 -1.8982531
-6.2771144 4.5914044 -1.891744
-6.2550616 4.6344571 -1.8936726
-6.2451348 4.6867337 -1.8994584
-6.2062168 4.7173285 -1.8963245
-6.179462 4.7570968 -1.8970476
-6.1539831 4.7979078 -1.8982531
-6.1122417 4.8259535 -1.8943958
-6.1060104 4.8821583 -1.9018692
-6.0420012 4.892045 -1.8910208
-6.0298805 4.9437966 -1.8968066
-5.9994326 4.9807019 -1.8968066
-5.9598446 5.0099249 -1.8939137
-5.9415545 5.0570951 -1.8980119
-5.8949761 5.0801497 -1.8929495
-5.8527265 5.1066523 -1.8893332
-5.8387365 5.1578913 -1.8951191
-5.7925124 5.1806779 -1.8902975
-5.7584572 5.2141681 -1.8895744
-5.7506757 5.2717047 -1.8977709
-5.7061291 5.2956657 -1.8936726
-5.686965 5.3432064 -1.8982531
-5.6343856 5.3592691 -1.891503
-5.5902119 5.3829679 -1.8876457
-5.5688896 5.4286857 -1.891744
-5.5327125 5.4600263 -1.8907797
-5.5190139 5.5137663 -1.8977709
-5.4584703 5.5206079 -1.888369
-5.4224601 5.5519133 -1.8876457
-5.4017663 5.5990515 -1.8924673
-5.3753428 5.6405225 -1.8953601
-5.345953 5.6790528 -1.8972888
-5.3090239 5.7096157 -1.8965656
-5.242384 5.7077699 -1.8849939
-5.226171 5.7606769 -1.8919851
-5.1674132 5.7666121 -1.8833064
-5.1248584 5.790215 -1.8806546
-5.101368 5.8354363 -1.885235
-5.0692716 5.8710361 -1.8866814
-5.041337 5.9116306 -1.8898154
-5.0143456 5.9535885 -1.8934315
-4.9634485 5.9670811 -1.8878869
-4.952611 6.028924 -1.8980119
-4.8959627 6.0350785 -1.8902975
-4.8655133 6.0733385 -1.8929495
-4.8257484 6.1000338 -1.8919851
-4.7906179 6.1325889 -1.8929495
-4.7469726 6.1541824 -1.8905387
-4.7155886 6.1916871 -1.8931905
-4.6693444 6.2096443 -1.8898154
-4.6513982 6.2654543 -1.8982531
-4.6266327 6.3126659 -1.9040389
-4.5906558 6.3448672 -1.9052442
-4.5505099 6.371336 -1.904762
-4.4912038 6.3705788 -1.8960834
-4.4487047 6.3932362 -1.894637
-4.4011531 6.4084115 -1.8910208
-4.360116 6.4328852 -1.8902975
-4.3264961 6.4683919 -1.8929495
-4.2893982 6.4988675 -1.8941548
-4.2499704 6.5258775 -1.8943958
-4.2392206 6.5975595 -1.907896
-4.1991787 6.6242666 -1.9081371
-4.163084 6.6573138 -1.9103068
-4.1124787 6.6670375 -1.9057264
-4.0755277 6.6987791 -1.907655
-4.0348473 6.7244921 -1.907896
-3.9920282 6.7466168 -1.9071728
-3.9603357 6.7877512 -1.9119943
-3.9011953 6.7816362 -1.9033157
-3.8638182 6.8130441 -1.9054853
-3.8209946 6.8349295 -1.9050032
-3.7860079 6.8709974 -1.9086193
-3.7585936 6.9213924 -1.9163337
-3.7165115 6.9451799 -1.9165747
-3.6901174 6.9987612 -1.9252535
-3.6399484 7.0074906 -1.9213963
-3.5986505 7.0331492 -1.9223605
-3.5589213 7.0620317 -1.9242891
-3.5056024 7.0637398 -1.9187444
-3.4694355 7.0999413 -1.9228427
-3.41487 7.0983553 -1.9165747
-3.3857841 7.1498766 -1.9250124
-3.3479972 7.1837125 -1.9286286
-3.2909138 7.1758895 -1.9209141
-3.2440283 7.189754 -1.9192266
-3.2069361 7.225492 -1.923566
-3.1454635 7.2058945 -1.9129586
-3.1318028 7.2964096 -1.9322447
-3.0733953 7.2832971 -1.923566
-3.0353384 7.3181548 -1.9279053
-2.996603 7.3519206 -1.9320036
-2.9453046 7.3548522 -1.9279053
-2.8962145 7.3628507 -1.9252535
-2.8572748 7.3967795 -1.9295928
-2.8104591 7.410542 -1.9286286
-2.7683203 7.4367428 -1.9310392
-2.7133174 7.4280629 -1.9242891
-2.6791422 7.4765501 -1.9327267
-2.6254973 7.4708724 -1.926941
-2.5739191 7.4703245 -1.9226016
-2.5264819 7.4813795 -1.9213963
-2.4899759 7.5253053 -1.9288696
-2.44525 7.5450583 -1.9300749
-2.3980281 7.5571446 -1.9293517
-2.3481607 7.5605936 -1.9264588
-2.3017256 7.5748596 -1.9264588
-2.2568617 7.5944219 -1.9279053
-2.2104914 7.6090589 -1.9281464
-2.1666751 7.6327491 -1.9307982
-2.1187642 7.642159 -1.9298339
-2.0690453 7.6447105 -1.9271821
-2.0238328 7.6638308 -1.9288696
-1.970723 7.6526074 -1.9228427
-1.9258555 7.6730275 -1.9250124
-1.8794295 7.6875281 -1.9257356
-1.8369399 7.7187428 -1.9307982
-1.7880127 7.7232504 -1.9291106
-1.7405901 7.734076 -1.9291106
-1.6860594 7.7123733 -1.9209141
-1.6421278 7.7387137 -1.9250124
-1.5967633 7.7591004 -1.9276642
-1.5483657 7.764945 -1.9266999
-1.5012431 7.7771583 -1.9274231
-1.4570543 7.8053041 -1.9322447
-1.4124042 7.8322449 -1.936825
-1.3644861 7.8417201 -1.9370662
-1.3171463 7.8547306 -1.9382715
-1.2700073 7.8693714 -1.939959
-1.2208061 7.8712616 -1.9385126
-1.1687753 7.8536453 -1.9322447
-1.1205642 7.8606691 -1.9322447
-1.0725728 7.8693199 -1.9327267
-1.0211419 7.8516922 -1.9266999
-0.97842485 7.9021158 -1.9377893
-0.92765594 7.8886929 -1.9329679
-0.8762303 7.867229 -1.9262178
-0.83017147 7.8936915 -1.9315214
-0.78143471 7.8957396 -1.9307982
-0.73476297 7.919713 -1.9356197
-0.68648905 7.9279399 -1.936584
-0.63720995 7.924264 -1.9346554
-0.58757168 7.9144745 -1.9312804
-0.53807747 7.9043751 -1.9279053
-0.48974651 7.9104338 -1.9286286
-0.44125366 7.914259 -1.9288696
-0.39268437 7.9168172 -1.9288696
-0.34510806 7.942348 -1.9346554
-0.29651237 7.9481955 -1.9356197
-0.24782784 7.9527755 -1.936343
-0.19919482 7.9609375 -1.9380305
-0.14976187 7.9309592 -1.9303161
-0.10121787 7.9414334 -1.9327267
-0.05275796 7.9836359 -1.9430931
-0.0037617234 7.9576054 -1.936584
0.044907451 7.930305 -1.9298339
0.093554452 7.9289098 -1.9295928
0.14234394 7.9359493 -1.9315214
0.19103533 7.9349265 -1.9315214
0.23927774 7.919054 -1.9279053
0.28750959 7.9077382 -1.9254946
0.33643869 7.9155216 -1.9279053
0.38589984 7.931726 -1.9324857
0.43354899 7.9107966 -1.9279053
0.48101506 7.8905511 -1.923566
0.53059399 7.904881 -1.9279053
0.57752371 7.8801827 -1.9226016
0.62871432 7.9122863 -1.9315214
0.67600709 7.893775 -1.9279053
0.72229648 7.8662844 -1.9221195
0.77197164 7.8761921 -1.9257356
0.82300436 7.8973694 -1.9322447
0.87357932 7.9114633 -1.9370662
0.92098099 7.8963146 -1.9346554
0.96384573 7.8452425 -1.9233248
1.009726 7.8218555 -1.9189855
1.0605675 7.8366709 -1.9242891
1.1104031 7.8425074 -1.9274231
1.1600658 7.846107 -1.9300749
1.2061151 7.8254132 -1.9266999
1.2508773 7.7977424 -1.9216373
1.3023736 7.8119373 -1.9271821
1.3521039 7.8143182 -1.9298339
1.4005407 7.8087406 -1.9305571
1.4443493 7.7780542 -1.9250124
1.4922305 7.7699986 -1.9252535
1.5355307 7.738802 -1.9197087
1.5810375 7.719727 -1.917298
1.6291778 7.7136784 -1.9182622
1.6820533 7.7291403 -1.9247713
1.7252002 7.6997342 -1.9199498
1.7739394 7.6956234 -1.9216373
1.8119441 7.6458769 -1.9117533
1.864797 7.6591311 -1.9180212
1.913406 7.6541352 -1.9197087
1.9591285 7.6375504 -1.9185034
2.001755 7.6094303 -1.9144051
2.0441105 7.5810757 -1.9103068
2.1006715 7.6048727 -1.9197087
2.1433306 7.5778322 -1.9160926
2.1870868 7.5552168 -1.9136819
2.2405722 7.5658484 -1.9199498
2.2790735 7.5259514 -1.9131997
2.3292286 7.5248041 -1.9165747
2.3768201 7.514997 -1.9177802
2.4172156 7.4827256 -1.9131997
2.4700782 7.4889507 -1.9187444
2.5032821 7.4359441 -1.9088603
2.5561156 7.4415541 -1.9144051
2.5949862 7.406497 -1.9093425
2.6446292 7.4023151 -1.9124765
2.6953154 7.4005384 -1.9163337
2.7274976 7.3483787 -1.9069318
2.7776864 7.3451204 -1.9105479
2.8132801 7.3034878 -1.9040389
2.8527226 7.2725368 -1.9004227
2.8872104 7.2296615 -1.8936726
2.9519897 7.2621546 -1.9071728
2.9779387 7.1990671 -1.8951191
3.0386255 7.2200155 -1.9057264
3.0733175 7.1789317 -1.8996994
3.1173089 7.1599388 -1.8996994
3.1560736 7.1291409 -1.8965656
3.2089219 7.1299949 -1.9021102
3.2574565 7.1207609 -1.9050032
3.2871723 7.0707197 -1.8968066
3.3251052 7.03901 -1.8936726
3.366133 7.0141006 -1.8924673
3.4231453 7.0221004 -1.9004227
3.4502304 6.9687862 -1.891503
3.4946692 6.9509525 -1.8924673
3.5293088 6.9138212 -1.8881279
3.5761316 6.9006515 -1.8905387
3.6328683 6.9060621 -1.8982531
3.6513996 6.8391261 -1.8857172
3.683121 6.7978215 -1.8804135
3.7191501 6.7648897 -1.8775206
3.7709923 6.7605872 -1.8828243
3.8119254 6.7364769 -1.8825831
3.8585038 6.7222185 -1.885235
3.9011431 6.7009325 -1.8859582
3.9416924 6.676034 -1.8857172
3.9920561 6.6675415 -1.8902975
4.0328922 6.6429214 -1.8902975
4.0435543 6.5692925 -1.8760742
4.0591192 6.5048409 -1.8645025
4.1103725 6.4978547 -1.8698062
4.154881 6.4798636 -1.8719759
4.1950917 6.4550614 -1.8722169
4.2191353 6.4056973 -1.8652258
4.2524323 6.3708105 -1.862574
4.3099341 6.3719273 -1.8707705
4.3533406 6.3517656 -1.8726991
4.3778367 6.3042107 -1.8664311
4.4052649 6.2613568 -1.8616097
4.4497986 6.2429013 -1.8642615
4.4982495 6.2296414 -1.8686008
4.5375352 6.2034903 -1.8690829
4.5616446 6.1568184 -1.8632972
4.5999188 6.1294889 -1.8635383
4.6380296 6.1019216 -1.8637793
4.6818962 6.0818067 -1.8664311
4.69943 6.02771 -1.8584757
4.742342 6.0063777 -1.8608865
4.7930493 5.9945979 -1.8664311
4.8199682 5.9530087 -1.862574
4.8705597 5.9405813 -1.8681186
4.9137387 5.918797 -1.8707705
4.9480896 5.8863072 -1.8700473
4.9822268 5.8536186 -1.8693241
5.0123472 5.8163223 -1.8671544
5.0492172 5.7869201 -1.8676366
5.0974832 5.7703748 -1.872458
5.1302052 5.7360954 -1.8714937
5.1542287 5.6922808 -1.8673954
5.2139835 5.6877294 -1.8765563
5.2659526 5.6741223 -1.8828243
5.2820587 5.6219029 -1.8760742
5.3077583 5.5802464 -1.8729402
5.341898 5.5475736 -1.8729402
5.3710938 5.5098281 -1.8712527
5.395937 5.4677892 -1.8681186
5.4348736 5.4400692 -1.8700473
5.4736724 5.412077 -1.8719759
5.5081663 5.3797455 -1.872458
5.5487561 5.3532577 -1.8751098
5.582201 5.3197799 -1.875351
5.6147375 5.285428 -1.875351
5.6442194 5.2482343 -1.8743867
5.6891832 5.225318 -1.878726
5.7254515 5.1942234 -1.8801724
5.7311916 5.1356826 -1.8714937
5.7749519 5.1113529 -1.875592
5.7981672 5.0687971 -1.8729402
5.8335676 5.0369296 -1.8743867
5.875442 5.0104852 -1.8780028
5.8919697 4.9624634 -1.8734224
5.9163384 4.9212532 -1.8714937
5.9636731 4.899025 -1.8770385
6.0169878 4.8812914 -1.8845118
6.0309181 4.8315396 -1.8794492
6.056644 4.7914333 -1.8782438
6.0889893 4.7565699 -1.8792081
6.1049953 4.709044 -1.8751098
6.1461291 4.6809025 -1.878967
6.1809411 4.6477675 -1.8808956
6.1766109 4.5854626 -1.8707705
6.2249851 4.5623903 -1.8770385
6.2725215 4.5383282 -1.8830653
6.3002501 4.4997554 -1.8830653
6.3372607 4.4677219 -1.8859582
6.3287034 4.4038138 -1.8751098
6.3572054 4.3659973 -1.875592
6.3878922 4.3296299 -1.8767973
6.4248261 4.2973661 -1.8799313
6.4640346 4.2664151 -1.8837886
6.473011 4.2155523 -1.878726
6.5118203 4.1841474 -1.8825831
6.5726213 4.166451 -1.8929495
6.5816035 4.1157546 -1.8881279
6.6083856 4.0763121 -1.88861
6.6457109 4.0432515 -1.8922262
6.6620722 3.9974062 -1.8898154
6.6630855 3.9426186 -1.8830653
6.6695466 3.8913922 -1.8780028
6.7454596 3.8803914 -1.8929495
6.7640767 3.8360572 -1.891503
6.8078194 3.8058441 -1.8972888
6.825943 3.7611911 -1.8958423
6.846334 3.7178481 -1.8951191
6.8587484 3.6702764 -1.8922262
6.8682613 3.6213353 -1.88861
6.8963814 3.5822549 -1.8902975
6.91996 3.5407557 -1.8907797
6.9294209 3.4921162 -1.8874047
6.9533257 3.4508264 -1.8881279
7.008378 3.4247091 -1.8975298
6.9960241 3.365659 -1.888369
7.0156665 3.3222537 -1.8881279
7.0640702 3.2922587 -1.8958423
7.0770807 3.2456169 -1.8939137
7.103055 3.2049248 -1.8956013
7.1208119 3.1604939 -1.8951191
7.1703138 3.1299381 -1.9033157
7.171546 3.0782299 -1.8984941
7.2081833 3.0417118 -1.9033157
7.1908507 2.9825583 -1.8936726
7.2144084 2.940577 -1.8951191
7.2494349 2.9031074 -1.8996994
7.2589827 2.8553751 -1.8975298
7.2953787 2.8181221 -1.9025924
7.2862163 2.763329 -1.8956013
7.3094015 2.7209387 -1.8972888
7.3615131 2.689019 -1.9066907
7.3723922 2.6418355 -1.9052442
7.4031138 2.6016958 -1.9091015
7.4216909 2.5571704 -1.9098246
7.428966 2.50879 -1.907655
7.4285555 2.4579792 -1.9035567
7.4342651 2.4093614 -1.9011459
7.473886 2.3716221 -1.907655
7.467906 2.3193886 -1.9023514
7.4745679 2.2712667 -1.9004227
7.4958062 2.2275715 -1.9023514
7.5484781 2.1929016 -1.9124765
7.5515208 2.14363 -1.9098246
7.5495677 2.0931079 -1.9059675
7.5885 2.0538409 -1.9127176
7.5840688 2.0027821 -1.9083782
7.570838 1.9496783 -1.9018692
7.5751276 1.9012989 -1.8999406
7.608335 1.8600808 -1.9054853
7.6252699 1.8147093 -1.9069318
7.657063 1.7727 -1.9122354
7.6516995 1.7220635 -1.9081371
7.6630697 1.6752883 -1.9083782
7.6902943 1.6318607 -1.9127176
7.6744957 1.5793651 -1.9062085
7.702126 1.535849 -1.910789
7.6971111 1.4858036 -1.9071728
7.7089448 1.439081 -1.907896
7.7491488 1.3974319 -1.9158516
7.7049885 1.3407148 -1.9025924
7.7389135 1.2977425 -1.9091015
7.8042183 1.2595022 -1.923566
6.0538397 0.93920052 -1.4816754
5.8924561 0.87720442 -1.4397283
5.8429613 0.83323354 -1.425987
5.8191147 0.79343832 -1.4187548
5.8075128 0.75559258 -1.4146565
5.8014445 0.71863383 -1.4120047
5.7932143 0.68155169 -1.4088707
5.7866774 0.64481223 -1.4062189
5.7770119 0.60787457 -1.4028438
5.7719407 0.57155704 -1.4006741
5.7579446 0.53451908 -1.3963348
5.7630496 0.49934608 -1.396817
5.7718096 0.46444115 -1.3982633
5.772615 0.42887384 -1.3977813
5.7606134 0.39245909 -1.3941652
5.7842236 0.35842147 -1.3994688
5.7882524 0.32303119 -1.3999509
5.7697697 0.28650236 -1.3948883
5.8121419 0.25285786 -1.4050134
5.7854586 0.21614535 -1.3980223
5.7769756 0.1803415 -1.3956115
5.7789435 0.14491537 -1.3958527
5.7709908 0.10929009 -1.393683
5.7938728 0.074159116 -1.3992277
5.8116875 0.03872009 -1.4035671
5.8273439 0.0030645968 -1.4074242
5.7651415 -0.032330584 -1.3919954
5.788125 -0.067982428 -1.3977813
5.7526665 -0.10286475 -1.3891026
0 -0 -0
0 -0 -0
0 -0 -0
0 -0 -0
0 -0 -0
0 -0 -0
0 -0 -0
0 -0 -0
0 -0 -0
0 -0 -0
0 -0 -0
0 -0 -0
0 -0 -0
6.0788112 -0.63321996 -1.4780592
7.8777013 -0.8698464 -1.9286286
7.8336577 -0.9136638 -1.9189855
7.8606544 -0.96574152 -1.9271821
7.829556 -1.0107212 -1.9209141
7.7385755 -1.0472773 -1.8996994
7.4946609 -1.0611004 -1.8401539
7.2518368 -1.0721129 -1.7808495
7.1683893 -1.104751 -1.7615635
7.0263648 -1.1270205 -1.727572
6.9475222 -1.1581321 -1.7094913
6.856133 -1.186166 -1.6882766
6.9862804 -1.2529039 -1.7229915
7.0395279 -1.3070965 -1.7384202
7.0313749 -1.3502656 -1.7384202
7.0001116 -1.3888474 -1.7326345
6.9515266 -1.4235889 -1.7225094
6.9682984 -1.4716345 -1.7290183
6.951551 -1.5127113 -1.7270898
6.9317212 -1.5530012 -1.724438
6.8946376 -1.5891782 -1.7174468
6.862093 -1.6260786 -1.711661
6.818984 -1.6601126 -1.7032233
6.7936053 -1.6981537 -1.6993661
6.7745976 -1.7376351 -1.6971965
6.7516069 -1.775959 -1.6940625
6.6993546 -1.8062296 -1.6834552
6.6844039 -1.8462679 -1.6824908
6.6617436 -1.8840766 -1.679598
6.6276851 -1.9184368 -1.6738122
6.5915956 -1.9518988 -1.6675442
6.5655627 -1.9880861 -1.6639282
6.5384073 -2.0237403 -1.6600709
6.5193901 -2.0617716 -1.6583834
6.4826059 -2.0939748 -1.6521155
6.4567332 -2.1294541 -1.6487404
6.4573417 -2.1736784 -1.6523565
6.4337864 -2.2097895 -1.6497047
6.4109478 -2.2460146 -1.6472939
6.387907 -2.2820425 -1.6448832
6.3810792 -2.323853 -1.6468117
6.3448648 -2.3548546 -1.641026
6.3466349 -2.3999231 -1.6453654
6.3480906 -2.445102 -1.6497047
6.3293543 -2.482589 -1.6487404
6.3275208 -2.5267794 -1.6523565
6.3154941 -2.5670192 -1.6533208
6.2879663 -2.6008978 -1.6501868
6.2692056 -2.6383011 -1.6494635
6.2341647 -2.668695 -1.6444011
6.2132239 -2.7049592 -1.6431956
6.2062707 -2.7473547 -1.6458474
6.2061105 -2.7929542 -1.6504279
6.1932688 -2.8330009 -1.6516333
6.1766491 -2.8713582 -1.6518743
6.1545272 -2.90713 -1.650669
6.1348238 -2.9439986 -1.6501868
6.1087933 -2.9777572 -1.6480172
6.0590987 -2.9996774 -1.6393385
6.0379777 -3.0354908 -1.6386153
6.0209675 -3.0733647 -1.6390973
6.0011349 -3.1098042 -1.6388563
5.9724932 -3.1415963 -1.6362045
5.9539599 -3.1786408 -1.6364455
5.936904 -3.2165012 -1.6371688
5.8889933 -3.2374353 -1.6292133
5.8766456 -3.2777646 -1.6313829
5.8648686 -3.3185422 -1.6337937
5.8477626 -3.3563988 -1.634758
5.824542 -3.3907516 -1.6340348
5.8169975 -3.4343233 -1.637892
5.7824941 -3.4619725 -1.6340348
5.7719264 -3.503937 -1.6371688
5.7684989 -3.5504816 -1.6424724
5.7383723 -3.5806704 -1.6400616
5.7203946 -3.6184077 -1.6412671
5.7070704 -3.6592031 -1.6439189
5.6666098 -3.6825147 -1.6386153
5.6333723 -3.7102735 -1.6354812
5.6032362 -3.7399192 -1.6333115
5.6034932 -3.7900016 -1.6403028
5.5937405 -3.833642 -1.6444011
5.5438089 -3.8496206 -1.6364455
5.51056 -3.8768616 -1.6335527
5.4819269 -3.9072201 -1.6321062
5.4523425 -3.9368052 -1.6304187
5.4970093 -4.020617 -1.6516333
5.4652181 -4.0490694 -1.6494635
5.4356136 -4.0790315 -1.6480172
5.3780355 -4.087636 -1.637892
5.4097548 -4.1643758 -1.6557316
5.3726211 -4.1885386 -1.6521155
5.3361573 -4.2130041 -1.6487404
5.3405223 -4.2699142 -1.6583834
5.3157306 -4.3038244 -1.6588656
5.2854705 -4.3332829 -1.6576601
5.2528095 -4.360672 -1.6557316
5.2526951 -4.4153061 -1.6644102
5.1922512 -4.4191413 -1.6535618
5.1591578 -4.445848 -1.6516333
5.135437 -4.4806108 -1.6528386
5.073667 -4.481833 -1.6415081
5.0330524 -4.5012326 -1.6371688
5.0233212 -4.5483179 -1.6431956
5.0368061 -4.6170979 -1.657178
4.9920225 -4.6327295 -1.6516333
4.9571376 -4.6572909 -1.6494635
4.9179211 -4.6775851 -1.6458474
4.8828368 -4.7016134 -1.6436778
4.833746 -4.7118363 -1.6366866
4.8848615 -4.8204961 -1.6646513
4.8503861 -4.8455763 -1.6629637
2.3146443 -2.340045 -0.77749509
2.2927845 -2.346565 -0.77484328
2.2830591 -2.365479 -0.7765308
2.277874 -2.3892803 -0.77990586
4.622314 -4.9100962 -1.634999
4.600028 -4.9468956 -1.637892
4.5735264 -4.9793172 -1.6393385
4.5559278 -5.0216637 -1.6441599
4.5179062 -5.0415721 -1.6415081
4.4772401 -5.0582962 -1.637892
4.4499502 -5.0900574 -1.6393385
4.4091225 -5.106246 -1.6357223
4.377708 -5.1332035 -1.6357223
4.3330021 -5.1443777 -1.6306597
4.3131452 -5.1850457 -1.6352402
4.2775536 -5.206913 -1.6337937
4.2424674 -5.2292929 -1.6325884
4.212728 -5.2582555 -1.6335527
4.163528 -5.2626915 -1.6268026
2.0243521 -2.5903373 -0.7765308
1.9965674 -2.5873387 -0.77170932
1.9718356 -2.5879581 -0.76809317
1.9500875 -2.5922508 -0.7656824
1.9277829 -2.5955949 -0.76303059
1.9083787 -2.6026776 -0.76158416
1.7279962 -2.3870778 -0.69191343
1.7133169 -2.3976357 -0.69191343
1.7153456 -2.4319019 -0.69914567
3.8307638 -5.5049114 -1.6258383
3.7815335 -5.5059104 -1.6190882
3.7601995 -5.5474892 -1.6246328
3.721235 -5.5631957 -1.6224632
3.6667192 -5.5551414 -1.6133024
3.6611581 -5.6214552 -1.6263204
3.5977485 -5.5989032 -1.6130613
3.5841062 -5.6536636 -1.6227043
3.5452328 -5.6689653 -1.6207757
3.512929 -5.6947422 -1.621981
3.4809463 -5.7211652 -1.6234275
3.451767 -5.7524033 -1.6263204
3.4070182 -5.7576036 -1.62174
3.3642914 -5.7658253 -1.6181239
3.3293335 -5.7872009 -1.6183649
3.2894535 -5.799922 -1.6161952
3.2490695 -5.8115249 -1.6137844
3.1969612 -5.8015985 -1.6053468
1.6115887 -2.9663301 -0.79846865
1.5979351 -2.9847205 -0.80087936
1.5841162 -3.0030544 -0.80329013
3.0902934 -5.948936 -1.625115
3.0347295 -5.9306321 -1.6147488
2.9921699 -5.937007 -1.6113738
2.9617231 -5.9674263 -1.6147488
2.9148288 -5.9645581 -1.608963
2.8870087 -6.0006981 -1.6140256
2.8397541 -5.9963698 -1.6079987
2.7996287 -6.0066433 -1.60607
2.7598889 -6.0175328 -1.6043825
2.7161307 -6.0193143 -1.6002843
2.6712744 -6.0181246 -1.5954628
2.6529276 -6.0770988 -1.6070343
2.6209466 -6.1057487 -1.6104094
2.5823016 -6.1190329 -1.6096863
2.5313265 -6.102488 -1.6010075
2.4927361 -6.1152086 -1.6002843
2.4612982 -6.1457057 -1.6043825
2.4196362 -6.1507573 -1.6017307
2.3671679 -6.1274629 -1.5916055
2.3381264 -6.1645594 -1.5976324
2.3100722 -6.2051678 -1.6046237
2.2682931 -6.209197 -1.6019719
2.2314606 -6.2266531 -1.6029361
2.1877446 -6.2246618 -1.5988379
2.1539338 -6.2508149 -1.6022129
2.1189532 -6.2740283 -1.6048647
2.0846827 -6.2998118 -1.6082398
2.0492785 -6.3226404 -1.6108916
2.0051637 -6.3184443 -1.6065522
1.9675075 -6.3343363 -1.6075165
1.9277576 -6.3435035 -1.6067933
1.8818903 -6.331954 -1.6007664
1.8443557 -6.348042 -1.6019719
1.8056351 -6.3601727 -1.6022129
1.7704631 -6.3851614 -1.605829
1.7307444 -6.3940306 -1.6053468
1.6857827 -6.3829474 -1.5998021
1.6477953 -6.3978705 -1.6010075
1.6068549 -6.4012713 -1.5993199
1.5659348 -6.4044108 -1.5976324
1.5272822 -6.4167309 -1.5983557
1.4856936 -6.4165263 -1.5959449
1.4435263 -6.4132123 -1.592811
1.4049768 -6.4257417 -1.5937753
1.3661268 -6.4370894 -1.5944985
1.3254309 -6.4396472 -1.593052
1.2889273 -6.4628873 -1.5969093
1.2499828 -6.4744859 -1.5978736
1.2114782 -6.4887123 -1.5995611
1.1726741 -6.5017543 -1.6010075
0.7130208 -4.0945134 -0.992293
1.0995344 -6.5558562 -1.6111326
0.65654165 -4.0646296 -0.98264998
1.0231621 -6.5957093 -1.6178827
0.6078974 -4.0810199 -0.98481965
0.58599228 -4.1067719 -0.99036437
0.89778644 -6.5855374 -1.6108916
0.85573614 -6.5784111 -1.6077576
0.81213957 -6.5575323 -1.6012486
0.77052957 -6.5508256 -1.5983557
0.7301054 -6.5535007 -1.5978736
0.43342265 -4.1159058 -0.9879536
0.41064125 -4.1435986 -0.99422157
0.60729432 -6.5436029 -1.5923288
0.56788439 -6.5559082 -1.5944985
0.52430844 -6.5176711 -1.5841322
0.48495233 -6.5294762 -1.5863019
0.44553679 -6.5420117 -1.5887127
0.25294265 -4.0764751 -0.97445345
0.36635429 -6.5673356 -1.5937753
0.32638654 -6.5762453 -1.5954628
0.28686908 -6.5975161 -1.6002843
0.24605773 -6.5904236 -1.5981146
0.20498319 -6.5714383 -1.593052
0.16511631 -6.5910063 -1.5976324
0.12472609 -6.5948067 -1.5983557
0.084393263 -6.6061225 -1.6010075
0.043763183 -6.5919585 -1.5973914
0.0033291557 -6.6357756 -1.6082398
-0.037116669 -6.589088 -1.5966681
-0.047951393 -4.1112099 -0.9812035
-0.073141307 -4.1088972 -0.98072135
-0.098445646 -4.1122522 -0.9816857
-0.1999879 -6.6249948 -1.6063112
-0.23943059 -6.5906677 -1.5981146
-0.27998972 -6.5919833 -1.5988379
-0.32213503 -6.6250381 -1.6075165
-0.36182094 -6.605494 -1.6031772
-0.40003607 -6.5653701 -1.5937753
-0.27597001 -4.1197257 -0.98554289
-0.48306087 -6.5938435 -1.6022129
-0.32596546 -4.1092567 -0.98385537
-0.55564606 -6.4907231 -1.5781053
-0.60017264 -6.5384126 -1.5908823
-0.64521044 -6.5848317 -1.6034182
-0.68610573 -6.5855751 -1.6046237
-0.72948748 -6.6082511 -1.6113738
-0.48397443 -4.1542397 -0.99880201
-0.51146948 -4.1675668 -1.0029002
-0.85647351 -6.636054 -1.621981
-0.89391804 -6.6066308 -1.6159542
-0.93089765 -6.5760379 -1.6096863
-0.97321916 -6.583643 -1.6130613
-1.0133014 -6.5756292 -1.6125791
-1.0551682 -6.5788703 -1.6149899
-0.68994582 -4.1417618 -1.0029002
-0.71385574 -4.1288438 -1.0007306
-1.1777996 -6.5678859 -1.6174006
-1.2230425 -6.5872521 -1.6241508
-0.7818566 -4.0740228 -0.99036437
-0.80362618 -4.0529661 -0.98626608
-0.82945389 -4.0527124 -0.98747146
-1.3869424 -6.5675969 -1.6272846
-0.88800454 -4.083005 -0.99783772
-0.91877359 -4.1030478 -1.0043467
-0.94545907 -4.1039529 -1.0060343
-0.97353381 -4.1103506 -1.0091683
-0.7366206 -3.0284212 -0.73410159
-0.74953663 -3.0012484 -0.72831577
-0.76697272 -2.9928327 -0.72735149
-1.6919649 -6.4325042 -1.6120969
-0.80591679 -2.9916284 -0.72952116
-0.81701881 -2.9604349 -0.72277105
-0.83411121 -2.9516308 -0.72180676
-0.86138636 -2.9781518 -0.7300033
-1.214913 -4.1043205 -1.0231506
-1.235571 -4.0819278 -1.0192934
-1.2594455 -4.0705614 -1.0183291
-1.2858623 -4.0673833 -1.0195345
-1.0872427 -3.3677366 -0.83896923
-1.0948087 -3.3213723 -0.82860303
-1.0928637 -3.2483709 -0.81124562
-1.1023661 -3.2113159 -0.80329013
-1.1239758 -3.2099867 -0.80473655
-1.4693255 -4.1141696 -1.0450884
-1.1293925 -3.1029422 -0.7801469
-1.1386131 -3.0695698 -0.77315575
-1.1735669 -3.1051881 -0.78448629
-1.211094 -3.145925 -0.79726326
-1.5608002 -3.9804327 -1.0219452
-1.5934758 -3.9915094 -1.0274899
-1.6446257 -4.0472851 -1.0450884
-1.251195 -3.0264773 -0.77339685
-1.2655989 -3.008904 -0.77074498
-1.2783062 -2.9877 -0.76712888
-1.7384176 -3.9941378 -1.0419544
-1.7585695 -3.9736347 -1.0393026
-1.7968633 -3.9937427 -1.0477402
-1.8201231 -3.9799948 -1.047017
-1.8334595 -3.9449918 -1.040508
-1.8149211 -3.8432891 -1.0156772
-1.837629 -3.8303308 -1.0151951
-1.8738587 -3.8451524 -1.0224273
-1.8978475 -3.8344519 -1.0226685
-1.9034607 -3.7871869 -1.0127844
-1.9390213 -3.7996373 -1.0195345
-1.9734658 -3.8092084 -1.0255613
-2.0139756 -3.829664 -1.0347222
-2.0173187 -3.7795677 -1.0241148
-2.0252106 -3.7389617 -1.0161594
-2.0406315 -3.7128587 -1.0123022
-2.0803988 -3.7307777 -1.020981
-2.1247652 -3.7559485 -1.0318292
-2.1743503 -3.7891304 -1.0450884
-2.2117231 -3.8000383 -1.0520796
-2.225127 -3.7696831 -1.0472581
-2.2447248 -3.7501309 -1.0455706
-2.2465348 -3.7014472 -1.0354455
-2.2834518 -3.7107325 -1.0421956
-2.2809958 -3.6563113 -1.0303829
-2.3137667 -3.6586485 -1.0352043
-2.323597 -3.6247771 -1.0294186
-2.351084 -3.6185882 -1.0318292
-2.399941 -3.6446147 -1.0438831
-2.4001629 -3.5967283 -1.033999
-2.4548187 -3.6301615 -1.0484635
-2.4688148 -3.603024 -1.0448474
-2.4836783 -3.577446 -1.0417134
-2.511168 -3.5700758 -1.0441241
-2.5279555 -3.5474882 -1.0419544
-2.5633132 -3.550792 -1.0477402
-2.555825 -3.4950519 -1.0354455
-2.5841568 -3.4886603 -1.0383383
-2.5781295 -3.4362595 -1.0270078
-2.640871 -3.4752274 -1.0441241
-2.7740571 -3.6042871 -1.0896873
-2.8450611 -3.6499519 -1.1094555
-2.6833379 -3.3993723 -1.0356865
-2.7168753 -3.3987598 -1.0407491
-2.7358463 -3.3797629 -1.0400258
-2.7694566 -3.3786709 -1.0450884
-2.7448735 -3.307111 -1.0274899
-2.8475611 -3.3882565 -1.0593119
-2.8544562 -3.3544633 -1.0540082
-2.893995 -3.3589382 -1.0612404
-2.9094453 -3.3352683 -1.0593119
-2.9317832 -3.3195353 -1.0600351
-2.9831567 -3.3362019 -1.0716066
-3.0250711 -3.341572 -1.0795622
-3.1196365 -3.4037764 -1.1068037
-3.1417835 -3.3859932 -1.1072857
-3.0229247 -3.2181404 -1.0566601
-3.1603532 -3.3232782 -1.0990893
-3.2130022 -3.3373754 -1.1106608
-3.2639093 -3.348866 -1.1215092
-3.3232589 -3.3681443 -1.1352504
-3.3905127 -3.3943701 -1.1516436
-3.4202492 -3.3823717 -1.1547775
-3.441633 -3.3619998 -1.1550187
-3.4468291 -3.3259969 -1.1497149
-3.4699829 -3.3074627 -1.1506793
-3.4626479 -3.2601697 -1.1412773
-3.4569969 -3.2150745 -1.1325986
-3.4823782 -3.1990535 -1.1345272
-3.4997849 -3.1756697 -1.1338041
-3.4013767 -3.0485828 -1.0945088
-3.4301939 -3.0366585 -1.0978838
-3.6321838 -3.175854 -1.1583937
-3.873472 -3.3450205 -1.2311983
-3.9109101 -3.3356719 -1.2367431
-4.2661242 -3.5935256 -1.3454679
-3.3724854 -2.8059053 -1.0496688
-3.3993888 -2.7931664 -1.0528028
-3.4194784 -2.7747006 -1.0537671
-3.356143 -2.6893592 -1.0282131
-3.4662116 -2.742764 -1.0578654
-3.5181608 -2.7489214 -1.0689548
-3.441967 -2.6555743 -1.0397848
-3.5454521 -2.7008381 -1.0670263
-3.5782485 -2.6912789 -1.0720888
-3.4879265 -2.5900338 -1.0390615
-3.4599125 -2.5364623 -1.0255613
-3.4942837 -2.5288355 -1.0313472
-3.5049956 -2.5039639 -1.0299007
-3.5298131 -2.4891195 -1.0327936
-3.5569701 -2.4757273 -1.0364097
-3.5488913 -2.4379256 -1.0294186
-3.5637834 -2.4161041 -1.0294186
-3.6382422 -2.4341109 -1.0472581
-3.6450086 -2.4063962 -1.0448474
-3.6971183 -2.4083428 -1.0559368
-3.6954949 -2.3751223 -1.0511153
-3.6952429 -2.3430517 -1.0467759
-3.6799242 -2.3018141 -1.0380973
-3.7270219 -2.2995665 -1.0477402
-3.7443783 -2.278672 -1.0487045
-3.7849221 -2.2716289 -1.0564189
-3.8338726 -2.2691143 -1.0665441
-3.7789803 -2.2054524 -1.0467759
-3.8176808 -2.1967378 -1.0540082
-3.8403749 -2.1785367 -1.0566601
-3.8206296 -2.136467 -1.0472581
-3.8183653 -2.1045556 -1.0429187
-3.8303537 -2.0806239 -1.0426776
-3.8336349 -2.0520465 -1.0400258
-3.8118117 -2.0103846 -1.0303829
-3.7801483 -1.9641489 -1.018088
-3.8569322 -1.9740632 -1.0361687
-3.8299689 -1.9307117 -1.0253203
-3.879997 -1.9261527 -1.0359275
-3.9370883 -1.9244595 -1.0484635
-3.9593179 -1.9053129 -1.0513563
-3.9577763 -1.8747547 -1.0477402
-3.9753633 -1.8533038 -1.0494277
-4.0069509 -1.8381786 -1.0549725
-4.031425 -1.819543 -1.0585886
-4.0682397 -1.8061862 -1.0655798
-4.1281691 -1.8025371 -1.0788389
-4.1320167 -1.7741119 -1.0769104
-4.2447648 -1.7917238 -1.1043929
-4.222508 -1.7518922 -1.0954731
-4.2942944 -1.7508508 -1.1118662
-4.3716307 -1.7511574 -1.1297058
-4.4066796 -1.7338891 -1.1362147
-4.5331221 -1.7515633 -1.1670724
-4.5573964 -1.7288759 -1.1706885
-4.6006637 -1.7130636 -1.1793672
-4.6083531 -1.6838036 -1.1786439
-4.6789002 -1.6770942 -1.1945549
-4.7889094 -1.6834123 -1.2208321
-4.9771657 -1.7153035 -1.2676007
-5.2000098 -1.7564297 -1.323289
-5.2604461 -1.7409455 -1.336307
-5.2987275 -1.7176074 -1.3435394
-5.3248935 -1.6900505 -1.3476377
-5.7337198 -1.7810652 -1.4512999
-6.420579 -1.9511659 -1.6268026
-6.0602956 -1.8012037 -1.5303725
-5.8922863 -1.7120274 -1.4840862
-6.5767817 -1.8670887 -1.6581423
-6.5581856 -1.8184063 -1.6504279
-6.5570407 -1.7748375 -1.6472939
-6.6522613 -1.7568599 -1.6689907
-6.8020177 -1.7518095 -1.7046698
-6.8502927 -1.719485 -1.7143128
-6.9719615 -1.7046003 -1.7427596
-7.0615997 -1.6806515 -1.7630099
-7.2306285 -1.6740415 -1.8035105
-7.5693231 -1.703537 -1.8871636
-7.7370253 -1.6914449 -1.9271821
-7.785234 -1.6519921 -1.936825
-7.801878 -1.6055601 -1.9385126
-7.8068237 -1.5567102 -1.9373072
-7.8333817 -1.5120876 -1.9416466
-7.835834 -1.4627488 -1.939959
-7.8370204 -1.4132646 -1.9380305
-7.8503256 -1.3659822 -1.9392358
-7.840373 -1.3147409 -1.9346554
-7.8521252 -1.2672265 -1.9356197
-7.877975 -1.2218463 -1.9402001
-7.8450055 -1.1674908 -1.9300749
-7.8606691 -1.1205642 -1.9322447
-7.8722048 -1.0729656 -1.93345
-7.8719034 -1.0237674 -1.9317625
-7.8886318 -0.97675723 -1.9344143
-7.9147177 -0.9307124 -1.9394768
-7.9260669 -0.88277483 -1.9409233
-7.9149261 -0.83240151 -1.936825
-7.9247136 -0.784298 -1.9380305
-7.9061837 -0.73350978 -1.9322447
-7.9569468 -0.68899649 -1.9438162
-7.9281335 -0.63752055 -1.9356197
-7.9473815 -0.59000987 -1.9394768
-7.9363279 -0.54024798 -1.9358608
-7.9443369 -0.49184054 -1.9370662
-7.9520502 -0.44335517 -1.9382715
-7.9488049 -0.39426634 -1.936825
-7.96174 -0.34594783 -1.9394768
-7.952075 -0.29665652 -1.936584
-7.9508352 -0.24776767 -1.9358608
-7.9376526 -0.19861558 -1.9322447
-7.9736543 -0.15056184 -1.9409233
-7.9424038 -0.10123009 -1.9329679
-7.9632554 -0.052626237 -1.9380305
-7.970222 -0.0037658522 -1.939718
-7.9497147 0.045020197 -1.9346554
-7.9599638 0.093925394 -1.9373072
-7.9417715 0.14244922 -1.9329679
-7.9446287 0.19127032 -1.9339322
-7.919054 0.23927774 -1.9279053
-7.9087081 0.287545 -1.9257356
-7.9029164 0.33590108 -1.9247713
-7.9249401 0.38556874 -1.9307982
-7.9292088 0.43456075 -1.9324857
-7.9108939 0.48225814 -1.9286286
-7.9223104 0.53176647 -1.9322447
-7.5605249 -0.18834178 -1.9268714
-7.5537972 -0.141802 -1.9248576
-7.5777507 -0.095744766 -1.9308991
-7.5685177 -0.049183365 -1.9283818
-7.5783548 -0.0027468987 -1.9308991
-7.575326 0.043736454 -1.930144
-7.5797534 0.090274334 -1.9314026
-7.5732508 0.13667664 -1.9298922
-7.5625944 0.18290918 -1.927375
-7.5564933 0.2291625 -1.9261162
-7.5375361 0.27488998 -1.9215851
-7.5560126 0.32199851 -1.9268714
-7.531662 0.36727226 -1.9210817
-7.5031753 0.4120473 -1.9142848
-7.5198259 0.45925707 -1.9193195
-7.5168662 0.50538921 -1.9193195
-7.5087976 0.55114836 -1.9180609
-7.4908032 0.59606034 -1.9142848
-7.4908619 0.64234239 -1.9152918
-7.4915981 0.68873608 -1.9165505
-7.4968629 0.73563534 -1.9190677
-7.4979835 0.78222358 -1.9205781
-7.4930429 0.8282156 -1.9205781
-7.4772458 0.87294257 -1.9178091
-7.4698277 0.91856951 -1.9173057
-7.4957252 0.96847695 -1.9256128
-7.458952 1.0102965 -1.9175574
-7.4689026 1.0583521 -1.9218369
-7.4498219 1.1023196 -1.9185643
-7.4524832 1.1494849 -1.9210817
-7.444334 1.1950375 -1.9208299
-7.4110866 1.236394 -1.9140332
-7.4300623 1.286466 -1.9210817
-7.4086924 1.3296391 -1.9175574
-7.4003944 1.375073 -1.9175574
-7.3785119 1.4178988 -1.9140332
-7.376318 1.4644647 -1.9157952
-7.335906 1.5032876 -1.9074881
-7.3398004 1.5510722 -1.9110124
-7.3254166 1.59505 -1.9097537
-7.2796059 1.631925 -1.9001878
-7.3081207 1.6854763 -1.9105089
-7.2938743 1.7293935 -1.909502
-7.2859468 1.7748023 -1.9102572
-7.2674084 1.8175964 -1.9082433
-7.262681 1.863838 -1.9100055
-7.2501721 1.9081196 -1.9097537
-7.1888037 1.9392134 -1.8964119
-7.2122178 1.9930805 -1.9059777
-7.1598091 2.0259678 -1.8951533
-7.1760612 2.0782056 -1.902957
-7.1492553 2.1180749 -1.899181
-7.1787314 2.1748075 -1.9107606
-7.1393661 2.2107999 -1.9037122
-7.1312027 2.2563159 -1.9052225
-7.1503773 2.3107417 -1.9142848
-7.1158442 2.3479018 -1.9087468
-7.102221 2.3918283 -1.9089985
-7.0599527 2.4259281 -1.9014466
-7.0586348 2.4740026 -1.9052225
-7.0533466 2.5208492 -1.9079915
-7.0331998 2.5624239 -1.9067329
-7.0273247 2.6092358 -1.909502
-6.9985094 2.6475122 -1.9059777
-6.9866486 2.6921439 -1.9072363
-6.9429703 2.7243586 -1.8996844
-6.9189329 2.7640367 -1.8976706
-6.9108081 2.8100834 -1.9001878
-6.8907528 2.8513243 -1.8994327
-6.881156 2.8969309 -1.9016984
-6.8650303 2.9398601 -1.9022018
-6.8442006 2.9807687 -1.9014466
-6.8151627 3.0180058 -1.8984258
-6.8176966 3.0692999 -1.9044673
-6.7978554 3.1106722 -1.9042156
-6.7795181 3.1527326 -1.9044673
-6.7539206 3.1913776 -1.9027052
-6.7516613 3.2411344 -1.9077399
-6.733387 3.2833493 -1.9082433
-6.7070427 3.3215964 -1.9064811
-6.6917233 3.3652961 -1.9079915
-6.6459517 3.3935304 -1.9006914
-6.638752 3.441371 -1.9047191
-6.6020947 3.4739296 -1.9001878
-6.5704103 3.5089037 -1.8971671
-6.4942989 3.5196431 -1.8810563
-6.5226154 3.586937 -1.8959085
-6.4979482 3.6254768 -1.8951533
-6.4663153 3.6600358 -1.8923842
-6.4613619 3.7097621 -1.8976706
-6.4267688 3.7425208 -1.8941463
-6.4061842 3.7833605 -1.8949015
-6.3878312 3.8255801 -1.8964119
-6.3758187 3.8717351 -1.8999362
-6.3354592 3.9006364 -1.8949015
-6.3229008 3.9466102 -1.8984258
-6.2707582 3.9677401 -1.8898669
-6.2585149 4.0139785 -1.8936429
-6.2370133 4.0544143 -1.8946499
-6.2095938 4.0910101 -1.8938947
-6.1594229 4.1123767 -1.886091
-6.1348753 4.1506352 -1.8863426
-6.1053009 4.1854639 -1.885084
-6.0954022 4.2338881 -1.8901186
-6.0724745 4.273437 -1.8911256
-6.0548077 4.3167958 -1.8938947
-6.0399752 4.3623657 -1.8976706
-6.0060644 4.3942013 -1.8954051
-5.9797668 4.4315472 -1.8956567
-5.9501405 4.4664121 -1.8949015
-5.9272461 4.5063515 -1.8964119
-5.8964167 4.5402741 -1.8954051
-5.8661575 4.5745831 -1.8946499
-5.8288631 4.6032934 -1.891629
-5.8080668 4.6450167 -1.8941463
-5.783217 4.6836119 -1.8954051
-5.7521248 4.7171679 -1.8946499
-5.7312627 4.7591739 -1.8974189
-5.7101021 4.8011017 -1.9001878
-5.6768508 4.832911 -1.8989292
-5.6632175 4.8815532 -1.9044673
-5.6025319 4.8894844 -1.8938947
-5.5680737 4.9199243 -1.8923842
-5.5435514 4.9591584 -1.8943981
-5.5115833 4.9917803 -1.8938947
-5.4594498 5.0058842 -1.8863426
-5.4435277 5.0531144 -1.891629
-5.413125 5.0870829 -1.8918808
-5.3888216 5.1268721 -1.8943981
-5.3433204 5.1464138 -1.8893634
-5.3164926 5.1838322 -1.8911256
-5.2708092 5.2027593 -1.886091
-5.2319398 5.2281618 -1.8835737
-5.2160921 5.2766838 -1.8896152
-5.1930833 5.3182836 -1.8931395
-5.1569934 5.3465648 -1.8918808
-5.1107378 5.3640938 -1.8868462
-5.0783916 5.3960567 -1.8870978
-5.050458 5.432786 -1.8891118
-5.0144095 5.4608212 -1.8881048
-4.9801579 5.4907694 -1.887853
-4.9528317 5.5284319 -1.8903704
-4.9066305 5.5449476 -1.8855875
-4.869967 5.5720348 -1.8845805
-4.8369513 5.6032767 -1.885084
-4.7999673 5.6299047 -1.8840771
-4.7485003 5.6392636 -1.8772804
-4.7360878 5.6950803 -1.8863426
-4.7010541 5.7240334 -1.8863426
-4.6536503 5.7377381 -1.8813081
-4.6377182 5.7903557 -1.8893634
-4.5798869 5.7906184 -1.8800493
-4.5627379 5.8422551 -1.887853
-4.4860225 5.8172631 -1.8704836
-4.4666615 5.8662386 -1.8775321
-4.4323277 5.8958554 -1.8782873
-4.4376001 5.9788923 -1.8964119
-4.3522058 5.9396548 -1.8750148
-4.3610597 6.0289779 -1.8951533
-4.3099236 6.0359335 -1.88886
-4.2861886 6.0812497 -1.8949015
-4.2482414 6.1066403 -1.8946499
-4.1997352 6.1166358 -1.8896152
-4.1534381 6.1294713 -1.8855875
-4.124896 6.1685171 -1.8898669
-4.0875025 6.1945186 -1.8901186
-4.0510011 6.2219152 -1.8908738
-4.0111785 6.2442122 -1.8901186
-3.9790063 6.2785158 -1.8931395
-3.945025 6.3101978 -1.8954051
-3.9016597 6.3268714 -1.8931395
-3.8703098 6.3630948 -1.8969154
-3.8381643 6.3983417 -1.9004396
-3.7899623 6.4067788 -1.8959085
-3.7539935 6.4357648 -1.8976706
-3.7115386 6.4536438 -1.8961602
-3.6728246 6.4779797 -1.8966637
-3.634424 6.5029283 -1.8974189
-3.5986574 6.5327353 -1.8996844
-3.5658941 6.5683012 -1.9037122
-3.5150237 6.5704312 -1.8979223
-3.4741907 6.5910192 -1.8976706
-3.4283309 6.6019058 -1.8946499
-3.3965735 6.640049 -1.8996844
-3.360122 6.6694078 -1.9022018
-3.3126831 6.6768956 -1.8984258
-3.2856722 6.7257915 -1.9067329
-3.2296588 6.7153001 -1.8979223
-3.1966767 6.7524848 -1.902957
-3.1474175 6.7553048 -1.898174
-3.1147828 6.7938437 -1.9037122
-3.072242 6.8110633 -1.9032087
-3.0335329 6.836863 -1.9052225
-2.9950097 6.8633304 -1.9074881
-2.9455888 6.8646808 -1.9027052
-2.8985217 6.8710332 -1.8994327
-2.8589025 6.8949466 -1.9011948
-2.8187335 6.9177365 -1.9027052
-2.7711978 6.9223232 -1.899181
-2.7329216 6.9500041 -1.9022018
-2.7017322 6.9964347 -1.9105089
-2.6474285 6.9830179 -1.9022018
-2.6048694 7.0000381 -1.9024535
-2.5688407 7.0349798 -1.9077399
-2.5315022 7.067009 -1.912271
-2.4890547 7.0851483 -1.9130262
-2.4461646 7.1021175 -1.9135296
-2.3991354 7.1069069 -1.9107606
-2.3545711 7.1187372 -1.9100055
-2.3081622 7.1247649 -1.9077399
-2.2632313 7.1351032 -1.9067329
-2.2194085 7.1488557 -1.9067329
-2.1721263 7.1512275 -1.9037122
-2.1315138 7.1755533 -1.9067329
-2.0882552 7.1912851 -1.9074881
-2.0499041 7.2244453 -1.9130262
-2.0099318 7.2527423 -1.9173057
-1.967667 7.2733464 -1.9195713
-1.9230015 7.2852826 -1.9195713
-1.8722311 7.2735143 -1.913278
-1.8193225 7.2520103 -1.9044673
-1.7832925 7.297822 -1.9137814
-1.7310882 7.2775564 -1.9054743
-1.6881471 7.2955842 -1.9074881
-1.6439878 7.3086376 -1.9082433
-1.6065509 7.3526249 -1.9173057
-1.56241 7.3670774 -1.9185643
-1.516982 7.3755779 -1.9183125
-1.4652649 7.3524766 -1.9097537
-1.422874 7.3755832 -1.9135296
-1.38203 7.407959 -1.9198229
-1.3303684 7.3820114 -1.9107606
-1.2868725 7.4005237 -1.9135296
-1.2401596 7.4006448 -1.9115158
-1.195035 7.4100261 -1.9120193
-1.147173 7.401917 -1.9079915
-1.1045822 7.4279618 -1.9130262
-1.0613053 7.4508877 -1.9173057
-1.0143917 7.4486289 -1.91504
-0.97078955 7.4710283 -1.9193195
-0.92445445 7.4730024 -1.9183125
-0.87734085 7.4679613 -1.9155436
-0.83385736 7.4943647 -1.9210817
-0.78967816 7.516665 -1.9256128
-0.73915994 7.477066 -1.9140332
-0.69335693 7.4824247 -1.9142848
-0.64718229 7.4836454 -1.9135296
-0.60210401 7.4980874 -1.9162987
-0.55493975 7.4861979 -1.912271
-0.50853515 7.4827032 -1.9105089
-0.46422571 7.5117636 -1.9173057
-0.41764131 7.505774 -1.91504
-0.37215355 7.5197945 -1.9180609
-0.32659334 7.5354729 -1.9215851
-0.28125095 7.5615129 -1.9278784
-0.23337479 7.5156975 -1.9155436
-0.18727909 7.5179553 -1.9157952
-0.1412009 7.5218658 -1.9165505
-0.095130891 7.5293646 -1.9183125
-0.048822016 7.5133543 -1.9140332
-0.0027432882 7.5696449 -1.9286336
0.0435648 7.5453243 -1.9223403
0.089241564 7.4926577 -1.9087468
0.13517913 7.4900341 -1.9082433
0.18134473 7.4977713 -1.9105089
0.22734678 7.4965172 -1.9105089
0.27386856 7.5094886 -1.9142848
0.32022884 7.5144353 -1.916047
0.36524755 7.4900956 -1.9102572
0.41178221 7.4983435 -1.9130262
0.45666346 7.4773216 -1.9082433
0.49961561 7.4309258 -1.8969154
0.54541391 7.4306159 -1.8976706
0.5916875 7.4358125 -1.8999362
0.63754952 7.4349346 -1.9006914
0.68501699 7.4511213 -1.9059777
0.73176241 7.4573727 -1.9087468
0.77740586 7.4517798 -1.9084951
0.82385838 7.4536033 -1.9102572
0.87170863 7.4666719 -1.91504
0.91975021 7.4794335 -1.9198229
0.96550184 7.4726892 -1.9195713
1.0097771 7.4551158 -1.9165505
1.057402 7.4621949 -1.9200747
1.0986378 7.4249301 -1.9120193
1.1428484 7.409441 -1.9097537
1.1902838 7.4147115 -1.9130262
1.2320955 7.3853121 -1.9072363
1.2788732 7.3861957 -1.909502
1.3253664 7.3848777 -1.9112641
1.3754264 7.4022975 -1.9180609
1.4178988 7.3785119 -1.9140332
1.4642763 7.3753686 -1.9155436
1.5062011 7.3501277 -1.9112641
1.5524726 7.3464289 -1.9127744
1.5981379 7.3396015 -1.9135296
1.6391213 7.3117142 -1.9087468
1.6854763 7.3081207 -1.9105089
1.7242593 7.2722154 -1.9037122
1.7663293 7.2511549 -1.9009432
1.8143097 7.2542639 -1.9047191
1.8563817 7.2336206 -1.9022018
1.9012239 7.2239656 -1.9027052
1.9424895 7.2009511 -1.8996844
1.9886991 7.1963596 -1.9016984
2.0309734 7.1775026 -1.8999362
2.0771289 7.1723428 -1.90195
2.1191742 7.152967 -1.9001878
2.161902 7.1361246 -1.899181
2.2099411 7.1365924 -1.902957
2.2513537 7.1155167 -1.9009432
2.2899129 7.0859127 -1.8966637
2.3354707 7.0781622 -1.8984258
2.3732984 7.0471892 -1.8938947
2.4155512 7.0297484 -1.8931395
2.4579992 7.0129681 -1.8926359
2.5026121 7.0023108 -1.8938947
2.5422177 6.9777298 -1.8913773
2.5849845 6.9619994 -1.8913773
2.625942 6.9414816 -1.8901186
2.6688325 6.9261413 -1.8903704
2.7137547 6.9159417 -1.8921325
2.7511132 6.8865776 -1.8886082
2.7889426 6.8588095 -1.8855875
2.8254251 6.8281531 -1.8818115
2.8717744 6.8213921 -1.8848323
2.9147184 6.8063121 -1.8855875
2.9529488 6.7803135 -1.8833219
2.9894028 6.7505627 -1.8800493
3.0291781 6.7285633 -1.8790425
3.0756412 6.7212906 -1.8823149
3.1164165 6.7014146 -1.8820633
3.1566501 6.6804166 -1.8815597
3.1883676 6.641727 -1.8760216
3.2468739 6.6585746 -1.8865944
3.2915342 6.6463323 -1.88886
3.3109493 6.5836434 -1.8765252
3.3394017 6.5399313 -1.8697284
3.3772402 6.5150218 -1.8684697
3.4189546 6.4976025 -1.8694767
3.4578471 6.4747944 -1.8689733
3.4822946 6.4253759 -1.860666
3.5225868 6.4055843 -1.8611696
3.5707829 6.3999081 -1.8659524
3.6052182 6.3694549 -1.8634351
3.62255 6.309444 -1.8521072
3.6665525 6.2962976 -1.8548763
3.6952748 6.2570148 -1.8498416
3.7306144 6.2292414 -1.8483312
3.7742913 6.215333 -1.8511002
3.8133714 6.1937056 -1.8516037
3.8641136 6.1907163 -1.857897
3.9247932 6.2028756 -1.8689733
3.9502411 6.1591249 -1.8629316
3.9758275 6.1161075 -1.8571419
4.0068917 6.0818987 -1.8541211
4.0634785 6.0861754 -1.8631834
4.0741744 6.0218492 -1.8508486
4.112689 5.9991317 -1.8516037
4.1367235 5.9555016 -1.8458139
4.1793146 5.9387131 -1.848583
4.2375846 5.9436917 -1.8584005
4.2734079 5.9167938 -1.8581487
4.3084893 5.8888993 -1.8576453
4.3479991 5.8670177 -1.8591557
4.3781071 5.8324881 -1.8566383
4.4261117 5.8216939 -1.8619248
4.4706059 5.8059292 -1.8657007
4.4924588 5.7608347 -1.8599108
4.5403171 5.7491117 -1.8651972
4.5622106 5.7045159 -1.8596591
4.6093078 5.6914577 -1.8646938
4.6361656 5.6533394 -1.8614212
4.6862226 5.6434011 -1.8677145
4.6995864 5.589354 -1.8591557
4.7576323 5.5884166 -1.8687215
4.8057327 5.5752473 -1.8742596
4.8175802 5.520133 -1.865449
4.8475156 5.4861174 -1.8639386
4.8959265 5.4728608 -1.8697284
4.9326634 5.4463038 -1.8709871
4.9587941 5.4080877 -1.8682179
4.982667 5.3676291 -1.8646938
5.0168338 5.3383656 -1.8651972
5.0615015 5.3201036 -1.8697284
5.0497417 5.2429385 -1.8531141
5.1210017 5.2520471 -1.8677145
5.166728 5.2343025 -1.8727492
5.1925912 5.1963396 -1.8704836
5.2271304 5.1671023 -1.8714905
5.2241168 5.1011233 -1.8589039
5.3005934 5.1126471 -1.8752664
5.3227558 5.0713477 -1.871994
5.3368592 5.0226731 -1.8659524
5.3867145 5.0076246 -1.8727492
5.4059343 4.964004 -1.8687215
5.4305568 4.9255385 -1.8667076
5.4729304 4.9031038 -1.8709871
5.478271 4.8476229 -1.8624282
5.5290437 4.8323884 -1.8697284
5.5549278 4.7952099 -1.8684697
5.5938196 4.7691984 -1.8717422
5.6170554 4.7297983 -1.8697284
5.6489472 4.6977191 -1.8707353
5.6851444 4.6691122 -1.8732526
5.7234573 4.6420665 -1.8765252
5.7337046 4.5923395 -1.8704836
5.7777147 4.5696802 -1.87577
5.8033566 4.5323553 -1.8750148
5.8402538 4.5037541 -1.8780355
5.8616185 4.4631433 -1.8760216
5.9097795 4.4427962 -1.8828185
5.929935 4.4012594 -1.8805529
5.960732 4.3676515 -1.8818115
5.9787936 4.3247552 -1.8790425
5.9682007 4.2615538 -1.8672111
6.025878 4.2471571 -1.8772804
6.0470576 4.2067866 -1.87577
6.07515 4.171247 -1.8765252
6.102232 4.1349778 -1.8770286
6.1435785 4.1082177 -1.8820633
6.1694779 4.0709772 -1.8823149
6.1789317 4.0230117 -1.8775321
6.1937294 3.9787452 -1.8745112
6.2270174 3.9463656 -1.8772804
6.2978888 3.9373288 -1.891629
6.2980409 3.8838785 -1.8843288
6.3167925 3.8421433 -1.8828185
6.3311195 3.7978351 -1.8800493
6.3426423 3.7520175 -1.8765252
6.3931313 3.7291224 -1.8848323
6.4209261 3.6927197 -1.8863426
6.4114718 3.635112 -1.8767769
6.4834981 3.6235633 -1.891629
6.4954381 3.578109 -1.8886082
6.4841003 3.5201762 -1.8787907
6.5286179 3.4926517 -1.8855875
6.5242419 3.4389873 -1.8780355
6.5873051 3.4207478 -1.8903704
6.5685372 3.3599882 -1.8787907
6.627058 3.3387828 -1.8898669
6.6248794 3.2868724 -1.8833219
6.6753573 3.2610309 -1.8921325
6.7057066 3.2250443 -1.8951533
6.6973782 3.1705854 -1.8870978
6.7254786 3.1335192 -1.8896152
6.7577748 3.0982442 -1.8933911
6.7863622 3.0610986 -1.8961602
6.7935171 3.0142975 -1.8928877
6.8331728 2.9818475 -1.8989292
6.8575659 2.9425354 -1.9006914
6.877275 2.9011552 -1.9011948
6.8851132 2.8548245 -1.8984258
6.8989153 2.8110635 -1.8974189
6.9196277 2.7701185 -1.8984258
6.9319916 2.7258372 -1.8971671
6.945878 2.6822062 -1.8964119
6.9612999 2.6391933 -1.8961602
6.98734 2.6001432 -1.8989292
7.0049806 2.5578847 -1.8994327
7.033299 2.5194247 -1.902957
7.0732784 2.484884 -1.9097537
7.0636864 2.4329257 -1.902957
7.0702291 2.3867514 -1.9006914
7.0856595 2.3436284 -1.9009432
7.0999064 2.3001075 -1.9009432
7.1138864 2.2565 -1.9009432
7.1202035 2.2105117 -1.8989292
7.1336331 2.1667812 -1.8989292
7.1458664 2.1226935 -1.8986775
7.1717677 2.0825865 -1.9022018
7.2048941 2.0443552 -1.9077399
7.2173023 2.0001085 -1.9077399
7.2172942 1.9525 -1.9044673
7.242239 1.9116374 -1.9079915
7.249146 1.8659574 -1.9067329
7.2576427 1.8207357 -1.9059777
7.2714982 1.7768587 -1.9067329
7.3105097 1.7389284 -1.9142848
7.3050127 1.6903294 -1.9100055
7.3095818 1.6442002 -1.9084951
7.321424 1.5997318 -1.9089985
7.3254213 1.5535733 -1.9074881
7.3461914 1.5109364 -1.9105089
7.34868 1.4645081 -1.9087468
7.3394728 1.4159057 -1.9039639
7.3556337 1.3722652 -1.9059777
7.3629627 1.3269345 -1.905726
7.3862219 1.2843847 -1.9097537
7.3996902 1.2399995 -1.9112641
7.3918724 1.1921064 -1.9072363
6.2523584 0.96894878 -1.6054102
5.8475204 0.86947632 -1.4974174
5.8297505 0.83030361 -1.4913759
5.8232279 0.79294956 -1.488355
5.8279839 0.757204 -1.488355
5.8037062 0.71786386 -1.4808031
5.8022346 0.68156165 -1.4792928
0 0 -0
0 0 -0
0 0 -0
0 0 -0
0 0 -0
0 0 -0
0 0 -0
0 0 -0
5.7972002 0.35817578 -1.4704821
5.8012214 0.32270575 -1.4709857
5.8098588 0.28743926 -1.4727477
5.7438307 0.24884827 -1.4551265
