# .PCD v0.7 - Point Cloud Data file format
VERSION 0.7
FIELDS x y z
SIZE 4 4 4
TYPE F F F
COUNT 1 1 1
WIDTH 1632
HEIGHT 1
VIEWPOINT 0 0 0 1 0 0 0
POINTS 1632
DATA ascii
-0 -0 -0
-0 -0 -0
-0 -0 -0
-0 -0 -0
-0 -0 -0
-0 -0 -0
-0 -0 -0
-0 -0 -0
-0 -0 -0
-0 -0 -0
-0 -0 -0
-0 -0 -0
-0 0 -0
-0 0 -0
-0 0 -0
-0 0 -0
-0 0 -0
-0 0 -0
-0 0 -0
-0 0 -0
-0 0 -0
-6.185658 0.37467098 -1.9555386
-0 0 -0
-0 -0 -0
-0 -0 -0
-0 -0 -0
-0 -0 -0
-0 -0 -0
-0 0 -0
-0 0 -0
-0 0 -0
-0 0 -0
-0 0 -0
-0 0 -0
-0 0 -0
-0 0 -0
-0 0 -0
-0 0 -0
-0 0 -0
-0 0 -0
-0 0 -0
-0 0 -0
-0 0 -0
-0 0 -0
-0 0 -0
-0 0 -0
-0 0 -0
-0 0 -0
-0 0 -0
-0 0 -0
-0 0 -0
-0 0 -0
-0 0 -0
-0 0 -0
-0 0 -0
-5.8355803 1.0073396 -1.9376762
-5.8134179 1.040288 -1.9322876
-5.8106556 1.0766298 -1.9335555
-5.788105 1.1092294 -1.928167
-5.7737465 1.1432505 -1.9256312
-5.7694111 1.1792256 -1.9265821
-5.7546425 1.2130393 -1.9240463
-5.7350421 1.24571 -1.9199257
-5.7198858 1.2792207 -1.9173899
-5.7156262 1.3151436 -1.9186578
-5.7111411 1.3510624 -1.9199257
-5.7027435 1.3860798 -1.9199257
-5.6950517 1.4212747 -1.9202427
-5.693574 1.458074 -1.9227784
-5.6854377 1.4932225 -1.9230953
-5.678 1.5285726 -1.9237293
-5.6831431 1.5674169 -1.9288009
-5.6715932 1.6017431 -1.928167
-5.6516352 1.6336169 -1.9246802
-5.6387768 1.6674572 -1.9237293
-5.6111898 1.6968099 -1.9177068
-5.5979548 1.7303675 -1.9167559
-5.5926585 1.7663969 -1.9186578
-5.5862279 1.8021351 -1.9202427
-5.5759659 1.8366743 -1.9205596
-5.5699854 1.8726664 -1.9224614
-5.5556984 1.9058849 -1.9215105
-5.5358429 1.9371194 -1.9186578
-5.5220661 1.9704127 -1.9180238
-5.5018497 2.0013411 -1.915171
-5.4832411 2.0327547 -1.9129522
-5.4626799 2.0633454 -1.9100995
-5.4472609 2.0958035 -1.9091486
-5.4307661 2.127804 -1.9078807
-5.4070368 2.1568704 -1.9040769
-5.4024882 2.1935742 -1.9072467
-5.4213605 2.2400806 -1.9189748
-5.3961473 2.2685258 -1.914854
-5.3638129 2.2937632 -1.9081976
-5.354856 2.3289011 -1.9100995
-5.3508744 2.3663163 -1.9139031
-5.3336592 2.3979375 -1.9129522
-5.3222961 2.4321957 -1.9142201
-5.3038311 2.4632092 -1.9129522
-5.2886176 2.4957066 -1.9129522
-5.2766256 2.5297499 -1.9142201
-5.2524767 2.5579269 -1.9110503
-5.2451844 2.5943115 -1.9142201
-5.2257767 2.6247442 -1.9129522
-5.1968994 2.6502972 -1.9081976
-5.1729589 2.6782107 -1.9053448
-5.1631451 2.7134302 -1.9078807
-5.1371932 2.7401502 -1.9043939
-5.1219516 2.7725229 -1.9050279
-5.1023493 2.8025286 -1.9040769
-5.0908566 2.8370149 -1.9062958
-5.07583 2.8695984 -1.9072467
-5.0573044 2.9002173 -1.9069297
-5.0467925 2.9354851 -1.9097825
-5.0270519 2.9654326 -1.9091486
-5.0103898 2.997196 -1.9097825
-4.9829845 3.0224726 -1.9062958
-4.9611135 3.0510037 -1.9050279
-4.9479332 3.0848992 -1.9072467
-4.9265065 3.1136811 -1.9062958
-4.9216838 3.1530592 -1.9120013
-4.9046311 3.1847482 -1.9129522
-4.8849974 3.2147825 -1.9129522
-4.8628125 3.2431171 -1.9120013
-4.8310342 3.2649286 -1.9072467
-4.821866 3.3020113 -1.9116843
-4.7929425 3.3255887 -1.9081976
-4.7724466 3.3549352 -1.9081976
-4.7548618 3.3863556 -1.9094656
-4.7332249 3.4149122 -1.9091486
-4.712182 3.4438906 -1.9091486
-4.6917243 3.4733033 -1.9094656
-4.6718421 3.5031638 -1.9100995
-4.6434608 3.5266016 -1.9072467
-4.6202312 3.5538704 -1.9066128
-4.5960932 3.5804043 -1.9056618
-4.571804 3.6067758 -1.9047109
-4.5555153 3.6394956 -1.9072467
-4.5353103 3.6691687 -1.9081976
-4.51051 3.6951246 -1.9072467
-4.4746122 3.7118325 -1.9015411
-4.4640994 3.7495873 -1.9069297
-4.4410081 3.7769079 -1.9069297
-4.4199061 3.805943 -1.9078807
-4.3993297 3.8354843 -1.9091486
-4.3735795 3.860523 -1.9081976
-4.3483953 3.8860221 -1.9075637
-4.3265791 3.9145391 -1.9085146
-4.2975826 3.9365287 -1.9062958
-4.2684793 3.9583101 -1.9040769
-4.2406535 3.9811809 -1.902492
-4.2168331 4.0077796 -1.902809
-4.1983142 4.0394959 -1.9056618
-4.1727695 4.0645185 -1.9053448
-4.1491022 4.0913777 -1.9059788
-4.1225777 4.1154189 -1.9053448
-4.0972481 4.1406369 -1.9053448
-4.0697756 4.1636648 -1.9043939
-4.0461278 4.1906047 -1.9053448
-4.0118284 4.2064309 -1.9012241
-3.9755361 4.219923 -1.8961526
-3.9431067 4.2372942 -1.8929828
-3.9247355 4.2697878 -1.8967866
-3.9022882 4.2980018 -1.8986884
-3.8796425 4.3261013 -1.9005903
-3.8574274 4.3547945 -1.902809
-3.8343816 4.3826637 -1.9047109
-3.8036969 4.401803 -1.902809
-3.7735376 4.421452 -1.9012241
-3.7506163 4.4495988 -1.903443
-3.7220297 4.4710708 -1.902809
-3.690309 4.4886966 -1.9005903
-3.6716654 4.5222993 -1.9053448
-3.6307948 4.5284648 -1.8983715
-3.6094167 4.5588369 -1.9018581
-3.5831289 4.5831394 -1.902809
-3.5526214 4.602036 -1.9015411
-3.5271919 4.6275191 -1.903126
-3.5004427 4.6513476 -1.9040769
-3.4678769 4.6674094 -1.9018581
-3.4352458 4.6832471 -1.8996394
-3.3969879 4.6911788 -1.8942508
-3.3824806 4.7319942 -1.902492
-3.3517416 4.7503347 -1.9015411
-3.3203626 4.7676983 -1.9002733
-3.2883596 4.7840743 -1.8986884
-3.247761 4.7876792 -1.8920319
-3.2309871 4.8264313 -1.8996394
-3.2023575 4.8477483 -1.9002733
-3.1772134 4.8744569 -1.903126
-3.1431401 4.8874788 -1.9005903
-3.1176653 4.9138799 -1.903443
-3.0839329 4.9272895 -1.9012241
-3.0521467 4.9436984 -1.9002733
-3.0178087 4.955853 -1.8977375
-2.9839249 4.9685855 -1.8955187
-2.9538653 4.987617 -1.8958356
-2.9275115 5.0130181 -1.8986884
-2.896697 5.0308867 -1.8986884
-2.8681147 5.0526896 -1.9002733
-2.8375213 5.0710206 -1.9005903
-2.8036041 5.083353 -1.8986884
-2.7705483 5.097127 -1.8974205
-2.7351899 5.1065063 -1.8945677
-2.7055764 5.1265483 -1.8958356
-2.6745071 5.1438942 -1.8961526
-2.6359761 5.1467018 -1.8910811
-2.6077645 5.1695533 -1.8936168
-2.5713534 5.1761136 -1.8901302
-2.5395451 5.1917939 -1.8901302
-2.5076411 5.2072783 -1.8901302
-2.478893 5.229423 -1.8926659
-2.4463582 5.2436752 -1.8923489
-2.4149292 5.2603111 -1.8929828
-2.3787024 5.2663865 -1.8898132
-2.3498099 5.2886829 -1.8926659
-2.3192141 5.3073468 -1.8942508
-2.2884777 5.3258343 -1.8958356
-2.2546484 5.3371549 -1.8948847
-2.2222216 5.3517647 -1.8952017
-2.1875501 5.3609085 -1.8936168
-2.1546149 5.3742304 -1.8936168
-2.1209035 5.3855848 -1.8929828
-2.0857654 5.3931894 -1.8910811
-2.052634 5.4058862 -1.8910811
-2.0204194 5.4210453 -1.8920319
-1.9897251 5.4404659 -1.8945677
-1.9547038 5.4481087 -1.8929828
-1.9206083 5.4582105 -1.8923489
-1.8883187 5.4734788 -1.8936168
-1.8543947 5.4840636 -1.8932998
-1.8090744 5.4602275 -1.8809379
-1.7778796 5.4784422 -1.8834736
-1.741071 5.4793053 -1.879987
-1.7085447 5.4935074 -1.8812549
-1.6701102 5.4884629 -1.8758663
-1.6437082 5.5231504 -1.8844246
-1.6153531 5.5522556 -1.8910811
-1.5773635 5.5483789 -1.8863264
-1.5483658 5.57623 -1.8926659
-1.5138735 5.5847101 -1.8923489
-1.4769094 5.5838079 -1.8888623
-1.4426199 5.5927653 -1.8888623
-1.4085076 5.6024313 -1.8891792
-1.3747822 5.6137319 -1.8901302
-1.3403111 5.6220617 -1.8901302
-1.3053608 5.6283321 -1.8894962
-1.2691321 5.6288342 -1.8869604
-1.2345703 5.6365156 -1.8869604
-1.1991729 5.640274 -1.8856925
-1.165117 5.6503124 -1.8866434
-1.1313549 5.6620049 -1.8882283
-1.0969527 5.6707029 -1.8888623
-1.0630096 5.6819878 -1.8904471
-1.0282943 5.6893368 -1.8907641
-0.99499607 5.7048826 -1.8939338
-0.9601301 5.7118154 -1.8942508
-0.92370111 5.7091732 -1.8913981
-0.88938189 5.719419 -1.8929828
-0.85315108 5.7172642 -1.8904471
-0.81792027 5.7214527 -1.8901302
-0.78318423 5.7291827 -1.8910811
-0.74764764 5.7310591 -1.8901302
-0.7128194 5.7383618 -1.8910811
-0.67737365 5.7407441 -1.8904471
-0.64129299 5.7372518 -1.8879113
-0.6053803 5.7344766 -1.8856925
-0.56961977 5.7324204 -1.8837906
-0.53408331 5.7320299 -1.8825227
-0.49840865 5.7295303 -1.880621
-0.46331999 5.7334256 -1.8809379
-0.42841426 5.739944 -1.8822057
-0.39312172 5.7415185 -1.8818887
-0.35812119 5.7476087 -1.8831567
-0.32284778 5.7496982 -1.8831567
-0.28760967 5.7525182 -1.8834736
-0.25264037 5.7617545 -1.8860095
-0.21717475 5.7603531 -1.8850585
-0.18176584 5.7596812 -1.8844246
-0.14634918 5.757844 -1.8834736
-0.11090687 5.752944 -1.8815719
-0.075592853 5.7525678 -1.8812549
-0.040240668 5.7453361 -1.8787191
-0.0049960897 5.7549591 -1.8818887
0.030266471 5.7453971 -1.8787191
0.065486751 5.7422581 -1.8777682
0.10066964 5.7389035 -1.8768172
0.13599293 5.7429185 -1.8784021
0.17108724 5.737236 -1.8768172
0.20659322 5.7446084 -1.87967
0.24139939 5.7328091 -1.8761833
0.27638811 5.7274308 -1.8749154
0.31198892 5.7341504 -1.8777682
0.34785438 5.7434883 -1.8815719
0.38384613 5.7526021 -1.8853755
0.41872293 5.744463 -1.8834736
0.45396239 5.7417855 -1.8834736
0.4891043 5.737947 -1.8831567
0.5247339 5.7395601 -1.8847415
0.55902052 5.7267933 -1.8815719
0.5954212 5.7355189 -1.8856925
0.63018787 5.7279868 -1.8844246
0.66532224 5.7240119 -1.8844246
0.70054686 5.7207632 -1.8847415
0.73551458 5.7154164 -1.8844246
0.77031636 5.7089162 -1.8837906
0.80519861 5.7031426 -1.8834736
0.84003901 5.6971564 -1.8831567
0.87555641 5.6956449 -1.8844246
0.90943927 5.6836095 -1.8822057
0.94398504 5.6760511 -1.8815719
0.97847229 5.6682825 -1.8809379
1.0139018 5.6659069 -1.8822057
1.0477844 5.6549158 -1.880621
1.0817488 5.6446543 -1.879353
1.1176525 5.6444235 -1.8815719
1.1492273 5.6225915 -1.8765002
1.1831185 5.6126499 -1.8755493
1.217736 5.6062117 -1.8758663
1.2521122 5.5986342 -1.8758663
1.2896304 5.6047106 -1.880621
1.3253056 5.6022301 -1.8825227
1.3603271 5.5967574 -1.8834736
1.393265 5.5827837 -1.8815719
1.4281998 5.5768862 -1.8825227
1.4626329 5.5689354 -1.8828397
1.4972687 5.5616875 -1.8834736
1.5298538 5.5469098 -1.8815719
1.5641179 5.5383315 -1.8818887
1.598071 5.5286298 -1.8818887
1.6303506 5.5132632 -1.879987
1.6641487 5.5031557 -1.879987
1.6995642 5.4982777 -1.8818887
1.7335546 5.4886503 -1.8822057
1.767782 5.4797153 -1.8828397
1.797515 5.4570546 -1.8787191
1.8345913 5.4567103 -1.8825227
1.8661923 5.4399681 -1.880621
1.8998494 5.4293103 -1.8809379
1.9318525 5.4139776 -1.87967
1.9669806 5.4073701 -1.8815719
2.0027595 5.4023137 -1.8841076
2.0348647 5.3872614 -1.8831567
2.0712869 5.3835263 -1.8863264
2.1035888 5.3689494 -1.8856925
2.1400058 5.3647504 -1.8888623
2.167532 5.3383369 -1.8841076
2.198436 5.3205538 -1.8825227
2.2281008 5.2999697 -1.879987
2.260206 5.2853265 -1.87967
2.2937284 5.2739677 -1.880621
2.3225937 5.2519879 -1.8777682
2.3606083 5.2506137 -1.8825227
2.3919928 5.2343049 -1.8818887
2.4268608 5.2255511 -1.8841076
2.4580691 5.2088461 -1.8834736
2.4916236 5.1970868 -1.8847415
2.5201437 5.1748786 -1.8822057
2.553951 5.163569 -1.8837906
2.5868628 5.1503434 -1.8847415
2.6192777 5.1360641 -1.8853755
2.6516147 5.1215801 -1.8860095
2.6869607 5.1127701 -1.8888623
2.7191741 5.0978608 -1.8894962
2.7504027 5.08108 -1.8894962
2.783354 5.0674334 -1.8907641
2.8139331 5.0494313 -1.8904471
2.8406625 5.0246396 -1.8875943
2.8662503 4.998064 -1.8841076
2.891619 4.9713645 -1.880621
2.9215865 4.9527116 -1.880304
2.9494867 4.9306221 -1.8787191
2.9811604 4.9148641 -1.87967
3.0087774 4.8924403 -1.8780851
3.0457642 4.8851542 -1.8825227
3.076695 4.8679776 -1.8831567
3.1059949 4.8482089 -1.8828397
3.137234 4.8314462 -1.8837906
3.1678627 4.8136902 -1.8844246
3.1973393 4.7941618 -1.8844246
3.2298815 4.7791681 -1.8863264
3.259681 4.7600427 -1.8866434
3.2866642 4.736835 -1.8853755
3.3123949 4.7119236 -1.8834736
3.3406942 4.6907377 -1.8831567
3.3710775 4.6724591 -1.8841076
3.3985646 4.6501551 -1.8834736
3.4315476 4.6353126 -1.8860095
3.4627695 4.6179643 -1.8875943
3.4921868 4.5981407 -1.8882283
3.5220692 4.5788817 -1.8891792
3.5460188 4.5519471 -1.8869604
3.5691831 4.5241461 -1.8844246
3.5921402 4.4962325 -1.8818887
3.6226432 4.4777942 -1.8834736
3.6506512 4.4562154 -1.8837906
3.6809528 4.4373813 -1.8853755
3.7209196 4.4299641 -1.8920319
3.7412732 4.3991017 -1.8885453
3.7675762 4.3753443 -1.8882283
3.788743 4.3457098 -1.8853755
3.8172193 4.3245139 -1.8863264
3.8398905 4.2967672 -1.8844246
3.869364 4.2766418 -1.8860095
3.8955321 4.2528195 -1.8860095
3.9196191 4.2267504 -1.8850585
3.9402871 4.1970882 -1.8825227
3.9770727 4.1845202 -1.8879113
4.0072761 4.1648231 -1.8901302
4.0347409 4.1421947 -1.8910811
4.0567517 4.1139832 -1.8894962
4.0805783 4.0876713 -1.8888623
4.1049085 4.0618892 -1.8885453
4.1324673 4.0392776 -1.8898132
4.1585388 4.0151629 -1.8904471
4.1906462 3.9967718 -1.8939338
4.210259 3.9664304 -1.8917149
4.2435427 3.9489222 -1.8958356
4.2697878 3.9247355 -1.8967866
4.2846613 3.8901742 -1.8926659
4.3112745 3.8663437 -1.8939338
4.3356266 3.8404465 -1.8942508
4.3619647 3.8162694 -1.8955187
4.3874512 3.7912936 -1.8964696
4.413517 3.7667644 -1.8977375
4.4365463 3.7396126 -1.8977375
4.4637818 3.7159612 -1.8996394
4.4821033 3.6848879 -1.8977375
4.4972663 3.6513381 -1.8945677
4.5151463 3.6201146 -1.8926659
4.5432224 3.5970523 -1.8952017
4.5622191 3.566771 -1.8939338
4.5952792 3.547405 -1.8986884
4.6320448 3.530642 -1.9050279
4.6248255 3.4804802 -1.8929828
4.6902475 3.4848478 -1.9113673
4.6855412 3.4369287 -1.9005903
4.6927152 3.3981006 -1.8948847
4.7134771 3.3692427 -1.8948847
4.7247629 3.3336957 -1.8910811
4.7599158 3.3149419 -1.8971035
4.7864189 3.2899716 -1.8996394
4.8018064 3.2573457 -1.8977375
4.821703 3.2278211 -1.8977375
4.8461657 3.2013118 -1.8996394
4.8681006 3.17307 -1.9005903
4.8834901 3.1405747 -1.8990054
4.9090753 3.1146164 -1.9015411
4.9305053 3.0859458 -1.902492
4.9307866 3.044174 -1.8952017
4.9566631 3.018302 -1.8980545
4.9799681 2.9907618 -1.8999563
4.9990411 2.9606323 -1.9002733
5.022027 2.9327731 -1.9021751
5.045681 2.9052165 -1.9043939
5.0617623 2.8732655 -1.90376
5.0975051 2.8523431 -1.9107335
5.1049452 2.8155146 -1.9069297
5.1229582 2.7845912 -1.9072467
5.1315875 2.7486262 -1.9040769
5.1542273 2.7201867 -1.9062958
5.1615648 2.6836965 -1.902809
5.1711817 2.6485159 -1.9002733
5.1890287 2.6175907 -1.9009073
5.2100887 2.5882342 -1.902809
5.2386508 2.562469 -1.9075637
5.2602563 2.5331578 -1.9097825
5.2731295 2.499615 -1.9088316
5.2900867 2.4680147 -1.9094656
5.2913399 2.4291766 -1.9043939
5.3338041 2.4091589 -1.9145371
5.3467526 2.3756156 -1.9139031
5.3725262 2.3477015 -1.9180238
5.3685312 2.3068278 -1.9113673
5.4018049 2.2819648 -1.9183408
5.4174571 2.2495046 -1.9189748
5.4276452 2.2147877 -1.9177068
5.4384918 2.1803837 -1.9167559
5.4482384 2.1455824 -1.915488
5.4595318 2.1114278 -1.914854
5.4697247 2.0768788 -1.9139031
5.4814763 2.0429468 -1.9135861
5.5001435 2.0115554 -1.915805
5.5114899 1.9774491 -1.915488
5.5270982 1.9448534 -1.9167559
5.539824 1.9112126 -1.9170729
5.5568371 1.8790081 -1.9189748
5.5601592 1.8421915 -1.916122
5.5758686 1.8095044 -1.9177068
5.5895782 1.7761192 -1.9186578
5.5940318 1.7398167 -1.9164389
5.6046019 1.7054596 -1.9164389
5.6176877 1.6718501 -1.9173899
5.624198 1.6362891 -1.916122
5.6332197 1.6014894 -1.915805
5.64294 1.5668945 -1.915805
5.6551943 1.5329852 -1.9167559
5.6626606 1.4977715 -1.916122
5.6680703 1.4620501 -1.914854
5.6787744 1.4277066 -1.915488
5.7049303 1.3971231 -1.9215105
5.7180085 1.363192 -1.9230953
5.7225695 1.3272239 -1.9218274
5.7352314 1.2931293 -1.9234123
5.7486167 1.2591321 -1.9253142
5.7627282 1.2252167 -1.927533
5.7766399 1.1911755 -1.9297519
5.78477 1.1558942 -1.9300689
5.7954783 1.1210985 -1.9313366
5.802248 1.0855169 -1.9313366
5.8087993 1.0498946 -1.9313366
5.805789 1.0126026 -1.928167
5.8175044 0.97790354 -1.9300689
5.8290129 0.94309884 -1.9319706
0 0 -0
5.840147 0.87149686 -1.9319706
0 0 -0
0 0 -0
0 0 -0
5.8522463 0.72697413 -1.9294349
5.8575387 0.69116294 -1.9297519
5.8644972 0.65552503 -1.9307027
5.8721814 0.61992741 -1.9319706
0 0 -0
0 0 -0
5.8816528 0.51165241 -1.9316536
5.8875175 0.47578305 -1.9326046
0 0 -0
0 0 -0
0 0 -0
0 0 -0
0 0 -0
0 0 -0
0 0 -0
0 0 -0
0 0 -0
0 0 -0
0 0 -0
0 0 -0
0 0 -0
0 -0 -0
0 -0 -0
0 -0 -0
0 -0 -0
0 -0 -0
0 -0 -0
5.905272 -0.2486494 -1.9338725
0 -0 -0
0 -0 -0
0 -0 -0
5.9087472 -0.39425409 -1.9376762
5.9147301 -0.431122 -1.9405289
5.9119735 -0.46740597 -1.9405289
0 -0 -0
0 -0 -0
5.9193597 -0.57780427 -1.9462345
5.9119296 -0.61372244 -1.9449666
5.8967395 -0.64874196 -1.9411628
0 -0 -0
0 -0 -0
0 -0 -0
5.8555446 -0.7900908 -1.9332385
5.8787603 -0.82998061 -1.9427477
5.8895078 -0.86838722 -1.9481363
5.8634453 -0.90133935 -1.9411628
5.8615503 -0.93789899 -1.9424307
5.851943 -0.973225 -1.9411628
5.841188 -1.0083072 -1.9395781
5.835825 -1.044296 -1.939895
5.8227792 -1.0788752 -1.9376762
5.7648172 -1.1047683 -1.9202427
5.7346706 -1.1355158 -1.9123182
5.5733418 -1.1391646 -1.8597007
5.4715858 -1.1533933 -1.8273693
5.3948932 -1.1718507 -1.8035964
5.3107777 -1.1877555 -1.7772875
5.2608724 -1.2105393 -1.7627068
5.1915059 -1.2281721 -1.7414695
5.13134 -1.247239 -1.723402
5.105186 -1.2741091 -1.7170625
5.0632768 -1.2967064 -1.7053345
5.0671501 -1.3308809 -1.7094551
5.0927749 -1.3710673 -1.7211832
5.0696373 -1.3982565 -1.7161117
5.0527477 -1.4270176 -1.7132589
5.0238514 -1.4522011 -1.7062855
4.9993844 -1.4784285 -1.7008969
4.9784164 -1.5055082 -1.6967763
4.9835835 -1.5405073 -1.7018478
4.9686108 -1.5693436 -1.6999459
4.9579854 -1.5995097 -1.6996289
4.9489784 -1.6301979 -1.6999459
4.9343877 -1.6590227 -1.698361
4.9124522 -1.6852682 -1.6942405
4.904705 -1.7163184 -1.6951914
4.8931885 -1.746062 -1.6948744
4.8841653 -1.7767016 -1.6955084
4.8722825 -1.8063071 -1.6951914
4.8646564 -1.8375092 -1.6964593
4.8524051 -1.8669831 -1.6961423
4.8479228 -1.8994892 -1.698678
4.8264856 -1.9253349 -1.6951914
4.804915 -1.9509892 -1.6917046
4.7946062 -1.9811592 -1.6923386
4.7858572 -2.0120111 -1.6936065
4.7699337 -2.0398471 -1.6923386
4.7608066 -2.0705893 -1.6936065
4.74194 -2.0970774 -1.6913877
4.7099519 -2.1175792 -1.6844143
4.6960073 -2.146045 -1.6840973
4.6801705 -2.1736205 -1.6831464
4.6607409 -2.1994636 -1.6809275
4.6497235 -2.22925 -1.6818784
4.6206083 -2.2502644 -1.676173
4.5761085 -2.2634385 -1.6647619
4.5672193 -2.294028 -1.6666638
4.5581269 -2.3245938 -1.6685655
4.5412512 -2.3512101 -1.6676147
4.530097 -2.3807952 -1.6688825
4.5170774 -2.4094391 -1.6695164
4.4980378 -2.4348528 -1.6679317
4.4938202 -2.4683414 -1.6720523
4.4744477 -2.4935603 -1.6704674
4.4590631 -2.5209682 -1.6704674
4.4558525 -2.5553575 -1.675222
4.4113941 -2.5659618 -1.6641279
4.3947496 -2.5924995 -1.663811
4.386899 -2.6242847 -1.6669807
4.3853116 -2.6600053 -1.6726862
4.3777943 -2.6923277 -1.676173
4.3644118 -2.7211456 -1.6774409
4.3532453 -2.7514205 -1.6796596
4.3346834 -2.7770565 -1.6790257
4.3127894 -2.8005025 -1.6771239
4.3026552 -2.8316047 -1.6799766
4.2875671 -2.8595304 -1.6809275
4.2746558 -2.8889709 -1.6828294
4.245893 -2.9076436 -1.6783917
4.2014771 -2.9152603 -1.6676147
4.209116 -2.9589829 -1.6780747
4.1939712 -2.9869545 -1.6793426
4.1701803 -3.0087478 -1.6771239
4.1256042 -3.0152533 -1.6663468
4.1260834 -3.0546174 -1.6742711
4.1027098 -3.0764635 -1.6723692
4.0830007 -3.1010058 -1.6720523
4.0638962 -3.1260002 -1.6720523
4.0446391 -3.150877 -1.6720523
4.0237403 -3.1744604 -1.6714183
4.0160427 -3.2085609 -1.6764899
3.9955425 -3.2325459 -1.676173
3.9793012 -3.2600062 -1.6777579
3.9592233 -3.2843614 -1.6777579
3.9324598 -3.3031034 -1.6749051
3.9056156 -3.3216407 -1.6720523
3.8945045 -3.3535872 -1.676173
3.8767138 -3.3799133 -1.6774409
3.8573241 -3.4048917 -1.6780747
3.8427246 -3.4341834 -1.6809275
3.8089204 -3.4462442 -1.675222
2.4091394 -2.2069798 -1.050467
2.3962479 -2.2223654 -1.050784
2.3839495 -2.2383249 -1.0514179
3.7300732 -3.5452154 -1.6783917
3.6877453 -3.5483096 -1.6688825
3.6733778 -3.5781493 -1.6723692
3.6587825 -3.6079462 -1.675856
3.6352332 -3.628988 -1.675222
3.5948846 -3.6330237 -1.6666638
3.5665581 -3.6489093 -1.663811
3.5460782 -3.6727715 -1.6647619
3.5097287 -3.6800487 -1.6581055
3.4948871 -3.7097981 -1.6619091
3.4707661 -3.729784 -1.6612751
3.4356194 -3.7377439 -1.6552527
3.4247346 -3.7720947 -1.6612751
3.3964586 -3.7873893 -1.6587393
3.3662376 -3.800349 -1.6552527
3.3453541 -3.8237875 -1.6565206
3.3298907 -3.8535707 -1.6606412
3.3067989 -3.8746514 -1.6609582
3.2829621 -3.8948686 -1.6609582
3.2626431 -3.9193125 -1.66286
3.2433522 -3.9451184 -1.6653959
3.2125077 -3.9568462 -1.6619091
3.1852019 -3.9727836 -1.6603242
3.1584103 -3.9892786 -1.6590563
2.0010939 -2.559865 -1.0444446
1.9847696 -2.5713446 -1.0441276
1.9649297 -2.5781946 -1.0419087
1.9445103 -2.5841405 -1.0393729
1.9286178 -2.5960231 -1.0393729
1.8739426 -2.5550427 -1.0175017
1.6968995 -2.3437312 -0.92557943
1.6692486 -2.335582 -0.91797203
1.6636357 -2.3581789 -0.92304361
0 -0 -0
2.8837781 -4.1955557 -1.6600072
2.8579803 -4.213171 -1.6600072
2.8426282 -4.2463899 -1.6663468
2.8044946 -4.2455516 -1.6590563
2.783571 -4.2706251 -1.6622261
2.7542362 -4.2828383 -1.6603242
2.7258728 -4.296454 -1.6590563
2.7039881 -4.320334 -1.6619091
2.6819127 -4.3441072 -1.6647619
2.6581674 -4.3653412 -1.6666638
2.6352389 -4.3880734 -1.6691995
2.6159983 -4.4172168 -1.6742711
2.5893238 -4.4340043 -1.6745881
2.5573354 -4.4415898 -1.6714183
2.5309708 -4.458847 -1.6720523
2.5026379 -4.4726377 -1.6714183
2.475147 -4.4879093 -1.6714183
2.4448452 -4.4980125 -1.6695164
2.4176478 -4.5137653 -1.6698334
2.3876927 -4.5243206 -1.6682485
2.3585742 -4.5363617 -1.6672977
2.3263712 -4.5423069 -1.6641279
2.2988834 -4.5573425 -1.6644449
2.2696109 -4.5688143 -1.663494
2.2432017 -4.5860624 -1.6647619
2.2121389 -4.5937586 -1.6625431
1.4732707 -3.1083636 -1.1081562
1.4541703 -3.1173449 -1.1081562
1.4354111 -3.1270707 -1.1084732
2.1006885 -4.6509852 -1.6641279
2.0759625 -4.6724544 -1.6672977
2.0407968 -4.6703305 -1.6619091
2.0064843 -4.6696939 -1.6571546
1.9733642 -4.6714339 -1.6533508
1.942481 -4.6781988 -1.651449
1.9115893 -4.684761 -1.6495471
1.8842201 -4.6999235 -1.650815
1.8591698 -4.7211032 -1.6543018
1.8318776 -4.7368445 -1.6558867
1.8128804 -4.7745953 -1.6653959
1.7825559 -4.7829628 -1.6644449
1.7486131 -4.7813401 -1.6600072
1.7153982 -4.7812672 -1.6562036
1.6838245 -4.7854404 -1.6539848
1.6516455 -4.7876129 -1.651132
1.6207188 -4.7931647 -1.6495471
1.5873995 -4.7913156 -1.6454265
1.5617774 -4.8126926 -1.6495471
1.531356 -4.8194733 -1.6485963
1.5124611 -4.8631926 -1.6606412
1.4756885 -4.8496981 -1.6527169
1.441574 -4.8441172 -1.6476454
1.415799 -4.8665309 -1.6523999
1.3866901 -4.8778634 -1.6533508
1.3582569 -4.8917632 -1.6552527
1.3334284 -4.9192281 -1.6619091
1.3061305 -4.9383202 -1.6657128
1.2743832 -4.940731 -1.663811
1.242193 -4.9410992 -1.6612751
1.2129799 -4.9532342 -1.66286
1.1808045 -4.9532032 -1.6603242
1.1488897 -4.9538879 -1.6581055
0.73096913 -3.2427588 -1.0694854
0.7090283 -3.2379181 -1.0663157
0.69644761 -3.2765322 -1.0780437
0.6638757 -3.2203667 -1.0574404
0.64038533 -3.2057788 -1.051101
0.62520778 -3.2329268 -1.0590253
0.60256755 -3.2217863 -1.0539538
0.57620633 -3.189024 -1.0415918
0.55255246 -3.1691415 -1.0336674
0.53042269 -3.1565723 -1.0282788
0.51286286 -3.1710024 -1.0320826
0.49397951 -3.1778383 -1.0333505
0.48105344 -3.2248971 -1.0482482
0.46259966 -3.2371769 -1.0514179
0.43771562 -3.2033067 -1.0390559
0.41768399 -3.2031109 -1.038105
0.39708635 -3.1980839 -1.0355693
0.37756702 -3.2014019 -1.0358863
0.35770562 -3.2017734 -1.0352523
0.33894992 -3.2123966 -1.038105
0.3191388 -3.2134721 -1.037788
0.30091223 -3.2314236 -1.0431767
0.28445157 -3.2719483 -1.0561726
0.26574621 -3.2906485 -1.0618781
0.26893812 -3.6052763 -1.1667963
0.24493073 -3.5794184 -1.1576041
0.20542635 -3.2997153 -1.063463
0.18395135 -3.279134 -1.0561726
0.16212015 -3.2461002 -1.0447615
0.14145038 -3.2299786 -1.0390559
0.12109196 -3.2165692 -1.0343014
0.1013232 -3.2163036 -1.0339844
0.081175618 -3.2007468 -1.0285958
0.061351202 -3.1917019 -1.0254261
0.041703492 -3.1872766 -1.0238413
0.022226455 -3.1988535 -1.0276449
0.0026009101 -3.2017748 -1.0285958
-0.017079368 -3.2083695 -1.0308146
-0.03677598 -3.2091527 -1.0311316
-0.056085214 -3.1870558 -1.0238413
-0.076109678 -3.2065635 -1.0304977
-0.095614128 -3.2003479 -1.0285958
-0.11514723 -3.1968575 -1.0276449
-0.13535814 -3.2103047 -1.0323995
-0.15582968 -3.2255185 -1.037788
-0.17644154 -3.2396543 -1.0428597
-0.19614454 -3.2356706 -1.0419087
-0.21599455 -3.234406 -1.0419087
-0.23542312 -3.2273443 -1.0400069
-0.25454912 -3.2173295 -1.0371541
-0.27396354 -3.2119272 -1.0358863
-0.29358011 -3.2092412 -1.0355693
-0.31612054 -3.2366419 -1.0453955
-0.33264673 -3.2025666 -1.0346184
-0.35032162 -3.1825531 -1.0285958
-0.36995226 -3.1812856 -1.0289128
-0.38911963 -3.1761315 -1.0279619
-0.40932664 -3.1793282 -1.0298637
-0.43022126 -3.1870961 -1.0333505
-0.45188922 -3.1994224 -1.038422
-0.47330967 -3.2087872 -1.0425427
-0.49731067 -3.2339456 -1.0520519
-0.52298617 -3.2673581 -1.0644139
-0.54644614 -3.2846706 -1.0713873
-0.56481624 -3.2709751 -1.0679005
-0.58504295 -3.2683814 -1.0682175
-0.60042274 -3.2395506 -1.0596592
-0.61547095 -3.2106552 -1.051101
-0.64639318 -3.2635717 -1.0704364
-0.65938097 -3.2251623 -1.0587083
-0.67368209 -3.1950703 -1.0498331
-0.69911027 -3.2177546 -1.0590253
-0.72608358 -3.2457998 -1.0701194
-0.75257671 -3.2699368 -1.0799456
-0.78899729 -3.3344808 -1.1037186
-0.81951964 -3.3710494 -1.1179824
-0.84500992 -3.3852823 -1.1246388
-0.85894406 -3.3533885 -1.1154466
-0.82651401 -3.1462402 -1.0457125
-0.81918281 -3.0421984 -1.0114793
-0.82850623 -3.0032849 -0.99975127
-0.84408367 -2.9881046 -0.99626452
-0.87267125 -3.018404 -1.0086265
-0.9298954 -3.1439636 -1.0542707
-0.96426439 -3.1881306 -1.0717043
-0.99556953 -3.2202122 -1.0850172
-1.0201646 -3.229418 -1.0904057
-1.0431631 -3.2330267 -1.0938925
-1.0677276 -3.2409787 -1.098964
-1.071578 -3.1867187 -1.0821644
-1.0824957 -3.154964 -1.0732892
-1.088993 -3.111558 -1.0602932
-1.1039218 -3.0932047 -1.0561726
-1.1202873 -3.0792425 -1.0536368
-1.1441044 -3.0856502 -1.0583913
-1.4280553 -3.7804065 -1.3091174
-1.3228536 -3.4378517 -1.1896185
-1.3411555 -3.4226053 -1.1870826
-1.3508879 -3.386121 -1.1769395
-1.3559427 -3.339102 -1.1629927
-1.3521429 -3.2719884 -1.1417555
-1.438344 -3.4210114 -1.1988107
-1.3877192 -3.2446842 -1.1379517
-1.4011726 -3.2213223 -1.1325632
-1.4170766 -3.20399 -1.1293935
-1.42971 -3.1796637 -1.123688
-1.8953675 -4.1473579 -1.4825021
-1.4710183 -3.1670408 -1.1255897
-1.532917 -3.2480192 -1.158872
-1.6434186 -3.4275637 -1.2289232
-1.5423503 -3.1667147 -1.1357329
-1.5403103 -3.1138332 -1.1195673
-1.5406595 -3.0670307 -1.1056204
-1.5465248 -3.0321715 -1.0961112
-1.5332727 -2.961139 -1.0729722
-1.532002 -2.9147334 -1.0590253
-1.5503039 -2.9061151 -1.0593423
-1.5581748 -2.8781974 -1.0523689
-1.5730666 -2.8635945 -1.050467
-1.593839 -2.859688 -1.0526859
-1.6160228 -2.8581111 -1.0558556
-1.6297554 -2.8415594 -1.0533198
-1.6538354 -2.8429842 -1.0577574
-1.6741395 -2.8376844 -1.0596592
-1.6866513 -2.8192191 -1.0564895
-1.6945735 -2.7934089 -1.050467
-1.740495 -2.829818 -1.0688515
-1.7442789 -2.7973542 -1.0602932
-1.744184 -2.7593389 -1.0495161
-1.7595475 -2.7461889 -1.0485651
-1.7686177 -2.7234085 -1.0438106
-1.7868589 -2.7148821 -1.0447615
-1.8097976 -2.713336 -1.0485651
-1.8327845 -2.7116103 -1.0523689
-1.8595688 -2.7151825 -1.0583913
-1.8686252 -2.6928115 -1.0539538
-1.8883852 -2.6859508 -1.0558556
-1.9070308 -2.6774035 -1.0571234
-1.9084417 -2.6448839 -1.0485651
-1.9307898 -2.6415474 -1.0520519
-1.9300337 -2.606781 -1.0425427
-1.9454234 -2.5941308 -1.0422257
-1.9716284 -2.595741 -1.0479312
-1.9771109 -2.5700619 -1.0422257
-1.9928433 -2.5578823 -1.0422257
-1.9949907 -2.5284793 -1.0349354
-2.0335534 -2.5450909 -1.0472972
-2.0449562 -2.5274038 -1.0450785
-2.0580215 -2.5118737 -1.0438106
-2.0836885 -2.5116088 -1.0491991
-2.1002803 -2.5002289 -1.0498331
-2.123569 -2.4966877 -1.0539538
-2.1394672 -2.4843292 -1.0542707
-2.1665115 -2.4847388 -1.0602932
-2.1760685 -2.4649987 -1.0574404
-2.1993678 -2.4607942 -1.0615611
-2.2106078 -2.4430327 -1.0596592
-2.2281187 -2.4322205 -1.0609272
-2.241066 -2.4164166 -1.0599762
-2.2552016 -2.4019287 -1.0596592
-2.2516036 -2.3687954 -1.050784
-2.2503147 -2.3385315 -1.0431767
-2.2593277 -2.3192441 -1.0406408
-2.271518 -2.3033116 -1.0396899
-2.2902982 -2.2940292 -1.0419087
-2.3009603 -2.2765973 -1.0403239
-2.3230245 -2.2703922 -1.0441276
-2.3423696 -2.2613661 -1.0466633
-2.3706131 -2.2606983 -1.0533198
-2.3885815 -2.2500124 -1.0552217
-2.4058137 -2.2385447 -1.0568064
-2.4341664 -2.2372203 -1.063463
-2.4373159 -2.2126787 -1.0587083
-2.4494345 -2.1964154 -1.0580744
-2.4621556 -2.1807156 -1.0577574
-2.4690659 -2.159946 -1.0549047
-2.472944 -2.1366935 -1.050784
-2.489615 -2.1245582 -1.0523689
-2.5047796 -2.1110761 -1.0533198
-2.5184145 -2.0962741 -1.0536368
-2.5348926 -2.0837939 -1.0552217
-2.5542572 -2.0735817 -1.0580744
-2.5691521 -2.0596499 -1.0590253
-2.5906641 -2.0509126 -1.062829
-2.6233726 -2.0507514 -1.0713873
-2.6561756 -2.0502658 -1.0799456
-2.6822824 -2.0442791 -1.085651
-2.6879554 -2.0226493 -1.0827984
-2.6965094 -2.0032897 -1.0812135
-2.694221 -1.9760472 -1.075191
-2.7055268 -1.9589223 -1.074874
-2.7282972 -1.9500068 -1.0793116
-2.7262626 -1.9233865 -1.0736061
-2.7403476 -1.9082484 -1.0745571
-2.7652915 -1.900532 -1.0799456
-2.7721918 -1.8803338 -1.0780437
-2.7773724 -1.8590673 -1.075508
-2.8148406 -1.8592435 -1.085968
-2.8285792 -1.8434908 -1.086919
-2.8518026 -1.8337963 -1.0916736
-2.8654034 -1.817788 -1.0926245
-2.8588171 -1.7891006 -1.085651
-2.8568292 -1.7635529 -1.0805795
-2.8659763 -1.7450038 -1.0799456
-2.8758163 -1.7268974 -1.0796286
-2.8969667 -1.7155029 -1.0837493
-2.9238176 -1.7072619 -1.0900887
-2.9465666 -1.6963892 -1.0948434
-2.9725909 -1.6871743 -1.1008658
-3.0052335 -1.6814091 -1.1094241
-3.0329335 -1.6725577 -1.1160805
-3.07147 -1.6693183 -1.1268576
-3.1318164 -1.6773131 -1.145876
-3.167212 -1.6713471 -1.1553853
-3.2169559 -1.6724483 -1.1702831
-3.2499487 -1.664353 -1.1788414
-3.2804222 -1.6546336 -1.1864487
-3.3075006 -1.6429147 -1.1927881
-3.3226306 -1.62509 -1.19469
-3.3778272 -1.626485 -1.2114897
-3.6182749 -1.7150264 -1.2967556
-3.6682656 -1.7112409 -1.3113363
-3.7019682 -1.6993862 -1.3198946
-4.037313 -1.8234557 -1.4390767
-4.2564349 -1.8910868 -1.5151503
-4.0472188 -1.7684567 -1.4346391
-4.1738853 -1.7933977 -1.4767965
-4.1236558 -1.7419137 -1.4546083
-4.1351418 -1.7169424 -1.4549253
-4.1359401 -1.687595 -1.4514387
-4.1779075 -1.6748935 -1.4628497
-4.2207565 -1.6620876 -1.4745777
-4.3732896 -1.691247 -1.5256104
-4.447423 -1.6886259 -1.5484326
-4.4985805 -1.6765444 -1.5630133
-4.5435205 -1.6616174 -1.5753753
-4.6741443 -1.6769556 -1.6181668
-4.7711258 -1.6787865 -1.6489131
-4.890717 -1.6872238 -1.6875839
-4.9692588 -1.6802773 -1.711674
-5.0433955 -1.6709378 -1.7341791
-5.0887351 -1.6513807 -1.746541
-5.1909676 -1.6494284 -1.7788724
-5.2163863 -1.6223356 -1.784261
-5.2988296 -1.6123912 -1.8096188
-5.4222498 -1.6136723 -1.8492405
-5.5176511 -1.6052827 -1.8790361
-5.5967288 -1.5911126 -1.903126
-5.6374574 -1.5653716 -1.9139031
-5.6689253 -1.5367082 -1.9215105
-5.6975021 -1.5069897 -1.928167
-5.7130699 -1.4736608 -1.9303857
-5.7220049 -1.4385784 -1.9303857
-5.7325664 -1.403893 -1.9310197
-5.7189312 -1.363412 -1.9234123
-5.7484388 -1.3332256 -1.9307027
-5.7629871 -1.2993894 -1.9329215
-5.7801166 -1.2660338 -1.9360913
-5.7924142 -1.2315304 -1.9376762
-5.7868576 -1.1932831 -1.9332385
-5.8219714 -1.1633303 -1.9427477
-5.816895 -1.1252429 -1.9386271
-5.8292832 -1.0905768 -1.9405289
-5.8498645 -1.0573198 -1.9452835
-5.8422275 -1.0189604 -1.9405289
-5.8175044 -0.97790354 -1.9300689
-5.8290129 -0.94309884 -1.9319706
-5.8478103 -0.90935612 -1.9364083
-5.861722 -0.87471789 -1.9392611
-5.8651013 -0.83846599 -1.9386271
-0 -0 -0
-0 -0 -0
-0 -0 -0
-0 -0 -0
-0 -0 -0
-0 -0 -0
-0 -0 -0
-0 -0 -0
-0 -0 -0
-0 -0 -0
-0 -0 -0
-0 -0 -0
-0 -0 -0
-0 -0 -0
-0 -0 -0
-0 -0 -0
-0 -0 -0
-0 -0 -0
-0 0 -0
-0 0 -0
-0 0 -0
-0 0 -0
-0 0 -0
-0 0 -0
-0 0 -0
-0 0 -0
-0 0 -0
-0 0 -0
-0 0 -0
-0 0 -0
-0 0 -0
-0 0 -0
-0 0 -0
-0 0 -0
-0 0 -0
-0 0 -0
-0 0 -0
-5.6079779 1.0756737 -1.9356985
-5.5845881 1.1067535 -1.9298086
-5.575841 1.1406199 -1.9291542
-5.5641141 1.1738349 -1.9275181
-5.5503435 1.2065471 -1.9252275
-5.546524 1.241407 -1.9265364
-5.5378819 1.2752043 -1.9262092
-5.53547 1.3104674 -1.9281725
-5.5208979 1.3428431 -1.925882
-5.5061374 1.3750894 -1.9235915
-5.4948502 1.4081442 -1.9226098
-5.478796 1.4399104 -1.9199921
-5.4643831 1.4720248 -1.9180288
-5.4616241 1.5072869 -1.9203193
-5.4577284 1.5423133 -1.9222826
-5.4463468 1.5752468 -1.9216281
-5.4374852 1.6089036 -1.9219553
-5.4302239 1.6430587 -1.922937
-5.4173317 1.6755087 -1.9219553
-5.4051471 1.7081475 -1.921301
-5.3972621 1.7421521 -1.9222826
-5.3828812 1.7740524 -1.9209738
-5.3665209 1.805239 -1.9190104
-5.3535557 1.8375194 -1.9183559
-5.3279114 1.8653347 -1.9131205
-5.3252645 1.90117 -1.9163927
-5.3179383 1.9354262 -1.9180288
-5.3050766 1.9676913 -1.9177016
-5.2955551 2.0012083 -1.9186832
-5.2893486 2.036041 -1.9209738
-5.2749968 2.0677674 -1.9203193
-5.2613325 2.0997448 -1.9199921
-5.2448478 2.1305649 -1.9186832
-5.2351689 2.1641512 -1.9199921
-5.21134 2.1918347 -1.9160655
-5.1951866 2.2226539 -1.9150838
-5.1883821 2.2575066 -1.9177016
-5.1597438 2.2827971 -1.9121388
-5.1404691 2.3120868 -1.9101756
-5.1107183 2.3365092 -1.9042857
-5.1519828 2.3937161 -1.9255548
-5.1055846 2.4103503 -1.9134477
-5.1068854 2.4493999 -1.9196649
-5.0841155 2.4769626 -1.9167199
-5.0722089 2.5097885 -1.9180288
-5.0524921 2.5387416 -1.9163927
-5.0107288 2.5563774 -1.9062489
-4.9991441 2.5892484 -1.9078851
-4.9697814 2.6128354 -1.9026495
-4.9628253 2.6481755 -1.9062489
-4.9506373 2.6808276 -1.9078851
-4.9349232 2.7116089 -1.9082122
-4.9190173 2.7422984 -1.9085394
-4.907855 2.7756865 -1.91083
-4.891551 2.8062189 -1.9111573
-4.8783236 2.838557 -1.9127933
-4.8591871 2.8674755 -1.9121388
-4.8463659 2.9001493 -1.9141022
-4.8163633 2.9224761 -1.9091939
-4.7983403 2.9519737 -1.9091939
-4.772922 2.9768581 -1.9062489
-4.7593579 3.009119 -1.9082122
-4.7336454 3.033675 -1.9052672
-4.7062263 3.056999 -1.9016678
-4.7015853 3.0951741 -1.9075578
-4.6840773 3.1250134 -1.9082122
-4.6648145 3.1536953 -1.9082122
-4.6500525 3.1854639 -1.9101756
-4.6381812 3.2193258 -1.9134477
-4.6160216 3.2460935 -1.912466
-4.599865 3.2770979 -1.9141022
-4.5750737 3.3019416 -1.9121388
-4.5471001 3.324373 -1.9088666
-4.5364871 3.3595238 -1.9131205
-4.5104971 3.3833256 -1.91083
-4.4904051 3.4115095 -1.9111573
-4.472383 3.4413037 -1.912466
-4.4452214 3.4640329 -1.9098483
-4.4290743 3.495342 -1.9121388
-4.406806 3.5218623 -1.9118116
-4.3851132 3.5488358 -1.9118116
-4.361794 3.5744772 -1.9111573
-4.336144 3.5981555 -1.9095211
-4.313261 3.6240859 -1.9091939
-4.2779903 3.6394591 -1.903304
-4.2555785 3.6656399 -1.903304
-4.2344303 3.6929252 -1.9039584
-4.2138157 3.7207143 -1.90494
-4.1916108 3.7471297 -1.9052672
-4.1601343 3.7651677 -1.9013406
-4.1564574 3.8085015 -1.9105028
-4.1357813 3.8365045 -1.9118116
-4.1018329 3.8521035 -1.9069034
-4.0849667 3.8837118 -1.9101756
-4.0644631 3.9119806 -1.9118116
-4.0329399 3.9295907 -1.9082122
-4.0013537 3.9469614 -1.9046128
-3.9743865 3.9687674 -1.903304
-3.9539461 3.9971108 -1.9052672
-3.9260445 4.0179167 -1.9036312
-3.9045978 4.045331 -1.9052672
-3.8816583 4.0712647 -1.9062489
-3.855309 4.0936298 -1.9055945
-3.8314054 4.1185923 -1.9062489
-3.8022268 4.1378484 -1.9042857
-3.7710512 4.1548018 -1.9013406
-3.745487 4.1778622 -1.9013406
-3.7272971 4.2092566 -1.9052672
-3.7013996 4.2320476 -1.9052672
-3.6796854 4.2596855 -1.9075578
-3.6571584 4.2864976 -1.9095211
-3.6234829 4.3001838 -1.9055945
-3.6000509 4.3259687 -1.9072306
-3.5758388 4.3508973 -1.9085394
-3.5449076 4.3676195 -1.9062489
-3.5174508 4.3885508 -1.9059217
-3.4881117 4.4070868 -1.9046128
-3.4569325 4.4231939 -1.9023223
-3.4233785 4.4360914 -1.8987229
-3.3892241 4.4479928 -1.8947963
-3.3675473 4.4762573 -1.8980684
-3.3495939 4.5097337 -1.9036312
-3.321301 4.5294394 -1.903304
-3.2984316 4.5566235 -1.9062489
-3.2599754 4.5621667 -1.9000318
-3.2281096 4.5766773 -1.8977413
-3.2069836 4.6064816 -1.9019951
-3.1695638 4.6128311 -1.8964324
-3.1475625 4.6415787 -1.900359
-3.1237516 4.6678729 -1.903304
-3.0877635 4.6759109 -1.8987229
-3.0564361 4.6908102 -1.8970869
-3.0418997 4.7317352 -1.9062489
-3.0077496 4.7423296 -1.9029768
-2.9780934 4.7598944 -1.9026495
-2.9423816 4.7676229 -1.8983957
-2.9174933 4.7928529 -1.9013406
-2.8846266 4.8049922 -1.8990501
-2.8555706 4.8234148 -1.8993773
-2.8302069 4.8481908 -1.9023223
-2.7994633 4.8638272 -1.9016678
-2.7667696 4.8759813 -1.8997046
-2.7363379 4.8920412 -1.8993773
-2.7076375 4.911222 -1.900359
-2.6747463 4.9227605 -1.8983957
-2.645828 4.9415793 -1.8993773
-2.6128128 4.9527059 -1.8974141
-2.5823743 4.9686441 -1.8974141
-2.5496864 4.9801898 -1.8957779
-2.5199311 4.9974284 -1.8964324
-2.4879596 5.0102572 -1.8954507
-2.4546812 5.0203347 -1.8934875
-2.4242404 5.0361533 -1.8938147
-2.3920801 5.0483713 -1.892833
-2.3642526 5.0698056 -1.8954507
-2.3338881 5.0859346 -1.8961052
-2.3014715 5.0975757 -1.8951235
-2.2678499 5.1064191 -1.8931602
-2.2398772 5.1280322 -1.8961052
-2.2076247 5.1399426 -1.8954507
-2.1712687 5.1420741 -1.8911968
-2.141849 5.1605368 -1.8931602
-2.1140678 5.1832075 -1.8967596
-2.0790627 5.1881866 -1.8938147
-2.0451138 5.1955695 -1.8918513
-2.0135365 5.2089019 -1.8921785
-1.9798617 5.2167411 -1.8905425
-1.951112 5.2376466 -1.8938147
-1.9131013 5.2335434 -1.8879247
-1.8844596 5.2549686 -1.8915241
-1.8430938 5.2405791 -1.8820348
-1.8195233 5.2768049 -1.8911968
-1.7868088 5.2869744 -1.8908697
-1.7570066 5.3059125 -1.8938147
-1.7203382 5.304009 -1.8892336
-1.6877611 5.3144646 -1.8892336
-1.6475521 5.3003554 -1.8803988
-1.6152736 5.3112688 -1.880726
-1.59073 5.3482537 -1.8905425
-1.5578837 5.3579135 -1.8905425
-1.5231724 5.3610086 -1.8882519
-1.4927741 5.3793597 -1.8915241
-1.4567761 5.3774724 -1.8875976
-1.4230293 5.3835688 -1.8866159
-1.392562 5.4022651 -1.8902153
-1.3568574 5.4006262 -1.8866159
-1.31943 5.3914099 -1.8803988
-1.28523 5.3948078 -1.8787626
-1.2516776 5.4007511 -1.8781081
-1.2220433 5.4240017 -1.8836709
-1.1879319 5.4277053 -1.882362
-1.1577445 5.4496818 -1.8875976
-1.1233315 5.4520555 -1.8859614
-1.0933688 5.4764524 -1.8921785
-1.0570583 5.469141 -1.8872703
-1.0246944 5.4820266 -1.8895608
-0.99103808 5.4882107 -1.8895608
-0.95604831 5.4867406 -1.8869431
-0.92220795 5.4915714 -1.8866159
-0.88804322 5.494328 -1.8856342
-0.85416907 5.4987397 -1.885307
-0.82013512 5.502008 -1.8846525
-0.78595984 5.5041304 -1.8836709
-0.75242764 5.5107217 -1.8843254
-0.71799088 5.5105495 -1.8826892
-0.68381679 5.5120378 -1.8817075
-0.65130734 5.5273919 -1.8856342
-0.61465937 5.5068665 -1.8771266
-0.58323097 5.5330887 -1.8849797
-0.54982817 5.5422053 -1.8869431
-0.5158115 5.5454745 -1.8869431
-0.48202002 5.5513592 -1.8879247
-0.44878191 5.5645733 -1.8915241
-0.41441989 5.5643954 -1.8905425
-0.3801412 5.5649481 -1.889888
-0.3457545 5.5634031 -1.8885791
-0.3114537 5.5625892 -1.8875976
-0.27745694 5.5672269 -1.8885791
-0.24329187 5.5688248 -1.8885791
-0.2089766 5.5664353 -1.8872703
-0.17446414 5.5562792 -1.8833437
-0.14039183 5.5581899 -1.8836709
-0.10667786 5.5797315 -1.8908697
-0.072439261 5.5802813 -1.8908697
-0.038279474 5.5929046 -1.8951235
-0.0039613368 5.5930343 -1.8951235
0.030351628 5.5920086 -1.8947963
0.064551756 5.5822682 -1.8915241
0.098718099 5.5770431 -1.889888
0.13277732 5.5697193 -1.8875976
0.16666485 5.5593548 -1.8843254
0.20080759 5.5591717 -1.8846525
0.23483403 5.5559468 -1.8839982
0.26882848 5.5525136 -1.8833437
0.30309972 5.5545335 -1.8846525
0.33631393 5.5384212 -1.8797443
0.37155586 5.55511 -1.8862886
0.40535823 5.5489559 -1.8849797
0.43932351 5.5454226 -1.8846525
0.47519517 5.5642767 -1.8921785
0.50803232 5.5471416 -1.8872703
0.5432573 5.5561457 -1.8915241
0.57675147 5.5470686 -1.8895608
0.61025834 5.5387292 -1.8879247
0.64335632 5.5273714 -1.885307
0.67668349 5.5186305 -1.8836709
0.70908099 5.5031285 -1.8797443
0.74321431 5.5014834 -1.880726
0.77775145 5.5024333 -1.8826892
0.8109464 5.4938183 -1.8813803
0.84392101 5.4840693 -1.8797443
0.87800366 5.4815869 -1.880726
0.91255373 5.481689 -1.8826892
0.94375527 5.4620194 -1.8777809
0.97925335 5.4672875 -1.8817075
1.0126091 5.4602466 -1.8813803
1.0455589 5.4511466 -1.8803988
1.081745 5.4585319 -1.885307
1.1165446 5.458272 -1.8875976
1.1494292 5.4485445 -1.8866159
1.1842456 5.4478526 -1.8889064
1.218477 5.4441719 -1.8902153
1.2527078 5.4402761 -1.8915241
1.2851937 5.4288096 -1.8902153
1.3166919 5.4134765 -1.8875976
1.3519459 5.4135461 -1.8905425
1.3816158 5.3914189 -1.8856342
1.4139498 5.3800983 -1.8846525
1.4434911 5.3585482 -1.8800715
1.4786075 5.3577876 -1.8830165
1.5135118 5.3558888 -1.8856342
1.5471345 5.3492241 -1.8866159
1.5793911 5.3378181 -1.8859614
1.6126612 5.3298359 -1.8866159
1.6442165 5.3162293 -1.885307
1.6748109 5.2997336 -1.8830165
1.7070075 5.2884583 -1.8826892
1.737649 5.2725005 -1.880726
1.7717764 5.2671127 -1.8826892
1.807745 5.2668667 -1.8866159
1.8415899 5.2601342 -1.8882519
1.8760562 5.2549644 -1.8905425
1.9072946 5.2406907 -1.8895608
1.9390862 5.228003 -1.8892336
1.9711281 5.2160068 -1.8892336
2.0020769 5.2011685 -1.8882519
2.0322278 5.1843877 -1.8866159
2.0682056 5.1823511 -1.8905425
2.0999649 5.1695633 -1.8905425
2.1320064 5.157454 -1.8908697
2.1654446 5.1486301 -1.8925058
2.1984825 5.138721 -1.8938147
2.2295947 5.1242685 -1.8934875
2.260612 5.1096272 -1.8931602
2.2915337 5.0947986 -1.892833
2.3227518 5.0806422 -1.892833
2.3534839 5.0654373 -1.8925058
2.3845205 5.0509014 -1.8925058
2.4166939 5.0387311 -1.8934875
2.4500496 5.028904 -1.8954507
2.4796026 5.0112357 -1.8944691
2.5086067 4.9925494 -1.8931602
2.5387635 4.9762216 -1.892833
2.5649016 4.9521604 -1.8895608
2.59128 4.9288025 -1.8866159
2.626369 4.9219794 -1.8902153
2.652019 4.8974628 -1.8869431
2.6747358 4.8678493 -1.8817075
2.7068555 4.8554721 -1.8833437
2.7347357 4.8354821 -1.8820348
2.7657654 4.8210697 -1.8830165
2.799098 4.8105416 -1.8856342
2.8285623 4.7932763 -1.8856342
2.8584056 4.7766409 -1.8859614
2.8906028 4.7638588 -1.8879247
2.9173024 4.7420092 -1.8862886
2.9448431 4.7216144 -1.885307
2.9772949 4.7090464 -1.8875976
3.0030727 4.6859164 -1.8856342
3.0364027 4.6745329 -1.8885791
3.0556724 4.6416092 -1.8826892
3.0909147 4.6329899 -1.8869431
3.1155784 4.608458 -1.8846525
3.1453993 4.5915928 -1.8856342
3.1767473 4.5768638 -1.8875976
3.2064018 4.5596037 -1.8885791
3.2354155 4.5413828 -1.8892336
3.2676454 4.5275741 -1.8918513
3.3026166 4.5173545 -1.8961052
3.3240848 4.4886527 -1.8925058
3.3549669 4.4727068 -1.8944691
3.3829195 4.4527893 -1.8947963
3.409025 4.4304509 -1.8941419
3.4367266 4.4101954 -1.8944691
3.4596233 4.3838334 -1.8921785
3.4905875 4.3676891 -1.8944691
3.5173216 4.346189 -1.8944691
3.5361347 4.3150258 -1.8902153
3.5679767 4.2997909 -1.8931602
3.5949006 4.2785406 -1.8934875
3.6186359 4.2535233 -1.8921785
3.6440499 4.2305241 -1.8918513
3.6699393 4.2080851 -1.8918513
3.6944394 4.1840711 -1.8911968
3.719413 4.1606193 -1.8908697
3.7366269 4.128613 -1.8866159
3.7638049 4.1076975 -1.8875976
3.7908666 4.0866036 -1.8885791
3.8191054 4.06671 -1.8902153
3.8387764 4.0377221 -1.8875976
3.8615129 4.0120497 -1.8866159
3.862972 3.9645972 -1.8751632
3.9237309 3.977813 -1.8931602
3.9427216 3.9483144 -1.8905425
3.9608264 3.9180682 -1.8875976
3.9841166 3.8930311 -1.8872703
3.9841275 3.8455479 -1.8758177
4.0138049 3.8268967 -1.8787626
4.0523477 3.8164461 -1.8859614
4.0992165 3.8133879 -1.8970869
4.1002679 3.7677085 -1.8866159
4.1492028 3.7659717 -1.8987229
4.1666026 3.7353969 -1.8961052
4.1795382 3.7009923 -1.8915241
4.2114167 3.683363 -1.8957779
4.2353683 3.6586881 -1.8964324
4.2577381 3.6326313 -1.8964324
4.28862 3.6137431 -1.900359
4.3056278 3.5831304 -1.8980684
4.3326435 3.560843 -1.900359
4.3522091 3.5324051 -1.8993773
4.3671646 3.5003166 -1.8964324
4.3863368 3.4716954 -1.8954507
4.4105349 3.4470429 -1.8967596
4.4345951 3.422224 -1.8980684
4.4562616 3.3955221 -1.8983957
4.4724813 3.3647075 -1.8964324
4.4998708 3.3422711 -1.8993773
4.5134344 3.3095698 -1.8964324
4.5152831 3.2685194 -1.8885791
4.5606284 3.258877 -1.8993773
4.5905786 3.2379105 -1.9036312
4.5979495 3.2010465 -1.8983957
4.6330829 3.1834733 -1.90494
4.6517467 3.1544549 -1.9046128
4.6725855 3.1269038 -1.9052672
4.6893182 3.0966129 -1.9042857
4.7113976 3.0698442 -1.9055945
4.7182207 3.0332155 -1.9006863
4.733551 3.0021842 -1.8993773
4.7390637 2.9650664 -1.8941419
4.7555594 2.9349401 -1.8934875
4.7662129 2.9012847 -1.8905425
4.7968893 2.8797643 -1.8957779
4.8315473 2.8603828 -1.9026495
4.8555365 2.8344929 -1.9052672
4.8335214 2.7820284 -1.8895608
4.8529663 2.7537167 -1.8905425
4.8945155 2.7377214 -1.900359
4.9294291 2.7176709 -1.9075578
4.9667716 2.6986475 -1.9157382
4.9815702 2.6672294 -1.9150838
4.9669156 2.6203053 -1.9029768
4.9938011 2.5954425 -1.9072306
5.012156 2.5660436 -1.9082122
5.0303383 2.5365171 -1.9091939
5.0491929 2.5072842 -1.9105028
5.0661802 2.4770856 -1.9111573
5.0795808 2.4451339 -1.9105028
5.0919261 2.4127069 -1.9095211
5.1109171 2.383414 -1.9111573
5.1245861 2.3516152 -1.91083
5.1354737 2.3185725 -1.9095211
5.161695 2.2923853 -1.9141022
5.1843243 2.264451 -1.9173744
5.203331 2.2348344 -1.9193376
5.2169456 2.2028654 -1.9193376
5.2286181 2.1700892 -1.9186832
5.2453356 2.1393931 -1.9199921
5.2531004 2.1050601 -1.9180288
5.2650385 2.0724421 -1.9177016
5.2741299 2.0387354 -1.9163927
5.2830057 2.0049951 -1.9150838
5.3058357 1.9764975 -1.9190104
5.3143129 1.9426074 -1.9177016
5.3199058 1.9077313 -1.915411
5.3341856 1.875993 -1.9163927
5.3509564 1.8450748 -1.9183559
5.3559103 1.8100907 -1.9160655
5.3669157 1.7771934 -1.9160655
5.3768206 1.7439378 -1.9157382
5.3847179 1.7100559 -1.9147565
5.3924022 1.6761428 -1.913775
5.40801 1.6446726 -1.9157382
5.4243402 1.6133432 -1.9180288
5.4359522 1.580557 -1.9186832
5.4491839 1.5482051 -1.9199921
5.458581 1.5147405 -1.9199921
5.4705091 1.4819593 -1.9209738
5.4822402 1.4490889 -1.9219553
5.4910283 1.4154233 -1.9219553
5.5023594 1.3823946 -1.922937
5.5217528 1.3512999 -1.9268637
5.5235052 1.3158621 -1.9245732
5.5434432 1.2847166 -1.9288269
5.5512218 1.2506785 -1.9288269
5.5504827 1.2147768 -1.925882
5.560605 1.1812853 -1.9268637
5.5733023 1.1482868 -1.9288269
5.5756092 1.113144 -1.9271909
5.5814066 1.0787326 -1.9268637
5.5981383 1.0463731 -1.9304631
5.5812049 1.0078107 -1.9222826
5.598455 0.97549039 -1.9262092
5.5978117 0.9400264 -1.9239187
5.6109371 0.90686584 -1.9265364
5.616396 0.87242073 -1.9265364
5.6300554 0.83919483 -1.9294814
5.6388407 0.8051672 -1.9307903
5.6539741 0.7719568 -1.9343897
5.6614151 0.73761582 -1.9353713
5.6583323 0.70193505 -1.9327536
5.6597176 0.66687179 -1.9317719
5.6665201 0.63244575 -1.9327536
5.662776 0.59687382 -1.9301358
5.6663318 0.56211644 -1.9301358
5.662147 0.52663934 -1.9275181
5.6822171 0.49335498 -1.933408
5.6841955 0.45840448 -1.9330808
5.6746507 0.42260846 -1.9288269
5.684679 0.38829514 -1.9314448
0 0 -0
0 0 -0
0 0 -0
0 0 -0
0 0 -0
0 0 -0
0 0 -0
0 0 -0
0 0 -0
0 0 -0
0 0 -0
0 -0 -0
0 -0 -0
0 -0 -0
0 -0 -0
0 -0 -0
0 -0 -0
0 -0 -0
0 -0 -0
0 -0 -0
0 -0 -0
0 -0 -0
0 -0 -0
0 -0 -0
0 -0 -0
0 -0 -0
0 -0 -0
0 -0 -0
0 -0 -0
0 -0 -0
0 -0 -0
0 -0 -0
0 -0 -0
0 -0 -0
0 -0 -0
0 -0 -0
0 -0 -0
0 -0 -0
5.6733832 -0.98032111 -1.9520594
5.6579604 -1.013446 -1.9487872
0 -0 -0
0 -0 -0
5.587369 -1.1073052 -1.9307903
5.5101132 -1.1271604 -1.9059217
5.454092 -1.1506007 -1.8885791
5.3075047 -1.1537066 -1.8391693
5.2569871 -1.1765419 -1.8237901
5.1382513 -1.1830961 -1.7841966
5.0849209 -1.2037077 -1.7678357
5.0177608 -1.2203571 -1.7465667
4.954257 -1.2371447 -1.7266062
4.9117904 -1.2585992 -1.714172
4.8856978 -1.2839061 -1.7076277
4.8594809 -1.3089404 -1.7010833
4.9005432 -1.3523179 -1.7187531
4.8594193 -1.373104 -1.7069732
4.8663335 -1.4073614 -1.712536
4.8458276 -1.4337064 -1.7082821
4.8197556 -1.4582096 -1.702065
4.8242579 -1.4919466 -1.7069732
4.8168149 -1.5220895 -1.7076277
4.8064857 -1.5513258 -1.7073004
4.7896972 -1.5784209 -1.7046827
4.783504 -1.608986 -1.7059916
4.7708602 -1.637386 -1.7050099
4.7580485 -1.6656913 -1.7040282
4.7593064 -1.6989874 -1.7082821
4.74968 -1.7284813 -1.7086093
4.739871 -1.7579211 -1.7089366
4.7157373 -1.781958 -1.7040282
4.6985421 -1.8084822 -1.7017378
4.6785598 -1.8338274 -1.6984656
4.6637092 -1.8610982 -1.6971567
4.656579 -1.8914583 -1.6987928
4.6413927 -1.9185501 -1.6974839
4.614727 -1.940762 -1.6919212
4.6096816 -1.9720159 -1.694539
4.6026931 -2.0025263 -1.6965022
4.5903192 -2.0307302 -1.6965022
4.5648465 -2.0530407 -1.691594
4.5444298 -2.0774739 -1.6886491
4.5307403 -2.1049206 -1.6883218
4.5160303 -2.1318738 -1.6876674
4.5096798 -2.1628141 -1.6902851
4.4691434 -2.1771948 -1.6798141
4.4624748 -2.2079301 -1.6824319
4.4463105 -2.2339964 -1.6814502
4.4299946 -2.2599475 -1.6804686
4.4042983 -2.2810004 -1.6758876
4.4002552 -2.3132606 -1.6798141
4.3726411 -2.333096 -1.6745787
4.3549194 -2.3580816 -1.6732697
4.3536177 -2.3920419 -1.6785053
4.3256545 -2.4113455 -1.6732697
4.2992635 -2.4313269 -1.6686888
