# .PCD v0.7 - Point Cloud Data file format
VERSION 0.7
FIELDS x y z
SIZE 4 4 4
TYPE F F F
COUNT 1 1 1
WIDTH 1513
HEIGHT 1
VIEWPOINT 0 0 0 1 0 0 0
POINTS 1513
DATA ascii
8.6083899 -6.3832603 -1.5650142
8.5026407 -6.3860621 -1.5525837
8.4577866 -6.4339213 -1.5515479
8.402482 -6.4736228 -1.5485882
8.3509083 -6.5159302 -1.5463685
8.2968035 -6.5560093 -1.5437047
8.2301683 -6.5857825 -1.5386734
8.2088118 -6.6517258 -1.5423729
8.1640205 -6.6988316 -1.541633
8.1045084 -6.7336287 -1.5380815
8.066823 -6.7864141 -1.5388213
8.0084686 -6.8216729 -1.5355657
7.929018 -6.8383837 -1.5281667
7.8727565 -6.8745451 -1.525355
7.852653 -6.9423761 -1.5297945
7.8194866 -6.9990044 -1.5317183
7.7793255 -7.0495086 -1.5323102
7.7315516 -7.0930972 -1.5314223
7.6871591 -7.1397305 -1.5312743
7.6388831 -7.1826982 -1.5303864
7.5889373 -7.2239785 -1.5292026
7.5387726 -7.2649164 -1.5280187
7.4975929 -7.3144903 -1.5287586
7.4603105 -7.3680024 -1.5303864
7.1275458 -7.1262121 -1.4695659
7.0628362 -7.1487031 -1.4651264
7.0077887 -7.1805797 -1.4627587
6.95193 -7.2113376 -1.460243
6.911643 -7.2581558 -1.4611309
6.808033 -7.2377486 -1.4482564
6.7594562 -7.2750378 -1.4473685
6.7387609 -7.3426099 -1.4526958
6.6955733 -7.3860188 -1.4531398
6.5887809 -7.3584337 -1.4393774
2.1654298 -2.4472704 -0.45041361
2.151674 -2.4620011 -0.45070958
2.1391108 -2.4781528 -0.45130149
6.4209628 -7.5352297 -1.4427811
6.4134469 -7.6206484 -1.451808
6.3697271 -7.66366 -1.4525479
6.2761569 -7.6460261 -1.4415972
6.2135563 -7.6651831 -1.4378977
6.1824737 -7.7232404 -1.4417452
6.1644025 -7.7982745 -1.4488484
2.0027683 -2.5645351 -0.44834185
1.9767329 -2.563458 -0.44582617
1.9555771 -2.568455 -0.44449434
1.9356227 -2.5748706 -0.44345844
1.9227327 -2.5906706 -0.44419837
1.8407816 -2.512248 -0.42747641
1.8270701 -2.5259004 -0.42792034
1.8304923 -2.5636313 -0.43280375
5.958622 -8.4589653 -1.5096689
5.9184608 -8.5124216 -1.5127766
5.8672371 -8.5502071 -1.5130725
5.8146634 -8.5860472 -1.5130725
5.7635193 -8.6240301 -1.5135164
5.7137613 -8.6641865 -1.5144044
5.6200433 -8.6369066 -1.5033057
5.5439715 -8.6354389 -1.4969425
1.7994267 -2.8395684 -0.46447191
1.7824935 -2.8513947 -0.46461987
1.7654829 -2.8631201 -0.46476787
1.7509636 -2.8789701 -0.46565574
5.2800312 -8.807374 -1.4979783
5.2188458 -8.8276854 -1.4959066
5.1506386 -8.8356171 -1.4917631
5.0909076 -8.8576212 -1.4901353
5.0520611 -8.9162283 -1.4948708
4.9967747 -8.9461956 -1.4947227
4.9446487 -8.9818859 -1.4956106
4.8847289 -9.0033627 -1.4941308
4.8312578 -9.0366545 -1.4947227
4.7757192 -9.0661287 -1.4947227
4.7268324 -9.108429 -1.4969425
4.6776056 -9.1504707 -1.4991622
4.6200376 -9.1763496 -1.4987183
4.5500298 -9.1770554 -1.4941308
4.4923334 -9.2021351 -1.4936869
4.4315028 -9.2206116 -1.4922071
4.3685002 -9.2342186 -1.4899874
4.3138447 -9.2653322 -1.4907272
4.2597952 -9.2979212 -1.4917631
4.2026639 -9.323884 -1.4917631
4.1429701 -9.3440704 -1.4908752
4.087534 -9.3738489 -1.4916152
4.0330572 -9.4060249 -1.492799
3.9721947 -9.4233036 -1.4916152
3.9139211 -9.4465847 -1.4914671
3.8566298 -9.4722548 -1.4917631
3.7999055 -9.4994135 -1.492355
3.7408235 -9.520709 -1.4920591
3.6816232 -9.5416374 -1.4917631
3.6223071 -9.5621986 -1.4914671
3.5570197 -9.5666313 -1.4886554
3.4948645 -9.5789852 -1.4871757
3.4353566 -9.5983868 -1.4868797
3.3773797 -9.6220846 -1.4873236
3.3202064 -9.6482372 -1.4882115
3.2622073 -9.6721773 -1.4888035
3.203419 -9.6938896 -1.4890994
3.1420515 -9.7077169 -1.4882115
3.0833228 -9.7296419 -1.4886554
3.0218077 -9.7427101 -1.4877676
2.9628317 -9.7639074 -1.4882115
2.9037097 -9.7847481 -1.4886554
2.842515 -9.7985811 -1.4880636
2.7815299 -9.8129835 -1.4876196
2.722585 -9.8346319 -1.4883596
2.6642528 -9.8587904 -1.4895434
2.6062305 -9.8845148 -1.4910232
2.545285 -9.8993626 -1.4908752
2.484736 -9.9157534 -1.4910232
2.4236131 -9.9298525 -1.4908752
2.3635528 -9.9483852 -1.4914671
2.3029115 -9.9646273 -1.4917631
2.2410762 -9.9756756 -1.4913192
2.1798246 -9.9892387 -1.4913192
2.1195147 -10.007263 -1.4920591
0.53811294 -2.6156251 -0.36103246
0.5214749 -2.6159678 -0.36058852
0.50747043 -2.629801 -0.36221632
0.49132472 -2.6328652 -0.36221632
0.47656077 -2.6436174 -0.36340016
0.46269768 -2.6601338 -0.36547193
0.44767132 -2.6707263 -0.36665577
0.43520284 -2.6978338 -0.37035534
0.42272055 -2.7268426 -0.37435085
0.40714175 -2.7372115 -0.37553471
0.38992161 -2.7367206 -0.37509075
0.37325516 -2.7400415 -0.37523875
0.35948503 -2.7658193 -0.37879032
0.34565461 -2.7934935 -0.38263783
1.17986 -10.066393 -1.4780008
0.30077636 -2.702177 -0.36828357
0.28377864 -2.7000372 -0.36769167
1.0133663 -10.279314 -1.5070052
0.72735685 -7.8696089 -1.1440053
0.67523873 -7.8295832 -1.1373461
0.62608165 -7.819777 -1.1352744
0.57787037 -7.8205128 -1.1348305
0.53254092 -7.8633804 -1.1407497
0.63190168 -10.270163 -1.501086
0.19995253 -3.5974696 -0.50057954
0.17957281 -3.6332018 -0.50575888
0.153881 -3.5551889 -0.49392033
0.13144541 -3.5392647 -0.49140462
0.1081197 -3.4876127 -0.48356158
0.085966334 -3.457561 -0.47897413
0.188936 -10.211684 -1.4896914
0.12654126 -10.234407 -1.492947
0.021988902 -3.4061422 -0.47113109
0.00093985134 -10.233212 -1.492651
-0.061758623 -10.21819 -1.4904313
-0.12441862 -10.214652 -1.4899874
-0.1873109 -10.225562 -1.4917631
-0.25026888 -10.233118 -1.4930949
-0.31314448 -10.234356 -1.4935389
-0.37600827 -10.234219 -1.4938349
-0.43854225 -10.22579 -1.492947
-0.50059855 -10.209078 -1.4908752
-0.56241173 -10.191002 -1.4886554
-0.62511396 -10.19032 -1.4890994
-0.68923014 -10.209974 -1.492651
-0.76823902 -10.427472 -1.525947
-0.8468681 -10.605929 -1.5534716
-0.91532391 -10.639947 -1.5593909
-0.98095584 -10.63807 -1.5599828
-1.0465991 -10.635787 -1.5605748
-1.1127664 -10.638018 -1.5619066
-1.1773649 -10.625092 -1.5610187
-1.2114711 -10.352453 -1.5210636
-1.2742432 -10.338936 -1.5201757
-1.3204986 -10.198517 -1.5001981
-1.3765278 -10.142202 -1.492947
-1.4381768 -10.129649 -1.492355
-1.5010297 -10.125525 -1.4930949
-0.45137244 -2.926564 -0.40453917
-0.47686327 -2.9706078 -0.41164231
-1.6905787 -10.116665 -1.4962026
-0.51717061 -2.9869442 -0.41504589
-0.53986531 -3.0080488 -0.41874546
-0.55758804 -3.0007906 -0.41815352
-1.9347917 -10.053678 -1.4933909
-1.9972154 -10.045496 -1.4939828
-2.0604072 -10.040803 -1.4951667
-2.1240261 -10.037646 -1.4966465
-2.1881053 -10.03602 -1.4984223
-0.64208919 -2.8643692 -0.40069166
-0.66121089 -2.8671207 -0.40172753
-2.3722363 -9.993082 -1.4982743
-2.4344459 -9.9821806 -1.4988662
-2.4954093 -9.9660959 -1.4987183
-0.93326485 -3.6354702 -0.52307278
-0.7622084 -2.8961742 -0.40957057
-0.77970672 -2.8904881 -0.40942258
-0.79478973 -2.8761179 -0.40794277
-0.80460274 -2.8435929 -0.4036513
-0.81597513 -2.8177056 -0.40039569
-2.9275043 -9.8715639 -1.5021218
-2.972229 -9.801363 -1.4939828
-1.0015619 -3.2338996 -0.46802348
-1.0204898 -3.224865 -0.46757951
-3.1707098 -9.802392 -1.5030098
-3.2174559 -9.7423725 -1.4966465
-3.2781212 -9.7252579 -1.4970905
-3.3367674 -9.7021551 -1.4966465
-1.1323584 -3.2303052 -0.47364679
-1.1521579 -3.2232962 -0.47364679
-3.4859798 -9.5601187 -1.484068
-3.5814466 -9.6377392 -1.4999021
-1.1566486 -3.0572615 -0.45056158
-1.1693347 -3.0344207 -0.44804588
-3.7654712 -9.5885935 -1.5028617
-1.1947317 -2.990458 -0.44331047
-1.2216344 -3.0041389 -0.44671404
-3.957603 -9.5569487 -1.509225
-3.9973485 -9.4878283 -1.5019739
-4.0617242 -9.4776669 -1.5043416
-4.1312637 -9.4788561 -1.508633
-4.1909504 -9.4569454 -1.509225
-4.2480855 -9.4292488 -1.508929
-4.3132758 -9.4191904 -1.5115927
-1.3287532 -2.8571935 -0.43295172
-1.3441453 -2.8445163 -0.43221182
-1.3607169 -2.8344326 -0.43191585
-1.3785169 -2.8269186 -0.43206385
-4.6067667 -9.2957401 -1.5138124
-4.6650515 -9.269949 -1.5142564
-4.7236433 -9.2446728 -1.5148484
-4.7857447 -9.2260494 -1.5166241
-4.8418036 -9.1956358 -1.5164762
-4.89394 -9.1579046 -1.5151442
-4.9462671 -9.1207485 -1.5139604
-4.718863 -8.5755768 -1.4260591
-4.7414961 -8.4929256 -1.4168842
-4.7686567 -8.4197874 -1.4093372
-4.7788377 -8.3183403 -1.3969066
-4.8078756 -8.2512655 -1.3903954
-4.8453293 -8.1994734 -1.3865479
-4.8858886 -8.1534719 -1.3837363
-4.9008965 -8.0658693 -1.3736734
-4.9347305 -8.0103874 -1.369234
-4.9361057 -7.9036293 -1.3557676
-5.0781636 -8.0210838 -1.3819604
-5.2047496 -8.1104536 -1.4034178
-5.2544165 -8.0783653 -1.4034178
-5.324029 -8.0765228 -1.4088932
-5.4344769 -8.1349783 -1.4253192
-5.3939052 -7.9679966 -1.4011981
-5.4359798 -7.9249644 -1.3994223
-5.4794235 -7.8841519 -1.3980905
-5.5464897 -7.8770652 -1.4029739
-5.6217165 -7.8807225 -1.409929
-5.6896644 -7.8733315 -1.4149604
-5.6718445 -7.7481036 -1.3982384
-6.2772117 -8.4654064 -1.5383774
-6.344481 -8.4472904 -1.542225
-6.4069724 -8.422369 -1.5448886
-1.7287009 -2.2451756 -0.3854495
-1.7369682 -2.2275095 -0.38411766
-1.759802 -2.2284482 -0.3863374
-1.7759143 -2.2206969 -0.3869293
-1.7870159 -2.2066848 -0.3863374
-6.7841616 -8.2679901 -1.5617586
-6.8265481 -8.21632 -1.5598348
-6.8806543 -8.1788187 -1.5607227
-6.9242954 -8.1289177 -1.559243
-6.972105 -8.0840311 -1.558799
-7.0280824 -8.0485477 -1.5602788
-7.0904379 -8.0200901 -1.5632384
-7.1434727 -7.9808545 -1.5641264
-7.1969571 -7.9420023 -1.5651622
-7.2515707 -7.9042511 -1.566494
-7.3039727 -7.863955 -1.567382
-7.3453116 -7.8117862 -1.5659021
-7.390378 -7.7637043 -1.5653101
-7.4481711 -7.7288923 -1.5675299
-7.5044336 -7.6922479 -1.5694537
-7.5605264 -7.6552033 -1.5713774
-7.6066566 -7.6079693 -1.5712295
-7.6363082 -7.5444727 -1.5676779
-3.4989698 -3.4156051 -0.69310415
-3.4173207 -3.2952421 -0.67179471
-3.351521 -3.1923797 -0.65403688
-7.93083 -7.4598122 -1.5906152
-7.9163113 -7.3551426 -1.5783325
-3.5168362 -3.2284374 -0.67579025
-3.2947526 -2.9876287 -0.62695616
-3.3889201 -3.0352991 -0.64219832
-3.5830743 -3.169708 -0.67727005
-3.4393208 -3.005193 -0.644862
-3.4472113 -2.9749897 -0.64279026
-3.4119492 -2.9082456 -0.63228351
-3.7407568 -3.1489501 -0.69310415
-3.8109713 -3.1682868 -0.7030189
-3.8960881 -3.1987991 -0.71574539
-5.273314 -4.275125 -0.9772296
-5.3550415 -4.2871814 -0.98788434
-5.3323627 -4.21561 -0.97856146
-5.3799601 -4.1998482 -0.98270494
-5.5035534 -4.2422142 -1.0012027
-5.4657254 -4.1598601 -0.98921615
-5.4990544 -4.1321845 -0.99069595
-5.5544915 -4.1207519 -0.99631929
-5.5293989 -4.0497856 -0.98699641
-5.7216673 -4.1368618 -1.0179247
-5.7839766 -4.128099 -1.0247319
-5.5755134 -3.9279602 -0.98196507
-5.7830386 -4.0212479 -1.015409
-5.73176 -3.9336557 -1.0016466
-5.6173878 -3.8047068 -0.97663766
-5.7425957 -3.8382974 -0.99498743
-5.7544794 -3.795368 -0.99291569
-5.7701979 -3.7551339 -0.99158388
-5.6483102 -3.6267061 -0.96583498
-5.7247686 -3.6263714 -0.97545385
-5.7494278 -3.5927484 -0.97589779
-5.6198058 -3.4640198 -0.94926101
-5.8201289 -3.5383594 -0.9806332
-5.9570985 -3.5717268 -1.0007588
-5.9780507 -3.5346043 -1.0006108
-5.9167423 -3.4495535 -0.98625654
-5.9969654 -3.4471819 -0.99646729
-5.8037348 -3.2889447 -0.95961976
-5.8851142 -3.2875054 -0.97012645
-5.9415655 -3.2713611 -0.97634172
-5.9519634 -3.2296557 -0.97471392
-5.873107 -3.1403952 -0.95799196
-5.9955235 -3.1586771 -0.97545385
-5.9120803 -3.0685422 -0.95813996
-6.0065336 -3.0709133 -0.97086638
-5.8803859 -2.9610786 -0.94659734
-6.0198412 -2.9851139 -0.96687084
-5.9989371 -2.9290347 -0.96035969
-6.1870608 -2.9739773 -0.98862422
-6.2650933 -2.9642878 -0.99853903
-6.2894402 -2.9287114 -0.9995749
-6.2704263 -2.8731802 -0.99350762
-6.278019 -2.8301821 -0.99187982
-5.7889409 -2.5671821 -0.90900987
-5.8308749 -2.5430744 -0.91330141
-6.2854176 -2.6954424 -0.98477668
-6.3474073 -2.6760275 -0.99217582
-6.3390369 -2.626812 -0.98818028
-6.6115217 -2.6922612 -1.0296153
-6.6536288 -2.6619248 -1.0337588
-6.6118436 -2.5982702 -1.0244359
-6.5436935 -2.5252638 -1.0109695
-6.4933972 -2.4601974 -1.0004628
-6.4991002 -2.4168627 -0.99898297
-6.5026579 -2.3728731 -0.99720716
-6.5115085 -2.33093 -0.99631929
-6.5928793 -2.314508 -1.006974
-6.5779653 -2.2640383 -1.0023866
-6.6835752 -2.2545984 -1.0168887
-6.6484509 -2.1974156 -1.0091938
-6.6721597 -2.159929 -1.0108216
-6.7654266 -2.1443348 -1.0233999
-6.7416158 -2.0913606 -1.0176287
-6.7770352 -2.0568452 -1.0211803
-6.7506537 -2.0036919 -1.015113
-6.9072003 -2.0040987 -1.0376062
-6.890821 -1.9535911 -1.0331668
-6.7349205 -1.8648521 -1.007122
-6.8398037 -1.8487667 -1.0216242
-6.9294381 -1.8274308 -1.0337588
-6.9194479 -1.7794626 -1.0305032
-7.2094088 -1.8068948 -1.073566
-7.3193235 -1.7867671 -1.0888081
-7.3234138 -1.7402235 -1.0877721
-7.845634 -1.8134476 -1.1663506
-7.9560051 -1.7875904 -1.1815928
-8.2103252 -1.7918468 -1.2188842
-8.2347107 -1.7443029 -1.220956
-8.9330988 -1.83494 -1.3260232
-9.3554659 -1.8618916 -1.3887676
-9.8241291 -1.8925134 -1.4584671
-10.32656 -1.9236047 -1.5331981
-11.258011 -2.0256133 -1.6730411
-11.282896 -1.9586951 -1.6749649
-11.561975 -1.9341105 -1.7155119
-11.843122 -1.9064873 -1.7563549
-12.251412 -1.8951274 -1.8164357
-12.839023 -1.9053787 -1.9035971
-13.033575 -1.8525735 -1.9312698
-12.994718 -1.7657791 -1.9237226
-13.073963 -1.6949062 -1.9340814
-13.090006 -1.6153802 -1.9349693
-13.076097 -1.5322707 -1.9314177
-13.089184 -1.4524443 -1.9320096
-13.104734 -1.372824 -1.9330455
-13.119802 -1.2930673 -1.9340814
-13.139306 -1.213632 -1.9358572
-13.148476 -1.1331575 -1.9361532
-13.156167 -1.0525374 -1.9363011
-13.153502 -0.9711383 -1.9349693
-13.142438 -0.88927805 -1.9324536
-13.140737 -0.80819649 -1.9314177
-13.148411 -0.7277149 -1.9318616
-13.139788 -0.64639348 -1.9299378
-13.153387 -0.56618154 -1.9314177
-13.151671 -0.48528132 -1.9306778
-13.184057 -0.40548453 -1.9351172
-13.124998 -0.32307756 -1.9259424
-13.12179 -0.24244709 -1.9252025
-13.113141 -0.1618076 -1.9237226
-13.131688 -0.081452668 -1.9263864
-13.130952 -0.00087663246 -1.9262383
-13.112908 0.079583772 -1.9235747
-13.109207 0.16000509 -1.9231308
-13.1149 0.24056624 -1.9241666
-13.111199 0.32098463 -1.9238707
-13.113926 0.4015792 -1.9246105
-13.084531 0.48105374 -1.9206151
-13.060583 0.56043762 -1.9175074
-13.049984 0.64022547 -1.9164715
-13.054697 0.72077811 -1.9178034
-13.006595 0.79819727 -1.9112922
-13.038948 0.88052469 -1.9169154
-12.115438 -0.30627406 -1.9176573
-12.123011 -0.23204292 -1.9186134
-12.13309 -0.15776898 -1.9200478
-12.113099 -0.083175734 -1.9167011
-12.134112 -0.0088654226 -1.9200478
-12.137888 0.065609477 -1.9206852
-12.142192 0.14014173 -1.921482
-12.129259 0.21443316 -1.9195696
-12.130676 0.28892329 -1.9200478
-12.14545 0.36385226 -1.9227569
-12.136083 0.43811941 -1.9216413
-12.09963 0.51116115 -1.9162229
-12.075559 0.58439201 -1.9128764
-12.05893 0.65777665 -1.9108046
-12.043828 0.73109883 -1.9090515
-12.059801 0.80636704 -1.9123982
-12.028042 0.87840885 -1.9080954
-12.04014 0.95359743 -1.910964
-12.021276 1.026365 -1.9088923
-12.015735 1.1001968 -1.9090515
-11.995984 1.1726551 -1.9069798
-12.013112 1.24879 -1.910964
-11.970878 1.3186954 -1.9053862
-11.981193 1.3942901 -1.9084141
-11.965553 1.4669384 -1.9072986
-11.923037 1.5360423 -1.9018801
-11.906538 1.6082469 -1.9007647
-11.864188 1.6767161 -1.8955057
-11.88493 1.7540933 -1.9006053
-11.858331 1.8245833 -1.8980554
-11.895653 1.9051144 -1.9060236
-11.889582 1.9790413 -1.9069798
-11.84803 2.046916 -1.9021989
-11.843994 2.1211417 -1.9036332
-11.80843 2.189636 -1.8999678
-11.762777 2.2559149 -1.8947088
-11.771955 2.3326521 -1.8985336
-11.701323 2.3933673 -1.8892905
-11.729886 2.474288 -1.8964618
-11.703872 2.5439086 -1.8947088
-11.699603 2.6182611 -1.8966212
-11.686203 2.6906636 -1.8970993
-11.669474 2.7623181 -1.8970993
-11.638875 2.8306029 -1.8948681
-11.600216 2.8967032 -1.8913622
-11.568835 2.9643962 -1.8891311
-11.596259 3.0473676 -1.8967805
-11.541119 3.1087077 -1.8907247
-11.602717 3.2017832 -1.9042706
-11.562902 3.2672791 -1.900924
-11.533154 3.3354239 -1.8993304
-11.519097 3.4080877 -1.9004459
-11.511198 3.4827054 -1.9026771
-11.466033 3.54598 -1.898693
-11.411112 3.6058576 -1.8931152
-11.493057 3.7094619 -1.9108046
-11.383819 3.7514882 -1.8961431
-11.3531 3.8187497 -1.8948681
-11.334124 3.8899412 -1.895665
-11.24668 3.9372339 -1.8848282
-11.209294 4.0015216 -1.8825971
-11.169686 4.0648241 -1.8800473
-11.193593 4.1514764 -1.8884935
-11.156827 4.2158937 -1.8865812
-11.122457 4.2810798 -1.885147
-11.069324 4.3387985 -1.8805254
-11.037909 4.4048076 -1.8797286
-11.026223 4.4787674 -1.8824377
-11.014956 4.5531263 -1.8853064
-10.973162 4.6148868 -1.8829159
-10.981853 4.6980491 -1.8894498
-10.92204 4.7519536 -1.8840314
-10.896289 4.820478 -1.8846688
-10.825989 4.8690252 -1.8774974
-10.80399 4.939054 -1.8789318
-10.77169 5.0044212 -1.878613
-10.706857 5.0544076 -1.8725572
-10.636475 5.1012259 -1.8655452
-10.631599 5.1793637 -1.870326
-10.594311 5.2418742 -1.8693699
-10.590177 5.3209629 -1.8744695
-10.572278 5.3934689 -1.8771788
-10.545122 5.4614158 -1.8782942
-10.493062 5.5163698 -1.8749477
-10.449435 5.5755386 -1.8731946
-10.417632 5.6409602 -1.8736727
-10.400994 5.7147579 -1.8770194
-10.376081 5.7842379 -1.8789318
-10.308599 5.8298154 -1.8730353
-10.270064 5.8914843 -1.8725572
-10.224336 5.9489284 -1.8708042
-10.205496 6.0220871 -1.8741508
-10.198851 6.1028414 -1.8798879
-10.151928 6.1596727 -1.878135
-10.128237 6.2306409 -1.8808441
-10.091491 6.293714 -1.8811629
-10.032657 6.3428555 -1.8773381
-9.99438 6.4048276 -1.8774974
-9.9946327 6.4918423 -1.885147
-9.9438915 6.5459895 -1.8830752
-9.8969688 6.6024981 -1.8818003
-9.9298801 6.7128592 -1.8961431
-9.9341145 6.8049026 -1.9050674
-9.8970394 6.8691063 -1.9060236
-9.843399 6.9217544 -1.9037926
-9.8176279 6.9940505 -1.9071392
-9.7649221 7.047226 -1.9052268
-9.7334518 7.1157489 -1.9076173
-9.7102356 7.1906128 -1.9117608
-9.6430283 7.2328806 -1.9071392
-9.6424894 7.3253546 -1.9160637
-9.5879717 7.3771582 -1.9141512
-9.5253935 7.4225006 -1.9106452
-9.5021458 7.4985423 -1.9152668
-9.4382181 7.542531 -1.9116014
-9.4623642 7.657433 -1.926263
-9.3739662 7.681561 -1.9176573
-9.3365335 7.747129 -1.919729
-9.3749914 7.8766642 -1.9378965
-9.2753515 7.890543 -1.9270598
-9.2050686 7.9286237 -1.9224381
-9.2209787 8.0414038 -1.9363029
-9.1403818 8.0703897 -1.9296095
-9.0921631 8.1276379 -1.9299283
-9.0296774 8.1720123 -1.9272192
-8.9931955 8.239934 -1.9302471
-8.9620094 8.3130865 -1.9345499
-8.8949995 8.3530531 -1.9310439
-8.8607512 8.4237986 -1.9348686
-8.8309479 8.4992304 -1.9398088
-8.7821674 8.5567007 -1.9406058
-8.7421503 8.6229038 -1.9434743
-8.684885 8.6721973 -1.9425181
-8.6349821 8.7288322 -1.9433149
-8.5936794 8.7943602 -1.9461834
-8.5477848 8.8554478 -1.9480958
-8.4919252 8.9063005 -1.9477772
-8.4276409 8.9481773 -1.945546
-8.3988028 9.0279083 -1.9517612
-8.359951 9.0974445 -1.9557453
-8.3165798 9.1624575 -1.9587733
-8.2522955 9.2044945 -1.9568609
-8.2094069 9.2704763 -1.9602076
-8.1530199 9.3214169 -1.9603668
-8.107934 9.3854618 -1.9633948
-8.0271244 9.407999 -1.9576577
-7.966702 9.4540558 -1.9570203
-7.8921227 9.4830313 -1.9528768
-7.8419371 9.541193 -1.9549485
-7.8280425 9.6443176 -1.9664228
-7.7785978 9.7044926 -1.9689726
-7.7207441 9.7543602 -1.9694507
-7.6662188 9.8085508 -1.9708849
-7.6125255 9.8640022 -1.9726379
-7.5572429 9.917593 -1.9740722
-7.5051508 9.9756088 -1.9764627
-7.4543967 10.035737 -1.9793313
-7.3856721 10.071734 -1.9774189
-7.3243132 10.117662 -1.9775783
-7.2752967 10.180886 -1.9812436
-7.205862 10.215654 -1.9793313
-7.1498137 10.269399 -1.9812436
-7.0710115 10.290295 -1.9767814
-6.9922233 10.310611 -1.9723192
-6.8651319 10.258151 -1.953833
-6.8967247 10.443419 -1.9815624
-6.8476071 10.508698 -1.9860245
-6.7797942 10.545534 -1.9850683
-6.7096725 10.578599 -1.9834747
-6.6467319 10.622917 -1.9841121
-6.5829816 10.666021 -1.9845903
-6.5215187 10.712959 -1.9858652
-6.4592199 10.758698 -1.9869808
-6.393084 10.798127 -1.9869808
-6.3267078 10.837152 -1.9869808
-6.2596006 10.874912 -1.9868214
-6.1942172 10.915691 -1.9872994
-6.1271234 10.953493 -1.9872994
-6.0607519 10.992611 -1.9876182
-5.996017 11.034797 -1.9885744
-5.9263315 11.067899 -1.987937
-5.8670616 11.120643 -1.9909649
-5.8050909 11.168696 -1.9931959
-5.734652 11.200591 -1.9925585
-5.6635957 11.23116 -1.9917617
-5.5906239 11.257742 -1.9903274
-5.5253458 11.299815 -1.9917617
-5.4683261 11.359301 -1.9963832
-5.4035974 11.403345 -1.9982955
-5.3414545 11.453285 -2.0013235
-5.2546062 11.449955 -1.994949
-5.1927834 11.500876 -1.9982955
-5.1161065 11.518989 -1.9959052
-5.0394025 11.536593 -1.9935147
-4.9751449 11.582718 -1.9962238
-4.9174232 11.644857 -2.0018017
-4.8455009 11.673899 -2.0016422
-4.766695 11.686043 -1.9986143
-4.7195082 11.776467 -2.0092916
-4.6562014 11.828169 -2.0132759
-4.5856738 11.862041 -2.0142319
-4.5114017 11.886263 -2.0135946
-4.4452777 11.932222 -2.0167818
-4.3770642 11.973181 -2.0191724
-4.3048487 12.00353 -2.0198097
-4.2478223 12.077213 -2.0279374
-4.185225 12.136648 -2.0336745
-4.1046705 12.14433 -2.0306466
-4.0291462 12.166476 -2.0301685
-3.9510672 12.18064 -2.0284154
-3.8846221 12.230999 -2.0328777
-3.8185866 12.283829 -2.037818
-3.7486012 12.324973 -2.0408459
-3.6799433 12.371398 -2.0448301
-3.6061699 12.401328 -2.0461049
-3.5343268 12.438416 -2.0486548
-3.4613721 12.472234 -2.0507264
-3.3904588 12.514201 -2.0542324
-3.3146186 12.538587 -2.0548699
-3.2457547 12.590235 -2.0601289
-3.1749377 12.635765 -2.0644319
-3.0999284 12.665556 -2.0661848
-3.0223844 12.685299 -2.0663443
-2.9391415 12.680524 -2.0625193
-2.8630161 12.706024 -2.0637944
-2.778877 12.695385 -2.0591729
-2.702774 12.720887 -2.060607
-2.6282561 12.754636 -2.0634756
-2.5545857 12.793757 -2.0673003
-2.4934642 12.899333 -2.0821211
-2.4126356 12.905657 -2.080687
-2.3312967 12.908559 -2.0787747
-2.2523863 12.924565 -2.0790932
-2.168788 12.912829 -2.0749497
-2.0844734 12.894708 -2.0698502
-2.0069811 12.917986 -2.0716033
-1.9374353 12.995478 -2.0822806
-1.8487252 12.944574 -2.0720813
-1.7708672 12.967412 -2.0739937
-1.6898638 12.967265 -2.0722406
-1.6176835 13.037151 -2.0819619
-1.5396235 13.063499 -2.084671
-1.4491395 12.980475 -2.0696907
-1.3716398 13.00974 -2.0730374
-1.2982237 13.082749 -2.0835555
-1.2118871 13.025592 -2.0730374
-1.1335644 13.05147 -2.0760653
-1.0549695 13.076876 -2.0790932
-0.97544527 13.092948 -2.080687
-0.89684081 13.124294 -2.0848305
-0.81653988 13.133492 -2.0854678
-0.73732001 13.162896 -2.089452
-0.65467077 13.129705 -2.0833962
-0.57362151 13.122625 -2.0816431
-0.49375942 13.143656 -2.0845118
-0.41406429 13.177027 -2.089452
-0.33235443 13.145764 -2.0840335
-0.25147909 13.136699 -2.0822806
-0.17092057 13.141943 -2.0829179
-0.090293519 13.144719 -2.0832367
-0.0096456287 13.155885 -2.0849898
0.071056329 13.151748 -2.0843523
0.15163898 13.141192 -2.0827587
0.23251283 13.153833 -2.0849898
0.3132658 13.154134 -2.0853086
0.39453322 13.170712 -2.0883365
0.47377408 13.124634 -2.0813243
0.54971641 13.012982 -2.0637944
0.63389182 13.099096 -2.0782964
0.71151382 13.044687 -2.070169
0.79405206 13.081463 -2.0768621
0.87331599 13.061569 -2.0744717
0.95222205 13.039227 -2.0717626
1.0335358 13.049869 -2.0744717
1.1093074 12.993115 -2.0663443
1.1911703 13.009659 -2.070169
1.2620444 12.910728 -2.0553479
1.3423618 12.913544 -2.057101
1.4204919 12.895251 -2.0555074
1.4959383 12.854913 -2.0504076
1.5749065 12.846472 -2.0505672
1.6574845 12.86594 -2.0553479
1.7286025 12.797806 -2.0459456
1.8144159 12.838767 -2.0543919
1.9039673 12.90064 -2.0663443
1.9760336 12.842855 -2.0588541
2.0558913 12.837312 -2.0599697
2.1376998 12.842958 -2.0629976
0 0 -0
2.2878339 12.774944 -2.0563042
2.3710353 12.786875 -2.060607
2.4477763 12.763359 -2.0591729
2.5387073 12.812014 -2.0696907
2.61569 12.788458 -2.0684159
2.6914608 12.75961 -2.0663443
2.7541876 12.671468 -2.0545511
2.8264973 12.630244 -2.0505672
2.9008412 12.599195 -2.048336
2.9828687 12.601333 -2.0516827
3.074595 12.642267 -2.0615633
3.1353686 12.556117 -2.0504076
3.2177429 12.557682 -2.0539138
3.2909715 12.523379 -2.0515232
3.3574822 12.464821 -2.0451486
3.4283876 12.424 -2.0418022
3.5026765 12.39608 -2.0406866
3.5773003 12.369613 -2.0398896
3.6508911 12.339856 -2.0386147
3.7333987 12.339901 -2.0424395
3.8002954 12.288466 -2.0376587
3.8863318 12.298805 -2.0433958
3.9465628 12.227753 -2.0354276
4.0091581 12.165801 -2.029053
4.0915985 12.164366 -2.0330369
4.1591105 12.118488 -2.029531
4.2268667 12.074104 -2.0263438
4.3005409 12.047011 -2.0261843
4.3679647 12.002771 -2.0231564
4.4470224 11.990554 -2.0257063
4.5110903 11.938107 -2.0214033
4.5870929 11.917574 -2.0226784
4.6662555 11.904829 -2.0253875
4.722384 11.833795 -2.0180569
4.8004785 11.818316 -2.0204473
4.8548031 11.744844 -2.0127978
4.9279251 11.717566 -2.0132759
5.0043888 11.698 -2.0151882
5.0784354 11.672504 -2.0161445
5.1535554 11.64925 -2.0175786
5.2063112 11.575992 -2.0102479
5.2809358 11.551909 -2.0116823
5.3409038 11.496011 -2.0075388
5.4231405 11.48802 -2.012001
5.4598041 11.384206 -1.9994111
5.5256629 11.342503 -1.9979769
5.5938416 11.30573 -1.9974988
5.6622205 11.26943 -1.9971801
5.7335048 11.238872 -1.9979769
5.8046274 11.207864 -1.9987737
5.8562922 11.139704 -1.9928772
5.9194221 11.09398 -1.9911242
5.9808016 11.045296 -1.9888932
6.02707 10.969455 -1.9817218
6.0894575 10.923644 -1.980128
6.1714334 10.912714 -1.9850683
6.2309079 10.861795 -1.9826779
6.302402 10.831892 -1.9842715
6.3682451 10.792168 -1.9841121
6.4328241 10.750348 -1.9836341
6.4889364 10.694638 -1.9806062
6.5440903 10.637804 -1.9774189
6.5977468 10.579021 -1.9739128
6.6445985 10.509967 -1.9684945
6.706831 10.465673 -1.967857
6.7531757 10.397003 -1.962598
6.792418 10.318263 -1.9554266
6.8873768 10.324025 -1.9646697
6.9533582 10.28566 -1.9654665
7.012434 10.2371 -1.9643511
7.07793 10.197935 -1.9651479
7.129581 10.138969 -1.9621199
7.185358 10.086187 -1.9603668
7.2384448 10.029902 -1.9579765
7.2981033 9.9829073 -1.9574983
7.3515825 9.9276247 -1.9554266
7.4022889 9.8689032 -1.9527174
7.4549408 9.8130779 -1.9506457
7.5156145 9.7679338 -1.9508051
7.5584183 9.6998301 -1.9463428
7.6110659 9.6447449 -1.9445899
7.6546946 9.5785818 -1.9406058
7.7102184 9.5275965 -1.9398088
7.7603998 9.4701805 -1.9377372
7.8063841 9.4079504 -1.9347092
7.851263 9.3447571 -1.931522
7.8956604 9.2813673 -1.9283347
7.959548 9.2409735 -1.9300877
8.0005274 9.1741037 -1.926263
8.0488281 9.1159601 -1.9243506
8.0986891 9.0597773 -1.9229163
8.1475029 9.002594 -1.9213227
8.1792469 8.9269552 -1.9157449
8.2358818 8.8787718 -1.9162229
8.2841234 8.8215933 -1.9147887
8.3231316 8.7548561 -1.9112827
8.3609495 8.6872606 -1.9076173
8.4120293 8.6336737 -1.9071392
8.4523678 8.5692444 -1.9042706
8.4985104 8.5109329 -1.9028364
8.5442562 8.4523783 -1.9014021
8.5768948 8.3811626 -1.8970993
8.6033001 8.3043804 -1.8915216
8.632658 8.2309971 -1.8867406
8.6973734 8.191411 -1.8899279
8.7113323 8.1042681 -1.8819597
8.7667103 8.0560074 -1.8832346
8.7903919 7.9788408 -1.8776568
8.8428583 7.9280491 -1.8784536
8.8736 7.8579326 -1.8746289
8.9023285 7.786438 -1.8704854
8.9738426 7.7523203 -1.8755851
9.0272493 7.7022386 -1.87686
9.0818882 7.6530652 -1.8784536
9.1059122 7.5782495 -1.8736727
9.1400375 7.5122042 -1.8711228
9.1614323 7.4360709 -1.8660232
9.2053461 7.3784823 -1.8657045
9.2218056 7.29919 -1.859808
9.2625303 7.2394285 -1.8590112
9.285675 7.166173 -1.8547083
9.3310413 7.1102591 -1.8550271
9.3650265 7.0457482 -1.8531147
9.3993654 6.9816775 -1.8513618
9.4547644 6.9332137 -1.8539115
9.4899311 6.8698592 -1.8524773
9.5062027 6.7931328 -1.8473777
9.5412521 6.7301235 -1.8461027
9.5766964 6.6675038 -1.8449872
9.6068497 6.6013484 -1.8429154
9.6406384 6.5378447 -1.8416405
9.6953392 6.4884515 -1.844509
9.7119036 6.4136062 -1.8400469
9.7328777 6.3420367 -1.8365408
9.7483578 6.2672482 -1.8320786
9.8083038 6.2210641 -1.8362221
9.8387594 6.1560516 -1.8347878
9.8872681 6.1023068 -1.8368596
9.9422331 6.0523057 -1.8402063
9.9707184 5.9861054 -1.8386126
10.015756 5.9298434 -1.8402063
10.070708 5.8792267 -1.8437122
10.094614 5.8104281 -1.8414811
10.11548 5.7400961 -1.8387719
10.203066 5.7073212 -1.8484931
10.255184 5.6541424 -1.8516804
10.269733 5.5802703 -1.8480151
10.30465 5.5176172 -1.8481745
10.336565 5.4533639 -1.8478557
10.361073 5.3852839 -1.8462621
10.399193 5.3243079 -1.8472183
10.451059 5.2701793 -1.8507242
10.459327 5.194097 -1.8464215
10.517606 5.1428328 -1.8512024
10.596997 5.101326 -1.859808
10.615609 5.0302892 -1.857577
10.634644 4.9596338 -1.8555052
10.680128 4.901288 -1.8582144
10.667713 4.8165684 -1.8507242
10.704284 4.7542276 -1.8519992
10.765821 4.7026858 -1.8577362
10.776333 4.628746 -1.8545491
10.779976 4.5521669 -1.8502462
10.829588 4.4950199 -1.8540709
10.899013 4.4456391 -1.8614017
10.893096 4.3654585 -1.8556645
10.891201 4.2873268 -1.8507242
10.885075 4.2079592 -1.8451465
10.886692 4.1319814 -1.8410031
10.937743 4.0747547 -1.8454652
10.969029 4.0099382 -1.8465807
11.01573 3.9505572 -1.8504056
11.079808 3.8969777 -1.8572582
11.127776 3.8372884 -1.8614017
11.140824 3.76546 -1.8596487
11.174027 3.7004447 -1.8614017
11.209669 3.6360772 -1.8636328
11.210129 3.5603538 -1.8599674
11.249675 3.4970713 -1.8629953
11.258642 3.4242439 -1.8609235
11.275656 3.3539717 -1.8602861
11.278012 3.2794845 -1.8572582
11.32831 3.2188578 -1.8623579
11.31931 3.141367 -1.857577
11.340278 3.0723703 -1.8578956
11.3446 2.9989448 -1.8555052
11.417276 2.9433281 -1.864589
11.421718 2.8698492 -1.8623579
11.470756 2.8074589 -1.8676169
11.448392 2.7276404 -1.8610829
11.432215 2.6497631 -1.8556645
11.542639 2.600836 -1.8712822
11.55838 2.5299628 -1.8712822
11.533128 2.4503758 -1.864589
11.518939 2.3735855 -1.859808
11.601054 2.3163955 -1.8709636
11.643157 2.2506034 -1.8755851
11.615991 2.1714995 -1.8688918
11.637839 2.1017637 -1.870326
11.633984 2.0274339 -1.8676169
11.658861 1.9581369 -1.8696886
11.6843 1.8887687 -1.8719198
11.729813 1.8223453 -1.8774974
6.13903 0.91502607 -0.96322447
0 0 -0
0 0 -0
0 0 -0
5.9137316 0.73357093 -0.92322403
5.9004736 0.69519067 -0.92035544
0 0 -0
0 0 -0
0 0 -0
0 0 -0
0 0 -0
0 0 -0
0 0 -0
0 0 -0
0 0 -0
0 0 -0
0 0 -0
0 0 -0
0 0 -0
0 0 -0
0 0 -0
0 0 -0
0 0 -0
0 0 -0
0 0 -0
0 -0 -0
0 -0 -0
0 -0 -0
0 -0 -0
0 -0 -0
0 -0 -0
0 -0 -0
0 -0 -0
0 -0 -0
0 -0 -0
5.942811 -0.3975637 -0.92274594
5.9658594 -0.4358893 -0.92688942
5.9768505 -0.47357768 -0.92912048
5.984652 -0.5111655 -0.93087351
0 -0 -0
6.082078 -0.5947454 -0.94776613
10.351683 -1.0761364 -1.6413195
10.306615 -1.1354183 -1.6351043
10.364174 -1.2061666 -1.6456224
10.365396 -1.2708182 -1.6470567
10.392653 -1.338935 -1.6527938
10.388155 -1.4032065 -1.6534313
10.351979 -1.4630533 -1.6489691
10.321321 -1.523374 -1.645463
10.312755 -1.5868258 -1.6456224
10.288202 -1.6477325 -1.643232
10.266212 -1.708884 -1.6413195
10.258452 -1.7723483 -1.6417977
10.234751 -1.8329976 -1.6397259
10.203897 -1.8921632 -1.6365386
10.180461 -1.9525064 -1.6346263
10.166352 -2.0145521 -1.6343075
10.158636 -2.0778828 -1.6351043
10.137967 -2.138546 -1.6338295
10.10922 -2.1973567 -1.6312796
8.3354187 -1.8655062 -1.340121
10.07091 -2.3188107 -1.6295266
10.059375 -2.3812432 -1.6300046
10.046493 -2.443388 -1.6303234
10.034185 -2.5057037 -1.6308016
10.055919 -2.5767808 -1.6370168
7.4562016 -1.9595544 -1.2057769
10.012101 -2.6969075 -1.6351043
10.012494 -2.7630162 -1.637973
10.002953 -2.8265469 -1.6392478
9.9930077 -2.8900647 -1.6405227
9.9731932 -2.9507661 -1.6402041
7.9828334 -2.415329 -1.3076108
7.9452271 -2.4572656 -1.3037859
7.9290586 -2.5056729 -1.3036267
7.9154139 -2.554884 -1.3039453
8.6871967 -2.8629279 -1.4378114
9.8091688 -3.2994876 -1.6319171
9.7803345 -3.3567293 -1.6304828
9.7390547 -3.4095016 -1.6269767
9.6993561 -3.4625576 -1.6237895
9.6909151 -3.5267327 -1.6260206
7.664196 -2.8426292 -1.2808375
9.621973 -3.6359682 -1.6217178
9.5884256 -3.6906841 -1.6198053
9.5269957 -3.734318 -1.6131121
9.4928999 -3.7883139 -1.6111997
9.4575863 -3.8416605 -1.609128
9.433836 -3.8996189 -1.609128
9.5626154 -4.0217218 -1.6359012
9.5286818 -4.0764384 -1.6343075
9.4808588 -4.1249828 -1.6303234
9.4662037 -4.1878715 -1.6322358
9.4439306 -4.2474957 -1.6328733
9.3970404 -4.2959228 -1.6292078
9.3579693 -4.3476782 -1.6269767
9.2855854 -4.3835239 -1.6188492
9.2309189 -4.4271836 -1.6139089
9.2044678 -4.4841723 -1.6140683
9.1794348 -4.5418787 -1.6145464
9.1540403 -4.5994468 -1.6150244
9.1150932 -4.6501451 -1.6131121
9.0706091 -4.6978149 -1.6102436
9.0302534 -4.7474113 -1.6081718
8.9965992 -4.8004069 -1.607375
8.9461393 -4.8442378 -1.6035502
8.9049997 -4.892859 -1.6014785
8.8860197 -4.9536557 -1.6035502
8.8348331 -4.9964232 -1.5997255
8.7808886 -5.0372763 -1.5954226
8.7216558 -5.074677 -1.5901636
8.7073584 -5.1381302 -1.5933509
8.6832924 -5.196023 -1.5947852
8.656311 -5.2522774 -1.5957414
8.5827179 -5.2799473 -1.5879325
8.5174894 -5.3121371 -1.5817174
8.4839001 -5.3637719 -1.581558
8.454154 -5.4178581 -1.5821954
8.4290304 -5.4750071 -1.5837891
8.4455786 -5.5597339 -1.5935103
8.3677788 -5.5824146 -1.5850639
8.2892027 -5.6037979 -1.5764583
8.210681 -5.6244287 -1.5678526
8.1946688 -5.6876483 -1.5715179
8.1450796 -5.727602 -1.5686494
8.1242561 -5.7877812 -1.5715179
8.0869884 -5.8363667 -1.5711993
8.019146 -5.8625736 -1.5648247
7.9766755 -5.9069676 -1.5635498
7.9513378 -5.9640932 -1.5657809
7.9020152 -6.0032148 -1.5632311
7.8845925 -6.066637 -1.5672152
7.849556 -6.1167221 -1.5676932
7.8142018 -6.1666059 -1.5681714
7.6875257 -6.1435637 -1.5498445
7.6665683 -6.2042804 -1.5533504
7.632937 -6.2549586 -1.5543066
7.6042905 -6.3098707 -1.5563784
7.5412426 -6.3360901 -1.5512787
7.5165105 -6.3943963 -1.5543066
7.4524488 -6.419136 -1.5490476
7.4166417 -6.4679871 -1.5498445
7.3634944 -6.5016117 -1.5469759
7.3043256 -6.5295653 -1.5428324
7.2729073 -6.5822101 -1.5447448
7.2054501 -6.6020365 -1.5388483
7.235014 -6.7112451 -1.5543066
7.221046 -6.7811913 -1.5603625
7.1220603 -6.770957 -1.5476134
7.0384126 -6.7741404 -1.5382109
7.0016642 -6.822022 -1.5393264
6.966702 -6.8717875 -1.54092
6.8845863 -6.8746452 -1.5318363
6.8096418 -6.8837738 -1.5243461
6.7686558 -6.9268398 -1.5246649
6.708199 -6.9497738 -1.5205214
6.6572547 -6.9822302 -1.518609
6.6474543 -7.0581598 -1.5264179
6.6026759 -7.0973697 -1.5260992
6.546979 -7.1246653 -1.5232307
6.4341321 -7.0886812 -1.5066568
2.1865184 -2.4392526 -0.49007183
2.1715105 -2.4526229 -0.49007183
2.1687698 -2.4800191 -0.49309978
6.1956258 -7.1719851 -1.4911984
6.134201 -7.189589 -1.4868956
6.1135097 -7.255024 -1.492792
6.0663524 -7.2893639 -1.4921546
6.0572433 -7.3699203 -1.5012383
6.0455055 -7.448338 -1.5098441
6.0250058 -7.5168743 -1.5163779
5.9885731 -7.5660868 -1.5189278
2.0048678 -2.5656097 -0.48688456
1.9830561 -2.5700479 -0.48529091
1.963659 -2.577456 -0.48433474
1.9442458 -2.584723 -0.48337853
1.9248174 -2.5918491 -0.48242235
1.8259759 -2.490566 -0.45979261
1.8123964 -2.504122 -0.46027073
1.8216795 -2.5497329 -0.46712339
5.5703683 -7.8971939 -1.5213182
5.5291405 -7.9417567 -1.5233899
5.4730377 -7.9649563 -1.5213182
5.4251709 -8.0000229 -1.521637
5.4001422 -8.0692587 -1.528649
5.3423676 -8.0898848 -1.5262586
5.2813096 -8.1051435 -1.5229119
5.2549696 -8.173934 -1.5299239
5.1391459 -8.1026506 -1.5101627
1.784439 -2.8524716 -0.50441462
1.7632732 -2.8574865 -0.50329906
1.7446802 -2.8665655 -0.50298035
1.7423037 -2.9026079 -0.5077613
4.9148378 -8.3015022 -1.518609
4.8299608 -8.27353 -1.5077723
4.7899399 -8.3218327 -1.5112783
4.7319665 -8.3390465 -1.5090472
4.7028809 -8.4075565 -1.5163779
4.6335673 -8.4042673 -1.5104815
4.5738993 -8.4177942 -1.5077723
4.5212302 -8.4439602 -1.5074536
4.465188 -8.463685 -1.5060192
4.4195461 -8.5031872 -1.5082504
4.3609891 -8.5178423 -1.5060192
4.3144217 -8.5558996 -1.508091
4.2587686 -8.5760221 -1.5069754
4.1986942 -8.586915 -1.5042663
4.1390748 -8.5982847 -1.5017165
4.0828567 -8.6163826 -1.5004416
4.0365872 -8.6555872 -1.5029913
3.9825783 -8.6783981 -1.5026727
3.9280348 -8.6999722 -1.5021945
3.8777847 -8.7311277 -1.5034695
3.8146536 -8.7330456 -1.4996448
3.7672312 -8.7708006 -1.5021945
3.7160323 -8.8001165 -1.5033101
3.6604519 -8.8191051 -1.5026727
3.5876255 -8.7956944 -1.4947044
3.5446067 -8.8450327 -1.4994854
3.5097966 -8.9162197 -1.508091
3.4229817 -8.8547163 -1.4937482
3.380147 -8.9060106 -1.4990072
3.3278499 -8.9330587 -1.5001228
3.27806 -8.9672174 -1.5025133
3.2049785 -8.9369831 -1.4939076
3.1553233 -8.9713802 -1.4964575
3.096354 -8.979373 -1.494545
3.0468898 -9.0150366 -1.4974136
2.9825161 -9.0063848 -1.492792
2.926893 -9.0235767 -1.4926326
2.8768499 -9.0583019 -1.4955013
2.8203359 -9.0729551 -1.4950231
2.7603025 -9.075923 -1.4926326
2.7161031 -9.131484 -1.4991666
2.659471 -9.1460819 -1.4988478
2.6024921 -9.159379 -1.4983698
2.5420177 -9.159955 -1.4958199
2.4831834 -9.1658516 -1.4942263
2.4321952 -9.2009592 -1.497573
2.3710103 -9.197546 -1.494545
2.3046658 -9.1726656 -1.4880111
2.255147 -9.2144423 -1.4926326
2.1983368 -9.2271461 -1.4924734
2.1419017 -9.2414227 -1.4926326
2.0855913 -9.2563171 -1.4929514
1.992232 -9.1021023 -1.4653814
0.54815435 -2.5814793 -0.38728186
0.53350002 -2.5905955 -0.38823804
0.51759434 -2.5938203 -0.38823804
0.50335574 -2.6056709 -0.38967234
0.48536232 -2.5980358 -0.38791934
0.47818613 -2.6495399 -0.39588755
0.46225891 -2.6543694 -0.39620626
0.44367361 -2.6435256 -0.39397517
0.42839032 -2.6520455 -0.39493135
0.4151414 -2.6741345 -0.39811864
0.40061823 -2.6893249 -0.40019038
0.39067081 -2.7376654 -0.40768051
0.37052527 -2.7155576 -0.40369639
0.35270751 -2.7089696 -0.40226212
0.33595735 -2.710103 -0.40210274
0.97917253 -8.309392 -1.3119136
0.92203313 -8.2603006 -1.3029891
0.8760944 -8.3109636 -1.3103199
0.82166976 -8.2817993 -1.3047422
0.74924767 -8.0547037 -1.2671322
0.67981511 -7.8290071 -1.229841
0.63144678 -7.8290949 -1.2292035
0.58273607 -7.8239617 -1.2277693
0.53754622 -7.8687568 -1.2344625
0.58431423 -9.4001312 -1.4816365
0.19981049 -3.572298 -0.53883731
0.17636253 -3.542891 -0.53389704
0.15544015 -3.5626457 -0.53692496
0.35433763 -9.4353161 -1.4854612
0.25733131 -8.1940308 -1.2846622
0.23837523 -9.433033 -1.4845051
0.18022579 -9.4204988 -1.4822739
0.12248364 -9.4263639 -1.4830709
0.064710371 -9.4368095 -1.4846644
0.0068142703 -9.4478884 -1.4864174
-0.051157013 -9.447752 -1.4864174
-0.10929678 -9.4620676 -1.4888079
-0.16771865 -9.4819479 -1.4921546
-0.22603647 -9.4866619 -1.4931108
-0.28409365 -9.4801626 -1.492314
-0.34190163 -9.4683752 -1.4907203
-0.40040842 -9.4759617 -1.492314
-0.45863968 -9.4752989 -1.4926326
-0.51628673 -9.4634342 -1.4911984
-0.5749414 -9.469943 -1.492792
-0.6331687 -9.4682064 -1.4931108
-0.69161201 -9.4690666 -1.4939076
-0.75079083 -9.4784222 -1.4961387
-0.80817968 -9.4647846 -1.4947044
-0.86695915 -9.4675121 -1.4959793
-0.92532241 -9.464962 -1.4964575
-0.98276871 -9.4532146 -1.4955013
-1.0425911 -9.4636889 -1.4982104
-1.1014382 -9.4639778 -1.499326
-1.1578059 -9.4433222 -1.4970949
-1.2147185 -9.4282074 -1.4958199
-1.2742634 -9.4332952 -1.4978917
-1.3325354 -9.4282312 -1.4983698
-1.3919461 -9.4306202 -1.5001228
-1.4487344 -9.4150724 -1.4990072
-1.497424 -9.3494673 -1.4897641
-0.4948779 -2.9712746 -0.44752157
-0.51511639 -2.979856 -0.44943395
-0.53652275 -2.9941308 -0.45230252
-0.56100291 -3.0237856 -0.45772088
-0.57861638 -3.0154388 -0.45692408
-1.8583801 -9.3780766 -1.504585
-1.912921 -9.3519888 -1.5021945
-1.9712863 -9.3449059 -1.5029913
-2.0269113 -9.3249168 -1.5017165
-0.65489024 -2.9249792 -0.44513112
-0.66817433 -2.9007027 -0.44178447
-0.69005281 -2.9138405 -0.444653
-2.2649426 -9.3126545 -1.5084097
-2.3194108 -9.2880459 -1.5066568
-2.382483 -9.2975473 -1.5106409
-0.76812798 -2.921808 -0.44895586
-0.78296059 -2.9056008 -0.44704348
-0.78974599 -2.8607724 -0.44035017
-0.80889499 -2.861573 -0.44130635
-0.8239699 -2.8480203 -0.43987209
-2.7230854 -9.2035542 -1.5106409
-2.77579 -9.1743889 -1.5085691
-2.8340724 -9.1637859 -1.5096847
-1.0215095 -3.2317219 -0.50839871
-1.0422293 -3.2282116 -0.50887686
-2.9936166 -9.0838137 -1.5052224
-3.0555916 -9.0839891 -1.5084097
-3.1093497 -9.0594664 -1.5074536
-1.1266845 -3.2175021 -0.51158601
-1.1354537 -3.1798463 -0.50632697
-3.2917817 -9.045229 -1.515103
-3.3688455 -9.0831747 -1.525143
-1.1564561 -3.0595932 -0.48927501
-1.1840725 -3.0754731 -0.49325913
-1.1852692 -3.0231118 -0.48545027
-1.207821 -3.0258682 -0.4872033
-3.6247098 -8.9234266 -1.5160593
-3.6850512 -8.9147024 -1.5184497
-3.7412121 -8.8955641 -1.5190872
-3.7933943 -8.8669949 -1.518131
-3.8449728 -8.8372154 -1.5170155
-3.9003227 -8.816165 -1.5174935
-3.9543443 -8.7920675 -1.5174935
-1.3068191 -2.8579087 -0.46855766
-1.3234984 -2.8480456 -0.46823892
-1.3405273 -2.8389785 -0.46807957
-4.1992297 -8.7555761 -1.5288084
-4.225637 -8.6737318 -1.5187684
-4.2792163 -8.6485252 -1.5189278
-4.3361907 -8.6300449 -1.520362
-4.3944454 -8.6138287 -1.5222744
-4.4549336 -8.6016054 -1.5249836
-4.5090065 -8.5767307 -1.5254617
-4.5596886 -8.5454178 -1.5248243
-4.6284881 -8.5476646 -1.5304021
-4.6656365 -8.491416 -1.5253024
-4.6772757 -8.3901949 -1.5119158
-4.6664681 -8.2513428 -1.4915171
-4.6909757 -8.1771679 -1.4830709
-4.7266645 -8.1234846 -1.4784492
-4.7563534 -8.0603199 -1.4720746
-4.7601013 -7.9547396 -1.4577318
-4.7960191 -7.9042816 -1.4537477
-4.8278766 -7.8477974 -1.4486481
-4.8759389 -7.8180265 -1.4486481
-4.9127398 -7.7704372 -1.4453014
-4.9496732 -7.7235231 -1.4421142
-4.9980459 -7.6946626 -1.4424329
-5.0419087 -7.6589026 -1.4414767
-5.1008606 -7.6458898 -1.4449828
-5.1626062 -7.6365304 -1.4492856
-5.2316813 -7.6372886 -1.4556601
-5.3178449 -7.6618166 -1.4668157
-5.3908772 -7.6661911 -1.4741464
-5.4779091 -7.6892538 -1.485302
-5.5405841 -7.6771116 -1.4896047
-5.6103072 -7.6740532 -1.4958199
-5.680788 -7.6712203 -1.5021945
-5.7395973 -7.6520143 -1.5053818
-5.8192859 -7.6598897 -1.5141468
-5.953464 -7.737493 -1.5372547
-6.0875974 -7.8121767 -1.5600438
-6.0290089 -7.6398277 -1.5323144
-1.7531499 -2.1932826 -0.41453317
-6.2527184 -7.726428 -1.5657809
-6.2943783 -7.6810446 -1.5643466
-6.3338251 -7.6331611 -1.5624342
-6.3595862 -7.5692101 -1.5571752
-6.3924775 -7.5142546 -1.5538286
-6.4429736 -7.4801259 -1.5549442
-6.5211911 -7.4776545 -1.5629123
-6.5930858 -7.467103 -1.5692869
-6.6460161 -7.4346042 -1.5710399
-6.6881967 -7.3900251 -1.5702431
-6.7367496 -7.3524876 -1.5710399
-6.7911358 -7.3211465 -1.573271
-6.8778276 -7.3239589 -1.5831516
-6.8933897 -7.2508521 -1.576299
-6.9028378 -7.1721411 -1.5681714
-6.9866719 -7.1706638 -1.5774145
-7.0340052 -7.1311736 -1.5782113
-7.0811162 -7.0913725 -1.5790081
-7.1251965 -7.0484843 -1.5791675
-3.4869299 -3.4070234 -0.74824202
-3.4395828 -3.319742 -0.73294306
-3.3784378 -3.2209094 -0.7147755
-3.4369438 -3.2366703 -0.72338116
-7.3987679 -6.8830895 -1.5925541
-3.5054796 -3.2209704 -0.72975576
-3.5215223 -3.1960828 -0.7289589
-3.4403672 -3.0841269 -0.70712602
-3.3683217 -2.9824538 -0.6875242
-3.4036486 -2.9766793 -0.69118959
-3.4136317 -2.9486396 -0.68943661
-4.8329978 -4.1233711 -0.98681039
-3.7681279 -3.1749949 -0.7566883
-3.8338249 -3.1903381 -0.76640952
-4.9545989 -4.0719519 -0.99653161
-4.8890452 -3.9680574 -0.97772664
-4.908679 -3.9342792 -0.9767704
-4.8785424 -3.8611953 -0.96561491
-4.8943644 -3.825109 -0.96402127
-5.0357528 -3.8860857 -0.98808527
-5.0485096 -3.8467364 -0.98585421
-5.0365191 -3.7889776 -0.97868282
-5.1508093 -3.8257022 -0.99700969
-5.2760863 -3.8687541 -1.0174084
-5.2093639 -3.7708898 -0.99940014
-5.172164 -3.6958044 -0.98744786
-5.2383056 -3.6947284 -0.99605352
-5.0680547 -3.5282602 -0.95812482
-5.2922006 -3.6363184 -0.99780649
-5.3781424 -3.6469991 -1.010237
-5.2330523 -3.5019152 -0.97772664
-5.242908 -3.4621232 -0.97549552
-5.2152534 -3.3980877 -0.966093
-5.2551045 -3.3783033 -0.96975839
-5.3082471 -3.3666182 -0.97597361
-5.4434571 -3.4057269 -0.99780649
-5.3802438 -3.3204098 -0.98187006
-5.5430245 -3.3740931 -1.0088027
-5.5822434 -3.351198 -1.0123087
-5.434504 -3.2172937 -0.98075455
-5.4183354 -3.162982 -0.97406125
-5.3555045 -3.0823948 -0.95876223
-5.3837614 -3.0548358 -0.96051526
-5.4024043 -3.0217443 -0.96051526
-5.7242866 -3.155854 -1.0164522
-5.4720407 -2.9731328 -0.96657109
-5.5972266 -2.9968235 -0.98617291
-5.6539278 -2.9826934 -0.99318492
-5.6265736 -2.9242687 -0.98489803
-5.5943232 -2.8640432 -0.97581422
-5.5033703 -2.7749851 -0.9562124
-5.5813022 -2.7714641 -0.96720856
-5.6762462 -2.7753303 -0.98123264
-5.6291242 -2.7096159 -0.96975839
-5.8008718 -2.7485878 -0.99748778
-5.7818403 -2.6962509 -0.99111319
-5.7318797 -2.6302507 -0.97932023
-5.7713041 -2.6055944 -0.9834637
-5.81425 -2.5821557 -0.98824465
-5.8851686 -2.5705392 -0.99796587
-5.9017372 -2.5347698 -0.99812526
-5.9790215 -2.524627 -1.008962
-5.9661345 -2.4761598 -1.0040218
-6.0616555 -2.4723196 -1.0180458
-6.0043187 -2.406065 -1.005456
-6.0961313 -2.3995559 -1.0188426
-5.9910359 -2.3158257 -0.99812526
-6.0171313 -2.2835763 -1.0001969
-6.050457 -2.2538509 -1.0035436
-6.0715899 -2.2193956 -1.0048186
-6.1287689 -2.1977639 -1.0123087
-6.1281695 -2.1552033 -1.0099182
-6.2140737 -2.1426666 -1.0223486
-6.0494094 -2.0444322 -0.99206942
-6.2980032 -2.0854931 -1.0322292
-6.3660846 -2.0647833 -1.0416317
-6.369225 -2.0226943 -1.0400381
-6.2966723 -1.9571977 -1.0256952
-6.197113 -1.8846242 -1.0068903
-6.4167318 -1.9084929 -1.0419505
-6.4643435 -1.8795607 -1.0480063
-6.477654 -1.8404006 -1.0483249
-6.5068984 -1.8056364 -1.0513529
-6.6064711 -1.7896883 -1.0661738
-6.6965451 -1.7700621 -1.079401
-6.8153028 -1.7567914 -1.0974092
-6.9121246 -1.7365949 -1.111752
-7.2179942 -1.7664461 -1.1608362
-7.4130807 -1.7660611 -1.1914341
-8.1142902 -1.8806142 -1.3058577
-8.1333818 -1.8325267 -1.3071326
-8.1791897 -1.7901871 -1.3128698
-9.042697 -1.9211601 -1.4535884
-9.0098372 -1.8564725 -1.4462577
-9.5786858 -1.9125159 -1.5380515
-10.180527 -1.9678283 -1.6351043
-10.494205 -1.961753 -1.6846666
-10.653712 -1.9239984 -1.7088901
-10.804393 -1.8828335 -1.7316791
-10.986118 -1.8451246 -1.7595679
-11.57515 -1.8711206 -1.8540709
-11.961985 -1.8584235 -1.9154261
-12.019054 -1.7918344 -1.9229163
-12.000504 -1.7138649 -1.9181354
-12.104694 -1.6530253 -1.9334344
-12.082305 -1.5745102 -1.9281753
-12.065287 -1.497062 -1.9238725
-12.080128 -1.423696 -1.9248286
-12.123956 -1.3534912 -1.9305657
-12.138906 -1.2797993 -1.9316813
-12.148494 -1.2054874 -1.932
-12.160577 -1.1313803 -1.9327968
-12.097461 -1.0506761 -1.921482
-12.11844 -0.97761887 -1.9238725
-12.103537 -0.90170223 -1.9205258
-12.05861 -0.82398534 -1.9123982
-12.122558 -0.75365692 -1.9219601
-12.135825 -0.6797573 -1.9233943
-12.123992 -0.60449338 -1.9208446
-12.128459 -0.53013378 -1.9210039
-12.140362 -0.45603877 -1.9224381
-12.145892 -0.38163143 -1.9229163
-11.218587 0.82464659 -1.9202679
-11.225101 0.89440727 -1.922327
-11.195844 0.96124136 -1.918209
-11.208374 1.0316372 -1.9214691
-11.197911 1.1000054 -1.9207827
-11.153718 1.1648015 -1.9142625
-11.190424 1.2380972 -1.9219838
-11.166961 1.304906 -1.9192384
-11.123544 1.3690646 -1.9130614
-11.153037 1.4422228 -1.9197532
-11.096143 1.50414 -1.9113456
-11.095484 1.5734422 -1.9128898
-11.08562 1.6414932 -1.9128898
-11.050025 1.7055725 -1.9084285
-11.026707 1.7713094 -1.906198
-10.999112 1.8361752 -1.9032811
-11.021612 1.9095197 -1.9092865
-11.022294 1.9793761 -1.9115171
-11.012847 2.0475109 -1.9120319
-10.97976 2.1111374 -1.9084285
-10.962734 2.1777 -1.9077423
-10.950131 2.2451231 -1.9079138
-10.910126 2.3067646 -1.9032811
-10.897692 2.374084 -1.9036242
-10.869461 2.4378865 -1.901222
-10.828381 2.4985511 -1.8965893
-10.858856 2.575865 -1.9048253
-10.834232 2.6403449 -1.9032811
-10.800625 2.7024667 -1.9001925
-10.738038 2.756923 -1.8919564
-10.722825 2.8232603 -1.8922997
-10.737638 2.8977315 -1.8981335
-10.71111 2.9611986 -1.8965893
-10.703166 3.0298176 -1.8984767
-10.699513 3.0998218 -1.901222
-10.687848 3.167655 -1.9025947
-10.667268 3.2328889 -1.9024231
-10.671697 3.3058631 -1.9068843
-10.600493 3.3552225 -1.8976188
-10.615327 3.4317222 -1.9041389
-10.564135 3.4869075 -1.8986483
-10.527603 3.5466282 -1.8959029
-10.500985 3.609556 -1.8950449
-10.473062 3.6719644 -1.8940154
-10.469814 3.7431235 -1.8976188
-10.475343 3.8177552 -1.9029379
-10.457261 3.8840177 -1.9039674
-10.400064 3.9355533 -1.8977903
-10.411569 4.0131149 -1.9044821
-10.345483 4.0607214 -1.8967608
-10.374345 4.1456981 -1.9068843
-10.314035 4.1951675 -1.900364
-10.292651 4.2602587 -1.901222
-10.246344 4.314919 -1.8974471
-10.196131 4.36762 -1.8929859
-10.155592 4.4241967 -1.8904122
-10.141766 4.492413 -1.8929859
-10.109518 4.5525346 -1.892128
-10.06975 4.609148 -1.8898973
-10.049317 4.6745887 -1.8914417
-10.060525 4.7551103 -1.899163
-10.029383 4.8158979 -1.8988198
-9.9819355 4.8687072 -1.8953881
-9.9615841 4.9346747 -1.8972756
-9.909997 4.9850779 -1.8931575
-9.8651857 5.038619 -1.8904122
-9.8139687 5.0886235 -1.8864657
-9.7738438 5.144156 -1.8847499
-9.7195044 5.1919594 -1.8802886
