# .PCD v0.7 - Point Cloud Data file format
VERSION 0.7
FIELDS x y z
SIZE 4 4 4
TYPE F F F
COUNT 1 1 1
WIDTH 1517
HEIGHT 1
VIEWPOINT 0 0 0 1 0 0 0
POINTS 1517
DATA ascii
-7.9527755 -0.24782784 -1.936343
-7.9522057 -0.1989776 -1.9358608
-7.9474549 -0.15007095 -1.9344143
-7.9259062 -0.10102223 -1.9288696
-7.9166722 -0.052325156 -1.9264588
-7.9420772 -0.0037566419 -1.9327267
-7.9186592 0.044839803 -1.926941
-7.9386144 0.093670368 -1.9320036
-7.9388604 0.14239657 -1.9322447
-7.9553013 0.19152883 -1.936584
-7.9161439 0.23918937 -1.9271821
-7.9378037 0.28860712 -1.9329679
-7.9029164 0.33590108 -1.9247713
-7.937542 0.38618368 -1.9339322
-7.9137039 0.43370873 -1.9286286
-7.9108939 0.48225814 -1.9286286
-7.9155321 0.5313105 -1.9305571
-7.5247278 -0.18744816 -1.9175574
-7.5654087 -0.14202058 -1.9278784
-7.5574284 -0.095486939 -1.9256128
-7.5588398 -0.049119968 -1.9258646
-7.5589991 -0.0027388753 -1.9258646
-7.5375824 0.043520506 -1.9203265
-7.5468507 0.089884177 -1.9228437
-7.5509953 0.13627616 -1.9241024
-7.5635619 0.18293253 -1.9276266
-7.5371461 0.22857678 -1.9210817
-7.5433388 0.2751013 -1.9230955
-7.5569797 0.32203966 -1.9271232
-7.5828943 0.36976787 -1.9344234
-7.5398965 0.41406196 -1.9238507
-7.5884118 0.46344221 -1.9371924
-7.5525942 0.50778949 -1.9286336
-7.5406494 0.55348462 -1.926368
-7.531323 0.59928244 -1.9248576
-7.5178614 0.64465612 -1.9223403
-7.5128007 0.6906842 -1.9220885
-7.5074577 0.73667437 -1.9218369
-7.5104971 0.78352839 -1.9238507
-7.5209394 0.83129758 -1.9278784
-7.5003166 0.87563473 -1.9238507
-7.4871178 0.92069477 -1.9218369
-7.4938054 0.96822906 -1.9251094
-7.4637475 1.0109457 -1.9188161
-7.4736938 1.0590308 -1.9230955
-7.4680123 1.1050102 -1.9233472
-7.4362226 1.1469778 -1.9168022
-7.4366894 1.1938107 -1.9188161
-7.4196782 1.2378268 -1.9162987
-7.4357839 1.2874564 -1.922592
-7.3877354 1.3258791 -1.9120193
-7.3737521 1.3701239 -1.9105089
-7.3671069 1.4157078 -1.9110124
-7.3639774 1.4620153 -1.9125228
-7.3558164 1.5073665 -1.9127744
-7.3379064 1.5506722 -1.9105089
-7.3291993 1.5958734 -1.9107606
-7.3154917 1.6399678 -1.9097537
-7.2949181 1.6824321 -1.9069847
-7.2919908 1.728947 -1.9089985
-7.2953496 1.7770923 -1.9127744
-7.261775 1.8161879 -1.9067329
-7.2533069 1.8614327 -1.9074881
-7.2426844 1.9061494 -1.9077399
-7.2383275 1.9525698 -1.9097537
-7.2094193 1.9923073 -1.9052225
-7.1868153 2.033608 -1.9024535
-7.1491027 2.0703998 -1.8956567
-7.1306963 2.1125777 -1.8941463
-7.1426082 2.1638658 -1.9009432
-7.1449132 2.2125173 -1.9052225
-7.1312027 2.2563159 -1.9052225
-7.1338005 2.3053858 -1.9097537
-7.1140065 2.3472953 -1.9082433
-7.1049728 2.3927548 -1.9097537
-7.0581226 2.4252992 -1.9009432
-7.0485883 2.4704819 -1.9024535
-7.0424104 2.5169413 -1.9049708
-7.0304718 2.5614302 -1.9059777
-7.0227885 2.6075516 -1.9082433
-7.001225 2.6485393 -1.9067329
-6.983036 2.6907523 -1.9062295
-6.959187 2.730721 -1.9042156
-6.9225278 2.7654727 -1.8986775
-6.9493594 2.8257565 -1.9110124
-6.9059558 2.8576143 -1.9037122
-6.883832 2.8980572 -1.9024535
-6.8650303 2.9398601 -1.9022018
-6.8592849 2.9873374 -1.905726
-6.838171 3.0281932 -1.9049708
-6.8212266 3.070889 -1.9054743
-6.7899351 3.1070483 -1.90195
-6.7760081 3.1511004 -1.9034604
-6.765296 3.1967521 -1.9059777
-6.7289767 3.2302461 -1.9011948
-6.7125092 3.27317 -1.9022018
-6.7001047 3.3181608 -1.9044673
-6.6718369 3.3552964 -1.9022018
-6.6476755 3.3944106 -1.9011948
-6.6250043 3.4342453 -1.9006914
-6.5729737 3.4586089 -1.891629
-6.5601654 3.5034332 -1.8941463
-6.5368438 3.5426977 -1.8936429
-6.5107427 3.5804086 -1.8923842
-6.4861155 3.618876 -1.891629
-6.4747381 3.6648026 -1.8949015
-6.467237 3.713135 -1.8994327
-6.4284415 3.7434947 -1.8946499
-6.4261842 3.795171 -1.9009432
-6.3986249 3.8320439 -1.8996844
-6.376646 3.8722374 -1.9001878
-6.3453493 3.9067247 -1.8979223
-6.3204374 3.9450731 -1.8976706
-6.2830262 3.9755015 -1.8936429
-6.2471094 4.0066643 -1.8901186
-6.2159157 4.0407009 -1.8881048
-6.2071695 4.0894132 -1.8931395
-6.1731062 4.1215119 -1.8903704
-6.1629314 4.1696148 -1.8951533
-6.1276522 4.2007852 -1.8921325
-6.1001716 4.2372007 -1.891629
-6.0542703 4.2606273 -1.8853358
-6.0358944 4.3033133 -1.887853
-6.0023146 4.3351684 -1.8855875
-6.0013781 4.3907728 -1.8938947
-5.9719911 4.4257855 -1.8931395
-5.954011 4.469317 -1.8961602
-5.925705 4.5051804 -1.8959085
-5.8979502 4.5414548 -1.8959085
-5.8638678 4.5727978 -1.8938947
-5.8379779 4.6104908 -1.8946499
-5.8095784 4.6462255 -1.8946499
-5.7854729 4.6854391 -1.8961602
-5.7723308 4.7337365 -1.9014466
-5.7267952 4.7554646 -1.8959085
-5.7049165 4.796742 -1.8984258
-5.6687441 4.8260107 -1.8961602
-5.6412249 4.8625979 -1.8969154
-5.6003442 4.8875756 -1.8931395
-5.5622711 4.9147978 -1.8903704
-5.5399446 4.9559321 -1.8931395
-5.4986711 4.9800868 -1.8893634
-5.4651566 5.0111165 -1.8883566
-5.4307594 5.0412636 -1.8870978
-5.4124198 5.0864205 -1.891629
-5.3712912 5.1101961 -1.8881048
-5.3530793 5.1558127 -1.8928877
-5.3310447 5.19802 -1.8964119
-5.2838964 5.2156763 -1.8908738
-5.2312555 5.227478 -1.8833219
-5.2092876 5.2698016 -1.8870978
-5.1748261 5.2995887 -1.8863426
-5.127429 5.315917 -1.8808045
-5.1154113 5.3689985 -1.8886082
-5.0836978 5.4016943 -1.8891118
-5.0465045 5.4285331 -1.8876014
-5.0137548 5.4601083 -1.887853
-4.9834094 5.4943538 -1.8891118
-4.9373322 5.5111327 -1.8843288
-4.9233065 5.5637908 -1.8921325
-4.8744259 5.5771356 -1.8863426
-4.8388486 5.6054745 -1.8858392
-4.7924318 5.6210675 -1.8810563
-4.7441368 5.6340814 -1.8755182
-4.7094774 5.663085 -1.8755182
-4.691226 5.7120676 -1.8823149
-4.6676726 5.7550254 -1.8870978
-4.636508 5.7888451 -1.88886
-4.6171122 5.8376789 -1.8956567
-4.557972 5.8361535 -1.8858392
-4.50139 5.8371882 -1.8770286
-4.4537621 5.8492994 -1.871994
-4.4323277 5.8958554 -1.8782873
-4.3937607 5.9198327 -1.8772804
-4.3888178 5.989615 -1.8911256
-4.3644633 6.0336823 -1.8966637
-4.3059864 6.0304203 -1.8870978
-4.2822857 6.0757122 -1.8931395
-4.2382922 6.0923405 -1.8901186
-4.2041178 6.1230183 -1.891629
-4.170269 6.1543069 -1.8933911
-4.1378088 6.1878242 -1.8959085
-4.0693779 6.1670547 -1.8815597
-4.0272365 6.1854196 -1.8795459
-4.0038548 6.2328124 -1.8865944
-3.972789 6.2687063 -1.8901186
-3.9486165 6.3159418 -1.8971671
-3.9082642 6.3375802 -1.8964119
-3.8672922 6.3581338 -1.8954051
-3.8267128 6.3792539 -1.8946499
-3.7973542 6.4192729 -1.8996844
-3.7525303 6.4332566 -1.8969154
-3.7091258 6.4494495 -1.8949015
-3.6747341 6.4813471 -1.8976706
-3.6334794 6.5012388 -1.8969154
-3.6009924 6.5369735 -1.9009432
-3.5575819 6.5529919 -1.899181
-3.5186763 6.5772576 -1.8999362
-3.4660668 6.5756087 -1.8931395
-3.4243162 6.5941758 -1.8923842
-3.3930471 6.6331563 -1.8976706
-3.3627348 6.6745934 -1.9037122
-3.3148341 6.6812301 -1.8996844
-3.2780249 6.7101398 -1.9022018
-3.235532 6.7275105 -1.9014466
-3.2020607 6.7638559 -1.9062295
-3.1564105 6.7746038 -1.9037122
-3.1172032 6.7991219 -1.9052225
-3.0782118 6.824296 -1.9069847
-3.0229337 6.8129787 -1.8984258
-2.9907513 6.8535738 -1.9047191
-2.9356654 6.8415575 -1.8961602
-2.9015315 6.8781667 -1.9014466
-2.8563073 6.888689 -1.8994327
-2.8169072 6.9132552 -1.9014466
-2.7747951 6.9313078 -1.9016984
-2.7477984 6.9878316 -1.9127744
-2.7073109 7.0108795 -1.9145366
-2.6645851 7.0282645 -1.9147884
-2.6173594 7.0335975 -1.9117676
-2.570833 7.0404344 -1.9092503
-2.5285645 7.0588093 -1.9100055
-2.4935462 7.0979314 -1.9165505
-2.4458494 7.1012025 -1.913278
-2.3904667 7.0812325 -1.9037122
-2.3451483 7.0902538 -1.9022018
-2.302494 7.1072721 -1.902957
-2.2562075 7.1129637 -1.9006914
-2.2151036 7.1349921 -1.902957
-2.1791594 7.1743774 -1.9100055
-2.1331677 7.1811194 -1.9082433
-2.0931141 7.208014 -1.9120193
-2.0499041 7.2244453 -1.9130262
-2.0158775 7.2741928 -1.9230955
-1.9545223 7.2247677 -1.9064811
-1.9175665 7.2646966 -1.9140332
-1.8830897 7.3156896 -1.9246058
-1.8148471 7.2341752 -1.8996844
-1.7658292 7.2263722 -1.8946499
-1.7463206 7.3415794 -1.922592
-1.693821 7.3200989 -1.9140332
-1.6490862 7.3312984 -1.9142848
-1.6040713 7.341279 -1.9142848
-1.5614058 7.3623438 -1.9173057
-1.5167869 7.37463 -1.9180609
-1.4686705 7.3695607 -1.9142848
-1.4263581 7.3936381 -1.9183125
-1.3848706 7.4231811 -1.9238507
-1.336893 7.4182043 -1.9203265
-1.2878677 7.4062448 -1.91504
-1.2425596 7.4149618 -1.9152918
-1.1967305 7.4205356 -1.9147884
-1.1504351 7.4229574 -1.9135296
-1.1052942 7.4327483 -1.9142848
-1.0626705 7.4604688 -1.9198229
-1.0128239 7.4371219 -1.9120193
-0.96779537 7.4479947 -1.913278
-0.9217205 7.4509115 -1.9125228
-0.87609822 7.4573879 -1.9127744
-0.82754016 7.4376149 -1.9062295
-0.78441745 7.4666152 -1.9125228
-0.73887414 7.4741769 -1.913278
-0.69407171 7.4901338 -1.9162987
-0.64851725 7.4990726 -1.9175574
-0.60179394 7.4942284 -1.9152918
-0.55529773 7.491024 -1.9135296
-0.51089936 7.5174637 -1.9195713
-0.46583888 7.5378442 -1.9241024
-0.41753367 7.5038414 -1.9145366
-0.37086055 7.4936957 -1.9112641
-0.32541856 7.5084 -1.9145366
-0.27937779 7.5112224 -1.9147884
-0.23316418 7.5089259 -1.9137814
-0.1867719 7.4976377 -1.9105089
-0.14109161 7.5160599 -1.91504
-0.094836228 7.5061393 -1.912271
-0.048796657 7.5094833 -1.9130262
-0.0027208228 7.5154481 -1.9145366
0.043271333 7.4940319 -1.9089985
0.089264512 7.4945931 -1.9092503
0.13577117 7.5229335 -1.9168022
0.18150818 7.5045438 -1.912271
0.22816677 7.523603 -1.9175574
0.27372769 7.50562 -1.913278
0.31891191 7.4834938 -1.9079915
0.3668485 7.5229621 -1.9188161
0.41157013 7.4944782 -1.9120193
0.45766553 7.4937439 -1.9125228
0.49708563 7.3932667 -1.8870978
0.5453431 7.4296508 -1.8974189
0.59237796 7.4444952 -1.9022018
0.63903695 7.4522915 -1.9052225
0.68776202 7.4809971 -1.9137814
0.73185688 7.4583359 -1.9089985
0.77881098 7.4652557 -1.9120193
0.82460231 7.4603367 -1.9120193
0.8713721 7.463788 -1.9142848
0.91703457 7.4573402 -1.9140332
0.96041942 7.4333363 -1.9092503
1.0062711 7.4292216 -1.9097537
1.0542802 7.4401555 -1.9142848
1.0965136 7.4105692 -1.9082433
1.1455029 7.4266577 -1.9142848
1.1870635 7.3946443 -1.9077399
1.2303442 7.3748116 -1.9044673
1.2768924 7.3747525 -1.9064811
1.3193846 7.3515372 -1.9024535
1.3651749 7.3471093 -1.9034604
1.4122386 7.3490491 -1.9062295
1.4567398 7.3373976 -1.9054743
1.501151 7.3254766 -1.9047191
1.5464711 7.3180218 -1.9052225
1.5923738 7.3131232 -1.9064811
1.6298084 7.2701621 -1.8976706
1.6802577 7.2854872 -1.9044673
1.7264916 7.2816324 -1.9062295
1.7727413 7.2774839 -1.9079915
1.818066 7.2692862 -1.9087468
1.8635974 7.2617435 -1.9097537
1.9088583 7.2529798 -1.9105089
1.9487897 7.2243114 -1.9059777
1.9905032 7.2028894 -1.9034604
2.0325541 7.1830902 -1.9014466
2.0712073 7.1518912 -1.8964119
2.1145017 7.1371922 -1.8959085
2.1571326 7.1203785 -1.8949015
2.2013543 7.1088576 -1.8954051
2.2466834 7.1007528 -1.8969154
2.2902105 7.086834 -1.8969154
2.3263745 7.05059 -1.8908738
2.3804016 7.068285 -1.8996844
2.4152367 7.0288334 -1.8928877
2.46152 7.0230145 -1.8954051
2.505543 7.0105128 -1.8961602
2.5379117 6.9659085 -1.8881048
2.5843108 6.9601851 -1.8908738
2.6283386 6.9478178 -1.8918808
2.6646574 6.9153042 -1.8873496
2.7112803 6.9096351 -1.8903704
2.7511132 6.8865776 -1.8886082
2.7893071 6.8597059 -1.8858392
2.8198752 6.8147392 -1.8780355
2.8680196 6.8124723 -1.8823149
2.9059567 6.7858496 -1.8797977
2.9479258 6.7687783 -1.8800493
2.9988065 6.771801 -1.886091
3.0383148 6.7488608 -1.8848323
3.0796678 6.7300911 -1.8848323
3.1192727 6.7075577 -1.8838253
3.1620245 6.691792 -1.8848323
3.2042813 6.6748819 -1.8855875
3.2405119 6.6455259 -1.8828185
3.2773619 6.617712 -1.8805529
3.3244274 6.6104474 -1.8843288
3.3671262 6.5942345 -1.8855875
3.3954997 6.5502505 -1.8787907
3.4230101 6.505311 -1.8717422
3.4564795 6.4722333 -1.8682179
3.5067325 6.4704738 -1.8740078
3.525851 6.4115205 -1.8629316
3.577384 6.4117403 -1.8694767
3.6199951 6.395565 -1.8712388
3.6350777 6.3312664 -1.8586522
3.6797009 6.3188791 -1.861673
3.7233245 6.3045154 -1.8641903
3.7500052 6.2616234 -1.8581487
3.7803187 6.2252598 -1.8541211
3.8082979 6.1854644 -1.8490864
3.8615515 6.1866112 -1.8566383
3.8937476 6.1538043 -1.8538693
3.9397922 6.1428313 -1.857897
3.9779372 6.1193533 -1.8581487
4.0159426 6.0956378 -1.8584005
4.0758376 6.1046882 -1.8689733
4.0665827 6.0106268 -1.8473243
4.1192551 6.0087109 -1.8546245
4.1427965 5.9642453 -1.848583
4.1820993 5.9426708 -1.8498416
4.2139897 5.9105935 -1.8478278
4.260376 5.8987484 -1.8523589
4.2993469 5.8764014 -1.8536175
4.3514562 5.8716831 -1.860666
4.3815928 5.837132 -1.8581487
4.4284544 5.8247757 -1.8629316
4.4717865 5.8074627 -1.8662041
4.4995999 5.7699933 -1.8629316
4.5427165 5.7521496 -1.8662041
4.5682545 5.7120743 -1.8621764
4.6196618 5.7042437 -1.8689733
4.6588707 5.6810293 -1.8707353
4.667057 5.6203184 -1.8599108
4.7033234 5.5937986 -1.860666
4.7413216 5.5692558 -1.8621764
4.7690864 5.5327282 -1.8596591
4.8029447 5.5033612 -1.8596591
4.8737879 5.5158534 -1.8742596
4.8785057 5.4533849 -1.8629316
4.9313641 5.444869 -1.8704836
4.9568324 5.4059477 -1.8674628
4.9800334 5.3647914 -1.8636868
5.0015907 5.322144 -1.8594074
5.0494947 5.3074822 -1.8651972
5.0705533 5.2645483 -1.8609178
5.1142454 5.2451172 -1.8651972
5.1415739 5.2088165 -1.8634351
5.1898551 5.1936011 -1.8694767
5.2271304 5.1671023 -1.8714905
5.2712002 5.1471033 -1.8760216
5.3040762 5.1160069 -1.8765252
5.3269596 5.0753536 -1.8735044
5.3495445 5.0346127 -1.8704836
5.3654509 4.9878554 -1.8651972
5.4087858 4.9666228 -1.8697284
5.425539 4.9209871 -1.8649455
5.4686055 4.8992286 -1.8694767
5.4601521 4.8315883 -1.8561349
5.5217571 4.8260193 -1.8672111
5.5248928 4.7692795 -1.8581487
5.5871916 4.7635469 -1.8694767
5.6229773 4.7347856 -1.8717422
5.6519237 4.7001944 -1.8717422
5.6881356 4.6715693 -1.8742596
5.6963992 4.6201181 -1.8674628
5.7405028 4.597785 -1.8727492
5.7261 4.5288525 -1.8586522
5.8170857 4.5430789 -1.8795459
5.8540483 4.5143929 -1.8825667
5.83775 4.4449673 -1.8682179
5.8827052 4.4224405 -1.8740078
5.8996277 4.3787627 -1.8707353
5.9287262 4.3441973 -1.8714905
5.9576225 4.3094392 -1.8722457
5.9965539 4.2818017 -1.8762734
6.0329971 4.2521758 -1.8795459
6.0518246 4.210103 -1.8772804
6.0711608 4.1685081 -1.8752664
6.1310735 4.1545238 -1.886091
6.1492095 4.1119838 -1.8838253
6.1702857 4.0715103 -1.8825667
6.1683884 4.0161462 -1.8742596
6.223856 3.9981005 -1.8838253
6.2474532 3.9593182 -1.8835737
6.2831178 3.9280932 -1.8870978
6.2963934 3.8828623 -1.8838253
6.3349829 3.8532088 -1.8883566
6.3551869 3.812274 -1.8873496
6.3742943 3.7707436 -1.886091
6.3906236 3.7276592 -1.8840771
6.4251204 3.6951325 -1.8876014
6.4501982 3.6570711 -1.8883566
6.4463277 3.6027865 -1.8805529
6.4725509 3.5654998 -1.8818115
6.5325799 3.5464988 -1.8931395
6.5294709 3.4931083 -1.8858392
6.5584865 3.4570403 -1.8881048
6.6079178 3.4314532 -1.8964119
6.6210942 3.3868761 -1.8941463
6.6331081 3.3418312 -1.891629
6.6682262 3.3083813 -1.8959085
6.6849222 3.2657042 -1.8949015
6.6961131 3.2204297 -1.8923842
6.7262435 3.1842523 -1.8954051
6.7535501 3.1466 -1.8976706
6.751617 3.0954204 -1.891629
6.7687187 3.0531392 -1.8911256
6.7935171 3.0142975 -1.8928877
6.8003535 2.9675238 -1.8896152
6.828217 2.9299402 -1.8923842
6.8433909 2.8868594 -1.891629
6.8725972 2.8496342 -1.8949015
6.8845758 2.8052197 -1.8933911
6.9007602 2.7625642 -1.8931395
6.9220843 2.721941 -1.8943981
6.9404612 2.680114 -1.8949015
6.9640145 2.6402228 -1.8969154
6.986433 2.5998056 -1.8986775
6.9986172 2.5555608 -1.8976706
7.0232768 2.5158341 -1.9001878
7.0349293 2.4714096 -1.899181
7.0334907 2.4225235 -1.8946499
7.0564752 2.3821075 -1.8969154
7.0801468 2.3418047 -1.8994327
7.1045098 2.301599 -1.9022018
7.1166534 2.2573781 -1.9016984
7.1266737 2.2125206 -1.9006914
7.1327071 2.1664999 -1.8986775
7.1597819 2.1268282 -1.9024535
7.1829205 2.0858257 -1.9052225
7.2058249 2.0446196 -1.9079915
7.2070432 1.9972647 -1.9049708
7.2228994 1.9540167 -1.9059777
7.2347531 1.9096611 -1.9059777
7.2528949 1.8669226 -1.9077399
7.2604589 1.8214424 -1.9067329
7.2714982 1.7768587 -1.9067329
7.2803812 1.7317601 -1.9062295
7.2965269 1.6883653 -1.9077399
7.3114705 1.6446251 -1.9089985
7.3129144 1.597872 -1.9067329
7.3225813 1.5529708 -1.9067329
7.3423996 1.5101563 -1.909502
7.3524766 1.4652649 -1.9097537
7.3356719 1.4151722 -1.902957
7.3385086 1.3690696 -1.9014466
7.3553433 1.3255608 -1.9037122
7.3862219 1.2843847 -1.9097537
7.4025536 1.2404796 -1.9120193
7.4243574 1.197347 -1.9157952
6.242795 0.96746606 -1.602893
5.8475204 0.86947632 -1.4974174
5.8297505 0.83030361 -1.4913759
5.8117208 0.79138184 -1.4853343
5.8164673 0.75570685 -1.4853343
5.8017855 0.71762615 -1.4802997
5.8022346 0.68156165 -1.4792928
0 0 -0
0 0 -0
0 0 -0
0 0 -0
0 0 -0
0 0 -0
0 0 -0
0 0 -0
5.8078256 0.35883301 -1.4732512
5.8002553 0.32265192 -1.4707339
5.8001924 0.28696036 -1.4702305
5.7438307 0.24884827 -1.4551265
5.8177838 0.21630183 -1.4740064
5.8102956 0.18032971 -1.4717408
5.8025856 0.14445764 -1.4694753
5.8043303 0.10886914 -1.4697269
5.8068242 0.073276944 -1.4702305
5.7374849 0.037189122 -1.4521058
5.784059 0.0020031349 -1.4641888
5.7955761 -0.033553667 -1.4672097
5.8068738 -0.069251724 -1.4702305
5.7366695 -0.103627 -1.4521058
0 -0 -0
0 -0 -0
0 -0 -0
0 -0 -0
0 -0 -0
0 -0 -0
0 -0 -0
5.830893 -0.3921231 -1.4797962
5.8457508 -0.42916772 -1.4843274
5.8931746 -0.46901774 -1.4974174
5.8901858 -0.5051688 -1.4974174
5.9679289 -0.54873896 -1.5185629
5.871985 -0.57627881 -1.4943967
7.549963 -0.78764355 -1.9341717
7.5257487 -0.83182895 -1.929137
7.5243483 -0.87843907 -1.930144
7.5092111 -0.92341036 -1.9276266
7.4899659 -0.9677332 -1.9241024
7.4934778 -1.014971 -1.9266198
7.4420719 -1.0545516 -1.9147884
7.2123914 -1.0672007 -1.8561349
6.999105 -1.0795794 -1.8017609
6.8767247 -1.1039498 -1.7713014
6.7524042 -1.1265414 -1.7403383
6.6976838 -1.1596991 -1.7277519
6.6228085 -1.1886389 -1.7098788
6.5497355 -1.2170575 -1.6925094
6.5602026 -1.2606921 -1.6972923
6.652967 -1.3208929 -1.7239758
6.6561146 -1.3640207 -1.7269967
6.6457257 -1.4044361 -1.7264931
6.6105051 -1.4394232 -1.7194446
6.5902162 -1.4774175 -1.7164239
6.5753684 -1.5165218 -1.7149135
6.5405135 -1.5508119 -1.7081168
6.5083075 -1.5854185 -1.7020751
6.462779 -1.6164017 -1.6925094
6.4630508 -1.6586719 -1.6952784
6.4274817 -1.6916479 -1.6884817
6.4001613 -1.7265182 -1.6839505
6.3735886 -1.7613748 -1.679671
6.3561425 -1.7986051 -1.6779089
6.3263946 -1.8321885 -1.6728743
6.3057537 -1.8682234 -1.670357
6.2858357 -1.9043546 -1.6680914
6.2620139 -1.9391669 -1.6648189
6.2435384 -1.9755101 -1.6630567
6.2193274 -2.0099144 -1.6597843
6.1903343 -2.0425801 -1.6552531
6.199698 -2.0879366 -1.6612947
6.1291065 -2.1061275 -1.6454356
6.1252017 -2.1468959 -1.6479529
6.1155586 -2.1857417 -1.6489599
6.0920296 -2.2195811 -1.6461908
6.0801101 -2.2575929 -1.6466942
6.0589018 -2.2921183 -1.6446804
6.048336 -2.3306437 -1.6456873
6.0555439 -2.3761947 -1.6517289
6.0381536 -2.4122293 -1.6509737
6.0017219 -2.4404852 -1.6449322
5.9964714 -2.4813352 -1.6477011
5.9864855 -2.520335 -1.6492115
5.9753566 -2.5589244 -1.6504703
5.9604301 -2.5959268 -1.6507219
5.9620886 -2.6402869 -1.6557566
5.9281254 -2.668875 -1.6507219
5.9010773 -2.7003672 -1.6477011
5.8659682 -2.7279558 -1.6424148
5.8534946 -2.7659645 -1.6436734
5.8556075 -2.8110421 -1.6492115
5.8104119 -2.8333461 -1.6411562
5.7816429 -2.8633618 -1.6378837
5.7570477 -2.8953054 -1.6358697
5.7495174 -2.9358561 -1.6388905
5.7356911 -2.9733062 -1.6401492
5.7156262 -3.0075424 -1.6396458
5.6910887 -3.0393653 -1.6378837
5.675736 -3.0760722 -1.6388905
5.64149 -3.1024466 -1.6343594
5.6240377 -3.1379466 -1.6348629
5.5903592 -3.1642926 -1.6305834
5.5884643 -3.2086532 -1.6358697
5.5452533 -3.2292478 -1.6288213
5.5278344 -3.2646883 -1.6295764
5.5135112 -3.3020253 -1.6313386
5.4972825 -3.338305 -1.6325973
5.4915304 -3.3811052 -1.6371285
5.5010586 -3.4336958 -1.6464425
5.4839759 -3.4699721 -1.6477011
5.4283648 -3.4816134 -1.6371285
5.3825564 -3.499033 -1.6295764
5.3803821 -3.5447712 -1.6356181
5.3681898 -3.584166 -1.6386389
5.3485012 -3.618664 -1.639394
5.3070388 -3.6382813 -1.6333525
5.3084612 -3.6873384 -1.6409044
5.2841535 -3.7187271 -1.640401
5.2470512 -3.740968 -1.6358697
5.2451825 -3.7883914 -1.6426666
5.2046542 -3.8079329 -1.6371285
5.1765256 -3.836339 -1.6356181
5.155211 -3.8697722 -1.6363733
5.11519 -3.8890316 -1.6310868
5.0659251 -3.9008613 -1.6227797
5.0396051 -3.9300864 -1.6220245
5.0837541 -4.0149145 -1.6446804
5.0408831 -4.0315261 -1.6386389
5.0393672 -4.0812612 -1.6464425
4.9865403 -4.0893998 -1.6371285
4.979969 -4.135376 -1.6434218
4.9322777 -4.1471705 -1.6358697
4.9354792 -4.2018223 -1.6456873
4.9184017 -4.2396088 -1.6487081
4.8922954 -4.2697077 -1.6487081
4.8906641 -4.3214326 -1.657267
4.8517938 -4.3403907 -1.6529875
4.8265047 -4.3713784 -1.653491
4.7575035 -4.3623238 -1.6386389
4.7753353 -4.4329114 -1.6544979
4.7628565 -4.4760461 -1.6597843
4.7184734 -4.4891772 -1.6537427
4.6817775 -4.5093174 -1.6504703
4.6387753 -4.5230961 -1.6449322
4.6143789 -4.554873 -1.6461908
2.3223071 -2.3209403 -0.81371456
2.3087027 -2.3358343 -0.81396627
2.298384 -2.3541107 -0.81547666
4.5052385 -4.6709232 -1.6477011
4.434433 -4.6543379 -1.6318421
4.409771 -4.685688 -1.6333525
4.3703933 -4.7013168 -1.6293248
4.4147811 -4.8078804 -1.6575187
4.3877983 -4.8377457 -1.6585256
4.3476992 -4.853045 -1.6544979
4.3152738 -4.8767314 -1.653491
4.2731681 -4.8892732 -1.6487081
4.2291737 -4.8992844 -1.64317
4.1896138 -4.9140954 -1.639394
4.1537719 -4.9330473 -1.6371285
4.1203308 -4.9547215 -1.6358697
4.0892372 -4.9791617 -1.6356181
4.0494637 -4.9928851 -1.6318421
4.0229869 -5.0229254 -1.6336042
3.9902902 -5.0452385 -1.632849
2.0004795 -2.5618286 -0.80515569
1.9799943 -2.5679243 -0.80314183
1.95951 -2.5738652 -0.80112797
1.9425169 -2.5842931 -0.80062449
1.9156635 -2.5813985 -0.79584157
1.8465867 -2.5205059 -0.7724306
1.7233074 -2.3828053 -0.72460157
1.6990929 -2.3799455 -0.72032213
0 -0 -0
3.6629012 -5.265337 -1.6280661
3.64696 -5.3116474 -1.6356181
3.611042 -5.3291178 -1.6341077
3.5734332 -5.3439341 -1.6318421
3.5453737 -5.3730297 -1.6341077
3.5133948 -5.3963046 -1.6346111
3.4713247 -5.4039187 -1.6303316
3.4272213 -5.4079504 -1.6250453
3.3965397 -5.4329805 -1.626304
3.3595834 -5.4479532 -1.6245419
3.3286068 -5.4725986 -1.6258005
3.3009398 -5.5028787 -1.6288213
3.2656341 -5.5205302 -1.6280661
3.2346253 -5.5454798 -1.6295764
3.2140489 -5.5887122 -1.6366249
3.1658528 -5.5839138 -1.6293248
3.1192539 -5.5812697 -1.6227797
3.0816801 -5.5943704 -1.6210176
3.0459101 -5.6106224 -1.6202624
1.6033643 -2.9975314 -0.84392232
1.588101 -3.0133059 -0.84568447
1.5682436 -3.0204167 -0.84492928
2.907742 -5.6845446 -1.6205142
2.8732431 -5.7031436 -1.6207659
2.8317425 -5.7076621 -1.61699
2.8013411 -5.7344947 -1.619759
2.7698777 -5.7594252 -1.6220245
2.7216477 -5.7491965 -1.6142209
2.6949043 -5.7842097 -1.6195072
2.6512947 -5.783042 -1.6144726
2.6081991 -5.7824397 -1.6096897
2.5707068 -5.7939115 -1.6084311
2.5451729 -5.8326378 -1.614976
2.5226951 -5.8792725 -1.6237867
2.4839396 -5.8883991 -1.6220245
2.4485037 -5.9053173 -1.622528
2.4016314 -5.8942389 -1.6152278
2.3708158 -5.9223409 -1.6190038
2.3323071 -5.9313726 -1.6174934
2.2909875 -5.9329329 -1.6139691
2.2555699 -5.9495931 -1.6147243
2.2196968 -5.9651351 -1.6152278
2.1711013 -5.9459162 -1.6061654
2.1443696 -5.9864583 -1.6137174
2.1043887 -5.9903727 -1.6112001
2.0675929 -6.0031719 -1.6112001
2.0288618 -6.0102439 -1.6096897
1.9955928 -6.0336056 -1.6127105
1.9552523 -6.0356092 -1.6099415
1.9234496 -6.0640974 -1.6144726
1.8836218 -6.0674672 -1.6122071
1.8421373 -6.0650206 -1.6084311
1.8026834 -6.0687876 -1.6064172
1.7651421 -6.078805 -1.6061654
1.7259604 -6.083004 -1.6044034
1.6906713 -6.1009412 -1.6064172
1.6547216 -6.1168051 -1.6079276
1.615429 -6.1202931 -1.6061654
1.5776039 -6.1291528 -1.6059138
1.5404376 -6.1405945 -1.6064172
1.5029603 -6.1508713 -1.6066689
1.464743 -6.1580944 -1.6061654
1.4273665 -6.1688519 -1.6066689
1.3894883 -6.1774936 -1.6066689
1.3561039 -6.2067037 -1.6122071
1.3179947 -6.2149076 -1.6122071
1.2786658 -6.2171903 -1.6106967
1.2459806 -6.2524433 -1.6179968
0.76254416 -3.9536757 -1.0070443
0.73614001 -3.9468637 -1.0040236
0.71465582 -3.9665453 -1.0080513
0.6873188 -3.9536932 -1.0035201
0.66400641 -3.9635627 -1.0050305
0.63951981 -3.9666071 -1.0047787
0.61591053 -3.9752383 -1.0060375
0.5983426 -4.0248914 -1.0181205
0.57295245 -4.0236959 -1.0168619
0.54472536 -4.0012445 -1.0100652
0.52340764 -4.0294642 -1.0166101
0.50009984 -4.044126 -1.0196309
0.46612546 -3.9692626 -0.9992407
0.44508097 -4.0018654 -1.0070443
0.42061877 -4.0054836 -1.0072961
0.39803413 -4.028214 -1.0125824
0.37250581 -4.0219078 -1.0103168
0.34665278 -4.0106187 -1.0067927
0.32219258 -4.0145998 -1.0072961
0.29826936 -4.0261526 -1.0098134
0.272706 -4.0153546 -1.0065409
0.24878007 -4.0285435 -1.0095617
0.22271125 -4.005837 -1.0032684
0.19793615 -4.0032616 -1.0022615
0.17408213 -4.0208378 -1.0065409
0.14793052 -3.982178 -0.99621993
0.12397496 -3.9984879 -1.0002476
0.099124387 -3.9865961 -0.99697512
0.07449729 -3.9784205 -0.99470955
0.050011095 -3.9729965 -0.99319911
0.025581591 -3.9654863 -0.99118531
0.0012561618 -3.9820211 -0.99546474
-0.02320477 -3.9867928 -0.99672335
-0.047907814 -4.0068979 -1.0020097
-0.072753966 -4.0210428 -1.0057857
-0.097775504 -4.0350337 -1.0095617
-0.1228836 -4.0459657 -1.0125824
-0.14946792 -4.0934935 -1.025169
-0.17433538 -4.0866981 -1.0236586
-0.20100856 -4.1184173 -1.0322175
-0.21895853 -3.9837511 -0.9974786
-0.25112012 -4.1088786 -1.0304554
-0.27541879 -4.0937414 -1.0269312
-0.30315176 -4.127687 -1.0362452
-0.32264259 -4.0524282 -1.0171137
-0.34626225 -4.0359082 -1.0133376
-0.3703112 -4.0259976 -1.0113238
-0.39264575 -3.9995704 -1.0050305
-0.41687816 -3.9941983 -1.0042753
-0.44647941 -4.0377383 -1.0163585
-0.47449914 -4.0627999 -1.0236586
-0.49989137 -4.0636539 -1.0246656
-0.52258474 -4.0432334 -1.0201344
-0.55127919 -4.0687222 -1.0276864
-0.57745564 -4.0738873 -1.0299519
-0.60343289 -4.0769691 -1.0317141
-0.63035458 -4.0856242 -1.0349866
-0.65403152 -4.0730791 -1.032721
-0.67805594 -4.063262 -1.0312107
-0.70330501 -4.0609322 -1.0317141
-0.72598737 -4.0441566 -1.0284415
-0.74849039 -4.027256 -1.025169
-0.76862246 -3.9988272 -1.0188757
-0.79107177 -3.9835937 -1.0161067
-0.81336313 -3.9682357 -1.0133376
-0.83689624 -3.9593828 -1.0123308
-0.86549777 -3.9740317 -1.0176171
-0.8917706 -3.9771457 -1.0198827
-0.91985369 -3.9876308 -1.0241622
-0.95144725 -4.0120459 -1.0322175
-0.97879481 -4.0174165 -1.0352383
-0.74917483 -2.9945161 -0.76261306
-0.76633215 -2.9851758 -0.76135439
-0.78167915 -2.9691863 -0.75833362
-0.79811895 -2.9577932 -0.75657147
-0.81779903 -2.9584374 -0.75808185
-0.83593625 -2.9533637 -0.75808185
-0.8535037 -2.9463198 -0.75757843
-1.1620973 -3.9218645 -1.0236586
-1.1872618 -3.9183652 -1.0246656
-1.2101371 -3.9073086 -1.0236586
-1.251895 -3.9560962 -1.0390143
-1.2193127 -3.7724445 -0.99093354
-1.0847733 -3.2869723 -0.86003315
-1.0931858 -3.2454009 -0.85046732
-1.1061605 -3.2184958 -0.84492928
-1.1153259 -3.1815076 -0.83662212
-1.4015445 -3.9210069 -1.0427903
-1.1248027 -3.0866499 -0.81421798
-1.1427104 -3.0769682 -0.81346279
-1.174237 -3.1033914 -0.82277685
-1.2391839 -3.2153361 -0.85600543
-1.5455502 -3.9383347 -1.0601597
-1.2236227 -3.0623779 -0.81749052
-1.2394741 -3.0476401 -0.81547666
-1.2563007 -3.035506 -0.81421798
-1.2730253 -3.0232804 -0.81295937
-1.6522977 -3.8579333 -1.0513492
-1.6836662 -3.8654687 -1.0563837
-1.6944225 -3.8258624 -1.0480766
-1.7277968 -3.8374565 -1.0543699
-1.7432573 -3.8091815 -1.0493352
-1.7576202 -3.7791069 -1.0437971
-1.7816021 -3.7700012 -1.0443007
-1.8021882 -3.7537637 -1.0427903
-1.8849894 -3.8652923 -1.0782844
-1.8567061 -3.7487111 -1.0478249
-1.8414127 -3.6611598 -1.0256726
-1.8598819 -3.6420345 -1.023407
-1.8937731 -3.652894 -1.0299519
-1.9161512 -3.6412053 -1.0299519
-1.9439275 -3.6396241 -1.0329727
-1.9593068 -3.6148643 -1.0291967
-1.9828492 -3.6053183 -1.0299519
-1.9964467 -3.5778708 -1.0254208
-1.9997722 -3.5327053 -1.0156033
-2.0402024 -3.553102 -1.0254208
-2.1437774 -3.6810238 -1.0677117
-2.1318765 -3.6094661 -1.0500904
-2.1455312 -3.582202 -1.0458111
-2.1684754 -3.5706244 -1.0463145
-2.1832404 -3.5457134 -1.0427903
-2.1865089 -3.5026939 -1.0337279
-2.2017508 -3.4793975 -1.0307071
-2.2355971 -3.4853745 -1.0367486
-2.270654 -3.4926891 -1.0432937
-2.2877827 -3.4722252 -1.0412799
-2.3235533 -3.4798551 -1.0480766
-2.3367274 -3.4535084 -1.0443007
-2.3617039 -3.4446933 -1.0460627
-2.3783791 -3.4237783 -1.0440489
-2.4216199 -3.4407799 -1.0541182
-2.4556074 -3.4439816 -1.059908
-2.4653609 -3.4131575 -1.0548733
-2.4976854 -3.413588 -1.059908
-2.5122457 -3.3896451 -1.0571389
-2.5173111 -3.3532674 -1.0503422
-2.5448673 -3.3470039 -1.053363
-2.5742123 -3.3428285 -1.0571389
-2.6006262 -3.3346026 -1.0596563
-2.6426299 -3.345926 -1.0687186
-2.6189873 -3.2744715 -1.0503422
-2.6274579 -3.2440498 -1.0455593
-2.676769 -3.2637887 -1.0576425
-2.6114285 -3.1445491 -1.0229034
-2.6269372 -3.1240218 -1.0213931
-2.8524463 -3.3503008 -1.1042128
-2.8912728 -3.3539951 -1.111513
-2.6706324 -3.0598261 -1.0161067
-2.8892813 -3.2696686 -1.0946469
-2.9099345 -3.2526 -1.0948987
-2.9226913 -3.2267928 -1.0921296
-2.9339333 -3.1995251 -1.0888572
-2.9890628 -3.2197666 -1.1024506
-3.0326209 -3.2267556 -1.111513
-3.1083946 -3.2669878 -1.1326584
-2.8793168 -2.9892313 -1.039266
-3.2408087 -3.3235328 -1.1671456
-4.1571679 -4.2114286 -1.4989278
-4.6303005 -4.6335826 -1.6635603
-2.8988147 -2.8652778 -1.0198827
-2.9004157 -2.8318849 -1.0140928
-3.4547679 -3.3320794 -1.2081779
-3.4422178 -3.2794402 -1.1963465
-3.3199196 -3.1242681 -1.1454967
-3.4545596 -3.211252 -1.1865289
-3.4585166 -3.1755931 -1.1809908
-3.4392281 -3.1191998 -1.1673974
-3.4467697 -3.0877054 -1.1633697
-3.1199467 -2.7605577 -1.0432937
-3.0413709 -2.6579249 -1.0103168
-3.1264832 -2.698663 -1.0339797
-3.1636031 -2.6970105 -1.0410281
-3.2948337 -2.7741761 -1.0800465
-3.2984002 -2.7427678 -1.0755154
-3.3361075 -2.7396774 -1.0825639
-3.3460906 -2.7136688 -1.0802983
-3.3838279 -2.7100279 -1.0873468
-3.3457415 -2.6459849 -1.0692221
-3.2963209 -2.5741727 -1.0475732
-3.3028574 -2.5468059 -1.0445523
-3.36847 -2.5646036 -1.0609149
-3.3957458 -2.5526106 -1.0646909
-3.4494224 -2.5599918 -1.0770258
-3.4057376 -2.4953017 -1.0578941
-3.3598228 -2.4301114 -1.038259
-3.3597062 -2.3987639 -1.0334762
-3.390182 -2.389256 -1.0385108
-3.3976285 -2.3634346 -1.0362452
-3.4471698 -2.3666477 -1.0473214
-3.5385373 -2.3975739 -1.0714877
-3.5016959 -2.3413839 -1.0553769
-3.4319897 -2.264415 -1.0291967
-3.4823148 -2.2670786 -1.0405247
-3.5140729 -2.2571774 -1.0460627
-3.5711806 -2.2630327 -1.0594045
-3.5513546 -2.2200413 -1.0490836
-3.5517299 -2.1900802 -1.0450559
-3.5411232 -2.1536596 -1.0377556
-3.5625701 -2.1368701 -1.040273
-3.5947721 -2.1263044 -1.0460627
-3.6102591 -2.1056705 -1.0468179
-3.6398897 -2.0931292 -1.0518526
-3.6602414 -2.0750523 -1.0541182
-3.6872661 -2.0605817 -1.0583977
-3.6905158 -2.0327814 -1.0556285
-3.6714501 -1.993012 -1.0463145
-3.6563034 -1.9558365 -1.038259
-3.6451201 -1.9211793 -1.0314623
-3.6525455 -1.8965467 -1.0302037
-3.7089164 -1.8970203 -1.0432937
-3.7308578 -1.8794531 -1.0463145
-3.7605252 -1.8655593 -1.0516008
-3.7753797 -1.8441495 -1.0526078
-3.804939 -1.8297591 -1.0578941
-3.8187187 -1.8076204 -1.0586493
-3.8718452 -1.8037764 -1.0707325
-3.8916376 -1.784019 -1.0732498
-3.9660277 -1.7887613 -1.0913744
-3.9963901 -1.7730289 -1.0969125
-4.032917 -1.7597005 -1.1042128
-4.0863276 -1.7532423 -1.1162958
-4.1201921 -1.7379174 -1.1228409
-4.1173687 -1.7070427 -1.1190649
-4.2621999 -1.7365327 -1.1568246
-4.3446517 -1.7391262 -1.1769632
-4.3300228 -1.7025172 -1.1699147
-4.3746943 -1.6891664 -1.1794804
-4.4057899 -1.6701841 -1.1852703
-4.4359093 -1.6505458 -1.1908084
-4.5959496 -1.6780771 -1.2323442
-4.7072902 -1.6860777 -1.2602863
-4.8426385 -1.7011153 -1.2947736
-4.9152069 -1.6928039 -1.3118913
-4.9961057 -1.6864516 -1.3312746
-5.1276441 -1.6958872 -1.3645031
-5.3101192 -1.720178 -1.411577
-5.3500938 -1.6969286 -1.4196324
-5.4140124 -1.6807148 -1.4342328
-5.9372315 -1.803315 -1.5736921
-6.0177631 -1.7875235 -1.592572
-6.2842002 -1.8247979 -1.6617981
-6.3781404 -1.8097206 -1.6842022
-6.2837372 -1.7413394 -1.6557566
-6.4437757 -1.7431957 -1.6960336
-6.5357594 -1.7251176 -1.7179343
-6.6127648 -1.7021147 -1.7358072
-6.7122602 -1.6838843 -1.7597218
-6.8287001 -1.6686321 -1.7881674
-7.0016923 -1.6654539 -1.8317169
-7.2116685 -1.668725 -1.885084
-7.3879499 -1.6618325 -1.9293888
-7.4008441 -1.6170895 -1.930144
-7.4267216 -1.5750625 -1.9344234
-7.4267669 -1.5275131 -1.9319061
-7.3980346 -1.4743465 -1.9218369
-7.4706097 -1.4412113 -1.9387028
-7.4640899 -1.3925048 -1.9346751
-7.4486828 -1.3423873 -1.9283818
-7.4501047 -1.2954968 -1.9266198
-7.4798665 -1.2534394 -1.9324095
-7.4597092 -1.2030503 -1.9251094
-7.4554739 -1.1554763 -1.9220885
-7.4968848 -1.1148351 -1.9311509
-7.4930449 -1.0673124 -1.9283818
-7.4793153 -1.0185723 -1.9230955
-7.5065379 -0.97540557 -1.9286336
-7.5440769 -0.93325061 -1.9369407
-7.5246706 -0.8840062 -1.9303957
-7.5212965 -0.83685535 -1.9281301
-7.5522771 -0.79342133 -1.9349269
-7.5300364 -0.74439925 -1.9278784
-7.5315714 -0.69791371 -1.9271232
-7.5453539 -0.65252209 -1.9296405
-7.557898 -0.60691005 -1.9319061
-7.5547233 -0.56002301 -1.930144
-7.5599484 -0.51378894 -1.9306474
-7.5745502 -0.46810925 -1.9336683
-7.5695496 -0.4211933 -1.9316543
-7.552659 -0.37378174 -1.9266198
-7.5654464 -0.32789397 -1.9293888
-7.5702171 -0.28157517 -1.930144
-7.5718026 -0.23511988 -1.930144
-7.2153959 0.5299682 -1.9306107
-7.1841168 0.57200581 -1.9229876
-7.1843171 0.61640644 -1.9240391
-7.1717525 0.65968025 -1.9216733
-7.1618085 0.70310634 -1.9200962
-7.1928649 0.75074869 -1.9298221
-7.1756563 0.79348856 -1.9264048
-7.1821523 0.83884764 -1.9295592
-7.1768699 0.88290066 -1.9295592
-7.1560078 0.92493916 -1.9253534
-7.1559343 0.96960843 -1.9269305
-7.141253 1.0122781 -1.9245648
-7.1377702 1.0565012 -1.9253534
-7.1178041 1.0982159 -1.9216733
-7.1061687 1.1411036 -1.920359
-7.1180658 1.1878642 -1.9256163
-7.1068406 1.2308582 -1.9245648
-7.0697165 1.2691522 -1.916416
-7.0779214 1.3155071 -1.9208847
-7.0697165 1.3589115 -1.9208847
-7.0593524 1.4018887 -1.920359
-7.0468373 1.4444022 -1.9193076
-7.0340662 1.4868149 -1.918256
-7.0446072 1.5342619 -1.9237761
-7.0341191 1.5772468 -1.9235133
-7.0149078 1.6182073 -1.9208847
-7.0086017 1.6621107 -1.9219362
-6.9954591 1.7043978 -1.9211476
-6.9839334 1.7470547 -1.9208847
-6.959065 1.786274 -1.9169418
-6.9265141 1.8232878 -1.9108959
-6.939415 1.8722924 -1.9177303
-6.9110575 1.9102072 -1.9129988
-6.9131317 1.95652 -1.9169418
-6.8954363 1.9972898 -1.9153646
-6.8812013 2.0390134 -1.9148389
-6.8602505 2.0786777 -1.9124731
-6.8234057 2.1133068 -1.9056387
-6.8406644 2.1647458 -1.9143132
-6.8336792 2.2087567 -1.9161532
-6.7915959 2.2412679 -1.9080044
-6.7896023 2.2869039 -1.9114217
-6.7599311 2.3231876 -1.906953
-6.7919827 2.3809075 -1.920359
-6.7354555 2.4075921 -1.9082673
-6.7432179 2.4571364 -1.9148389
-6.7234921 2.4967856 -1.9135245
-6.6927056 2.5321865 -1.9090558
-6.6743417 2.5721631 -1.9082673
-6.693459 2.6268198 -1.9185189
-6.6664643 2.6635432 -1.9153646
-6.6401649 2.700398 -1.9124731
-6.6323853 2.7447815 -1.9151018
-6.6180859 2.7865489 -1.9158903
-6.5724845 2.8149443 -1.9074787
-6.5657024 2.8598444 -1.9106331
-6.5453849 2.8989046 -1.9098445
-6.5318727 2.9409931 -1.9111588
-6.5119495 2.9802132 -1.9106331
-6.4909167 3.0188925 -1.9098445
-6.4661651 3.0557766 -1.9080044
-6.455121 3.0991542 -1.9103702
-6.4602633 3.1505494 -1.9177303
-6.4045 3.172138 -1.9066901
-6.3849158 3.2113755 -1.9066901
-6.3676686 3.2518089 -1.9074787
-6.3296094 3.2814906 -1.9019586
-6.3417978 3.3373461 -1.9119474
-6.3152442 3.3730128 -1.9101074
-6.2901878 3.4093995 -1.908793
-6.2699952 3.4483962 -1.9090558
-6.2478757 3.4863331 -1.908793
-6.2263665 3.5246036 -1.908793
-6.1996031 3.5598581 -1.9072158
-6.1776433 3.597831 -1.9072158
-6.1247163 3.6175086 -1.8974899
-6.1024046 3.6550212 -1.8974899
-6.1062493 3.708427 -1.9059016
-6.0538063 3.7276077 -1.8964385
-6.0439143 3.7728598 -1.9006443
-6.0247269 3.812454 -1.9019586
-6.0117769 3.8561227 -1.9053758
-5.9839592 3.8903077 -1.9040614
-5.9414473 3.9147389 -1.8980156
-5.9397798 3.9661267 -1.9053758
-5.9145331 4.0019569 -1.905113
-5.8842969 4.0343528 -1.9032729
-5.8800316 4.0846972 -1.9101074
-5.8414464 4.1112571 -1.9056387
-5.8035421 4.1380577 -1.9014329
-5.7717857 4.1690693 -1.89933
-5.7538819 4.2101045 -1.9019586
-5.7325912 4.2487779 -1.9035357
-5.695612 4.2757611 -1.8998557
-5.6761808 4.3158855 -1.9022214
-5.6465349 4.3482771 -1.90117
-5.6205087 4.3834352 -1.9014329
-5.5836649 4.4100637 -1.8980156
-5.5610204 4.4478583 -1.8995929
-5.541121 4.4879699 -1.9022214
-5.5157166 4.5237212 -1.90301
-5.4915667 4.5605626 -1.9043244
-5.4812007 4.6090779 -1.9106331
-5.4373913 4.6294861 -1.905113
-5.3855014 4.6425991 -1.8967013
-5.3692689 4.6863441 -1.90117
-5.2955942 4.6795821 -1.8848726
-5.3135128 4.7538104 -1.9019586
-5.2670841 4.7707763 -1.8956499
-5.227047 4.7932215 -1.8917069
-5.1954174 4.8232341 -1.8909184
-5.1699424 4.8589873 -1.8924955
-5.1323433 4.8833008 -1.8896041
-5.116179 4.9280896 -1.8948613
-5.085844 4.9593892 -1.8948613
-5.0381556 4.9735537 -1.8882897
-5.0205078 5.017334 -1.8932841
-4.9957309 5.0542216 -1.8956499
-4.9639506 5.0840893 -1.8953871
-4.9427071 5.1248703 -1.89933
-4.8865485 5.129251 -1.8896041
-4.8662229 5.1710844 -1.8940727
-4.8481946 5.2156882 -1.8995929
-4.8161001 5.245338 -1.8995929
-4.7766962 5.2669272 -1.8967013
-4.7281976 5.2781687 -1.8901298
-4.6797419 5.2890134 -1.8835582
-4.6421227 5.3118153 -1.8814553
-4.6207881 5.3533478 -1.8861868
-4.5953636 5.3904114 -1.8893412
-4.5566101 5.4118633 -1.8869754
-4.5362701 5.4553013 -1.8924955
-4.5088334 5.49049 -1.8951242
-4.4671607 5.5083094 -1.8917069
-4.4176002 5.5160327 -1.8848726
-4.4022207 5.5664978 -1.8930212
-4.3632326 5.5873203 -1.8909184
-4.318265 5.6002326 -1.8861868
-4.2651224 5.6020551 -1.8777752
-4.2353053 5.6342907 -1.8798782
-4.212152 5.6756692 -1.8851354
-4.1789575 5.703743 -1.885924
-4.1410546 5.725368 -1.8846097
-4.0884709 5.7263241 -1.8764609
-4.0515909 5.7489362 -1.8756723
-4.0267053 5.7887392 -1.8806667
-4.0189543 5.8539085 -1.8940727
-3.9780903 5.8712683 -1.8917069
-3.9580746 5.9196315 -1.8995929
-3.9174283 5.9373627 -1.8974899
-3.8809235 5.961288 -1.8974899
-3.8401022 5.9784937 -1.8953871
-3.8147054 6.019875 -1.90117
-3.7700269 6.0308948 -1.897227
-3.7440889 6.0719833 -1.90301
-3.6822019 6.0544453 -1.8901298
-3.6256332 6.0446529 -1.8798782
-3.5924041 6.0734296 -1.881981
-3.5759668 6.1311989 -1.8932841
-3.5454917 6.1655726 -1.897227
-3.4961772 6.1670651 -1.8909184
-3.4728575 6.2145133 -1.899067
-3.4304724 6.2280984 -1.8967013
-3.406918 6.2761674 -1.905113
-3.3510561 6.2646217 -1.8951242
-3.3336906 6.3251853 -1.9074787
-3.3001511 6.3557978 -1.9106331
-3.2514279 6.357028 -1.9048501
-3.1937015 6.3398032 -1.8935469
-3.1770303 6.4042287 -1.9072158
-3.1237051 6.3949909 -1.8985413
-3.0818994 6.4088197 -1.8969642
-3.0470569 6.4372025 -1.8998557
-3.0009849 6.4417834 -1.8956499
-2.9686368 6.4758644 -1.9003814
-2.9209151 6.476366 -1.8951242
-2.8819044 6.4959302 -1.8956499
-2.844306 6.5187974 -1.897227
-2.8088171 6.5467677 -1.9003814
-2.7674696 6.5612121 -1.8995929
-2.7249424 6.5727215 -1.8980156
-2.6882005 6.5982533 -1.9006443
-2.6569822 6.6379147 -1.9074787
-2.6094975 6.6370306 -1.9024843
-2.5583031 6.6259136 -1.8945985
-2.5240943 6.6586289 -1.8995929
-2.4889073 6.6893644 -1.9040614
-2.454761 6.7235441 -1.9095817
-2.4095578 6.7275791 -1.9064273
-2.3624799 6.7258506 -1.9016957
-2.3352969 6.7812738 -1.9135245
-2.290868 6.7872472 -1.9111588
-2.2413068 6.7773576 -1.9043244
-2.2041368 6.8047514 -1.9082673
-2.160593 6.8126292 -1.9066901
-2.1313295 6.8663044 -1.918256
-2.0897188 6.8810992 -1.9187818
-2.0471833 6.8928671 -1.9185189
-1.9951718 6.8719406 -1.9090558
-1.9537584 6.886838 -1.9098445
-1.9037404 6.870801 -1.9019586
-1.8605391 6.8786273 -1.9009072
-1.8178055 6.8880482 -1.9003814
-1.7776699 6.9074821 -1.9027472
-1.7401791 6.9379129 -1.9082673
-1.6984915 6.9522095 -1.9093188
-1.6549091 6.9587455 -1.9082673
-1.6082684 6.951848 -1.9035357
-1.5611399 6.9418168 -1.8980156
-1.5226316 6.9701176 -1.9032729
-1.480635 6.9831047 -1.9043244
-1.4362062 6.9844975 -1.9022214
-1.3948301 7.0007486 -1.9043244
-1.356047 7.0309658 -1.9103702
-1.3109361 7.0287204 -1.9074787
-1.2701769 7.0499258 -1.9111588
-1.2290417 7.0699444 -1.9145761
-1.1862752 7.0811591 -1.9156275
-1.141423 7.0797315 -1.9132617
-1.0973707 7.082788 -1.9122102
-1.0543162 7.0922513 -1.9129988
-1.0071108 7.0727959 -1.9059016
-0.96460402 7.0855346 -1.9077415
-0.92135811 7.0932336 -1.9082673
-0.877581 7.096838 -1.9077415
-0.82896221 7.0589671 -1.8959128
-0.78616607 7.0687156 -1.897227
-0.74539423 7.0983553 -1.9040614
-0.70012063 7.0855122 -1.89933
-0.65663153 7.0896745 -1.89933
-0.61154217 7.0753059 -1.8943356
-0.57135248 7.119319 -1.9053758
-0.52822745 7.1303883 -1.9074787
-0.48427057 7.1306076 -1.9066901
-0.44157648 7.1507788 -1.9114217
-0.39657038 7.1331229 -1.9059016
-0.35246247 7.1286764 -1.9040614
-0.30975449 7.1548033 -1.9106331
-0.26556233 7.1488562 -1.9085301
-0.22130612 7.137814 -1.905113
-0.17817226 7.1660447 -1.9124731
-0.13428842 7.1718264 -1.9137874
-0.090172507 7.1638327 -1.9114217
-0.046159755 7.1555676 -1.9090558
-0.0022503491 7.1373844 -1.9040614
0.041745905 7.1710324 -1.9132617
0.085488506 7.1494164 -1.9074787
0.12930205 7.1458631 -1.9066901
0.17378116 7.1709781 -1.9137874
0.21792541 7.1745987 -1.9151018
0.26077676 7.1413083 -1.9064273
0.30425984 7.1318622 -1.9043244
0.34801441 7.1298609 -1.9043244
0.39090616 7.1121774 -1.9001186
0.43536451 7.1231275 -1.9037986
0.47919288 7.1222472 -1.9043244
0.5242309 7.1374555 -1.9093188
0.56747854 7.1273718 -1.9074787
0.61219215 7.1352911 -1.9106331
0.6551652 7.1227536 -1.9082673
0.69847953 7.114759 -1.9072158
0.74021578 7.0921063 -1.9022214
0.78520501 7.1008568 -1.9059016
0.82674277 7.0786557 -1.90117
0.87476146 7.110796 -1.9114217
0.917633 7.0995536 -1.9098445
0.96104807 7.0928335 -1.9095817
1.003873 7.0820265 -1.9082673
1.0443387 7.0556908 -1.9027472
1.0912938 7.0729885 -1.9093188
1.1340599 7.0623488 -1.9082673
1.1759416 7.0466924 -1.9059016
1.2231125 7.06216 -1.9122102
1.2638625 7.040278 -1.9082673
1.3052725 7.0229049 -1.9056387
1.3476105 7.0109739 -1.9045873
1.3881586 6.9902711 -1.90117
1.4224929 6.9400349 -1.8896041
1.4726373 6.9670458 -1.8995929
1.5176188 6.9682488 -1.9024843
1.5565441 6.9418597 -1.8977528
1.6051859 6.9585013 -1.905113
1.6471838 6.9457049 -1.9043244
1.6909136 6.9401541 -1.9056387
1.7306542 6.918417 -1.9024843
1.7721121 6.9039297 -1.9014329
1.8127202 6.886395 -1.8995929
1.8496591 6.8555818 -1.8940727
1.8891174 6.8348041 -1.8914441
1.9368031 6.8435073 -1.897227
1.9690886 6.7981334 -1.887764
2.0157008 6.8025737 -1.8924955
2.0632813 6.8094673 -1.8980156
2.1070237 6.8031306 -1.8998557
2.1431937 6.7725973 -1.8948613
2.1805527 6.7464671 -1.8911812
2.2246299 6.7412062 -1.8935469
2.2647188 6.723772 -1.8924955
2.3049912 6.7070122 -1.8917069
2.3425887 6.6827273 -1.8888154
2.3939459 6.6972995 -1.897227
2.4369776 6.687923 -1.8988042
2.4722557 6.6574688 -1.8943356
2.5106676 6.6358576 -1.8924955
2.5499487 6.6167269 -1.8914441
2.5848584 6.5865865 -1.8872383
2.6237917 6.5670185 -1.8861868
2.6607642 6.5427523 -1.883821
2.7004907 6.5254116 -1.8835582
2.7195041 6.4589257 -1.8688378
2.759084 6.4421177 -1.8688378
2.7974041 6.4224133 -1.8680493
2.8367584 6.405128 -1.8680493
2.8764024 6.3884811 -1.8683121
2.9127357 6.3645706 -1.8664721
2.9566176 6.3570757 -1.8696265
2.9918566 6.3309646 -1.8672607
3.0381656 6.3281426 -1.8719922
3.0748217 6.3050456 -1.8706779
3.1083105 6.2756863 -1.8675236
3.1372182 6.2375345 -1.8617406
3.1837718 6.2344923 -1.866735
3.2170799 6.2054181 -1.8638434
3.2559938 6.1872692 -1.8643692
3.2911687 6.1620684 -1.862792
3.322938 6.1307321 -1.8593748
3.3679342 6.1237526 -1.8635806
3.4092078 6.1097121 -1.8656836
3.4480584 6.091197 -1.8664721
3.4868102 6.0724354 -1.8672607
3.522547 6.0484257 -1.8664721
3.5615566 6.0300202 -1.8675236
3.5965054 6.0047431 -1.8664721
3.6332822 5.9825621 -1.8664721
3.6592956 5.9429049 -1.860952
3.6941586 5.9178848 -1.8601635
3.735045 5.9024434 -1.8625292
3.7701492 5.8777905 -1.8620034
3.811404 5.8626347 -1.8646321
3.8526146 5.8471942 -1.8672607
3.8846684 5.8178287 -1.8654207
3.9197519 5.7930841 -1.8651578
3.9497666 5.7609673 -1.8625292
3.9949515 5.750885 -1.8672607
4.0357175 5.7341533 -1.8698894
4.0713859 5.7100682 -1.8701522
4.1018248 5.6787229 -1.8680493
4.1451397 5.6651258 -1.8719922
4.1890163 5.6519861 -1.8761981
4.2004423 5.5953159 -1.8656836
4.2405367 5.5771165 -1.8683121
4.3011732 5.5853877 -1.880141
4.3205266 5.5398731 -1.8735694
4.358026 5.5178008 -1.8751466
4.3803482 5.4766426 -1.8701522
4.4345207 5.4751506 -1.8790895
4.4606881 5.4388866 -1.8759352
4.5081573 5.4284835 -1.881981
4.5159163 5.3704476 -1.8712037
4.5431538 5.3360262 -1.8688378
4.58148 5.3146257 -1.8712037
4.615273 5.287868 -1.8717294
4.6521049 5.2645097 -1.8735694
4.6617994 5.2107024 -1.8643692
4.7163582 5.2070251 -1.8735694
4.741045 5.170167 -1.8706779
4.7588916 5.126132 -1.8651578
4.8054557 5.1130033 -1.8712037
4.8347425 5.0813251 -1.8704151
4.8892608 5.0758815 -1.8796153
4.9007764 5.0257564 -1.8719922
4.9308434 4.994905 -1.8717294
4.9545774 4.9577322 -1.8691007
5.0130429 4.9550424 -1.8798782
5.0260906 4.9073415 -1.8733065
5.0686092 4.8884635 -1.878038
5.1075921 4.8659215 -1.8814553
5.1106482 4.8093686 -1.8714665
5.1443024 4.7818604 -1.8730437
5.1771007 4.7534676 -1.8743579
5.1925888 4.7092991 -1.8693635
5.2400742 4.6940842 -1.8761981
5.2723913 4.6650395 -1.8775123
5.2856579 4.6192703 -1.8719922
5.3431211 4.6119637 -1.8825067
5.3705845 4.5784664 -1.8822439
5.3852892 4.5342436 -1.8775123
5.4211712 4.5078988 -1.8804039
5.4561863 4.4806724 -1.8830324
5.5030627 4.4629073 -1.8898669
5.5213051 4.4218211 -1.8867126
5.5468192 4.386663 -1.8861868
5.5660253 4.3466086 -1.8835582
5.5895343 4.3100185 -1.8825067
5.5905385 4.2563572 -1.8738322
5.6520314 4.2486367 -1.885924
5.6671457 4.2058282 -1.8822439
5.6764994 4.1590037 -1.8767238
5.7105122 4.1303139 -1.8796153
5.7467422 4.103044 -1.8832953
5.7828526 4.0754852 -1.8869754
5.8132954 4.0437813 -1.8888154
5.8356118 4.0063972 -1.8880268
5.8688717 3.9764671 -1.8909184
5.8819304 3.9328754 -1.8872383
5.9180326 3.9046788 -1.8911812
5.9305587 3.8609252 -1.8875011
5.9533253 3.8239419 -1.8872383
5.9758615 3.7868247 -1.8869754
5.9891658 3.7439508 -1.883821
6.0185962 3.7111816 -1.885924
6.0321856 3.668669 -1.8830324
6.0736151 3.6429985 -1.8890783
6.0775824 3.5948596 -1.8832953
6.10536 3.5609021 -1.8851354
6.1388049 3.5301051 -1.8888154
6.1939263 3.5113993 -1.89933
6.20609 3.468152 -1.8964385
6.2111945 3.4211652 -1.8914441
6.2201972 3.3765473 -1.887764
6.2450523 3.3405921 -1.8890783
6.2662859 3.30266 -1.8893412
6.2838635 3.2628152 -1.8885525
6.3407054 3.2430828 -1.8998557
6.351006 3.1993427 -1.8969642
6.3739748 3.1620281 -1.8980156
6.3421035 3.0978825 -1.8825067
6.4009933 3.0781374 -1.8945985
6.4153991 3.0367405 -1.8932841
6.4382849 2.9993558 -1.8945985
6.4828815 2.9718523 -1.9024843
6.5080309 2.9351902 -1.9045873
6.5197444 2.8924646 -1.9027472
6.5364852 2.85202 -1.9024843
6.5361271 2.8042538 -1.897227
6.5576558 2.7659702 -1.8985413
6.5700474 2.7238343 -1.897227
6.5696588 2.6765561 -1.8922327
6.5913329 2.6383455 -1.8938098
6.6172752 2.6017339 -1.8967013
6.6403155 2.5638611 -1.8988042
6.6829896 2.533324 -1.9066901
6.6830344 2.4865532 -1.9022214
6.7063231 2.4484768 -1.9045873
6.7239456 2.408257 -1.9053758
6.7294922 2.3637583 -1.9027472
6.764852 2.3296447 -1.908793
6.765306 2.2834663 -1.9048501
6.7920151 2.2461512 -1.9085301
6.7937365 2.2005708 -1.905113
6.8126292 2.160593 -1.9066901
6.841424 2.1236107 -1.9111588
6.8534021 2.0813124 -1.9108959
6.8678937 2.0397706 -1.9114217
6.8728671 1.9954407 -1.9093188
6.8673449 1.9482317 -1.9043244
6.8819594 1.9068302 -1.905113
6.8972554 1.8655745 -1.9061644
6.9318957 1.8293697 -1.9127359
6.9551377 1.7899261 -1.9161532
6.9744124 1.7493277 -1.9185189
6.9578333 1.6998644 -1.9108959
6.9869061 1.6616014 -1.9161532
6.9932098 1.61783 -1.9151018
6.9982982 1.5738324 -1.9137874
6.9936838 1.5277756 -1.9098445
7.0085897 1.4860343 -1.9114217
7.0194659 1.4433907 -1.9119474
7.0111575 1.3969022 -1.9072158
7.0593877 1.361524 -1.918256
7.0875278 1.3218944 -1.9237761
7.105001 1.2800906 -1.9264048
7.104166 1.2349851 -1.9240391
7.0840139 1.186753 -1.916416
7.0673485 1.1394286 -1.9098445
6.5516992 1.0151746 -1.7657957
