# .PCD v0.7 - Point Cloud Data file format
VERSION 0.7
FIELDS x y z
SIZE 4 4 4
TYPE F F F
COUNT 1 1 1
WIDTH 1518
HEIGHT 1
VIEWPOINT 0 0 0 1 0 0 0
POINTS 1518
DATA ascii
2.4531426 -7.5739231 -1.5442846
2.4193666 -7.6290355 -1.5526735
2.3652451 -7.6203184 -1.5477961
2.3076189 -7.5990243 -1.5403827
2.2698793 -7.6431284 -1.5466256
2.2229393 -7.6569118 -1.5466256
2.1638768 -7.6279459 -1.5378466
2.1272395 -7.6779432 -1.5454551
2.0818799 -7.6974788 -1.5468208
2.0358605 -7.7148495 -1.5477961
1.9779803 -7.6863518 -1.5394073
1.9303035 -7.6964407 -1.5390171
1.8890907 -7.732913 -1.5440894
1.8377519 -7.728137 -1.5407729
1.7854384 -7.718245 -1.5364809
1.7451428 -7.7606335 -1.5429189
1.6964457 -7.7664042 -1.5419434
1.6467273 -7.7670722 -1.5399926
1.6047627 -7.8048911 -1.5456501
1.5510979 -7.7857332 -1.5397974
1.4999558 -7.7777691 -1.5362859
1.4568756 -7.8118949 -1.5413582
1.4068302 -7.809104 -1.5390171
1.3530141 -7.7837677 -1.5321889
1.305714 -7.7948251 -1.5327742
1.2435136 -7.7136059 -1.5148259
1.1847596 -7.647428 -1.499999
1.1216789 -7.545897 -1.4781489
1.0695567 -7.5118551 -1.4699551
1.0196126 -7.4900928 -1.4642975
0.97098529 -7.4757829 -1.4602007
0.92401463 -7.4728394 -1.4584448
0.87254733 -7.4306369 -1.4488853
0.82498884 -7.4183044 -1.4453738
0.78170538 -7.4446869 -1.4496658
0.73206335 -7.4093251 -1.4416671
0.6864062 -7.4117241 -1.4412769
0.64226454 -7.4314308 -1.4443983
0.59634084 -7.4313211 -1.4436179
0.5508042 -7.4358187 -1.4438131
0.50417405 -7.4243798 -1.4408866
0.45806679 -7.4185233 -1.4391309
0.41177899 -7.4074845 -1.4363996
0.36675423 -7.4186883 -1.4381554
0.32304442 -7.4629335 -1.4465443
0.27608666 -7.4334116 -1.4403014
0.23337346 -7.5290761 -1.45903
0.18753482 -7.5450735 -1.4619564
0.14183629 -7.5784426 -1.4683944
0.096234895 -7.6517429 -1.4828311
0.050090849 -7.7806697 -1.5083879
0.00236509 -7.8887167 -1.5298479
-0.04607442 -7.8944674 -1.5310184
-0.094750814 -7.9136505 -1.5349202
-0.1433958 -7.9178233 -1.5358957
-0.19185634 -7.9118919 -1.5349202
-0.24003996 -7.8988018 -1.5325792
-0.28724331 -7.8628755 -1.525751
-0.3356095 -7.863905 -1.5263362
-0.38419101 -7.8685546 -1.5277019
-0.43224838 -7.8621321 -1.5269215
-0.48252115 -7.8926163 -1.5335546
-0.53265619 -7.9149494 -1.5386269
-0.57969934 -7.8909912 -1.53453
-0.6301347 -7.9127054 -1.5396024
-0.67884231 -7.9106445 -1.5399926
-0.7275483 -7.9082837 -1.5403827
-0.77663487 -7.9095268 -1.5415533
-0.82556003 -7.9085145 -1.5423336
-0.87687707 -7.9286456 -1.547406
-0.92368686 -7.9075298 -1.5442846
-0.9714697 -7.8958726 -1.5431139
-1.0177597 -7.8732276 -1.5397974
-1.0661815 -7.8678064 -1.5399926
-1.1127837 -7.8494639 -1.5376514
-1.158626 -7.8269649 -1.53453
-1.21157 -7.8516951 -1.5409681
-1.265795 -7.8818789 -1.5485765
-1.3121943 -7.8623552 -1.5462354
-1.3565589 -7.8319292 -1.5417484
-1.4143027 -7.8775163 -1.5526735
-1.457051 -7.8387985 -1.5466256
-1.5069745 -7.8393421 -1.5485765
-1.5563858 -7.8366814 -1.5499421
-1.6006966 -7.8087296 -1.5462354
-1.6489859 -7.8006797 -1.5466256
-1.6882553 -7.7511253 -1.5386269
-0.67172146 -2.9987493 -0.57195437
-0.69055003 -2.9964826 -0.57234454
-0.70620543 -2.9807377 -0.57000345
-0.7258755 -2.9820657 -0.57117403
-0.73772895 -2.9518671 -0.56590658
-0.74997139 -2.9244862 -0.5612244
-0.7676518 -2.9188809 -0.56102931
-0.78375781 -2.9074874 -0.55966371
-0.7984457 -2.8912802 -0.55732262
-0.81563675 -2.8844392 -0.55693245
-2.2350259 -7.7156997 -1.5585262
-2.2865086 -7.7159452 -1.5614525
-1.0700628 -3.5334635 -0.69505638
-2.3862486 -7.7041683 -1.5649642
-2.4272583 -7.6697459 -1.5608672
-2.476084 -7.6603074 -1.5620377
-1.0703526 -3.2453663 -0.64043111
-1.0824151 -3.215502 -0.63555384
-1.1018057 -3.2078724 -0.63535875
-1.1208189 -3.1992004 -0.63496858
-2.7316954 -7.6417003 -1.5749137
-2.7573686 -7.5667434 -1.562623
-1.1569713 -3.1173487 -0.6220926
-1.1729523 -3.1019356 -0.62033677
-1.1930218 -3.0974255 -0.62092203
-1.2492834 -3.1849923 -0.64121145
-3.0012851 -7.5113869 -1.5696462
-3.0295756 -7.449223 -1.560282
-3.0583425 -7.3897157 -1.5515029
-3.0975354 -7.356349 -1.5483814
-3.1800845 -7.4246511 -1.5673052
-1.2869142 -2.9561274 -0.60199827
-1.3018498 -2.9410017 -0.60043758
-1.3198711 -2.9329584 -0.60043758
-1.3378425 -2.9248044 -0.60043758
-3.4042687 -7.3191624 -1.5663297
-3.4524679 -7.3052301 -1.5678905
-3.4908574 -7.270647 -1.5649642
-3.5543258 -7.2878757 -1.5735481
-3.6015892 -7.2712021 -1.5747186
-3.6382017 -7.2331963 -1.571207
-3.6762683 -7.1985087 -1.5684757
-3.7230778 -7.1810398 -1.5696462
-3.7739229 -7.1710782 -1.5725726
-3.8247859 -7.1607628 -1.5754989
-3.8663139 -7.1328487 -1.5745236
-3.8996062 -7.090086 -1.5702316
-3.9373002 -7.0557485 -1.5678905
-3.9795527 -7.0297499 -1.5675004
-4.0426412 -7.0400686 -1.5754989
-4.0946493 -7.030385 -1.5790106
-4.149684 -7.025394 -1.5836928
-4.1912007 -6.9972758 -1.5831075
-4.2304912 -6.9655595 -1.5817419
-4.275209 -6.942811 -1.5825223
-4.3255215 -6.9289265 -1.5854486
-4.3516927 -6.8765655 -1.5794008
-4.4388261 -6.9198995 -1.5959835
-4.4731817 -6.8801999 -1.5930572
-4.5088363 -6.8427968 -1.590716
-4.5556412 -6.8223424 -1.5924718
-4.5897198 -6.7828898 -1.5897406
-2.9282069 -4.271493 -0.99081331
-4.698916 -6.7639108 -1.5989099
-4.7403302 -6.734951 -1.5989099
-4.8003602 -6.7320881 -1.6053479
-3.0424924 -4.2126541 -0.99432492
-4.9052043 -6.7035394 -1.6129563
-4.9328089 -6.6551948 -1.6084692
-4.9741406 -6.6255865 -1.6086644
-5.0372634 -6.6246052 -1.6160778
-5.0933785 -6.6137738 -1.6211501
-3.2859805 -4.2138076 -1.0235884
-3.2831969 -4.1573958 -1.0144192
-3.3258011 -4.1586151 -1.0198817
-3.3524899 -4.1396542 -1.0202719
-3.424484 -4.1758747 -1.0349038
-3.3923831 -4.0853772 -1.0169554
-3.3643537 -4.0014381 -1.0005678
-3.4848695 -4.0934672 -1.0300264
-3.482379 -4.0400686 -1.0216376
-3.4767854 -3.983901 -1.0124683
-3.5011647 -3.9624927 -1.0124683
-3.5646565 -3.984786 -1.0241737
-3.5732346 -3.945395 -1.0194916
-3.5416844 -3.862684 -1.003104
-3.5893457 -3.8667524 -1.0101272
-3.6183784 -3.8503723 -1.011688
-3.7196968 -3.9097977 -1.0341233
-3.7517831 -3.8953757 -1.0364645
-3.7194564 -3.8147111 -1.020467
-3.7786286 -3.8281064 -1.0306118
-3.6931803 -3.6959498 -0.99998254
-3.7339277 -3.6911426 -1.005055
-3.5410306 -3.4578474 -0.94516218
-3.483808 -3.3604922 -0.92350715
-3.4354699 -3.273442 -0.90458339
-3.4347742 -3.2328119 -0.89892578
-3.5407627 -3.2917917 -0.92233658
-3.5023668 -3.2162838 -0.90653425
-3.5293016 -3.2013206 -0.90848517
-3.4312449 -3.0742636 -0.87707567
-3.3956802 -3.0050669 -0.86263895
-3.4325204 -3.0003066 -0.86751622
-3.6884849 -3.1842241 -0.92994511
-3.7258689 -3.1768 -0.93462729
-3.7903135 -3.1917732 -0.94633269
-4.1077471 -3.416105 -1.0233934
-4.168808 -3.4238191 -1.0337331
-4.1508822 -3.3666749 -1.0237836
-4.1186323 -3.2988472 -1.0103223
-4.2518964 -3.3629279 -1.0390006
-4.1479807 -3.2396073 -1.0075911
-4.302166 -3.3176827 -1.0413417
-4.2365918 -3.225883 -1.0198817
-4.2210221 -3.1733134 -1.0111027
-4.3089423 -3.1981943 -1.0280756
-4.328485 -3.171695 -1.0280756
-4.2969975 -3.1082978 -1.0155897
-4.3199806 -3.0847223 -1.0165652
-4.2810979 -3.0174868 -1.0025188
-4.3148317 -3.0018005 -1.0062255
-4.3760281 -3.004683 -1.0165652
-4.4528499 -3.0173764 -1.0306118
-4.4639416 -2.9850924 -1.0288559
-4.4723487 -2.9511659 -1.0265149
-4.4607792 -2.9044094 -1.0194916
-4.4620104 -2.8663855 -1.0155897
-4.4687433 -2.8321302 -1.0130537
-4.5459223 -2.8420792 -1.0271001
-4.385438 -2.7045147 -0.98554587
-4.3944073 -2.6729698 -0.98379004
-4.5697069 -2.7412786 -1.0206621
-4.5729332 -2.7052009 -1.0175407
-4.4818392 -2.6143539 -0.99276423
-4.7103739 -2.7090006 -1.0415368
-4.5323563 -2.5697963 -0.99705619
-4.62082 -2.5825944 -1.0136389
-4.6056495 -2.5371633 -1.0066156
-4.610786 -2.5032425 -1.0042745
-4.6649795 -2.4957154 -1.0130537
-4.6602473 -2.4565301 -1.0085665
-4.708312 -2.4450583 -1.01598
-4.700521 -2.4045143 -1.0109076
-4.7064266 -2.3712161 -1.0089567
-4.7068286 -2.3353219 -1.0058353
-4.6822901 -2.2874632 -0.99725127
-4.688282 -2.2548659 -0.9954955
-4.7827058 -2.2642288 -1.0132487
-4.8925328 -2.2795551 -1.0343184
-4.9037528 -2.2482665 -1.0337331
-4.7091246 -2.1242163 -0.98827714
-4.7731748 -2.1179445 -0.99939728
-5.0485902 -2.2031052 -1.0563637
-4.8564954 -2.0839505 -1.011883
-4.9523354 -2.0891664 -1.0298314
-5.1018777 -2.1154358 -1.0592901
-5.0393682 -2.0533895 -1.0430975
-5.0291076 -2.0133219 -1.0382203
-5.1052642 -2.0075369 -1.0518765
-5.0863757 -1.9641678 -1.0452435
-5.2010541 -1.9718412 -1.0670936
-5.329803 -1.9833078 -1.0918701
-5.09587 -1.8607974 -1.039781
-5.103498 -1.8281724 -1.0390006
-5.1571884 -1.8117683 -1.0479748
-5.2043762 -1.7925391 -1.0555832
-5.3648992 -1.8110462 -1.0869929
-5.4299226 -1.7959459 -1.0983081
-5.5126891 -1.7858547 -1.11333
-5.5674853 -1.7659241 -1.1224992
-5.609129 -1.7413193 -1.1289372
-5.6441088 -1.7142757 -1.1340096
-5.7015333 -1.6935661 -1.1437641
-5.8465142 -1.6976339 -1.171662
-6.2569041 -1.7751598 -1.2543803
-6.3054872 -1.7472041 -1.2621839
-6.1598663 -1.6662534 -1.2299941
-6.8214965 -1.8002536 -1.3640211
-6.8314643 -1.7581196 -1.363826
-7.1037459 -1.781745 -1.4174758
-7.1402707 -1.7444043 -1.4227433
-7.2911086 -1.7338939 -1.4514215
-7.8491602 -1.8157023 -1.5632083
-7.8410149 -1.7632059 -1.5593065
-8.2972593 -1.8123214 -1.6500235
-8.5279465 -1.807927 -1.6946992
-8.7617655 -1.8013602 -1.7399602
-8.8996258 -1.7728417 -1.765712
-9.0865774 -1.7521629 -1.8014135
-9.4847612 -1.7686031 -1.8798399
-9.7203426 -1.7508563 -1.9252959
-9.7482967 -1.6942012 -1.9288076
-9.8204184 -1.644716 -1.9412934
-9.834198 -1.5850519 -1.9420737
-9.9028625 -1.5338311 -1.9539742
-9.8839531 -1.4688617 -1.9483166
-9.8180122 -1.3975533 -1.9332947
-9.8361206 -1.3386062 -1.9352455
-9.8509579 -1.279111 -1.9366112
-9.8732214 -1.2204456 -1.9395375
-9.8620157 -1.1576713 -1.9358308
-9.8650351 -1.0967044 -1.9350505
-9.849143 -1.0338007 -1.9305633
-9.862133 -0.97402209 -1.931929
-9.864994 -0.91321993 -1.9313438
-9.8352346 -0.84963757 -1.9243205
-9.8901224 -0.79326701 -1.9342701
-9.894804 -0.73256743 -1.9342701
-9.8932419 -0.67144251 -1.9330995
-9.8854284 -0.61000258 -1.9307585
-9.8772335 -0.54868382 -1.9284174
-9.9117613 -0.48961273 -1.9346603
-9.9096794 -0.42857477 -1.9336848
-9.922904 -0.36816078 -1.9358308
-9.8985071 -0.30645171 -1.9305633
-9.9305964 -0.24646065 -1.9366112
-9.9142704 -0.18519537 -1.9330995
-9.9211044 -0.12443218 -1.9342701
-9.8834314 -0.063314535 -1.9266616
-9.9110956 -0.0026739403 -1.9321241
-9.91681 0.058174662 -1.9332947
-9.9182281 0.11904574 -1.9336848
-9.9094658 0.17975739 -1.9321241
-9.9091568 0.24058126 -1.9323192
-9.9143562 0.30158773 -1.9336848
-9.9025183 0.3620559 -1.931734
-9.90207 0.4228937 -1.9321241
-9.913003 0.48431537 -1.9348553
-9.9157209 0.54545522 -1.9360259
-9.8886929 0.60484684 -1.9313438
-9.8593531 0.66379535 -1.9262714
-9.2563295 -0.23390241 -1.9150976
-9.3113947 -0.17813386 -1.9264576
-9.3279667 -0.12120092 -1.9297624
-9.2893982 -0.063693285 -1.9215006
-9.2680883 -0.0066769784 -1.9169565
-9.3012209 0.050369788 -1.9239792
-9.3281317 0.10775533 -1.9297624
-9.3263159 0.16497238 -1.9295559
-9.3456697 0.22268304 -1.9338933
-9.3421717 0.27996427 -1.9334803
-9.3216991 0.33661142 -1.9295559
-9.3135929 0.39355436 -1.9283166
-9.3051395 0.45041052 -1.9270773
-9.2934074 0.50701797 -1.9252183
-9.3194208 0.56580925 -1.9314147
-9.2249813 0.6169138 -1.9122061
-9.2122402 0.6728645 -1.9103471
-9.2176924 0.73014927 -1.9124125
-9.2666578 0.79127038 -1.9237726
-9.2284994 0.8450824 -1.91675
-9.209507 0.90035927 -1.9138584
-9.2339783 0.95998591 -1.9202613
-9.2405577 1.0180188 -1.9229463
-9.1884584 1.0693845 -1.9132388
-9.1982336 1.1277671 -1.91675
-9.163969 1.1806856 -1.9109668
-9.178854 1.239904 -1.9157172
-9.1555719 1.2940109 -1.9124125
-9.1426201 1.3494499 -1.9113798
-9.1196623 1.4032911 -1.9082817
-9.1562881 1.4664925 -1.9179893
-9.1403608 1.5215225 -1.9165435
-9.1241045 1.5764123 -1.9150976
-9.1181126 1.6330569 -1.9159238
-9.0992622 1.6873686 -1.9140649
-9.0618305 1.7380097 -1.9082817
-9.0644331 1.7962414 -1.9111732
-9.0762472 1.8565308 -1.9161304
-9.0685148 1.9129943 -1.9169565
-9.0413084 1.9652771 -1.9136518
-9.0195312 2.01858 -1.9115864
-9.0022078 2.0727873 -1.9105537
-8.9550428 2.1198723 -1.903118
-8.9466209 2.1759353 -1.9041507
-8.9378481 2.2319748 -1.9051834
-8.9325151 2.28896 -1.9070424
-8.903161 2.3397474 -1.9037377
-8.8791885 2.3917878 -1.9016721
-8.8964148 2.4550726 -1.9086947
-8.8840075 2.5104117 -1.9093144
-8.8486986 2.5591681 -1.904977
-8.8497171 2.6184106 -1.9086947
-8.8334846 2.672662 -1.9086947
-8.8374844 2.7331722 -1.9132388
-8.7589712 2.7678909 -1.8996067
-8.7250624 2.8161738 -1.8958889
-8.745719 2.8822114 -1.9043573
-8.7195225 2.9330127 -1.9024984
-8.6930332 2.9836011 -1.9006394
-8.7133484 3.0504613 -1.9093144
-8.6511574 3.0884087 -1.8996067
-8.6173334 3.13608 -1.896302
-8.6144409 3.1950197 -1.9000198
-8.5836916 3.2436666 -1.8975413
-8.5818901 3.303303 -1.9016721
-8.592433 3.3680375 -1.9086947
-8.5452509 3.4101803 -1.902705
-8.500596 3.452976 -1.8973347
-8.5208445 3.5222616 -1.9068358
-8.460288 3.5581691 -1.8979543
-8.4688826 3.6230972 -1.904977
-8.3980427 3.6539156 -1.8938234
-8.3817282 3.708147 -1.8952693
-8.3793421 3.7687364 -1.9000198
-8.3427114 3.8139787 -1.8969216
-8.3120537 3.861799 -1.8952693
-8.3289032 3.9319403 -1.9047704
-8.2569799 3.9601252 -1.8936169
-8.26859 4.0282826 -1.9020853
-8.219162 4.0667934 -1.896302
-8.191431 4.1158309 -1.8956823
-8.1015244 4.1331143 -1.8803979
-8.1090279 4.1998444 -1.8882467
-8.0934982 4.2549844 -1.8907253
-8.1121273 4.3285151 -1.9014657
-8.0441151 4.3558474 -1.8915514
-8.0198097 4.4065366 -1.892171
-8.0045853 4.4623313 -1.8950627
-7.9787579 4.5123258 -1.8954757
-7.9483743 4.5597372 -1.8948562
-7.9236298 4.6103897 -1.8956823
-7.8926635 4.6574297 -1.8950627
-7.8421073 4.692709 -1.8896925
-7.8265505 4.7488589 -1.8929973
-7.7830968 4.7880774 -1.889486
-7.7701759 4.8460984 -1.8936169
-7.7361593 4.8910699 -1.8925842
-7.7035313 4.9368625 -1.8919646
-7.6525803 4.9707141 -1.8868009
-7.6047735 5.0062785 -1.8824635
-7.5918198 5.0647917 -1.8870075
-7.5281754 5.0893607 -1.8787456
-7.510529 5.1448565 -1.8822569
-7.4820347 5.1930747 -1.8830831
-7.4716401 5.2540812 -1.8886598
-7.4241195 5.2890415 -1.8847355
-7.4169164 5.3528171 -1.8913449
-7.3681345 5.3866773 -1.8872139
-7.3459525 5.4399376 -1.8901056
-7.3053904 5.4796257 -1.8882467
-7.259944 5.5154696 -1.8851485
-7.232944 5.5652814 -1.8870075
-7.1816802 5.5963268 -1.8824635
-7.14183 5.636045 -1.8810176
-7.1300445 5.6980844 -1.8872139
-7.0919051 5.7392645 -1.8863878
-7.0679083 5.7919736 -1.889486
-7.0096464 5.8164892 -1.8832896
-6.9738255 5.8593903 -1.8832896
-6.9578638 5.9191875 -1.8888663
-6.9080687 5.9502749 -1.8851485
-6.8441434 5.9687572 -1.8775064
-6.8081245 6.0112872 -1.8777128
-6.8192582 6.095984 -1.8913449
-6.7802744 6.1363983 -1.8909318
-6.7374444 6.1732588 -1.889486
-6.7101998 6.2244635 -1.8925842
-6.6454897 6.2407379 -1.8849419
-6.6120362 6.2861156 -1.8863878
-6.552896 6.3068924 -1.8803979
-6.5666361 6.39819 -1.8958889
-6.5175009 6.4287424 -1.8929973
-6.5395551 6.5301409 -1.9113798
-6.4505062 6.5207586 -1.896715
-6.4165287 6.5665135 -1.898574
-6.3502941 6.5790105 -1.8907253
-6.3239856 6.6327214 -1.8950627
-6.2791438 6.6671267 -1.8938234
-6.2641096 6.7334666 -1.9018787
-6.2127447 6.7609692 -1.8987806
-6.182323 6.8112788 -1.9022918
-6.1221247 6.8286867 -1.8965086
-6.0794606 6.8653903 -1.896302
-6.0475278 6.9143472 -1.8996067
-6.0005107 6.9461412 -1.8981609
-5.968574 6.995482 -1.9016721
-5.9545422 7.0663896 -1.9111732
-5.9079418 7.0990329 -1.9101405
-5.8493605 7.1170087 -1.9051834
-5.8086648 7.1565642 -1.9062161
-5.7456722 7.1684041 -1.8998133
-5.7119036 7.2165661 -1.9033245
-5.6747465 7.2607284 -1.9058031
-5.6372623 7.3047061 -1.9082817
-5.5792885 7.3220372 -1.9037377
-5.5401387 7.3639517 -1.9058031
-5.5018516 7.4072323 -1.9082817
-5.4765501 7.4684668 -1.9155108
-5.4306211 7.5019298 -1.9155108
-5.3913145 7.5446625 -1.9179893
-5.3421001 7.5736036 -1.9169565
-5.2698107 7.5693026 -1.9074554
-5.2421083 7.6289124 -1.9144781
-5.2177162 7.6941342 -1.9229463
-5.1633329 7.7154341 -1.9202613
-5.1153555 7.7461538 -1.9200548
-5.0597167 7.7650995 -1.9169565
-5.0162091 7.8025832 -1.9186089
-4.9771485 7.847261 -1.9221202
-4.9330568 7.8842878 -1.9237726
-4.8516965 7.8611217 -1.9105537
-4.8247399 7.9258442 -1.9192286
-4.8117766 8.0148573 -1.9338933
-4.7779613 8.0703306 -1.9402962
-4.7071395 8.0631618 -1.9314147
-4.6727085 8.1181803 -1.9378177
-4.6266718 8.1535063 -1.9394701
-4.5627027 8.1569786 -1.9334803
-4.5031176 8.1676846 -1.9293493
-4.4692678 8.2252512 -1.9365784
-4.3993154 8.2162914 -1.9279035
-4.4022393 8.3443794 -1.9520693
-4.3414793 8.3530025 -1.9477319
-4.2839017 8.3672915 -1.9448402
-4.2307181 8.389925 -1.9440141
-4.1909094 8.4393864 -1.9495908
-4.1429157 8.4728537 -1.9514498
-4.0912738 8.4989958 -1.9516562
-4.0331817 8.5115604 -1.9487646
-3.9949417 8.5662966 -1.9557872
-3.9500592 8.6075439 -1.9597116
-3.8971698 8.6316185 -1.9597116
-3.8413537 8.6491098 -1.9582657
-3.7846861 8.6644468 -1.9564068
-3.7391744 8.7054863 -1.9605377
-3.6807396 8.716548 -1.9578526
-3.6144326 8.7082443 -1.9508301
-3.564997 8.7402229 -1.9531021
-3.5116649 8.7628412 -1.9533086
-3.462132 8.7951488 -1.9557872
-3.4190385 8.8445168 -1.96219
-3.3758166 8.8946018 -1.9687996
-3.3129783 8.8931427 -1.9638424
-3.2529728 8.8986006 -1.9605377
-3.1923649 8.9018154 -1.9568199
-3.1412559 8.9313879 -1.9590919
-3.0953267 8.9763937 -1.9648752
-3.0361171 8.9831676 -1.96219
-2.987093 9.0202045 -1.966321
-2.9298782 9.0327787 -1.9650817
-2.8782496 9.0627089 -1.9677668
-2.8292687 9.1016884 -1.9725174
-2.7625484 9.0833054 -1.9646686
-2.7020195 9.0841427 -1.9611573
-2.6579783 9.1409492 -1.9700388
-2.591677 9.1213226 -1.96219
-2.5351374 9.1351671 -1.961777
-2.4900405 9.1911592 -1.9706584
-2.4433515 9.2431555 -1.9787138
-2.3853691 9.2532368 -1.977681
-2.3213935 9.2392311 -1.9714847
-2.2579124 9.2257395 -1.9654948
-2.1974063 9.2232399 -1.9619836
-2.1553552 9.2994585 -1.9756155
-2.0892198 9.272419 -1.9669406
-2.0385635 9.3137379 -1.973137
-1.9905289 9.3691387 -1.9824315
-1.933596 9.3840513 -1.9830512
-1.871573 9.3736706 -1.9783007
-1.8188509 9.409955 -1.9836708
-1.7502886 9.3632317 -1.9712781
-1.692804 9.3737946 -1.9712781
-1.641808 9.4215975 -1.9793334
-1.5885059 9.4585114 -1.9851166
-1.5260669 9.4410353 -1.9793334
-1.4664564 9.4395866 -1.9770614
-1.415291 9.4938908 -1.986769
-1.3536901 9.4791489 -1.9818119
-1.2935154 9.4727354 -1.9787138
-1.2346087 9.4746723 -1.9774745
-1.1742806 9.464592 -1.9737567
-1.1093117 9.4133167 -1.9613639
-1.0530521 9.4335594 -1.9642556
-1.0004852 9.4904413 -1.9749959
-0.94494027 9.5236635 -1.9807792
-0.88394761 9.5020046 -1.9749959
-0.82579714 9.5091982 -1.975409
-0.7690084 9.5335922 -1.9795399
-0.71209681 9.559597 -1.9840839
-0.65336013 9.5628099 -1.9838774
-0.59205949 9.5246477 -1.9749959
-0.53201842 9.4997711 -1.9690061
-0.47513285 9.5311956 -1.9749959
-0.41698366 9.5417519 -1.9766483
-0.35868603 9.5509748 -1.9780941
-0.30016789 9.5559301 -1.9787138
-0.2413796 9.5517235 -1.9774745
-0.18261673 9.5451984 -1.9758221
-0.12431289 9.5666847 -1.9801595
-0.065482214 9.5486774 -1.9762352
-0.0069257682 9.5939074 -1.9857363
0.05186788 9.5800714 -1.9828446
0.110514 9.567832 -1.9803661
0.16980597 9.6002359 -1.9873886
0.22880177 9.6029263 -1.9882149
0.28608099 9.5465736 -1.9766483
0.34408799 9.5289936 -1.9733435
0.40217894 9.5179043 -1.9714847
0.4620373 9.5455542 -1.9778875
0.52113163 9.552309 -1.9799531
0.57825232 9.5245152 -1.9747894
0.63681328 9.5227404 -1.9752024
0.69665641 9.5381708 -1.9793334
0.75648111 9.5502987 -1.9828446
0.81398475 9.5328035 -1.9801595
0.86773491 9.4759884 -1.9692127
0.92357832 9.447114 -1.9642556
0.98263979 9.4519749 -1.9665276
1.045223 9.487587 -1.975409
1.098556 9.4392042 -1.9665276
1.1650234 9.5022097 -1.9813988
1.2209312 9.4764452 -1.9774745
1.282328 9.4930162 -1.9826381
1.3375405 9.4636545 -1.9780941
1.3942977 9.446558 -1.9762352
1.4428624 9.3769007 -1.9632229
1.5060945 9.4036169 -1.970865
1.5660143 9.407711 -1.9737567
1.6262076 9.4123878 -1.9768548
1.6839303 9.4022322 -1.9768548
1.7312448 9.3359241 -1.9648752
1.7886807 9.326087 -1.9650817
1.8395958 9.2832632 -1.9582657
1.8976984 9.2775526 -1.959505
1.9501466 9.2446718 -1.9549609
2.0051718 9.2248831 -1.9533086
2.0591731 9.2009478 -1.9508301
2.1265655 9.235815 -1.9611573
2.178463 9.2025976 -1.9568199
2.2436731 9.2251854 -1.9646686
2.2900438 9.1704254 -1.9557872
2.3435981 9.1457748 -1.9535152
2.3986769 9.1274376 -1.9526889
2.4470031 9.0842047 -1.9464926
2.5045185 9.0756216 -1.9479384
2.5710652 9.0986881 -1.9564068
2.6284761 9.0883799 -1.957646
2.677253 9.048625 -1.9524825
2.7313073 9.0273447 -1.9514498
2.7828889 8.9982643 -1.9487646
2.847187 9.0099411 -1.9551675
2.8825843 8.9308462 -1.9415355
2.9416158 8.9260006 -1.9444271
2.9947698 8.9031458 -1.9433944
3.0547411 8.9003363 -1.9469057
3.1099415 8.8832722 -1.9473188
3.1604426 8.8529644 -1.9448402
3.2016556 8.7975464 -1.936785
3.2559164 8.7786531 -1.9369915
3.3194029 8.7841387 -1.9427748
3.3711305 8.7581263 -1.9415355
3.4258769 8.7400093 -1.9421551
3.472913 8.702467 -1.9384373
3.5299268 8.6900587 -1.9405028
3.5809391 8.6628103 -1.9392635
3.6260607 8.6217346 -1.934926
3.6692743 8.5768337 -1.9297624
3.7214413 8.5532608 -1.9295559
3.7730615 8.5284758 -1.9291427
3.8241162 8.5024872 -1.9285231
3.8676724 8.4601755 -1.9241856
3.9170368 8.4309597 -1.9229463
3.965771 8.4005728 -1.9215006
4.0265489 8.3954906 -1.9260446
4.0715594 8.3574314 -1.9229463
4.1301394 8.3472004 -1.9264576
4.1505313 8.2605 -1.9119995
4.1833544 8.2000141 -1.9037377
4.2601371 8.2254534 -1.9159238
4.2918611 8.1636496 -1.9074554
4.3625975 8.1760082 -1.91675
4.3851967 8.0983219 -1.9045638
4.4366889 8.0746918 -1.90539
4.490438 8.0550089 -1.9072489
4.5301456 8.0102701 -1.903118
4.6006312 8.0196667 -1.9122061
4.6458163 7.9845214 -1.9105537
4.6773186 7.9263711 -1.9033245
4.7243586 7.8950033 -1.902705
4.778295 7.8750682 -1.904977
4.8244753 7.8422675 -1.9041507
4.8870006 7.8357639 -1.909934
4.9177346 7.778338 -1.903118
4.97012 7.7554312 -1.904977
4.9888339 7.680479 -1.8938234
5.0358667 7.6497235 -1.8938234
5.0957408 7.6382151 -1.8987806
5.1326489 7.5922136 -1.8950627
5.174161 7.5533123 -1.8932039
5.2259884 7.52946 -1.8952693
5.2540812 7.4716401 -1.8886598
5.3106132 7.4544024 -1.8925842
5.3482366 7.4105687 -1.8896925
5.3837905 7.3641849 -1.8861812
5.450418 7.3601065 -1.8938234
5.4813867 7.3077388 -1.8888663
5.5006728 7.2404656 -1.8799849
5.5473828 7.2096796 -1.8808111
5.6221862 7.2148681 -1.8913449
5.6548343 7.1656413 -1.8874205
5.6986952 7.1308088 -1.8874205
5.7263393 7.0759325 -1.8820503
5.7777104 7.0505013 -1.8847355
5.8277349 7.0232005 -1.8870075
5.8593903 6.9738255 -1.8832896
5.8944626 6.9287982 -1.8808111
5.910687 6.8621039 -1.8723427
5.959754 6.8338194 -1.8746147
6.0074015 6.8037233 -1.8764735
6.0183887 6.7324486 -1.866766
6.0681195 6.7048249 -1.869451
6.0760975 6.6313939 -1.8591237
6.105361 6.5817914 -1.8556125
6.1851473 6.5862885 -1.8677987
6.2274661 6.5503407 -1.8684183
6.2695765 6.5141215 -1.869038
6.2964554 6.462214 -1.8651136
6.3201857 6.4074359 -1.860363
6.3628387 6.3719969 -1.8613957
6.3962522 6.3273306 -1.8597434
6.4454522 6.2982225 -1.8628416
6.4783444 6.253119 -1.8611892
6.512342 6.2091994 -1.8599499
6.5652757 6.1832118 -1.8642874
6.5658412 6.1081548 -1.853547
6.5923905 6.0578218 -1.8504488
6.6120491 6.0014744 -1.8454918
6.7055712 6.0117383 -1.8616023
6.764307 5.9899411 -1.8677987
6.8171353 5.9624953 -1.8723427
6.8350825 5.904563 -1.867179
6.8548088 5.8485403 -1.862635
6.8756018 5.7937593 -1.8585041
6.8922215 5.7358146 -1.8533405
6.9454269 5.7083278 -1.8582976
6.9879184 5.6717701 -1.860363
7.0546522 5.654489 -1.869038
7.0569935 5.5855904 -1.860363
7.1065507 5.5542355 -1.864494
7.1203585 5.4949832 -1.8591237
7.1936302 5.4814353 -1.8696576
7.2294741 5.4389577 -1.8702772
7.2415037 5.3787427 -1.8647004
7.2720037 5.3324728 -1.8640809
7.3117189 5.2929158 -1.8659397
7.3623672 5.2610373 -1.8706903
7.385715 5.2095594 -1.8684183
7.4368124 5.1775618 -1.8733754
7.4692478 5.1323867 -1.873582
7.5289412 5.1056814 -1.8808111
7.5479302 5.0512252 -1.8777128
7.5828643 5.007513 -1.8787456
7.5896745 4.9453998 -1.8727558
7.6190529 4.8982081 -1.8725492
7.6770563 4.8691854 -1.8795718
7.7043004 4.8204312 -1.8789521
7.6995959 4.7519975 -1.8704838
7.7495027 4.7173839 -1.8756474
7.7816572 4.6717596 -1.8764735
7.7840767 4.6084709 -1.8700707
7.8291063 4.5704885 -1.8742015
7.813756 4.4974689 -1.8636677
7.8446088 4.4513717 -1.864494
7.8743358 4.4045873 -1.8651136
7.9491959 4.3826451 -1.8766801
7.9862537 4.3393936 -1.8791587
8.0377436 4.3037038 -1.8851485
8.0250578 4.2337575 -1.875854
8.0795336 4.1993289 -1.8826699
8.0790205 4.1362967 -1.8764735
8.0876493 4.0782762 -1.8725492
8.1221609 4.0333619 -1.8748212
8.2074051 4.0131073 -1.8890729
8.2071896 3.9507883 -1.8832896
8.2595701 3.9137638 -1.889899
8.2656946 3.8547387 -1.8857682
8.2749634 3.7974188 -1.8824635
8.258872 3.7288558 -1.8733754
8.2994795 3.6860538 -1.8775064
8.3398733 3.6428936 -1.8816372
8.3620682 3.5916526 -1.8816372
8.4019756 3.5478895 -1.8857682
8.4272022 3.4977696 -1.8865943
8.4403515 3.4426694 -1.8847355
8.4104567 3.3704312 -1.8731688
8.4701271 3.3341744 -1.8820503
8.4785624 3.2775531 -1.8793652
8.53053 3.2376208 -1.8865943
8.5795746 3.1961489 -1.8932039
8.574213 3.1343741 -1.887627
8.5849943 3.0787318 -1.8857682
8.6083384 3.0276208 -1.8868009
8.6600533 2.986228 -1.8942366
8.6290865 2.9164288 -1.8832896
8.7034769 2.8821921 -1.8958889
8.6949387 2.8202803 -1.8901056
8.7176752 2.7686534 -1.8913449
8.7326307 2.7145298 -1.8909318
8.7219753 2.6526387 -1.8849419
8.7596569 2.6054885 -1.8896925
8.7970886 2.5579755 -1.894443
8.7909708 2.497798 -1.8896925
8.813674 2.445904 -1.8913449
8.8445702 2.3961284 -1.8948562
8.8515387 2.3398132 -1.8932039
8.8543596 2.2825258 -1.8907253
8.9004622 2.2362614 -1.8977478
8.9235201 2.1839335 -1.8998133
8.9034395 2.1212006 -1.8925842
8.9191465 2.067193 -1.8932039
8.9574347 2.018235 -1.8987806
8.9954557 1.9688848 -1.9043573
9.0303373 1.9185338 -1.9093144
8.9978571 1.8540035 -1.8998133
8.9850769 1.7939684 -1.8946496
9.0228138 1.7440035 -1.9004329
9.0237265 1.6868095 -1.8983674
9.0512381 1.6345398 -1.9020853
9.0485668 1.5767876 -1.8994001
9.0706148 1.5233442 -1.9020853
9.0614395 1.464692 -1.8981609
6.0353665 0.93745887 -1.2498138
5.8745542 0.87558836 -1.214288
0 0 -0
0 0 -0
0 0 -0
0 0 -0
0 0 -0
0 0 -0
0 0 -0
0 0 -0
0 0 -0
0 0 -0
0 0 -0
0 0 -0
0 0 -0
0 0 -0
0 0 -0
0 0 -0
0 0 -0
0 0 -0
0 0 -0
0 0 -0
0 0 -0
0 0 -0
0 0 -0
0 0 -0
0 -0 -0
0 -0 -0
0 -0 -0
0 -0 -0
0 -0 -0
0 -0 -0
0 -0 -0
0 -0 -0
0 -0 -0
0 -0 -0
5.9008188 -0.39475733 -1.2089177
5.884624 -0.42995939 -1.2060261
5.9033337 -0.46775749 -1.2105701
5.9091263 -0.50471967 -1.212429
0 -0 -0
5.9540992 -0.58223921 -1.2233759
6.0749836 -0.63170701 -1.2498138
8.9760218 -0.98888683 -1.866766
8.6451769 -1.0061792 -1.7977797
8.3960476 -1.0294486 -1.7461432
8.2498322 -1.0629485 -1.7164006
8.1277685 -1.0979668 -1.6918217
8.01334 -1.1326228 -1.6688951
8.0991631 -1.1954819 -1.6887236
8.1903152 -1.2603289 -1.7097912
8.1689024 -1.3083943 -1.7068995
8.1481733 -1.356405 -1.7042145
8.1522312 -1.4085407 -1.7068995
8.1598082 -1.461467 -1.7104108
8.1429911 -1.5100803 -1.7087585
8.1009007 -1.5537516 -1.7017359
8.0768175 -1.6005763 -1.6986377
8.0505486 -1.6467719 -1.6951264
8.0297613 -1.6939172 -1.6928544
8.0144358 -1.742116 -1.6918217
8.0026407 -1.7910452 -1.6916151
7.958128 -1.8324322 -1.684386
7.9172182 -1.8742421 -1.6779832
7.8637371 -1.9126136 -1.6688951
7.287972 -1.8200412 -1.546207
7.5325794 -1.9302908 -1.6019744
7.7808304 -2.0448515 -1.6587744
7.7379041 -2.0844131 -1.6521649
7.7108207 -2.127949 -1.6490667
7.6693716 -2.1672409 -1.6428703
7.6333709 -2.2077355 -1.6379132
7.5877805 -2.2450943 -1.6308907
7.5794811 -2.2933097 -1.63213
7.569006 -2.3409295 -1.6329561
7.5041194 -2.3714099 -1.6218027
7.5210862 -2.4276266 -1.6288253
7.5014029 -2.4721985 -1.6277925
7.497221 -2.5219223 -1.6302711
7.4908605 -2.571053 -1.6323365
7.4823318 -2.6195538 -1.6339889
7.4504519 -2.6598234 -1.6304777
7.4284749 -2.703481 -1.6292384
7.4172511 -2.7510517 -1.6304777
7.4340968 -2.8093069 -1.6381198
7.4267635 -2.8587346 -1.6403918
7.4409671 -2.9167469 -1.6476209
7.4674592 -2.9801168 -1.6577417
7.4481268 -3.0255122 -1.6575351
7.4303265 -3.0715299 -1.6577417
7.3951054 -3.1102364 -1.6540239
7.3623881 -3.1497812 -1.6509256
7.3321562 -3.190213 -1.6484472
7.3034954 -3.231184 -1.6463816
7.2639003 -3.267108 -1.6418376
7.2179103 -3.2998204 -1.6358478
7.1859913 -3.3386877 -1.6331627
7.1618314 -3.3810465 -1.6323365
7.1365395 -3.4228117 -1.6313038
7.1074867 -3.4626799 -1.6294448
7.0624275 -3.4945109 -1.6238681
7.0321097 -3.5333867 -1.6218027
7.0102968 -3.5764685 -1.6218027
6.9882202 -3.6194155 -1.6218027
6.9658804 -3.6622262 -1.6218027
6.9311929 -3.698451 -1.618911
6.904067 -3.7385812 -1.6178783
6.8672767 -3.7733352 -1.6145736
6.8491225 -3.8182595 -1.6158129
6.8272686 -3.8611763 -1.616226
6.7627096 -3.8796268 -1.6063118
6.7565374 -3.9313817 -1.6106492
6.7196474 -3.9653068 -1.6075511
6.9244061 -4.1436119 -1.663938
6.8712459 -4.1692729 -1.657122
6.8363671 -4.2057166 -1.65485
6.8145838 -4.2501731 -1.6558827
6.8032632 -4.3013177 -1.6596006
6.7660332 -4.3361182 -1.6569154
6.7179656 -4.3636956 -1.6515453
6.6649113 -4.3876195 -1.6449358
6.619143 -4.4159436 -1.6401852
6.5878696 -4.4537349 -1.6391525
6.6096592 -4.5278015 -1.6517519
6.5737143 -4.5626936 -1.6496863
6.5287862 -4.591125 -1.6453489
6.4861484 -4.6208801 -1.6416311
6.440218 -4.647995 -1.6370871
6.352335 -4.6441178 -1.6215961
6.361464 -4.7109556 -1.6315104
6.3754892 -4.7821889 -1.6428703
6.2805796 -4.771502 -1.6255205
6.2372251 -4.7992096 -1.6218027
6.2277274 -4.8530259 -1.6271729
6.1886153 -4.8838739 -1.6246943
6.1554742 -4.9193115 -1.6238681
6.1198497 -4.9526801 -1.6224223
6.0901022 -4.9907575 -1.6226289
6.0217152 -4.9967933 -1.6123016
6.0276504 -5.0644875 -1.6224223
5.9927354 -5.098207 -1.6213896
5.9517031 -5.1265812 -1.6187046
5.9400454 -5.180366 -1.6242813
5.9052138 -5.2141256 -1.623455
5.8468475 -5.2267871 -1.6160194
5.8211956 -5.2684731 -1.6178783
5.7837095 -5.2994652 -1.6164325
5.763279 -5.3461652 -1.6199437
5.7039762 -5.3566461 -1.6123016
5.7043309 -5.4232283 -1.6220093
5.6371074 -5.4255605 -1.612095
5.5854893 -5.4422951 -1.6067249
5.5547771 -5.4792128 -1.6075511
5.5127444 -5.5048971 -1.6050725
5.4809275 -5.5407057 -1.6056921
5.4570847 -5.5847282 -1.6087903
5.4322286 -5.6279626 -1.6116819
2.257854 -2.3684547 -0.65124428
2.243279 -2.3822641 -0.65124428
2.229286 -2.3966999 -0.65145081
2.2158623 -2.4117744 -0.65186393
5.1906147 -5.7187753 -1.5908208
5.1756759 -5.7730999 -1.5972238
5.1369119 -5.8010859 -1.596191
5.1141038 -5.8472252 -1.6003219
5.0877247 -5.8896008 -1.6034201
5.0375185 -5.9043326 -1.5988761
5.0125451 -5.9485989 -1.6025939
4.957799 -5.9574337 -1.5966041
4.9335775 -6.0028596 -1.6007351
4.8917184 -6.0269413 -1.5990827
4.8375106 -6.0354667 -1.5932994
4.8040304 -6.0696383 -1.5945387
2.0172429 -2.5814419 -0.65207046
1.9929961 -2.5829268 -0.6491788
1.9729587 -2.5896595 -0.64773303
1.9470313 -2.5884252 -0.64422172
1.9351965 -2.6058214 -0.64566755
1.7826158 -2.4314406 -0.59692276
1.7493025 -2.4169712 -0.59031332
1.7259059 -2.4157186 -0.58721513
4.4346199 -6.287168 -1.5846244
4.4015498 -6.3222899 -1.5866899
4.3637824 -6.350791 -1.587103
4.3066092 -6.3507247 -1.580287
4.2653842 -6.3737774 -1.5794609
4.2078619 -6.3720698 -1.5724382
4.1617398 -6.3871126 -1.5697532
4.1166501 -6.4034753 -1.5674812
4.0819983 -6.4360499 -1.5693401
4.0393167 -6.4559989 -1.5681008
3.9991136 -6.4798293 -1.5678942
3.9689457 -6.5201249 -1.5718186
3.9555583 -6.5888138 -1.5827656
3.9175482 -6.6171703 -1.5837983
3.8561525 -6.6055946 -1.5751233
1.6741136 -2.9090538 -0.66900724
1.6562325 -2.919271 -0.66900724
1.6406775 -2.9336481 -0.67003995
3.6994958 -6.7102356 -1.578015
3.6545155 -6.7259312 -1.5763626
3.5942397 -6.7128639 -1.5678942
3.5721595 -6.7711368 -1.5765692
3.5364118 -6.8042135 -1.5792543
3.5003924 -6.8371062 -1.5819393
3.4641025 -6.869813 -1.5846244
3.4305892 -6.9084654 -1.5887554
3.363205 -6.8784046 -1.5767757
3.3281519 -6.9138985 -1.580287
3.2697439 -6.9005909 -1.5724382
3.2302363 -6.9267306 -1.5738841
3.1807356 -6.9313035 -1.5703728
3.1373408 -6.9489059 -1.5699598
3.090672 -6.9590836 -1.5678942
3.0345962 -6.9474316 -1.5608717
2.9807112 -6.9398499 -1.5548819
2.9517767 -6.9904571 -1.5623175
2.9032016 -6.9948826 -1.5592194
2.8528359 -6.9944453 -1.5550884
2.7996728 -6.9863887 -1.5493052
2.7571108 -7.0043459 -1.5495117
2.7137284 -7.0202188 -1.5493052
2.6706021 -7.0367379 -1.5493052
2.6273751 -7.0529919 -1.5493052
2.5833774 -7.0671425 -1.548892
2.5366623 -7.0736508 -1.5468266
2.5107436 -7.1389241 -1.5579801
2.4665737 -7.1532702 -1.5577735
2.409163 -7.1284132 -1.548892
2.3672242 -7.148634 -1.5501313
2.3281472 -7.1779156 -1.553436
2.2816908 -7.1846056 -1.5517837
2.2279782 -7.1676378 -1.5449677
2.1996171 -7.2326584 -1.5563277
2.1507332 -7.2310138 -1.553023
2.1202588 -7.2919893 -1.5635568
2.0757437 -7.3058028 -1.5637634
2.030092 -7.3155737 -1.5631437
1.9920752 -7.3533907 -1.5687205
1.9349138 -7.3200703 -1.5588063
1.8953364 -7.3526492 -1.5633502
1.8411241 -7.3280807 -1.5555015
1.7903092 -7.3154802 -1.5503379
1.7476566 -7.3358455 -1.5524033
1.6970878 -7.3226018 -1.5472397
1.6521252 -7.3328772 -1.5472397
1.6085652 -7.3495669 -1.5486856
1.5616084 -7.3506851 -1.5468266
1.5281285 -7.4166679 -1.5590128
1.4806758 -7.4163098 -1.5569474
1.4290134 -7.3935542 -1.5501313
1.3836205 -7.4021831 -1.5501313
1.3386972 -7.4134221 -1.550751
1.2889838 -7.3973989 -1.5455873
1.2370863 -7.3665724 -1.5373255
1.1809306 -7.3064117 -1.5228673
1.1350254 -7.3067522 -1.5214214
1.0914694 -7.3222885 -1.5232804
1.046105 -7.325942 -1.5226607
1.0012666 -7.3331923 -1.5228673
0.95524037 -7.3314362 -1.521215
0.90903246 -7.3274498 -1.5191494
0.86348218 -7.3280311 -1.5181167
0.81926209 -7.3399978 -1.5195626
0.77328569 -7.3361292 -1.5177037
0.72680783 -7.3261313 -1.5146054
0.68120712 -7.3236332 -1.5131596
0.63879806 -7.3569183 -1.519356
0.5920707 -7.3411942 -1.5152251
0.54745114 -7.350543 -1.5164644
0.50233877 -7.3537636 -1.5164644
0.45684299 -7.3508482 -1.5152251
0.41173044 -7.3535132 -1.5152251
0.3666999 -7.3578553 -1.5156382
0.32146052 -7.3580117 -1.5152251
0.27604923 -7.3530016 -1.5137793
0.23114219 -7.3614025 -1.5152251
0.18579581 -7.3558354 -1.5137793
0.14058273 -7.3529239 -1.512953
0.095667444 -7.3693018 -1.5162579
0.05056997 -7.3873615 -1.5199757
0.0053090081 -7.4765706 -1.5387713
-0.040666338 -7.4950523 -1.5426956
-0.08700341 -7.5249915 -1.5490986
-0.13315699 -7.5233374 -1.548892
-0.1800613 -7.5536799 -1.5555015
-0.22339195 -7.4516993 -1.5342273
-0.27108547 -7.5049448 -1.5457939
-0.31684098 -7.4962974 -1.544348
-0.36372945 -7.5127807 -1.5482724
-0.40779629 -7.4732819 -1.5404236
-0.45553991 -7.5018916 -1.5470332
-0.49980047 -7.4725962 -1.5414565
-0.54799277 -7.5015917 -1.5482724
-0.59547853 -7.5166206 -1.5521967
-0.6416716 -7.5138001 -1.5524033
-0.6858905 -7.4892597 -1.5480659
-0.73401952 -7.5073075 -1.5528164
-0.78209233 -7.5221262 -1.5569474
-0.82930356 -7.5269113 -1.5590128
-0.87603754 -7.5265408 -1.5600455
-0.92232203 -7.5219951 -1.5602521
-0.9680838 -7.5132828 -1.5596324
-1.0162612 -7.5227156 -1.5629371
-1.06199 -7.5134315 -1.5623175
-1.1114994 -7.530005 -1.5672746
-1.1579792 -7.5249772 -1.5676877
-1.2032017 -7.5119338 -1.5664485
-1.2518413 -7.5198522 -1.5697532
-1.2914636 -7.4744272 -1.5616978
-1.3388536 -7.4750304 -1.5635568
-1.3868346 -7.478219 -1.5660354
-1.431957 -7.4657249 -1.5652092
-1.4764078 -7.4500799 -1.5637634
-1.5201325 -7.4312944 -1.5616978
-1.5731722 -7.4572501 -1.5693401
-1.6224319 -7.4637108 -1.5728514
-1.6643521 -7.4364285 -1.5691335
-0.69123918 -3.0008943 -0.61055475
-0.71121675 -3.0032613 -0.61200058
-0.72662556 -2.9864812 -0.60931551
-1.8361583 -7.3525238 -1.5602521
-1.8695818 -7.2956233 -1.5503379
-0.77177656 -2.9356942 -0.60126019
-0.79028404 -2.9327929 -0.60167331
-0.80696321 -2.9231727 -0.60064059
-0.82860863 -2.9313483 -0.6035322
-2.0976579 -7.2526999 -1.5542623
-2.1404548 -7.2340631 -1.553023
-2.1825354 -7.2133012 -1.5513706
-1.0800879 -3.4915552 -0.73200369
-2.2838597 -7.2270255 -1.5604587
-2.3314664 -7.2231188 -1.5627307
-2.3690062 -7.1882329 -1.5581867
-1.0846664 -3.2238026 -0.67850834
-1.0983926 -3.1995027 -0.67458397
-1.1037802 -3.1520691 -0.66549593
-2.5969994 -7.274447 -1.5910274
-2.6205077 -7.2004495 -1.578015
-1.1510661 -3.1027792 -0.65909302
-1.1686994 -3.0919967 -0.65826684
-1.2189275 -3.1660373 -0.67664939
-1.2379739 -3.1575875 -0.67644286
-2.84196 -7.1212211 -1.5790477
-2.8745558 -7.0764537 -1.5728514
-2.9074574 -7.0333638 -1.5670681
-2.9717984 -7.0658998 -1.5786346
-1.2826853 -2.9975822 -0.64876574
-1.2948087 -2.9752998 -0.64546102
-1.3114573 -2.9637198 -0.64463484
-1.3219929 -2.9386625 -0.64071047
-3.1879585 -6.9731951 -1.5790477
-3.2282119 -6.9481788 -1.5778085
-3.2707844 -6.9282398 -1.5778085
-3.3170414 -6.9159803 -1.5796673
-3.3675559 -6.91221 -1.5835917
-3.423789 -6.9194803 -1.5902013
-3.4516864 -6.8694901 -1.5833852
-3.483546 -6.828135 -1.5786346
-3.5244772 -6.8048944 -1.5782216
-3.5707176 -6.791801 -1.580287
-3.6104817 -6.7663107 -1.5794609
-3.6561239 -6.7517734 -1.5813197
-3.7125592 -6.7566543 -1.5879292
-3.7510891 -6.7286196 -1.5866899
-3.8139775 -6.7438025 -1.5959845
-3.86064 -6.7296095 -1.5982565
-3.9028435 -6.7074857 -1.5986695
-3.9444237 -6.6842546 -1.5988761
-3.9672778 -6.6297002 -1.5914404
-4.0276752 -6.637857 -1.5994958
-4.0826826 -6.6363535 -1.6052791
-2.6187568 -4.1985354 -1.0050571
-2.6491747 -4.1898313 -1.006916
-2.6785283 -4.1792641 -1.0083618
-2.7153132 -4.1799822 -1.0126994
-2.7274609 -4.1428108 -1.0075357
-2.722966 -4.0812297 -0.99617565
-2.8142591 -4.162529 -1.0211678
-2.7938547 -4.0781822 -1.0040244
-2.8734956 -4.1397376 -1.0242659
-2.9191027 -4.1508422 -1.0317016
-2.9257834 -4.1065545 -1.0248855
-2.9577963 -4.0980458 -1.027364
-3.0036728 -4.1082559 -1.0347997
-3.021837 -4.0803123 -1.0323212
-3.0292044 -4.0382118 -1.0261248
-3.047415 -4.0109782 -1.0238528
-3.0761449 -3.9976327 -1.0252986
-3.1709769 -4.068984 -1.0494645
-3.261343 -4.1324058 -1.0717714
-3.1895199 -3.990782 -1.0389307
-3.1739407 -3.9216969 -1.0255052
-3.166317 -3.8635504 -1.0149714
-3.2180784 -3.8779345 -1.0242659
-3.2336304 -3.8483768 -1.0215808
-3.2616205 -3.8336802 -1.0230266
-3.315731 -3.8491807 -1.0329407
-3.361151 -3.8538361 -1.0399634
-3.4028664 -3.8536773 -1.0457467
-3.4140589 -3.8188648 -1.0418223
-3.4525268 -3.8145306 -1.0465728
-3.4600041 -3.7759602 -1.0416157
-3.4638119 -3.7338552 -1.0356259
-3.5000525 -3.7267969 -1.0397568
-3.5255504 -3.7080874 -1.040583
-3.5563781 -3.6948452 -1.0430615
-3.5728371 -3.6666467 -1.0412027
-3.5870233 -3.6362958 -1.0387241
-3.5975149 -3.602447 -1.0352128
-3.6237249 -3.584434 -1.0364521
-3.634454 -3.5511904 -1.0331473
-3.4914489 -3.3698094 -0.98481566
-3.4950652 -3.3321176 -0.97985858
-3.4335368 -3.2334611 -0.95610577
-3.5077548 -3.2629845 -0.97180325
-3.4866459 -3.2036622 -0.96003014
-3.5011661 -3.1776049 -0.95858437
-3.4142377 -3.060699 -0.92842865
-3.3933992 -3.0046625 -0.91727519
-3.6179786 -3.1641562 -0.97510803
-3.6654603 -3.166204 -0.98295671
-3.6989605 -3.1557205 -0.98688108
-3.9150271 -3.2987914 -1.0412027
-3.9299302 -3.2703257 -1.0397568
-3.9559696 -3.251121 -1.0414091
-3.9804015 -3.2304862 -1.0426484
-4.0100732 -3.2139578 -1.0453335
-4.0189776 -3.1807899 -1.042442
-4.0230012 -3.1440191 -1.038311
-4.0011649 -3.0875912 -1.027364
-3.9857926 -3.0368881 -1.0182761
-3.9777687 -2.9923737 -1.0112535
-3.9544263 -2.9369872 -1.0003066
-3.9613268 -2.9045672 -0.99741495
-4.0282121 -2.9157803 -1.0102208
-4.0563755 -2.8984044 -1.0129058
-4.0572934 -2.8616164 -1.0085684
-4.0571103 -2.8243675 -1.0040244
-4.2396731 -2.9130208 -1.0463663
-4.2080712 -2.8534513 -1.033767
-4.1059709 -2.7475781 -1.0034047
-4.0664177 -2.685127 -0.98915309
-4.148396 -2.7028608 -1.0056767
-4.1805396 -2.6874096 -1.0096011
-4.1886878 -2.656467 -1.0075357
-4.2057385 -2.6312346 -1.0077422
-4.1876674 -2.5843086 -0.99927384
-4.2176533 -2.5672145 -1.0027851
-4.326438 -2.5971932 -1.0257117
-4.3178768 -2.5561411 -1.0197219
-4.2675724 -2.4911196 -1.0036113
-4.3769031 -2.5190701 -1.0265379
-4.3633447 -2.4757473 -1.0195153
-4.3545442 -2.4355524 -1.0137321
-4.3882565 -2.4191813 -1.0182761
-4.4098954 -2.3959472 -1.0199285
-4.4521151 -2.3836241 -1.0265379
-4.4320421 -2.3379979 -1.0182761
-4.4176555 -2.2958674 -1.0114601
-4.4569159 -2.2816501 -1.0174499
-4.5118923 -2.2749674 -1.0271575
-4.5800977 -2.2742236 -1.0399634
-4.5614443 -2.2301741 -1.0323212
-4.5133309 -2.1724336 -1.0178629
-4.5460277 -2.1539178 -1.0224069
-4.5219159 -2.108613 -1.0137321
-4.5125375 -2.0706241 -1.0085684
-4.6259241 -2.088398 -1.031908
-4.6404395 -2.0607688 -1.0323212
-4.6305819 -2.0224645 -1.0271575
-4.760673 -2.0446038 -1.0542151
-4.8028736 -2.027916 -1.061031
-4.8070931 -1.9950318 -1.0591722
-4.9397364 -2.0146513 -1.0866427
-4.7939768 -1.9209671 -1.0507038
-4.8011212 -1.8897235 -1.0496711
-4.8244901 -1.8648156 -1.0523561
-4.8623691 -1.8452475 -1.0583459
-4.8195047 -1.7952231 -1.0461597
-4.8276725 -1.7646095 -1.0455401
-4.8236732 -1.729669 -1.0422354
-4.9154196 -1.7286099 -1.0604113
-4.9731073 -1.714686 -1.0709453
-5.1911635 -1.7543231 -1.1172115
-5.3940954 -1.7861166 -1.1599665
-5.542695 -1.7976699 -1.1905352
-5.5750694 -1.7704395 -1.1952858
-5.6007767 -1.7408458 -1.1985905
-5.6590934 -1.7209691 -1.2091243
-5.832727 -1.7347575 -1.2450633
-5.9203014 -1.7213409 -1.2620001
-6.2112207 -1.7646858 -1.3235507
-6.2294741 -1.7286347 -1.3252031
-7.5196018 -2.0371122 -1.6050725
-6.7752118 -1.7908605 -1.4398359
-6.8040748 -1.7538964 -1.4437603
-7.1231112 -1.7896155 -1.5108876
-7.4846473 -1.8317188 -1.587103
-7.5680819 -1.8029964 -1.6028005
-7.5837679 -1.7576303 -1.6038332
-7.8540335 -1.769573 -1.6600137
-8.1495724 -1.7837031 -1.7215643
-8.29531 -1.7623408 -1.7506872
-8.4583368 -1.7428111 -1.783528
-8.8085308 -1.758711 -1.8566452
-9.1025476 -1.7594187 -1.9175762
-9.1843424 -1.7168407 -1.9328606
-9.1966295 -1.6608021 -1.9332737
-9.1912241 -1.6016532 -1.929969
-9.199914 -1.5450647 -1.9297624
-9.2391644 -1.4934273 -1.9361653
-9.3022966 -1.4451222 -1.9477319
-9.2277632 -1.3756069 -1.929969
-9.2234373 -1.3171618 -1.9272839
-9.2342548 -1.2609403 -1.9279035
-9.2912989 -1.2107061 -1.9384373
-9.307292 -1.1547576 -1.9402962
-9.3142023 -1.0976274 -1.9402962
-9.2838106 -1.0363295 -1.9324474
-9.3357277 -0.98416877 -1.9421551
-9.3250389 -0.92522424 -1.9386438
-9.3207979 -0.86708277 -1.9365784
-9.3161955 -0.80902821 -1.934513
-9.3161077 -0.75145632 -1.9334803
-9.3156643 -0.69391602 -1.9324474
-9.3568411 -0.63927901 -1.9402962
-9.3664465 -0.58221895 -1.9415355
-9.3131819 -0.52156103 -1.9295559
-9.3543186 -0.46630806 -1.9376111
-9.347229 -0.40847465 -1.9355457
-9.3720474 -0.35195893 -1.9402962
-9.3691406 -0.29429272 -1.9392635
-8.7910004 0.64287019 -1.9321774
-8.8024559 0.69803506 -1.9356705
-8.7746716 0.75003499 -1.930431
-8.7835093 0.8051101 -1.9334874
-8.7502375 0.85622972 -1.9271562
-8.755496 0.9110164 -1.9295577
-8.7274323 0.96225923 -1.9245365
-8.710701 1.0145483 -1.922135
-8.6994686 1.0673822 -1.9210435
-8.7169523 1.1238639 -1.9265013
-8.696353 1.1754971 -1.923445
-8.6880102 1.228698 -1.9232266
-8.6841688 1.2825543 -1.9240999
-8.6549177 1.3325454 -1.919297
-8.6552496 1.3870168 -1.9212618
-8.6331005 1.4378519 -1.9182054
-8.6231537 1.4906303 -1.9179871
-8.6378584 1.5478191 -1.923445
-8.6003742 1.5956248 -1.9171139
-8.6067142 1.6514941 -1.9208251
-8.6012049 1.7052224 -1.9219167
-8.5972719 1.7593367 -1.923445
-8.5614901 1.8068129 -1.9177688
-8.5321245 1.8553689 -1.9136208
-8.5186749 1.9072593 -1.9131842
-8.5087137 1.9599314 -1.9136208
-8.5098219 2.0152531 -1.9166772
-8.4622135 2.0588899 -1.9085996
-8.4380598 2.1079345 -1.9059799
-8.427803 2.1603971 -1.9066348
-8.4115572 2.2113237 -1.9059799
-8.39783 2.2628944 -1.9059799
-8.3866091 2.3151593 -1.9066348
-8.3656721 2.3647161 -1.9051065
-8.3435059 2.4138317 -1.9033601
-8.3378954 2.4677517 -1.9055432
-8.34688 2.5262189 -1.9112194
-8.2995262 2.5675764 -1.9037967
-8.2966423 2.6225727 -1.9068531
-8.2980385 2.6791296 -1.9110011
-8.2434454 2.7174633 -1.9020503
-8.2395649 2.7723517 -1.9051065
-8.2270136 2.8244414 -1.9061981
-8.2003183 2.8716419 -1.9040151
-8.1825438 2.9219038 -1.9040151
-8.1873856 2.9804044 -1.9094728
-8.1424112 3.0207381 -1.9031417
-8.1447182 3.0785809 -1.908163
-8.1192999 3.1260426 -1.9066348
-8.0954237 3.1740212 -1.9055432
-8.079421 3.2250817 -1.9064165
-8.1046829 3.2929683 -1.9173322
-8.0689945 3.3362947 -1.9136208
-8.0249853 3.3759007 -1.9079447
-7.9870744 3.4177809 -1.9037967
-7.9534264 3.4612708 -1.9007403
-7.9365005 3.511982 -1.9018319
-7.922811 3.5642176 -1.9037967
-7.8972425 3.6111403 -1.9029235
-7.8767066 3.6603515 -1.9033601
-7.8708639 3.7165325 -1.907508
-7.8267961 3.7546244 -1.9022685
-7.7895756 3.7957363 -1.8987755
-7.7433996 3.8322036 -1.8930993
-7.7406654 3.8901639 -1.8983389
-7.7201271 3.9393613 -1.8992121
-7.6923442 3.9848609 -1.8983389
-7.6660213 4.0310764 -1.8979023
-7.6773 4.0973415 -1.9070715
-7.6022482 4.1174092 -1.8944092
-7.5751305 4.1630378 -1.8939726
-7.5784216 4.2256021 -1.9013953
-7.5353642 4.2624111 -1.897029
-7.5361528 4.3241119 -1.9040151
-7.5128522 4.3722353 -1.9048883
-7.4715972 4.4098167 -1.9011769
-7.4326763 4.4485607 -1.8981205
-7.3802147 4.4788909 -1.8915712
-7.3866677 4.545063 -1.900522
-7.3578129 4.5897846 -1.9003037
-7.2825022 4.6051092 -1.8878598
-7.2639666 4.6560278 -1.8904796
-7.2753563 4.7265673 -1.9011769
-7.2315478 4.761457 -1.8972473
-7.1802807 4.7911119 -1.8913529
-7.1814647 4.855855 -1.8996488
-7.1064558 4.8689337 -1.8874232
-7.1165257 4.9402771 -1.8983389
-7.0717125 4.973743 -1.8944092
-7.0211935 5.0028806 -1.8889514
-7.0109353 5.0607204 -1.8946276
-6.9600596 5.0892406 -1.8891697
-6.945168 5.1440506 -1.8937542
-6.8908386 5.1695824 -1.8874232
-6.8931737 5.2377491 -1.897029
-6.8748255 5.2906609 -1.9009587
-6.8152957 5.3117442 -1.8933177
-6.7358532 5.3165746 -1.8800006
-6.70158 5.356586 -1.8795639
-6.6905818 5.4154134 -1.885895
-6.6843958 5.4786377 -1.8937542
-6.6461487 5.5158095 -1.8924444
-6.6054559 5.5508342 -1.8904796
-6.5578952 5.579875 -1.8865499
-6.5065312 5.6053562 -1.8815287
-6.5021639 5.6714787 -1.8904796
-6.4577341 5.7028694 -1.8876415
-6.4102545 5.7313266 -1.8839302
-6.3662858 5.7626915 -1.8813105
-6.3610206 5.8293414 -1.8904796
-6.3279939 5.8709178 -1.8913529
-6.3018088 5.9189897 -1.8944092
-6.2583008 5.95082 -1.8922261
-6.239244 6.0060301 -1.897684
-6.2022738 6.0442004 -1.897684
-6.1345077 6.0519829 -1.8880781
-6.1193504 6.1115804 -1.8950641
-6.089283 6.1566458 -1.8974656
-6.0554833 6.198082 -1.8987755
-6.0017543 6.2189684 -1.8937542
-5.9702148 6.2627416 -1.8959374
-5.9376955 6.3056512 -1.8979023
-5.8922472 6.3348193 -1.8957192
-5.8526068 6.3701353 -1.8955008
-5.8035741 6.3950849 -1.8922261
-5.7935328 6.4632788 -1.9020503
-5.7194853 6.4599762 -1.8904796
-5.7009363 6.5191941 -1.897684
-5.6608276 6.5540514 -1.897684
-5.6319046 6.6020279 -1.9016136
-5.591918 6.6372066 -1.9018319
-5.5354857 6.652637 -1.8963741
-5.5150042 6.7113605 -1.9035784
-5.4755645 6.7473474 -1.9042333
-5.4413824 6.789957 -1.9068531
-5.4002233 6.8239822 -1.9070715
-5.3654599 6.8662171 -1.9096912
-5.319056 6.8936009 -1.908163
-5.2837529 6.9354243 -1.9107827
-5.2340603 6.9583545 -1.908163
-5.2075543 7.0122786 -1.9142758
-5.1488538 7.0228477 -1.9083813
-5.1188226 7.0724926 -1.9134026
-5.0634193 7.0870914 -1.9088179
-5.0282731 7.1299906 -1.9120927
-4.9766259 7.1494946 -1.9090363
-4.9453707 7.1983981 -1.9140575
-4.896729 7.2221441 -1.912311
-4.8588333 7.2617879 -1.9149307
-4.8243985 7.3069391 -1.9190787
-4.7688217 7.3200488 -1.9147124
-4.7143207 7.334394 -1.9107827
-4.6666164 7.3590612 -1.9096912
-4.6394849 7.4165158 -1.9173322
-4.6220698 7.4905243 -1.9293394
-4.5466018 7.4703898 -1.9166772
-4.4961596 7.4906154 -1.9147124
-4.4650226 7.5432582 -1.9212618
-4.4289823 7.5882134 -1.9258463
-4.3969374 7.6406231 -1.9323958
-4.3432326 7.6555743 -1.9293394
-4.2933197 7.6769691 -1.9280295
-4.2357726 7.6843643 -1.9232266
-4.2081027 7.7462282 -1.9323958
-4.1715446 7.7925525 -1.9376353
-4.115459 7.802464 -1.9337057
-4.1012464 7.8925195 -1.9500792
-4.0451841 7.9027667 -1.9463679
-4.0067191 7.9474826 -1.9513891
-3.9357529 7.9273367 -1.940255
-3.8848951 7.9469528 -1.9391636
-3.8508685 8.0014191 -1.9468045
-3.8092184 8.0407724 -1.9507341
-3.7643445 8.0737238 -1.9531356
-3.6858492 8.0336905 -1.9376353
