# .PCD v0.7 - Point Cloud Data file format
VERSION 0.7
FIELDS x y z
SIZE 4 4 4
TYPE F F F
COUNT 1 1 1
WIDTH 1541
HEIGHT 1
VIEWPOINT 0 0 0 1 0 0 0
POINTS 1541
DATA ascii
12.121144 14.582223 -0.93354893
21.204702 25.192684 -1.6484042
17.879463 20.97971 -1.373861
18.043089 20.910439 -1.3766212
21.808071 24.962059 -1.6595474
22.008469 24.881636 -1.6632278
22.17938 24.766956 -1.6646591
22.442957 24.753954 -1.6731955
22.630217 24.654774 -1.6759046
22.801464 24.537401 -1.677438
22.969387 24.415943 -1.6787671
23.148386 24.305643 -1.6809651
23.342144 24.209879 -1.6842875
15.818707 16.207102 -1.1221664
23.910547 24.197945 -1.7041717
24.081177 24.07337 -1.7058073
24.233408 23.930069 -1.7061652
24.391224 23.792082 -1.706983
16.323517 15.728791 -1.1232399
16.877653 16.064156 -1.1555963
25.223776 23.713945 -1.7349945
25.519564 23.698721 -1.7455244
17.043158 15.633985 -1.1467532
23.744284 21.513647 -1.6029623
23.651089 21.166424 -1.5875252
23.572495 20.837034 -1.573315
24.094879 21.036823 -1.6001508
24.197788 20.866411 -1.5984129
26.35774 22.448357 -1.7350457
0 0 -0
0 0 -0
26.470753 21.716797 -1.7154683
26.662481 21.601746 -1.7193531
0 0 -0
0 0 -0
19.903297 15.527877 -1.2550677
20.001364 15.407898 -1.2552722
0 0 -0
27.354862 20.54217 -1.7139348
27.504461 20.391779 -1.7154683
27.635511 20.22735 -1.7158772
0 0 -0
0 0 -0
22.76774 16.029591 -1.3881733
22.885351 15.903266 -1.3894001
28.305573 19.413044 -1.719762
28.44566 19.253553 -1.721091
28.591497 19.097511 -1.722829
0 0 -0
28.962683 18.83559 -1.7313142
29.021393 18.621389 -1.7278894
29.131729 18.440832 -1.727685
29.328196 18.3141 -1.7327454
0 0 -0
28.942154 17.583122 -1.6962998
26.438251 15.840781 -1.5404986
26.507435 15.662005 -1.5388629
26.496895 15.437231 -1.5325757
26.527899 15.238048 -1.5288442
28.591894 16.191032 -1.644775
28.716864 16.029894 -1.6463085
28.832182 15.863017 -1.6473308
29.281033 15.876684 -1.6678283
29.596354 15.813432 -1.680505
29.799757 15.687822 -1.68669
30.213734 15.669734 -1.7050406
30.405365 15.533116 -1.7105612
30.751686 15.472836 -1.7249758
31.077822 15.398687 -1.7382149
31.519087 15.377162 -1.7579967
31.288754 15.027829 -1.7395949
31.536573 14.909402 -1.748438
31.967928 14.874014 -1.7676575
32.96302 15.091626 -1.8185689
33.335464 15.015404 -1.8343127
33.906342 15.022959 -1.8611485
34.225857 14.913961 -1.8738763
35.424736 15.178384 -1.9355731
35.716927 15.044858 -1.9466653
35.724598 14.790658 -1.9420137
35.941414 14.622735 -1.9490166
0 0 -0
0 0 -0
0 0 -0
35.524479 13.446754 -1.9071528
35.462147 13.174969 -1.8992809
35.413773 12.910271 -1.8922781
0 0 -0
0 0 -0
35.268578 12.126677 -1.8718828
0 0 -0
0 0 -0
35.196938 11.382036 -1.8563435
35.22327 11.152293 -1.8540434
0 0 -0
0 0 -0
34.74371 10.300811 -1.8178022
0 0 -0
34.491779 9.7672939 -1.7978159
34.362396 9.5033026 -1.7877972
34.415241 9.2909784 -1.7875416
34.416553 9.0651379 -1.784628
34.29451 8.8083324 -1.7752738
34.344036 8.5967693 -1.7750694
0 0 -0
34.063122 8.0835943 -1.7548786
34.144192 7.8818464 -1.7565655
34.032097 7.6363392 -1.7481824
34.046112 7.4203615 -1.7464956
34.080254 7.2090454 -1.7459333
34.110149 6.9969883 -1.7452177
0 0 -0
34.212078 6.5814614 -1.7461889
0 0 -0
34.357109 6.1731381 -1.7496648
34.459286 5.9734669 -1.7530384
34.515976 5.7653708 -1.7541119
34.632542 5.566628 -1.7583544
34.608799 5.3451824 -1.7553897
34.72393 5.1450195 -1.7596835
0 0 -0
34.900242 4.7342186 -1.765664
34.965279 4.5247264 -1.7675554
34.963638 4.3065586 -1.766073
35.054874 4.0995989 -1.7694466
35.074406 3.8838799 -1.769191
35.182999 3.67752 -1.773587
35.210865 3.4621582 -1.7738937
35.270229 3.2496154 -1.7758873
35.335274 3.0370727 -1.7782385
0 0 -0
35.362911 2.6027129 -1.7778807
35.387184 2.3862855 -1.7783408
35.434055 2.1711235 -1.7800276
35.440727 1.9533339 -1.7797209
35.523865 1.739351 -1.7834013
35.41114 1.5160975 -1.777114
35.593433 1.3051523 -1.7860081
0 0 -0
0 0 -0
35.674335 0.65091819 -1.7892284
35.622734 0.43134904 -1.7864171
0 0 -0
0 -0 -0
31.209505 -0.19646387 -1.5604339
27.338079 -0.33970824 -1.3623599
27.331486 -0.50737083 -1.3621554
27.329855 -0.67511356 -1.3622576
27.311224 -0.84236205 -1.361542
26.24865 -0.97078931 -1.3074104
27.388628 -1.1813264 -1.3661425
27.309046 -1.3458152 -1.3624622
27.539593 -1.5266316 -1.3747299
25.636782 -1.5789151 -1.2776608
25.636574 -1.7368652 -1.278172
25.605515 -1.8926623 -1.2771498
19.641315 -1.5727719 -0.97152799
27.365379 -2.3608084 -1.3688515
19.944727 -1.8436695 -0.98819178
19.921112 -1.9648364 -0.98757839
19.927553 -2.0890124 -0.98854959
30.754393 -3.4155378 -1.546786
10.593507 -1.2415785 -0.50892949
10.583707 -1.3063108 -0.50882721
10.567569 -1.3701984 -0.50841832
10.543129 -1.4328604 -0.50760043
10.573689 -1.5031515 -0.5096451
10.590939 -1.571964 -0.51102519
13.898184 -2.1504505 -0.68282562
13.963606 -2.2483952 -0.68691492
14.331722 -2.3980095 -0.70674783
13.704718 -2.3795829 -0.67495376
13.746866 -2.4738927 -0.67791849
29.078682 -5.4187479 -1.4769616
29.110588 -5.6097331 -1.4803864
28.795492 -5.7324691 -1.4657673
28.750973 -5.9072375 -1.4653072
28.670221 -6.0742226 -1.463007
28.524107 -6.2263799 -1.4573332
28.43762 -6.3905516 -1.4548285
28.2743 -6.5363488 -1.4483367
28.178278 -6.6965499 -1.4454231
28.045462 -6.8470535 -1.4406183
27.97386 -7.0117226 -1.4390848
27.856802 -7.1643267 -1.4352
24.865116 -6.5577064 -1.2791944
8.1795483 -2.2101595 -0.39667904
8.1282969 -2.2499113 -0.39468551
7.9529223 -2.2539709 -0.38609806
7.9082508 -2.2938197 -0.38446233
7.9888091 -2.3704388 -0.38952282
7.9788923 -2.4208629 -0.38977838
7.9905953 -2.4780617 -0.39120963
8.1589756 -2.5852914 -0.40107501
7.9111271 -2.5602427 -0.38860273
26.559189 -8.7785273 -1.3947163
26.513342 -8.9441996 -1.3951763
26.371086 -9.076808 -1.3904736
26.632448 -9.349946 -1.4076997
26.656378 -9.5424709 -1.4121467
18.861225 -6.8824458 -0.99064535
25.820259 -9.6021862 -1.372992
18.222483 -6.9038849 -0.96038473
25.597994 -9.8787613 -1.3673693
18.49052 -7.2661686 -0.97985989
18.789587 -7.5171337 -0.99882388
25.24996 -10.282341 -1.3584239
18.284447 -7.5766106 -0.97602618
25.108995 -10.58599 -1.3577083
24.986662 -10.71545 -1.3545392
24.817919 -10.823844 -1.3488141
24.636007 -10.924904 -1.3423736
24.538465 -11.062316 -1.3406868
24.459232 -11.20768 -1.3400733
24.387285 -11.356283 -1.33992
24.272011 -11.484348 -1.3373642
24.165083 -11.615754 -1.3353196
24.072714 -11.753731 -1.3341439
23.984037 -11.893229 -1.3332238
23.828548 -11.998843 -1.3285211
23.714462 -12.124367 -1.326221
23.628099 -12.263666 -1.3255565
23.543571 -12.403759 -1.3250453
23.452049 -12.53998 -1.3241763
23.380808 -12.686977 -1.3245342
12.881543 -7.0918899 -0.71564204
23.305313 -13.018726 -1.329339
23.311878 -13.210723 -1.3344506
12.511589 -7.1914129 -0.70163625
12.594914 -7.3424988 -0.7092014
12.603782 -7.4516664 -0.71242172
22.775087 -13.655582 -1.3221828
12.413256 -7.5461059 -0.70654339
22.094864 -13.619073 -1.2914622
21.980394 -13.735334 -1.2896221
21.818087 -13.820774 -1.2849194
21.690016 -13.926866 -1.2823124
21.592436 -14.052064 -1.2815968
21.499138 -14.179889 -1.2811879
21.449089 -14.336514 -1.2834882
21.45746 -14.533383 -1.2894686
21.39423 -14.682856 -1.2911043
21.291437 -14.805299 -1.2903377
21.196926 -14.933361 -1.2901331
21.101646 -15.060821 -1.2899287
20.928719 -15.132081 -1.2848682
20.593773 -15.083168 -1.2695335
20.439882 -15.16402 -1.2656487
19.029135 -14.29917 -1.1813076
18.948191 -14.421105 -1.1817676
19.944532 -15.373662 -1.2518985
19.545181 -15.257907 -1.2321167
19.180918 -15.163853 -1.2144817
19.031382 -15.236318 -1.2108014
18.932104 -15.348402 -1.2104435
18.781225 -15.418017 -1.2067121
18.622526 -15.479976 -1.2024695
18.424047 -15.507127 -1.1955688
18.274586 -15.573888 -1.1919396
18.105341 -15.622436 -1.1869813
17.888811 -15.628098 -1.1788028
17.693842 -15.650224 -1.1720555
17.482912 -15.65589 -1.1641837
17.304398 -15.688408 -1.1585099
17.134237 -15.726754 -1.1533983
16.861111 -15.667747 -1.1410793
16.782114 -15.787334 -1.1423061
16.833178 -16.03121 -1.1527848
16.734495 -16.134195 -1.1527848
16.256414 -15.866842 -1.1256934
16.062851 -15.871524 -1.1187928
15.927037 -15.931643 -1.1160326
15.494273 -15.690095 -1.0916502
15.311938 -15.696934 -1.085363
15.124562 -15.696376 -1.0786668
14.967379 -15.725221 -1.0741687
14.747481 -15.685786 -1.0649678
14.58368 -15.703529 -1.0599073
14.455322 -15.758126 -1.0575049
6.8838983 -7.5964727 -0.48771638
14.432681 -16.126335 -1.0706928
6.7412157 -7.6250033 -0.48393381
6.68051 -7.6504245 -0.48286039
6.6230073 -7.6791697 -0.48204252
14.845208 -17.429893 -1.1348432
14.928262 -17.746885 -1.1499735
6.5564752 -7.8911948 -0.48812529
6.5091991 -7.9328203 -0.48822755
14.182896 -17.50495 -1.1161348
14.085202 -17.604122 -1.1169527
14.00416 -17.724697 -1.1192018
2.0022061 -2.5647333 -0.12954754
1.9937445 -2.5864646 -0.13016093
1.9687684 -2.5867255 -0.12939419
1.9450636 -2.5883751 -0.12872969
1.9297398 -2.6010633 -0.1287808
1.9349775 -2.6418676 -0.13062097
1.9292586 -2.668262 -0.13154106
1.8983527 -2.6597223 -0.13026316
13.029214 -18.505754 -1.1213998
12.968417 -18.661625 -1.1261535
10.04646 -14.647444 -0.87210768
12.841431 -18.971544 -1.1355588
12.710361 -19.028387 -1.1342298
12.565337 -19.06349 -1.1316229
12.442684 -19.131859 -1.1311117
12.27059 -19.12295 -1.125949
12.227267 -19.315176 -1.1330541
11.936086 -19.113678 -1.1163903
11.807059 -19.167849 -1.1152658
11.737966 -19.320168 -1.1200707
11.563252 -19.298445 -1.1144991
11.477133 -19.424063 -1.1177704
11.365777 -19.507927 -1.1185883
11.277201 -19.631857 -1.1218086
11.477368 -20.267302 -1.1551362
11.094821 -19.875158 -1.1280447
10.894677 -19.801107 -1.119764
10.765835 -19.854414 -1.1189972
10.672985 -19.97471 -1.1221664
10.470674 -19.888704 -1.1134256
10.387062 -20.027048 -1.1177194
10.258985 -20.080624 -1.1171571
10.07319 -20.019184 -1.110052
9.9949446 -20.171 -1.1152147
9.8184452 -20.124237 -1.1090808
9.7107773 -20.217411 -1.110972
9.5856895 -20.274809 -1.1108699
6.9065189 -14.842334 -0.80090326
9.3253565 -20.367304 -1.1095408
8.8893328 -19.73391 -1.0707951
9.1281137 -20.600737 -1.1162882
8.3441153 -19.147516 -1.0320492
8.2355165 -19.219467 -1.0332248
8.106967 -19.244787 -1.0318447
8.3180161 -20.089577 -1.0759066
7.9815874 -19.616646 -1.046975
7.865149 -19.675451 -1.0475373
7.8541255 -20.003157 -1.0629232
7.7610574 -20.128315 -1.0671657
7.700686 -20.342749 -1.0763155
7.5656347 -20.362467 -1.0748332
7.3878779 -20.264008 -1.0669613
7.3235927 -20.477285 -1.0761111
7.1525316 -20.392725 -1.0691081
7.0659089 -20.548615 -1.075191
6.9180069 -20.527227 -1.0717151
6.7668772 -20.493422 -1.0676259
6.6520658 -20.568766 -1.069466
6.5402012 -20.654896 -1.0719196
6.4038839 -20.664112 -1.0702839
6.2798676 -20.712574 -1.0707951
5.6570616 -19.078911 -0.9815467
6.0769219 -20.966494 -1.0803026
5.9873385 -21.141758 -1.0876633
5.556458 -20.089434 -1.0298512
4.002677 -14.823997 -0.74891841
3.918256 -14.873387 -0.75024742
5.2416286 -20.405951 -1.0413523
5.1010456 -20.376692 -1.038132
5.0057225 -20.529863 -1.0445726
4.8914185 -20.609749 -1.0471795
4.7722793 -20.671488 -1.0488663
4.6291733 -20.628269 -1.0450838
0.52784395 -2.4167683 -0.089626051
0.51548481 -2.4316866 -0.090239443
0.49915001 -2.4279554 -0.089881629
0.47528937 -2.3859136 -0.0875303
0.45913172 -2.3809392 -0.087121375
0.44341826 -2.3778205 -0.086814679
0.42987934 -2.3863943 -0.087121375
0.4305777 -2.4775491 -0.091721803
0.46883148 -2.8002861 -0.10833446
0.45607719 -2.8307192 -0.1097657
0.44205254 -2.8551781 -0.11089025
0.42335442 -2.8499336 -0.11048132
0.40389565 -2.8386345 -0.1097657
0.38647053 -2.8410592 -0.1097657
0.36749321 -2.8314919 -0.10915231
0.34669501 -2.8059397 -0.10772107
0.34675136 -2.9558127 -0.11533733
0.32948735 -2.9658258 -0.11574626
0.20396383 -1.9407351 -0.062892459
0.19341958 -1.9558647 -0.06360808
0.18040745 -1.9460753 -0.0630458
0.16829218 -1.9451556 -0.06294357
0.15675068 -1.9511293 -0.063199148
0.14470255 -1.9510584 -0.063148037
0.1323254 -1.945931 -0.062841341
0.1202608 -1.9447125 -0.062739111
0.10744718 -1.929459 -0.061921254
0.094093174 -1.8991594 -0.060336664
0.083377481 -1.9216522 -0.06146121
0.071913943 -1.9311098 -0.061921254
0.059393868 -1.9095536 -0.060796704
0.047603011 -1.9068871 -0.060643356
0.036556393 -1.9430902 -0.06248353
0.024223108 -1.9093248 -0.060745589
0.012412347 -1.8934587 -0.059927735
0.00079857901 -1.8705293 -0.058752071
-0.010489069 -1.8405387 -0.057218596
-0.021769755 -1.8394412 -0.057167478
-0.033891987 -1.8842064 -0.059467692
-0.045551442 -1.8879565 -0.059672158
-0.057011545 -1.8836486 -0.059467692
-0.068827003 -1.8902494 -0.059825502
-0.080036364 -1.8808116 -0.059365463
-0.091230899 -1.8733027 -0.059007652
-0.10322142 -1.8816822 -0.059467692
-0.18259093 -2.981482 -0.11589961
-0.20047621 -2.9743271 -0.11559291
-0.279127 -3.7897382 -0.15750791
-1.6692982 -20.845873 -1.0333782
-0.29486668 -3.4298198 -0.13920844
-0.26770645 -2.9068556 -0.11242373
-0.2846548 -2.8962133 -0.11196368
-0.35669833 -3.4118924 -0.13859504
-0.38523543 -3.478128 -0.14212205
-0.44997236 -3.845674 -0.16118826
-0.47356048 -3.8428407 -0.16118826
-0.32503638 -2.5137329 -0.092744119
-0.34112722 -2.516639 -0.092999697
-0.5423857 -3.8206193 -0.16052376
-0.45033979 -3.0397778 -0.12029557
-0.46867746 -3.0349834 -0.12019334
-0.49126205 -3.0567 -0.12147123
-0.61224073 -3.6643198 -0.15316306
-0.54770887 -3.1596603 -0.1271451
-3.6047041 -20.027525 -1.0045489
-3.9310117 -21.096775 -1.0613897
-4.0639763 -21.090889 -1.0623609
-0.52191627 -2.6271305 -0.1001048
-0.53541279 -2.6111612 -0.099440299
-0.90193045 -4.2618842 -0.18597946
-0.89611036 -4.1099133 -0.17831208
-0.94671619 -4.2173662 -0.1842415
-4.8368444 -20.924095 -1.0622076
-4.0450492 -17.023079 -0.85856193
-0.68067253 -2.792454 -0.11012352
-0.69827962 -2.7901623 -0.11022574
-0.72683102 -2.8303168 -0.11257707
-0.74341965 -2.8229067 -0.11242373
-0.61424565 -2.2764785 -0.083696611
-0.60927701 -2.2043319 -0.080067389
-0.62333596 -2.2024734 -0.080169618
-0.74288738 -2.5640321 -0.099644758
-0.76770115 -2.5900621 -0.10128047
-0.67363387 -2.2231183 -0.081907555
-0.77604729 -2.5050933 -0.097242318
-0.78687668 -2.4860044 -0.096475579
-0.84518439 -2.6141479 -0.10363179
-0.8756277 -2.6525309 -0.10598312
-0.72522777 -2.1531479 -0.079300649
-0.63797885 -1.8568666 -0.063505843
-0.65465409 -1.8679937 -0.064323701
-1.1986587 -3.3514128 -0.14518899
-1.521879 -4.1733317 -0.19037542
-0.77631176 -2.0905747 -0.07715378
-0.77284598 -2.0428128 -0.074802451
-7.878624 -20.415865 -1.0830628
-1.197879 -3.0509541 -0.13077432
-1.2106404 -3.0287111 -0.12995647
-1.3482375 -3.3135021 -0.14610907
-1.3742789 -3.319006 -0.14687581
-1.1947887 -2.836591 -0.12055115
-1.7558118 -4.0967369 -0.19114216
-1.2798176 -2.9370563 -0.12699175
-1.3119861 -2.9611008 -0.1287808
-1.7808428 -3.952651 -0.18490602
-1.7601274 -3.8435967 -0.1793855
-0.86368936 -1.8572992 -0.067850694
-0.8618269 -1.8239802 -0.066266105
-0.86737728 -1.8069568 -0.065601595
-0.88370687 -1.8123696 -0.066214986
-0.90412873 -1.825702 -0.067288421
-0.92564559 -1.8406353 -0.068464085
-0.93055683 -1.8224722 -0.067748465
-0.94126165 -1.8158418 -0.067697346
-0.95098913 -1.8073814 -0.067543998
-0.96347398 -1.8041543 -0.067697346
-0.97738397 -1.8034751 -0.068004042
-0.98602289 -1.79307 -0.067748465
-0.9931097 -1.7800112 -0.067339532
-1.4713237 -2.5984254 -0.11584849
-1.4588681 -2.5399973 -0.11293489
-1.4749289 -2.5318608 -0.112986
-1.4721364 -2.491816 -0.11114583
-1.4976701 -2.4998662 -0.11216815
-1.0963485 -1.8053986 -0.07112211
-1.1184111 -1.8164904 -0.072195545
-0 -0 -0
-2.5815327 -4.0770936 -0.2100039
-5.1891713 -8.083087 -0.45464441
-1.6807356 -2.5845041 -0.12080672
-5.3440628 -8.1038332 -0.45985824
-1.3943058 -2.0879374 -0.091517337
-1.413252 -2.088438 -0.09207961
-1.3661335 -1.9924468 -0.086661331
-1.3435513 -1.9340119 -0.083543263
-1.3502159 -1.9183841 -0.08308322
-1.3538384 -1.8986832 -0.082367599
-1.3806781 -1.9113817 -0.083696611
-1.364053 -1.8642015 -0.081243053
-1.3736807 -1.8533907 -0.081089705
-1.4312261 -1.9064019 -0.085025623
-1.7465441 -2.2965124 -0.11068579
-1.4532933 -1.8871131 -0.084923394
-1.4513242 -1.860842 -0.083798841
-1.5921695 -2.0156343 -0.094482057
-1.6388381 -2.0487049 -0.097293429
-1.6746496 -2.0673132 -0.099184714
-1.6873029 -2.0569987 -0.099184714
-1.6769089 -2.01896 -0.097344548
-2.5124843 -2.9866047 -0.16277285
-2.5042021 -2.9399691 -0.16067711
-2.5352437 -2.9396698 -0.16169941
-2.4651828 -2.8232808 -0.15484989
-2.1344073 -2.4146392 -0.12796295
-2.173835 -2.4290237 -0.12985423
-2.0572164 -2.2706287 -0.11983553
-2.1744392 -2.3705285 -0.12765625
-2.1087205 -2.2708173 -0.12162458
-2.1814668 -2.3203902 -0.12602055
-2.9932718 -3.1443863 -0.18521272
-2.4593313 -2.5522585 -0.14442225
-2.4679692 -2.5299737 -0.14391109
-2.5220551 -2.553853 -0.14672247
-3.2553 -3.2556703 -0.19865619
-2.5979753 -2.5669181 -0.14994277
-2.6415589 -2.5781245 -0.15193629
-2.740036 -2.6415539 -0.15781461
-2.6498477 -2.5234826 -0.15030058
-3.1295199 -2.9435966 -0.1829125
-3.1606956 -2.9365711 -0.18383259
-2.8217015 -2.589716 -0.15904139
-3.2142565 -2.9136562 -0.18505937
-3.2945881 -2.9498215 -0.18935309
-2.804539 -2.4804583 -0.15464543
-2.8309908 -2.4730551 -0.15541217
-3.6455708 -3.1449821 -0.20944163
-3.6556754 -3.114784 -0.20882824
-3.3078578 -2.7837315 -0.18429263
-4.2467442 -3.5291481 -0.24563166
-3.370338 -2.7663655 -0.18618391
-3.4850242 -2.8248451 -0.19262451
-3.4032519 -2.724174 -0.1861328
-3.5719316 -2.8233449 -0.19604927
-11.073771 -8.6400366 -0.68190551
-3.0184548 -2.326493 -0.15807019
-3.023134 -2.3006737 -0.1574568
-3.0371938 -2.2820807 -0.1574568
-3.0439188 -2.258049 -0.15699676
-3.0536871 -2.2363801 -0.15674117
-3.0398283 -2.1977153 -0.15500323
-3.0687046 -2.1900399 -0.15597443
-3.0633023 -2.1579468 -0.15479878
-3.0822265 -2.1430993 -0.15515658
-4.2903943 -2.9437158 -0.2293257
-4.563941 -3.0903029 -0.2451205
-4.6243415 -3.0899749 -0.2476763
-4.6373768 -3.0576954 -0.24731848
-4.5765138 -2.9774609 -0.24246247
-5.7605548 -3.6973333 -0.31336018
-5.7012792 -3.6101067 -0.30840194
-5.7173929 -3.5713539 -0.30804414
-23.75206 -14.630525 -1.3908315
-23.836262 -14.481399 -1.3905247
-3.7971687 -2.2762811 -0.18960868
-3.823962 -2.2605593 -0.19037542
-3.9266434 -2.2888324 -0.19564034
-3.9440775 -2.2666855 -0.19584481
-3.8605783 -2.1873293 -0.19011983
-3.8634622 -2.157759 -0.18950644
-3.858254 -2.1239038 -0.18843301
-3.8870165 -2.108758 -0.18935309
-3.9130952 -2.0919271 -0.19011983
-3.9709277 -2.0916023 -0.19272675
-4.0235825 -2.087887 -0.19502696
-4.0425434 -2.0663397 -0.19538477
-4.3593674 -2.1945536 -0.21281527
-4.3575377 -2.1602263 -0.21194631
-7.6145854 -3.7158983 -0.39667904
-4.3864198 -2.107887 -0.21209966
-4.4417071 -2.1009934 -0.2145021
-5.7475591 -2.6752748 -0.28749555
-5.7384405 -2.6283183 -0.2860643
-26.533321 -11.951754 -1.4524771
-26.619852 -11.794791 -1.4532439
-5.8709941 -2.5593467 -0.2908181
-5.843442 -2.5047898 -0.28841564
-5.8034778 -2.4456286 -0.28534868
-5.8248339 -2.4126472 -0.28570649
-5.8367529 -2.3757322 -0.28555316
-9.5755186 -3.828403 -0.49083444
-9.6044064 -3.7717664 -0.49114114
-23.287266 -8.9788866 -1.2404486
-23.305492 -8.8220425 -1.2384551
-28.364014 -10.538105 -1.5117204
-28.427202 -10.363526 -1.5116693
-28.504362 -10.193949 -1.512436
-28.549412 -10.012909 -1.511516
-28.616922 -9.839818 -1.5118737
-11.526874 -3.8852818 -0.58560324
-7.8291774 -2.5859337 -0.38502461
-7.8220911 -2.5304718 -0.38379782
-28.771711 -9.1098423 -1.5076823
-28.818481 -8.9304714 -1.5072222
-28.853621 -8.7476816 -1.5062
-28.956541 -8.5852346 -1.508858
-29.428818 -8.5291491 -1.5312467
-9.7366333 -2.7580647 -0.48096907
-9.6792555 -2.6777744 -0.47703317
-12.921662 -3.4891763 -0.64806682
-9.6804829 -2.5506546 -0.47539747
-9.6901474 -2.4897177 -0.47509077
-17.949821 -4.4936528 -0.91008675
-13.079081 -3.1894608 -0.65205389
-13.326757 -3.1633317 -0.66406608
-13.151295 -3.036581 -0.65384293
-11.486771 -2.5782664 -0.56556582
-11.49847 -2.5068858 -0.56536138
-11.484324 -2.4300857 -0.56382787
-17.797499 -3.651356 -0.89291179
-17.816629 -3.5414999 -0.89275849
-17.825274 -3.4296603 -0.89209396
-19.79104 -3.681968 -0.9933545
-19.812277 -3.5602865 -0.99330336
-17.971977 -3.1159823 -0.89659214
-32.255283 -5.3878336 -1.6368009
-32.322247 -5.1953635 -1.63859
-20.16412 -3.1147552 -1.0073091
-25.89496 -3.837137 -1.302861
-32.021828 -4.544126 -1.6183993
-31.995667 -4.3403106 -1.615639
-32.015751 -4.1431384 -1.6153322
-18.257851 -2.2494264 -0.90456623
-24.030493 -2.8106883 -1.201345
-32.063759 -3.5506041 -1.6141566
-32.732563 -3.421469 -1.6474842
-33.210136 -3.2655005 -1.6709975
-33.697948 -3.1048059 -1.695073
-33.99995 -2.9223454 -1.7096411
-0 -0 -0
-0 -0 -0
-38.19812 -2.5757444 -1.9225386
-38.60994 -2.3656125 -1.9428828
-0 -0 -0
-38.06749 -1.8638105 -1.9137467
-38.066235 -1.6296855 -1.9131333
-0 -0 -0
-0 -0 -0
-0 -0 -0
-37.974941 -0.69282013 -1.9069993
-0 -0 -0
-0 -0 -0
-0 0 -0
-38.039429 0.23971337 -1.9100152
-0 0 -0
-0 0 -0
-0 0 -0
-0 0 -0
-0 0 -0
-0 0 -0
-0 0 -0
-37.812328 2.0965266 -1.9013256
-0 0 -0
-0 0 -0
-30.965532 -0.7834205 -1.9170604
-0 -0 -0
-0 -0 -0
-30.897861 -0.21278335 -1.9122121
-30.766848 -0.023093037 -1.9039007
-30.723495 0.16545868 -1.9011933
-30.725893 0.35401732 -1.9014452
-30.723143 0.54254121 -1.9014452
-30.705267 0.73071241 -1.9005636
-30.677261 0.91841602 -1.8991154
-0 0 -0
-30.631773 1.2934572 -1.8971006
-30.588371 1.4796985 -1.8948969
-30.523907 1.6643695 -1.8914337
-30.508139 1.8513272 -1.8911189
-30.45936 2.0360243 -1.8887893
-30.398516 2.2193935 -1.885767
-30.33856 2.4022503 -1.8828706
-30.279495 2.584625 -1.8801001
-0 0 -0
-30.136238 2.9453292 -1.873174
-30.105686 3.1289485 -1.8724184
-30.093857 3.3144884 -1.8729222
-30.089806 3.501039 -1.8739926
-30.060822 3.6847508 -1.8735517
-30.050516 3.8707886 -1.8743703
-30.032133 4.0559034 -1.8747481
-29.984941 4.2370291 -1.8733629
-29.938631 4.4180198 -1.8721036
-29.905041 4.6007261 -1.8717258
-29.856539 4.7809777 -1.8704665
-29.870943 4.9714565 -1.8733
-29.809389 5.1493816 -1.871348
-29.88726 5.3518929 -1.8784001
-29.775356 5.5206227 -1.8733629
-0 0 -0
-30.40926 6.0250506 -1.9186345
-30.210384 6.1785316 -1.9082453
-30.123077 6.3534851 -1.9050971
-30.120586 6.5462508 -1.9074898
-30.181141 6.7536082 -1.9140381
-30.184845 6.949192 -1.9169974
-30.242641 7.1581769 -1.9235457
-30.535625 7.4256706 -1.9454575
-0 0 -0
-30.554348 7.8285632 -1.9527614
-30.655352 8.0552053 -1.962521
-30.667988 8.2600212 -1.9666137
-30.720633 8.4767103 -1.9734138
-30.73143 8.6829576 -1.9775695
-30.780157 8.9010229 -1.9843067
-30.791954 9.1095362 -1.9887142
-30.873037 9.3399143 -1.9977812
-0 0 -0
-30.902651 9.7643747 -2.0074778
-31.111893 10.040856 -2.0253596
-30.899933 10.182217 -2.0154114
-31.100794 10.460386 -2.0329785
-0 0 -0
-31.274345 10.947757 -2.0533161
-31.243238 11.152531 -2.0557716
-31.237995 11.367231 -2.0600533
-31.196667 11.569448 -2.062005
-31.290337 11.823086 -2.0731499
-31.204163 12.009838 -2.0722685
-31.05555 12.171943 -2.0672312
-30.971935 12.358938 -2.0666645
-30.857609 12.533348 -2.0640831
-30.757988 12.713302 -2.0625718
-30.510126 12.830606 -2.0509863
-30.330807 12.974787 -2.0441232
-30.178326 13.129196 -2.039149
-29.965769 13.255981 -2.030082
-0 0 -0
-29.642906 13.550515 -2.0191262
-29.472311 13.69178 -2.0130816
-29.327276 13.843818 -2.008863
-29.191387 13.999339 -2.005337
-29.060974 14.156775 -2.0022516
-28.949411 14.322874 -2.0005517
-28.844931 14.49217 -1.9994183
-28.663006 14.621722 -1.9928699
-28.443359 14.730313 -1.983677
-0 0 -0
-28.06938 14.976304 -1.9700137
-27.848824 15.078876 -1.9608209
-27.726038 15.23313 -1.95868
-27.578871 15.373326 -1.9548392
-27.461437 15.529485 -1.9532021
-27.314556 15.668394 -1.9494872
-27.18771 15.818132 -1.9472835
-27.049742 15.960818 -1.9443241
-26.936739 16.117781 -1.9432538
-26.790405 16.254286 -1.9397906
-26.669765 16.405813 -1.9382795
-26.558437 16.562811 -1.937524
-26.431002 16.709459 -1.935635
-26.294365 16.849783 -1.9331164
-26.135241 16.974928 -1.9289607
-25.968904 17.094366 -1.9243014
-25.890095 17.271109 -1.9263163
-25.697643 17.371515 -1.9197679
-25.647385 17.56778 -1.9241124
-25.534187 17.721405 -1.9237347
-25.410275 17.867413 -1.9226013
-25.266024 17.998671 -1.9199568
-25.108982 18.120073 -1.9163678
-24.948984 18.238459 -1.9125899
-24.797304 18.362099 -1.9095047
-24.632273 18.474983 -1.905412
-24.481096 18.597403 -1.9024526
-24.344378 18.730225 -1.9006896
-24.17782 18.839376 -1.8965969
-24.02573 18.958935 -1.8937005
-23.836439 19.048056 -1.8878448
-23.695063 19.174494 -1.8858929
-23.542997 19.291691 -1.8831224
-23.392693 19.409657 -1.8805408
-23.263224 19.544479 -1.8797224
-23.118536 19.666161 -1.8777075
-22.955841 19.77182 -1.8742445
-22.779934 19.865076 -1.8697109
-22.61871 19.970129 -1.8664367
-22.428782 20.048679 -1.86077
-22.309784 20.189941 -1.8611478
-22.170763 20.312967 -1.8598884
-22.045708 20.448622 -1.8598884
-0 0 -0
-21.816982 20.740309 -1.8619663
-21.691467 20.87586 -1.8621552
-21.567257 21.012743 -1.862533
-0 0 -0
-21.280937 21.249027 -1.8601403
-0 0 -0
-21.005323 21.495016 -1.8589439
-20.841846 21.591185 -1.8561106
-20.750296 21.761999 -1.8598884
-20.589689 21.860577 -1.8574328
-20.450409 21.981388 -1.856992
-20.304344 22.094698 -1.8559846
-20.17577 22.226995 -1.8566773
-19.979712 22.284239 -1.8510734
-19.84194 22.405666 -1.8510104
-0 0 -0
-19.549835 22.629345 -1.8494992
-0 0 -0
-19.319546 22.925549 -1.8542845
-19.210434 23.082014 -1.8574328
-19.057037 23.185574 -1.8562994
-18.935171 23.327641 -1.8583773
-18.7742 23.421581 -1.8566142
-18.631994 23.538683 -1.8568032
-18.453409 23.609318 -1.8533401
-18.292953 23.702349 -1.851766
-18.099991 23.75223 -1.8468547
-17.964708 23.877197 -1.8479881
-17.798819 23.96134 -1.8459733
-17.636114 24.049175 -1.8443362
-17.489391 24.158554 -1.844462
-17.32806 24.247547 -1.8430768
-17.143286 24.302853 -1.8391731
-16.974455 24.379736 -1.8370322
-16.787239 24.429144 -1.8328766
-16.73842 24.68119 -1.8442732
-16.420689 24.53544 -1.8254467
-16.217583 24.55662 -1.819465
-16.056793 24.640615 -1.8183317
-0 0 -0
-15.744653 24.822319 -1.8173243
-11.407684 18.231409 -1.3196512
-11.364273 18.412317 -1.3278996
-11.454003 18.815014 -1.3525188
-11.449307 19.069757 -1.3661193
-11.423608 19.29423 -1.3774529
-14.89381 25.510849 -1.8265171
-14.72704 25.584457 -1.8252579
-9.6109467 16.936337 -1.1913922
-14.37153 25.690962 -1.8200318
-14.155313 25.672911 -1.8124131
-0 0 -0
-11.19473 20.906301 -1.4589921
-10.928386 20.713322 -1.4403546
-10.943318 21.053616 -1.4598107
-10.801648 21.09638 -1.4581107
-10.953773 21.720985 -1.4975895
-0 0 -0
-10.711828 21.905771 -1.5012414
-10.555136 21.925224 -1.4980303
-10.413141 21.974245 -1.4969599
-9.3086939 19.959242 -1.352267
-0 0 -0
-9.967063 22.073963 -1.4908522
-9.8257599 22.121937 -1.4899708
-9.6914358 22.185467 -1.4902227
-0 0 -0
-0 0 -0
-9.971693 24.022942 -1.603811
-10.026156 24.578983 -1.63756
-9.9731741 24.884605 -1.6541828
-9.930707 25.22578 -1.6731981
-10.243237 26.495436 -1.7549893
-10.11518 26.649227 -1.7611598
-10.235454 27.47299 -1.812476
-10.075942 27.560585 -1.8141761
-9.9268599 27.678255 -1.8179539
-9.9058685 28.162306 -1.8462881
-9.7153111 28.17161 -1.842888
-0 0 -0
-9.3622808 28.268814 -1.8415657
-9.1868029 28.320032 -1.841188
-0 0 -0
-8.8216915 28.376314 -1.8375989
-8.6177874 28.332516 -1.8311765
-8.3592615 28.100756 -1.812476
-8.0863495 27.806526 -1.7898088
-7.5077238 26.420412 -1.6956764
-7.3313231 26.415014 -1.6923393
-7.176414 26.486473 -1.6941024
-6.851264 25.91539 -1.6539938
-6.687387 25.938578 -1.6527975
-6.4475937 25.658741 -1.6319562
-6.2501678 25.534962 -1.6213782
-6.0619082 25.440798 -1.6128149
-5.9099746 25.495987 -1.6140113
-5.7560558 25.543453 -1.6147668
-5.6068993 25.613388 -1.6170336
-5.4531593 25.663904 -1.618104
-5.3030396 25.733047 -1.6204337
-5.1481724 25.780762 -1.6214411
-2.8577204 14.783416 -0.91277331
-2.725136 14.577002 -0.89841735
-2.6051288 14.424522 -0.88758743
-2.5114312 14.41074 -0.8856985
-2.4069235 14.330409 -0.87959093
-2.30955 14.286779 -0.87587601
-2.2157147 14.261235 -0.87335742
-2.1264014 14.262716 -0.87260181
-2.0264273 14.188553 -0.86706096
-1.9097497 13.984165 -0.85327166
-1.8276495 14.02432 -0.85509765
-1.773155 14.289806 -0.8712796
-1.68918 14.332134 -0.87329447
-1.6013187 14.343221 -0.87335742
-1.5129662 14.349799 -0.87316853
-1.4266634 14.376689 -0.87430185
-1.3408275 14.411009 -0.87593895
-1.2619668 14.529328 -0.88292807
-1.1796972 14.62235 -0.88834304
-1.0954431 14.702962 -0.89300239
-1.0122181 14.811962 -0.89948773
-1.5766001 25.352549 -1.5654025
-1.128318 20.139339 -1.2354045
-0.71911639 14.4214 -0.87379819
-0.63065845 14.426538 -0.87386113
-0.56676167 15.08537 -0.91522896
-0.45809323 14.576835 -0.88292807
-0.36929944 14.60531 -0.88456511
-0.27942726 14.59433 -0.88374656
-0.1883378 14.478014 -0.87631673
-0.099161424 14.429996 -0.87323147
-0.010615725 14.42634 -0.87297964
0.078117304 14.466054 -0.87549824
0.16698124 14.474283 -0.8760649
0.25552651 14.458018 -0.8751204
0.34729567 14.584887 -0.88324285
0.43660122 14.576495 -0.88286507
0.52650034 14.586508 -0.88368362
0.61898005 14.653799 -0.88815409
0.71770471 14.832149 -0.89967668
0.81386042 14.922136 -0.9056583
1.5103941 24.888664 -1.535935
1.6627469 24.873949 -1.5356202
1.813886 24.84337 -1.5343609
1.9635313 24.796951 -1.5321572
2.1142027 24.767532 -1.5310867
2.2679529 24.773972 -1.532346
2.4209883 24.770515 -1.5330386
2.5733442 24.759165 -1.5332905
2.7265263 24.754812 -1.5340461
2.8787136 24.740591 -1.534235
3.0297363 24.716518 -1.5338572
3.181082 24.695482 -1.5337312
3.3308146 24.662642 -1.5329127
2.24682 15.89913 -0.97586393
2.3417106 15.867272 -0.97473061
3.7887611 24.626747 -1.5348016
2.3369608 14.592701 -0.89520615
4.0933051 24.594151 -1.535809
4.2461734 24.580372 -1.5365647
4.398675 24.563679 -1.5371944
4.5516772 24.548985 -1.5380129
4.7016573 24.517653 -1.5378239
4.8545275 24.50107 -1.5386425
5.0057716 24.47571 -1.5389574
5.159565 24.462112 -1.5400907
5.3125315 24.443647 -1.5409722
5.4626331 24.411564 -1.5410352
5.6129885 24.380503 -1.541224
5.7629385 24.347546 -1.54135
5.9122238 24.311728 -1.54135
6.0612864 24.274994 -1.54135
6.2103686 24.238312 -1.5414129
6.3559313 24.188166 -1.5406574
4.3015041 15.969982 -1.0062759
4.4041915 15.960605 -1.0074092
6.7970948 24.056511 -1.5399648
5.9246273 20.48716 -1.3083177
4.3322959 14.643238 -0.92624778
7.2722669 24.038134 -1.5472686
7.424932 24.010221 -1.5484021
7.5712142 23.961357 -1.5482131
7.7272911 23.942944 -1.5501021
7.8887367 23.939629 -1.5530614
8.0523405 23.94091 -1.5563985
8.2172289 23.943913 -1.5599246
8.3850937 23.953329 -1.5639544
8.5513697 23.955944 -1.5676062
8.7087793 23.932096 -1.5695581
8.8689928 23.914703 -1.5720139
9.0240297 23.88224 -1.573525
9.1904736 23.87858 -1.5770509
9.3579388 23.875633 -1.5807029
9.5301514 23.88265 -1.5851104
9.7110643 23.908792 -1.5909032
9.879694 23.902252 -1.5945551
10.043965 23.883501 -1.5974516
6.3123269 14.755633 -0.97536021
6.3888125 14.684593 -0.97315645
10.553747 23.85704 -1.6086593
10.71344 23.821871 -1.6107371
10.876833 23.793808 -1.6133816
11.047011 23.779119 -1.6170336
11.224661 23.778578 -1.621756
11.399266 23.769548 -1.6259745
11.565003 23.740429 -1.628871
8.263813 16.702448 -1.1385018
11.955377 23.795591 -1.642912
12.115671 23.750235 -1.6449269
12.285496 23.722418 -1.6482641
8.3777361 15.936306 -1.0987082
12.644271 23.698427 -1.6574569
12.826982 23.68973 -1.6624311
9.0204601 16.417931 -1.1446723
9.129775 16.377964 -1.1458057
8.368432 14.797873 -1.0353656
9.291338 16.197168 -1.1408944
9.337347 16.048414 -1.1342202
9.4265137 15.975347 -1.1330868
9.5279465 15.923201 -1.1335276
14.40619 23.744274 -1.7150066
14.577233 23.697086 -1.718092
9.9292717 15.921268 -1.1466242
14.980526 23.6961 -1.7315034
15.141256 23.628105 -1.7333294
15.302258 23.559864 -1.7352183
10.167206 15.445216 -1.1294348
10.299445 15.438997 -1.1337165
15.931183 23.566906 -1.7575078
16.109325 23.518112 -1.7612857
16.276657 23.452442 -1.7638673
10.554112 15.009325 -1.1204309
16.651821 23.375303 -1.7735009
16.732447 23.186096 -1.7667637
16.834938 23.029009 -1.762545
16.952168 22.893196 -1.7600265
17.109684 22.811903 -1.7618524
17.245712 22.701721 -1.7614746
17.397463 22.612087 -1.7627969
17.602741 22.590723 -1.76966
0 0 -0
0 0 -0
11.944787 14.760644 -1.1607913
12.023113 14.672407 -1.159595
12.094434 14.576085 -1.157769
17.443953 20.762959 -1.6737018
17.568436 20.652493 -1.67345
17.722181 20.576067 -1.6760944
17.97994 20.61813 -1.6887504
18.155653 20.56353 -1.6934727
18.399876 20.584188 -1.7046804
19.020712 21.017757 -1.7512114
19.150665 20.902124 -1.7513373
19.260233 20.764467 -1.7496372
19.382496 20.640806 -1.7491965
19.511532 20.524382 -1.7494483
15.669602 16.28166 -1.3884717
19.7675 20.289118 -1.7499521
19.906336 20.182367 -1.7512743
20.044607 20.074675 -1.7525966
20.195074 19.97868 -1.7550522
20.375097 19.910891 -1.7601523
16.311401 15.745166 -1.393131
16.463322 15.697816 -1.3979794
17.157238 16.159666 -1.4497993
20.864176 19.410982 -1.7607191
20.963779 19.265038 -1.759082
17.225653 15.635857 -1.4305321
21.184494 18.993671 -1.7578856
21.285696 18.850094 -1.7566264
21.400957 18.719133 -1.7566264
21.512392 18.584856 -1.7563745
21.613874 18.442144 -1.755367
21.683889 18.273161 -1.7518409
21.80941 18.151258 -1.7529744
21.934252 18.028505 -1.7541077
22.120398 17.955219 -1.7602782
21.849361 17.513912 -1.7294885
21.973629 17.393145 -1.7308737
0 0 -0
0 0 -0
21.832037 16.6367 -1.6945431
21.933708 16.502426 -1.6945431
22.004107 16.344919 -1.6921505
22.071793 16.185987 -1.6896318
22.156141 16.039719 -1.6884985
22.252518 15.902308 -1.6883726
22.367615 15.778127 -1.6897578
22.518063 15.678223 -1.6939135
22.651674 15.565761 -1.6968099
22.86735 15.508265 -1.7060027
23.068239 15.438715 -1.7140622
23.215 15.331531 -1.7180289
23.281044 15.170816 -1.7159511
23.755651 15.273263 -1.7446001
23.942467 15.186552 -1.7515892
24.142645 15.106591 -1.7595856
24.329151 15.016356 -1.7665747
24.256306 14.76663 -1.7544225
24.517584 14.720265 -1.7670155
24.814407 14.692095 -1.78219
25.085945 14.645734 -1.7954756
25.381195 14.610034 -1.8104612
25.732492 14.602783 -1.8294765
26.372948 14.753045 -1.8693331
26.940157 14.85406 -1.9037119
27.238621 14.801414 -1.9186345
27.642139 14.801726 -1.9410499
28.085516 14.81813 -1.9662359
28.263577 14.691091 -1.9724693
28.378948 14.530582 -1.9742953
28.520147 14.382694 -1.9780102
28.513113 14.160371 -1.971336
28.143116 13.76199 -1.9392869
28.239618 13.595109 -1.9401685
28.189028 13.358323 -1.9308497
28.208054 13.155999 -1.9265051
28.191191 12.938127 -1.9197679
28.212744 12.73903 -1.915801
28.241125 12.543802 -1.912401
28.242567 12.337521 -1.9072379
28.19211 12.110029 -1.8986118
28.232786 11.92284 -1.896345
28.189272 11.701172 -1.8884114
28.234663 11.51743 -1.8866484
28.130642 11.274166 -1.8748111
28.127785 11.073196 -1.8699628
28.222195 10.910836 -1.8717887
28.065609 10.652816 -1.8567402
28.03599 10.445215 -1.8503808
27.926146 10.209594 -1.8387322
27.91217 10.010758 -1.8336321
27.95989 9.8346672 -1.8327507
27.922529 9.6294088 -1.8262653
27.934761 9.4422379 -1.82318
27.9088 9.2430429 -1.8176391
27.869108 9.0405197 -1.8112797
27.792791 8.8276539 -1.8025906
27.782581 8.6371021 -1.7983719
27.802591 8.4565945 -1.7962312
0 0 -0
27.749027 8.0696278 -1.7860309
27.754818 7.8869343 -1.7831974
27.672865 7.6804519 -1.7746972
27.643372 7.4898896 -1.7697229
27.687843 7.3198771 -1.76966
27.674252 7.1348996 -1.7658821
27.687504 6.9574189 -1.7639302
27.725796 6.7864513 -1.7636783
27.760118 6.6145821 -1.7632376
27.82546 6.4499846 -1.7648747
27.865486 6.2793484 -1.7649376
27.926889 6.1133733 -1.7664489
27.981447 5.9456363 -1.7675822
28.069208 5.7845101 -1.7709193
28.110044 5.6133447 -1.7712971
28.196871 5.4509888 -1.7746972
28.260199 5.2835598 -1.7766491
28.323513 5.1157355 -1.778664
28.366169 4.9439058 -1.7794195
28.404827 4.7712493 -1.7799863
28.44145 4.5981455 -1.7804899
28.471102 4.423852 -1.7806159
28.495735 4.2487788 -1.7804899
28.529173 4.0749812 -1.7809937
28.57935 3.9033647 -1.7826308
28.622555 3.7305114 -1.78389
28.661743 3.5569062 -1.7849604
28.712763 3.3844795 -1.7868494
28.76572 3.2118928 -1.7889272
28.810692 3.0380507 -1.7905643
7.5756998 0.7515806 -0.44311956
7.544395 0.70175338 -0.44085285
7.5197248 0.65294343 -0.43902686
7.4519653 0.6010105 -0.43449339
7.4246602 0.55297524 -0.43254149
7.3771329 0.50393641 -0.42933029
7.3840704 0.45890951 -0.42958215
7.3777795 0.41309044 -0.42901546
7.3552556 0.36657017 -0.42744136
7.3414135 0.32073444 -0.42643392
7.3462353 0.27579483 -0.42662281
7.3437991 0.2305885 -0.42637095
7.3630342 0.18597803 -0.42750433
7.3750129 0.14100625 -0.42819694
7.3717475 0.095699325 -0.42794508
7.384172 0.050547965 -0.42870066
7.3743629 0.0052309642 -0.42807099
7.4371305 -0.040355157 -0.43203777
7.4986153 -0.086699851 -0.43594158
7.500936 -0.13276169 -0.43613049
7.5837898 -0.18077745 -0.44141951
7.6593504 -0.22960591 -0.44626781
7.6827316 -0.2774978 -0.44784191
25.104694 -1.060143 -1.5480872
25.047874 -1.2117521 -1.5449389
25.034985 -1.3651485 -1.5446242
20.33411 -1.2340697 -1.2480603
24.947638 -1.6676716 -1.5402796
24.968788 -1.8230411 -1.5422945
25.034733 -1.982356 -1.5472057
25.017126 -2.1355045 -1.5468909
25.064178 -2.2945156 -1.5507318
19.914347 -1.9464413 -1.2252042
19.897066 -2.0680809 -1.2248894
25.168484 -2.7720819 -1.5603024
10.583414 -1.231673 -0.63503599
10.59745 -1.2992594 -0.6364212
10.565523 -1.3612001 -0.63491005
10.545103 -1.4244006 -0.6341545
10.574704 -1.4945227 -0.63661009
10.573234 -1.5605452 -0.63711381
13.840322 -2.1294749 -0.8462826
13.871342 -2.2214582 -0.84911597
24.674877 -4.1067395 -1.5409722
14.424257 -2.4919078 -0.88632816
13.624747 -2.4399958 -0.83608228
24.421415 -4.5280266 -1.5298275
24.347105 -4.6689548 -1.5268681
24.275902 -4.8099179 -1.5241606
24.133488 -4.9357862 -1.5169197
24.026579 -5.067709 -1.5120084
23.931641 -5.2012615 -1.5079157
23.856422 -5.3384171 -1.5051453
23.792095 -5.4775319 -1.5031304
23.732786 -5.6174383 -1.5014933
23.640656 -5.7490411 -1.4977784
23.459692 -5.8577256 -1.4883337
23.31406 -5.9735713 -1.4812187
23.342606 -6.1337576 -1.4855003
8.1873236 -2.2054522 -0.49777293
23.16456 -6.3918734 -1.478889
7.8167734 -2.2088864 -0.47529453
8.0283756 -2.3219578 -0.49009123
8.0053644 -2.3686273 -0.48952454
7.9782615 -2.4139459 -0.48870602
7.9919038 -2.4716992 -0.49059495
8.2420959 -2.6045799 -0.50816208
7.8185034 -2.5236089 -0.48115024
7.8730149 -2.5946479 -0.48580962
22.207932 -7.4694977 -1.4410472
22.134306 -7.5962276 -1.4392213
22.056194 -7.7210174 -1.4371434
18.960203 -6.7681675 -1.2329489
21.879129 -7.9617505 -1.4317285
21.820509 -8.0923786 -1.4310988
18.289991 -6.9110694 -1.1963663
18.497793 -7.1195931 -1.2133038
18.481636 -7.2438846 -1.2151928
18.63706 -7.4370422 -1.2287931
21.310501 -8.6557598 -1.4139724
21.256065 -8.7859745 -1.4139094
21.190716 -8.9115906 -1.4131539
21.133802 -9.0406618 -1.4130279
21.068779 -9.1661854 -1.4123982
20.995712 -9.2880211 -1.4112649
20.951979 -9.4228134 -1.4122094
20.958214 -9.5806532 -1.4166799
21.035706 -9.7725611 -1.4261875
20.999714 -9.9129524 -1.4278876
20.784613 -9.967823 -1.4171206
20.69076 -10.079433 -1.4148539
20.619579 -10.201775 -1.4142243
20.520922 -10.31018 -1.4117056
20.413712 -10.413678 -1.4086204
20.381334 -10.555261 -1.4108871
20.305584 -10.674547 -1.4101316
20.201841 -10.778738 -1.4074241
12.958934 -7.0169187 -0.89256167
19.959585 -10.966245 -1.3996165
19.861412 -11.071501 -1.3974127
19.761829 -11.175474 -1.3951459
12.49195 -7.1659832 -0.87140548
12.606472 -7.3348432 -0.88299102
12.599908 -7.4348793 -0.88582444
19.387413 -11.60072 -1.3882198
18.491619 -11.219388 -1.3273959
12.370815 -7.6101155 -0.87915015
18.820004 -11.736979 -1.3621525
18.731606 -11.842102 -1.3609561
18.651869 -11.952507 -1.3604524
18.568134 -12.060205 -1.3596969
18.459606 -12.151411 -1.3571153
18.365602 -12.25171 -1.3556671
18.22559 -12.320573 -1.3507558
18.087072 -12.389309 -1.3459705
17.978735 -12.477864 -1.3435149
17.861015 -12.559242 -1.3403666
17.733219 -12.632699 -1.3364629
17.549355 -12.664763 -1.3282144
17.394773 -12.716253 -1.3222328
17.228193 -12.757417 -1.3153067
17.149591 -12.862887 -1.3153067
17.029812 -12.937084 -1.3120955
16.928755 -13.024902 -1.3103955
16.789473 -13.082524 -1.3056731
16.686947 -13.167986 -1.30391
16.545021 -13.221531 -1.2989988
16.458929 -13.319034 -1.2986211
16.311277 -13.366007 -1.293269
16.148312 -13.398926 -1.2866577
16.010777 -13.451536 -1.2821243
15.913494 -13.537236 -1.280928
15.802152 -13.610527 -1.2785983
15.696528 -13.68821 -1.2767723
15.57708 -13.753219 -1.2738129
15.422455 -13.786018 -1.2678943
15.318335 -13.862978 -1.2662572
15.22857 -13.952663 -1.2658794
15.12072 -14.025481 -1.2639904
15.003092 -14.08862 -1.2612829
14.891047 -14.156345 -1.2590792
14.792398 -14.236376 -1.2580718
14.69619 -14.318515 -1.2573162
14.529895 -14.331329 -1.2503901
14.410611 -14.389186 -1.2476196
14.312223 -14.467404 -1.2467381
14.20993 -14.541389 -1.2455418
14.083702 -14.590249 -1.2422047
13.951212 -14.631608 -1.2383008
13.82901 -14.682791 -1.2353415
13.725741 -14.753485 -1.2341452
6.9223514 -7.5331254 -0.60827601
6.8739862 -7.5732417 -0.60808712
13.011465 -14.512461 -1.1925255
6.7434797 -7.6151857 -0.60456109
6.679543 -7.6368885 -0.60292399
6.613637 -7.6558285 -0.601098
13.192312 -15.461337 -1.2451011
13.097838 -15.542756 -1.245164
12.972217 -15.586777 -1.2422047
6.5124831 -7.9237685 -0.60991305
12.768644 -15.730844 -1.2410713
12.646288 -15.776969 -1.2384897
12.537476 -15.839399 -1.2372934
1.991042 -2.5479214 -0.16683044
1.9765904 -2.5616703 -0.16695637
1.9638597 -2.5777192 -0.16727118
1.9486061 -2.5905182 -0.16733415
1.9368402 -2.6080341 -0.1677749
1.9255228 -2.6263075 -0.16827862
1.9181505 -2.6501989 -0.16922309
11.41325 -15.971054 -1.2012776
11.270166 -15.977173 -1.1963663
11.168498 -16.041109 -1.1959885
10.05413 -14.631265 -1.082841
10.942799 -16.135658 -1.1928403
10.820827 -16.168493 -1.1902587
10.681266 -16.17379 -1.1856624
10.579644 -16.23568 -1.1854105
10.489 -16.314562 -1.1864809
10.40634 -16.406425 -1.1885587
10.271066 -16.414976 -1.184466
10.087852 -16.344355 -1.1745806
9.9448195 -16.336042 -1.1694175
9.9831047 -16.627777 -1.1864179
9.6490259 -16.297119 -1.157706
9.5483437 -16.355156 -1.1576431
9.4488058 -16.415165 -1.157769
9.6360683 -16.980604 -1.1946033
9.5584946 -17.087315 -1.1980664
8.9701281 -16.269056 -1.1349128
8.9158802 -16.407972 -1.1409574
8.8145638 -16.461491 -1.1408944
8.5746059 -16.252226 -1.122131
8.4843893 -16.32313 -1.1234533
8.4363813 -16.477039 -1.1306942
8.5634165 -16.981176 -1.1626803
8.0133619 -16.135977 -1.0994637
7.9194632 -16.195601 -1.1002192
7.9818525 -16.5802 -1.1237681
7.8782582 -16.625257 -1.1235162
6.9285955 -14.856194 -0.99702007
7.5333557 -16.415009 -1.1022971
7.6279974 -16.893885 -1.1322683
7.5472875 -16.992361 -1.1358572
7.4516721 -17.05847 -1.1372426
7.3488326 -17.108458 -1.1375573
7.3283629 -17.353653 -1.1512836
7.1693249 -17.272013 -1.1426575
7.279212 -17.845179 -1.1787362
7.1836877 -17.924709 -1.1811289
7.0728374 -17.966593 -1.181003
6.9228754 -17.907257 -1.1740768
6.7126369 -17.685343 -1.1562579
6.6182814 -17.764542 -1.1588393
6.5605602 -17.945415 -1.1682841
6.4648142 -18.025728 -1.1709915
6.1861863 -17.58773 -1.1390685
6.0111241 -17.431 -1.1260978
5.8960667 -17.44392 -1.1245236
6.0710125 -18.331486 -1.1811289
5.9417882 -18.317129 -1.1777288
5.7854753 -18.215321 -1.1685989
5.6202669 -18.078932 -1.1572653
5.5042934 -18.096846 -1.1561949
5.390873 -18.122625 -1.1556911
5.2472444 -18.044199 -1.1483872
5.2428255 -18.450457 -1.1729435
5.1439304 -18.534208 -1.1763436
4.0283451 -14.868354 -0.93468505
3.9352529 -14.886038 -0.93424428
4.6494122 -18.034309 -1.1378092
4.565424 -18.168968 -1.1447353
4.4329734 -18.111332 -1.1391944
4.3051047 -18.068293 -1.134661
4.2011452 -18.124506 -1.1366129
4.1216707 -18.291115 -1.1457428
4.0339055 -18.428177 -1.1529837
3.9338257 -18.514084 -1.1569505
3.6462982 -17.694315 -1.1026119
0.48139861 -2.4125755 -0.11803278
0.47321674 -2.4497793 -0.12023655
3.3937232 -18.152802 -1.1279237
0.50645143 -2.8060195 -0.14271495
0.4967649 -2.8523347 -0.1454854
0.47131774 -2.8080864 -0.14246309
0.45216724 -2.7991028 -0.14170751
0.43023309 -2.7712529 -0.13975561
0.41292652 -2.7718663 -0.13962968
0.40113282 -2.8109033 -0.14195937
0.38293242 -2.8063898 -0.14151862
0.36493152 -2.8027489 -0.14114083
0.24102922 -1.9452536 -0.086487465
0.22908883 -1.9466959 -0.086487465
0.21636449 -1.9411221 -0.086046711
0.20455459 -1.9434056 -0.086109675
0.19213332 -1.9396584 -0.085794851
0.17847095 -1.9219202 -0.084598526
0.16831626 -1.9418701 -0.085794851
0.15527402 -1.9289395 -0.084913343
0.14202596 -1.910946 -0.083717018
0.12927689 -1.8968462 -0.082772546
0.11707798 -1.8886389 -0.082205862
0.1064367 -1.9062613 -0.083276264
0.09613058 -1.9347882 -0.085039273
0.083951831 -1.9283623 -0.084598526
0.07489273 -2.0026422 -0.089257911
0.060281541 -1.9292473 -0.084598526
0.048265986 -1.9225969 -0.084157772
0.036583036 -1.9288439 -0.084535562
0.0243439 -1.8980962 -0.082583651
0.012614313 -1.8862339 -0.081828073
0.0010243581 -1.8653175 -0.080505818
-0.010244099 -1.8323547 -0.078427985
-0.02199237 -1.8761671 -0.081198432
-0.070058659 -3.9475551 -0.21191317
-0.063761413 -2.6639655 -0.13094054
-0.056612302 -1.8784372 -0.081387326
-0.068712674 -1.8940122 -0.082394756
-0 -0 -0
-0.84454298 -17.454863 -1.0653368
-0.9531492 -17.477255 -1.0670998
-1.1144016 -18.361666 -1.1233903
-1.153242 -17.250147 -1.0535624
-0.25201744 -3.4469543 -0.18087156
-0.23882142 -3.0115654 -0.15341894
-0.28818741 -3.3720052 -0.17633811
-0.35817674 -3.9088464 -0.21046497
-0.3781746 -3.8658502 -0.20788342
-0.30430129 -2.924391 -0.14831881
-0.42908192 -3.892663 -0.20989829
-0.45722601 -3.9266362 -0.21222799
-0.44610149 -3.6364818 -0.19396822
-0.46776867 -3.628727 -0.19365339
-0.48975822 -3.6238103 -0.19352746
-0.37975976 -2.684911 -0.13389988
-0.39680967 -2.6864798 -0.13415174
-0.46381584 -3.0124698 -0.155119
-0.48781392 -3.0440583 -0.15732276
-0.65065682 -3.9073472 -0.2127317
-0.53872222 -3.1165192 -0.16235994
-0.53180104 -2.967761 -0.15304115
-3.6704204 -19.795597 -1.2330118
-3.2138836 -16.758713 -1.0393953
-3.3158767 -16.73476 -1.0391434
-0.53828692 -2.6301713 -0.13219984
-0.55688667 -2.6385372 -0.13295542
-0.84816778 -3.9009471 -0.21468361
-4.0374174 -18.042044 -1.129246
-3.8679528 -16.800236 -1.0504771
-4.2601261 -17.997938 -1.1296867
-4.0964646 -16.844603 -1.0565218
-0.69545084 -2.7837663 -0.14384831
-0.71722484 -2.7978156 -0.14504464
-0.58042926 -2.2074544 -0.10682507
-1.0985105 -4.07724 -0.22922845
-0.61862326 -2.2405722 -0.10946959
-0.93735367 -3.316246 -0.18024191
-0.94437689 -3.2644129 -0.17721961
-0.75375342 -2.5465357 -0.13037387
-0.77109838 -2.5475943 -0.13075165
-0.69973916 -2.2615409 -0.11217707
-1.0560772 -3.3411279 -0.18389386
-6.0426922 -18.722944 -1.204048
-1.3593605 -4.1241379 -0.23678422
-1.3849581 -4.1166654 -0.23684719
-0.72731739 -2.1181831 -0.10411758
-0.7403006 -2.1136806 -0.10411758
-1.2172577 -3.4090247 -0.19119777
-1.5135528 -4.1583414 -0.2420103
-1.5379984 -4.1461687 -0.24182139
-1.5570604 -4.1198492 -0.24068803
-1.5862532 -4.1204629 -0.24138065
-1.1835967 -3.0188444 -0.16739711
-1.1810149 -2.958689 -0.16380812
-1.3681459 -3.3674836 -0.19214225
-1.394501 -3.3728604 -0.19308671
-1.2259897 -2.9143696 -0.16229697
-1.230111 -2.8746767 -0.1600932
-1.2891324 -2.9622517 -0.16664153
-1.3093028 -2.9588497 -0.16695637
-1.7670571 -3.9283254 -0.23458046
-1.5737145 -3.4417841 -0.20158695
-0.82281685 -1.7702664 -0.085983746
-1.8872052 -3.9971192 -0.24169546
-7.3539405 -15.333979 -1.0357434
-1.9308692 -3.9628925 -0.24093989
-1.8657521 -3.7702758 -0.22822101
-0.89510179 -1.7807572 -0.088565297
-0.90782547 -1.7787875 -0.088817157
-0.92009968 -1.7758424 -0.089006051
-1.4520103 -2.7613339 -0.15965246
-1.4590605 -2.7338815 -0.1583302
-0.9564327 -1.7656265 -0.08950977
-0.96917063 -1.7632235 -0.08976163
-0.96733749 -1.7345786 -0.088124543
-1.4824834 -2.6208022 -0.15278929
-10.173261 -17.734661 -1.2527198
-10.300456 -17.703823 -1.2550495
-10.399762 -17.624815 -1.2539161
-10.499512 -17.54697 -1.2529087
-5.125329 -8.4470682 -0.58617538
-1.5314051 -2.4888043 -0.14718544
-1.5688277 -2.5149283 -0.14982995
-5.1135564 -8.0880976 -0.56653041
-5.1630878 -8.0565691 -0.56653041
-1.337072 -2.0579302 -0.11765499
-1.3573562 -2.061358 -0.1185365
-1.3793941 -2.0671048 -0.1196069
-1.4255867 -2.1082118 -0.12338478
-1.4148084 -2.0648427 -0.12074026
-1.4160711 -2.0397246 -0.11948097
-1.4090425 -2.0032396 -0.11734017
-1.4172542 -1.9888662 -0.11689942
