# .PCD v0.7 - Point Cloud Data file format
VERSION 0.7
FIELDS x y z
SIZE 4 4 4
TYPE F F F
COUNT 1 1 1
WIDTH 1561
HEIGHT 1
VIEWPOINT 0 0 0 1 0 0 0
POINTS 1561
DATA ascii
-0.47533685 -3.3613632 -1.0097967
-0.50334352 -3.4084706 -1.0254693
-0.51887405 -3.3703835 -1.014528
-0.53561771 -3.3426116 -1.0068396
-0.56129253 -3.3703587 -1.016598
-0.5918805 -3.4242728 -1.0346363
-0.61557424 -3.435622 -1.0393676
-0.63995183 -3.4496262 -1.044986
-0.66326505 -3.456893 -1.0485345
-0.68483496 -3.4546323 -1.0491259
-0.70755047 -3.4578524 -1.0514916
-0.73387963 -3.4777484 -1.05918
-0.75885653 -3.4899828 -1.0645027
-0.77983916 -3.4833965 -1.0639113
-0.79969805 -3.4720294 -1.0618414
-0.8183468 -3.4559019 -1.0582929
-0.83615071 -3.4368923 -1.0538572
-0.85421503 -3.4196482 -1.0500131
-0.86474961 -3.3736253 -1.0370018
-0.79415494 -3.0208628 -0.92581564
-0.81342095 -3.0187004 -0.9267028
-0.83421475 -3.0219405 -0.92936414
-0.85144269 -3.0121684 -0.92788559
-0.86937827 -3.0050519 -0.92729419
-0.90676975 -3.0637834 -0.94799376
-1.0146184 -3.3525846 -1.0432117
-1.0800416 -3.491406 -1.0902293
-1.1244686 -3.5575845 -1.113886
-1.1386483 -3.5269811 -1.1061976
-1.1154239 -3.3838344 -1.0618414
-1.0636895 -3.1614316 -0.99146283
-1.080587 -3.1476169 -0.98909718
-1.0951459 -3.1274028 -0.98466158
-1.105644 -3.0963328 -0.97667742
-1.121682 -3.0814111 -0.97401607
-1.1395717 -3.0717835 -0.97312891
-1.1627877 -3.0763505 -0.97697318
-1.1936511 -3.1003613 -0.98732293
-1.3506911 -3.4451845 -1.1044233
-1.3718048 -3.436832 -1.1044233
-1.3950238 -3.4336605 -1.1061976
-1.4160662 -3.4250362 -1.1061976
-1.4333521 -3.4074769 -1.1032405
-1.4568629 -3.4047661 -1.1053104
-1.4731537 -3.385251 -1.1017619
-1.485782 -3.3578022 -1.0955521
-1.4993047 -3.3329403 -1.0902293
-1.5105927 -3.3036952 -1.083428
-1.5115169 -3.252779 -1.069234
-1.5236994 -3.2270298 -1.0636156
-1.5347971 -3.1995313 -1.0574057
-1.5544001 -3.1900537 -1.0574057
-1.5934305 -3.2198422 -1.0710083
-1.6345997 -3.2526848 -1.0857937
-1.6493181 -3.2323823 -1.0822452
-1.663849 -3.2120221 -1.0786967
-1.6799704 -3.1949878 -1.076331
-1.690999 -3.168606 -1.0707126
-1.6890322 -3.1186883 -1.0568143
-1.6957169 -3.0856602 -1.0488302
-1.7150832 -3.0760319 -1.0491259
-1.729223 -3.0571351 -1.0461688
-1.7512758 -3.0522678 -1.0482388
-1.7718928 -3.0447674 -1.0494217
-1.8051052 -3.0585201 -1.0582929
-1.7944088 -2.9982018 -1.0405504
-1.8157446 -2.9920356 -1.0423247
-1.8340693 -2.9808381 -1.0423247
-1.839182 -2.9484532 -1.0346363
-1.8689792 -2.9556844 -1.0414375
-1.8922338 -2.952204 -1.0443946
-1.925402 -2.9637709 -1.0529702
-1.9325212 -2.9351444 -1.0467602
-1.9186876 -2.87555 -1.0290178
-1.983909 -2.9341598 -1.0553358
-2.0013356 -2.9211433 -1.0550401
-2.015409 -2.9033148 -1.0529702
-2.0397789 -2.9002712 -1.0565186
-2.0403547 -2.8635809 -1.0473517
-2.0405576 -2.8269939 -1.0381848
-2.0567379 -2.8128777 -1.0375932
-2.0625892 -2.7848504 -1.0316792
-2.0865159 -2.7813127 -1.0352277
-2.1081653 -2.7745433 -1.0375932
-2.1385477 -2.7789695 -1.0443946
-2.152036 -2.7612741 -1.0426203
-2.1677547 -2.7465177 -1.0420289
-2.156538 -2.6980898 -1.0281307
-2.1946855 -2.7115405 -1.0387762
-2.1985672 -2.6825061 -1.0325663
-2.229625 -2.6866097 -1.0396632
-2.278635 -2.7116435 -1.0553358
-2.2717102 -2.669961 -1.0440989
-2.2992713 -2.6690004 -1.0494217
-2.330045 -2.6714017 -1.0562229
-2.3520827 -2.6634996 -1.0588843
-2.3671083 -2.647593 -1.0582929
-2.3935647 -2.6443517 -1.0630242
-2.4052279 -2.6246848 -1.0609542
-2.4251852 -2.6140795 -1.0627285
-2.4372556 -2.5949712 -1.0609542
-2.4287798 -2.5543504 -1.0500131
-2.4344711 -2.5290749 -1.0455774
-2.4346111 -2.4983523 -1.0387762
-2.4599571 -2.4935687 -1.0432117
-2.450912 -2.4540918 -1.0325663
-2.4964836 -2.4692402 -1.0458732
-2.5074883 -2.4498696 -1.0440989
-2.5231605 -2.4351013 -1.0443946
-2.5207708 -2.4030929 -1.0370018
-2.5424223 -2.3941302 -1.039959
-2.5752487 -2.3954031 -1.0476474
-2.6067791 -2.3950701 -1.0547444
-2.6030354 -2.3623364 -1.047056
-2.6402414 -2.3667269 -1.0565186
-2.6568592 -2.3523822 -1.0574057
-2.669805 -2.3347778 -1.0568143
-2.6775749 -2.3127315 -1.054153
-2.6909883 -2.2956388 -1.0538572
-2.7013712 -2.276006 -1.0523787
-2.7145514 -2.2587767 -1.052083
-2.7298357 -2.2432911 -1.0526744
-2.7442906 -2.2271011 -1.0529702
-2.761631 -2.213208 -1.0544486
-2.771414 -2.1932566 -1.0529702
-2.7712719 -2.165621 -1.0476474
-2.7814827 -2.1462414 -1.0464646
-2.804477 -2.1366613 -1.0503087
-2.814481 -2.1171157 -1.0491259
-2.8251178 -2.0980976 -1.0482388
-2.8587375 -2.0959766 -1.0562229
-2.872318 -2.0789566 -1.0565186
-2.8819113 -2.0590713 -1.0553358
-2.8773181 -2.0292351 -1.0488302
-2.8842273 -2.0077212 -1.0467602
-2.9146001 -2.0024297 -1.0535616
-2.9347379 -1.9898704 -1.0565186
-2.9643576 -1.983515 -1.0630242
-2.9429932 -1.9431778 -1.0506045
-2.9804718 -1.9417729 -1.0600671
-2.9666173 -1.9069164 -1.0506045
-2.9919758 -1.8973764 -1.0556315
-2.9987028 -1.8759419 -1.0538572
-3.0247891 -1.8665384 -1.05918
-3.0639277 -1.8648331 -1.069234
-3.0802262 -1.8489485 -1.0710083
-3.0726073 -1.8188196 -1.0642071
-3.0771098 -1.796079 -1.0618414
-3.0905561 -1.7785941 -1.0627285
-3.1188583 -1.7694987 -1.0689384
-3.124655 -1.7475301 -1.0671641
-3.1512129 -1.7370886 -1.0727825
-3.1651697 -1.7195449 -1.0739654
-3.2051358 -1.7158749 -1.0843152
-3.2451749 -1.7117786 -1.0946649
-3.3005402 -1.7151858 -1.1103375
-3.327158 -1.7031739 -1.1159559
-3.3682518 -1.6982124 -1.1266015
-3.3837419 -1.6800628 -1.1283756
-3.498683 -1.7104669 -1.1644521
-3.5469842 -1.7071999 -1.1774632
-3.6022816 -1.7066768 -1.19284
-3.6421208 -1.6982703 -1.2028941
-3.6759143 -1.6866494 -1.2108783
-3.7854464 -1.7088799 -1.244589
-4.0176101 -1.7841182 -1.3196988
-3.8875434 -1.6978632 -1.2720898
-4.0795765 -1.7520255 -1.3333013
-4.1738515 -1.7622675 -1.3613936
-4.211937 -1.7479775 -1.3705605
-4.2270055 -1.7239047 -1.3720391
-4.2960267 -1.7213916 -1.3915558
-4.3340631 -1.7058474 -1.4007227
-4.3800888 -1.6930012 -1.412551
-4.4127216 -1.6745688 -1.4199438
-4.4828897 -1.6698072 -1.4397563
-4.5307331 -1.6560462 -1.452176
-4.6675954 -1.6736889 -1.4938709
-4.892251 -1.7204604 -1.5642493
-4.8991032 -1.6891639 -1.5630665
-5.0396919 -1.703122 -1.6056485
-5.1996751 -1.721724 -1.6544403
-5.2764735 -1.7113057 -1.6760269
-5.3187404 -1.6890194 -1.6863768
-5.4147515 -1.6830112 -1.7141733
-5.4779844 -1.6658792 -1.7313244
-5.5485339 -1.6502132 -1.7508411
-5.6190953 -1.6337434 -1.7703578
-5.7043633 -1.6206473 -1.7946059
-5.8651586 -1.6275154 -1.843102
-5.9709258 -1.6174798 -1.8738557
-6.1211171 -1.6179267 -1.9188033
-6.1642299 -1.5889238 -1.9294487
-6.1710839 -1.5503725 -1.9285617
-6.2055335 -1.5186107 -1.9365457
-6.2212396 -1.4820558 -1.9386157
-6.2162571 -1.4406191 -1.9341801
-6.2268434 -1.4028698 -1.9347715
-6.2269354 -1.3627976 -1.9321102
-6.2370491 -1.3249613 -1.9327016
-6.2544179 -1.2885947 -1.9356587
-6.2678275 -1.2513167 -1.9374329
-6.2782011 -1.2133784 -1.93832
-6.291162 -1.1758866 -1.9400942
-6.2860379 -1.1350552 -1.9362501
-6.2966485 -1.0971196 -1.9374329
-6.2919569 -1.0565643 -1.9338844
-6.3294411 -1.0229694 -1.9436427
-6.3384309 -0.9845534 -1.9445299
-6.3500214 -0.94648832 -1.9463041
-6.3642206 -0.90872335 -1.9489655
-6.3838739 -0.87159538 -1.9534011
-6.3966799 -0.83339608 -1.9557668
-6.4196854 -0.79636663 -1.9613853
-6.4386816 -0.7586388 -1.9658209
-0 -0 -0
-0 -0 -0
-0 -0 -0
-0 -0 -0
-0 -0 -0
-0 -0 -0
-0 -0 -0
-0 -0 -0
-0 -0 -0
-0 -0 -0
-0 -0 -0
-0 -0 -0
-0 -0 -0
-0 -0 -0
-6.1236377 0.44638765 -1.9371371
-0 0 -0
-0 0 -0
-0 0 -0
-0 0 -0
-0 0 -0
-0 0 -0
-0 0 -0
-0 0 -0
-0 0 -0
-0 0 -0
-0 0 -0
-0 0 -0
-0 0 -0
-0 0 -0
-0 0 -0
-0 0 -0
-6.0251369 1.0782077 -1.9310033
-6.0258942 1.1165457 -1.9334568
-6.0114517 1.1520642 -1.9310033
-6.003336 1.188743 -1.9306966
-5.9921989 1.2247933 -1.9294698
-5.9957466 1.2638958 -1.9331502
-5.9888086 1.3008634 -1.9334568
-5.9658532 1.3342589 -1.9285498
-5.9594088 1.3712667 -1.9291631
-5.9499564 1.4075879 -1.9288565
-5.9365835 1.4429448 -1.927323
-5.9294648 1.4798051 -1.9279364
-5.9239616 1.517105 -1.9291631
-5.9053359 1.5510056 -1.9260962
-5.8957076 1.5872108 -1.9260962
-5.8693428 1.618798 -1.9205757
-5.8794503 1.6604762 -1.927323
-5.8554358 1.6925533 -1.9227226
-5.8412895 1.7273694 -1.9214958
-5.8424239 1.7667623 -1.9254829
-5.8342013 1.8034211 -1.9264029
-5.820303 1.8383247 -1.9254829
-5.8025732 1.871956 -1.923336
-5.7765145 1.9027574 -1.9184289
-5.7791648 1.9430215 -1.923336
-5.7626324 1.9769001 -1.9218025
-5.7485971 2.0115926 -1.9211892
-5.7388353 2.0477877 -1.9221092
-5.7351065 2.0862174 -1.9251761
-5.7123814 2.1177268 -1.9218025
-5.6912665 2.149709 -1.9190423
-5.6824102 2.1862993 -1.9205757
-5.6821809 2.2263355 -1.9251761
-5.6401253 2.2498686 -1.915362
-5.6173959 2.2808509 -1.9122951
-5.6006565 2.3141847 -1.911375
-5.5784554 2.3451848 -1.9086148
-5.5832119 2.3876066 -1.915362
-5.5824208 2.427896 -1.9202691
-5.5691595 2.4628735 -1.9208825
-5.5487347 2.4946561 -1.9190423
-5.5116825 2.5187612 -1.911375
-5.4952607 2.5521317 -1.9110683
-5.4881048 2.5898657 -1.9141352
-5.43435 2.6053791 -1.9006407
-5.4302406 2.6445112 -1.9049344
-5.4181771 2.6798913 -1.9064679
-5.402482 2.7135136 -1.9067746
-5.3857307 2.7466116 -1.9067746
-5.3763828 2.783546 -1.9095348
-5.3541474 2.8138249 -1.9076947
-5.3393006 2.8479686 -1.9086148
-5.3267469 2.8833959 -1.9104549
-5.316462 2.9201512 -1.9132152
-5.2984443 2.9527175 -1.9132152
-5.2851977 2.9879842 -1.9150553
-5.2667642 3.0203571 -1.9150553
-5.2530684 3.0554888 -1.9168955
-5.2194667 3.0789561 -1.911375
-5.1980262 3.1094577 -1.9104549
-5.1780353 3.1408 -1.9101483
-5.1529918 3.1690214 -1.9080014
-5.1350651 3.2015874 -1.9086148
-5.1177373 3.2345612 -1.9095348
-5.102602 3.2689838 -1.911375
-5.0768609 3.2966018 -1.9092282
-5.0621023 3.3313544 -1.911375
-5.0368156 3.3591826 -1.9095348
-5.0303025 3.3996208 -1.9150553
-5.0124888 3.4325738 -1.9162821
-4.9811678 3.4562094 -1.9122951
-4.9575315 3.4850657 -1.911375
-4.9360542 3.515419 -1.911375
-4.9105325 3.5428545 -1.9098415
-4.8848596 3.5701096 -1.908308
-4.8643918 3.6011481 -1.9089215
-4.8429651 3.6314988 -1.9092282
-4.8304439 3.668632 -1.9132152
-4.8025627 3.6941388 -1.9110683
-4.7850604 3.7276328 -1.9132152
-4.7508907 3.7480781 -1.9086148
-4.7233424 3.7735929 -1.9067746
-4.6919608 3.7959173 -1.903401
-4.6877217 3.8403215 -1.911375
-4.6494207 3.8568559 -1.9052411
-4.6322265 3.8908224 -1.9080014
-4.6075406 3.9185553 -1.9076947
-4.5899 3.9523437 -1.9104549
-4.5605416 3.976053 -1.908308
-4.54248 4.0096312 -1.9110683
-4.5092769 4.0298152 -1.907388
-4.4872885 4.0599627 -1.9086148
-4.4615908 4.0867767 -1.908308
-4.4441066 4.1211963 -1.9116817
-4.4034719 4.1340518 -1.9049344
-4.3856106 4.1682076 -1.908308
-4.3565235 4.1917386 -1.9067746
-4.3259497 4.2137408 -1.9046278
-4.2979808 4.2381997 -1.9037077
-4.2705474 4.2631469 -1.9030943
-4.2416315 4.2865634 -1.9018675
-4.2059374 4.3029776 -1.8975738
-4.1814384 4.3307586 -1.8984939
-4.1587276 4.360467 -1.9003341
-4.1429873 4.3976822 -1.9055479
-4.126298 4.4341707 -1.9104549
-4.1003003 4.4608078 -1.9110683
-4.0702934 4.4830632 -1.9098415
-4.0439801 4.5093713 -1.9104549
-4.0010915 4.5169973 -1.9030943
-3.9770601 4.5457611 -1.9049344
-3.9403822 4.5599942 -1.9006407
-3.913564 4.5855341 -1.9012542
-3.8908737 4.6160121 -1.9040143
-3.852736 4.6280932 -1.8991073
-3.8224533 4.6494398 -1.8981873
-3.7950523 4.6742845 -1.8988006
-3.7651095 4.6959972 -1.8981873
-3.7391779 4.7227426 -1.8997207
-3.7095432 4.7448468 -1.8994139
-3.6890819 4.7788219 -1.9040143
-3.656229 4.7968254 -1.9021742
-3.6244388 4.8161268 -1.9009475
-3.6004944 4.8459163 -1.9040143
-3.5622504 4.8564038 -1.8994139
-3.5368497 4.8843379 -1.9018675
-3.4841261 4.8741961 -1.8892932
-3.4651248 4.9110389 -1.895427
-3.4365573 4.9345512 -1.896347
-3.3970518 4.9422088 -1.8911333
-3.369334 4.9668984 -1.8926668
-3.3488514 5.0025086 -1.8984939
-3.3159959 5.0197854 -1.8972671
-3.279417 5.0312653 -1.8938936
-3.2500281 5.0536947 -1.8948137
-3.223546 5.0807753 -1.8975738
-3.1948342 5.1044936 -1.8991073
-3.1669526 5.1296706 -1.9012542
-3.1339333 5.1465669 -1.9003341
-3.1003361 5.1624351 -1.8991073
-3.0681167 5.1805425 -1.8988006
-3.0343523 5.1959825 -1.8975738
-3.0038376 5.2169776 -1.8984939
-2.9689522 5.2303438 -1.8966538
-2.9423788 5.258431 -1.9003341
-2.9036252 5.2647166 -1.8960404
-2.8758106 5.2907972 -1.8991073
-2.8401482 5.3024693 -1.8969605
-2.8084474 5.3214798 -1.8975738
-2.7726703 5.3327003 -1.895427
-2.7381623 5.3462238 -1.8942002
-2.7065926 5.3654737 -1.8951203
-2.6744661 5.3836851 -1.8957337
-2.6388738 5.3948636 -1.8938936
-2.6081986 5.4160995 -1.8957337
-2.5679891 5.4173784 -1.89052
-2.5355048 5.4347587 -1.8911333
-2.4973466 5.4398332 -1.887453
-2.4768453 5.4836817 -1.8975738
-2.4358118 5.4822483 -1.8917466
-2.405556 5.504941 -1.8945069
-2.3709817 5.5178485 -1.8938936
-2.3378208 5.5340462 -1.8945069
-2.3019962 5.5438914 -1.8929734
-2.2776411 5.5817075 -1.9012542
-2.2433493 5.5955777 -1.9012542
-2.1978183 5.5808959 -1.89144
-2.1607881 5.5871739 -1.8889865
-2.128829 5.6065564 -1.8911333
-2.0947199 5.6204052 -1.89144
-2.0605211 5.6340461 -1.8917466
-2.0239849 5.6412072 -1.8899065
-1.9858598 5.6436434 -1.8865329
-1.9533653 5.6620207 -1.8886797
-1.9149305 5.6630793 -1.8849995
-1.8825397 5.681951 -1.887453
-1.8476405 5.6933951 -1.887453
-1.8118075 5.7019033 -1.8865329
-1.7779173 5.7165484 -1.8877597
-1.7516688 5.7564907 -1.8975738
-1.7065473 5.7342868 -1.8865329
-1.6745187 5.7556176 -1.8902133
-1.6363103 5.7557125 -1.8868396
-1.6040169 5.7766504 -1.89052
-1.5672976 5.7817903 -1.8889865
-1.5334941 5.7977395 -1.8911333
-1.4983661 5.8088832 -1.8917466
-1.4596807 5.8059669 -1.8877597
-1.4269693 5.8268328 -1.8917466
-1.3898664 5.8299236 -1.8899065
-1.3568617 5.8503962 -1.8938936
-1.3194747 5.8521113 -1.8917466
-1.2837454 5.8610272 -1.8920534
-1.2436057 5.8492422 -1.8856128
-1.2094204 5.8651528 -1.8883731
-1.1756456 5.8836641 -1.8920534
-1.1373549 5.8795524 -1.8883731
-1.0981098 5.8695798 -1.8828527
-1.0646107 5.8902569 -1.887453
-1.0279588 5.8938651 -1.8865329
-0.99508488 5.9197741 -1.8929734
-0.96102071 5.9398623 -1.8975738
-0.92105061 5.9230747 -1.8902133
-0.88595265 5.9370871 -1.8929734
-0.85058278 5.9499497 -1.895427
-0.81302875 5.9475121 -1.8929734
-0.77504486 5.9410629 -1.8892932
-0.73857659 5.9457064 -1.8892932
-0.70063293 5.9378381 -1.8853061
-0.66334146 5.9344578 -1.8828527
-0.62691581 5.938416 -1.8828527
-0.59074837 5.9449925 -1.8837727
-0.55549318 5.9617734 -1.8880664
-0.51849043 5.9603286 -1.8865329
-0.48152635 5.9586539 -1.8849995
-0.44537964 5.9671917 -1.8868396
-0.40810889 5.9603162 -1.8837727
-0.37147039 5.9617581 -1.883466
-0.33482957 5.9629745 -1.8831593
-0.29832983 5.9668183 -1.8837727
-0.26158798 5.9656835 -1.8828527
-0.22512101 5.9709811 -1.8840793
-0.18862872 5.9770064 -1.8856128
-0.15197495 5.979003 -1.8859196
-0.11534011 5.9826779 -1.8868396
-0.078690529 5.9880314 -1.8883731
-0.042083338 6.008389 -1.8948137
-0.0051983832 5.9828353 -1.8865329
0.031527292 5.98561 -1.887453
0.068088166 5.9710279 -1.8828527
0.1046738 5.9676428 -1.8819325
0.14124316 5.9649849 -1.8813192
0.17798373 5.9687629 -1.8828527
0.21408817 5.9532909 -1.8782523
0.25077376 5.9556689 -1.8794791
0.28671354 5.941659 -1.875492
0.32332116 5.9426389 -1.876412
0.35931662 5.9329429 -1.8739586
0.396667 5.9448719 -1.8785589
0.43341407 5.9461231 -1.8797857
0.46793544 5.9186821 -1.8718117
0.50375682 5.9100094 -1.8699715
0.54079205 5.9153376 -1.8727318
0.57883811 5.9299064 -1.8785589
0.61796939 5.9527507 -1.8871464
0.65458745 5.9497933 -1.887453
0.68932116 5.9305377 -1.8825459
0.72581315 5.9271412 -1.8828527
0.76253277 5.9254084 -1.8837727
0.79849368 5.917788 -1.8828527
0.83412331 5.9080653 -1.8813192
0.8691076 5.8943615 -1.8785589
0.90438956 5.8832736 -1.8767188
0.9392671 5.8700948 -1.8742652
0.97229737 5.8463821 -1.8684381
1.0126903 5.8665676 -1.8770255
1.0479964 5.8564959 -1.8757987
1.0847794 5.8546348 -1.8773322
1.1206824 5.8478684 -1.8773322
1.1528419 5.8222089 -1.8711983
1.1896893 5.8206205 -1.8730385
1.2257746 5.815074 -1.8736519
1.262241 5.8111634 -1.8748786
1.2997451 5.8116684 -1.8776388
1.3360212 5.8063664 -1.8785589
1.375132 5.8128786 -1.883466
1.4053738 5.7821355 -1.8761054
1.4461308 5.7946424 -1.8831593
1.4778779 5.7709084 -1.8782523
1.5166471 5.7746191 -1.8825459
1.5522985 5.7661233 -1.8828527
1.5876496 5.7564902 -1.8828527
1.6268238 5.7603788 -1.887453
1.659758 5.7420597 -1.8846928
1.6968499 5.7381563 -1.8868396
1.7276157 5.7130604 -1.8819325
1.7620754 5.7005339 -1.8813192
1.7952989 5.6841693 -1.8794791
1.8301426 5.6730466 -1.8794791
1.8652153 5.6626143 -1.8797857
1.9002287 5.6519651 -1.8800924
1.9357998 5.6428995 -1.8810124
1.9719603 5.6354074 -1.8825459
2.0081017 5.6276836 -1.8840793
2.0442224 5.6197281 -1.8856128
2.078666 5.607079 -1.8856128
2.1137042 5.5959997 -1.8862263
2.1486847 5.5847015 -1.8868396
2.1877749 5.5838184 -1.8911333
2.218467 5.5614495 -1.8880664
2.2572069 5.559196 -1.8920534
2.292366 5.5478802 -1.8929734
2.3241496 5.5284462 -1.8911333
2.3606486 5.5202069 -1.8932801
2.3895385 5.4942722 -1.8892932
2.4247463 5.4829884 -1.89052
2.4536581 5.4575911 -1.8868396
2.4855161 5.4389706 -1.8856128
2.5196443 5.4253435 -1.8862263
2.5496352 5.4028955 -1.8837727
2.5790339 5.379426 -1.8810124
2.6178296 5.3754792 -1.8853061
2.6503415 5.3584619 -1.8849995
2.6844525 5.3446503 -1.8859196
2.716331 5.3263826 -1.8853061
2.7480865 5.3079247 -1.8846928
2.7792747 5.2884355 -1.8837727
2.8103273 5.2687635 -1.8828527
2.8435094 5.2530947 -1.883466
2.8743131 5.2330456 -1.8825459
2.9072952 5.2169733 -1.8831593
2.9387827 5.1982079 -1.8828527
2.9682548 5.1759501 -1.8813192
3.0037875 5.1642213 -1.8837727
3.0383205 5.1506114 -1.8856128
3.0640018 5.1220708 -1.8819325
3.0968537 5.1056151 -1.8828527
3.1296194 5.0889492 -1.8837727
3.1638079 5.0744958 -1.8856128
3.1903069 5.0477471 -1.8828527
3.22276 5.0304809 -1.8837727
3.2597878 5.0201898 -1.887453
3.2863426 4.9937339 -1.8849995
3.3206196 4.9790173 -1.8871464
3.3521738 4.9601259 -1.8877597
3.3830836 4.940249 -1.8880664
3.4122472 4.9178343 -1.887453
3.4434533 4.8983617 -1.8880664
3.4778626 4.8833423 -1.89052
3.5016332 4.8534207 -1.8871464
3.5307856 4.8310757 -1.8868396
3.562628 4.8123798 -1.8880664
3.5903757 4.7881451 -1.8871464
3.6214149 4.7682981 -1.8880664
3.6459608 4.7399535 -1.8856128
3.6720507 4.7137394 -1.8840793
3.705622 4.6970963 -1.8865329
3.7319961 4.6712966 -1.8853061
3.7653787 4.6542282 -1.8877597
3.796279 4.6339817 -1.8889865
3.8270724 4.6135306 -1.8902133
3.8497975 4.5834031 -1.887453
3.8790817 4.5611444 -1.8880664
3.9076166 4.5379782 -1.8883731
3.92788 4.5053082 -1.8846928
3.9623804 4.4889708 -1.8880664
3.990484 4.4652829 -1.8883731
4.0120587 4.4343629 -1.8856128
4.0430503 4.4138722 -1.887453
4.0700574 4.3889813 -1.887453
4.096911 4.3639255 -1.887453
4.1314802 4.3469825 -1.8911333
4.1580753 4.3215504 -1.8911333
4.178535 4.2898202 -1.8883731
4.2047782 4.2641006 -1.8883731
4.2315359 4.238894 -1.8886797
4.2567887 4.2121806 -1.8883731
4.2832351 4.1866469 -1.8886797
4.3122673 4.1635919 -1.8902133
4.3315334 4.1311431 -1.887453
4.3588786 4.1064448 -1.8883731
4.3902655 4.0854564 -1.8911333
4.4159517 4.0590854 -1.89144
4.4400697 4.0312734 -1.8911333
4.4788961 4.0166607 -1.8972671
4.4785161 3.9670188 -1.8865329
4.5185356 3.9532497 -1.8932801
4.542707 3.9254498 -1.8932801
4.5732245 3.9030623 -1.8960404
4.5905361 3.8694084 -1.8932801
4.6068759 3.8350804 -1.8902133
4.6391449 3.8139927 -1.8938936
4.6587648 3.7824566 -1.8923601
4.6900554 3.7603476 -1.8957337
4.7130404 3.7314992 -1.8957337
4.7335978 3.700752 -1.8948137
4.7524481 3.66873 -1.8932801
4.7718415 3.6371932 -1.8920534
4.7978721 3.6107061 -1.8935869
4.7985411 3.5653088 -1.8849995
4.8471928 3.5554967 -1.8957337
4.877399 3.531827 -1.8991073
4.8927822 3.4974065 -1.8966538
4.914928 3.4678676 -1.8969605
4.9392385 3.4398203 -1.8981873
4.9335794 3.3911228 -1.8877597
4.9787149 3.3773465 -1.8972671
4.9985533 3.346205 -1.8969605
5.0285225 3.3217649 -1.9006407
5.0392399 3.2846129 -1.8969605
5.0600996 3.2541456 -1.8972671
5.0815792 3.2240558 -1.8978806
5.1141763 3.2008922 -1.9027876
5.1345305 3.1699517 -1.9030943
5.1433148 3.1319537 -1.8991073
5.1705956 3.1052349 -1.9021742
5.192009 3.0749047 -1.9030943
5.2173548 3.046828 -1.9055479
5.2450256 3.01998 -1.9089215
5.2651129 2.9886796 -1.9095348
5.2850137 2.9572465 -1.9101483
5.296391 2.9210865 -1.9076947
5.312542 2.8876247 -1.9070814
5.3284822 2.8540747 -1.9064679
5.3501034 2.8235466 -1.9080014
5.3183427 2.7652087 -1.8902133
5.3843498 2.7576799 -1.9080014
5.3867211 2.7173054 -1.9027876
5.4041452 2.6846254 -1.9030943
5.4461684 2.6639574 -1.9122951
5.4624114 2.6304901 -1.9122951
5.4732881 2.5944786 -1.9104549
5.4899673 2.5612485 -1.9107616
5.5021191 2.5259268 -1.9095348
5.5192494 2.492902 -1.9101483
5.5492296 2.4655569 -1.915362
5.5616369 2.4303181 -1.9144419
5.5834408 2.3991516 -1.9168955
5.5927958 2.3626256 -1.9150553
5.6089454 2.328994 -1.9156687
5.6213675 2.2938156 -1.9150553
5.6273847 2.2560942 -1.9122951
5.6490932 2.2246599 -1.9150553
5.6590858 2.1885834 -1.9138285
5.6795273 2.1565201 -1.9162821
5.6890845 2.1203017 -1.9150553
5.7073512 2.0873148 -1.9168955
5.7093 2.0484009 -1.9132152
5.7181697 2.0120676 -1.9119884
5.7394061 1.980046 -1.9150553
5.746037 1.9429642 -1.9132152
5.7623682 1.9091665 -1.9147487
5.7830281 1.8767096 -1.9178156
5.7989707 1.8426306 -1.919349
5.802896 1.8047541 -1.9168955
5.8147712 1.7693912 -1.9172021
5.8319049 1.7355783 -1.919349
5.8588958 1.7045447 -1.9248694
5.8591728 1.6657019 -1.9214958
5.8665318 1.6289558 -1.9205757
5.8883595 1.5961639 -1.9245628
5.9100056 1.5631652 -1.9285498
5.9167204 1.52616 -1.9276297
5.9241271 1.4893632 -1.9270163
5.9322295 1.4527591 -1.9267097
5.9373283 1.4154501 -1.9254829
5.9394112 1.3774887 -1.923336
5.9533224 1.3422742 -1.9251761
5.9586573 1.3051096 -1.9242561
5.9637599 1.2679302 -1.923336
5.9770207 1.2324656 -1.9251761
5.9900708 1.1968861 -1.9270163
5.9973021 1.1601092 -1.9270163
6.0043073 1.1232885 -1.9270163
6.0082769 1.0859183 -1.9260962
6.0213904 1.0501753 -1.928243
6.0324144 1.013997 -1.9297765
6.0413413 0.9774192 -1.9306966
6.0500464 0.94077003 -1.9316167
6.0481739 0.90250754 -1.9291631
6.0554824 0.86564869 -1.9297765
6.0569077 0.82796174 -1.9285498
6.0684805 0.79164231 -1.9306966
6.0675564 0.75368899 -1.9288565
6.0701761 0.71622229 -1.928243
6.0754023 0.67906845 -1.9285498
6.0794549 0.64177769 -1.9285498
6.0908556 0.60521424 -1.9310033
6.0991931 0.56827068 -1.9325367
6.1054096 0.53108293 -1.9334568
6.1113997 0.49384028 -1.934377
6.1162133 0.45647347 -1.9349903
6.1245966 0.41932553 -1.9368304
6.122304 0.38144276 -1.935297
6.1216784 0.3437103 -1.934377
6.1274748 0.30633131 -1.9356037
6.1311407 0.26881108 -1.9362171
6.1326747 0.23118605 -1.9362171
6.1282697 0.19337328 -1.934377
6.1321955 0.15583928 -1.935297
6.1416011 0.11837337 -1.9380572
6.1422114 0.080686986 -1.9380572
6.1502056 0.04304944 -1.9405107
6.1484504 0.0053103911 -1.9398974
6.1512222 -0.03243148 -1.9408175
6.1480522 -0.07014095 -1.9398974
6.1494098 -0.10789713 -1.9405107
6.1476803 -0.14560445 -1.940204
6.1466713 -0.18332316 -1.940204
6.143528 -0.22096619 -1.9395907
6.1506152 -0.25902006 -1.9423509
6.1517625 -0.29689282 -1.943271
6.1431723 -0.33427048 -1.9411242
6.1514559 -0.37259296 -1.9444977
6.1613998 -0.41115671 -1.9484848
6.1568627 -0.44881585 -1.9478713
6.1577883 -0.48688602 -1.9490981
6.1489944 -0.52417421 -1.947258
6.1466103 -0.56198066 -1.9475647
6.1837797 -0.60366911 -1.9607525
6.1704922 -0.64061606 -1.9576855
6.1418476 -0.67575437 -1.9497116
6.1498761 -0.71485829 -1.9536985
6.1680474 -0.75536072 -1.9610591
6.1378083 -0.78990787 -1.9527785
6.1554837 -0.8306129 -1.960139
6.1738324 -0.87169766 -1.9678063
6.1335282 -0.9044193 -1.9564588
6.1447964 -0.94464326 -1.9619793
6.1116295 -0.97796279 -1.9530852
6.0848584 -1.0120053 -1.9463379
6.0766587 -1.0489981 -1.9457245
6.0476222 -1.0822359 -1.9383639
5.9585133 -1.1040474 -1.911375
0 -0 -0
5.7232423 -1.1332259 -1.838689
5.6154723 -1.1477172 -1.8055662
5.5273008 -1.1650559 -1.7788839
0 -0 -0
5.3983426 -1.2072232 -1.7411609
5.3528047 -1.2315661 -1.7285864
5.2960587 -1.2527643 -1.7123318
5.2947459 -1.2868116 -1.7144786
5.2913675 -1.3204286 -1.7160121
5.3172803 -1.3616143 -1.7273597
5.3014612 -1.3922793 -1.7249061
5.2891426 -1.4237918 -1.7236794
5.2619567 -1.4511538 -1.7175455
5.2520375 -1.4831543 -1.7172388
5.2382665 -1.5140299 -1.7157054
5.2115369 -1.5410112 -1.7098782
5.1937842 -1.5704784 -1.707118
5.1858687 -1.6028799 -1.7077314
5.167768 -1.6320881 -1.7049712
5.1504102 -1.6614269 -1.7025176
5.1238475 -1.6876348 -1.6969972
5.1025705 -1.7154005 -1.6933168
5.0892482 -1.7457498 -1.6923968
5.0748472 -1.7756859 -1.69117
5.0486178 -1.8013504 -1.6859562
5.0321035 -1.8303409 -1.6841161
5.0100694 -1.8572105 -1.6804358
5.018167 -1.8953197 -1.687183
5.0197668 -1.9312041 -1.6917834
4.998075 -1.9581472 -1.6884098
4.967402 -1.9813685 -1.6819693
4.9489784 -2.0093031 -1.6798223
4.9251213 -2.034904 -1.6758354
4.9046469 -2.0617645 -1.6730752
4.8700266 -2.0824597 -1.6654079
4.8589029 -2.1130619 -1.6660212
4.8554206 -2.1470721 -1.6693949
4.842155 -2.1768241 -1.6693949
4.8269758 -2.2057023 -1.6687815
4.8073087 -2.232471 -1.6666346
4.8081517 -2.2688344 -1.6718484
4.7907071 -2.2966473 -1.6706216
4.7756696 -2.3255825 -1.6703149
4.7587509 -2.3535752 -1.6693949
4.7331638 -2.3771744 -1.6654079
4.7049236 -2.3992505 -1.6605008
4.7011003 -2.4337652 -1.6644877
4.6843939 -2.461679 -1.6638744
4.67172 -2.4917197 -1.6647944
4.6437888 -2.5135391 -1.660194
4.6299472 -2.5429025 -1.6608075
4.6258955 -2.5777521 -1.6651012
4.6141343 -2.6084306 -1.6666346
4.598042 -2.6366932 -1.6666346
4.5883584 -2.6686864 -1.6690881
4.5686188 -2.6948547 -1.6678613
4.5609813 -2.7282131 -1.671235
4.579145 -2.7773798 -1.6844227
4.5709343 -2.8109109 -1.6877964
4.551178 -2.8373938 -1.6868763
4.5031123 -2.8459363 -1.675222
4.4895716 -2.8760812 -1.6767554
4.4614635 -2.8968341 -1.6727685
4.43963 -2.9215376 -1.671235
4.4144945 -2.9439692 -1.6684748
4.4018669 -2.9747324 -1.6706216
4.3827462 -3.0011477 -1.6703149
4.3478293 -3.0165858 -1.6638744
4.3237882 -3.0393739 -1.6617275
4.3104835 -3.0697131 -1.6638744
4.2830777 -3.0899765 -1.6605008
4.2686472 -3.1195693 -1.6623409
4.2501903 -3.1462691 -1.6626476
4.2391806 -3.1785712 -1.6660212
4.2188396 -3.2039468 -1.6657145
4.196084 -3.2274508 -1.6644877
4.1882133 -3.2624981 -1.6693949
4.1733465 -3.2922628 -1.6715417
4.1612458 -3.3243446 -1.6749153
4.1252327 -3.3372402 -1.6684748
4.0987887 -3.3576627 -1.6660212
4.0861664 -3.3894353 -1.6693949
4.0609198 -3.4107699 -1.6675547
4.0377407 -3.4337728 -1.6666346
4.0151529 -3.4572408 -1.6660212
3.9917123 -3.4799354 -1.6651012
3.9674308 -3.5018425 -1.6638744
3.940902 -3.5216796 -1.6617275
3.9171023 -3.5438781 -1.6608075
3.8882663 -3.5614159 -1.6577406
3.9451902 -3.6583552 -1.6923968
2.3935344 -2.2463682 -1.0164472
2.3831549 -2.2642915 -1.0179806
2.3692164 -2.2788715 -1.0179806
3.772419 -3.6743619 -1.6555938
3.7559009 -3.7034559 -1.6583539
3.7331061 -3.7264318 -1.6583539
3.6994615 -3.7384405 -1.6534469
3.6757879 -3.7603889 -1.6531402
3.6599164 -3.7904058 -1.6565138
3.6418443 -3.8183024 -1.6589673
3.6320503 -3.8551276 -1.6654079
3.600548 -3.868978 -1.6617275
3.5677247 -3.8811855 -1.6574339
3.5387259 -3.8973651 -1.6549803
3.516016 -3.9204223 -1.6555938
3.4918945 -3.9419224 -1.6555938
3.4613757 -3.9561095 -1.6525267
3.425837 -3.9643083 -1.6470063
3.4002125 -3.9838059 -1.6463929
3.3652782 -3.9922204 -1.6411792
3.3419368 -4.0142574 -1.6417925
3.3208687 -4.0390997 -1.6436327
3.3194149 -4.088223 -1.6555938
3.3174822 -4.1374793 -1.6675547
3.2914419 -4.1570106 -1.667248
1.9969879 -2.5534673 -1.0032594
1.9824455 -2.5671797 -1.0038728
1.9626184 -2.5739958 -1.0017259
1.9433545 -2.5814259 -0.99988574
1.9269111 -2.5925374 -0.99957907
1.9109674 -2.6043119 -0.99957907
1.721944 -2.3769712 -0.90450448
1.6763393 -2.3441241 -0.8873297
1.6536956 -2.3426986 -0.88272935
3.0308807 -4.3518023 -1.6675547
3.0046604 -4.3711019 -1.6678613
2.967634 -4.3744884 -1.6620343
2.9433835 -4.3965702 -1.6635677
2.9048128 -4.3970737 -1.6568204
2.8725824 -4.4068398 -1.6537535
2.8763695 -4.4724216 -1.672155
2.8524413 -4.4956131 -1.674302
2.8202596 -4.5057683 -1.6715417
2.7965586 -4.5294685 -1.6739953
2.755352 -4.5245905 -1.6657145
2.7407644 -4.5634456 -1.6739953
2.7068937 -4.5703478 -1.6703149
2.6687233 -4.5696087 -1.6638744
2.6396849 -4.5842476 -1.6632611
2.6025825 -4.5846295 -1.6574339
2.5711503 -4.5946975 -1.655287
2.5383143 -4.6020517 -1.6522201
2.5082114 -4.6141944 -1.6509933
2.4825473 -4.6345325 -1.6528335
2.4709392 -4.6816683 -1.6644877
2.4522614 -4.7161665 -1.6715417
2.4167717 -4.7184162 -1.6669413
2.3856318 -4.7289066 -1.6654079
2.3620737 -4.7545381 -1.6693949
2.3198962 -4.7424345 -1.6598874
1.4841372 -3.0807655 -1.0606108
1.465206 -3.0898139 -1.0606108
1.4458175 -3.0978837 -1.0603042
2.2075758 -4.8083205 -1.6635677
2.1760726 -4.8174376 -1.6620343
2.1314068 -4.7967734 -1.6500733
2.1042199 -4.8149948 -1.6519134
2.0750117 -4.8286901 -1.6522201
2.0457146 -4.8422079 -1.6525267
2.0214374 -4.8678555 -1.6571271
1.9983599 -4.8969126 -1.6629543
1.9661514 -4.9037809 -1.6611142
1.9416027 -4.9299235 -1.6660212
1.9106305 -4.9399686 -1.6654079
1.8769064 -4.9426999 -1.6623409
1.8511945 -4.9666109 -1.6666346
1.8138233 -4.9591026 -1.660194
1.7807906 -4.9629712 -1.6577406
1.7509364 -4.9756002 -1.6583539
1.7197531 -4.9844503 -1.6577406
1.690051 -4.9976139 -1.6586607
1.6599528 -5.009697 -1.659274
1.6300634 -5.0225043 -1.660194
1.5995033 -5.0333185 -1.6605008
1.5700018 -5.0475831 -1.6620343
1.5373393 -5.0516572 -1.660194
1.506314 -5.0609951 -1.660194
1.4736377 -5.0646586 -1.6583539
1.4409732 -5.0681119 -1.6565138
1.4090853 -5.0741067 -1.6555938
1.3759339 -5.0753074 -1.6531402
1.3433073 -5.0781336 -1.6513
1.3111728 -5.0825934 -1.6500733
1.2797301 -5.0896196 -1.6497666
1.250739 -5.1066217 -1.6528335
1.2187201 -5.1114221 -1.6519134
0.75481284 -3.2522705 -1.034542
0 -0 -0
1.1240221 -5.1311293 -1.6513
0.69877648 -3.2842338 -1.0406759
0.67899573 -3.290324 -1.0412892
0.66028446 -3.3018956 -1.0437428
0.63658082 -3.2881289 -1.0379156
0.6114974 -3.2657759 -1.0293282
0.59482962 -3.2881999 -1.035462
0.57529581 -3.2955384 -1.0366888
0.55711275 -3.3112092 -1.0406759
0.53891081 -3.3277199 -1.0449696
0.52198786 -3.3535366 -1.0523301
0.50112051 -3.3547935 -1.0517168
0.48119903 -3.3625166 -1.0532502
0.45927063 -3.3559752 -1.0501833
0.43313763 -3.3162575 -1.0363821
0.4130156 -3.3207419 -1.0369955
0.38739857 -3.2787857 -1.022581
0.36378986 -3.2498851 -1.0124601
0.35461447 -3.3542855 -1.0455829
0.33412021 -3.3573453 -1.0458896
0.31421861 -3.366914 -1.0483432
0.29207221 -3.3517103 -1.0428227
0.27096564 -3.3467982 -1.0406759
0.25466463 -3.4053488 -1.0590774
0.23421887 -3.4134943 -1.0612242
0.21232553 -3.3996677 -1.0563171
0.19071706 -3.3876019 -1.0520234
0.16765493 -3.3430781 -1.0373023
0.14639181 -3.3269277 -1.0317818
0.12608245 -3.3306167 -1.0327018
0.1054946 -3.326571 -1.0311683
0.085249163 -3.3338161 -1.0333152
0.064519204 -3.3200018 -1.0287148
0.044307046 -3.3327079 -1.0327018
0.023818199 -3.3272061 -1.0308617
0.0034011097 -3.325386 -1.0302483
-0.0170603 -3.335814 -1.0336219
-0.037638515 -3.3451641 -1.0366888
-0.058062091 -3.3391602 -1.0348487
-0.078731418 -3.3463533 -1.0373023
-0.099605411 -3.3572237 -1.0409825
-0.11831162 -3.3042343 -1.0241145
-0.1381413 -3.2929854 -1.0207409
-0.15820591 -3.2892239 -1.0198208
-0.17895605 -3.2986455 -1.0231944
-0.19907734 -3.2955852 -1.022581
-0.21910426 -3.2914526 -1.0216609
-0.24033678 -3.3042853 -1.0262613
-0.26181018 -3.3179297 -1.0311683
-0.2852425 -3.3522985 -1.0428227
-0.30372232 -3.3277369 -1.035462
-0.3243205 -3.3277054 -1.0360755
-0.34443742 -3.3228126 -1.0351554
-0.36221257 -3.2969847 -1.0274881
-0.38166514 -3.2880821 -1.0253413
-0.40044278 -3.2743416 -1.0216609
-0.41687623 -3.2435029 -1.0124601
-0.43829963 -3.2522027 -1.0161405
-0.45837975 -3.2503946 -1.0164472
-0.4785932 -3.249404 -1.0170605
-0.50025976 -3.257695 -1.0207409
-0.52400333 -3.2780597 -1.0284082
-0.54739022 -3.2944994 -1.0348487
-0.58396554 -3.385807 -1.0658246
-0.60707927 -3.3952768 -1.0701183
-0.62494987 -3.3755784 -1.0649046
-0.65049207 -3.3969188 -1.0731852
-0.6668815 -3.3704562 -1.0658246
-0.68411559 -3.3495159 -1.0603042
-0.7076025 -3.3592248 -1.0649046
-0.73305404 -3.3771417 -1.0722651
-0.76436561 -3.4199502 -1.0879065
-0.7842676 -3.410558 -1.086373
-0.8036446 -3.3991983 -1.0842261
-0.82156187 -3.3821802 -1.0802392
-0.84206843 -3.3761523 -1.0799325
-0.85756946 -3.3506377 -1.0731852
-0.83722109 -3.1897411 -1.0213542
-0.8218649 -3.0549598 -0.97811061
-0.83097124 -3.0149941 -0.96645629
-0.84557229 -2.9960997 -0.96185595
-0.86870074 -3.0073128 -0.96737641
-0.99436039 -3.3642621 -1.0891331
-1.0240818 -3.3881607 -1.099254
-1.0743847 -3.4772902 -1.1314567
-1.1077479 -3.5087497 -1.1443378
-1.1506016 -3.5680089 -1.1667264
-1.1557875 -3.5102594 -1.1495515
-1.0644041 -3.1675107 -1.035462
-1.0832015 -3.1591196 -1.0348487
-1.1041379 -3.1569054 -1.0363821
-1.1154863 -3.1276615 -1.0287148
-1.1203324 -3.0814042 -1.0152204
-1.1362392 -3.0664403 -1.0124601
-1.1829622 -3.1333094 -1.0379156
-1.9072676 -4.9575887 -1.6703149
-1.4613731 -3.7308846 -1.2498399
-1.4990566 -3.7589753 -1.2627209
-1.5023897 -3.7012067 -1.2458529
-1.4167048 -3.4297967 -1.1544586
-1.4015573 -3.3350587 -1.1244028
-1.413383 -3.3062694 -1.1173489
-1.4552906 -3.3472822 -1.1348304
-1.4634777 -3.3104365 -1.1250162
-1.4638493 -3.2571247 -1.1093749
-1.4790578 -3.2376938 -1.1056945
-1.4828528 -3.1940305 -1.0934269
-1.5052677 -3.1908967 -1.0955738
-1.5145273 -3.1601458 -1.0879065
-1.5288863 -3.1405253 -1.0842261
-1.5371517 -3.1089053 -1.0762521
-1.5557712 -3.0985646 -1.0759454
-1.5829735 -3.1050689 -1.0817726
-1.588425 -3.0690975 -1.0722651
-1.6058979 -3.056766 -1.0713451
-1.613869 -3.0267015 -1.0639844
-1.6333165 -3.0184159 -1.0645978
-1.6325544 -2.9733026 -1.0517168
-1.654012 -2.9690487 -1.0538636
-1.6712614 -2.9571872 -1.0532502
-1.700269 -2.9658651 -1.0603042
-1.7280096 -2.9718299 -1.066438
-1.743793 -2.9570725 -1.0649046
-1.7472413 -2.9218154 -1.0557038
-1.7577296 -2.898834 -1.0511034
-1.7829648 -2.9001541 -1.0557038
-1.7961928 -2.881891 -1.0529435
-1.8143506 -2.8716202 -1.0532502
-1.8380995 -2.8700495 -1.0569305
-1.8442681 -2.8411572 -1.0501833
-1.8548622 -2.8194528 -1.0461963
-1.8694859 -2.8040597 -1.0446628
-1.8589344 -2.7515337 -1.0287148
-1.9080588 -2.7871888 -1.0471164
-1.9484627 -2.8090503 -1.0603042
-1.9530689 -2.7791352 -1.0532502
-1.9678752 -2.7639983 -1.0520234
-1.9903682 -2.7595894 -1.0550903
-2.0061398 -2.7457881 -1.054477
-2.019551 -2.7288377 -1.0526369
-2.0299742 -2.7080193 -1.0492632
-2.0465519 -2.6955125 -1.0492632
-2.0560873 -2.6738524 -1.0455829
-2.0607536 -2.6461713 -1.0394491
-2.0745926 -2.6304884 -1.0382223
-2.1031733 -2.6333232 -1.0446628
-2.1288719 -2.6322064 -1.0495698
-2.1534295 -2.6294007 -1.0538636
-2.1774244 -2.6256597 -1.0578506
-2.2210481 -2.6450417 -1.0716517
-2.2310684 -2.6241145 -1.0685848
-2.2440214 -2.6067698 -1.0670514
-2.2524667 -2.5843439 -1.0633711
-2.2638714 -2.5654802 -1.0612242
-2.3062141 -2.5813434 -1.0741053
-2.2715507 -2.5113959 -1.0498766
-2.3049226 -2.5170593 -1.0584639
-2.309319 -2.4910069 -1.0532502
-2.3317277 -2.4844222 -1.0566238
-2.333811 -2.4562724 -1.05049
-2.3521388 -2.4453349 -1.0520234
-2.3564706 -2.4199495 -1.0471164
-2.3532271 -2.3871496 -1.0388356
-2.3671577 -2.3719921 -1.038529
-2.4067051 -2.3821886 -1.0498766
-2.4301269 -2.376024 -1.0538636
-2.440551 -2.3571022 -1.0520234
-2.4570346 -2.3440533 -1.0529435
-2.4630561 -2.3211026 -1.0492632
-2.4723735 -2.3014081 -1.0471164
-2.4857473 -2.2855504 -1.0468097
-2.4912665 -2.2625792 -1.0431293
-2.5199859 -2.2605925 -1.0495698
-2.5452108 -2.2551832 -1.054477
-2.5640156 -2.2439096 -1.0566238
-2.5791764 -2.2293794 -1.0572373
-2.5978758 -2.2178361 -1.0593841
-2.6165304 -2.2061472 -1.0615309
-2.6307495 -2.1906598 -1.0618376
-2.6382587 -2.169642 -1.0593841
-2.653739 -2.1552124 -1.0603042
-2.6602287 -2.1335316 -1.0575439
-2.6598353 -2.1065364 -1.0520234
-2.6749606 -2.0919344 -1.0529435
-2.6869926 -2.0749004 -1.0526369
-2.7095156 -2.0658731 -1.0566238
-2.7236619 -2.0503535 -1.0572373
-2.7323709 -2.0307653 -1.0557038
-2.7470827 -2.0156498 -1.0566238
-2.7424362 -1.9864782 -1.0498766
-2.7909718 -1.9956208 -1.0642911
-2.7844965 -1.9652922 -1.0569305
-2.8160322 -1.9617649 -1.0645978
-2.8405681 -1.9530731 -1.0695049
-2.8469839 -1.9318677 -1.067358
-2.8279333 -1.8937186 -1.055397
-2.8482368 -1.8821002 -1.0587707
-2.8724911 -1.8729017 -1.0636778
-2.8751218 -1.8495797 -1.0603042
-2.8823977 -1.8293546 -1.0587707
-2.9306858 -1.8348558 -1.0728785
-2.9329791 -1.8113405 -1.0695049
-2.961112 -1.8037024 -1.0759454
-2.9737556 -1.7864791 -1.0765588
-3.0018616 -1.778381 -1.0829993
-3.020937 -1.7647268 -1.0860662
-3.0358331 -1.7485313 -1.0875998
-3.0556109 -1.7350376 -1.0909734
-3.0844748 -1.7264776 -1.0977206
-3.1366873 -1.7304946 -1.1130552
-3.141392 -1.708035 -1.1109084
-3.1627216 -1.6945679 -1.1148953
-3.231148 -1.705772 -1.1360571
-3.260134 -1.6955702 -1.1428044
-3.3230057 -1.7024255 -1.1618192
-3.341038 -1.6858605 -1.1645795
-3.3828619 -1.6809905 -1.175927
-3.438432 -1.682359 -1.1921818
-3.429822 -1.6521479 -1.1854346
-3.457958 -1.63963 -1.1918751
-3.6594582 -1.7076803 -1.2599608
-3.7183123 -1.7074231 -1.2771355
-3.7521415 -1.6951499 -1.2854162
-3.7998774 -1.6887062 -1.298604
-3.9383876 -1.7213594 -1.3436878
-4.055573 -1.7429842 -1.3811042
-4.0854821 -1.7262118 -1.3878514
-4.1241283 -1.712786 -1.3976655
-4.1513057 -1.6942779 -1.4034927
-4.2093334 -1.6878911 -1.4200541
-4.2222681 -1.6630771 -1.4209741
-4.3744407 -1.6920428 -1.470045
-4.5057654 -1.7110968 -1.5117551
-4.4903131 -1.6737829 -1.502861
-4.5228481 -1.6543683 -1.5105283
-4.5669599 -1.6387933 -1.5221826
-4.9729066 -1.749989 -1.6574339
-5.0159445 -1.7306117 -1.6684748
-5.0670462 -1.713514 -1.6822759
-5.1208358 -1.6967514 -1.6969972
-5.1637444 -1.6758691 -1.7080381
-5.1648583 -1.6412728 -1.7049712
-5.2466364 -1.6318679 -1.7291999
-5.391325 -1.6406274 -1.7745903
-5.4250107 -1.6145701 -1.7825643
-5.5362654 -1.610747 -1.8166071
-5.7145114 -1.6246057 -1.8730385
-5.774816 -1.6035079 -1.8899065
-5.8681483 -1.5906893 -1.9178156
-5.9054041 -1.5619491 -1.9270163
-5.9388409 -1.5318613 -1.9349903
-5.9573598 -1.4977114 -1.9380572
-5.9803052 -1.464523 -1.9426576
-5.9938083 -1.4289037 -1.9441911
-6.0043178 -1.3925291 -1.9448044
-6.0173917 -1.356707 -1.9463379
-6.0256033 -1.3197595 -1.9463379
-6.0205531 -1.2799935 -1.9420443
-6.0180392 -1.2409155 -1.9386706
-6.0152726 -1.2019167 -1.935297
-6.0421591 -1.1687775 -1.9417375
-6.0510879 -1.1320311 -1.9423509
-6.0626035 -1.0957266 -1.9438844
-6.0626488 -1.057363 -1.9417375
-6.08498 -1.0228226 -1.9469513
-6.0808053 -0.98379642 -1.9435776
-6.0660357 -0.94325322 -1.9368304
-6.0811234 -0.90741795 -1.9398974
-6.0799809 -0.86914617 -1.9377506
-6.0861425 -0.83195245 -1.9380572
-6.1005712 -0.79582238 -1.9411242
-6.1138406 -0.75942934 -1.9438844
-6.1637583 -0.72724617 -1.9586056
-6.17378 -0.69004565 -1.9604458
-0 -0 -0
-0 -0 -0
-0 -0 -0
-0 -0 -0
-0 -0 -0
-0 -0 -0
-0 -0 -0
-0 -0 -0
-0 -0 -0
-0 -0 -0
-0 -0 -0
-0 -0 -0
-0 -0 -0
-0 -0 -0
-0 -0 -0
-0 -0 -0
-0 -0 -0
-0 -0 -0
-0 0 -0
-0 0 -0
-0 0 -0
-0 0 -0
-0 0 -0
-0 0 -0
-0 0 -0
-0 0 -0
-0 0 -0
-6.1771073 0.37415147 -1.9527785
-6.1756454 0.41211 -1.9530852
-0 -0 -0
-0 -0 -0
-0 -0 -0
-0 -0 -0
-0 -0 -0
-0 0 -0
-0 0 -0
-0 0 -0
-0 0 -0
-0 0 -0
-0 0 -0
-0 0 -0
-0 0 -0
-0 0 -0
-0 0 -0
-0 0 -0
-0 0 -0
-0 0 -0
-0 0 -0
-0 0 -0
-0 0 -0
-0 0 -0
-0 0 -0
-0 0 -0
-0 0 -0
-0 0 -0
-0 0 -0
-0 0 -0
-0 0 -0
-0 0 -0
-5.822216 0.93160784 -1.9291179
-5.81639 0.96731478 -1.9291179
-5.8075414 1.0025015 -1.928167
-5.7966127 1.037282 -1.9265821
-5.7901392 1.0728298 -1.9265821
-5.782516 1.1081588 -1.9262651
-5.7774682 1.1439871 -1.9268991
-5.77034 1.1794155 -1.9268991
-5.7639227 1.2149949 -1.9272161
-5.7517252 1.2493325 -1.9256312
-5.7532067 1.2866703 -1.9288009
-5.7350364 1.3196084 -1.9253142
-5.7240624 1.3541182 -1.9243633
-5.7147245 1.388991 -1.9240463
-5.6978121 1.4219635 -1.9211935
-5.6871424 1.4564273 -1.9205596
-5.6799335 1.4917773 -1.9211935
-5.6688414 1.5261077 -1.9205596
-5.63377 1.5538034 -1.9116843
-5.6442103 1.5940119 -1.9186578
-5.6233897 1.6254545 -1.914854
-5.6142197 1.6601973 -1.915171
-5.5766916 1.6863803 -1.9056618
-5.587081 1.7270072 -1.9129522
-5.5845184 1.7638266 -1.915805
-5.5609536 1.7939836 -1.9113673
-5.5606518 1.8316311 -1.915171
-5.5547023 1.8675293 -1.9170729
-5.5422416 1.9012694 -1.9167559
-5.5286808 1.9346138 -1.916122
-5.5265322 1.9720062 -1.9196087
-5.5170021 2.0068517 -1.9205596
-5.5001383 2.0390174 -1.9189748
-5.4839745 2.0713871 -1.9177068
-5.4685059 2.1039755 -1.9167559
-5.455493 2.13749 -1.9167559
-5.4343462 2.167762 -1.9139031
-5.4174275 2.1996388 -1.9126352
-5.4152246 2.2375457 -1.9167559
-5.3751631 2.2597058 -1.9072467
-5.3585801 2.2915261 -1.9062958
-5.3565955 2.3296573 -1.9107335
-5.3404655 2.3617139 -1.9100995
-5.3561506 2.4080477 -1.9211935
-5.3179827 2.4302251 -1.9126352
-5.3046913 2.4636087 -1.9132692
-5.2826133 2.4928737 -1.9107335
-5.2680731 2.5256503 -1.9110503
-5.2550349 2.5591726 -1.9120013
-5.2290311 2.5863235 -1.9081976
-5.2096729 2.616657 -1.9069297
-5.1994343 2.6515896 -1.9091486
-5.1830664 2.6834428 -1.9091486
-5.1765785 2.7204888 -1.9129522
-5.1614623 2.7530932 -1.9135861
-5.1444726 2.7847114 -1.9135861
-5.1223011 2.8134856 -1.9116843
-5.1057696 2.8453243 -1.9120013
-5.0783072 2.8709986 -1.9081976
-5.0540133 2.8983302 -1.9056618
-5.0336747 2.9278562 -1.9047109
-5.024601 2.9639871 -1.9081976
-5.007134 2.9952486 -1.9085146
-4.9854174 3.0239482 -1.9072467
-4.9716163 3.0574617 -1.9091486
-4.9511528 3.0869062 -1.9085146
-4.9377313 3.1207743 -1.9107335
-4.9152946 3.1489666 -1.9094656
-4.9030399 3.1837151 -1.9123182
-4.8810358 3.2121758 -1.9113673
-4.867547 3.2462742 -1.9139031
-4.8475366 3.2760799 -1.9139031
-4.8320394 3.3089769 -1.915805
-4.811645 3.3385634 -1.915805
-4.7879653 3.3658428 -1.9145371
-4.764905 3.3935075 -1.9135861
-4.7363014 3.4171319 -1.9104165
-4.7029929 3.4371755 -1.9053448
-4.6749535 3.4608896 -1.902492
-4.6619768 3.4957676 -1.9059788
-4.6245775 3.5122621 -1.8993224
-4.6112094 3.546932 -1.902809
-4.5960932 3.5804043 -1.9056618
-4.5732932 3.6079507 -1.9053448
-4.5562563 3.6400876 -1.9075637
-4.5249867 3.6608179 -1.90376
-4.5149121 3.6987307 -1.9091486
-4.4877524 3.7227311 -1.9072467
-4.4648256 3.7501974 -1.9072467
-4.4366732 3.7732217 -1.9050279
-4.4134374 3.8003736 -1.9050279
-4.3900356 3.8273823 -1.9050279
-4.3678908 3.8555021 -1.9056618
-4.3413229 3.8797028 -1.9043939
-4.3139191 3.9030862 -1.902809
-4.2912879 3.9307637 -1.903443
-4.2601333 3.950572 -1.9002733
-4.2358131 3.9766371 -1.9002733
-4.2285209 4.0188861 -1.9081976
-4.1942129 4.0355506 -1.90376
-4.1788845 4.0704741 -1.9081976
-4.1511283 4.0933752 -1.9069297
-4.1279478 4.120779 -1.9078807
-4.1025853 4.1460299 -1.9078807
-4.0750794 4.1690903 -1.9069297
-4.0454688 4.1899223 -1.9050279
-4.0216479 4.2167249 -1.9059788
-3.9976499 4.2433929 -1.9069297
-3.9605529 4.2560396 -1.9015411
-3.9317963 4.2774682 -1.9002733
-3.9099393 4.3064275 -1.902492
-3.8847086 4.3317494 -1.903126
-3.8580563 4.355504 -1.903126
-3.8318834 4.3798084 -1.903443
-3.7974954 4.3946271 -1.8996394
-3.7747691 4.422895 -1.9018581
-3.7493937 4.4481487 -1.902809
-3.7196023 4.4681554 -1.9015411
-3.6885021 4.4864988 -1.8996394
-3.6650889 4.5142002 -1.9018581
-3.636728 4.5358639 -1.9015411
-3.6158934 4.5670156 -1.9053448
-3.5878026 4.5891166 -1.9053448
-3.557838 4.6087923 -1.9043939
-3.5254669 4.6252561 -1.9021751
-3.4941688 4.643012 -1.9005903
-3.4576943 4.653707 -1.8961526
-3.4318798 4.678659 -1.8977375
-3.3992131 4.6942515 -1.8955187
-3.3775165 4.7250504 -1.8996394
-3.3418984 4.7363863 -1.8958356
-3.302474 4.7420158 -1.8898132
-3.2845986 4.7786031 -1.8964696
-3.2536182 4.7963128 -1.8955187
-3.2230721 4.81461 -1.8948847
-3.1934695 4.8342957 -1.8948847
-3.1596031 4.8474431 -1.8923489
-3.1256957 4.8603578 -1.8898132
-3.0988634 4.8842497 -1.8917149
-3.0743713 4.9120154 -1.8952017
-3.0416825 4.9267521 -1.8936168
-3.0133686 4.9485626 -1.8948847
-2.9888084 4.9767156 -1.8986884
-2.9567654 4.9925127 -1.8977375
-2.9265547 5.0113802 -1.8980545
-2.8910172 5.0210242 -1.8948847
-2.8606226 5.0394931 -1.8952017
-2.8264048 5.0511575 -1.8929828
-2.7981069 5.0733876 -1.8948847
-2.7732663 5.1021266 -1.8993224
-2.7432518 5.1215549 -1.9002733
-2.7086756 5.1324196 -1.8980545
-2.6753824 5.1455774 -1.8967866
-2.6407325 5.1559873 -1.8945677
-2.6081917 5.1704001 -1.8939338
-2.5764177 5.186306 -1.8939338
-2.5420458 5.1969056 -1.8920319
-2.5101104 5.2124052 -1.8920319
-2.4801121 5.2319942 -1.8936168
-2.4447541 5.2402372 -1.8910811
-2.4125545 5.2551394 -1.8910811
-2.3787024 5.2663865 -1.8898132
-2.3471138 5.2826161 -1.8904471
-2.3195939 5.3082161 -1.8945677
-2.2843583 5.3162494 -1.8923489
-2.2531719 5.3336601 -1.8936168
-2.2218578 5.3508887 -1.8948847
-2.1875501 5.3609085 -1.8936168
-2.158145 5.3830333 -1.8967866
-2.1240318 5.3935266 -1.8958356
-2.0891869 5.4020352 -1.8942508
-2.0522974 5.4049993 -1.8907641
-2.0194256 5.4183788 -1.8910811
-1.988096 5.4360123 -1.8929828
-1.9543834 5.447216 -1.8926659
-1.923757 5.4671569 -1.8955187
-1.8858436 5.4663062 -1.8910811
-1.8568256 5.4912515 -1.8958356
-1.823097 5.5025411 -1.8958356
-1.7892996 5.5136237 -1.8958356
-1.7511258 5.510941 -1.8910811
-1.7164332 5.5188651 -1.8901302
-1.6833662 5.5320148 -1.8910811
-1.6442494 5.5249686 -1.8850585
-1.6097879 5.5331321 -1.8844246
-1.5773635 5.5483789 -1.8863264
-1.5435433 5.558867 -1.8866434
-1.510895 5.5737257 -1.8885453
-1.4781222 5.5883927 -1.8904471
-1.4449894 5.6019487 -1.8920319
-1.4096642 5.6070304 -1.8907641
-1.3693662 5.5916233 -1.8825227
-1.3405311 5.6229844 -1.8904471
-1.3068613 5.6347995 -1.8917149
-1.2689234 5.6279092 -1.8866434
-1.2347733 5.6374421 -1.8872774
-1.2015405 5.6514063 -1.8894962
-1.1666499 5.6577435 -1.8891792
-1.1289382 5.6499147 -1.8841076
-1.095331 5.6623225 -1.8860095
-1.0619627 5.6763945 -1.8885453
-1.0266068 5.6800036 -1.8875943
-0.99255073 5.6908674 -1.8891792
-0.95981556 5.7099447 -1.8936168
-0.92536807 5.7194719 -1.8948847
-0.89171463 5.7344136 -1.8980545
-0.85623205 5.7379012 -1.8974205
-0.81832314 5.7242694 -1.8910811
-0.78382689 5.733881 -1.8926659
-0.74703389 5.7263565 -1.8885453
-0.71024579 5.7176557 -1.8841076
-0.67537194 5.7237902 -1.8847415
-0.64044958 5.7297115 -1.8853755
-0.60547996 5.7354198 -1.8860095
-0.57037055 5.7399707 -1.8863264
-0.53575641 5.7499723 -1.8885453
-0.50112319 5.7607107 -1.8910811
-0.46538442 5.7589502 -1.8894962
-0.42975676 5.7579141 -1.8882283
-0.39454848 5.7623353 -1.8888623
-0.3587707 5.7580214 -1.8866434
-0.32268807 5.7468572 -1.8822057
-0.28718281 5.7439928 -1.880621
-0.25176647 5.7418566 -1.879353
-0.21645878 5.7413979 -1.8787191
-0.18125613 5.743566 -1.8790361
-0.1459142 5.7407775 -1.8777682
-0.11090687 5.752944 -1.8815719
-0.075630441 5.7554126 -1.8822057
-0.040321179 5.7567167 -1.8825227
-0.0049996488 5.7587528 -1.8831567
0.030325629 5.7567782 -1.8825227
0.065615736 5.7536387 -1.8815719
0.10086846 5.7502828 -1.880621
0.13621679 5.7524004 -1.8815719
0.17196155 5.7666245 -1.8866434
0.20717156 5.7607217 -1.8850585
0.24235544 5.7555513 -1.8837906
0.27789453 5.7586927 -1.8853755
0.3133269 5.7587733 -1.8860095
0.3477971 5.7425418 -1.8812549
0.38283688 5.7374606 -1.880304
0.41734523 5.7255445 -1.8771342
0.45426115 5.7455673 -1.8847415
0.48870185 5.733222 -1.8815719
0.52490646 5.7414494 -1.8853755
0.55975711 5.7343445 -1.8841076
0.59591055 5.7402358 -1.8872774
0.63112074 5.7364712 -1.8872774
0.66619778 5.7315488 -1.8869604
0.69974035 5.7141733 -1.8825227
0.73418373 5.7050691 -1.8809379
0.76828825 5.6938772 -1.8787191
0.80281317 5.6862383 -1.8777682
0.83782643 5.6821437 -1.8780851
0.87109125 5.666584 -1.8745984
0.90554476 5.6592598 -1.8739644
0.94025224 5.6535969 -1.8739644
0.97395676 5.6421132 -1.8720626
1.0082238 5.6341639 -1.8714287
1.0422572 5.6250734 -1.8704778
1.077823 5.6241617 -1.8723795
1.112312 5.6174421 -1.8723795
1.1488475 5.6207333 -1.8758663
1.182923 5.611722 -1.8752323
1.2195473 5.6145535 -1.8787191
1.2541815 5.6078901 -1.8790361
1.2889925 5.6019378 -1.87967
1.3233411 5.5939231 -1.87967
1.3576399 5.5856981 -1.87967
1.3918875 5.5772624 -1.87967
1.425377 5.5658607 -1.8787191
1.4597425 5.5579271 -1.8790361
1.4920925 5.5424547 -1.8768172
1.5275849 5.538681 -1.8787191
1.5630871 5.5346804 -1.880621
1.5996509 5.5340967 -1.8837906
1.6354595 5.5305438 -1.8860095
