# .PCD v0.7 - Point Cloud Data file format
VERSION 0.7
FIELDS x y z
SIZE 4 4 4
TYPE F F F
COUNT 1 1 1
WIDTH 1571
HEIGHT 1
VIEWPOINT 0 0 0 1 0 0 0
POINTS 1571
DATA ascii
3.8504097 4.5841317 -1.8877597
3.8753812 4.5567951 -1.8862263
3.9057531 4.5358148 -1.887453
3.9466488 4.5268278 -1.8938936
3.9800208 4.5089474 -1.8966538
4.0114183 4.488699 -1.8984939
4.0331364 4.4576502 -1.8957337
4.0584831 4.4307141 -1.8948137
4.0732937 4.3924704 -1.8889865
4.0962591 4.3632317 -1.8871464
4.1209869 4.3359461 -1.8862263
4.1481743 4.311264 -1.8865329
4.1798635 4.2911839 -1.8889865
4.212131 4.271554 -1.8917466
4.2396069 4.2469754 -1.8923601
4.2689691 4.2242289 -1.8938936
4.2845964 4.1879773 -1.8892932
4.3156915 4.1668968 -1.8917466
4.3315334 4.1311431 -1.887453
4.3699656 4.1168857 -1.8932801
4.3944468 4.0893459 -1.8929734
4.4159517 4.0590854 -1.89144
4.4428892 4.0338321 -1.8923601
4.4675565 4.0064955 -1.8923601
4.4892054 3.9764836 -1.8911333
4.5156693 3.9507432 -1.8920534
4.5405459 3.9235835 -1.8923601
4.5659838 3.8968847 -1.8929734
4.5912642 3.8700216 -1.8935869
4.6200452 3.8460391 -1.8957337
4.6501751 3.8230574 -1.8984939
4.6713285 3.7926531 -1.8975738
4.6974826 3.7663 -1.8988006
4.7130404 3.7314992 -1.8957337
4.741847 3.7071989 -1.8981873
4.7645049 3.6780338 -1.8981873
4.7884974 3.6498837 -1.8988006
4.8054781 3.6164281 -1.8966538
4.8130593 3.5760915 -1.8908266
4.8257003 3.5397379 -1.8871464
4.844245 3.5078292 -1.8859196
4.857933 3.4725058 -1.8828527
4.9141502 3.467319 -1.8966538
4.9361138 3.437645 -1.8969605
4.9531913 3.4045978 -1.895427
4.9881682 3.3837566 -1.9009475
5.012001 3.3552036 -1.9021742
5.0372596 3.3275342 -1.9040143
5.0551896 3.2950046 -1.9030943
5.0689068 3.2598071 -1.9006407
5.0928321 3.2311924 -1.9021742
5.1004591 3.1923103 -1.8975738
5.1215706 3.1619539 -1.8981873
5.1441278 3.1324487 -1.8994139
5.1624351 3.1003361 -1.8991073
5.1911898 3.07442 -1.9027876
5.2107787 3.0429893 -1.9030943
5.2334766 3.0133331 -1.9046278
5.2510395 2.9806948 -1.9043211
5.278368 2.9535296 -1.9076947
5.2997251 2.9229245 -1.9089215
5.3150511 2.888988 -1.9080014
5.3309994 2.8554225 -1.907388
5.3341079 2.8151088 -1.9021742
5.3479023 2.7805707 -1.9009475
5.3682518 2.7494392 -1.9021742
5.4130673 2.7305896 -1.9122951
5.4561477 2.7104464 -1.9218025
5.4153852 2.6489072 -1.9012542
5.4418283 2.6205828 -1.9049344
5.461246 2.5887733 -1.9061612
5.4787531 2.5560193 -1.9067746
5.5099049 2.5294993 -1.9122951
5.5175142 2.4921188 -1.9095348
5.5414009 2.46208 -1.9126017
5.5625091 2.4306991 -1.9147487
5.567699 2.3923907 -1.911375
5.5743818 2.354851 -1.9086148
5.6089454 2.328994 -1.9156687
5.6107917 2.2895024 -1.911375
5.6335692 2.2585723 -1.9144419
5.6508641 2.2253573 -1.9156687
5.6644125 2.1906424 -1.9156687
5.6857562 2.158884 -1.9184289
5.6971121 2.123292 -1.9178156
5.6993055 2.084374 -1.9141352
5.7308025 2.0561111 -1.9205757
5.7244549 2.0142779 -1.9141352
5.7448049 1.9819075 -1.9168955
5.7532506 1.9454019 -1.9156687
5.7822471 1.9157484 -1.9214958
5.7875552 1.8781776 -1.919349
5.8062277 1.8449351 -1.9218025
5.8219833 1.8106865 -1.923336
5.8266096 1.7729911 -1.9211892
5.8410282 1.7382915 -1.922416
5.8543258 1.7032161 -1.923336
5.865582 1.6675227 -1.9236426
5.8802891 1.632773 -1.9251761
5.8929529 1.5974082 -1.9260962
5.8998828 1.56049 -1.9251761
5.9121122 1.5249722 -1.9260962
5.9047413 1.4844934 -1.9205757
5.9229841 1.4504969 -1.9236426
5.9289951 1.4134651 -1.9227226
5.9394112 1.3774887 -1.923336
5.9449658 1.3403918 -1.922416
5.9642358 1.3063304 -1.9260962
5.9805183 1.2714899 -1.9288565
5.9742241 1.2318895 -1.9242561
5.9900708 1.1968861 -1.9270163
6.0001059 1.1606508 -1.9279364
6.0043073 1.1232885 -1.9270163
6.0148335 1.0871021 -1.928243
6.0185776 1.0496852 -1.927323
6.0324144 1.013997 -1.9297765
6.0375829 0.97681183 -1.9294698
6.0444036 0.9398936 -1.9297765
6.0547638 0.90348965 -1.9313099
6.0592513 0.8661868 -1.9310033
6.0587935 0.82821923 -1.9291631
6.0628176 0.79090464 -1.9288565
6.0703902 0.75404042 -1.9297765
6.0720668 0.71644497 -1.9288565
6.0725646 0.67875177 -1.9276297
6.0813479 0.64197719 -1.9291631
6.0965385 0.60577786 -1.9328434
6.0849771 0.56694883 -1.9279364
6.098772 0.53050679 -1.9313099
6.1095023 0.49368733 -1.9337635
6.1190605 0.45668545 -1.9359103
6.125546 0.41939035 -1.9371371
6.1308541 0.38197383 -1.9380572
6.1359334 0.34450796 -1.9389772
6.1303267 0.30647334 -1.9365238
6.1330428 0.26889411 -1.9368304
6.1241145 0.23086496 -1.9334568
6.1225619 0.19319423 -1.9325367
6.1274381 0.15571927 -1.9337635
6.1311331 0.11817358 -1.9346836
6.1231771 0.080440514 -1.9319234
6.1283145 0.042900309 -1.9334568
6.139884 0.0053045973 -1.9371371
6.1359935 -0.032348335 -1.9359103
6.1423421 -0.07007473 -1.9380572
6.1513128 -0.10793088 -1.9411242
6.1324558 -0.14524101 -1.935297
6.1457195 -0.18329461 -1.9398974
6.1511378 -0.22124131 -1.9420443
6.1515665 -0.25906026 -1.9426576
6.14891 -0.29675463 -1.9423509
6.1555271 -0.33494508 -1.9451112
6.1628566 -0.37328562 -1.9481781
6.1651988 -0.41141093 -1.9497116
6.158761 -0.44895461 -1.9484848
6.1549416 -0.48666042 -1.9481781
6.1546845 -0.52466035 -1.9490981
6.1494541 -0.5622412 -1.9484848
6.1780963 -0.60311317 -1.9589123
6.156292 -0.63913912 -1.9530852
6.1777983 -0.67971665 -1.9613658
6.1631117 -0.71639931 -1.9579922
6.1567106 -0.75397021 -1.9573789
6.1368642 -0.78978622 -1.9524717
6.1630297 -0.83163255 -1.9625926
6.1898537 -0.87396276 -1.9730201
6.1457691 -0.90622663 -1.9604458
6.1306853 -0.94247133 -1.9573789
6.1088099 -0.97751111 -1.952165
6.0933084 -1.0134124 -1.9490981
6.0813479 -1.0498086 -1.947258
6.0635495 -1.0850892 -1.9435776
5.9875245 -1.1094286 -1.9208825
0 -0 -0
5.737247 -1.1360017 -1.8432894
5.6406493 -1.1528683 -1.8138468
5.5096059 -1.1613224 -1.7730569
0 -0 -0
5.3853388 -1.2043124 -1.7368672
5.3509498 -1.2311388 -1.7279731
5.3238444 -1.2593433 -1.7215325
5.2707 -1.2809622 -1.7065046
5.2516599 -1.3105108 -1.7028244
5.3163581 -1.3613781 -1.7270529
5.3033023 -1.3927631 -1.7255195
5.2974138 -1.4260201 -1.7264396
5.2812243 -1.4564718 -1.723986
5.2547851 -1.4839309 -1.718159
5.2099223 -1.505831 -1.7061979
5.1978469 -1.5369599 -1.7052778
5.183763 -1.567446 -1.7037444
5.1795039 -1.600911 -1.7055845
5.1723061 -1.6335223 -1.7065046
5.1485987 -1.6608422 -1.7019042
5.1383109 -1.6924021 -1.7019042
5.1088853 -1.7175249 -1.6954637
5.1198564 -1.7562567 -1.7028244
5.0649657 -1.772226 -1.6877964
5.0593743 -1.8051909 -1.6896366
5.0294204 -1.8293643 -1.6831959
5.0163159 -1.8595277 -1.6825826
5.0208378 -1.8963292 -1.6881031
5.0020018 -1.9243652 -1.6856495
4.9803519 -1.9511993 -1.6822759
4.9665179 -1.9810158 -1.6816626
4.9533873 -2.0110941 -1.6813558
4.9383154 -2.0403588 -1.6804358
4.9178071 -2.0673001 -1.6776755
4.9076548 -2.0985594 -1.6785957
4.8938131 -2.128253 -1.6782889
4.8780513 -2.1570854 -1.6773689
4.8673277 -2.1881473 -1.6782889
4.8442883 -2.213618 -1.6749153
4.8280249 -2.2420971 -1.6739953
4.8115945 -2.2704599 -1.6730752
4.7881327 -2.2954125 -1.6697016
4.7833705 -2.3293347 -1.6730752
4.7723999 -2.3603296 -1.674302
4.7399678 -2.3805933 -1.6678613
4.7134018 -2.4035761 -1.6635677
4.7036362 -2.4350786 -1.6654079
4.6759691 -2.4572494 -1.6608075
4.6624832 -2.4867907 -1.6614208
4.661365 -2.5230575 -1.6666346
4.6508012 -2.5543621 -1.6684748
4.629221 -2.5796063 -1.666328
4.6133056 -2.6079619 -1.666328
4.5939145 -2.634325 -1.6651012
4.5825996 -2.6653354 -1.6669413
4.5710778 -2.696306 -1.6687815
4.5699654 -2.7335896 -1.6746086
4.5750761 -2.7749109 -1.6828893
4.5417504 -2.7929556 -1.6767554
4.5091834 -2.8111999 -1.6709284
4.5031123 -2.8459363 -1.675222
4.4903731 -2.8765948 -1.6770622
4.477427 -2.9072042 -1.6789023
4.4531446 -2.9304352 -1.6764488
4.4295378 -2.9540062 -1.674302
4.3908281 -2.9672689 -1.666328
4.3780351 -2.9979203 -1.6684748
4.3572121 -3.0230987 -1.6675547
4.3230095 -3.0388265 -1.6614208
4.3081579 -3.0680563 -1.6629543
4.2907953 -3.095547 -1.6635677
4.267879 -3.1190076 -1.6620343
4.2425418 -3.1406043 -1.6595807
4.233851 -3.1745732 -1.6638744
4.2158079 -3.2016435 -1.6644877
4.1953297 -3.2268705 -1.6641811
4.1784539 -3.2548921 -1.6654079
4.1628866 -3.2840073 -1.667248
4.1411705 -3.3083 -1.6666346
4.1326313 -3.3432281 -1.6715417
4.1076226 -3.3649027 -1.6697016
4.1022801 -3.4028077 -1.6761421
4.0776801 -3.4248531 -1.6746086
4.0551391 -3.4485753 -1.6739953
4.0238066 -3.4646952 -1.6697016
4.009645 -3.4955759 -1.6727685
3.9866941 -3.5188527 -1.672155
3.9458692 -3.5261202 -1.6638744
3.9178078 -3.5445168 -1.6611142
3.9058099 -3.5774918 -1.6654079
3.8837852 -3.6013901 -1.6654079
2.3872902 -2.2405038 -1.0136869
2.3665998 -2.2485511 -1.01062
2.3589303 -2.2689707 -1.0133802
3.8112752 -3.7122247 -1.6730752
3.7619994 -3.7094717 -1.6611142
3.7317593 -3.7250867 -1.6577406
3.7074935 -3.7465608 -1.6571271
3.6731272 -3.7576656 -1.6519134
3.6486795 -3.7787631 -1.6513
3.6470983 -3.8238137 -1.6614208
3.6176944 -3.8398836 -1.6586607
3.597955 -3.8661904 -1.6605008
3.5638609 -3.8769803 -1.6555938
3.5355275 -3.893841 -1.6534469
3.5141101 -3.9182963 -1.6546736
3.4906325 -3.9404974 -1.6549803
3.4645088 -3.9596918 -1.6540602
3.4270813 -3.9657488 -1.6476197
3.3983593 -3.9816337 -1.6454729
3.364665 -3.9914925 -1.6408725
3.3662896 -4.0435224 -1.6540602
3.3329551 -4.0538068 -1.6497666
3.3212142 -4.0904398 -1.6565138
3.2895055 -4.102572 -1.6531402
3.2654519 -4.1241713 -1.6537535
2.004607 -2.5632169 -1.0072464
1.9853529 -2.5709474 -1.0054063
1.9672331 -2.5800526 -1.0041795
1.9496486 -2.5897927 -1.0032594
1.9331537 -2.6009429 -1.0029527
1.9194095 -2.6158257 -1.0041795
1.7928213 -2.4748912 -0.94345438
1.6763393 -2.3441241 -0.8873297
1.6701533 -2.3660328 -0.8919301
3.052089 -4.382268 -1.6795157
3.0149014 -4.3860073 -1.6736885
2.9938085 -4.4130893 -1.6770622
2.9592633 -4.4203014 -1.6727685
2.9273651 -4.4312272 -1.6700082
2.8954442 -4.4419289 -1.667248
2.8598995 -4.4468007 -1.6623409
2.8442852 -4.4827523 -1.6693949
2.8177357 -4.5017338 -1.6700082
2.7925596 -4.5229883 -1.6715417
2.7607956 -4.5335336 -1.6690881
2.7275376 -4.5414119 -1.6657145
2.7049544 -4.5670714 -1.6690881
2.669683 -4.5712528 -1.6644877
2.6377857 -4.5809479 -1.6620343
2.6054006 -4.5895963 -1.659274
2.5688272 -4.5905437 -1.6537535
2.5410714 -4.6070528 -1.6540602
2.5123007 -4.6217217 -1.6537535
2.4955754 -4.6588669 -1.6617275
2.4740477 -4.6875615 -1.6666346
2.4584062 -4.7279906 -1.6758354
2.425446 -4.7353611 -1.6730752
2.3942022 -4.7459044 -1.6715417
2.3641901 -4.758801 -1.6709284
2.3169699 -4.7364488 -1.6577406
1.4849628 -3.0824809 -1.0612242
1.4639834 -3.0872335 -1.0596907
1.4498399 -3.1065099 -1.0633711
2.1936827 -4.7780423 -1.6528335
2.1580577 -4.7775326 -1.6479264
2.1275437 -4.7880745 -1.6470063
2.0973628 -4.7992945 -1.6463929
2.0705044 -4.8181949 -1.6485398
2.048306 -4.8483458 -1.6546736
2.0280044 -4.8836794 -1.6626476
2.0008759 -4.9030819 -1.6651012
1.9711076 -4.9161501 -1.6654079
1.9423 -4.931695 -1.6666346
1.9092579 -4.9364176 -1.6641811
1.8819718 -4.9560485 -1.6669413
1.8498656 -4.9630432 -1.6654079
1.8170909 -4.9680424 -1.6632611
1.7852882 -4.9755144 -1.6620343
1.7563043 -4.9908648 -1.6635677
1.7206839 -4.9871502 -1.6586607
1.6879179 -4.991302 -1.6565138
1.6563625 -4.9988542 -1.6555938
1.625659 -5.0089235 -1.6555938
1.5974869 -5.0269685 -1.6583539
1.5637869 -5.0275865 -1.655287
1.5337396 -5.0398192 -1.6562071
1.507942 -5.0664692 -1.6620343
1.4739034 -5.0655727 -1.6586607
1.4422737 -5.07269 -1.6580472
1.4111211 -5.0814443 -1.6580472
1.3799154 -5.0900068 -1.6580472
1.3462256 -5.0891757 -1.6549803
1.3133109 -5.0908885 -1.6528335
1.2790344 -5.0868506 -1.6488465
1.2487029 -5.0983009 -1.6500733
1.2171762 -5.1049409 -1.6497666
0.75459796 -3.2513433 -1.0342352
0.73735315 -3.2679832 -1.0382223
1.1299227 -5.1580935 -1.660194
0.69323921 -3.2581649 -1.0320884
0.67534691 -3.2726116 -1.035462
0.65674442 -3.2841611 -1.0379156
0.63495553 -3.2797182 -1.0351554
0.6128962 -3.2732608 -1.0317818
0.59516782 -3.2900732 -1.0360755
0.57545918 -3.2964761 -1.0369955
0.55695516 -3.3102705 -1.0403692
0.54103655 -3.3408744 -1.0492632
0.52301031 -3.3601205 -1.054477
0.50041902 -3.3500865 -1.0501833
0.4818716 -3.3672278 -1.0547837
0.46004301 -3.3616335 -1.0520234
0.43375233 -3.3209767 -1.0379156
0.40926677 -3.2905157 -1.0271814
0.38873479 -3.2901289 -1.0262613
0.36822298 -3.2896144 -1.0253413
0.35521293 -3.3599648 -1.047423
0.3338384 -3.3545039 -1.0449696
0.31536418 -3.3792343 -1.0523301
0.29363599 -3.3697269 -1.0486498
0.26974189 -3.3316185 -1.0357687
0.2554419 -3.4157898 -1.062451
0.2349969 -3.4248896 -1.0649046
0.21297461 -3.4101174 -1.0596907
0.19066389 -3.3866515 -1.0517168
0.16879123 -3.3658934 -1.0446628
0.14672391 -3.3345349 -1.0342352
0.12533323 -3.3106427 -1.0262613
0.10516635 -3.3161061 -1.0277947
0.084841132 -3.3176405 -1.0281014
0.064373896 -3.3123889 -1.0262613
0.044122189 -3.3184319 -1.0281014
0.023733908 -3.3148329 -1.0268747
0.0034004659 -3.3244343 -1.0299416
-0.017029122 -3.3301034 -1.0317818
-0.037649553 -3.3461158 -1.0369955
-0.058062091 -3.3391602 -1.0348487
-0.078935854 -3.3549173 -1.0400624
-0.099633969 -3.3581753 -1.0412892
-0.11992796 -3.3489399 -1.038529
-0.1389056 -3.3110538 -1.0265679
-0.15921922 -3.3101392 -1.0265679
-0.17895605 -3.2986455 -1.0231944
-0.19786516 -3.2756341 -1.0161405
-0.2186594 -3.2848048 -1.0195141
-0.2405449 -3.3071332 -1.0271814
-0.26218617 -3.322674 -1.0327018
-0.28216368 -3.3162611 -1.0311683
-0.30354863 -3.3258412 -1.0348487
-0.3257103 -3.3419147 -1.0406759
-0.34512666 -3.3294394 -1.0373023
-0.36304674 -3.3045533 -1.0299416
-0.38056442 -3.2786279 -1.0222743
-0.40113804 -3.28001 -1.023501
-0.41517287 -3.2302868 -1.0081664
-0.43791723 -3.249373 -1.0152204
-0.4582465 -3.2494521 -1.0161405
-0.47901028 -3.2522287 -1.0179806
-0.50214213 -3.2699244 -1.0247278
-0.52325052 -3.2733607 -1.0268747
-0.55098581 -3.3160937 -1.0419025
-0.57667154 -3.3436012 -1.0520234
-0.60674357 -3.3934028 -1.0695049
-0.62807441 -3.3924236 -1.0704249
-0.64977473 -3.3931799 -1.0719584
-0.66244018 -3.3480487 -1.0584639
-0.68087232 -3.3336635 -1.0550903
-0.70111799 -3.3284917 -1.0547837
-0.72799879 -3.3538897 -1.0645978
-0.8161363 -3.651227 -1.1642728
-0.78448123 -3.4114857 -1.0866797
-0.8036446 -3.3991983 -1.0842261
-0.8247115 -3.395128 -1.0845329
-0.85106361 -3.4121664 -1.0918934
-0.86347717 -3.3736877 -1.0808525
-0.84181833 -3.2072315 -1.0271814
-0.82508379 -3.0669072 -0.98209763
-0.82641298 -2.9984791 -0.96093583
-0.84583116 -2.9970157 -0.96216261
-0.86684936 -3.0009127 -0.96522957
-0.97464424 -3.297636 -1.0667447
-1.0282171 -3.4018259 -1.1038544
-1.0645404 -3.4454646 -1.1207225
-1.0962744 -3.4724474 -1.1320701
-1.14797 -3.5598569 -1.1639661
-1.1253961 -3.4180543 -1.118269
-1.0674391 -3.176532 -1.038529
-1.0847467 -3.1636207 -1.0363821
-1.097847 -3.1389387 -1.0302483
-1.1062049 -3.1016662 -1.0198208
-1.1183791 -3.0760376 -1.0133802
-1.1362392 -3.0664403 -1.0124601
-1.1587346 -3.0692046 -1.0158337
-1.4562348 -3.7859707 -1.265788
-1.475269 -3.7663302 -1.2621076
-1.4969397 -3.7536714 -1.2608808
-1.4554598 -3.5856886 -1.2056762
-1.413432 -3.4218805 -1.1516984
-1.407462 -3.3490963 -1.1293099
-1.4040227 -3.2843926 -1.1096816
-1.4495939 -3.3341908 -1.1302299
-1.4603968 -3.3034732 -1.1225626
-1.4677539 -3.265805 -1.1124418
-1.4659972 -3.2091284 -1.0955738
-1.498896 -3.2285576 -1.1056945
-1.499985 -3.1797075 -1.0915867
-1.5067061 -3.1438401 -1.0820793
-1.5222158 -3.1268351 -1.079319
-1.5316639 -3.0978153 -1.0722651
-1.553207 -3.0934618 -1.0741053
-1.5747545 -3.0889602 -1.0759454
-1.5857984 -3.0640266 -1.0704249
-1.5996965 -3.0449717 -1.0670514
-1.6143171 -3.0275414 -1.0642911
-1.6201721 -2.9941442 -1.0557038
-1.6316376 -2.9716341 -1.0511034
-1.6646723 -2.9881694 -1.0609175
-1.6703242 -2.9555302 -1.0526369
-1.7102159 -2.9832025 -1.0667447
-1.7423711 -2.9965098 -1.0756388
-1.7413743 -2.9529741 -1.0633711
-1.7511514 -2.9283493 -1.0581573
-1.768099 -2.9159219 -1.0575439
-1.7864561 -2.9058287 -1.0578506
-1.8052598 -2.8964276 -1.0584639
-1.8229979 -2.8852963 -1.0584639
-1.8422083 -2.8764603 -1.0593841
-1.8525642 -2.8539281 -1.0550903
-1.8642833 -2.8337624 -1.0517168
-1.8684293 -2.8024762 -1.0440495
-1.8850567 -2.7901704 -1.0437428
-1.9182795 -2.8021078 -1.0529435
-1.9506338 -2.8121779 -1.0615309
-1.9634719 -2.7939277 -1.0590774
-1.9745029 -2.7733004 -1.0557038
-1.9892542 -2.7580459 -1.054477
-1.9977132 -2.7342629 -1.0498766
-2.0082216 -2.7135401 -1.0465029
-2.0174086 -2.6912687 -1.042516
-2.0344598 -2.6795971 -1.0428227
-2.0526047 -2.6693265 -1.0437428
-2.0619237 -2.6476727 -1.0400624
-2.0675166 -2.6215224 -1.034542
-2.1055501 -2.6362972 -1.0458896
-2.1192913 -2.6203687 -1.0446628
-2.1425695 -2.6161497 -1.0483432
-2.1743853 -2.6219976 -1.0563171
-2.206965 -2.6282816 -1.0645978
-2.2637572 -2.6625361 -1.0848395
-2.2458851 -2.6089332 -1.0679715
-2.2530923 -2.5850613 -1.0636778
-2.2796216 -2.5833168 -1.0688915
-2.304311 -2.5792148 -1.0731852
-2.2645249 -2.5036335 -1.0465029
-2.3010645 -2.5128489 -1.0566238
-2.3009038 -2.4819357 -1.0492632
-2.3245602 -2.4767904 -1.0532502
-2.3311877 -2.4535131 -1.0492632
-2.3494985 -2.4425919 -1.0507966
-2.3591278 -2.4226761 -1.0483432
-2.349885 -2.3837616 -1.0373023
-2.3711932 -2.3760331 -1.0403692
-2.4060283 -2.3815193 -1.0495698
-2.4137878 -2.3600595 -1.0465029
-2.4439752 -2.3604071 -1.0535569
-2.446701 -2.3342016 -1.0483432
-2.4609776 -2.319145 -1.0483432
-2.4723735 -2.3014081 -1.0471164
-2.4836447 -2.2836185 -1.0458896
-2.4947906 -2.2657773 -1.0446628
-2.5206945 -2.2612278 -1.0498766
-2.5352342 -2.2463496 -1.0501833
-2.5618663 -2.2420299 -1.0557038
-2.5798967 -2.2300014 -1.0575439
-2.5978758 -2.2178361 -1.0593841
-2.6143467 -2.2043073 -1.0606108
-2.6490402 -2.2058802 -1.0695049
-2.6537011 -2.1823328 -1.0658246
-2.6663027 -2.1654088 -1.0655179
-2.6691413 -2.1406746 -1.0612242
-2.6770015 -2.120122 -1.0590774
-2.6757107 -2.0925205 -1.0532502
-2.6990492 -2.084204 -1.0575439
-2.7110298 -2.0670269 -1.0572373
-2.7244225 -2.0509255 -1.0575439
-2.7415402 -2.0375752 -1.0593841
-2.7447798 -2.0139616 -1.0557038
-2.7578566 -1.99764 -1.0560105
-2.7925205 -1.9967276 -1.0649046
-2.7650511 -1.9515775 -1.0492632
-2.8308742 -1.9720972 -1.0704249
-2.8295851 -1.9455271 -1.0652112
-2.8501351 -1.9340044 -1.0685848
-2.8239782 -1.891072 -1.0538636
-2.8522081 -1.8847226 -1.0603042
-2.8756812 -1.8749801 -1.0649046
-2.8863311 -1.8567853 -1.0645978
-2.9097266 -1.8466865 -1.0691983
-2.9322996 -1.8358654 -1.0734919
-2.940269 -1.8158392 -1.0722651
-2.9554207 -1.8002383 -1.0737985
-2.9672272 -1.7825601 -1.0741053
-2.9862995 -1.7691686 -1.0771722
-3.020937 -1.7647268 -1.0860662
-3.0440824 -1.7532791 -1.0906667
-3.0647171 -1.7402043 -1.094347
-3.092782 -1.7311238 -1.1007875
-3.1358538 -1.7300352 -1.1127485
-3.14641 -1.7107613 -1.1127485
-3.1912515 -1.7098423 -1.1253228
-3.225255 -1.7026634 -1.1339103
-3.260134 -1.6955702 -1.1428044
-3.2874212 -1.684209 -1.1489382
-3.3299894 -1.6802897 -1.1605924
-3.3760419 -1.6776041 -1.1734736
-3.4187651 -1.6727437 -1.1851279
-3.425534 -1.6500839 -1.1839011
-3.5069866 -1.6628593 -1.2093565
-3.7422712 -1.746296 -1.2894032
-3.7062011 -1.7018659 -1.2728418
-3.7365265 -1.6881006 -1.2798958
-3.7929182 -1.6856158 -1.2961504
-3.910476 -1.7091687 -1.3338736
-4.0153427 -1.7257068 -1.3669963
-4.0872359 -1.7269522 -1.3884648
-4.1056671 -1.7051245 -1.391225
-4.136323 -1.6881675 -1.398279
-4.1907797 -1.6804566 -1.4136136
-4.1930408 -1.6515735 -1.4108533
-4.3309388 -1.6752284 -1.455017
-4.5119944 -1.7134607 -1.5139019
-4.5215311 -1.6854111 -1.5135952
-4.5496669 -1.6641709 -1.519729
-4.5678558 -1.6391146 -1.5224893
-4.9639273 -1.7468315 -1.654367
-5.0186439 -1.7315423 -1.6693949
-5.0670462 -1.713514 -1.6822759
-5.0946321 -1.6880753 -1.6881031
-5.1429205 -1.6691157 -1.7009841
-5.1557865 -1.6383921 -1.7019042
-5.1757407 -1.6098334 -1.7052778
-5.3976994 -1.6425657 -1.7767371
-5.4788375 -1.630578 -1.8006591
-5.5371795 -1.6110127 -1.8169138
-5.6961999 -1.6194036 -1.8669046
-5.8032479 -1.6113968 -1.8994139
-5.8699856 -1.5911869 -1.9184289
-5.9054041 -1.5619491 -1.9270163
-5.9185638 -1.5266352 -1.928243
-5.9139729 -1.4868124 -1.9236426
-5.9608903 -1.4597722 -1.9362171
-5.9697351 -1.4231694 -1.9362171
-5.9922638 -1.3897359 -1.9408175
-5.9895353 -1.3504319 -1.9371371
-6.0200243 -1.3185387 -1.9444977
-6.0419669 -1.2845421 -1.9490981
-5.9928689 -1.2357304 -1.9303899
-6.0199394 -1.2028483 -1.9368304
-6.018796 -1.1642627 -1.9340702
-6.0333114 -1.128709 -1.9365238
-6.05792 -1.0948811 -1.9423509
-6.068275 -1.0583432 -1.9435776
-6.0765319 -1.0214041 -1.9441911
-6.0723491 -0.98242986 -1.9408175
-6.0820246 -0.94573641 -1.9420443
-6.0952444 -0.90952235 -1.9444977
-6.1120176 -0.87371975 -1.9481781
-6.1172633 -0.83620065 -1.9481781
-6.1166162 -0.79791242 -1.9463379
-6.1440668 -0.76317817 -1.9536985
-6.1618676 -0.72702342 -1.9579922
-0 -0 -0
-6.1854706 -0.65294904 -1.9628993
-0 -0 -0
-0 -0 -0
-0 -0 -0
-0 -0 -0
-0 -0 -0
-0 -0 -0
-0 -0 -0
-0 -0 -0
-0 -0 -0
-0 -0 -0
-0 -0 -0
-0 -0 -0
-0 -0 -0
-0 -0 -0
-0 -0 -0
-0 -0 -0
-0 -0 -0
-0 0 -0
-0 0 -0
-0 0 -0
-0 0 -0
-0 0 -0
-0 0 -0
-0 0 -0
-0 0 -0
-6.2096996 0.33790296 -1.9625926
-6.2122598 0.37628722 -1.9641261
-6.1794438 0.41236418 -1.9543118
-0 -0 -0
-0 -0 -0
-0 -0 -0
-0 -0 -0
-0 -0 -0
-0 0 -0
-0 0 -0
-0 0 -0
-0 0 -0
-0 0 -0
-0 0 -0
-0 0 -0
-0 0 -0
-0 0 -0
-0 0 -0
-0 0 -0
-0 0 -0
-0 0 -0
-0 0 -0
-0 0 -0
-0 0 -0
-0 0 -0
-0 0 -0
-0 0 -0
-0 0 -0
-0 0 -0
-0 0 -0
-0 0 -0
-0 0 -0
-0 0 -0
-0 0 -0
-5.8416514 0.97151411 -1.9376762
-5.8271685 1.0058881 -1.9348234
-5.8152852 1.040622 -1.9329215
-5.8013301 1.0749025 -1.9303857
-5.7908993 1.1097648 -1.9291179
-5.7756076 1.1436188 -1.9262651
-5.7694111 1.1792256 -1.9265821
-5.7620668 1.2146038 -1.9265821
-5.7470908 1.2483263 -1.9240463
-5.7393231 1.2835664 -1.9240463
-5.7313395 1.318758 -1.9240463
-5.7139096 1.3517172 -1.9208765
-5.6907625 1.3831687 -1.915805
-5.6858492 1.4189788 -1.9170729
-5.6696849 1.4519579 -1.9145371
-5.6597519 1.4864783 -1.9142201
-5.6551037 1.5224104 -1.915805
-5.6557136 1.5598539 -1.9192917
-5.6469488 1.5947851 -1.9196087
-5.6325011 1.6280875 -1.9180238
-5.6405959 1.6679951 -1.9243633
-5.6375179 1.7047694 -1.9268991
-5.6233268 1.7382083 -1.9256312
-5.60532 1.770395 -1.9230953
-5.5970597 1.8056287 -1.9240463
-5.5777674 1.8372676 -1.9211935
-5.5600963 1.8693423 -1.9189748
-5.5404472 1.900654 -1.916122
-5.5295758 1.934927 -1.9164389
-5.5184927 1.969138 -1.9167559
-5.5036325 2.0019894 -1.915805
-5.4876876 2.0344028 -1.9145371
-5.4786506 2.0693767 -1.915805
-5.4631944 2.1019325 -1.914854
-5.4510775 2.1357605 -1.915171
-5.418489 2.1614377 -1.9081976
-5.413034 2.197855 -1.9110503
-5.42662 2.2422533 -1.9208765
-5.3987703 2.2696283 -1.915805
-5.3716612 2.2971189 -1.9110503
-5.3418097 2.3232279 -1.9053448
-5.3387303 2.3609469 -1.9094656
-5.3206835 2.3921049 -1.9081976
-5.3136692 2.4282544 -1.9110503
-5.3012505 2.4620109 -1.9120013
-5.2886176 2.4957066 -1.9129522
-5.2817569 2.5322096 -1.916122
-5.2575932 2.5604181 -1.9129522
-5.2409334 2.5922096 -1.9126352
-5.2232342 2.6234672 -1.9120013
-5.2061934 2.6550362 -1.9116843
-5.1771703 2.6803908 -1.9069297
-5.1597867 2.7116656 -1.9066128
-5.1447248 2.7441671 -1.9072467
-5.12779 2.7756829 -1.9072467
-5.1089997 2.806181 -1.9066128
-5.0900283 2.8365531 -1.9059788
-5.0692248 2.8658648 -1.9047109
-5.0523677 2.8973868 -1.9050279
-5.0451527 2.9345315 -1.9091486
-5.0303197 2.96736 -1.9104165
-5.0209713 3.0035248 -1.9139031
-5.008935 3.0382109 -1.9164389
-4.9861588 3.0664039 -1.914854
-4.9696646 3.0984459 -1.915805
-4.9457488 3.1258409 -1.9139031
-4.9208851 3.1525476 -1.9116843
-4.9022446 3.1831987 -1.9120013
-4.889751 3.2179103 -1.914854
-4.855711 3.2383814 -1.9091486
-4.8294625 3.2638664 -1.9066128
-4.8116922 3.2950456 -1.9075637
-4.7913837 3.3245075 -1.9075637
-4.7639112 3.3489358 -1.9047109
-4.7479086 3.3814044 -1.9066128
-4.7332249 3.4149122 -1.9091486
-4.7206054 3.4500458 -1.9126352
-4.6772404 3.4625823 -1.903443
-4.6748772 3.5054395 -1.9113673
-4.6374183 3.5220129 -1.9047109
-4.6104579 3.5463538 -1.902492
-4.5916038 3.5769074 -1.90376
-4.5665913 3.6026642 -1.902492
-4.5547743 3.6389036 -1.9069297
-4.5397344 3.6727474 -1.9100995
-4.5171137 3.7005336 -1.9100995
-4.4987025 3.7318134 -1.9120013
-4.4691834 3.7538571 -1.9091486
-4.4410081 3.7769079 -1.9069297
-4.4184685 3.8047051 -1.9072467
-4.3928957 3.8298752 -1.9062958
-4.3678908 3.8555021 -1.9056618
-4.3483953 3.8860221 -1.9075637
-4.3307991 3.9183567 -1.9104165
-4.3073745 3.9454968 -1.9107335
-4.2816935 3.9705625 -1.9100995
-4.2607074 4.0000052 -1.9116843
-4.2353959 4.0254197 -1.9113673
-4.2051487 4.0460715 -1.9088316
-4.1727695 4.0645185 -1.9053448
-4.1416731 4.0840526 -1.902492
-4.1172075 4.1100588 -1.902809
-4.0919108 4.1352439 -1.902809
-4.0644717 4.1582394 -1.9018581
-4.0401983 4.1844645 -1.902492
-4.010519 4.2050581 -1.9005903
-3.986593 4.231658 -1.9015411
-3.9573221 4.2525682 -1.8999563
-3.933722 4.279563 -1.9012241
-3.9099393 4.3064275 -1.902492
-3.8777425 4.3239832 -1.8996394
-3.8549118 4.3519545 -1.9015411
-3.8262625 4.3733845 -1.9005903
-3.796875 4.3939095 -1.8993224
-3.7686117 4.4156814 -1.8986884
-3.7377787 4.434371 -1.8967866
-3.708679 4.4550357 -1.8958356
-3.6836829 4.480638 -1.8971035
-3.6501424 4.4957938 -1.8939338
-3.6272347 4.5240254 -1.8964696
-3.6017625 4.5491705 -1.8977375
-3.5731974 4.5704379 -1.8974205
-3.550303 4.5990329 -1.9002733
-3.517417 4.6146965 -1.8977375
-3.4924576 4.640739 -1.8996394
-3.4610884 4.6582747 -1.8980545
-3.4335628 4.680953 -1.8986884
-3.3869743 4.6773524 -1.8885453
-3.3753102 4.7219644 -1.8983715
-3.343539 4.7387114 -1.8967866
-3.3143997 4.7591376 -1.8967866
-3.2786884 4.7700062 -1.8929828
-3.247761 4.7876792 -1.8920319
-3.2257104 4.8185506 -1.8964696
-3.1934695 4.8342957 -1.8948847
-3.1663365 4.8577719 -1.8964696
-3.1410878 4.8842878 -1.8993224
-3.1080103 4.8986645 -1.8974205
-3.0804102 4.9216623 -1.8990054
-3.044174 4.9307866 -1.8952017
-3.0094218 4.9420824 -1.8923489
-2.9805064 4.962894 -1.8932998
-2.9499984 4.9810886 -1.8932998
-2.9174662 4.9958196 -1.8920319
-2.8839176 5.0086956 -1.8901302
-2.8592179 5.0370188 -1.8942508
-2.8310366 5.0594339 -1.8961526
-2.8008554 5.0783701 -1.8967866
-2.7651124 5.0871277 -1.8936168
-2.731607 5.0998182 -1.8920319
-2.696279 5.1089344 -1.8891792
-2.6657557 5.1270652 -1.8898132
-2.6368408 5.1483903 -1.8917149
-2.606483 5.1670127 -1.8926659
-2.5721977 5.1778126 -1.8907641
-2.5432963 5.1994615 -1.8929828
-2.5113451 5.2149687 -1.8929828
-2.477674 5.2268519 -1.8917149
-2.4435508 5.237659 -1.8901302
-2.4097841 5.2491059 -1.8888623
-2.3810451 5.2715726 -1.8917149
-2.3478842 5.2843494 -1.8910811
-2.3207335 5.310823 -1.8955187
-2.2881033 5.3249631 -1.8955187
-2.2546484 5.3371549 -1.8948847
-2.2196753 5.3456335 -1.8929828
-2.1864748 5.3582745 -1.8926659
-2.1546149 5.3742304 -1.8936168
-2.1177752 5.3776426 -1.8901302
-2.0830281 5.3861132 -1.8885453
-2.0570116 5.4174123 -1.8952017
-2.0207508 5.4219337 -1.8923489
-1.9978708 5.4627337 -1.902492
-1.957587 5.4561429 -1.8958356
-1.9253314 5.4716301 -1.8971035
-1.8852249 5.4645133 -1.8904471
-1.8501405 5.4714856 -1.8888623
-1.8195168 5.4917378 -1.8920319
-1.7813935 5.4892673 -1.8872774
-1.7476784 5.5000944 -1.8872774
-1.7215043 5.5351663 -1.8958356
-1.6783953 5.5156827 -1.8853755
-1.6491201 5.5413308 -1.8907641
-1.612703 5.5431495 -1.8879113
-1.577104 5.5474668 -1.8860095
-1.5402437 5.5469871 -1.8825227
-1.5066755 5.5581641 -1.8831567
-1.4742409 5.5737224 -1.8853755
-1.4390657 5.57899 -1.8841076
-1.4038813 5.5840354 -1.8828397
-1.3700432 5.5943871 -1.8834736
-1.3337108 5.5943847 -1.880621
-1.3021457 5.6144738 -1.8847415
-1.2678801 5.6232829 -1.8850585
-1.2292926 5.6124277 -1.8787191
-1.2009486 5.648623 -1.8885453
-1.1639674 5.6447392 -1.8847415
-1.1302395 5.656425 -1.8863264
-1.0928082 5.6492863 -1.8815719
-1.0621372 5.6773267 -1.8888623
-1.0298131 5.6977367 -1.8936168
-0.994344 5.7011452 -1.8926659
-0.95855725 5.7024627 -1.8910811
-0.92279184 5.7035556 -1.8894962
-0.88632011 5.6997385 -1.8863264
-0.85119045 5.7041316 -1.8860095
-0.81510025 5.701736 -1.8834736
-0.77868599 5.6962934 -1.879987
-0.74359673 5.7000237 -1.87967
-0.70837408 5.7025967 -1.8790361
-0.67381513 5.7106032 -1.880304
-0.63834113 5.7108603 -1.8790361
-0.60318828 5.713726 -1.8787191
-0.56849355 5.7210951 -1.879987
-0.53381914 5.729197 -1.8815719
-0.49939576 5.7408686 -1.8844246
-0.46400812 5.7419338 -1.8837906
-0.4286969 5.7437272 -1.8834736
-0.39402965 5.7547655 -1.8863264
-0.35818025 5.7485557 -1.8834736
-0.32311398 5.7544327 -1.8847415
-0.28775194 5.7553596 -1.8844246
-0.25268197 5.762702 -1.8863264
-0.21760432 5.7717261 -1.8888623
-0.18203567 5.7682128 -1.8872774
-0.14678414 5.77491 -1.8891792
-0.11114538 5.7652712 -1.8856925
-0.075680554 5.7592063 -1.8834736
-0.04039498 5.7671494 -1.8860095
-0.0050014285 5.7606497 -1.8837906
0.030355208 5.7624688 -1.8844246
0.065776974 5.7678642 -1.8863264
0.101001 5.7578692 -1.8831567
0.13617203 5.750504 -1.8809379
0.1715949 5.7543001 -1.8825227
0.20689939 5.753139 -1.8825227
0.24279362 5.765975 -1.8872774
0.27775759 5.7558508 -1.8844246
0.31291521 5.7511969 -1.8834736
0.34842706 5.7529554 -1.8847415
0.38371998 5.7507095 -1.8847415
0.41906732 5.7491927 -1.8850585
0.45530674 5.7588043 -1.8891792
0.49063355 5.7559023 -1.8891792
0.52680469 5.7622285 -1.8923489
0.56113827 5.7485042 -1.8888623
0.59591055 5.7402358 -1.8872774
0.63205367 5.744956 -1.8901302
0.66619778 5.7315488 -1.8869604
0.70100772 5.7245288 -1.8860095
0.73611957 5.72012 -1.8860095
0.77056992 5.7107959 -1.8844246
0.80586123 5.7078385 -1.8850585
0.83990073 5.696218 -1.8828397
0.87368393 5.6834579 -1.880304
0.9073422 5.6704979 -1.8777682
0.94227421 5.6657596 -1.8780851
0.97621453 5.6551981 -1.8765002
1.0102278 5.6453671 -1.8752323
1.0467482 5.6493206 -1.8787191
1.0806782 5.6390653 -1.8774512
1.1159952 5.6360497 -1.8787191
1.1518853 5.635601 -1.8809379
1.1850741 5.6219306 -1.8787191
1.2215599 5.6238217 -1.8818887
1.2469388 5.5754948 -1.867942
1.2915438 5.613029 -1.8834736
1.3285798 5.6160746 -1.8872774
1.3639101 5.6115031 -1.8885453
1.397168 5.5984278 -1.8869604
1.432434 5.5934248 -1.8882283
1.4655232 5.5799432 -1.8866434
1.4985012 5.566267 -1.8850585
1.5321227 5.5551386 -1.8844246
1.5656642 5.543808 -1.8837906
1.5996509 5.5340967 -1.8837906
1.6335772 5.5241771 -1.8837906
1.6674422 5.51405 -1.8837906
1.7015245 5.504621 -1.8841076
1.7344114 5.4913635 -1.8831567
1.7736045 5.4977684 -1.8891792
1.7898018 5.4336324 -1.8704778
1.8403327 5.4737916 -1.8885453
1.8766539 5.4704709 -1.8913981
1.9079924 5.4525862 -1.8891792
1.9407755 5.4389896 -1.8885453
1.9747603 5.4287615 -1.8891792
2.0063853 5.412096 -1.8875943
2.0150955 5.3349123 -1.8644552
2.0719681 5.3852968 -1.8869604
2.1011672 5.3627677 -1.8834736
2.1291142 5.337441 -1.8790361
2.1639645 5.3295493 -1.8809379
2.1962631 5.3152943 -1.880621
2.2295709 5.3034673 -1.8812549
2.2639346 5.2940474 -1.8828397
2.2959974 5.2791867 -1.8825227
2.3317986 5.2728062 -1.8853755
2.3652744 5.2609944 -1.8863264
2.4034231 5.2593222 -1.8910811
2.438045 5.2496371 -1.8929828
2.467782 5.2294321 -1.8910811
2.4961331 5.2064943 -1.8882283
2.5272021 5.1893749 -1.8875943
2.5552123 5.1661196 -1.8847415
2.5847347 5.1461058 -1.8831567
2.6128154 5.1233897 -1.880621
2.6485627 5.115684 -1.8837906
2.6807845 5.1010156 -1.8844246
2.7178352 5.0953498 -1.8885453
2.7567227 5.0927577 -1.8939338
2.7847238 5.0699277 -1.8917149
2.811625 5.045289 -1.8888623
2.8415959 5.0262909 -1.8882283
2.8728549 5.009583 -1.8885453
2.8992479 4.9844823 -1.8856925
2.9288139 4.9649653 -1.8850585
2.9592233 4.9469008 -1.8850585
2.989521 4.9286504 -1.8850585
3.0211968 4.9126382 -1.8860095
3.0532904 4.8972273 -1.8872774
3.0822682 4.8767972 -1.8866434
3.1167378 4.8649807 -1.8894962
3.1449807 4.8433785 -1.8885453
3.1709907 4.8184438 -1.8863264
3.2026012 4.802053 -1.8875943
3.2288196 4.7775965 -1.8856925
3.253787 4.7514343 -1.8831567
3.2850425 4.7344971 -1.8844246
3.3123949 4.7119236 -1.8834736
3.3450952 4.6969185 -1.8856925
3.3782909 4.6824584 -1.8882283
3.4125543 4.6692991 -1.8913981
3.438319 4.6444607 -1.8898132
3.4673209 4.6240349 -1.8901302
3.497349 4.6049385 -1.8910811
3.5255384 4.5833926 -1.8910811
3.5466015 4.5526953 -1.8872774
3.5727074 4.528614 -1.8863264
3.5986514 4.504384 -1.8853755
3.6262221 4.4822183 -1.8853755
3.6554592 4.4620848 -1.8863264
3.6845856 4.4417615 -1.8872774
3.7075007 4.4139857 -1.8850585
3.7431161 4.4012694 -1.8894962
3.771908 4.3803754 -1.8904471
3.7980912 4.3564339 -1.8901302
3.826633 4.3351803 -1.8910811
3.8588486 4.3179841 -1.8939338
3.8801806 4.2885985 -1.8913981
3.8980944 4.2556171 -1.8872774
3.9228432 4.2302279 -1.8866434
3.9474273 4.2046952 -1.8860095
3.9724991 4.1797075 -1.8856925
3.9954405 4.1525202 -1.8844246
4.0241532 4.1313233 -1.8860095
4.053422 4.1106062 -1.8879113
4.0752182 4.0823011 -1.8863264
4.1001897 4.057219 -1.8863264
4.1250072 4.0319843 -1.8863264
4.1476226 4.0046215 -1.8853755
4.1721163 3.9790969 -1.8853755
4.1943822 3.9514711 -1.8844246
4.2227149 3.9295375 -1.8863264
4.2453499 3.9022696 -1.8856925
4.2720227 3.8786976 -1.8869604
4.2985654 3.8549449 -1.8882283
4.3363366 3.8410754 -1.8945677
4.3476892 3.8037784 -1.8891792
4.3623362 3.7695878 -1.8853755
4.4048605 3.7593753 -1.8939338
4.4234939 3.7286091 -1.8920319
4.4564934 3.7098927 -1.8964696
4.4828358 3.6854901 -1.8980545
4.5024199 3.6555231 -1.8967866
4.5232854 3.6266413 -1.8961526
4.5469398 3.5999963 -1.8967866
4.5689435 3.5720291 -1.8967866
4.5795145 3.535233 -1.8920319
4.6079082 3.5122421 -1.8948847
4.627099 3.4821913 -1.8939338
4.6483779 3.4537344 -1.8939338
4.6694822 3.4251475 -1.8939338
4.6873384 3.3942063 -1.8926659
4.710391 3.3670363 -1.8936168
4.7402611 3.3446326 -1.8974205
4.7630286 3.3171101 -1.8983715
4.7723508 3.2803001 -1.8939338
4.8065157 3.2605407 -1.8996394
4.8272195 3.2315147 -1.8999563
4.8366694 3.1950381 -1.8958356
4.8537993 3.1637468 -1.8948847
4.8707275 3.1323657 -1.8939338
4.8874531 3.1008959 -1.8929828
4.9063878 3.0708487 -1.8929828
4.9275589 3.0421808 -1.8939338
4.9509926 3.0148487 -1.8958356
4.9718375 2.9858782 -1.8967866
4.996593 2.9591823 -1.8993224
5.0277596 2.9361215 -1.9043939
5.051434 2.9085295 -1.9066128
5.0757837 2.8812258 -1.9091486
5.0908842 2.8486376 -1.9081976
5.088336 2.8063526 -1.9005903
5.0896277 2.7664714 -1.8945677
5.1215549 2.7432518 -1.9002733
5.1533885 2.719744 -1.9059788
5.1910162 2.6990118 -1.9139031
5.1711817 2.6485159 -1.9002733
5.1915689 2.6188724 -1.9018581
5.2058415 2.5861242 -1.9012241
5.2267237 2.5566337 -1.903126
5.2551298 2.5306885 -1.9078807
5.2748437 2.5004275 -1.9094656
5.3004003 2.4728272 -1.9132692
5.3094401 2.4374876 -1.9110503
5.3398542 2.4118922 -1.9167559
5.3510861 2.3775413 -1.915488
5.3716569 2.3473217 -1.9177068
5.379859 2.3116963 -1.915488
5.3913212 2.2775352 -1.9145371
5.4043183 2.2440479 -1.9142201
5.4250112 2.2137127 -1.9167559
5.4411325 2.1814427 -1.9177068
5.435884 2.1407161 -1.9110503
5.4471478 2.1066375 -1.9104165
5.4573116 2.0721645 -1.9094656
5.4717007 2.0393028 -1.9100995
5.4823294 2.005039 -1.9094656
5.4909577 1.9700809 -1.9081976
5.5181518 1.9417048 -1.9135861
5.5290651 1.9075 -1.9132692
5.5370717 1.8723229 -1.9120013
5.5601592 1.8421915 -1.916122
5.5632396 1.8054049 -1.9132692
5.5787315 1.7726718 -1.914854
5.5895038 1.7384081 -1.914854
5.6009727 1.7043549 -1.915171
5.6140518 1.6707677 -1.916122
5.6323938 1.6386743 -1.9189748
5.6104131 1.595004 -1.9078807
5.6621308 1.5722246 -1.9224614
5.6753325 1.5384457 -1.9237293
5.688333 1.5045639 -1.9249972
5.687356 1.4670261 -1.9215105
5.6990099 1.4327955 -1.9224614
5.7086153 1.3980258 -1.9227784
5.7161632 1.362752 -1.9224614
5.7244172 1.3276526 -1.9224614
5.7324557 1.2925032 -1.9224614
5.7356462 1.2562903 -1.9208765
5.7451024 1.221468 -1.9215105
5.7524891 1.1861937 -1.9215105
5.7643089 1.1518043 -1.9230953
5.776855 1.1174946 -1.9249972
5.7929254 1.0837722 -1.928167
5.7938666 1.0471946 -1.9262651
5.805789 1.0126026 -1.928167
5.8006692 0.97507238 -1.9243633
0 0 -0
0 0 -0
0 0 -0
0 0 -0
0 0 -0
0 0 -0
5.8428345 0.72580433 -1.9262651
5.8622479 0.691719 -1.9313366
5.8663821 0.65573591 -1.9313366
0 0 -0
0 0 -0
0 0 -0
0 0 -0
5.8771186 0.47494197 -1.9291179
0 0 -0
0 0 -0
0 0 -0
0 0 -0
0 0 -0
0 0 -0
0 0 -0
0 0 -0
0 0 -0
0 0 -0
0 0 -0
5.8771648 0.041173249 -1.9227784
5.9180899 0.0051491251 -1.9364083
0 -0 -0
0 -0 -0
0 -0 -0
0 -0 -0
0 -0 -0
0 -0 -0
5.9119053 -0.24892825 -1.9360913
0 -0 -0
0 -0 -0
0 -0 -0
5.917264 -0.39482179 -1.9405289
5.903379 -0.43029538 -1.9367253
5.9119735 -0.46740597 -1.9405289
0 -0 -0
0 -0 -0
5.9146399 -0.57734388 -1.9446496
5.9374003 -0.6163649 -1.9535248
5.9344497 -0.65288812 -1.9538418
0 -0 -0
0 -0 -0
0 -0 -0
5.8546042 -0.78996408 -1.9329215
5.893786 -0.83210099 -1.9478194
5.8970141 -0.86949348 -1.950672
5.8484464 -0.89903474 -1.9360913
5.8521852 -0.93640107 -1.9392611
5.8538141 -0.97353607 -1.9417968
5.8215609 -1.0049205 -1.9329215
5.8171525 -1.040956 -1.9335555
5.7948022 -1.0736934 -1.928167
5.7396669 -1.0999503 -1.9116843
5.6965251 -1.1279653 -1.8993224
5.5649791 -1.1374557 -1.8568479
5.4864349 -1.1565222 -1.832441
5.3606 -1.1644044 -1.7918683
5.2931914 -1.1838237 -1.771265
5.2340674 -1.2043736 -1.7535145
5.1647396 -1.2218419 -1.7322773
5.1138296 -1.2429842 -1.7173795
5.0748186 -1.2665327 -1.7066025
5.0467381 -1.2924722 -1.6996289
5.0432997 -1.3246185 -1.7012138
5.0726266 -1.3656446 -1.7142098
5.0540938 -1.3939708 -1.710723
5.0427074 -1.4241828 -1.7097721
5.0220289 -1.4516746 -1.7056515
4.9911985 -1.4760084 -1.6980441
5.0011129 -1.5123699 -1.7047006
4.9980822 -1.5449878 -1.7069194
4.9740376 -1.5710571 -1.7018478
4.9634013 -1.6012565 -1.7015308
4.9570861 -1.6328678 -1.7027987
4.9415798 -1.6614401 -1.7008969
4.9312921 -1.6917298 -1.7008969
4.9154477 -1.7200767 -1.698995
4.8833623 -1.7425566 -1.6913877
4.8734694 -1.7728117 -1.6917046
4.8571639 -1.8007036 -1.6898028
4.8477983 -1.8311429 -1.6904367
4.8497491 -1.8659616 -1.6951914
4.8337932 -1.8939543 -1.6936065
4.8071046 -1.9176053 -1.6882179
4.8005209 -1.9492055 -1.6901197
4.8060021 -1.9858668 -1.6964593
4.7849832 -2.0116434 -1.6932895
4.7629571 -2.0368643 -1.6898028
4.7399321 -2.0615125 -1.6859992
4.7011709 -2.0790515 -1.6764899
4.6978412 -2.1121354 -1.6799766
4.6977329 -2.1468334 -1.6847312
4.6853318 -2.176017 -1.6850482
4.6521635 -2.1954167 -1.6777579
4.6257763 -2.2177711 -1.6730032
4.6027012 -2.2415454 -1.6695164
4.5769587 -2.2638588 -1.6650789
4.5748477 -2.2978587 -1.6695164
4.5606618 -2.3258862 -1.6695164
4.5454626 -2.3533902 -1.6691995
4.5384932 -2.3852067 -1.6720523
4.5179143 -2.4098854 -1.6698334
4.4821897 -2.4262757 -1.6619091
4.4672179 -2.4537323 -1.6619091
4.4578776 -2.4843278 -1.6641279
4.4450269 -2.5130341 -1.6650789
4.4336376 -2.5426197 -1.6666638
4.4204125 -2.5712066 -1.6676147
4.4143558 -2.6040633 -1.6714183
4.4039922 -2.6345081 -1.6736372
4.3990974 -2.6683662 -1.6780747
4.3794103 -2.6933212 -1.6768069
4.3515339 -2.7131178 -1.6723692
4.3396153 -2.7428074 -1.6742711
4.3266973 -2.7719409 -1.675856
4.3231306 -2.8072166 -1.6812445
4.2971091 -2.8279552 -1.6777579
4.2923017 -2.8626876 -1.6828294
4.2652259 -2.8825986 -1.6790257
4.247458 -2.9087152 -1.6790257
4.2061524 -2.918504 -1.6695164
4.2122197 -2.9611645 -1.6793426
4.1962891 -2.9886048 -1.6802936
4.1609502 -3.0020895 -1.6733202
4.124073 -3.0141342 -1.6657128
4.1154108 -3.0467176 -1.6698334
4.0913272 -3.0679295 -1.6676147
4.0799794 -3.0987115 -1.6707844
4.0511155 -3.1161706 -1.6666638
4.051373 -3.1561222 -1.6749051
4.0296974 -3.1791594 -1.6739541
4.0108557 -3.2044172 -1.6742711
4.0014415 -3.2373178 -1.6787087
3.9837036 -3.2636123 -1.6796596
3.9709036 -3.294049 -1.6828294
3.9375439 -3.307373 -1.6771239
3.9070606 -3.3228695 -1.6726862
3.9052856 -3.3628695 -1.6809275
3.8910124 -3.3923776 -1.6837803
3.8658574 -3.4124229 -1.6818784
3.8356524 -3.4278638 -1.6777579
3.8152504 -3.4519708 -1.6780747
2.4280238 -2.2242754 -1.0590253
2.4115484 -2.236552 -1.0577574
2.3943222 -2.2480614 -1.0561726
3.6963851 -3.5132017 -1.66286
3.7048326 -3.5647483 -1.6768069
3.6828899 -3.5874135 -1.6768069
3.6527042 -3.6019533 -1.6730032
3.622479 -3.6162577 -1.6691995
3.5948846 -3.6330237 -1.6666638
3.5738511 -3.6563697 -1.6672977
3.5513489 -3.6782296 -1.6672977
3.4946721 -3.664264 -1.650815
3.4909847 -3.7056563 -1.6600072
3.4739969 -3.7332554 -1.66286
3.4452477 -3.7482171 -1.6600072
3.4253721 -3.7727969 -1.6615921
3.4015248 -3.7930377 -1.6612751
3.3769293 -3.8124177 -1.6606412
3.3503504 -3.8294976 -1.6590563
3.3267901 -3.8499827 -1.6590563
3.3092618 -3.8775368 -1.6622261
3.2872415 -3.8999445 -1.663177
3.2681048 -3.9258723 -1.6657128
3.2313046 -3.9304669 -1.6590563
3.2035398 -3.9458022 -1.6571546
3.1739285 -3.9587252 -1.6543018
3.1495786 -3.9781253 -1.6543018
2.0116096 -2.5733137 -1.05015
1.9807123 -2.5660894 -1.0419087
1.9580297 -2.5691435 -1.038105
1.9399475 -2.5780783 -1.0368372
1.9269207 -2.5937393 -1.038422
1.9132136 -2.6085727 -1.0396899
1.7180393 -2.3729205 -0.93762439
1.665939 -2.3309526 -0.91607022
1.6510583 -2.3403559 -0.91575325
0 -0 -0
0 -0 -0
2.8643701 -4.2225895 -1.663811
2.844739 -4.2495422 -1.6676147
2.8092 -4.2526736 -1.6619091
2.7856429 -4.2738032 -1.663494
2.7557755 -4.2852311 -1.6612751
2.7314625 -4.305263 -1.6625431
2.710027 -4.3299809 -1.6657128
2.6839058 -4.3473349 -1.6660298
2.6601408 -4.3685813 -1.6679317
2.6313319 -4.3815694 -1.6666638
2.6010141 -4.3919201 -1.6644449
2.5802352 -4.4184437 -1.6685655
2.5544956 -4.4366584 -1.6695164
2.5272248 -4.4522486 -1.6695164
2.5040274 -4.4751205 -1.6723692
2.4742308 -4.4862485 -1.6707844
2.4489222 -4.5055118 -1.6723692
2.4203351 -4.5187812 -1.6717353
2.3881354 -4.5251594 -1.6685655
2.3563864 -4.5321546 -1.6657128
2.3255064 -4.5406189 -1.663494
2.2950385 -4.5497217 -1.6615921
2.2662346 -4.5620193 -1.6609582
2.2407007 -4.5809507 -1.66286
2.2088463 -4.5869226 -1.6600072
1.4578308 -3.0757978 -1.0961112
1.4393317 -3.0855443 -1.0964282
1.4199762 -3.093456 -1.0961112
2.0944409 -4.637156 -1.6590563
2.0636375 -4.6447196 -1.6571546
2.0316808 -4.6494732 -1.6543018
2.0023649 -4.660109 -1.6536678
1.9829618 -4.694149 -1.6615921
1.9497565 -4.6957169 -1.6577885
1.9148147 -4.6926641 -1.6523999
1.883867 -4.6990428 -1.650498
1.8563892 -4.7140436 -1.6517659
1.8315355 -4.73596 -1.6555697
1.7994111 -4.7391291 -1.6527169
1.7656604 -4.7376394 -1.6482793
1.7407933 -4.759963 -1.6523999
1.7134761 -4.7759109 -1.6543018
1.6853989 -4.7899137 -1.6555697
1.647933 -4.776854 -1.6473284
1.6188956 -4.7877741 -1.6476454
1.5903829 -4.8003182 -1.6485963
1.5644127 -4.8208117 -1.6523999
1.5353779 -4.8321276 -1.6530339
1.4980929 -4.8170056 -1.6444756
1.4682319 -4.8251996 -1.6441586
1.4431975 -4.8495712 -1.6495471
1.4065236 -4.8346581 -1.6413058
1.3835771 -4.8669162 -1.6495471
1.3613027 -4.902729 -1.6590563
1.3388889 -4.9393668 -1.6688825
1.3102545 -4.953907 -1.6711013
1.2746202 -4.9416494 -1.6641279
1.2433496 -4.9456983 -1.66286
1.2136569 -4.9559979 -1.663811
1.1819046 -4.9578161 -1.6619091
1.15039 -4.9603553 -1.6603242
0.72575235 -3.2196288 -1.0615611
0.7059834 -3.2240214 -1.0615611
0.69368535 -3.2635446 -1.0736061
0.66138482 -3.2082913 -1.0533198
0.64001352 -3.2039187 -1.050467
0.62556821 -3.2347891 -1.0596592
0.60797632 -3.2506859 -1.06378
0.58464396 -3.2356892 -1.0574404
0.55646503 -3.1915653 -1.0412748
0.52963626 -3.1518958 -1.0266941
0.51195359 -3.165385 -1.0301807
0.49339631 -3.1740897 -1.0320826
0.47559172 -3.1883137 -1.0358863
0.46004823 -3.2193382 -1.0453955
0.43604481 -3.1910908 -1.0349354
0.41547441 -3.1861825 -1.0323995
0.39568257 -3.1867895 -1.0317656
0.37689978 -3.1957507 -1.0339844
0.35770562 -3.2017734 -1.0352523
0.338651 -3.2095671 -1.0371541
0.31960803 -3.2181909 -1.0393729
0.30091223 -3.2314236 -1.0431767
0.28445157 -3.2719483 -1.0561726
0.26375824 -3.2660694 -1.0536368
0 -0 -0
0.24694121 -3.6087511 -1.1674303
0.20707965 -3.32622 -1.0723382
0.18586789 -3.3132238 -1.0675836
0.1631161 -3.2659924 -1.0514179
0.14190811 -3.2404013 -1.0425427
0.12127095 -3.221308 -1.0358863
0.10105336 -3.207772 -1.0311316
0.081175618 -3.2007468 -1.0285958
0.061369549 -3.1926503 -1.0257431
0.041841302 -3.1977084 -1.0273279
0.022421021 -3.2263572 -1.0368372
0.0026009101 -3.2017748 -1.0285958
-0.017104017 -3.2131116 -1.0323995
-0.036840476 -3.2148428 -1.0330335
-0.056250896 -3.1965389 -1.027011
-0.076243997 -3.2122524 -1.0323995
-0.095303886 -3.1899197 -1.0251092
-0.11514723 -3.1968575 -1.0276449
-0.13511913 -3.2046192 -1.0304977
-0.15551014 -3.2188871 -1.0355693
-0.17675029 -3.2453365 -1.0447615
-0.19545729 -3.2243102 -1.038105
-0.21536377 -3.2249427 -1.038739
-0.23418321 -3.2103176 -1.0343014
-0.25380227 -3.2078748 -1.0339844
-0.27267575 -3.1968069 -1.0308146
-0.29237214 -3.1960182 -1.0311316
-0.31289783 -3.2036035 -1.0343014
-0.33088511 -3.185586 -1.0289128
-0.35125452 -3.1910379 -1.0314486
-0.37082773 -3.1888225 -1.0314486
-0.39050221 -3.1874285 -1.0317656
-0.40981057 -3.1830909 -1.0311316
-0.43034804 -3.188036 -1.0336674
-0.4506965 -3.1909702 -1.0355693
-0.47289482 -3.2059724 -1.0415918
-0.49587029 -3.2245712 -1.0488821
-0.51729423 -3.2317698 -1.0523689
-0.54255784 -3.2612808 -1.063463
-0.56223595 -3.256021 -1.062829
-0.57886392 -3.2338376 -1.0564895
-0.59748638 -3.2236969 -1.0542707
-0.61404335 -3.2032032 -1.0485651
-0.6414209 -3.2384512 -1.0618781
-0.65976071 -3.2270207 -1.0593423
-0.67641991 -3.2080629 -1.0542707
-0.7003178 -3.2233157 -1.0609272
-0.73208469 -3.2726419 -1.0793116
-0.75704151 -3.2893472 -1.086602
-0.79139835 -3.3446333 -1.1072053
-0.81862384 -3.367363 -1.1167145
-0.84546906 -3.3871229 -1.1252728
-0.85729742 -3.346957 -1.1132278
-0.81928813 -3.1187201 -1.0362033
-0.81844336 -3.0394509 -1.0105283
-0.82901043 -3.0051136 -1.0003852
-0.84176427 -2.9798899 -0.99341178
-0.85792631 -2.9673796 -0.99087596
-0.90972871 -3.0757494 -1.0304977
-0.96947926 -3.2053797 -1.0777267
-0.99556953 -3.2202122 -1.0850172
-1.0201646 -3.229418 -1.0904057
-1.0396695 -3.2221949 -1.0900887
-1.0638709 -3.2292676 -1.0948434
-1.0688584 -3.1786277 -1.0793116
-1.0828034 -3.1558611 -1.0736061
-1.0849215 -3.09992 -1.0561726
-1.0972295 -3.0744455 -1.0495161
-1.1115351 -3.0551767 -1.0450785
-1.1286123 -3.0438523 -1.0434936
-1.3137969 -3.4778457 -1.2010295
-1.3541802 -3.5192902 -1.21878
-1.3504956 -3.4464488 -1.1956409
-1.3547528 -3.3958116 -1.1804262
-1.3645045 -3.3601928 -1.1706001
-1.3532293 -3.2746181 -1.1427064
-1.405269 -3.3423209 -1.1702831
-1.3895835 -3.2490447 -1.1395366
-1.4064674 -3.2334991 -1.1370008
-1.4105566 -3.1892436 -1.124005
-1.4254327 -3.1701479 -1.1202012
-1.9067978 -4.1723752 -1.4916943
-1.4746132 -3.1747828 -1.1284425
-1.6640409 -3.5259318 -1.2615714
-1.6848245 -3.5139446 -1.2609375
-1.5386136 -3.1590402 -1.1328802
-1.5621723 -3.1580415 -1.1360499
-1.5415108 -3.0687258 -1.1062543
-1.5465248 -3.0321715 -1.0961112
-1.5454807 -2.9847226 -1.0818474
-1.5421487 -2.9340439 -1.0663157
-1.5382537 -2.8835199 -1.050784
-1.5500491 -2.8631835 -1.0466633
-1.5675881 -2.8536189 -1.0466633
-1.5887611 -2.8505745 -1.0491991
-1.6136893 -2.8539829 -1.0542707
-1.6330577 -2.8473189 -1.0555387
-1.6662323 -2.8643007 -1.0659988
-1.6775122 -2.8434031 -1.0618781
-1.6890855 -2.8232889 -1.0580744
-1.6891636 -2.7844884 -1.0469803
-1.7434757 -2.8346655 -1.0707533
-1.7482928 -2.803793 -1.062829
-1.7497572 -2.7681582 -1.0530028
-1.7590358 -2.7453902 -1.0482482
-1.7753316 -2.7337499 -1.0479312
-1.7962428 -2.7291434 -1.050467
-1.8145334 -2.7204378 -1.0514179
-1.8354396 -2.7155397 -1.0539538
-1.8622479 -2.7190952 -1.0599762
-1.8816 -2.711514 -1.0615611
-1.8954751 -2.696038 -1.0599762
-1.9119821 -2.6843567 -1.0599762
-1.9145453 -2.6533449 -1.0520519
-1.9246345 -2.6331241 -1.0485651
-1.9401906 -2.6205027 -1.0482482
-1.9670428 -2.6229668 -1.0542707
-1.9917037 -2.6221778 -1.0590253
-1.983471 -2.5783319 -1.0457125
-2.0039165 -2.572099 -1.0482482
-2.0161366 -2.5552869 -1.0463464
-2.0400648 -2.5532424 -1.050784
-2.0592716 -2.5451009 -1.0526859
-2.0784552 -2.5368199 -1.0545877
-2.1097243 -2.5429993 -1.062829
-2.1295578 -2.5350904 -1.0650479
-2.131556 -2.5060804 -1.0580744
-2.1431801 -2.4886417 -1.0561726
-2.167758 -2.4861686 -1.0609272
-2.1704202 -2.4585989 -1.0545877
-2.1917844 -2.4523075 -1.0577574
-2.1978824 -2.4289658 -1.0533198
-2.2204318 -2.4238274 -1.0571234
-2.2397764 -2.4150257 -1.0593423
-2.2324829 -2.3777258 -1.0485651
-2.2391901 -2.3557327 -1.0447615
-2.2437394 -2.3316965 -1.0400069
-2.2580042 -2.3178854 -1.0400069
-2.2788427 -2.3107407 -1.0431767
-2.2963283 -2.3000708 -1.0447615
-2.3083758 -2.283936 -1.0438106
-2.3270936 -2.2743702 -1.0460294
-2.3464632 -2.2653191 -1.0485651
-2.3809073 -2.2705176 -1.0580744
