# .PCD v0.7 - Point Cloud Data file format
VERSION 0.7
FIELDS x y z
SIZE 4 4 4
TYPE F F F
COUNT 1 1 1
WIDTH 1553
HEIGHT 1
VIEWPOINT 0 0 0 1 0 0 0
POINTS 1553
DATA ascii
1.9299885 10.038154 -1.9939678
1.9898244 10.017466 -1.9922119
2.0406098 9.9531851 -1.9816771
2.102658 9.9452744 -1.9826525
2.1613438 9.9216452 -1.9805065
2.2187452 9.8928843 -1.977385
2.2842586 9.9001083 -1.9816771
2.3411114 9.8696833 -1.9783605
2.40395 9.8646612 -1.9803114
2.4665766 9.8582888 -1.9820672
2.5279956 9.8467684 -1.9828476
2.5866177 9.8244324 -1.9814819
2.6442943 9.7989073 -1.979531
2.7022779 9.7749348 -1.9779704
2.7608688 9.7534523 -1.9769949
2.8067386 9.6882849 -1.9670453
2.8772838 9.7084942 -1.9748489
2.9251328 9.652174 -1.9668502
2.9959152 9.6715174 -1.9746538
3.0605311 9.6697836 -1.9781654
3.1053202 9.6060286 -1.9688011
3.1595905 9.5728235 -1.9658748
3.2123175 9.5355978 -1.962168
3.280334 9.5435324 -1.9680207
3.3342857 9.5102682 -1.9652895
3.3621914 9.4046679 -1.9473412
3.4389825 9.4363842 -1.9584613
3.5138977 9.4610739 -1.9682158
3.5670223 9.4264936 -1.9654845
3.6223252 9.3980236 -1.964119
3.6809976 9.3783588 -1.9647042
3.730464 9.3355598 -1.9604121
3.778435 9.2897835 -1.9555349
3.8289866 9.2510195 -1.9522184
3.8845356 9.2246389 -1.9516331
3.9344969 9.1853046 -1.9483166
3.9943089 9.1690826 -1.9500724
4.0588379 9.1632318 -1.9541693
4.1343212 9.1810789 -1.9635336
4.144032 9.0538778 -1.9412934
4.1995077 9.0282793 -1.9412934
4.2464409 8.9846087 -1.9373915
4.3040371 8.9636879 -1.938562
4.353796 8.9265327 -1.936221
4.4080505 8.8987713 -1.9360259
4.4727087 8.8917074 -1.940513
4.520936 8.8518686 -1.9377817
4.5679402 8.8100319 -1.9346603
4.6141443 8.7670832 -1.9313438
4.6738601 8.7498522 -1.93388
4.7255902 8.7175608 -1.9330995
4.7789912 8.6884003 -1.9330995
4.8279095 8.651206 -1.9313438
4.8572202 8.5796013 -1.9217843
4.9229622 8.5725985 -1.9270518
4.9700389 8.5329084 -1.9249058
5.0312829 8.5174522 -1.9284174
5.070848 8.4653873 -1.9235401
5.1303339 8.4466867 -1.9264665
5.1769214 8.4066982 -1.9245156
5.2590566 8.4238567 -1.9360259
5.2796946 8.342536 -1.9245156
5.3286653 8.3066816 -1.9237353
5.3715134 8.2614965 -1.9208089
5.3827014 8.168602 -1.9065672
5.4479752 8.1582565 -1.9120299
5.5171728 8.1531019 -1.9188579
5.5571098 8.104537 -1.9153464
5.5933013 8.0509567 -1.9106642
5.6296096 7.9980402 -1.906177
5.6768699 7.9609518 -1.9055918
5.7198663 7.9180198 -1.9036409
5.7700806 7.8851485 -1.9042262
5.8119287 7.840929 -1.9020802
5.8493295 7.7910032 -1.8985686
5.8934612 7.7502818 -1.897398
5.9391098 7.7116437 -1.8968128
5.9905386 7.6804695 -1.8981783
6.0381603 7.6443372 -1.8983735
6.0806623 7.6017833 -1.8970078
6.1302786 7.56814 -1.8979833
6.1803331 7.5349326 -1.8991538
6.221436 7.4908333 -1.8975931
6.2376089 7.4172421 -1.8884239
6.2906342 7.3877892 -1.890765
6.3198333 7.3304825 -1.8858877
6.3550177 7.2804847 -1.8829614
6.3969717 7.2384148 -1.8821809
6.4661202 7.2267995 -1.8895944
6.5129757 7.1898952 -1.8903748
6.5450354 7.1367874 -1.8868631
6.5846982 7.0921812 -1.8856926
6.6079369 7.0302076 -1.8798399
6.6529775 6.9916611 -1.8804252
6.6957521 6.9507074 -1.8804252
6.7280021 6.8989611 -1.8774989
6.7839899 6.8715062 -1.8814006
6.8163171 6.8200407 -1.8786694
6.8601289 6.7801561 -1.8792546
6.8629985 6.7002568 -1.8685247
6.8750329 6.6301098 -1.860526
6.9510965 6.6216207 -1.8702805
6.9930239 6.5801888 -1.8706707
7.0325489 6.536489 -1.8704755
7.0696335 6.490562 -1.8696952
7.131124 6.4668245 -1.8755479
7.1538649 6.4078979 -1.8710608
7.187171 6.3586836 -1.8695002
7.2216206 6.3105927 -1.8683295
7.2416415 6.2501445 -1.8634523
7.2649255 6.1928697 -1.8595505
7.3027878 6.1481762 -1.8595505
7.3449001 6.1070132 -1.860721
7.3693466 6.0512514 -1.8574045
7.4170036 6.0145674 -1.8601358
7.4782696 5.9885592 -1.8663787
7.5456495 5.9668913 -1.8741822
7.5256824 5.8764219 -1.8599406
7.5429549 5.815764 -1.8552585
7.5980091 5.7842216 -1.8601358
7.6325736 5.7369032 -1.8599406
7.6739321 5.6946378 -1.8615015
7.7245545 5.6590347 -1.8654032
7.7535686 5.6075087 -1.8640376
7.7894263 5.5609674 -1.8644278
7.8217974 5.5119381 -1.8640376
7.8498344 5.4599209 -1.862672
7.9090652 5.4294119 -1.8689148
7.9682159 5.3983812 -1.8751577
7.9816198 5.336307 -1.8704755
7.9822822 5.2661719 -1.862867
8.0366392 5.2315388 -1.8681345
8.0727148 5.1847782 -1.86911
8.1209469 5.1456442 -1.8730117
8.1448812 5.0910401 -1.8712559
8.2210512 5.068759 -1.8817908
8.2603788 5.023315 -1.8837417
8.2616043 4.9548831 -1.8769135
8.2563934 4.883132 -1.8687197
8.2845058 4.8313918 -1.8683295
8.3607616 4.8073516 -1.8790596
8.3576765 4.7375851 -1.8716462
8.369463 4.6766477 -1.8677443
8.4203396 4.6375051 -1.8728167
8.4615669 4.5927682 -1.875743
8.4973726 4.5449247 -1.8774989
8.5129519 4.4863 -1.8747675
8.5403185 4.4339809 -1.8747675
8.581337 4.388639 -1.877889
8.5984678 4.3310499 -1.875743
8.5651302 4.24858 -1.8624768
8.6782904 4.2385473 -1.8817908
8.6634712 4.1656728 -1.8728167
8.710146 4.1225038 -1.8774989
8.7512808 4.0764341 -1.8810104
8.7752371 4.0222521 -1.8808154
8.789917 3.9638987 -1.8786694
8.8167629 3.9110827 -1.8792546
8.8387976 3.8561263 -1.8788644
8.8857279 3.8118706 -1.8839368
8.9062386 3.7561338 -1.8833516
8.9055605 3.6916533 -1.8782792
8.930769 3.6380501 -1.8788644
8.9283371 3.5733466 -1.873597
8.9966488 3.5367913 -1.8835466
9.0108604 3.4786973 -1.8819859
9.0173616 3.4177823 -1.8788644
9.0758533 3.3764048 -1.8868631
9.0816584 3.3152735 -1.8837417
9.0916719 3.2558508 -1.8815957
9.1087017 3.1990294 -1.8810104
9.1337233 3.1449945 -1.8821809
9.1779413 3.0973566 -1.8874484
9.1800108 3.0354431 -1.8839368
9.2059278 2.9814751 -1.8854976
9.2277889 2.9261179 -1.8862779
9.2455692 2.869442 -1.8862779
9.2676945 2.8140826 -1.8872533
9.2913685 2.7591176 -1.8886189
9.3184843 2.7050614 -1.890765
9.3528347 2.6529164 -1.8944716
9.3651562 2.5944316 -1.8936913
9.3638563 2.5323124 -1.8901796
9.3450775 2.4658053 -1.8831564
9.3837786 2.4145257 -1.8880337
9.3689251 2.3495104 -1.8819859
9.4107962 2.2987254 -1.8876435
9.4810219 2.2543175 -1.8991538
9.4679193 2.1899154 -1.8936913
9.4878769 2.1332853 -1.895057
9.5142031 2.0779569 -1.8977882
9.5565176 2.0258412 -1.903836
9.5514755 1.9636126 -1.9003243
9.5412197 1.9005646 -1.8958373
9.6066341 1.8523777 -1.9067624
9.5483971 1.7804613 -1.8927158
9.5639687 1.7227087 -1.8936913
9.5820894 1.6653354 -1.895252
9.5911598 1.6063476 -1.895057
9.6812057 1.5604112 -1.9112494
6.0326648 0.9348442 -1.1749786
5.9257503 0.8811 -1.152348
5.8990016 0.84016627 -1.1459101
5.883637 0.80117983 -1.1418132
5.8680172 0.76241374 -1.1377163
5.8657708 0.72555244 -1.1363506
5.865242 0.68897593 -1.1353753
5.8674092 0.652758 -1.1349851
5.8322864 0.6126532 -1.1271814
5.8700976 0.58022529 -1.1340096
5.8745241 0.54428643 -1.1342047
5.8543015 0.50620764 -1.1295226
5.8455653 0.46933717 -1.1271814
5.8258381 0.43179771 -1.1226944
5.8244638 0.39577773 -1.121914
0 0 -0
0 0 -0
5.8346806 0.28869444 -1.1226944
0 0 -0
0 0 -0
0 0 -0
0 0 -0
0 0 -0
0 0 -0
0 0 -0
0 0 -0
0 -0 -0
0 -0 -0
0 -0 -0
0 -0 -0
0 -0 -0
0 -0 -0
0 -0 -0
0 -0 -0
0 -0 -0
0 -0 -0
0 -0 -0
0 -0 -0
0 -0 -0
0 -0 -0
0 -0 -0
0 -0 -0
6.1858349 -0.64547753 -1.1978041
9.0282488 -0.99865085 -1.7674679
8.871933 -1.0364823 -1.737424
8.7077112 -1.0714746 -1.7058194
8.5414543 -1.1042396 -1.6738245
8.5714493 -1.1616383 -1.6812379
8.7166166 -1.2358456 -1.7118671
8.7078991 -1.2891628 -1.7116721
8.7095175 -1.3440663 -1.7136229
8.7098217 -1.3988825 -1.7153788
8.7107487 -1.4539145 -1.7173296
8.6871681 -1.5048224 -1.7144033
8.6401234 -1.5513327 -1.7067947
8.6121216 -1.6009102 -1.703088
8.5867262 -1.6507584 -1.6999667
8.5610437 -1.7003554 -1.6968452
8.4236269 -1.7268366 -1.6710932
8.3514614 -1.7654995 -1.6586075
8.3337631 -1.8152478 -1.6572418
8.3282108 -1.867637 -1.6584123
8.3165941 -1.9187028 -1.6584123
8.2827158 -1.9644876 -1.6539253
8.2495432 -2.0101612 -1.6496333
7.3303423 -1.8337693 -1.4637122
7.3332014 -1.882373 -1.4666386
8.0205097 -2.1114533 -1.6104201
7.9581652 -2.1473331 -1.6002755
7.8815045 -2.1786065 -1.5872045
7.8727069 -2.2282617 -1.5881798
8.1226511 -2.3529725 -1.6428051
8.1287479 -2.4089015 -1.6470971
7.9411125 -2.4063735 -1.6112006
7.9037137 -2.4480863 -1.6065184
7.8604927 -2.4876547 -1.6006657
7.7993541 -2.5210512 -1.5911062
7.6896739 -2.5378008 -1.5714021
7.8505487 -2.644448 -1.6084692
7.7423534 -2.6609955 -1.5891553
7.7221785 -2.7071531 -1.588375
7.748827 -2.7700074 -1.5975442
7.7740717 -2.8329542 -1.6065184
7.8337708 -2.9092948 -1.622906
7.8671389 -2.9767513 -1.633831
7.5998135 -2.9289947 -1.5807664
7.7633729 -3.0469024 -1.6195894
7.8538179 -3.1381652 -1.6430002
7.8425908 -3.1896231 -1.6447561
7.8156223 -3.2346826 -1.6431954
7.7938199 -3.281816 -1.6428051
7.744688 -3.3172152 -1.6365622
7.7223897 -3.3638897 -1.6361721
7.7069845 -3.4135938 -1.6373426
7.6841054 -3.4600132 -1.6369524
7.6591635 -3.5054636 -1.6361721
7.6152792 -3.5420494 -1.6312948
7.5925155 -3.58829 -1.6310997
7.5677028 -3.6335354 -1.6305145
7.5452657 -3.6799016 -1.6305145
7.5207863 -3.7252584 -1.6301243
7.489902 -3.7673674 -1.6283685
7.463151 -3.8114686 -1.6275882
7.42134 -3.8477073 -1.6234912
7.4001951 -3.894542 -1.6240765
7.3856745 -3.9449596 -1.6262225
7.3923688 -4.0070333 -1.6332457
7.4320912 -4.0877757 -1.6478775
7.3957362 -4.1270866 -1.6453413
7.3839288 -4.1801209 -1.6484628
7.3896079 -4.2434244 -1.6556811
7.3693638 -4.2921429 -1.6570468
7.3268452 -4.3277998 -1.65334
7.3102484 -4.3787241 -1.6556811
7.2622881 -4.4107656 -1.6508038
7.208365 -4.4387827 -1.6445609
7.2200928 -4.5073452 -1.6537303
7.15418 -4.527431 -1.6447561
7.1138835 -4.5632977 -1.6418297
7.0651951 -4.5934939 -1.6369524
7.0319633 -4.6335201 -1.6357819
6.9764862 -4.6586027 -1.6293439
6.9924421 -4.7315588 -1.6400739
6.9293075 -4.7510757 -1.63188
6.9145222 -4.8035784 -1.6353917
6.8640671 -4.8312345 -1.6303194
6.8063469 -4.8533268 -1.6234912
6.7470255 -4.873745 -1.6162729
6.755774 -4.9434371 -1.6258323
6.6961637 -4.9631839 -1.618614
6.6569571 -4.9976988 -1.616468
6.6027474 -5.0206385 -1.6106153
6.5904646 -5.0754223 -1.6152974
6.5692511 -5.1236081 -1.6178336
6.5138326 -5.1449709 -1.6117858
6.4683561 -5.1738129 -1.6082742
6.4509673 -5.2251358 -1.6119809
6.4263678 -5.2708406 -1.6139318
6.371273 -5.2913709 -1.6080791
6.3439398 -5.334784 -1.6094447
6.2931662 -5.3583469 -1.6047626
6.2534847 -5.3910956 -1.6030067
6.2202878 -5.4293647 -1.6030067
6.1780391 -5.4596348 -1.6006657
6.149539 -5.502018 -1.6020312
6.1214776 -5.5449157 -1.603592
6.0699935 -5.5664601 -1.5989099
6.0306931 -5.5989285 -1.5975442
6.0148039 -5.6532936 -1.6026165
5.9984741 -5.707674 -1.6076889
5.9478016 -5.7294011 -1.6033969
5.9097266 -5.7630486 -1.6026165
5.872858 -5.7978234 -1.6022264
5.8253813 -5.8219614 -1.5989099
5.7909274 -5.8589911 -1.5993
5.7596636 -5.8993263 -1.6006657
5.6811514 -5.89078 -1.58857
5.6699262 -5.9518061 -1.5957884
5.7072229 -6.0650644 -1.6172483
2.2235785 -2.3912032 -0.61019206
2.2168231 -2.4134724 -0.61253315
2.2046077 -2.4299357 -0.61331356
5.4401956 -6.0732455 -1.5825223
5.4145246 -6.1197352 -1.5860338
5.3639669 -6.1380706 -1.5821321
5.328126 -6.1730957 -1.5827173
5.2780609 -6.1914887 -1.5790106
5.2248135 -6.205749 -1.5743284
5.2186122 -6.2761569 -1.5842781
5.1719141 -6.2982049 -1.5817419
5.1257601 -6.3206782 -1.5794008
5.0966878 -6.3642602 -1.5825223
5.0100975 -6.3354011 -1.5673052
2.0180664 -2.5832133 -0.61272824
1.9878075 -2.5769043 -0.60804611
1.9624547 -2.5765655 -0.60492462
1.9442514 -2.585422 -0.60414428
1.930104 -2.5996661 -0.60472953
1.8329824 -2.5006843 -0.5774169
1.7865721 -2.4689651 -0.56688201
1.7713892 -2.4798808 -0.56688201
4.669157 -6.6255283 -1.5729629
4.6300955 -6.6564689 -1.5735481
4.5886097 -6.6839447 -1.5733531
4.5282612 -6.6835523 -1.5665249
4.5340381 -6.7813368 -1.5833026
4.4847832 -6.7975669 -1.5805713
4.4515491 -6.8381095 -1.5836928
4.4095078 -6.8652954 -1.5836928
4.3646755 -6.8880796 -1.5827173
4.3218093 -6.9138994 -1.5825223
4.278276 -6.9386172 -1.5821321
4.2223735 -6.9429483 -1.5770597
4.1665797 -6.9468551 -1.5719874
1.7123277 -2.8937211 -0.62950605
1.6965159 -2.9075625 -0.6302864
1.6791323 -2.9187677 -0.63048148
1.6727968 -2.9494948 -0.63516366
3.9400461 -7.0508451 -1.5673052
3.870218 -7.0267749 -1.5563802
3.8270297 -7.0503898 -1.5563802
3.7910967 -7.0875778 -1.5595016
3.7319937 -7.0812035 -1.5528685
3.7038357 -7.1335669 -1.5595016
3.6515124 -7.1395664 -1.5557948
3.6085184 -7.1635895 -1.556185
3.5649312 -7.1864748 -1.5563802
3.5220597 -7.2108574 -1.5569655
3.4773235 -7.2314487 -1.5567703
3.4333062 -7.2535357 -1.5569655
3.3792119 -7.2540159 -1.5524783
3.3338215 -7.2728305 -1.5520881
3.2943735 -7.3047729 -1.5546243
3.2534661 -7.3338151 -1.5565752
3.2025242 -7.3401551 -1.5536488
3.1609046 -7.3677797 -1.5554047
3.1152563 -7.3861322 -1.5552096
3.064996 -7.3933291 -1.5526735
3.0203135 -7.4138131 -1.5530636
2.9718518 -7.424921 -1.5515029
2.9291072 -7.4503188 -1.5530636
2.880513 -7.4608312 -1.5515029
2.8308573 -7.4682765 -1.5493569
2.7853215 -7.4864249 -1.549552
2.7416868 -7.5098238 -1.5509176
2.6962168 -7.5283518 -1.5513078
2.6483486 -7.5401268 -1.5503323
2.5988414 -7.5469608 -1.5483814
2.5549932 -7.5701995 -1.5499421
2.5088029 -7.5866656 -1.5501373
2.4540489 -7.5767226 -1.5448698
2.4164031 -7.6196861 -1.5507225
2.3742537 -7.6493573 -1.553844
2.3124611 -7.6149788 -1.5436993
2.2810428 -7.680738 -1.5544293
2.2316852 -7.6870537 -1.5528685
2.1727052 -7.6590843 -1.5442846
2.1227899 -7.6618743 -1.5421386
2.0770173 -7.6794891 -1.5431139
2.0331092 -7.7044177 -1.5456501
1.9818889 -7.7015495 -1.5425287
1.9319727 -7.7031002 -1.5403827
1.8769947 -7.6833673 -1.5339447
1.8354843 -7.718595 -1.5388221
1.7883102 -7.7306676 -1.5390171
1.740842 -7.7414951 -1.5390171
1.6912167 -7.7424483 -1.5370662
1.6475403 -7.7709103 -1.5407729
1.5939064 -7.7520514 -1.5349202
1.5411404 -7.735714 -1.5296527
1.4969865 -7.7623596 -1.5331644
1.4548992 -7.8012891 -1.5392122
1.4066564 -7.8081384 -1.5388221
1.3523428 -7.7799025 -1.5314085
1.3034475 -7.7812824 -1.530043
1.251935 -7.7658944 -1.5253608
1.1814594 -7.6261048 -1.495707
1.1213908 -7.5439568 -1.4777588
1.0735618 -7.5400143 -1.4756128
1.0208019 -7.4988394 -1.4660534
0.97098529 -7.4757829 -1.4602007
0.92245191 -7.4601851 -1.4559087
0.87357545 -7.439404 -1.4506412
0.82628787 -7.4300022 -1.4477148
0.78446668 -7.4710236 -1.4549332
0.73331499 -7.4220138 -1.4442033
0.68794113 -7.4283266 -1.4445934
0.64243317 -7.4333854 -1.4447885
0.59618425 -7.4293661 -1.4432278
0.54921359 -7.4143 -1.4395211
0.50437295 -7.4273157 -1.4414719
0.4566198 -7.3950291 -1.4344487
0.41237611 -7.4182568 -1.4385456
0.36670595 -7.4177084 -1.4379603
0.32245275 -7.4492149 -1.4438131
0.27695665 -7.456934 -1.4449836
0.23412934 -7.5535841 -1.4639074
0.18843094 -7.5813518 -1.4691747
0.14183629 -7.5784426 -1.4683944
0.096624829 -7.6831255 -1.489074
0.050208036 -7.799304 -1.5120946
0.0023640415 -7.8818512 -1.5284822
-0.045910109 -7.8670058 -1.5255558
-0.094085202 -7.8587303 -1.5239952
-0.14289451 -7.8903656 -1.5304332
-0.19164106 -7.9030671 -1.5331644
-0.23920175 -7.8713527 -1.5271167
-0.28792638 -7.8814979 -1.5294577
-0.33653268 -7.8854623 -1.5306282
-0.38486266 -7.8822694 -1.5304332
-0.43446177 -7.9022832 -1.5349202
-0.48264113 -7.8945742 -1.5339447
-0.53186423 -7.9032068 -1.5362859
-0.5814274 -7.9144669 -1.5392122
-0.63091475 -7.922482 -1.5415533
-0.67699432 -7.8891463 -1.5357006
-0.72682834 -7.9004703 -1.5388221
-0.77749872 -7.9183116 -1.5433091
-0.82556003 -7.9085145 -1.5423336
-0.87277478 -7.891602 -1.5399926
-0.92095244 -7.88415 -1.5396024
-0.97326839 -7.9104738 -1.5460404
-1.0219136 -7.9053259 -1.5462354
-1.0702688 -7.8979349 -1.5460404
-1.1202253 -7.9019008 -1.5481863
-1.1659579 -7.8764448 -1.5444796
-1.21681 -7.8856201 -1.5477961
-1.2647054 -7.8751006 -1.5472109
-1.3163959 -7.8875074 -1.5513078
-1.3589044 -7.8454585 -1.5444796
-1.4118744 -7.8640018 -1.5499421
-1.4590242 -7.8494053 -1.5487716
-1.5069745 -7.8393421 -1.5485765
-1.5602096 -7.8559208 -1.553844
-1.6042444 -7.8260236 -1.5497471
-1.6524366 -7.8169923 -1.5499421
-1.6907617 -7.7626247 -1.5409681
-0.67300993 -3.0044913 -0.57312495
-0.69165307 -3.0012608 -0.57332003
-0.70824367 -2.9893262 -0.57175928
-0.7207644 -2.9611025 -0.56688201
-0.73891979 -2.9566243 -0.56688201
-0.75582743 -2.9472849 -0.56590658
-0.76865107 -2.9226747 -0.56180966
-0.78529161 -2.9131687 -0.56083423
-0.80262882 -2.906405 -0.56044406
-0.81911087 -2.8967071 -0.55946863
-2.2301116 -7.6987433 -1.5550145
-2.2747991 -7.6764517 -1.5532587
-1.0791688 -3.5634987 -0.70129925
-2.3798616 -7.683558 -1.5606722
-2.4192648 -7.6445003 -1.5555998
-2.4679356 -7.6351109 -1.5567703
-1.0629722 -3.2230144 -0.63574892
-1.0786564 -3.2043488 -0.63321275
-1.0967031 -3.1930325 -0.63223732
-1.1156253 -3.1843922 -0.63184708
-2.7194753 -7.6075311 -1.5676954
-2.7543452 -7.5584502 -1.5608672
-1.1508228 -3.1007998 -0.618581
-1.1639246 -3.0780866 -0.61526442
-1.1852593 -3.0772927 -0.61663008
-1.2492834 -3.1849923 -0.64121145
-2.9907277 -7.4849758 -1.5639887
-3.0384464 -7.4710264 -1.5649642
-3.0729749 -7.4250569 -1.5591114
-3.1142881 -7.3961191 -1.5569655
-3.1538169 -7.363348 -1.5540391
-1.2880896 -2.9588246 -0.60258359
-1.3050284 -2.9481752 -0.60199827
-1.3206767 -2.9347467 -0.60082775
-1.3170196 -2.8793247 -0.59048796
-3.3964074 -7.3022671 -1.562623
-3.4424069 -7.2839494 -1.5632083
-3.5210066 -7.3334179 -1.5788156
-3.5590565 -7.2975717 -1.5756941
-3.5880902 -7.243959 -1.5686709
-3.6355567 -7.2279396 -1.5700364
-3.6749296 -7.1958885 -1.5678905
-3.7190137 -7.1732039 -1.5678905
-3.770268 -7.1641355 -1.5710119
-3.8252482 -7.1616278 -1.5756941
-3.8765991 -7.1518168 -1.5788156
-3.9142628 -7.116725 -1.5762794
-3.9588125 -7.094286 -1.5766696
-4.0066175 -7.0775428 -1.5784254
-4.0309167 -7.0196576 -1.5708169
-4.0808249 -7.0066562 -1.5735481
-4.1302257 -6.9924622 -1.5760843
-4.1775899 -6.9745598 -1.5778401
-4.2248898 -6.9563394 -1.5795959
-4.2705798 -6.9352956 -1.5807664
-4.3322749 -6.9397416 -1.5879848
-4.3732009 -6.9105425 -1.5873995
-4.4086351 -6.8728476 -1.5848633
-4.4646258 -6.8670449 -1.5899357
-4.5012798 -6.8313317 -1.5879848
-4.5409322 -6.8003216 -1.5872045
-4.5743265 -6.7601476 -1.5842781
-2.9065721 -4.2399483 -0.98320478
-4.6838045 -6.7421646 -1.5936424
-4.7363777 -6.7293377 -1.5975442
-4.778718 -6.701746 -1.5979344
-4.8593845 -6.7271514 -1.6113956
-3.0532219 -4.1733289 -0.98925257
-4.9182057 -6.635498 -1.603592
-4.969429 -6.6193123 -1.6071036
-5.0354824 -6.622263 -1.6154925
-5.1041522 -6.6277595 -1.6246618
-3.2660718 -4.1882887 -1.0171505
-3.2759006 -4.1481609 -1.0120782
-3.3025169 -4.1295137 -1.0124683
-3.3179142 -4.0969791 -1.0093468
-3.4083097 -4.1561604 -1.0298314
-3.374208 -4.063499 -1.0112978
-3.3776119 -4.0172 -1.0046647
-3.4301786 -4.029253 -1.0132487
-3.4503536 -4.0029306 -1.011883
-3.4716249 -3.9779904 -1.0109076
-3.503763 -3.9654322 -1.0132487
-3.5666187 -3.9869785 -1.0247591
-3.5488684 -3.9185028 -1.0122732
-3.5317395 -3.8518426 -1.0001776
-3.5726602 -3.8487854 -1.00525
-3.6237531 -3.8560889 -1.0132487
-3.6933258 -3.8820908 -1.0265149
-3.6871331 -3.82828 -1.0179309
-3.7406869 -3.8364758 -1.0265149
-3.7703588 -3.819732 -1.0282706
-3.7125959 -3.7153714 -1.0054451
-3.7241607 -3.6814916 -1.0023236
-3.5473475 -3.4640129 -0.94691795
-3.507108 -3.3829567 -0.92994511
-3.4333391 -3.2714128 -0.90399814
-3.4419177 -3.2395322 -0.90087664
-3.5019648 -3.2557395 -0.9118017
-3.4958637 -3.2103148 -0.90477848
-3.5198557 -3.1927569 -0.905949
-3.4012885 -3.0474374 -0.86907697
-3.4015572 -3.0102651 -0.8641997
-3.4509857 -3.0164387 -0.87239349
-3.7092767 -3.2021646 -0.93540764
-3.7340803 -3.1837978 -0.9367733
-3.8263311 -3.2220888 -0.95569706
-4.1100097 -3.4179859 -1.0239787
-4.1642594 -3.4200852 -1.0325626
-4.1508822 -3.3666749 -1.0237836
-4.1484923 -3.322753 -1.0179309
-4.2819028 -3.3866501 -1.0466092
-4.151073 -3.2420216 -1.0083715
-4.2897372 -3.3081024 -1.0382203
-4.220983 -3.2140031 -1.01598
-4.2712035 -3.2110219 -1.0235884
-4.3302097 -3.2139723 -1.033343
-4.3276939 -3.1711154 -1.0278804
-4.2723589 -3.0904832 -1.009542
-4.2840567 -3.0590823 -1.0077862
-4.2762871 -3.0140977 -1.0013481
-4.2866483 -2.9822028 -0.99939728
-4.3444905 -2.9830384 -1.0089567
-4.4439173 -3.0113263 -1.0284657
-4.4508948 -2.976372 -1.0257344
-4.4649801 -2.9463058 -1.0247591
-4.470644 -2.9108291 -1.0218327
-4.4677877 -2.870095 -1.0169554
-4.4637718 -2.8289812 -1.011883
-4.5251288 -2.8290856 -1.0222229
-4.4372029 -2.7364223 -0.99764144
-4.3801603 -2.6643083 -0.98047352
-4.6109242 -2.7659919 -1.0302216
-4.5771542 -2.7076967 -1.0185162
-4.4843812 -2.6158359 -0.99334949
-4.6551037 -2.6772296 -1.0288559
-4.5784345 -2.5959084 -1.0075911
-4.5899949 -2.5653751 -1.0066156
-4.6108046 -2.5400016 -1.0077862
-4.6547503 -2.5270987 -1.0142242
-4.6208692 -2.4721293 -1.003104
-4.6776018 -2.4656732 -1.0124683
-4.6700096 -2.4251781 -1.007396
-4.6856756 -2.3969243 -1.0075911
-4.7046747 -2.3703339 -1.0085665
-4.7085857 -2.3361933 -1.0062255
-4.7166624 -2.3042457 -1.0048598
-4.7086129 -2.2646387 -0.99998254
-4.765861 -2.256259 -1.009542
-4.8382969 -2.2542994 -1.0224179
-4.8805704 -2.2376437 -1.0286608
-4.7153831 -2.127038 -0.98964274
-4.8520741 -2.1529326 -1.0165652
-5.0090337 -2.1858535 -1.0477797
-4.8258476 -2.0708075 -1.00525
-4.9270306 -2.0784979 -1.0243689
-5.0638227 -2.0996661 -1.0510962
-5.0638938 -2.0633769 -1.048365
-5.0473194 -2.0206084 -1.042122
-5.0669255 -1.9924704 -1.0436828
-4.9655943 -1.917556 -1.0194916
-5.2615867 -1.9947761 -1.0799695
-5.3417535 -1.9877521 -1.0944062
-5.0986342 -1.861806 -1.0403663
-5.0914936 -1.8238752 -1.0364645
-5.13868 -1.8052707 -1.044073
-5.1923203 -1.7883896 -1.0530471
-5.4030018 -1.8239 -1.0949916
-5.4308538 -1.7962537 -1.0985031
-5.520154 -1.7882713 -1.1148907
-5.5646806 -1.765035 -1.121914
-5.5557342 -1.7247549 -1.117817
-5.6375394 -1.7122817 -1.1326439
-5.746665 -1.7069622 -1.1531285
-5.8804235 -1.7074732 -1.1786853
-6.2465248 -1.772217 -1.2522343
-6.2185273 -1.7231247 -1.2442356
-6.1664939 -1.6680449 -1.2313597
-6.8831396 -1.816511 -1.376702
-6.8590107 -1.765204 -1.3694836
-7.1237245 -1.7867526 -1.4215727
-7.1659961 -1.7506849 -1.4280107
-7.2834749 -1.7320797 -1.4498608
-7.8892946 -1.8249804 -1.5714021
-7.8974729 -1.7758931 -1.5708169
-8.3202572 -1.8173413 -1.6547056
-8.5231485 -1.8069106 -1.6937237
-8.7271795 -1.7942543 -1.7329369
-8.8553782 -1.7640332 -1.7567379
-9.1000605 -1.7547611 -1.8041449
-9.5079012 -1.7729151 -1.8845221
-9.7242041 -1.7515513 -1.9260763
-9.7734213 -1.6985646 -1.93388
-9.8001041 -1.6413163 -1.9371965
-9.7915926 -1.57819 -1.9334897
-9.8747549 -1.5294809 -1.9483166
-9.8596992 -1.4652603 -1.9434394
-9.8170414 -1.3974152 -1.9330995
-9.810853 -1.3351705 -1.9301732
-9.8305321 -1.2764612 -1.9325143
-9.826499 -1.2146757 -1.9301732
-9.8571453 -1.1571002 -1.9348553
-9.8689337 -1.0971373 -1.9358308
-9.9086447 -1.0400392 -1.9424639
-9.8884869 -0.97662169 -1.9371965
-9.929451 -0.9191792 -1.9442197
-9.9241552 -0.85730869 -1.9420737
-9.8852348 -0.79287553 -1.9332947
-9.8654604 -0.73039842 -1.9284174
-9.9059629 -0.67230439 -1.9356357
-9.9059858 -0.6112687 -1.9348553
-9.9330521 -0.55177802 -1.9395375
-9.9303732 -0.49052992 -1.938367
-9.9047804 -0.42836344 -1.9327093
-9.9209433 -0.3680883 -1.9354407
-9.9073305 -0.30672383 -1.9323192
-9.8903971 -0.24546766 -1.9286125
-9.9034843 -0.18499514 -1.9309536
-9.8622618 -0.12370104 -1.9225646
-9.8853931 -0.063326873 -1.9270518
-9.9071732 -0.0026733412 -1.9313438
-9.8913107 0.058022089 -1.9282223
-9.8789997 0.11857031 -1.9258813
-9.9300594 0.18013334 -1.936221
-9.9052353 0.24048558 -1.9315388
-9.9025927 0.30122849 -1.9313438
-9.8946772 0.36176828 -1.9301732
-9.9393063 0.42448834 -1.9395375
-9.9218197 0.48474714 -1.9366112
-9.8608799 0.54243201 -1.9251008
-9.8309345 0.60130721 -1.9198334
-9.8260813 0.66155142 -1.9196383
-9.299367 -0.2349918 -1.9241856
-9.3475904 -0.17882785 -1.9340999
-9.3436203 -0.12140498 -1.9330671
-9.3402758 -0.064044319 -1.932241
-9.3571262 -0.0067449659 -1.9357523
-9.3354654 0.050553765 -1.9312083
-9.3105202 0.10755266 -1.9260446
-9.3165331 0.16479975 -1.9274904
-9.3290415 0.22228754 -1.930382
-9.3206558 0.27932042 -1.9289362
-9.3432112 0.33738729 -1.9340999
-9.3155479 0.39363688 -1.9287297
-9.3256626 0.45140302 -1.9314147
-9.3100166 0.50792336 -1.9287297
-9.2793789 0.56337988 -1.9229463
-9.2640324 0.61952358 -1.9204679
-9.2893314 0.67849195 -1.9266642
-9.2840185 0.7354002 -1.9264576
-9.2598333 0.79068798 -1.9223268
-9.2207041 0.84436893 -1.9150976
-9.2581968 0.90511727 -1.9241856
-9.2213268 0.95867121 -1.9175762
-9.2026281 1.0138417 -1.9148911
-9.2020655 1.0709674 -1.9161304
-9.184638 1.1261007 -1.9138584
-9.1833773 1.1831853 -1.9150976
-9.1487951 1.235845 -1.9093144
-9.138133 1.2915469 -1.9086947
-9.1794024 1.3548774 -1.9192286
-9.1651134 1.410283 -1.9179893
-9.2055607 1.474382 -1.9285231
-9.1239538 1.518792 -1.9130322
-9.126997 1.5769119 -1.9157172
-9.1190748 1.6332294 -1.9161304
-9.1098442 1.6893306 -1.9163369
-9.0320425 1.7322977 -1.9018787
-9.0759506 1.7985232 -1.9136518
-9.0398207 1.8490814 -1.9082817
-9.0369215 1.9063311 -1.9101405
-8.9982824 1.9559268 -1.9043573
-9.045311 2.0243485 -1.9171631
-9.0136499 2.0754213 -1.9130322
-8.9626598 2.121675 -1.9047704
-8.9504242 2.1768601 -1.904977
-8.938797 2.2322118 -1.90539
-8.9164019 2.2848318 -1.9035311
-8.9050531 2.3402448 -1.9041507
-8.8791885 2.3917878 -1.9016721
-8.8341637 2.4378967 -1.8950627
-8.8576441 2.5029631 -1.9035311
-8.8505783 2.5597117 -1.90539
-8.8337679 2.613692 -1.9051834
-8.8447227 2.6760619 -1.9111732
-8.8113108 2.7250788 -1.9074554
-8.7608366 2.7684805 -1.9000198
-8.7269239 2.8167748 -1.896302
-8.7420015 2.8809865 -1.9035311
-8.6926279 2.9239674 -1.8965086
-8.688405 2.9820132 -1.8996067
-8.6902618 3.0423799 -1.9041507
-8.6410208 3.0847907 -1.8973347
-8.6476755 3.1471207 -1.903118
-8.6107712 3.1936588 -1.8991936
-8.6148109 3.255425 -1.9045638
-8.5581484 3.2941656 -1.896302
-8.5569048 3.3541131 -1.9006394
-8.5225315 3.4011149 -1.8975413
-8.4933443 3.4500306 -1.8956823
-8.4828663 3.5065646 -1.8981609
-8.4548769 3.5558934 -1.896715
-8.4562883 3.6177099 -1.9020853
-8.4276505 3.6667962 -1.9006394
-8.4345217 3.7315004 -1.9074554
-8.3552485 3.7579012 -1.894443
-8.3462715 3.8156056 -1.8977478
-8.3067293 3.8593256 -1.89403
-8.2952805 3.9160693 -1.8969216
-8.2463932 3.9550483 -1.8911383
-8.2386827 4.0137138 -1.8950627
-8.2068844 4.060719 -1.8934103
-8.189682 4.1149521 -1.8952693
-8.1686373 4.1673489 -1.896302
-8.1585522 4.225491 -1.9000198
-8.0934982 4.2549844 -1.8907253
-8.0724173 4.3073287 -1.8919646
-8.0922985 4.3819356 -1.903118
-8.0532541 4.4249105 -1.9002264
-8.0285149 4.4756703 -1.900846
-7.9693894 4.5070281 -1.8932039
-7.9373412 4.5534081 -1.892171
-7.9050241 4.599565 -1.8911383
-7.8707538 4.6445022 -1.8896925
-7.8765316 4.7133064 -1.8981609
-7.8466268 4.7610397 -1.8979543
-7.8105989 4.8049946 -1.896302
-7.7651944 4.8429923 -1.8923776
-7.7072129 4.8727708 -1.8853551
-7.6862311 4.9257765 -1.887627
-7.671453 4.9829717 -1.8915514
-7.6317439 5.0240312 -1.8892795
-7.5926337 5.0653348 -1.8872139
-7.5727587 5.1194983 -1.8901056
-7.5072999 5.1426449 -1.8814307
-7.4804268 5.1919589 -1.8826699
-7.4484286 5.2377605 -1.8826699
-7.4289012 5.2924476 -1.8859746
-7.3851795 5.329915 -1.8830831
-7.3420682 5.3676229 -1.8803979
-7.338089 5.4341149 -1.8880402
-7.2631226 5.4479237 -1.8770932
-7.2381282 5.4988976 -1.8793652
-7.2120061 5.5491724 -1.8814307
-7.1870828 5.6005368 -1.8839092
-7.156424 5.6475606 -1.8849419
-7.1178145 5.6883116 -1.8839092
-7.0820174 5.7312632 -1.8837026
-7.0489879 5.7764702 -1.8843223
-6.9998574 5.8083673 -1.8806045
-6.9723268 5.8581314 -1.8828765
-6.9198551 5.8868551 -1.8783325
-6.8702588 5.9177103 -1.8746147
-6.8168583 5.9449639 -1.8698641
-6.7993226 6.0035162 -1.8752344
-6.7587104 6.041863 -1.8742015
-6.7120795 6.0746851 -1.8715165
-6.7006512 6.1395497 -1.8789521
-6.6592669 6.1772218 -1.8779194
-6.6476297 6.2427473 -1.8855616
-6.5964351 6.2712846 -1.8818438
-6.594491 6.3469219 -1.8925842
-6.543509 6.375658 -1.8890729
-6.5014787 6.41294 -1.8882467
-6.4807019 6.4713774 -1.8938234
-6.4491301 6.5193672 -1.896302
-6.4233675 6.5735111 -1.9006394
-6.3924255 6.6226559 -1.9035311
-6.3199344 6.6284728 -1.8938234
-6.2999406 6.6892061 -1.9002264
-6.2561116 6.7248707 -1.8994001
-6.2107587 6.7588081 -1.8981609
-6.1685128 6.7960649 -1.8979543
-6.0959978 6.7995472 -1.8882467
-6.0794606 6.8653903 -1.896302
-6.0533257 6.9209752 -1.9014657
-6.0139437 6.9616895 -1.9024984
-5.968574 6.995482 -1.9016721
-5.9394093 7.0484333 -1.9062161
-5.8678832 7.0509019 -1.8969216
-5.8139472 7.0739241 -1.8934103
-5.7765994 7.1170616 -1.8954757
-5.7401648 7.1615334 -1.8979543
-5.6973286 7.198154 -1.8983674
-5.6675158 7.2514777 -1.9033245
-5.6288929 7.2938623 -1.90539
-5.5970798 7.3453841 -1.909934
-5.5389624 7.3623881 -1.90539
-5.5106034 7.419014 -1.9113798
-5.4505119 7.4329615 -1.9062161
-5.425457 7.4947968 -1.9136518
-5.3731098 7.5191889 -1.9113798
-5.3009276 7.5152383 -1.9018787
-5.2809925 7.585362 -1.9115864
-5.2509747 7.6418147 -1.9177828
-5.2133226 7.6876559 -1.921294
-5.1731286 7.7300706 -1.9239792
-5.1385417 7.7812614 -1.9289362
-5.1136703 7.8478932 -1.9378177
-5.0500751 7.8552551 -1.9318279
-4.9692869 7.8348675 -1.919022
-4.9496655 7.91083 -1.930382
-4.8825312 7.911078 -1.9229463
-4.8323717 7.9383802 -1.9223268
-4.7906227 7.9796257 -1.9252183
-4.7585196 8.0374956 -1.932241
-4.6987529 8.0487976 -1.9279035
-4.6356106 8.0537338 -1.9221202
-4.6030087 8.1118088 -1.9293493
-4.5756001 8.1800337 -1.939057
-4.534771 8.225091 -1.9431878
-4.4846849 8.2536211 -1.9433944
-4.4390378 8.2904711 -1.9456664
-4.3853455 8.3123608 -1.9444271
-4.3243313 8.3200121 -1.9398831
-4.2905908 8.3803549 -1.9479384
-4.2399702 8.4082708 -1.9483515
-4.192215 8.4420156 -1.9502105
-4.1377578 8.462306 -1.9489712
-4.0836344 8.4831276 -1.9479384
-4.0239635 8.4921093 -1.9442205
-3.9862566 8.5476751 -1.9514498
-3.9321015 8.5684166 -1.9506235
-3.8846872 8.6039753 -1.9533086
-3.8127561 8.5847273 -1.9433944
-3.7717602 8.6348591 -1.9495908
-3.7175481 8.6551428 -1.9489712
-3.6727457 8.6976194 -1.9535152
-3.6279368 8.7407761 -1.9582657
-3.5853233 8.7900505 -1.964462
-3.5422411 8.8391304 -1.9706584
-3.4614151 8.7933273 -1.9553741
-3.4017498 8.799799 -1.9520693
-3.3414412 8.8040409 -1.9483515
-3.3020468 8.8638029 -1.957233
-3.251965 8.8958435 -1.959918
-3.1986413 8.9193134 -1.9607443
-3.1406064 8.9295425 -1.9586788
-3.0959647 8.9782438 -1.9652883
-3.0448902 9.0091209 -1.9679734
-2.9913998 9.0332079 -1.9692127
-2.9395397 9.062561 -1.9716911
-2.8868396 9.0897522 -1.9737567
-2.8310115 9.1072941 -1.9737567
-2.7665348 9.0964108 -1.9675603
-2.7039723 9.0907068 -1.9626032
-2.6519673 9.1202803 -1.9654948
-2.5986309 9.145793 -1.9675603
-2.5416794 9.1587372 -1.9669406
-2.4974616 9.2185459 -1.9766483
-2.4393501 9.2280207 -1.975409
-2.3807278 9.2352352 -1.9737567
-2.3383245 9.3066053 -1.9861494
-2.2758255 9.2989187 -1.9813988
-2.2173648 9.3069973 -1.9801595
-2.1535876 9.2918329 -1.9739631
-2.0760984 9.2141943 -1.9543413
-2.0316584 9.282196 -1.966321
-1.9773095 9.3069296 -1.9690061
-1.928856 9.3610516 -1.9780941
-1.8771299 9.4014959 -1.9842905
-1.8082645 9.3551979 -1.9718977
-1.751907 9.3718872 -1.973137
-1.704109 9.4363804 -1.9847035
-1.6322314 9.3666553 -1.9675603
-1.5805633 9.411231 -1.9749959
-1.5252861 9.4362059 -1.9783007
-1.4667569 9.4415197 -1.9774745
-1.3991287 9.3855038 -1.9636359
-1.3408222 9.3890696 -1.9626032
-1.2851729 9.4116611 -1.9657013
-1.2320793 9.4552679 -1.9733435
-1.1770525 9.4869242 -1.9785072
-1.119507 9.4997988 -1.9797465
-1.0611962 9.5064888 -1.9797465
-0.99976689 9.4836302 -1.9735501
-0.94793636 9.5538473 -1.9871821
-0.87814462 9.4396534 -1.961777
-0.82833791 9.5384417 -1.9816054
-0.76711941 9.5101852 -1.9745828
-0.70656985 9.4854412 -1.9683864
-0.65035701 9.5188828 -1.9745828
-0.5902372 9.4953508 -1.9687996
-0.53721982 9.592577 -1.9886279
-0.47688806 9.5663757 -1.9824315
-0.41796711 9.5642347 -1.9813988
-0.35931095 9.5675964 -1.9816054
-0.29906052 9.5207233 -1.9712781
-0.24145389 9.5546579 -1.9780941
-0.18284181 9.5569372 -1.9783007
-0.1245042 9.5813599 -1.9832578
-0.065617234 9.5682459 -1.9803661
-0.0069130668 9.5772743 -1.9822251
0.051794291 9.5663738 -1.9799531
0.1109081 9.6020756 -1.9875952
0.16914998 9.5630608 -1.9795399
0.22754546 9.5501051 -1.9770614
0.28622732 9.5514631 -1.977681
0.34384114 9.5221491 -1.9718977
0.40242654 9.5237703 -1.972724
0.45995772 9.502553 -1.9687996
0.51862842 9.5063906 -1.9702454
0.57647479 9.4952164 -1.968593
0.63622606 9.5139542 -1.9733435
0.69188374 9.4727898 -1.9654948
0.75756222 9.5639534 -1.9857363
0.81373519 9.5298786 -1.9795399
0.86862677 9.4857311 -1.9712781
0.92643315 9.4763279 -1.970452
0.98395455 9.4646263 -1.9692127
1.0409389 9.4486847 -1.9671472
1.1025134 9.4732199 -1.9737567
1.1619287 9.4769592 -1.9760287
1.2156818 9.4356871 -1.9687996
1.2713292 9.4115667 -1.9652883
1.3343921 9.4413719 -1.9733435
1.387442 9.4000959 -1.966321
1.4450938 9.3914061 -1.966321
1.506868 9.4084482 -1.9718977
1.5655324 9.4048157 -1.973137
1.6178806 9.3641796 -1.9665276
1.6635809 9.2885847 -1.9524825
1.7294612 9.3263044 -1.9628097
1.7870224 9.3174381 -1.9632229
1.8422579 9.2967005 -1.9611573
1.9008349 9.2928905 -1.9628097
1.9564059 9.2743502 -1.9613639
2.0082886 9.2392244 -1.9564068
2.0719919 9.2582378 -1.9632229
2.1307359 9.253931 -1.9650817
2.1746321 9.1864109 -1.9533086
2.2360439 9.1938114 -1.9578526
2.2876737 9.1609325 -1.9537216
2.358654 9.2045403 -1.966321
2.3934553 9.1075649 -1.9483515
2.4602346 9.1333323 -1.957233
2.5149281 9.113349 -1.9562002
2.5614884 9.0647907 -1.9489712
2.6094503 9.0225849 -1.9431878
2.6730895 9.0345516 -1.9493842
2.7270577 9.0132971 -1.9483515
2.7808657 8.9917202 -1.9473188
2.8386385 8.9828854 -1.9491777
2.888895 8.9504004 -1.9458729
2.9446778 8.9352932 -1.9464926
2.9997602 8.917984 -1.9466991
3.0556939 8.9031124 -1.9475254
3.0999205 8.8546438 -1.9409158
3.1663632 8.8695517 -1.9485581
3.219388 8.8462782 -1.9477319
3.2644215 8.8015881 -1.9421551
3.3187113 8.7823076 -1.9423617
3.3665617 8.7462559 -1.9388504
3.4119525 8.7044821 -1.9340999
3.4522438 8.6506672 -1.9266642
3.5258768 8.6800871 -1.9382308
3.5760806 8.6510553 -1.9365784
3.6192336 8.6054993 -1.9312083
3.6577299 8.5498457 -1.923566
3.7124639 8.5326242 -1.9248053
3.7698948 8.5213175 -1.9274904
3.8377604 8.5328264 -1.9355457
3.8579099 8.438818 -1.9192286
3.9219835 8.4416084 -1.9254249
3.9490645 8.365181 -1.9132388
4.0108948 8.3628483 -1.9184024
4.0767016 8.3679876 -1.9254249
4.1058421 8.29809 -1.9148911
4.1698585 8.2989693 -1.9210875
4.1860223 8.2052441 -1.904977
4.2308903 8.1689777 -1.9024984
4.2868533 8.1541233 -1.9051834
4.3349628 8.1242132 -1.9043573
4.4028993 8.1310177 -1.9124125
4.4446979 8.0892706 -1.9089013
4.5047297 8.0806475 -1.9134452
4.5402598 8.0281563 -1.9074554
4.5787239 7.9814744 -1.9029114
4.6507368 7.9929786 -1.9126191
4.6887546 7.9457526 -1.9080751
4.736918 7.9159937 -1.9078685
4.7544417 7.835752 -1.8952693
4.8096085 7.818099 -1.8981609
4.8460984 7.7701759 -1.8936169
4.9193029 7.7808194 -1.9037377
4.9632573 7.7447219 -1.9022918
5.0048223 7.7050958 -1.9000198
5.0433979 7.6611652 -1.896715
5.0718503 7.6024013 -1.8896925
5.1370325 7.5986981 -1.896715
5.1979365 7.5880232 -1.9020853
5.2404928 7.5503597 -1.9006394
5.2867222 7.5180621 -1.9006394
5.3248053 7.4743252 -1.8977478
5.364841 7.433578 -1.8956823
5.4068871 7.3957806 -1.894443
5.4608989 7.3742604 -1.8975413
5.4954762 7.3265247 -1.8938234
5.5237556 7.2708516 -1.8880402
5.5706511 7.2399235 -1.8888663
5.6263957 7.2202706 -1.8927907
5.6469545 7.1556559 -1.8847355
5.6858683 7.1147571 -1.8830831
5.7257237 7.0751719 -1.8818438
5.7758498 7.0482311 -1.8841158
5.8171139 7.0103993 -1.8834962
5.8650546 6.9805675 -1.8851485
5.9052401 6.9414678 -1.8843223
5.9419742 6.8984308 -1.8824635
5.9539666 6.8271823 -1.8727558
5.9938025 6.7883205 -1.8721361
6.0314298 6.7470384 -1.8708968
6.062211 6.6982956 -1.8675921
6.0899777 6.646544 -1.8634613
6.1313105 6.6097689 -1.8636677
6.1697426 6.5698833 -1.8630481
6.2133093 6.5354486 -1.8640809
6.2560072 6.5000215 -1.864907
6.2752891 6.4404883 -1.8587106
6.322247 6.4095254 -1.8609827
6.3662953 6.3754592 -1.8624284
6.3858185 6.3170085 -1.8566452
6.4139624 6.2674489 -1.853547
6.4572253 6.2327328 -1.8549929
6.5045528 6.2017722 -1.8576779
6.5431962 6.162415 -1.8578845
6.5479326 6.0914931 -1.8483834
6.5931106 6.0584836 -1.8506553
6.6366811 6.0238338 -1.8525143
6.7033858 6.0097785 -1.8609827
6.73281 5.9620476 -1.8589172
6.7589555 5.9116049 -1.8560256
6.7891779 5.8649044 -1.8543732
6.8548088 5.8485403 -1.862635
6.903285 5.8170886 -1.8661463
6.9072623 5.748333 -1.8574713
6.9575205 5.7182684 -1.8616023
7.0084291 5.6884193 -1.8659397
7.029459 5.634294 -1.862222
7.0661998 5.5928779 -1.8628416
7.1026964 5.5512228 -1.8634613
7.1133871 5.4896026 -1.8572649
7.1625013 5.4577131 -1.8613957
7.2310376 5.440134 -1.8706903
7.280776 5.4079156 -1.8750278
7.2838387 5.3411522 -1.867179
7.2808099 5.2705388 -1.8578845
7.336894 5.2428322 -1.8640809
7.380918 5.2061753 -1.867179
7.3998761 5.1518435 -1.8638743
7.4652162 5.1296163 -1.8725492
7.4884524 5.0782218 -1.8704838
7.5414252 5.0468717 -1.8760605
7.5885792 5.0112877 -1.8801914
7.5757389 4.9363184 -1.8692445
7.641274 4.9124951 -1.8781259
7.6489644 4.851366 -1.8725492
7.6918588 4.8126459 -1.875854
7.693768 4.7483997 -1.869038
7.7369661 4.7097521 -1.8725492
7.7514586 4.6536279 -1.869038
7.7832346 4.6079721 -1.8698641
7.8130522 4.5611153 -1.8702772
7.8451314 4.5155301 -1.87131
7.8939643 4.4793811 -1.8764735
7.9520411 4.4480572 -1.8839092
7.9217772 4.367527 -1.8700707
7.9948506 4.3440652 -1.8812242
7.9972034 4.2819948 -1.8754408
8.0181351 4.2301049 -1.8742015
8.031785 4.174509 -1.87131
8.0276375 4.1099868 -1.8642874
8.0754185 4.0721078 -1.8696576
8.1431923 4.043807 -1.8797783
8.192462 4.0058002 -1.8855616
8.204545 3.9495149 -1.8826699
8.240119 3.9045455 -1.8853551
8.2444134 3.8448129 -1.8808111
8.2589569 3.7900724 -1.8787456
8.2865152 3.7413385 -1.8797783
8.3271999 3.6983666 -1.8839092
8.3335972 3.6401517 -1.8801914
8.3638668 3.5924249 -1.8820503
8.3596125 3.5299985 -1.8760605
8.4181652 3.4940183 -1.8845289
8.4249506 3.4363866 -1.8812242
8.4495096 3.3860834 -1.8820503
8.4601126 3.3302317 -1.8797783
8.4840384 3.2796702 -1.8806045
8.503087 3.2272041 -1.8803979
8.5383158 3.1807766 -1.8839092
8.5916729 3.1407578 -1.8915514
8.5767059 3.0757589 -1.8839092
8.6147995 3.0298934 -1.8882467
8.6304541 2.9760199 -1.887627
8.684701 2.9352279 -1.8956823
8.7071924 2.8834226 -1.896715
8.7293739 2.8314517 -1.8977478
8.7242022 2.7707269 -1.8927907
8.7541199 2.7212107 -1.8956823
8.728528 2.6546319 -1.8863878
8.7849789 2.6130214 -1.8952693
8.8017855 2.5593417 -1.8954757
8.7853241 2.4961932 -1.8884532
8.8259306 2.4493058 -1.89403
8.8851786 2.4071317 -1.9037377
8.8657284 2.3435647 -1.896302
8.8638344 2.2849686 -1.8927907
8.8805342 2.2312536 -1.8934103
8.9092636 2.1804438 -1.896715
8.8910666 2.118252 -1.889899
8.9382105 2.0716121 -1.8973347
8.9688883 2.0208163 -1.9012591
8.9409752 1.9569579 -1.8925842
8.9614286 1.9038907 -1.894443
8.9834833 1.8510411 -1.896715
8.9783602 1.7926271 -1.8932039
9.0064821 1.7408463 -1.8969216
9.0352678 1.6889675 -1.900846
9.0069475 1.6265393 -1.8925842
9.0668812 1.5799798 -1.9033245
9.1014929 1.5285312 -1.9086947
9.0054178 1.4556341 -1.8861812
0 0 -0
5.8764896 0.87587696 -1.2147011
0 0 -0
0 0 -0
0 0 -0
0 0 -0
0 0 -0
0 0 -0
0 0 -0
0 0 -0
0 0 -0
0 0 -0
0 0 -0
0 0 -0
0 0 -0
0 0 -0
0 0 -0
0 0 -0
0 0 -0
0 0 -0
0 0 -0
0 0 -0
0 0 -0
0 0 -0
0 0 -0
0 0 -0
0 -0 -0
0 -0 -0
0 -0 -0
0 -0 -0
0 -0 -0
0 -0 -0
0 -0 -0
0 -0 -0
0 -0 -0
0 -0 -0
5.8861752 -0.39377868 -1.2058196
5.8924308 -0.43052927 -1.2076786
5.9091859 -0.4682208 -1.2118094
5.914001 -0.50513572 -1.2134618
0 -0 -0
5.9560466 -0.58242953 -1.2237891
6.0749836 -0.63170701 -1.2498138
8.9740772 -0.98867261 -1.8663528
8.6966867 -1.0121719 -1.8087265
8.3950768 -1.0293297 -1.7459366
8.2449799 -1.0623236 -1.7153679
8.1394043 -1.0995381 -1.6943003
8.0598431 -1.1391934 -1.6788093
8.0904512 -1.1941965 -1.6868646
8.1874142 -1.2598826 -1.7091715
8.1872587 -1.3113334 -1.7108239
8.1723022 -1.3604205 -1.7093781
8.1541595 -1.4088738 -1.7073126
8.1424723 -1.4583629 -1.7066931
8.0987368 -1.5018759 -1.6992574
8.072072 -1.5482239 -1.6955395
8.0461044 -1.5944915 -1.6920283
8.0467138 -1.6459877 -1.6943003
8.0316763 -1.6943209 -1.6932676
8.0134792 -1.7419082 -1.6916151
8.0064602 -1.7918998 -1.6924413
7.9571743 -1.8322127 -1.6841795
7.901032 -1.870411 -1.6744719
7.8675399 -1.9135385 -1.6697214
7.2908196 -1.8207521 -1.5468266
7.5420575 -1.9327192 -1.6040398
7.7619042 -2.0398786 -1.6546434
7.7407384 -2.0851762 -1.6527846
7.712707 -2.1284695 -1.6494799
7.681612 -2.1706994 -1.6455555
7.6418304 -2.2101815 -1.6397722
7.5887189 -2.2453718 -1.6310973
7.5860367 -2.2952929 -1.6335758
7.5549846 -2.3365939 -1.629858
7.5349073 -2.3811376 -1.6286187
7.5257421 -2.4291291 -1.629858
7.4995441 -2.471586 -1.6273794
7.4981484 -2.5222344 -1.6304777
7.4779038 -2.5666068 -1.6294448
7.4500093 -2.6082397 -1.6267598
7.4449229 -2.65785 -1.6292384
7.3962936 -2.691771 -1.6220093
7.4282594 -2.7551341 -1.6329561
7.4313507 -2.8082695 -1.6375002
7.4148927 -2.854166 -1.6377068
7.4500766 -2.9203172 -1.6496863
7.487452 -2.9880946 -1.6622857
7.4744158 -3.0361896 -1.663525
7.4438901 -3.0771358 -1.6608398
7.4113402 -3.1170635 -1.6577417
7.3731833 -3.1543989 -1.6534042
7.3240814 -3.1867001 -1.6465882
7.2990217 -3.2292049 -1.6453489
7.2808547 -3.2747326 -1.645762
7.226809 -3.3038881 -1.6379132
7.1895409 -3.3403366 -1.6339889
7.1565223 -3.3785408 -1.6310973
7.1303639 -3.4198501 -1.629858
7.0960512 -3.4571097 -1.6267598
7.0711975 -3.4988496 -1.6259336
7.0426016 -3.5386577 -1.6242813
7.0251141 -3.5840268 -1.625314
6.9925647 -3.6216652 -1.6228354
6.9693446 -3.6640472 -1.6226289
6.9398251 -3.7030568 -1.6209766
6.91009 -3.7418423 -1.6193242
6.8852849 -3.7832291 -1.618911
6.8653607 -3.8273108 -1.6197373
6.8298235 -3.8626211 -1.6168456
6.7924151 -3.896666 -1.6135409
6.7709146 -3.9397461 -1.6141605
6.7255464 -3.9687872 -1.6089969
6.9453964 -4.1561713 -1.6691017
6.8612075 -4.1631827 -1.6546434
6.8322001 -4.2031536 -1.6538173
6.791337 -4.2356763 -1.6500995
6.7842417 -4.2892928 -1.65485
6.7841573 -4.3477321 -1.6614594
6.7163243 -4.3626299 -1.6511322
6.6853433 -4.4010687 -1.6500995
6.6541429 -4.4392915 -1.6490667
6.6332636 -4.4844203 -1.650719
6.6136951 -4.5305662 -1.6527846
6.5713029 -4.5610204 -1.6490667
6.523984 -4.5877485 -1.6441096
6.4805698 -4.6169066 -1.6401852
6.4322834 -4.6422696 -1.6350217
6.3934093 -4.6741433 -1.6323365
6.4267292 -4.7592826 -1.6486536
6.3747063 -4.7816019 -1.6426638
6.3226523 -4.8034625 -1.636674
6.2612653 -4.8177052 -1.6282057
6.2531967 -4.8728714 -1.6339889
6.1993685 -4.8923597 -1.627586
6.1478305 -4.9132037 -1.6218027
6.1015954 -4.9379082 -1.6174653
6.0779934 -4.9808354 -1.6193242
6.0556002 -5.0249081 -1.6215961
6.0358911 -5.0714107 -1.6246943
6.0098767 -5.1127882 -1.6261401
5.9643064 -5.1374359 -1.6222157
5.9444699 -5.1842246 -1.6255205
5.9096146 -5.2180114 -1.6246943
5.8796744 -5.2561297 -1.625314
5.830627 -5.2770081 -1.6205634
5.7728882 -5.2895508 -1.6133343
5.7388883 -5.3235421 -1.6129212
5.687571 -5.3412414 -1.6075511
5.6653275 -5.3861508 -1.6106492
5.6279421 -5.4167404 -1.6094099
5.6030097 -5.4593644 -1.6118885
5.5624399 -5.4867702 -1.609823
5.5113592 -5.5035143 -1.6046594
5.4946899 -5.5546169 -1.609823
5.4605041 -5.5882273 -1.609823
5.4349465 -5.6307783 -1.6125082
2.2558284 -2.3663304 -0.65062463
2.2627337 -2.4029191 -0.65723413
2.2352841 -2.4031472 -0.65330976
2.2191725 -2.4153764 -0.65289664
5.2129741 -5.7434072 -1.5978434
5.1828609 -5.7811131 -1.5994958
5.1219916 -5.7842388 -1.5914404
5.1012201 -5.8324962 -1.596191
5.0749316 -5.8747931 -1.5992892
5.0337081 -5.8998671 -1.5976368
5.0175891 -5.9545841 -1.6042463
4.9477844 -5.9454012 -1.5932994
4.9223943 -5.989254 -1.5970172
4.8991184 -6.036057 -1.6015612
4.894424 -6.1064658 -1.6125082
4.8064594 -6.0727072 -1.5953648
2.0094097 -2.5714204 -0.64938539
1.987018 -2.5751812 -0.64711338
1.9670283 -2.5818772 -0.64566755
1.9476196 -2.5892069 -0.64442825
1.9305289 -2.5995378 -0.64401519
1.7837731 -2.4330184 -0.59733582
1.7693845 -2.4447103 -0.59754241
1.7469552 -2.4451723 -0.59485728
4.4408236 -6.2959628 -1.5868964
4.3976364 -6.316669 -1.5852441
4.3621202 -6.348372 -1.5864834
4.3159456 -6.3644905 -1.5837983
4.2642956 -6.3721514 -1.5790477
4.2051659 -6.3679876 -1.5714055
4.1617398 -6.3871126 -1.5697532
4.1256456 -6.4174662 -1.5709925
4.084095 -6.4393549 -1.5701662
4.0424309 -6.4609756 -1.5693401
4.0124755 -6.5014772 -1.5732645
4.0071054 -6.5828056 -1.5873096
3.9857776 -6.6391449 -1.5951583
3.8941185 -6.5776 -1.5740906
3.8729255 -6.6343236 -1.5821459
1.6638628 -2.8912461 -0.66466975
1.6451254 -2.8996992 -0.66425669
1.6268245 -2.908885 -0.6640501
3.6895745 -6.6922421 -1.5736775
3.6437705 -6.7061582 -1.5716121
3.5942397 -6.7128639 -1.5678942
3.5840309 -6.7936363 -1.5819393
3.5544627 -6.8389397 -1.5875161
3.4941494 -6.8249135 -1.5790477
3.4376676 -6.8173952 -1.5722318
3.4083934 -6.8637733 -1.5782216
3.373091 -6.8986211 -1.5815263
3.3230588 -6.9033194 -1.5778085
3.2642968 -6.8890963 -1.5697532
3.2318904 -6.9302778 -1.5747102
3.1721649 -6.9126291 -1.5660354
3.1296899 -6.931963 -1.5660354
3.0811396 -6.937623 -1.5629371
3.0443885 -6.9698472 -1.5660354
2.9957724 -6.9749107 -1.5629371
2.972713 -7.0400319 -1.5736775
2.9234581 -7.0436807 -1.5703728
2.8872058 -7.0786991 -1.5742972
2.821877 -7.0417891 -1.5619044
2.7732401 -7.0453148 -1.5588063
2.7221963 -7.0421214 -1.5542623
2.6778936 -7.0559473 -1.5536426
2.6335239 -7.0694952 -1.553023
2.5850573 -7.0717373 -1.5499247
2.5442598 -7.0948334 -1.5515771
2.5013282 -7.1121573 -1.5519903
2.4547708 -7.1190462 -1.5501313
2.4116695 -7.1358285 -1.5505444
2.3736844 -7.1681395 -1.5544688
2.3317702 -7.1890841 -1.5559146
2.2692502 -7.1454396 -1.5431088
2.2393069 -7.2040763 -1.553023
2.2027493 -7.2429552 -1.5585997
2.1604979 -7.2638373 -1.5602521
2.1156139 -7.2760177 -1.5600455
2.0663824 -7.272862 -1.5565343
2.0306153 -7.3174591 -1.5635568
1.9849102 -7.3269477 -1.5629371
1.9306622 -7.3039894 -1.555295
1.8814123 -7.2986441 -1.5515771
1.8408856 -7.3271317 -1.555295
1.796823 -7.3420906 -1.5561211
1.7510586 -7.3501225 -1.5555015
1.7037165 -7.3511968 -1.553436
1.6609446 -7.3720117 -1.5557081
1.613587 -7.3725061 -1.5536426
1.5689299 -7.3851395 -1.5542623
1.529116 -7.4214592 -1.5600455
1.482592 -7.4259048 -1.5590128
1.4321707 -7.4098849 -1.5536426
1.3859582 -7.4146862 -1.5528164
1.3399147 -7.4201622 -1.5521967
1.2867997 -7.3848681 -1.5429022
1.2374104 -7.3685021 -1.5377386
1.1812429 -7.3083434 -1.5232804
1.1369785 -7.3193212 -1.5241066
1.0888718 -7.3048697 -1.5195626
1.0440296 -7.3114133 -1.5195626
1.0003396 -7.3264065 -1.5214214
0.95271105 -7.3120317 -1.517084
0.90601963 -7.303175 -1.5139859
0.86050379 -7.3027663 -1.5127466
0.81622165 -7.3127708 -1.5137793
0.77184904 -7.3225069 -1.514812
0.72709775 -7.329052 -1.5152251
0.68120712 -7.3236332 -1.5131596
0.63583386 -7.3228016 -1.5121269
0.59191328 -7.3392434 -1.514812
0.54643303 -7.3368826 -1.5135727
0.50100404 -7.3342404 -1.5123335
0.45599258 -7.3371768 -1.5123335
0.41123769 -7.3447208 -1.5133662
0.36601731 -7.3441744 -1.5127466
0.32103294 -7.348237 -1.5131596
0.27630657 -7.3598461 -1.5152251
0.23117295 -7.3623805 -1.5154316
0.18559773 -7.3480105 -1.5121269
0.14073278 -7.3607502 -1.5146054
0.095718466 -7.3732152 -1.517084
0.050657731 -7.4000812 -1.5226607
0.0053157322 -7.4853764 -1.5406302
-0.040724162 -7.505815 -1.5449677
-0.08684577 -7.5112944 -1.546207
-0.13303615 -7.5164895 -1.5474463
-0.17964253 -7.5360732 -1.5517837
-0.22394802 -7.4702811 -1.5381516
-0.27076808 -7.4961448 -1.5439349
-0.31725365 -7.506073 -1.5464135
-0.36420208 -7.5225539 -1.5503379
-0.41184399 -7.547533 -1.5561211
-0.45862105 -7.5526772 -1.5577735
-0.50025719 -7.4794302 -1.5429022
-0.54749411 -7.494761 -1.5468266
-0.59478354 -7.5078421 -1.5503379
-0.64142203 -7.5108752 -1.5517837
-0.68401766 -7.4687982 -1.5437285
-0.73106956 -7.4771199 -1.5464135
-0.77875495 -7.4900107 -1.5501313
-0.82941061 -7.527884 -1.5592194
-0.87490684 -7.5168219 -1.5579801
-0.92113173 -7.5122833 -1.5581867
-0.96858376 -7.5171642 -1.5604587
-1.0182253 -7.5372601 -1.5660354
-1.0617162 -7.5114942 -1.5619044
-1.1099283 -7.5193572 -1.5650027
-1.1576817 -7.5230432 -1.5672746
-1.2030469 -7.5109677 -1.5662419
-1.244774 -7.477385 -1.5606651
-1.2969594 -7.5062447 -1.5685139
-1.3360944 -7.4596205 -1.5602521
-1.3841593 -7.4637885 -1.5629371
-1.4293774 -7.4522719 -1.5623175
