# .PCD v0.7 - Point Cloud Data file format
VERSION 0.7
FIELDS x y z
SIZE 4 4 4
TYPE F F F
COUNT 1 1 1
WIDTH 1531
HEIGHT 1
VIEWPOINT 0 0 0 1 0 0 0
POINTS 1531
DATA ascii
3.0351367 6.7418008 -1.8828185
3.074836 6.7195306 -1.8818115
3.1151922 6.698782 -1.8813081
3.1570635 6.6812916 -1.8818115
3.2005124 6.6670294 -1.8833219
3.2426326 6.6498756 -1.8840771
3.288528 6.6402617 -1.8870978
3.3313837 6.6242814 -1.8883566
3.3644857 6.5890627 -1.8840771
3.3830299 6.5261917 -1.8717422
3.3928189 6.447926 -1.8548763
3.4423478 6.4457684 -1.8604143
3.4892108 6.4381394 -1.864442
3.5361097 6.4301777 -1.8684697
3.5679541 6.3948369 -1.864442
3.5990214 6.3585052 -1.8601626
3.624959 6.3136406 -1.8533659
3.6675265 6.2979703 -1.8553797
3.7075772 6.2778482 -1.8561349
3.7485137 6.2591324 -1.8573935
3.7773049 6.2202964 -1.8526106
3.8148935 6.196178 -1.8523589
3.8390059 6.150486 -1.8455622
3.8916779 6.1505327 -1.8528624
3.9340453 6.1338701 -1.8551279
3.9705532 6.1079926 -1.8546245
4.0308495 6.1182675 -1.865449
4.0677772 6.0926147 -1.8651972
4.0915275 6.0475006 -1.8589039
4.1154246 6.0031233 -1.8528624
4.1450047 5.9674249 -1.8495898
4.1915669 5.9561257 -1.8541211
4.2370229 5.9429035 -1.8581487
4.2892733 5.9387627 -1.8651972
4.3170605 5.9006157 -1.8614212
4.3520327 5.8724604 -1.8609178
4.3717165 5.8239737 -1.8538693
4.4284544 5.8247757 -1.8629316
4.463521 5.7967267 -1.86268
4.5103121 5.783731 -1.8674628
4.549314 5.7605047 -1.8689733
4.5718813 5.7166095 -1.8636868
4.5959086 5.674911 -1.8591557
4.6380067 5.6555848 -1.8621764
4.6818948 5.6381888 -1.8659524
4.7008324 5.5908356 -1.8596591
4.7432036 5.5714669 -1.8629316
4.762136 5.5246639 -1.8568901
4.80549 5.506278 -1.860666
4.8398261 5.4774137 -1.8609178
4.8836675 5.4591556 -1.8649455
4.9222693 5.4348259 -1.8669593
4.9705667 5.4209285 -1.8727492
4.9859591 5.3711758 -1.8659524
5.0174966 5.3390708 -1.865449
5.0534973 5.3116894 -1.8667076
5.0618258 5.255486 -1.8576453
5.1223526 5.2534328 -1.8682179
5.153811 5.2212152 -1.8679663
5.1836987 5.1874399 -1.8672111
5.2140541 5.1541748 -1.8667076
5.2601218 5.1362844 -1.871994
5.2810903 5.0938334 -1.8682179
5.308042 5.0573277 -1.8667076
5.3453159 5.030633 -1.8689733
5.3633246 4.9858785 -1.864442
5.4059343 4.964004 -1.8687215
5.4391584 4.9333415 -1.8697284
5.4844632 4.9134369 -1.8750148
5.5123339 4.877768 -1.8742596
5.5290437 4.8323884 -1.8697284
5.5432067 4.7850909 -1.864442
5.5695176 4.7484765 -1.8634351
5.5926266 4.7092261 -1.8614212
5.6407623 4.6909118 -1.8679663
5.6881356 4.6715693 -1.8742596
5.7189479 4.6384087 -1.8750148
5.7548542 4.6092811 -1.8775321
5.761775 4.5570717 -1.8704836
5.7957296 4.5263982 -1.8724974
5.8157306 4.4848404 -1.8699801
5.8531489 4.4566936 -1.8732526
5.9020438 4.4369802 -1.8803011
5.9244952 4.3972216 -1.8787907
5.9435582 4.3550663 -1.8762734
5.9787936 4.3247552 -1.8790425
6.009943 4.2913632 -1.8805529
6.0456533 4.261097 -1.8835737
6.0287857 4.1940742 -1.8699801
6.0927014 4.1832995 -1.8820633
6.107039 4.1382356 -1.878539
6.1588631 4.1184402 -1.8868462
6.1775556 4.0763078 -1.8848323
6.188664 4.0293489 -1.8805529
6.2124567 3.9907768 -1.8803011
6.2392788 3.9541371 -1.8810563
6.2437296 3.9034653 -1.8750148
6.2972174 3.8833704 -1.8840771
6.3234072 3.8461671 -1.8848323
6.3319497 3.7983329 -1.8803011
6.3434753 3.7525103 -1.8767769
6.3713965 3.7164428 -1.8782873
6.3982749 3.6796913 -1.8795459
6.4165235 3.6379762 -1.8782873
6.4556203 3.6079807 -1.8833219
6.4878087 3.5739059 -1.8863426
6.5002604 3.5289505 -1.8835737
6.5328846 3.4949346 -1.8868462
6.5165367 3.4349253 -1.87577
6.5529499 3.4029052 -1.8803011
6.5883536 3.3701262 -1.8845805
6.6244655 3.3374763 -1.8891118
6.6621575 3.3053701 -1.8941463
6.667531 3.2572072 -1.8898669
6.6777978 3.2116201 -1.8870978
6.7104988 3.1767976 -1.8908738
6.7246017 3.1331103 -1.8893634
6.7630534 3.1006644 -1.8949015
6.7837157 3.0599048 -1.8954051
6.7970557 3.0158677 -1.8938947
6.8225288 2.9772019 -1.8959085
6.8415575 2.9356654 -1.8961602
6.8344746 2.8830972 -1.8891118
6.8770671 2.8514879 -1.8961602
6.8989153 2.8110635 -1.8974189
6.892674 2.7593265 -1.8908738
6.9337926 2.7265458 -1.8976706
6.9422665 2.6808114 -1.8954051
6.985733 2.648458 -1.902957
6.9936891 2.6025062 -1.9006914
6.999526 2.5558927 -1.8979223
7.0187216 2.5142021 -1.8989292
7.0294509 2.4694846 -1.8976706
7.049046 2.4278822 -1.8989292
7.0482225 2.3793213 -1.8946499
7.0709586 2.3387651 -1.8969154
7.1045098 2.301599 -1.9022018
7.092669 2.2497687 -1.8951533
7.1294465 2.2133815 -1.9014466
7.1382632 2.1681879 -1.9001878
7.1569986 2.1260014 -1.9016984
7.1717677 2.0825865 -1.9022018
7.1918597 2.0406561 -1.9042156
7.222898 2.0016594 -1.9092503
7.2014127 1.9482027 -1.9001878
7.221653 1.9062024 -1.9024535
7.2332129 1.8618553 -1.9024535
7.2632751 1.8221489 -1.9074881
7.2639775 1.7750205 -1.9047191
7.2700243 1.7292961 -1.9034604
7.2672982 1.6816003 -1.8999362
7.2859769 1.6388893 -1.9022018
7.2902231 1.5929127 -1.9006914
7.3150072 1.5513641 -1.9047191
7.3224931 1.5060608 -1.9042156
7.3382397 1.4624269 -1.9059777
7.3651299 1.4208568 -1.9107606
7.3584876 1.3727978 -1.9067329
7.3715348 1.3284798 -1.9079915
7.3690591 1.2813995 -1.9052225
7.36342 1.2339196 -1.9016984
7.4004712 1.1934936 -1.909502
6.242795 0.96746606 -1.602893
5.8475204 0.86947632 -1.4974174
5.8297505 0.83030361 -1.4913759
5.8117208 0.79138184 -1.4853343
5.8279839 0.757204 -1.488355
5.8094692 0.71857709 -1.4823135
5.8022346 0.68156165 -1.4792928
0 0 -0
0 0 -0
0 0 -0
0 0 -0
0 0 -0
0 0 -0
0 0 -0
0 0 -0
5.8078256 0.35883301 -1.4732512
5.7992887 0.3225981 -1.4704821
5.804059 0.28715193 -1.4712373
0 0 -0
5.8090801 0.21597762 -1.4717408
5.8160996 0.18051024 -1.4732512
5.8141952 0.14474747 -1.472496
5.8091683 0.10896022 -1.4709857
5.8087597 0.073301502 -1.4707339
5.7258716 0.037113052 -1.449085
5.7879305 0.0020047396 -1.4651958
5.8100929 -0.033636726 -1.4709857
5.8097768 -0.069286153 -1.4709857
5.7395725 -0.10367924 -1.452861
0 -0 -0
0 -0 -0
0 -0 -0
0 -0 -0
0 -0 -0
0 -0 -0
0 -0 -0
5.8366866 -0.39251232 -1.4813066
5.8486462 -0.42938012 -1.4850826
5.8931746 -0.46901774 -1.4974174
5.8901858 -0.5051688 -1.4974174
5.9794941 -0.54980153 -1.5215837
5.8951011 -0.57854593 -1.5004382
7.5114598 -0.78362876 -1.9241024
7.4997764 -0.82895952 -1.9223403
7.5022392 -0.87585908 -1.9243542
7.4986448 -0.92211163 -1.9248576
7.4755688 -0.96587372 -1.9203265
7.4666243 -1.0113353 -1.9195713
7.4401555 -1.0542802 -1.9142848
7.2037749 -1.0659262 -1.8538693
7.038321 -1.085626 -1.8120818
6.8385019 -1.0978159 -1.7612321
6.7476311 -1.1257453 -1.7390797
6.6862407 -1.1577183 -1.724731
6.5989938 -1.1843661 -1.7035856
6.515481 -1.2106944 -1.683447
6.5725579 -1.2630657 -1.7005647
6.6406264 -1.3184435 -1.7207034
6.6314635 -1.3589706 -1.7204516
6.6116376 -1.3972343 -1.7174308
6.5963202 -1.4363353 -1.7156687
6.5732174 -1.4736078 -1.7118927
6.5687671 -1.5149997 -1.7131513
6.5207376 -1.5461241 -1.7028303
6.489501 -1.5808384 -1.6970406
6.4637179 -1.6166365 -1.6927611
6.4405527 -1.6528994 -1.6892369
6.4209299 -1.689924 -1.6867195
6.3880138 -1.723242 -1.680678
6.3278794 -1.7487457 -1.6673362
6.3496237 -1.7967609 -1.6761469
6.3273239 -1.8324577 -1.6731261
6.2992582 -1.8662993 -1.6685948
6.2821307 -1.9032325 -1.6670845
6.2398262 -1.9322973 -1.6587774
6.2426157 -1.9752182 -1.6628051
6.2027512 -2.0045583 -1.6552531
6.1949301 -2.044096 -1.6565118
6.1712646 -2.0783629 -1.653491
6.1455817 -2.1117876 -1.6499667
6.1242886 -2.1465759 -1.6477011
6.119204 -2.1870444 -1.6499667
6.0811172 -2.2156062 -1.64317
6.0782957 -2.2569194 -1.6461908
6.0634279 -2.2938302 -1.645939
6.0519481 -2.3320353 -1.6466942
6.0375252 -2.3691254 -1.6466942
6.0372548 -2.4118702 -1.6507219
6.0205493 -2.4481397 -1.6502185
6.0125685 -2.4879949 -1.6522323
5.9962974 -2.5244651 -1.6519806
5.9735775 -2.5581627 -1.6499667
5.9497824 -2.5912902 -1.6477011
5.9479294 -2.6340177 -1.6517289
5.9307728 -2.6700668 -1.6514771
5.8896365 -2.6951327 -1.6444286
5.8879075 -2.7381568 -1.6487081
5.8552446 -2.7667913 -1.644177
5.8381577 -2.8026662 -1.644177
5.8208508 -2.8384359 -1.644177
5.7972541 -2.8710921 -1.6424148
5.7682877 -2.9009573 -1.6391423
5.7538271 -2.9380565 -1.6401492
5.7451429 -2.978205 -1.6429182
5.7224784 -3.0111473 -1.6416596
5.6842594 -3.0357182 -1.6358697
5.6663761 -3.0710001 -1.6361215
5.6542106 -3.109441 -1.6381353
5.6316442 -3.1421902 -1.6371285
5.6072049 -3.173826 -1.6356181
5.5976968 -3.2139535 -1.6386389
5.5577984 -3.2365522 -1.6325973
5.555335 -3.2809274 -1.6378837
5.5201535 -3.3060031 -1.6333525
5.5063825 -3.3438301 -1.6353663
5.5121341 -3.3937891 -1.6434218
5.4977746 -3.4316461 -1.6454356
5.4741611 -3.463763 -1.6446804
5.4633956 -3.5040784 -1.6479529
5.4158258 -3.5206575 -1.6398975
5.3925052 -3.5527573 -1.639394
5.3681898 -3.584166 -1.6386389
5.3356757 -3.6099877 -1.6353663
5.3230038 -3.649225 -1.6383871
5.2965379 -3.6790574 -1.6371285
5.2683234 -3.7075884 -1.6353663
5.258872 -3.7493947 -1.6396458
5.2083063 -3.7617607 -1.6308352
5.2132463 -3.8142183 -1.6398975
5.1749706 -3.8351867 -1.6351146
5.1203794 -3.8436294 -1.6250453
5.1175013 -3.8907888 -1.6318421
5.0797286 -3.9114885 -1.6273109
5.0396051 -3.9300864 -1.6220245
5.054132 -3.9915233 -1.6348629
5.0484419 -4.0375705 -1.6411562
5.0085301 -4.0562901 -1.6361215
4.9753146 -4.0801954 -1.6333525
4.9755015 -4.1316662 -1.6419114
4.9596868 -4.1702142 -1.6451838
4.942112 -4.207468 -1.6479529
4.9228001 -4.2433996 -1.6502185
4.8850031 -4.2633443 -1.6461908
4.8747082 -4.3073354 -1.6517289
4.8373671 -4.3274865 -1.6479529
4.8071361 -4.3538384 -1.6466942
4.7981648 -4.3996029 -1.6529875
4.7732072 -4.4309363 -1.6537427
4.7459297 -4.4601407 -1.6537427
4.6995411 -4.4711671 -1.646946
4.6978106 -4.5247583 -1.65626
4.6498628 -4.533906 -1.6489599
4.5999141 -4.5405965 -1.6409044
2.3236763 -2.3223083 -0.81421798
2.310744 -2.337899 -0.81472147
2.2970316 -2.3527257 -0.81497318
4.5274115 -4.6939087 -1.6560084
4.4671464 -4.6886697 -1.644177
4.4190574 -4.6955543 -1.6368767
4.3789601 -4.7105312 -1.6325973
4.4252553 -4.8192854 -1.6615463
4.3890991 -4.8391795 -1.6590291
4.3515739 -4.8573699 -1.6560084
4.3082185 -4.8687592 -1.6507219
4.272531 -4.8885446 -1.6484563
4.226644 -4.8963542 -1.642163
4.1958933 -4.9214597 -1.6419114
4.1631231 -4.9441514 -1.6409044
4.1308513 -4.9673705 -1.6401492
4.0880089 -4.9776664 -1.6351146
4.0701928 -5.0184402 -1.640401
4.0375085 -5.0410538 -1.6396458
4.0059004 -5.0649734 -1.639394
2.0052452 -2.5679305 -0.8071695
1.9859048 -2.5755877 -0.80565912
1.9665459 -2.5831048 -0.80414873
1.9489144 -2.592802 -0.80339354
1.9300845 -2.600826 -0.80213487
1.8185558 -2.482255 -0.76009572
1.7425941 -2.4094656 -0.73316044
1.7002177 -2.3815207 -0.72082561
1.6833426 -2.3887441 -0.71981865
3.6568213 -5.2565985 -1.6252971
3.6294291 -5.2861176 -1.6275626
3.5980115 -5.3098903 -1.6280661
3.5599828 -5.3238225 -1.6255488
3.5267165 -5.344758 -1.6252971
3.4964957 -5.3703523 -1.6265557
3.4634781 -5.391705 -1.6265557
3.4282575 -5.4095855 -1.6255488
3.3929482 -5.4272366 -1.6245419
3.3580592 -5.4454818 -1.6237867
3.3210623 -5.4601965 -1.6220245
3.2934713 -5.4904299 -1.6250453
3.2671125 -5.5230289 -1.6288213
3.2331624 -5.5429716 -1.6288213
3.2000556 -5.5643835 -1.6293248
3.1677623 -5.5872812 -1.6303316
3.1268091 -5.5947862 -1.6268075
3.0863502 -5.6028471 -1.6235349
3.0436013 -5.60637 -1.6190038
1.587841 -2.968518 -0.83536345
1.5704993 -2.9799173 -0.83586693
1.5530775 -2.9912152 -0.83637041
2.9055381 -5.6802368 -1.6192555
2.8728075 -5.7022791 -1.6205142
2.8326027 -5.7093959 -1.6174934
2.7992167 -5.7301469 -1.6185004
2.7593899 -5.7376213 -1.6157312
2.7220619 -5.750071 -1.6144726
2.6789622 -5.7499976 -1.6096897
2.6512947 -5.783042 -1.6144726
2.610985 -5.7886147 -1.6114519
2.5699217 -5.7921419 -1.6079276
2.5397532 -5.82022 -1.6114519
2.503993 -5.8356938 -1.6114519
2.4805536 -5.880374 -1.619759
2.448133 -5.9044232 -1.6222763
2.3994401 -5.8888617 -1.6137174
2.3578656 -5.8899965 -1.6099415
2.3216808 -5.9043531 -1.6099415
2.2822704 -5.9103627 -1.6076758
2.2370408 -5.9007268 -1.6011308
2.2068689 -5.9306684 -1.605662
2.1661212 -5.9322801 -1.6023895
2.1401262 -5.9746141 -1.6104449
2.1037471 -5.9885464 -1.6106967
2.0628648 -5.9894466 -1.6074241
2.0310287 -6.0166626 -1.6114519
1.9919454 -6.0225797 -1.6096897
1.9561473 -6.0383711 -1.6106967
1.9173037 -6.0447254 -1.6091863
1.8830478 -6.0656185 -1.6117035
1.8438252 -6.0705767 -1.6099415
1.8092985 -6.091053 -1.6124587
1.7667617 -6.0843816 -1.6076758
1.7270173 -6.0867281 -1.6054102
1.6880863 -6.0916147 -1.6038998
1.6509298 -6.1027923 -1.6041516
1.6104882 -6.1015782 -1.6011308
1.5730193 -6.1113453 -1.6011308
1.5352556 -6.1199431 -1.6008791
1.4990541 -6.1348891 -1.6023895
1.4633989 -6.1524453 -1.604655
1.4282395 -6.1726232 -1.6076758
1.3924625 -6.1907125 -1.6101931
1.3573437 -6.2123766 -1.6137174
1.321208 -6.2300553 -1.6162348
0.79423255 -3.8624971 -0.98539543
0.77335578 -3.8815346 -0.98917145
0.75025809 -3.8900077 -0.99017835
0.74057847 -3.9706481 -1.0103168
0.71688789 -3.9789271 -1.0113238
0.68466514 -3.9384375 -0.99949241
0.66304642 -3.9578359 -1.0035201
0.63890326 -3.9627852 -1.0037719
0.61694843 -3.9819329 -1.0077996
0.59734577 -4.0181904 -1.0163585
0.573089 -4.0246544 -1.0171137
0.54694629 -4.0175467 -1.0143446
0.52066296 -4.0083504 -1.011072
0.49855456 -4.0316396 -1.0163585
0.47041836 -4.0057874 -1.0088065
0.44657996 -4.0153313 -1.0105686
0.42163044 -4.0151086 -1.0098134
0.396891 -4.0166569 -1.0095617
0.37250581 -4.0219078 -1.0103168
0.34782085 -4.0241175 -1.0103168
0.32335535 -4.0290699 -1.011072
0.29977286 -4.0464206 -1.0150998
0.27421647 -4.0375624 -1.0123308
0.24955676 -4.041101 -1.0128342
0.22437961 -4.0357924 -1.011072
0.19927701 -4.0303268 -1.00931
0.17445974 -4.0295396 -1.0088065
0.14897518 -4.0102248 -1.0035201
0.12391478 -3.9965534 -0.99974418
0.099148542 -3.9875636 -0.99722683
0.074369788 -3.9716473 -0.9929474
0.049802378 -3.9565451 -0.98891968
0.025524534 -3.9567764 -0.98891968
0.0012453303 -3.9558907 -0.98866796
-0.023138324 -3.9751794 -0.99370259
-0.047804538 -3.9981883 -0.99974418
-0.072492771 -4.0065284 -1.0020097
-0.098055698 -4.0466437 -1.0125824
-0.12385003 -4.0778885 -1.0208896
-0.14922136 -4.0867233 -1.023407
-0.17441769 -4.0886316 -1.0241622
-0.19926634 -4.0826511 -1.0229034
-0.22213955 -4.0417318 -1.0125824
-0.24834967 -4.0634766 -1.0186241
-0.27405646 -4.0734634 -1.0216448
-0.2977713 -4.0543318 -1.0171137
-0.32149187 -4.0379572 -1.0133376
-0.34626225 -4.0359082 -1.0133376
-0.37013409 -4.0240703 -1.0108204
-0.39349592 -4.0082393 -1.0072961
-0.41888556 -4.0134497 -1.00931
-0.44711703 -4.04351 -1.0178689
-0.47573307 -4.0733738 -1.0264277
-0.49918294 -4.0578909 -1.0231552
-0.52196497 -4.0384345 -1.0188757
-0.55050009 -4.0629678 -1.026176
-0.57867718 -4.0825114 -1.0322175
-0.60371614 -4.0788836 -1.0322175
-0.62799489 -4.0703201 -1.0309589
-0.65418488 -4.0740347 -1.0329727
-0.68044406 -4.0775809 -1.0349866
-0.70611101 -4.0771437 -1.0359935
-0.72974735 -4.0651135 -1.0339797
-0.75343943 -4.0538988 -1.0322175
-0.77336967 -4.0235381 -1.0254208
-0.79144859 -3.9854922 -1.0166101
-0.81297469 -3.9663393 -1.0128342
-0.83589602 -3.9546483 -1.011072
-0.86364508 -3.9655209 -1.0153515
-0.8917706 -3.9771457 -1.0198827
-0.91724432 -3.9763143 -1.0211413
-0.9460898 -3.9894452 -1.026176
-0.9749018 -4.001431 -1.0309589
-0.74870533 -2.9926383 -0.76210958
-0.76681316 -2.9870508 -0.76185787
-0.78512692 -2.9822893 -0.76185787
-0.80845129 -2.996104 -0.76689249
-0.8203764 -2.9677658 -0.7605992
-0.83672661 -2.9561574 -0.75883704
-0.85727203 -2.9593344 -0.76110268
-1.1714427 -3.9534147 -1.0322175
-1.1883839 -3.9220703 -1.0256726
-1.2144306 -3.921176 -1.0274346
-1.2457651 -3.9367189 -1.0337279
-1.2395463 -3.835067 -1.0080513
-1.0884117 -3.2980013 -0.86305392
-1.092568 -3.2435663 -0.8499639
-1.1049027 -3.2148347 -0.84392232
-1.1066841 -3.1568475 -0.82982534
-1.408709 -3.941057 -1.0483284
-1.1287777 -3.0975618 -0.81723881
-1.1413631 -3.073339 -0.81245589
-1.1735523 -3.1015811 -0.82227343
-1.3366046 -3.4682019 -0.92649031
-1.5158591 -3.8626556 -1.0390143
-1.2211097 -3.0560868 -0.81572843
-1.2383806 -3.0449505 -0.81472147
-1.2570407 -3.0372946 -0.81472147
-1.2756535 -3.0295243 -0.81472147
-1.662964 -3.8828442 -1.0583977
-1.6828935 -3.8636942 -1.0558803
-1.7050017 -3.8497555 -1.0548733
-1.7317692 -3.8462815 -1.0568873
-1.7541291 -3.832943 -1.0561321
-1.7608845 -3.7861273 -1.0458111
-1.770853 -3.7472498 -1.0377556
-1.7975816 -3.7441661 -1.0400212
-1.851483 -3.7965693 -1.0583977
-1.8159074 -3.6663184 -1.0239104
-1.8253261 -3.629168 -1.0163585
-1.8554811 -3.633415 -1.0208896
-1.8795218 -3.6253984 -1.0218965
-1.9071388 -3.6240757 -1.0249174
-1.938913 -3.6302333 -1.0302037
-1.9588457 -3.6140134 -1.028945
-1.9828492 -3.6053183 -1.0299519
-1.9973897 -3.5795612 -1.0259242
-2.0088291 -3.5487082 -1.0203861
-2.0488753 -3.5682099 -1.0299519
-2.1286812 -3.655097 -1.059908
-2.1308923 -3.6077995 -1.049587
-2.1156991 -3.5323832 -1.0307071
-2.1614432 -3.5590429 -1.0427903
-2.1807036 -3.5415928 -1.0415316
-2.1895833 -3.5076201 -1.0352383
-2.2048554 -3.4843047 -1.0322175
-2.2382092 -3.4894476 -1.0380074
-2.2790928 -3.5056722 -1.0473214
-2.2883151 -3.4730334 -1.0415316
-2.3289266 -3.4879043 -1.050594
-2.3112404 -3.415833 -1.0324693
-2.3255899 -3.3920081 -1.0294485
-2.3612649 -3.3991368 -1.0362452
-2.3982284 -3.4075375 -1.0435455
-2.4123502 -3.3833013 -1.0405247
-2.4330642 -3.3684356 -1.0405247
-2.4656866 -3.3698463 -1.0458111
-2.504179 -3.3787589 -1.0536147
-2.5074348 -3.3401089 -1.0460627
-2.5378389 -3.3377585 -1.0503422
-2.5718508 -3.339761 -1.0561321
-2.6030066 -3.3376553 -1.0606632
-2.634233 -3.3352926 -1.0651944
-2.6298671 -3.2880766 -1.0548733
-2.6372027 -3.2560837 -1.049587
-2.6835191 -3.2720208 -1.0604115
-2.6132832 -3.1467829 -1.0236586
-2.6406386 -3.1403191 -1.0269312
-2.8593469 -3.3584073 -1.1069818
-2.8874819 -3.3495965 -1.1100025
-2.6731777 -3.0627429 -1.0171137
-2.902097 -3.284174 -1.0996816
-2.929291 -3.27424 -1.1024506
-2.935684 -3.2411399 -1.0971643
-2.9489758 -3.2159324 -1.0946469
-2.9844542 -3.2148013 -1.1006885
-3.0438874 -3.2387452 -1.1157924
-3.0863822 -3.2438481 -1.1243513
-2.9128835 -3.0240862 -1.0518526
-3.2516181 -3.3346202 -1.1711733
-3.3658357 -3.4096608 -1.2059124
-4.6733956 -4.6767135 -1.6794194
-2.8829851 -2.8496282 -1.0140928
-2.8962615 -2.8278279 -1.0125824
-3.4589472 -3.3361108 -1.2096883
-3.4625366 -3.2988014 -1.2036467
-3.3727744 -3.1740165 -1.1643766
-3.4453454 -3.2026851 -1.1832565
-3.4570909 -3.1742837 -1.1804874
-3.4564319 -3.1348054 -1.1734389
-3.4114506 -3.0560601 -1.1510348
-3.2257595 -2.8541999 -1.0800465
-3.818131 -3.3368876 -1.2786627
-3.1506579 -2.7195337 -1.0422868
-3.1812773 -2.7120812 -1.0470697
-3.2763269 -2.7585909 -1.0737532
-3.2708693 -2.7198703 -1.0662013
-3.3301246 -2.7347631 -1.08055
-3.3318098 -2.702085 -1.0755154
-3.3407733 -2.67554 -1.072998
-3.3427055 -2.6435833 -1.0682151
-3.2955582 -2.5735769 -1.0473214
-3.3051565 -2.548579 -1.0453075
-3.433147 -2.6138554 -1.0820603
-5.0132365 -3.7687271 -1.5910616
-3.4579706 -2.5663371 -1.0797948
-3.4135439 -2.5010223 -1.0604115
-3.3723688 -2.4391875 -1.0422868
-3.3770332 -2.4111376 -1.0390143
-3.3941371 -2.3920438 -1.0397695
-3.3825343 -2.3529327 -1.0314623
-3.4886558 -2.3951356 -1.0604115
-3.5673788 -2.4171197 -1.08055
-3.5266345 -2.3580623 -1.0631806
-3.4513757 -2.2772086 -1.0352383
-3.4928579 -2.2739439 -1.0437971
-3.4994166 -2.2477612 -1.0415316
-3.5221345 -2.231946 -1.0443007
-3.5406868 -2.213371 -1.0458111
-3.5443163 -2.1855078 -1.0427903
-3.5593133 -2.1647251 -1.0432937
-3.5858073 -2.150811 -1.0473214
-3.6147628 -2.1381314 -1.0521044
-3.6294858 -2.1168869 -1.0526078
-3.6608629 -2.1051924 -1.0581459
-3.6804461 -2.0865092 -1.0601597
-3.6982481 -2.0667205 -1.0616701
-3.6727149 -2.022974 -1.0503422
-3.6688986 -1.9916265 -1.0455593
-3.6503301 -1.9526405 -1.036497
-3.6459763 -1.9216306 -1.0317141
-3.654263 -1.8974389 -1.0307071
-3.6847918 -1.8846784 -1.0362452
-3.7057936 -1.8668238 -1.0390143
-3.7665937 -1.8685706 -1.053363
-3.7910316 -1.8517967 -1.0571389
-3.8136606 -1.8339542 -1.0604115
-3.8440852 -1.8196307 -1.0659496
-3.8806176 -1.8078641 -1.0732498
-3.9241872 -1.7989442 -1.0825639
-3.972203 -1.7915472 -1.0931365
-4.0105438 -1.7793097 -1.1009402
-4.0417871 -1.7635719 -1.1067301
-4.0818806 -1.751334 -1.1150372
-4.1014667 -1.7300171 -1.1175545
-4.1280961 -1.7114915 -1.1220857
-4.2630963 -1.7368979 -1.1570764
-4.3446517 -1.7391262 -1.1769632
-4.3624458 -1.7152689 -1.178977
-4.403584 -1.7003242 -1.1875359
-4.4175539 -1.6746448 -1.1885428
-4.4558635 -1.6579726 -1.1963465
-4.6095853 -1.6830571 -1.2361201
-4.6626468 -1.6700833 -1.2479515
-4.7997236 -1.6860366 -1.2829422
-4.8868408 -1.6830323 -1.3040876
-5.0107765 -1.6914051 -1.3353024
-5.0982418 -1.6861604 -1.3564478
-5.3543115 -1.7344973 -1.42366
-5.316884 -1.6863927 -1.41057
-5.4010725 -1.6766969 -1.4307085
-6.0603905 -1.8407307 -1.6071724
-6.0455947 -1.7957925 -1.6001239
-6.2814121 -1.8239881 -1.6610429
-6.3362441 -1.7978305 -1.6728743
-6.2911983 -1.7434075 -1.6577704
-6.4288282 -1.7391511 -1.6920059
-6.5329518 -1.7243764 -1.7171791
-6.6193256 -1.7038038 -1.7375693
-6.7075667 -1.6827065 -1.758463
-6.8334007 -1.669781 -1.789426
-7.045002 -1.6757582 -1.8432965
-7.261641 -1.6802909 -1.8984258
-7.3388519 -1.6507858 -1.9162987
-7.3951712 -1.6158497 -1.9286336
-7.4039998 -1.5702425 -1.9283818
-7.4371939 -1.5296584 -1.9346751
-7.4435925 -1.4834282 -1.9339199
-7.4525547 -1.4377273 -1.9339199
-7.4954853 -1.3983636 -1.9429823
-7.4829707 -1.3485684 -1.9374442
-7.446291 -1.2948334 -1.9256128
-7.4827299 -1.2539195 -1.9331647
-7.4864612 -1.2073661 -1.9321579
-7.4621682 -1.1565143 -1.9238507
-7.4901838 -1.1138383 -1.9293888
-7.4930449 -1.0673124 -1.9283818
-7.5071244 -1.022361 -1.9303957
-7.5209336 -0.97727698 -1.9324095
-7.5229468 -0.93063551 -1.9314026
-7.5371661 -0.8854748 -1.9336683
-7.510716 -0.83567756 -1.925361
-7.5532398 -0.79352254 -1.9351786
-7.5088487 -0.74230349 -1.9223403
-7.5575905 -0.70032614 -1.9339199
-7.5270343 -0.65093684 -1.9248576
-7.554039 -0.60659999 -1.9308991
-7.5412116 -0.5590207 -1.9266198
-7.5560865 -0.51352626 -1.9296405
-7.5803461 -0.46846771 -1.9351786
-7.5637517 -0.42087039 -1.930144
-7.5545926 -0.37387753 -1.9271232
-7.5528769 -0.32734853 -1.9261162
-7.5499077 -0.2808187 -1.9248576
-7.5543904 -0.2345783 -1.9256128
-7.1826801 0.52755994 -1.9216733
-7.1889257 0.57238948 -1.924302
-7.1987362 0.61764598 -1.927982
-7.1775174 0.66021138 -1.9232504
-7.1848536 0.70537245 -1.9264048
-7.1861477 0.75004649 -1.927982
-7.2092204 0.79720557 -1.935605
-7.1792774 0.83851135 -1.9287705
-7.1328206 0.87747455 -1.9174675
-7.1340003 0.92209101 -1.9193076
-7.142549 0.96779257 -1.9232504
-7.1278791 1.0103801 -1.9208847
-7.1358614 1.0562184 -1.9248277
-7.1244788 1.0992469 -1.9235133
-7.1061687 1.1411036 -1.920359
-7.1171145 1.1877052 -1.9253534
-7.1030383 1.230199 -1.9235133
-7.1058021 1.2756362 -1.9264048
-7.0807672 1.3160363 -1.9216733
-7.0725589 1.3594583 -1.9216733
-7.0726008 1.4045219 -1.9240391
-7.0477824 1.4445961 -1.9195704
-7.035954 1.4872142 -1.9187818
-7.0285816 1.530769 -1.9193076
-7.0275292 1.575768 -1.9216733
-7.0205488 1.6195095 -1.9224619
-7.0048466 1.6612196 -1.9208847
-6.9795241 1.7005125 -1.9166789
-6.9530473 1.739323 -1.9122102
-6.9422441 1.7819535 -1.9122102
-6.9199834 1.8215675 -1.9090558
-6.9282374 1.8692746 -1.9145761
-6.9073381 1.9091784 -1.9119474
-6.8964219 1.9517879 -1.9122102
-6.8945098 1.9970212 -1.9151018
-6.8802762 2.038739 -1.9145761
-6.8630209 2.0795176 -1.9132617
-6.8187976 2.1118789 -1.9043244
-6.8700986 2.1740656 -1.9227247
-6.830925 2.2078662 -1.9153646
-6.8172493 2.2497382 -1.9153646
-6.7676587 2.2795088 -1.905113
-6.7818289 2.3307171 -1.9132617
-6.7755942 2.3751597 -1.9156275
-6.749083 2.4124656 -1.9122102
-6.7404985 2.456145 -1.9140503
-6.7207789 2.4957776 -1.9127359
-6.7062407 2.5373101 -1.9129988
-6.6770425 2.5732045 -1.9090558
-6.661128 2.6141257 -1.9090558
-6.6386909 2.6524415 -1.9072158
-6.6455274 2.7025797 -1.9140503
-6.6065331 2.7340779 -1.9074787
-6.6038594 2.7805562 -1.9116845
-6.5884476 2.8217843 -1.9122102
-6.57897 2.8656261 -1.9145761
-6.5559702 2.9035947 -1.9129988
-6.5389104 2.9441631 -1.9132617
-6.516336 2.9822214 -1.9119474
-6.4882922 3.0176713 -1.9090558
-6.4801211 3.0623746 -1.9122102
-6.4577298 3.1004074 -1.9111588
-6.4342489 3.1378577 -1.9098445
-6.3776999 3.1588583 -1.8985413
-6.3918104 3.2148447 -1.908793
-6.3728237 3.2544427 -1.9090558
-6.3501654 3.2921517 -1.9082673
-6.3332605 3.3328514 -1.9093188
-6.2769504 3.3525519 -1.8982785
-6.2834024 3.4057202 -1.9066901
-6.2420993 3.433048 -1.9003814
-6.2436633 3.4839816 -1.9074787
-6.2280455 3.5255544 -1.9093188
-6.1929097 3.5560133 -1.905113
-6.1684732 3.5924883 -1.9043244
-6.1388378 3.6258526 -1.9019586
-6.0982661 3.6525416 -1.8961756
-6.0988283 3.7039182 -1.9035357
-6.0702362 3.7377281 -1.9016957
-6.0717387 3.7902355 -1.9095817
-6.0255418 3.8129699 -1.9022214
-5.9939122 3.8446598 -1.8995929
-5.9896207 3.8939898 -1.9059016
-5.9511147 3.9211106 -1.90117
-5.9349661 3.9629111 -1.9037986
-5.9113374 3.9997938 -1.9040614
-5.8699746 4.0245295 -1.8985413
-5.8404164 4.057168 -1.8969642
-5.8280344 4.1018147 -1.90117
-5.8184667 4.1487031 -1.9064273
-5.788991 4.1815009 -1.905113
-5.7671175 4.2197919 -1.9064273
-5.7186403 4.2384348 -1.8988042
-5.6979265 4.2774997 -1.9006443
-5.6638937 4.3065395 -1.8980156
-5.6327767 4.3376789 -1.8964385
-5.6167049 4.3804679 -1.9001186
-5.6025915 4.4250174 -1.9045873
-5.5685539 4.453886 -1.9022214
-5.5336242 4.4818964 -1.8995929
-5.5104952 4.5194373 -1.90117
-5.4715285 4.5439162 -1.897227
-5.4516664 4.5842352 -1.9001186
-5.4102139 4.606339 -1.8953871
-5.3752718 4.6337776 -1.8930212
-5.3518262 4.6711144 -1.8948613
-5.3071604 4.6898065 -1.8890783
-5.2818789 4.7254996 -1.8903927
-5.2542143 4.7591152 -1.8909184
-5.2483773 4.812788 -1.8995929
-5.2123847 4.8389916 -1.897227
-5.1797833 4.8682394 -1.8961756
-5.1435251 4.8939438 -1.8938098
-5.1335483 4.9448261 -1.9014329
-5.0734124 4.9472623 -1.8901298
-5.0635567 4.9986372 -1.8980156
-5.0246019 5.0214267 -1.8948613
-4.9950528 5.0535355 -1.8953871
-4.955864 5.0758038 -1.8922327
-4.9273047 5.1088953 -1.8932841
-4.877233 5.1194692 -1.885924
-4.8530011 5.1570292 -1.8888154
-4.8389997 5.2057929 -1.8959128
-4.8141432 5.2432055 -1.8988042
-4.7663274 5.2554908 -1.8924955
-4.7301288 5.2803249 -1.8909184
-4.6995578 5.3114171 -1.8917069
-4.6548181 5.3263474 -1.8867126
-4.6340246 5.3686881 -1.8917069
-4.5972409 5.3926148 -1.8901298
-4.5590954 5.4148159 -1.8880268
-4.5307193 5.4486237 -1.8901298
-4.498426 5.4778128 -1.8906555
-4.4695911 5.5113072 -1.8927584
-4.4278512 5.5288367 -1.8893412
-4.4088025 5.5748234 -1.8959128
-4.3786693 5.6070943 -1.8977528
-4.3223882 5.6055818 -1.8880268
-4.296092 5.6427464 -1.8917069
-4.2457385 5.6481748 -1.8846097
-4.1983547 5.6570725 -1.8788266
-4.1909299 5.720089 -1.8914441
-4.1523609 5.7410054 -1.8898669
-4.1131334 5.7608781 -1.8880268
-4.0471454 5.7426262 -1.8735694
-4.0206466 5.7800255 -1.8777752
-4.0140409 5.8467488 -1.8917069
-3.9813368 5.8760614 -1.8932841
-3.9419901 5.8955669 -1.8917069
-3.8961792 5.9051461 -1.8869754
-3.8551362 5.9216633 -1.8846097
-3.8077817 5.9281569 -1.8790895
-3.7759824 5.958745 -1.8814553
-3.7623575 6.0186214 -1.8932841
-3.7380137 6.0621271 -1.8998557
-3.7117736 6.1030865 -1.9056387
-3.6578829 6.0984397 -1.8969642
-3.6105735 6.1041589 -1.8917069
-3.5788827 6.1362 -1.8948613
-3.5430875 6.1613903 -1.8959128
-3.5094965 6.1905689 -1.8982785
-3.4709754 6.211144 -1.8980156
-3.4369874 6.2399311 -1.9003814
-3.3986351 6.2609024 -1.9003814
-3.3651595 6.2909975 -1.9032729
-3.3350399 6.3277459 -1.9082673
-3.3054848 6.3660741 -1.9137874
-3.2312241 6.3175106 -1.8927584
-3.1845891 6.3217068 -1.8880268
-3.1555984 6.3610091 -1.8940727
-3.1135454 6.3741827 -1.8922327
-3.0873334 6.4201241 -1.9003814
-3.0363278 6.4145269 -1.8930212
-3.0022068 6.4444075 -1.8964385
-2.9674311 6.4732327 -1.8995929
-2.9205186 6.4754863 -1.8948613
-2.8940291 6.5232725 -1.9037986
-2.838906 6.5064158 -1.8935469
-2.8012116 6.5290332 -1.8951242
-2.7670946 6.5603228 -1.89933
-2.7219875 6.5655909 -1.8959128
-2.6922033 6.6080828 -1.9035357
-2.652323 6.6262689 -1.9040614
-2.6119678 6.6433167 -1.9043244
-2.573935 6.6664195 -1.9064273
-2.5350335 6.6875005 -1.9080044
-2.4858806 6.6812258 -1.9016957
-2.4435155 6.6927276 -1.9006443
-2.4056556 6.7166786 -1.9032729
-2.3682327 6.7422371 -1.9064273
-2.3374949 6.7876601 -1.9153646
-2.2921016 6.790904 -1.9122102
-2.2558405 6.8213301 -1.9169418
-2.2154291 6.839633 -1.918256
-2.1754608 6.8595357 -1.9200962
-2.1376188 6.8865776 -1.9240391
-2.0843947 6.8635578 -1.9137874
-2.0447125 6.8845425 -1.9161532
-2.0056577 6.9080787 -1.9193076
-1.957706 6.9007616 -1.9137874
-1.902968 6.8680115 -1.90117
-1.8683438 6.9075007 -1.9090558
-1.8217423 6.9029751 -1.9045873
-1.7783909 6.9102855 -1.9035357
-1.7387716 6.9322977 -1.9066901
-1.6900246 6.9175291 -1.8995929
-1.6542399 6.9559293 -1.9074787
-1.6163089 6.9866295 -1.9132617
-1.5681208 6.9728813 -1.9066901
-1.5267469 6.9889708 -1.9085301
-1.480435 6.982161 -1.9040614
-1.4400897 7.0033994 -1.9074787
-1.3942649 6.99791 -1.9035357
-1.356047 7.0309658 -1.9103702
-1.3061639 7.0031104 -1.9003814
-1.2717153 7.0584717 -1.9135245
-1.2270606 7.0585375 -1.9114217
-1.1830901 7.0621271 -1.9103702
-1.137741 7.0568705 -1.906953
-1.0969281 7.0799274 -1.9114217
-1.0538909 7.0893879 -1.9122102
-1.0091487 7.0871243 -1.9098445
-0.96837384 7.1132593 -1.9153646
-0.92272347 7.1037583 -1.9111588
-0.88065553 7.1217346 -1.9145761
-0.83570468 7.1164632 -1.9116845
-0.79053229 7.1080317 -1.9080044
-0.74700391 7.1137085 -1.9082673
-0.70438284 7.1287198 -1.9111588
-0.66071743 7.1338682 -1.9114217
-0.61643481 7.1320205 -1.9098445
-0.57320118 7.1424012 -1.9116845
-0.52836967 7.1323128 -1.9080044
-0.48400971 7.1267567 -1.9056387
-0.44175443 7.1536679 -1.9122102
-0.3966772 7.1350498 -1.9064273
-0.35284239 7.1363859 -1.9061644
-0.30904773 7.1384163 -1.9061644
-0.26549101 7.1469278 -1.9080044
-0.2209492 7.1262417 -1.9019586
-0.1776481 7.144825 -1.9066901
-0.13410935 7.1621795 -1.9111588
-0.090100586 7.1580439 -1.9098445
-0.046123352 7.1497788 -1.9074787
-0.0022522646 7.1499271 -1.9074787
0.041572724 7.1420879 -1.9053758
0.085418351 7.1436276 -1.9059016
0.12967192 7.1661215 -1.9122102
0.17378116 7.1709781 -1.9137874
0.21783707 7.1717057 -1.9143132
0.26109505 7.1499858 -1.908793
0.30421856 7.1308985 -1.9040614
0.34881672 7.1462436 -1.908793
0.39239314 7.1391521 -1.9074787
0.43654487 7.1423879 -1.9090558
0.47932273 7.1241727 -1.9048501
0.5242309 7.1374555 -1.9093188
0.56778544 7.1312189 -1.9085301
0.60954791 7.1045299 -1.9022214
0.65330607 7.1025777 -1.9027472
0.69564688 7.0859528 -1.89933
0.74292427 7.1180158 -1.9093188
0.78467399 7.0960617 -1.9045873
0.82988107 7.1054883 -1.9085301
0.87393576 7.1040926 -1.9095817
0.91887134 7.1091223 -1.9124731
0.96195602 7.0995259 -1.9114217
1.0015683 7.0657873 -1.9037986
1.04646 7.0700073 -1.9066901
1.090852 7.070128 -1.9085301
1.1352849 7.0699697 -1.9103702
1.1786441 7.0628705 -1.9103702
1.2160258 7.0212822 -1.9009072
1.2534537 6.9823508 -1.8922327
1.3022727 7.0067792 -1.90117
1.3443296 6.9939194 -1.8998557
1.3879704 6.9893246 -1.9009072
1.4228806 6.9419255 -1.8901298
1.469043 6.9500551 -1.8948613
1.5147421 6.9550509 -1.8988042
1.559924 6.9569225 -1.9019586
1.6038837 6.9528608 -1.9035357
1.6467383 6.9438276 -1.9037986
1.6815432 6.901722 -1.8948613
1.726437 6.9015698 -1.8977528
1.7689917 6.8917809 -1.8980156
1.8097711 6.8751988 -1.8964385
1.8539343 6.871417 -1.8985413
1.8924609 6.8468928 -1.8948613
1.9162974 6.7710977 -1.8767238
1.9696257 6.7999868 -1.8882897
2.0198147 6.8164492 -1.8964385
2.0560031 6.7854609 -1.8911812
2.1064525 6.8012872 -1.89933
2.1437762 6.774437 -1.8953871
2.1835217 6.7556472 -1.8938098
2.2173696 6.7192178 -1.8872383
2.2542424 6.6926851 -1.8835582
2.30405 6.7042747 -1.8909184
2.3419502 6.6809068 -1.8882897
2.3822496 6.6645942 -1.887764
2.4217761 6.6462255 -1.8867126
2.4702394 6.6520424 -1.8927584
2.5031531 6.6160059 -1.8867126
2.554461 6.6284299 -1.8948613
2.6003735 6.6261024 -1.8988042
2.6348934 6.5947919 -1.8943356
2.6611278 6.5436459 -1.8840839
2.6993835 6.522737 -1.8827696
2.722126 6.4651499 -1.8706779
2.759084 6.4421177 -1.8688378
2.8043418 6.4383345 -1.8727808
2.8477025 6.4298272 -1.8754095
2.8902717 6.4192705 -1.8775123
2.9199655 6.3803611 -1.8712037
2.9643509 6.3736968 -1.8746209
3.015775 6.3815556 -1.8825067
3.043596 6.3394489 -1.8754095
3.0769372 6.3093815 -1.8719922
3.0971727 6.2532086 -1.8606892
3.1363509 6.2358108 -1.8612149
3.1846497 6.2362103 -1.8672607
3.2224102 6.2156959 -1.8669978
3.2685788 6.211174 -1.8717294
3.301172 6.1807899 -1.868575
3.3201785 6.1256428 -1.8577976
3.3767712 6.1398139 -1.868575
3.4134402 6.1172943 -1.8680493
3.4528127 6.0995927 -1.8691007
3.4853683 6.0699253 -1.8664721
3.516233 6.0375876 -1.8630549
3.5399609 5.9934711 -1.8559576
3.5756776 5.9699821 -1.8554319
3.6147463 5.9520526 -1.8567462
3.6486692 5.9256535 -1.8554319
3.6916034 5.9137931 -1.858849
3.7242079 5.885324 -1.8570091
3.7732756 5.8826628 -1.8635806
3.8150861 5.8682966 -1.8664721
3.8526146 5.8471942 -1.8672607
3.8900275 5.8258519 -1.8680493
3.9159663 5.7874913 -1.8633177
3.9464924 5.7561932 -1.860952
3.9910975 5.7453389 -1.8654207
4.0179434 5.7089081 -1.8614777
4.0618615 5.6967149 -1.8656836
4.0961742 5.6709023 -1.8654207
4.134882 5.6511121 -1.8672607
4.180397 5.6403604 -1.8722551
4.2091331 5.6068888 -1.8696265
4.2522182 5.5924754 -1.8735694
4.2811542 5.5594001 -1.8712037
4.3312092 5.553566 -1.8783009
4.3634095 5.5246143 -1.8775123
4.4020476 5.5037642 -1.8796153
4.4296613 5.4691534 -1.8769866
4.4625244 5.4411244 -1.8767238
4.5069242 5.4269996 -1.8814553
4.5302014 5.3874297 -1.8772495
4.5506606 5.344841 -1.8719922
4.5909314 5.3255858 -1.8751466
4.6159077 5.2885947 -1.8719922
4.6444368 5.2558351 -1.8704151
4.6765985 5.2272387 -1.8704151
4.7280192 5.2198949 -1.8783009
4.7723508 5.2042952 -1.8832953
4.7700529 5.1381512 -1.8696265
4.8153687 5.1235476 -1.8751466
4.8387337 5.0855184 -1.8719922
4.8618131 5.0473952 -1.8688378
4.8967338 5.0216126 -1.8704151
4.9457579 5.0100083 -1.8775123
4.9941416 4.9973083 -1.8843467
5.021965 4.9638581 -1.8832953
5.0412807 4.9221678 -1.8790895
5.0672202 4.8871241 -1.8775123
5.1075921 4.8659215 -1.8814553
5.0994043 4.7987909 -1.8672607
5.1471295 4.7844872 -1.8740951
5.1728358 4.7495527 -1.8727808
5.2326174 4.7455897 -1.8840839
5.2522931 4.7050261 -1.8806667
5.2702236 4.6631217 -1.8767238
5.3009162 4.6326008 -1.8775123
5.3146319 4.5873814 -1.8722551
5.3566322 4.5665755 -1.8772495
5.4140778 4.5584741 -1.887764
5.4144936 4.5023479 -1.878038
5.4181542 4.4494505 -1.8696265
5.4378586 4.4100451 -1.8669978
5.4904242 4.3970981 -1.8759352
5.5173011 4.3633265 -1.8759352
5.5652647 4.346015 -1.8832953
5.5727229 4.2970595 -1.8767238
5.6105003 4.2715502 -1.8806667
5.6250348 4.2283502 -1.8767238
5.654748 4.1966305 -1.878038
5.6764994 4.1590037 -1.8767238
5.7066031 4.1274872 -1.8783009
5.7475276 4.1036048 -1.8835582
5.7544575 4.0554805 -1.8775123
5.8045816 4.0377221 -1.885924
5.831634 4.0036678 -1.8867126
5.8409123 3.9575298 -1.8817182
5.8578658 3.9167907 -1.8793523
5.9003134 3.892992 -1.8853983
5.9532013 3.8756609 -1.8948613
5.9476423 3.8202929 -1.8853983
5.9734163 3.7852759 -1.8861868
5.985075 3.7413943 -1.8825067
6.0112042 3.7066252 -1.8835582
6.0692849 3.6912236 -1.8948613
6.07196 3.6420062 -1.8885525
6.1091418 3.6135199 -1.8932841
6.1445351 3.5837421 -1.8974899
6.1848116 3.556551 -1.9032729
6.1998024 3.5147293 -1.90117
6.2018785 3.4657996 -1.8951242
6.195981 3.4127889 -1.8867126
6.2218933 3.3774676 -1.8882897
6.2493067 3.3428669 -1.8903927
6.2483602 3.293216 -1.883821
6.3215432 3.2823722 -1.9001186
6.3424234 3.2439613 -1.9003814
6.3570385 3.2023802 -1.8988042
6.3687887 3.1594563 -1.8964385
6.398459 3.1253984 -1.8995929
6.4305592 3.0923493 -1.9035357
6.4337139 3.0454063 -1.8988042
6.4671483 3.0127964 -1.9032729
6.479373 2.9702446 -1.9014329
6.4983554 2.9308286 -1.9016957
6.4994583 2.8834689 -1.8967013
6.4913816 2.8323491 -1.8890783
6.5290332 2.8012116 -1.8951242
6.5514326 2.7633464 -1.8967013
6.5513296 2.7160778 -1.8917069
6.5982533 2.6882005 -1.9006443
6.6155195 2.6480222 -1.9009072
6.6325407 2.6077332 -1.90117
6.6511173 2.5680296 -1.9019586
6.6811848 2.5326405 -1.9061644
6.6993122 2.4926066 -1.906953
6.7162933 2.4521151 -1.9074787
6.7312126 2.4108584 -1.9074787
6.7495203 2.3707895 -1.9085301
6.7712383 2.3318427 -1.9106331
6.790904 2.2921016 -1.9122102
6.7910991 2.2458484 -1.9082673
6.7891464 2.199085 -1.9037986
6.8273449 2.1652575 -1.9108959
6.841424 2.1236107 -1.9111588
6.861711 2.0838344 -1.9132617
6.8577189 2.0367506 -1.9085301
6.8663807 1.9935586 -1.9074787
6.8738427 1.9500738 -1.9061644
6.9014859 1.9122372 -1.9106331
6.910295 1.8690991 -1.9098445
6.9207006 1.8264171 -1.9095817
6.9476624 1.7880034 -1.9140503
6.9556947 1.7446361 -1.9132617
6.9625196 1.7010086 -1.9122102
6.9531131 1.6535708 -1.9066901
6.9885097 1.6167436 -1.9137874
7.0039463 1.5751016 -1.9153646
6.9908557 1.5271584 -1.9090558
7.029355 1.4904336 -1.9172046
7.0459285 1.4488276 -1.9193076
7.026298 1.3999162 -1.9114217
7.043282 1.3584204 -1.9137874
7.0619178 1.3171222 -1.9166789
7.0945559 1.2782104 -1.9235133
7.0746975 1.2298672 -1.9158903
7.0916266 1.1880271 -1.9185189
7.0759215 1.1408093 -1.9122102
6.4992576 1.0070583 -1.7513382
6.5234475 0.96985328 -1.7563326
5.9274869 0.8442176 -1.590729
5.8541603 0.79717183 -1.5691743
5.8321505 0.75776088 -1.5618141
5.8031759 0.71782237 -1.5526139
5.8026795 0.68163937 -1.5512996
5.7942867 0.64463753 -1.5478823
5.7894969 0.60816687 -1.5455166
5.7700753 0.57035857 -1.5392079
5.7792306 0.53547621 -1.5407851
5.7727952 0.4991762 -1.5381564
5.7603612 0.46251315 -1.5339507
5.7640529 0.42723066 -1.5342135
5.7607899 0.39146376 -1.5326363
0 0 -0
0 0 -0
0 0 -0
0 0 -0
0 0 -0
0 0 -0
0 0 -0
0 0 -0
0 0 -0
0 0 -0
0 0 -0
0 -0 -0
0 -0 -0
0 -0 -0
0 -0 -0
0 -0 -0
0 -0 -0
0 -0 -0
0 -0 -0
0 -0 -0
0 -0 -0
0 -0 -0
0 -0 -0
0 -0 -0
0 -0 -0
6.0265231 -0.55415237 -1.6083409
6.5770459 -0.64560235 -1.7600126
7.263876 -0.75817192 -1.9492739
7.2053847 -0.79678077 -1.9345536
7.207068 -0.84176177 -1.9363936
7.2477322 -0.8916297 -1.9490111
7.2287288 -0.93435049 -1.945331
7.191309 -0.97440737 -1.9366565
7.1536713 -1.0140405 -1.927982
7.1263175 -1.0548041 -1.922199
7.0338936 -1.0852555 -1.8985413
6.7775202 -1.0882752 -1.8296713
6.6298709 -1.1063135 -1.7907677
6.5193367 -1.129009 -1.7621156
6.4163747 -1.1517556 -1.7355664
6.3380446 -1.1778697 -1.7158517
6.2899575 -1.2088991 -1.7045486
6.2237492 -1.2358096 -1.6882511
6.2926064 -1.2896795 -1.709543
6.2826867 -1.3278666 -1.7090173
6.2546244 -1.3620765 -1.7034972
6.2838058 -1.4088786 -1.7140117
6.2853842 -1.4497961 -1.7169032
6.2660437 -1.4858844 -1.7140117
6.2118144 -1.513334 -1.7013942
6.1883726 -1.5479062 -1.6974514
6.1740856 -1.584648 -1.696137
6.1866388 -1.6283998 -1.7024457
6.1588321 -1.6615516 -1.6974514
6.0955157 -1.6846503 -1.6824682
6.0767093 -1.719654 -1.6801023
6.0558496 -1.7539531 -1.6772109
6.0505238 -1.7927238 -1.6787881
6.0209432 -1.8242166 -1.6735308
6.0114799 -1.8616972 -1.6740565
5.9944243 -1.8968005 -1.6724794
5.9900174 -1.935921 -1.6745822
5.9514565 -1.9638658 -1.6669593
5.9283228 -1.9966487 -1.6638049
5.9232593 -2.0354965 -1.6659077
5.9024639 -2.0689287 -1.663542
5.8878412 -2.1044567 -1.6630163
5.8739114 -2.1402137 -1.6627535
5.8507199 -2.1725187 -1.6598619
5.8246465 -2.2035954 -1.6561818
5.8209186 -2.2431114 -1.6590734
5.7827969 -2.2692649 -1.651976
5.7723479 -2.3061371 -1.6530275
5.7652388 -2.3444211 -1.6551304
5.7418303 -2.376061 -1.6525018
5.7155843 -2.4063783 -1.6490846
5.7024851 -2.4421632 -1.6496103
5.7041984 -2.4844303 -1.6546047
5.7064891 -2.5272009 -1.6598619
5.6952734 -2.5641489 -1.6611762
5.6838193 -2.6010544 -1.6624906
5.6817489 -2.6423931 -1.6666963
5.6506 -2.6701953 -1.6622277
5.648025 -2.7115002 -1.6664335
5.6330156 -2.7469511 -1.6669593
5.6022224 -2.7746089 -1.6627535
5.5618215 -2.7972221 -1.6556561
5.5351019 -2.8264678 -1.6527647
5.5167985 -2.8599331 -1.6525018
5.5162215 -2.9027188 -1.6577591
5.4966049 -2.9356017 -1.6572334
5.4793372 -2.969733 -1.6574962
5.4576306 -3.0014372 -1.6564447
5.4332142 -3.0315762 -1.6546047
5.4313016 -3.0743654 -1.6598619
5.4273949 -3.1162839 -1.6645935
5.4015021 -3.1456413 -1.6624906
5.3812685 -3.1782343 -1.6622277
5.3492513 -3.2037549 -1.6582848
5.3319664 -3.2380199 -1.6590734
5.2873535 -3.2554948 -1.6511874
5.2877378 -3.3006523 -1.6577591
5.2404833 -3.3160052 -1.6490846
5.236279 -3.3585188 -1.6543418
5.1985874 -3.3795383 -1.6488217
5.1584191 -3.3986292 -1.642513
5.1334572 -3.427537 -1.6411986
5.1291084 -3.4703281 -1.6467187
5.1061273 -3.500643 -1.646193
5.0401821 -3.5010748 -1.6314727
5.0280719 -3.5386002 -1.6346271
5.0282588 -3.5850728 -1.6419872
5.0194612 -3.6254644 -1.6464559
5.006464 -3.6630332 -1.6496103
4.9854441 -3.6948328 -1.650136
4.9688511 -3.7299883 -1.652239
4.9589257 -3.7703362 -1.6567075
4.9402843 -3.8042252 -1.6582848
4.9054379 -3.8255644 -1.6543418
4.8584037 -3.8370495 -1.646193
4.8264813 -3.8601573 -1.6433016
4.8109512 -3.8963807 -1.646193
4.7623377 -3.9056318 -1.6375186
4.7226982 -3.9218321 -1.6319984
4.6771336 -3.932725 -1.6243755
4.6154537 -3.9294438 -1.6109694
4.6708999 -4.0263696 -1.6396215
4.6272097 -4.0384555 -1.6327871
4.590054 -4.0559082 -1.6283184
4.5701137 -4.0885 -1.6301584
4.5656762 -4.135252 -1.6377815
4.5188866 -4.1436224 -1.6298956
4.5513496 -4.2251096 -1.6514503
4.5274482 -4.2549391 -1.652239
4.4998574 -4.2813087 -1.6517131
4.4936519 -4.3282528 -1.6593362
4.4752975 -4.3638287 -1.6624906
2.3373976 -2.3065522 -0.85418737
2.3245656 -2.3222151 -0.85471308
2.3095949 -2.3357482 -0.85445023
4.4093132 -4.5158424 -1.6790509
4.3513861 -4.5115561 -1.6672221
4.289021 -4.5018396 -1.6535532
4.2580118 -4.5245581 -1.652239
4.2117801 -4.5308094 -1.6448787
4.1956439 -4.5693617 -1.6496103
4.2018747 -4.6329041 -1.663542
4.1810923 -4.6672239 -1.6666963
4.1383128 -4.6768918 -1.6609133
4.0923991 -4.6825776 -1.6538161
4.0553961 -4.6981034 -1.6503989
4.0214863 -4.7170238 -1.648296
3.9781773 -4.7246327 -1.6422502
3.9417117 -4.7400498 -1.6390958
3.9700994 -4.8342452 -1.6638049
3.9403625 -4.8585143 -1.6638049
3.902638 -4.8728089 -1.6603876
3.8738623 -4.8981771 -1.6609133
2.0109456 -2.5740919 -0.84945583
1.9933463 -2.5840898 -0.84866726
1.9745315 -2.5924335 -0.84735292
1.9556894 -2.6006434 -0.84603864
1.9264734 -2.5947723 -0.83999276
1.9019643 -2.5948682 -0.83604985
1.7175423 -2.3734925 -0.75771672
1.7029465 -2.3839865 -0.75771672
1.6882865 -2.3943906 -0.75771672
3.5116801 -5.0480852 -1.63489
3.4604392 -5.0401039 -1.625164
3.4548786 -5.0987873 -1.6375186
3.4079795 -5.0966277 -1.6298956
3.3824866 -5.1263027 -1.6327871
3.3641253 -5.1671772 -1.6393586
3.3250585 -5.1763554 -1.6356785
3.2963321 -5.2015505 -1.6372558
3.2607751 -5.215951 -1.6354157
3.2322531 -5.2416101 -1.6372558
3.1844926 -5.2357869 -1.629107
3.1627254 -5.2726054 -1.6346271
3.1234391 -5.2802849 -1.630947
3.0832057 -5.2860141 -1.6267412
3.051194 -5.3056693 -1.627004
3.0152519 -5.3184152 -1.625164
2.9867966 -5.3443975 -1.6275299
2.9465022 -5.3491006 -1.623324
2.9154658 -5.370471 -1.6243755
2.8838232 -5.3908114 -1.625164
1.5811321 -2.9986556 -0.8831023
1.560925 -3.0048752 -0.88205081
1.5336738 -2.997215 -0.87679356
2.7246215 -5.4082556 -1.6093923
2.7282486 -5.4992099 -1.6319984
2.7046144 -5.5366545 -1.6383072
2.6555433 -5.5218406 -1.6288441
2.6207867 -5.5362864 -1.6283184
2.5859528 -5.5505137 -1.6277927
2.5482295 -5.558382 -1.6254269
2.5172482 -5.5809498 -1.6275299
2.4813924 -5.592762 -1.6264783
2.449729 -5.6140733 -1.6283184
2.4083908 -5.6130376 -1.6235869
2.3697813 -5.6179299 -1.6206954
2.3271399 -5.6127553 -1.6149124
2.2901096 -5.6206737 -1.6130724
2.2591627 -5.6435776 -1.615701
2.2262561 -5.6618233 -1.6170152
2.1977267 -5.6915793 -1.6217468
2.1678901 -5.7184906 -1.6256897
2.1270442 -5.7163115 -1.6212211
2.0955677 -5.7392254 -1.6241126
2.0538094 -5.7338076 -1.6188554
2.0211456 -5.7535844 -1.6209582
1.9908284 -5.7804747 -1.625164
1.9543974 -5.7898388 -1.6243755
1.9236795 -5.8163791 -1.6285813
1.8802284 -5.8042068 -1.6217468
1.8472028 -5.8239121 -1.6241126
1.8054297 -5.8157849 -1.6185925
1.7713921 -5.832293 -1.6201696
1.733376 -5.8356528 -1.6180668
1.6967299 -5.8433986 -1.6172781
1.6587381 -5.8462739 -1.6151752
1.6202601 -5.847043 -1.6125467
1.5856117 -5.8615317 -1.613861
1.5530608 -5.8842115 -1.6175411
1.5181283 -5.8983026 -1.6188554
1.483785 -5.9149933 -1.6209582
1.4467769 -5.9211745 -1.6201696
1.4093026 -5.9252467 -1.6188554
1.3713982 -5.9272022 -1.6170152
1.33585 -5.939271 -1.6180668
1.2956785 -5.9303885 -1.6133353
1.2598658 -5.9410586 -1.6141238
1.2208642 -5.9363909 -1.6107066
1.1876185 -5.9598565 -1.6151752
0.74792492 -3.8751647 -1.0347742
0.71617967 -3.836998 -1.0229453
0.69091356 -3.8318245 -1.0203167
0.66458231 -3.8198316 -1.015848
0.64670581 -3.8571434 -1.0250483
0.62287325 -3.8600862 -1.0247854
0.60965389 -3.9315326 -1.0434486
0.58282638 -3.9170663 -1.0384542
0.56163377 -3.9406285 -1.0439743
0.53393412 -3.9181874 -1.036877
0.50690347 -3.8984263 -1.0305684
0.48131812 -3.8880575 -1.0268883
0.45576677 -3.8765635 -1.0229453
0.43143958 -3.8744924 -1.021631
0.40846288 -3.8847432 -1.0237339
0.38641846 -3.9054196 -1.0287282
0.36191505 -3.9019527 -1.0271511
0.33730289 -3.89641 -1.0250483
0.31346565 -3.899368 -1.0253111
0.28974706 -3.9041045 -1.0260997
0.26539513 -3.9000332 -1.0245225
0.24045169 -3.885217 -1.0200539
0.21660793 -3.8866193 -1.0200539
0.19289847 -3.8907661 -1.0208424
0.16922942 -3.8966963 -1.0221567
0.14513826 -3.8928404 -1.0208424
0.12077361 -3.8782277 -1.0166366
0.096712902 -3.8682859 -1.0137451
0.072760843 -3.8572304 -1.0105908
0.049067982 -3.8556747 -1.0100651
0.025494026 -3.8694105 -1.0137451
0.0017536466 -3.8849316 -1.0179509
-0.022049241 -3.8790803 -1.0163738
-0.045815337 -3.8759775 -1.0155852
-0.069561802 -3.8736942 -1.0150595
-0.09365847 -3.886698 -1.0187395
-0.11777008 -3.8947296 -1.0211053
-0.14191303 -3.9006832 -1.0229453
-0.16629858 -3.9103422 -1.0258368
-0.18958095 -3.8947933 -1.0218939
-0.21156353 -3.8588753 -1.0124308
-0.23688963 -3.8844693 -1.019791
-0.2598758 -3.8704281 -1.0163738
-0.28347775 -3.8668363 -1.015848
-0.30973107 -3.8967628 -1.0245225
-0.33330479 -3.8909438 -1.023471
-0.35929763 -3.9118836 -1.0297798
-0.38291603 -3.9057646 -1.0287282
-0.40707478 -3.9052608 -1.029254
-0.43081695 -3.9007716 -1.0287282
-0.45351061 -3.8875134 -1.0258368
-0.47770929 -3.8875303 -1.0266254
-0.50155371 -3.884526 -1.0266254
-0.52810305 -3.901453 -1.0321455
-0.54999846 -3.8838103 -1.0282025
-0.57933432 -3.9175844 -1.0384542
-0.60468674 -3.9225378 -1.04082
-0.62782484 -3.913038 -1.0392429
-0.65849966 -3.9490812 -1.0502831
-0.68453121 -3.9554236 -1.0531745
-0.70486373 -3.9293075 -1.0471287
-0.7275486 -3.91732 -1.0450258
-0.75466979 -3.928889 -1.0494945
-0.77424878 -3.9014728 -1.0431857
-0.79700983 -3.8909776 -1.0416086
-0.81727511 -3.8690231 -1.036877
-0.83771205 -3.8488524 -1.0326712
-0.8600449 -3.8379912 -1.0310941
-0.88357818 -3.8326418 -1.0310941
-0.90796936 -3.8309033 -1.0321455
-0.9307726 -3.8224478 -1.0313569
-0.75295198 -3.0126801 -0.80555773
-0.77022314 -3.0033309 -0.80424345
-0.78789943 -2.9957492 -0.80345488
-0.80526024 -2.9871325 -0.80240339
-0.82254505 -2.9784157 -0.80135196
-0.84080476 -2.9733126 -0.80135196
-0.85742134 -2.9625373 -0.79977477
-1.1199527 -3.7814229 -1.0339855
-1.151812 -3.8031032 -1.0421343
-1.1711274 -3.7830617 -1.0384542
-1.1855804 -3.74821 -1.0305684
-1.212713 -3.7537172 -1.0342485
-1.147087 -3.4777639 -0.95722961
-1.0784316 -3.2036817 -0.88047367
-1.0933628 -3.1833184 -0.87653071
-1.1345886 -3.2384608 -0.89440536
-1.3588026 -3.8028736 -1.0597461
-1.1283085 -3.0982943 -0.85786748
-1.1392334 -3.0696065 -0.85155874
-1.1717095 -3.0986524 -0.86207324
-1.4267292 -3.7035646 -1.04082
-1.2078834 -3.07955 -0.86075896
-1.2271146 -3.0729766 -0.86102182
-1.2426744 -3.0573459 -0.85865605
-1.2662086 -3.0612524 -0.86207324
-1.5149435 -3.5993724 -1.023471
-1.5757605 -3.6804678 -1.0502831
-1.6048661 -3.6857662 -1.0547518
-1.6137714 -3.6449754 -1.0455515
-1.6483903 -3.6622758 -1.0537002
-1.664404 -3.6380565 -1.0494945
-1.6785549 -3.6102798 -1.0442373
-1.693665 -3.585084 -1.0397686
-1.7135421 -3.5702758 -1.0384542
-1.7256863 -3.5397503 -1.0324084
-1.7473733 -3.5290952 -1.0324084
-1.7811373 -3.5424397 -1.0397686
-1.8124967 -3.5503466 -1.0455515
-1.8346913 -3.540015 -1.0458144
-1.8577262 -3.5312521 -1.046603
