# .PCD v0.7 - Point Cloud Data file format
VERSION 0.7
FIELDS x y z
SIZE 4 4 4
TYPE F F F
COUNT 1 1 1
WIDTH 1487
HEIGHT 1
VIEWPOINT 0 0 0 1 0 0 0
POINTS 1487
DATA ascii
19.689674 7.7551637 -1.8175826
19.686718 7.6147971 -1.8128668
19.701406 7.481833 -1.8098975
19.733875 7.3559351 -1.8086749
19.722506 7.2141781 -1.8034352
19.715769 7.0748572 -1.7987194
19.747532 6.9497819 -1.7976714
19.765318 6.8200336 -1.7954009
19.805849 6.6983085 -1.7953135
19.851305 6.5782228 -1.7957501
19.892242 6.4566011 -1.7958375
19.933384 6.3350267 -1.7960122
19.975683 6.2137818 -1.7963614
20.026777 6.0951576 -1.7975841
20.079077 5.9767084 -1.7989814
20.134501 5.8589602 -1.800728
20.180611 5.7383041 -1.8016886
20.22312 5.6165028 -1.8023872
20.270662 5.4959602 -1.8036098
20.307856 5.3724976 -1.8039591
20.349119 5.2500296 -1.8047451
20.382881 5.1255569 -1.8049198
20.418785 5.0015783 -1.8053564
20.451998 4.8768902 -1.8056184
20.4893 4.7531085 -1.8063171
20.526825 4.6292715 -1.807103
20.574305 4.5074983 -1.8088496
20.617165 4.3844876 -1.8102469
20.666119 4.2625294 -1.8122555
20.701653 4.1375966 -1.8131287
20.731541 4.0114422 -1.8135654
20.754786 3.8839772 -1.8134781
20.771364 3.7553144 -1.8128668
20.794996 3.6279643 -1.8129541
20.81883 3.5006306 -1.8131287
20.851719 3.3747327 -1.8141767
20.895658 3.2504008 -1.8162726
20.956589 3.1283042 -1.8199404
20.996099 3.0026202 -1.8217744
21.048672 2.8784587 -1.8248309
21.084705 2.7517021 -1.8264902
21.117998 2.6243658 -1.8279748
6.9450459 0.81955916 -0.57549351
6.9321237 0.77493662 -0.57392162
6.8317375 0.72129405 -0.56466466
6.8439651 0.68015027 -0.56536329
6.8440418 0.63777375 -0.565014
6.8160686 0.59300268 -0.56221944
6.8255367 0.55165076 -0.56274343
6.8109117 0.50842381 -0.56117147
6.8158908 0.4667595 -0.56134611
6.8066955 0.42418498 -0.5602982
6.8061862 0.38224414 -0.56003618
6.8034286 0.34022591 -0.55959952
6.799417 0.2982122 -0.55907559
6.7931552 0.25618532 -0.55837691
6.801569 0.21471894 -0.55898821
6.7878203 0.17260052 -0.55767828
6.8066797 0.13129486 -0.55925024
6.7924156 0.08933001 -0.5579403
6.8167439 0.047819972 -0.56003618
6.8348398 0.0060091424 -0.56160814
6.8387327 -0.035949472 -0.56195742
6.8583059 -0.078136273 -0.56370401
6.8557053 -0.12018178 -0.56352937
6.8747568 -0.1627156 -0.56527597
6.8736291 -0.20489524 -0.56527597
6.8931489 -0.24781756 -0.56710988
6.89747 -0.2903595 -0.56763387
6.8955588 -0.33267611 -0.56763387
6.9490914 -0.37800708 -0.57252431
18.602549 -1.12576 -1.596202
18.412399 -1.2276912 -1.5801333
18.371733 -1.3382568 -1.5772514
18.325438 -1.4479775 -1.573933
18.203054 -1.5507556 -1.5639774
18.163435 -1.6596994 -1.5613575
14.240554 -1.3894891 -1.2167549
18.105038 -1.8786644 -1.5581263
18.105053 -1.9910259 -1.5591743
10.575068 -1.2288343 -0.89573121
10.573262 -1.2944247 -0.8962552
10.567097 -1.3595307 -0.89642984
10.557569 -1.4242104 -0.89634252
10.5654 -1.49133 -0.89782715
10.569848 -1.5581634 -0.89904976
13.863503 -2.1305668 -1.1920406
13.834431 -2.2130742 -1.1906433
18.195543 -3.0252035 -1.5794348
18.142279 -3.1308637 -1.5763782
14.550347 -2.6031117 -1.2582364
17.981031 -3.3307652 -1.5655494
13.467496 -2.5803602 -1.1645317
18.035549 -3.5703187 -1.5741949
18.049416 -3.6882942 -1.5774262
18.032293 -3.8002064 -1.5779501
18.008636 -3.9107788 -1.5779501
17.96583 -4.0170746 -1.5762908
17.789394 -4.0923982 -1.5626675
17.740683 -4.1959724 -1.5605716
17.693306 -4.2995734 -1.5586503
17.64146 -4.4017868 -1.5563797
8.2106333 -2.1024868 -0.70543998
8.1831255 -2.1490319 -0.70413005
17.432396 -4.6921062 -1.5450269
7.7287846 -2.1314569 -0.66526836
7.6772127 -2.1680124 -0.66177517
17.268429 -4.9906135 -1.5382152
8.0388393 -2.3770072 -0.69731832
7.9716578 -2.4104326 -0.69251519
7.9595728 -2.4601827 -0.69277722
8.0241232 -2.5341721 -0.70011288
16.866402 -5.4403014 -1.5160334
16.828918 -5.5424428 -1.5156841
7.8137045 -2.6268485 -0.68509221
16.730427 -5.7385235 -1.5129769
16.665751 -5.830874 -1.5102696
16.639042 -5.9363704 -1.511143
16.539579 -6.015542 -1.5052919
16.429499 -6.0899096 -1.4984802
16.388096 -6.1891966 -1.4981309
16.264273 -6.256732 -1.4900966
16.193111 -6.3436928 -1.48704
16.121496 -6.430016 -1.4839835
16.062355 -6.520946 -1.4821496
16.018358 -6.6178584 -1.4818002
15.982042 -6.7179508 -1.4822369
15.932277 -6.8123636 -1.4814509
15.871906 -6.9020491 -1.4797043
15.803747 -6.988028 -1.477259
15.745125 -7.0779233 -1.4757745
15.659719 -7.1553569 -1.4717573
15.592933 -7.2408199 -1.4695741
15.527489 -7.3265834 -1.4675655
15.471461 -7.416553 -1.4665176
15.421185 -7.5091639 -1.4660809
15.36589 -7.5992293 -1.4652076
15.31274 -7.6902404 -1.4645963
15.252841 -7.7777176 -1.4633737
15.196869 -7.8670392 -1.4625877
15.127147 -7.9490166 -1.4604918
13.039705 -6.9546046 -1.2579744
14.978524 -8.1070242 -1.455514
14.927625 -8.1982985 -1.4554267
14.885742 -8.2945871 -1.4563
14.848443 -8.3936119 -1.4576973
12.437398 -7.1318097 -1.2192874
12.61644 -7.3376989 -1.2419058
12.58834 -7.4250956 -1.2436523
13.018741 -7.7870107 -1.292295
14.422997 -8.7475023 -1.4411919
14.35802 -8.8290529 -1.4400567
14.273143 -8.8980141 -1.4369128
12.260335 -7.7481437 -1.2338715
14.117578 -9.0434818 -1.432197
14.051796 -9.1234264 -1.431149
13.998048 -9.2111168 -1.431411
13.942924 -9.2979393 -1.4315857
13.891388 -9.3872213 -1.432197
13.84339 -9.4790335 -1.4332449
13.804612 -9.577425 -1.4353409
13.765961 -9.6762695 -1.4375241
13.771247 -9.8067799 -1.4445105
13.778679 -9.9400492 -1.4518461
13.726275 -10.030872 -1.4528068
13.624434 -10.085273 -1.4484403
13.516865 -10.134619 -1.4434625
13.423484 -10.193871 -1.4400567
13.348048 -10.266326 -1.4386594
13.248652 -10.319877 -1.4346422
13.147539 -10.371361 -1.4304504
12.977799 -10.36728 -1.4185736
12.837267 -10.384691 -1.409928
12.753269 -10.446852 -1.4076574
12.694296 -10.529359 -1.4082687
12.625635 -10.603848 -1.407832
12.555021 -10.6766 -1.4072207
12.48701 -10.751486 -1.4069587
12.421556 -10.828557 -1.4070461
12.352638 -10.902593 -1.4067841
12.266195 -10.960924 -1.4045135
12.186151 -11.024621 -1.403029
12.10799 -11.089767 -1.4018064
11.944023 -11.075123 -1.3903661
11.862042 -11.135247 -1.3887068
11.786273 -11.20096 -1.3878336
11.716605 -11.272377 -1.3877462
11.62581 -11.323206 -1.3851264
11.514969 -11.353762 -1.3800613
11.378811 -11.35805 -1.3718523
11.318014 -11.436861 -1.3729875
11.288016 -11.547407 -1.3780526
11.225254 -11.625051 -1.3791006
11.155087 -11.695151 -1.3792753
11.074237 -11.753951 -1.37814
6.957623 -7.4762659 -0.85774285
10.917028 -11.875764 -1.3765681
10.821855 -11.918188 -1.3736862
10.713935 -11.945804 -1.369145
6.7396817 -7.6082253 -0.85346371
6.6863117 -7.6419392 -0.85259038
6.5676436 -7.5999146 -0.84298414
10.261677 -12.022536 -1.3480986
10.179368 -12.075373 -1.3469633
10.107633 -12.140667 -1.3473126
10.033582 -12.203227 -1.3474
9.9603987 -12.266882 -1.347662
9.8974075 -12.34331 -1.3494085
9.8047867 -12.382721 -1.3470507
2.0197458 -2.583719 -0.24992874
1.9959401 -2.5858126 -0.24879345
1.9739968 -2.5900886 -0.24792017
1.9580672 -2.6021519 -0.24792017
1.9468172 -2.6205142 -0.2486188
1.943665 -2.6500809 -0.25054005
1.9384699 -2.6772866 -0.25219932
0 -0 -0
9.1046495 -12.90258 -1.3467886
1.8979713 -2.7255929 -0.25359657
1.8891124 -2.7486799 -0.25481921
1.869974 -2.7569222 -0.25446987
1.8585649 -2.7766221 -0.25534317
8.6760254 -13.132572 -1.3422475
8.6034431 -13.198077 -1.3435575
8.4436207 -13.128295 -1.3308073
8.3506317 -13.160511 -1.3287988
8.2771235 -13.223323 -1.3300214
8.1963539 -13.27471 -1.3301086
8.1095657 -13.316243 -1.3292354
8.0256548 -13.362336 -1.328886
7.9470677 -13.417329 -1.3294973
7.8706198 -13.476161 -1.3305453
7.7892752 -13.526791 -1.3308073
7.7179332 -13.59512 -1.3329033
7.6406946 -13.653522 -1.3340385
7.5567741 -13.700148 -1.3340385
7.4792309 -13.758511 -1.3352611
7.405489 -13.824339 -1.3372697
7.3065743 -13.843089 -1.3346498
7.2012744 -13.848773 -1.3308073
7.1116223 -13.883832 -1.329934
7.0204654 -13.915645 -1.3287988
6.9389381 -13.966489 -1.3295847
6.8443551 -13.990906 -1.3278382
6.7259583 -13.965326 -1.3212883
6.6252055 -13.974828 -1.3182318
6.5254321 -13.985426 -1.3153499
6.4336767 -14.012527 -1.3141273
6.3397837 -14.034492 -1.3124682
6.2531457 -14.072217 -1.3123808
6.1862316 -14.155048 -1.3166599
6.118535 -14.237586 -1.3209391
6.0357127 -14.285872 -1.321987
5.9456501 -14.317118 -1.3214631
5.8595719 -14.357942 -1.3218997
5.7847104 -14.426911 -1.3250436
5.7026515 -14.478817 -1.3266155
5.6198134 -14.52933 -1.3281001
5.5344477 -14.573783 -1.3290608
5.4449205 -14.607468 -1.3290608
5.3568993 -14.64528 -1.3294973
5.2655907 -14.674123 -1.3291481
5.1708231 -14.693 -1.3279254
5.0851202 -14.737635 -1.3291481
4.9936385 -14.765728 -1.328886
4.8991833 -14.784743 -1.3278382
4.8022223 -14.795575 -1.3260915
4.7122536 -14.827611 -1.3263535
4.6202965 -14.853393 -1.3260915
4.5226893 -14.860496 -1.3241702
4.3865156 -14.737112 -1.3103722
4.2795849 -14.707316 -1.3052198
4.1922593 -14.743839 -1.3061804
4.1598315 -14.978531 -1.3252182
4.0628934 -14.985505 -1.3235589
3.9227111 -14.828137 -1.3070537
3.8276713 -14.836494 -1.3056564
3.7251453 -14.814294 -1.3015519
3.6396279 -14.859127 -1.3035605
3.5624816 -14.940289 -1.3088876
3.4804235 -15.003593 -1.3126428
3.3942153 -15.050904 -1.3150007
3.3056386 -15.088964 -1.3165725
3.2187948 -15.136246 -1.3190179
3.1383376 -15.2162 -1.3244323
3.0458901 -15.240054 -1.3248689
2.9521322 -15.257479 -1.3247815
2.8606577 -15.287056 -1.3258295
2.7682221 -15.312162 -1.3265282
2.6755862 -15.336711 -1.3272268
2.590683 -15.407853 -1.3321173
0.43081313 -2.6640966 -0.19901559
0.4138459 -2.6627526 -0.19866626
0.40867892 -2.7401216 -0.20530331
0.37888193 -2.6518524 -0.19726899
0.37839746 -2.7696052 -0.20748655
0.25296295 -1.9411347 -0.13404235
0.240679 -1.9396845 -0.13378036
0.22877277 -1.9411248 -0.13378036
0.2155292 -1.930612 -0.13273241
0.20336516 -1.928926 -0.13247041
0.18886422 -1.9033728 -0.13011251
0.17829163 -1.9163983 -0.13116047
0.16782549 -1.9323425 -0.13247041
0.15636726 -1.9383006 -0.13290706
0.14543591 -1.9521379 -0.13404235
0.17057973 -2.4946406 -0.18163699
0.15402931 -2.4757552 -0.17989039
0.10964656 -1.957468 -0.13430434
0.097583883 -1.957109 -0.13421701
0.086141653 -1.9706088 -0.1353523
0.073146194 -1.947209 -0.13325639
0.061259948 -1.9496125 -0.13343105
0.048687037 -1.9260511 -0.13133514
0.035788927 -1.870538 -0.12644468
0.024100304 -1.854785 -0.1250474
0.013184203 -1.920644 -0.13081115
0.0021345797 -2.7046816 -0.19953956
-0.013860436 -2.5890887 -0.18940933
-0.029769104 -2.5909472 -0.18958399
-0.057812911 -3.2859428 -0.25054005
-0.079008572 -3.3293459 -0.25438255
-0.099761426 -3.3397515 -0.25534317
-0.11757193 -3.2644112 -0.24879345
-0.13592614 -3.2238164 -0.24530028
-0.15671143 -3.2438171 -0.24713419
-0.16191024 -2.9722328 -0.22338055
-0.18303184 -3.0189128 -0.22757237
-0.20724992 -3.1032147 -0.23508272
-1.1668562 -16.018017 -1.3703676
-1.2644129 -16.001617 -1.3695817
-1.3627423 -15.995543 -1.3697563
-1.4574196 -15.949183 -1.3664378
-1.5544808 -15.932008 -1.3657392
-0.30457473 -2.9319732 -0.22084798
-0.3214705 -2.9201469 -0.21997468
-1.7641377 -15.18329 -1.3024253
-1.8515798 -15.125706 -1.2983208
-0.48382011 -3.7585096 -0.29464149
-0.50700593 -3.7564576 -0.29472885
-0.43079913 -3.049968 -0.23246282
-0.44877905 -3.0423396 -0.23202617
-0.46925351 -3.0513442 -0.23307413
-0.48749539 -3.0454562 -0.23281214
-0.51499432 -3.0954733 -0.23752794
-0.48011273 -2.7800829 -0.20975712
-0.48646206 -2.7172673 -0.20443001
-0.50058585 -2.7005179 -0.2032074
-0.5244562 -2.7355528 -0.20661326
-3.1616046 -15.970683 -1.3896675
-3.2549529 -15.928535 -1.387659
-3.3522165 -15.906314 -1.3874842
-0.56120431 -2.5826485 -0.19412513
-0.57747525 -2.5811007 -0.19429979
-0.59598148 -2.5891588 -0.19534774
-0.60979366 -2.5767281 -0.19456178
-0.62253493 -2.5603538 -0.19342649
-3.9170852 -15.698691 -1.3808472
-3.9987595 -15.617423 -1.3756948
-0.65311301 -2.4858325 -0.18775006
-0.66188109 -2.4577296 -0.18556683
-4.2614517 -15.453782 -1.3677478
-0.92585939 -3.2777388 -0.26101962
-0.93129623 -3.2212741 -0.25639114
-4.5499845 -15.388965 -1.3692324
-0.80701232 -2.6679838 -0.20678791
-0.83866215 -2.7124736 -0.21132906
-4.7853804 -15.153465 -1.3555216
-5.0063934 -15.521067 -1.3921127
-5.1585569 -15.663209 -1.408094
-5.2615499 -15.652036 -1.4100153
-5.3684783 -15.651495 -1.4129845
-5.4765844 -15.65305 -1.4162157
-5.5758739 -15.628535 -1.417089
-1.2036306 -3.308409 -0.27106252
-5.7990918 -15.64487 -1.4251233
-5.8963857 -15.61272 -1.4254726
-1.1838529 -3.0764966 -0.25141335
-1.2070677 -3.0803053 -0.25246131
-1.3344405 -3.3448808 -0.27813622
-1.3556886 -3.3384759 -0.27831087
-1.2589973 -3.0465169 -0.25141335
-1.2471727 -2.9661844 -0.24451432
-1.2645662 -2.9566441 -0.24433964
-0 -0 -0
-6.8075562 -15.395576 -1.4381354
-1.3665594 -3.0391736 -0.25455722
-1.4129189 -3.091439 -0.26040831
-6.9983253 -15.070694 -1.4190975
-7.0728126 -14.989631 -1.4154297
-1.9277376 -4.0207095 -0.35332701
-7.2775946 -14.945594 -1.4197088
-1.4117002 -2.8537643 -0.2415451
-1.3397723 -2.6670022 -0.22407918
-1.3416312 -2.6303322 -0.22128463
-1.3778951 -2.6609764 -0.22512713
-1.3881727 -2.6410077 -0.22399186
-1.4057579 -2.6350772 -0.22425383
-1.9216603 -3.5498106 -0.31629926
-1.9467621 -3.544065 -0.31691056
-1.4821454 -2.6592278 -0.22931896
-1.5052971 -2.6622248 -0.23054157
-1.5191263 -2.6486173 -0.23010492
-8.6332865 -14.844214 -1.4678274
-8.7333155 -14.806408 -1.4693995
-5.0585175 -8.4568253 -0.8263042
-8.904541 -14.681937 -1.4677402
-8.9955034 -14.628721 -1.4679148
-1.3531457 -2.1699109 -0.18661478
-1.371224 -2.1691465 -0.18740074
-5.2360253 -8.1735277 -0.81337941
-5.2632952 -8.1061535 -0.80971158
-1.4005147 -2.1277277 -0.18574148
-1.3958584 -2.0925722 -0.18294694
-9.6783638 -14.322249 -1.4777831
-1.4360652 -2.0966566 -0.1852175
-9.8670197 -14.222046 -1.479879
-5.5340343 -7.8727036 -0.80604368
-1.6679889 -2.3417101 -0.21447292
-1.6811603 -2.3298156 -0.21429826
-1.6137271 -2.2076564 -0.20215945
-1.7036974 -2.3010027 -0.21342497
-1.7034422 -2.2713768 -0.21132906
-1.6595116 -2.1847191 -0.20294541
-1.5981864 -2.0773685 -0.19220388
-1.6408978 -2.1060326 -0.19648303
-1.6784675 -2.1272101 -0.19997621
-10.908196 -13.654954 -1.4945503
-10.983631 -13.577697 -1.4934151
-11.07431 -13.519295 -1.494463
-1.6379516 -1.9741973 -0.18731341
-1.6359397 -1.9473273 -0.18539216
-1.6439856 -1.9326993 -0.18486819
-1.6571134 -1.9240855 -0.18504284
-1.664306 -1.9086249 -0.18443154
-1.6746675 -1.8968832 -0.18425688
-1.6849475 -1.8850863 -0.18408222
-1.7098484 -1.889487 -0.1858288
-1.7483227 -1.9083455 -0.18932199
-2.2903376 -2.4695563 -0.25770107
-2.284312 -2.4329407 -0.25499386
-3.1645319 -3.3294771 -0.36511651
-3.3962395 -3.5296745 -0.39183936
-2.3711047 -2.4340143 -0.26032096
-12.480503 -12.657765 -1.5207492
-3.3980007 -3.4038122 -0.38406703
-3.253845 -3.2196271 -0.36371922
-3.3974867 -3.320771 -0.37891456
-3.3719361 -3.2555742 -0.3733255
-3.4041026 -3.2465122 -0.3748101
-12.937943 -12.189816 -1.5207492
-3.5115032 -3.2676117 -0.38293174
-2.5766399 -2.3681984 -0.26922858
-3.5233128 -3.1988261 -0.37961322
-3.5139523 -3.1512065 -0.37620735
-3.4385233 -3.0456917 -0.36511651
-2.7239456 -2.3829708 -0.27970815
-3.4726248 -3.0006609 -0.36476719
-3.3758025 -2.880991 -0.35149309
-13.568191 -11.437858 -1.5181293
-13.631227 -11.348653 -1.5173434
-3.3767064 -2.7759752 -0.345642
-4.023941 -3.2669899 -0.41681564
-3.8395154 -3.078336 -0.39384794
-13.611202 -10.777563 -1.4844201
-13.702188 -10.713479 -1.4872147
-13.743222 -10.61033 -1.4845074
-3.2935889 -2.5102966 -0.32546887
-11.256201 -8.4717417 -1.197455
-11.259995 -8.3668652 -1.1922152
-11.335218 -8.3152952 -1.1948352
-4.0763001 -2.9516754 -0.40362886
-14.188467 -10.14306 -1.4914064
-3.0891142 -2.179445 -0.29385555
-3.1007938 -2.1593108 -0.29368088
-3.0811484 -2.1176703 -0.29018769
-3.1245854 -2.1194189 -0.29341888
-3.1615365 -2.1162794 -0.29595146
-3.1295798 -2.0671873 -0.29123566
-3.1455429 -2.0501218 -0.29158497
-3.2502248 -2.0900609 -0.30119124
-5.7333732 -3.6376815 -0.55767828
-3.4554822 -2.1626041 -0.31979242
-3.3695161 -2.0801253 -0.30957487
-15.132717 -9.2158594 -1.5156841
-3.5980337 -2.1606991 -0.33035931
-3.5837965 -2.1223354 -0.32756478
-3.6105146 -2.1083443 -0.32896203
-15.525255 -8.9401407 -1.5329754
-15.570289 -8.8393011 -1.5320147
-15.632056 -8.7479753 -1.5328007
-3.8460903 -2.1211088 -0.34747592
-3.9176717 -2.1293483 -0.35332701
-3.9622755 -2.122205 -0.35647088
-3.951436 -2.0852973 -0.35411298
-3.9376421 -2.0472243 -0.35149309
-3.9261909 -2.010762 -0.34913519
-3.9206669 -1.9776589 -0.3473886
-7.6868014 -3.8188133 -0.71487159
-7.6671367 -3.7505627 -0.71067977
-7.7438555 -3.7293844 -0.71591955
-16.623926 -7.8811784 -1.5752429
-9.9781752 -4.6555696 -0.92769384
-5.7470937 -2.6384447 -0.51680803
-5.7622671 -2.6027215 -0.51672071
-5.7890525 -2.5721705 -0.51776868
-5.8193312 -2.5429842 -0.51916593
-10.14283 -4.3587074 -0.93022639
-10.173972 -4.2983284 -0.93066305
-10.278354 -4.2682986 -0.93808609
-10.327408 -4.2145619 -0.94026929
-10.201437 -4.0903091 -0.92594725
-9.6266594 -3.7914269 -0.86944503
-10.411596 -4.026989 -0.9410553
-10.445422 -3.9665656 -0.94192857
-10.368753 -3.8648188 -0.93249696
-10.391337 -3.8007824 -0.93240964
-10.489473 -3.7638695 -0.93939602
-10.428739 -3.670002 -0.9316237
-10.404919 -3.5900209 -0.92734456
-7.8137383 -2.6423371 -0.68552881
-7.8127837 -2.5887024 -0.68395692
-10.463552 -3.3960466 -0.92682058
-10.505078 -3.338418 -0.92874181
-10.525365 -3.2738972 -0.92874181
-10.538584 -3.2072227 -0.92813051
-10.517964 -3.1305616 -0.92446268
-10.93201 -3.1809256 -0.9605298
-10.889039 -3.096077 -0.95485336
-10.847361 -3.0124094 -0.94935161
-9.7118864 -2.6329546 -0.84455603
-11.000039 -2.909899 -0.9599185
-11.054341 -2.8518066 -0.96323699
-11.083225 -2.7868404 -0.96428496
-11.176554 -2.7375076 -0.97118402
-11.180544 -2.6658738 -0.97004873
-11.033663 -2.5593987 -0.95537734
-11.393166 -2.5692375 -0.986292
-11.478778 -2.5146329 -0.99257976
-11.30691 -2.4043641 -0.97581244
-11.394623 -2.350035 -0.98236221
-11.479161 -2.2941334 -0.9886499
-11.537033 -2.2321723 -0.99257976
-11.560304 -2.163173 -0.99345303
-11.583162 -2.093972 -0.99432635
-11.924546 -2.0802214 -1.0235817
-11.783834 -1.9812428 -1.0099584
-12.012112 -1.9439194 -1.0291709
-13.259158 -2.0623648 -1.1387695
-13.388809 -1.9984734 -1.1491617
-14.160151 -2.024889 -1.2164055
-15.183973 -2.0763333 -1.3059183
-15.868133 -2.070802 -1.3653026
-15.759933 -1.9584079 -1.3546484
-19.478592 -2.2993283 -1.6818724
-20.306118 -2.2707868 -1.7536573
-21.99786 -2.3234305 -1.9015937
-22.191126 -2.2062521 -1.9174004
-22.230034 -2.072453 -1.9196709
-22.263172 -1.9378276 -1.9215049
-22.299467 -1.8031945 -1.9236881
-22.339914 -1.6685601 -1.9263079
-22.343769 -1.5310448 -1.925784
-22.350754 -1.3937932 -1.9256094
-22.351923 -1.2562339 -1.924998
-22.350256 -1.1186131 -1.924212
-22.350727 -0.98119122 -1.9236881
-22.347368 -0.84369284 -1.9229021
-22.343163 -0.70627266 -1.9221162
-19.434771 1.4328549 -1.9142245
-19.416687 1.5513637 -1.9133275
-19.393915 1.6693629 -1.9120318
-19.364481 1.7865924 -1.9101381
-19.324438 1.902548 -1.9072478
-19.291618 2.0189085 -1.9051548
-19.249199 2.1339507 -1.9021648
-19.217955 2.2499378 -1.9003707
-19.176136 2.3644035 -1.8975801
-19.167189 2.4827888 -1.8981781
-19.152578 2.6004837 -1.8982778
-19.132322 2.7173929 -1.8978791
-19.115288 2.8347354 -1.8978791
-19.092617 2.951211 -1.8973807
-19.065308 3.0668828 -1.8964838
-19.037298 3.1823306 -1.8955867
-19.016434 3.2989111 -1.8954871
-18.981144 3.4128895 -1.8939921
-18.949085 3.5272877 -1.8928957
-18.909498 3.6401041 -1.8911017
-18.872169 3.75315 -1.8896067
-18.840014 3.8670757 -1.8887097
-18.813009 3.9819846 -1.8884107
-18.787251 4.0971322 -1.888311
-18.774378 4.2151656 -1.8896067
-18.744284 4.3293881 -1.8892081
-18.704781 4.44133 -1.8879124
-18.683943 4.5576677 -1.88861
-18.635357 4.6671472 -1.886517
-18.586132 4.7762017 -1.8844241
-18.540119 4.8858428 -1.8827296
-18.501146 4.9971752 -1.8818327
-18.456711 5.1068864 -1.8804374
-18.42407 5.2197671 -1.8803377
-18.394562 5.3335481 -1.8806367
-18.374846 5.4502769 -1.882032
-18.370573 5.5718746 -1.8851217
-18.345543 5.6874366 -1.8861184
-18.340654 5.8095126 -1.8893077
-18.335903 5.9320483 -1.8925967
-18.314276 6.049438 -1.8941914
-18.304155 6.1709185 -1.8970817
-18.310169 6.2983289 -1.9017661
-18.299345 6.4204435 -1.9047561
-18.277407 6.5389748 -1.9066498
-18.265917 6.6615701 -1.9097395
-18.243353 6.7804565 -1.9117328
-18.226528 6.901783 -1.9144238
-18.214472 7.0253072 -1.9177128
-18.194176 7.1460323 -1.9202045
-18.202648 7.2785959 -1.9258856
-18.20188 7.4081554 -1.9306695
-18.194691 7.5356941 -1.9348556
-18.17837 7.659945 -1.9381446
-18.185898 7.7948642 -1.9441246
-18.176035 7.9230056 -1.9483106
-18.167103 8.052125 -1.952696
-18.147291 8.1769361 -1.955985
-18.134771 8.3055353 -1.960171
-18.099705 8.4242105 -1.9619651
-18.07196 8.5465965 -1.964656
-18.040703 8.6676664 -1.967048
-18.020266 8.7943478 -1.9707358
-18.013214 8.928174 -1.9760181
-17.958094 9.0385332 -1.9760181
-17.954569 9.1752691 -1.9818984
-17.996853 9.3365898 -1.9930612
-17.970919 9.4635324 -1.9966491
-17.954636 9.596137 -2.0014331
-17.914658 9.7165623 -2.0036259
-17.87998 9.8402157 -2.0065162
-17.854015 9.9691458 -2.0105028
-17.807226 10.086845 -2.0121973
-17.782959 10.217732 -2.0165825
-17.747438 10.342689 -2.0197721
-17.705914 10.464554 -2.0223632
-17.663561 10.586299 -2.0249546
-17.61953 10.707401 -2.0274463
-17.57637 10.829405 -2.0301373
-17.53322 10.951809 -2.032928
-17.506882 11.08527 -2.0378118
-17.45612 11.203769 -2.0399046
-17.42708 11.336713 -2.0446887
-17.387926 11.463696 -2.0483763
-17.355316 11.5956 -2.0529611
-17.300318 11.71303 -2.0549545
-17.248634 11.833035 -2.057446
-17.192043 11.950007 -2.0594394
-17.146868 12.075324 -2.0629277
-17.107283 12.20516 -2.0672135
-17.099808 12.358862 -2.0755856
-17.034893 12.471782 -2.0769808
-17.000404 12.607487 -2.0822632
-16.93466 12.720527 -2.0837581
-16.835701 12.808531 -2.0811667
-16.749699 12.906125 -2.0802698
-16.642738 12.98723 -2.0767815
-16.539318 13.070594 -2.0737915
-16.428511 13.147582 -2.0699046
-16.325886 13.230596 -2.0671139
-16.219784 13.31032 -2.0639246
-16.104902 13.382246 -2.0596387
-15.992794 13.455827 -2.0557518
-15.912959 13.556285 -2.0561504
-15.809891 13.636771 -2.0535591
-15.716177 13.725013 -2.0522635
-15.61005 13.802073 -2.0493731
-15.524327 13.896931 -2.0492735
-15.435079 13.988584 -2.048775
-15.325496 14.0615 -2.0455856
-15.200291 14.119378 -2.0403035
-15.089451 14.189883 -2.0370142
-14.979039 14.260247 -2.0338249
-14.864035 14.325648 -2.0300376
-14.755201 14.39643 -2.0271473
-14.6496 14.469913 -2.0247552
-14.543653 14.542643 -2.0223632
-14.425478 14.602583 -2.0182769
-14.341166 14.696519 -2.0190742
-14.242434 14.77564 -2.0178783
-14.143271 14.854104 -2.0166821
-14.060041 14.949305 -2.0178783
-13.938253 15.003217 -2.0134928
-13.833151 15.074528 -2.0115993
-13.708322 15.123734 -2.0068152
-13.607302 15.198665 -2.0056193
-13.495993 15.261745 -2.0029283
-13.385077 15.324782 -2.0003369
-13.267398 15.379498 -1.9967488
-13.157294 15.442438 -1.9943569
-13.057169 15.516788 -1.9935595
-12.929282 15.557584 -1.9884765
-12.824111 15.625086 -1.9869815
-12.724863 15.699614 -1.9864831
-12.624562 15.772736 -1.9858851
-12.523843 15.845217 -1.9852871
-12.420874 15.914704 -1.9843901
-12.298696 15.95909 -1.9804034
-12.186685 16.016039 -1.9781111
-12.079218 16.078581 -1.9766161
-11.966109 16.133213 -1.9742241
-11.859838 16.196699 -1.9730281
-11.743915 16.246584 -1.9702374
-11.615688 16.278648 -1.9653537
-11.508138 16.339037 -1.964058
-11.394037 16.389734 -1.961666
-11.281436 16.442108 -1.959573
-11.178663 16.508549 -1.9592741
-11.070525 16.5669 -1.958078
-10.955519 16.614578 -1.955686
-10.848484 16.673981 -1.954789
-10.740596 16.731859 -1.9537923
-10.628147 16.782314 -1.9519984
-10.519175 16.837929 -1.950902
-10.412007 16.896227 -1.9502043
-10.305553 16.955544 -1.949706
-10.193649 17.005655 -1.948211
-10.073925 17.042185 -1.9452209
-9.939106 17.052095 -1.9392409
-9.6473989 16.787508 -1.9016664
-9.5290079 16.819548 -1.8985767
-9.4270811 16.880306 -1.8988757
-9.4802113 17.222883 -1.9314669
-9.3852663 17.300846 -1.9337592
-9.2878456 17.374781 -1.935653
-9.1792059 17.427921 -1.9352542
-9.0656824 17.47155 -1.9338589
-8.9501581 17.510899 -1.9320649
-8.8331499 17.546822 -1.9299719
-8.7186899 17.587318 -1.9284769
-8.6040659 17.627071 -1.9269819
-8.4884214 17.664286 -1.9252875
-8.3734941 17.702545 -1.9237925
-8.2609367 17.745472 -1.9228956
-8.1502399 17.792208 -1.9224969
-8.0388718 17.837345 -1.9219985
-7.9272561 17.881786 -1.9215002
-7.8157959 17.926443 -1.9211016
-7.7033024 17.968575 -1.9205035
-7.5917449 18.012753 -1.9202045
-7.4776511 18.050722 -1.9193075
-7.3637524 18.08889 -1.9185102
-7.2452335 18.115255 -1.9165168
-7.1281233 18.144552 -1.9149221
-7.0073462 18.163811 -1.9123309
-6.888011 18.185993 -1.9101381
-6.7735209 18.220453 -1.9093409
-6.6585264 18.25326 -1.9084438
-6.544055 18.287212 -1.9077461
-6.4294171 18.32045 -1.9070485
-6.3136473 18.350147 -1.9060518
-6.1961656 18.374397 -1.9045568
-6.0817456 18.407347 -1.9040585
-5.9604158 18.418756 -1.9013674
-5.8469877 18.454033 -1.9012678
-5.7360029 18.497166 -1.9020652
-5.6235538 18.535822 -1.9024638
-5.5122609 18.578564 -1.9033607
-5.3992696 18.615858 -1.9037595
-5.286571 18.654381 -1.9043574
-5.1725407 18.688387 -1.9045568
-5.0554385 18.711126 -1.9036598
-4.9390125 18.736021 -1.9030617
-4.8229666 18.762119 -1.9026631
-4.7067866 18.787498 -1.9022645
-4.5916562 18.816992 -1.9023641
-4.4758811 18.843843 -1.9022645
-4.3592772 18.867075 -1.9018657
-3.2919064 14.655712 -1.4668189
-3.1758392 14.556059 -1.4545599
-3.0211446 14.266687 -1.4229654
-2.9315481 14.275209 -1.4219688
-2.8409903 14.27829 -1.4204738
-2.7537031 14.297407 -1.4206731
-2.7070804 14.53511 -1.4431978
-2.5551515 14.202811 -1.4077164
-2.4693172 14.226066 -1.4085137
-2.3793561 14.225246 -1.406919
-2.2850728 14.196353 -1.4025337
-2.1450214 13.867905 -1.3678496
-2.0363867 13.72234 -1.3518032
-1.9445932 13.681379 -1.3464211
-1.8555213 13.655587 -1.3426337
-1.7817965 13.74467 -1.3505075
-1.6977925 13.758307 -1.3508065
-1.6154242 13.786255 -1.3526005
-1.5289388 13.779095 -1.3509061
-1.446124 13.80504 -1.3526005
-1.3674361 13.875048 -1.3587798
-1.3176578 14.266621 -1.397351
-1.2355571 14.337884 -1.4037297
-1.3147261 16.437025 -1.6139276
-1.1615975 15.736262 -1.5427653
-1.022554 15.114678 -1.479676
-0.93259859 15.166353 -1.4842607
-0.84825093 15.329757 -1.5001078
-0.71020305 14.439239 -1.4103078
-0.62167758 14.445312 -1.4105071
-0.55964094 15.171745 -1.482965
-0.46461678 15.112237 -1.476686
-0.3719787 15.118782 -1.4770846
-0.2778143 15.045172 -1.46951
-0.19993727 16.225603 -1.5876155
-0.093561411 15.112123 -1.4759883
-0.00083370763 15.098482 -1.474593
0.091649547 15.072333 -1.4720017
0.18386081 15.049598 -1.4698089
0.27566817 15.019336 -1.4669186
0.36439821 14.8781 -1.4529653
0.45363522 14.808949 -1.4462875
0.54423618 14.798927 -1.4455899
0.63460296 14.785368 -1.4445932
0.78837126 16.064219 -1.5732634
0.77879858 14.103866 -1.3771186
0.86446911 14.084918 -1.3757232
0.94355911 13.971138 -1.3648596
1.0342456 14.032563 -1.3716369
1.1215179 14.040832 -1.3731319
1.2053442 14.006919 -1.3704408
1.2924554 14.01214 -1.3717365
1.3807492 14.027711 -1.3741286
1.4677283 14.027882 -1.3750256
1.5363326 13.861368 -1.3591785
1.624481 13.878364 -1.3618696
1.7088755 13.862209 -1.3612715
1.79211 13.837647 -1.3598762
1.8880988 13.908226 -1.3681486
1.9683633 13.860915 -1.3645605
2.0543973 13.855466 -1.3652582
2.1401346 13.847516 -1.3657565
2.2329655 13.883244 -1.3707399
2.3181093 13.869281 -1.3707399
2.4058881 13.870481 -1.3723346
2.4881322 13.839789 -1.3707399
2.572094 13.819371 -1.3702415
2.6621077 13.830687 -1.3730322
2.7618699 13.889236 -1.3807065
2.8440387 13.857408 -1.3792115
2.925509 13.823148 -1.3775172
3.0386887 13.935206 -1.3908726
3.1167233 13.88329 -1.387484
3.2638946 14.132452 -1.4150918
3.3169785 13.970818 -1.4005404
3.424103 14.038169 -1.40961
3.5019543 13.984077 -1.4062214
3.5923996 13.980637 -1.408115
3.6905427 14.005477 -1.4129987
3.7984681 14.064218 -1.4214704
3.910172 14.132708 -1.4310385
3.9810805 14.052924 -1.4252578
4.0664015 14.025365 -1.4249588
4.2160606 14.214783 -1.4473839
4.2985797 14.173411 -1.4457892
4.3362508 13.988056 -1.4291447
4.432817 13.995334 -1.4327328
4.5394382 14.032246 -1.4395102
4.6201468 13.988067 -1.4378158
4.7030272 13.950969 -1.4369189
4.8205881 14.014997 -1.4467859
4.9387803 14.077167 -1.4565532
5.04216 14.094377 -1.4616363
5.2369766 14.360432 -1.4933304
5.3132043 14.296317 -1.4899417
5.4103398 14.28857 -1.4926327
5.5068645 14.278313 -1.4951245
5.5980086 14.253516 -1.496121
5.6831446 14.213356 -1.4955231
5.7702489 14.178217 -1.4955231
5.8510437 14.127836 -1.4939284
6.0040865 14.249379 -1.5110711
6.2607718 14.607347 -1.5541273
6.3184705 14.495687 -1.5461539
6.3911657 14.420259 -1.5421673
6.4648089 14.348115 -1.5385792
6.5369792 14.273802 -1.5347919
6.6403956 14.267701 -1.5385792
6.7444077 14.261767 -1.5424663
6.8701448 14.299936 -1.5513366
6.9804535 14.30401 -1.5565194
7.0937219 14.312616 -1.5623
7.7460175 15.390445 -1.6880798
7.2978072 14.281193 -1.5686787
7.4031696 14.27059 -1.5725657
7.6746721 14.574408 -1.6121336
8.1044989 15.164123 -1.6844919
7.759954 14.307704 -1.5925988
7.852396 14.268538 -1.5935955
7.9393134 14.219219 -1.5934958
8.2505531 14.565882 -1.6390437
8.6064939 14.979125 -1.6926646
8.4331865 14.471274 -1.6399407
8.6311865 14.604276 -1.6614687
8.7436543 14.589446 -1.6659538
8.886755 14.623952 -1.6763191
8.9256849 14.486979 -1.6666515
9.1915407 14.715486 -1.7001396
9.2811279 14.657969 -1.70004
9.383256 14.620005 -1.7023323
9.4776688 14.569661 -1.7032293
9.4918489 14.397429 -1.6895748
9.5606623 14.30996 -1.6860865
10.111892 14.935697 -1.7689099
10.195464 14.861883 -1.7675146
10.302365 14.821921 -1.7703053
10.407441 14.778766 -1.7727969
10.505439 14.725159 -1.7740926
10.547213 14.59349 -1.7658203
10.673004 14.578273 -1.7719996
10.819751 14.590032 -1.7816672
10.967639 14.601332 -1.7914346
11.090765 14.578105 -1.797016
11.200048 14.535788 -1.800305
11.306169 14.488755 -1.8030957
11.408431 14.436283 -1.8052883
11.486848 14.353581 -1.8036937
11.544003 14.244952 -1.79881
11.655179 14.203078 -1.8025974
11.773271 14.168794 -1.8074811
11.911879 14.157957 -1.815554
12.086287 14.187607 -1.8291088
12.221209 14.168933 -1.8364842
12.362245 14.15588 -1.8447565
12.508193 14.146846 -1.8537266
12.680378 14.165462 -1.8665836
12.850586 14.179546 -1.879042
13.020768 14.191339 -1.8914007
13.15365 14.160748 -1.8981781
13.358906 14.205892 -1.9155202
13.517862 14.199322 -1.9259852
13.661357 14.174855 -1.934158
13.833549 14.178358 -1.946417
14.055944 14.230538 -1.9657524
14.215467 14.216493 -1.9760181
14.416404 14.241578 -1.9920645
14.619603 14.266119 -2.0083103
14.754148 14.221719 -2.0148883
14.873562 14.161796 -2.0193732
15.000044 14.107758 -2.0248549
15.071015 14.001232 -2.0227621
15.15151 13.903786 -2.0220642
15.198936 13.776478 -2.0169814
15.253526 13.656413 -2.0129945
15.261 13.495334 -2.0028286
15.310543 13.372642 -1.9984431
15.375731 13.264148 -1.9962505
15.423503 13.141163 -1.9918652
15.476436 13.023217 -1.9882772
15.520084 12.898122 -1.9835927
15.572782 12.781188 -1.9802041
15.623857 12.663467 -1.9767158
15.676404 12.547467 -1.9735264
15.722653 12.426981 -1.9696394
15.763308 12.302729 -1.9651544
15.810913 12.184519 -1.961666
15.853703 12.063176 -1.9576794
15.902761 11.947146 -1.9545896
15.953389 11.832748 -1.951799
16.008833 11.722294 -1.949706
16.061104 11.609856 -1.947314
16.095589 11.485083 -1.9428289
16.127522 11.359178 -1.9381446
16.163418 11.236723 -1.9340582
16.210728 11.122699 -1.9314669
16.246536 11.001266 -1.9275799
16.286432 10.88313 -1.9242909
16.329643 10.767658 -1.9215002
16.373718 10.653152 -1.9189088
16.405281 10.530985 -1.9149221
16.4326 10.406704 -1.9105368
16.469984 10.289338 -1.9074471
16.508242 10.17295 -1.9045568
16.542292 10.054413 -1.9012678
16.578922 9.9378872 -1.8983774
16.600183 9.812685 -1.8937927
16.6085 9.680583 -1.8878127
16.631351 9.5576725 -1.8836267
16.670637 9.4446554 -1.8814341
16.714375 9.3344269 -1.8798393
16.754772 9.222578 -1.8779457
16.792677 9.1096363 -1.8758527
16.82193 8.9923563 -1.8728627
16.844215 8.8718147 -1.869175
16.856823 8.7467566 -1.8644906
16.865873 8.6205206 -1.8595073
16.892675 8.5038986 -1.856617
16.924923 8.3903646 -1.8544242
16.961779 8.2793751 -1.8528296
16.990736 8.1648016 -1.8504375
17.017128 8.0493345 -1.8478463
17.048155 7.9363699 -1.8458529
17.070295 7.8195996 -1.8429625
17.107069 7.7098055 -1.8417665
17.131311 7.5946131 -1.8392749
17.167555 7.4849806 -1.8381785
17.187551 7.3685255 -1.8353878
17.200348 7.249402 -1.8318995
17.212332 7.1303997 -1.8284111
17.218893 7.0096483 -1.8244245
17.246798 6.8979521 -1.8228297
17.242491 6.7738094 -1.8178464
17.256807 6.6574993 -1.8149561
17.321526 6.5606503 -1.8175474
17.379177 6.4608302 -1.8194411
17.434383 6.359868 -1.8211354
17.484322 6.2567954 -1.8223314
17.528017 6.1513724 -1.8229295
17.565432 6.0437064 -1.8229295
17.594641 5.9332705 -1.8221321
17.632605 5.8258243 -1.8223314
17.67654 5.7202792 -1.8232285
17.719843 5.6144147 -1.8241254
17.757761 5.5067611 -1.8245242
17.801689 5.4008746 -1.8256204
17.840218 5.2932415 -1.8262185
17.877138 5.1850619 -1.8267168
17.906702 5.0747299 -1.8265175
17.939421 4.9652915 -1.8267168
17.967628 4.8546052 -1.8265175
18.003813 4.7460413 -1.8272151
18.035486 4.6362257 -1.8275142
18.071316 4.5274086 -1.8283114
18.103588 4.4176192 -1.8288099
18.139067 4.3085237 -1.8297068
18.173887 4.1991587 -1.8306038
18.209019 4.0897465 -1.8316004
18.23863 3.9790013 -1.8320988
18.269516 3.8684587 -1.8327965
18.294859 3.7566864 -1.8329958
18.315613 3.6439724 -1.8327965
18.338604 3.5317094 -1.8328961
18.358952 3.4189372 -1.8327965
18.382521 3.3067527 -1.8330954
18.415211 3.1961086 -1.8343911
18.457047 3.0868285 -1.8366835
18.486446 2.9752586 -1.8377799
18.514187 2.863292 -1.8387765
18.542234 2.7512429 -1.8398728
18.557781 2.6372783 -1.8397732
8.6843176 1.1804526 -0.84011233
8.7683659 1.1371156 -0.84788638
6.8553991 0.84655291 -0.65413356
6.7240834 0.788504 -0.64037949
6.7287951 0.74723095 -0.64037949
6.7025752 0.70271873 -0.63728982
6.690917 0.66001916 -0.63569516
6.6888962 0.61840343 -0.63509715
6.6846337 0.57666671 -0.63429981
6.6801114 0.53500563 -0.63350248
6.6753297 0.49342173 -0.63270515
6.668304 0.45178255 -0.63170844
6.6639986 0.41043115 -0.63101077
6.6634111 0.36936918 -0.63071179
6.660583 0.32823229 -0.63021344
6.6594892 0.28722945 -0.62991446
6.6611261 0.24636218 -0.62991446
6.6625123 0.20548564 -0.62991446
6.6636481 0.16460137 -0.62991446
6.6705017 0.12382065 -0.63051248
6.6800904 0.082998589 -0.63140947
6.687439 0.042051349 -0.63210714
6.6925459 0.0010170967 -0.63260549
6.6954112 -0.040065993 -0.63290447
6.7039938 -0.081257604 -0.63380146
6.7143126 -0.12259271 -0.63489783
6.723381 -0.16403306 -0.63589448
6.7331882 -0.20561984 -0.63699085
6.7417431 -0.2472965 -0.63798749
6.7530222 -0.2892141 -0.63928318
6.7580771 -0.33098632 -0.63998085
6.7668476 -0.37305126 -0.64107716
6.8349447 -0.41889846 -0.64815354
8.6966372 -0.58689868 -0.83532834
16.371469 -1.206825 -1.6065522
16.252668 -1.2983733 -1.5953895
16.238447 -1.397561 -1.5947915
16.090855 -1.4843657 -1.5808381
16.131945 -1.5880445 -1.5859212
16.074396 -1.6820244 -1.5811371
16.021248 -1.7759064 -1.5768514
10.578549 -1.237955 -1.0290811
10.573717 -1.3032058 -1.0293801
10.573416 -1.3690835 -1.0301775
10.565803 -1.4340689 -1.0302771
10.545968 -1.4973327 -1.0291808
10.56414 -1.5661019 -1.0319715
13.847516 -2.1401346 -1.3657565
13.792864 -2.2184212 -1.3615705
13.84082 -2.31335 -1.3678496
15.764553 -2.7345831 -1.5648913
15.72985 -2.8280907 -1.5630974
14.673346 -2.7311108 -1.457251
15.720341 -3.0259871 -1.5657884
13.378841 -2.6603346 -1.3285807
15.727834 -3.2280779 -1.5704727
15.725253 -3.3282311 -1.5722667
15.715229 -3.4269896 -1.5733631
15.701673 -3.5250962 -1.5741605
15.746641 -3.6368284 -1.5810374
15.770498 -3.744416 -1.5858215
15.755926 -3.8432343 -1.5867184
8.2469521 -2.0647461 -0.81380022
8.1994352 -2.1063921 -0.81021219
15.607467 -4.1128159 -1.5789444
15.527184 -4.1937118 -1.5732634
7.6817064 -2.124788 -0.76057798
15.463064 -4.3806829 -1.5720674
15.43016 -4.4738173 -1.5714694
8.0161867 -2.3770471 -0.79974717
7.9776464 -2.418967 -0.79725552
7.9579015 -2.466398 -0.79675716
7.9511552 -2.517885 -0.79765415
8.4448757 -2.7314346 -0.85127503
15.058518 -4.9738016 -1.5507387
15.023002 -5.0645161 -1.5502403
7.779707 -2.6753547 -0.78629214
14.905266 -5.2293801 -1.5444596
14.862593 -5.3170509 -1.5433633
14.815666 -5.4030313 -1.5418683
14.757053 -5.4844761 -1.5391773
14.701721 -5.5668149 -1.5368849
14.658004 -5.6533365 -1.5358882
14.598034 -5.7333474 -1.5331973
14.535788 -5.8120961 -1.5303069
14.453773 -5.8824191 -1.5253235
14.396263 -5.9622364 -1.5230312
14.356658 -6.0492988 -1.5227321
14.320185 -6.1376677 -1.5228318
14.210198 -6.1940045 -1.5149581
14.114617 -6.2556758 -1.5086792
14.029702 -6.3213139 -1.5035961
13.985224 -6.4047933 -1.5029981
13.930326 -6.483346 -1.5013038
13.900177 -6.5733786 -1.5024002
13.864964 -6.6611304 -1.5029981
13.849762 -6.7587361 -1.5058885
13.728687 -6.8042574 -1.4970181
13.670681 -6.8803139 -1.4952241
13.625548 -6.962708 -1.494925
13.203672 -6.849586 -1.4521679
13.053989 -6.8739047 -1.4400085
12.86853 -6.8774147 -1.4237628
12.747373 -6.9135451 -1.4147928
12.628875 -6.9498887 -1.4061217
12.421802 -6.9355555 -1.3872846
12.361697 -7.0018344 -1.3852913
12.299522 -7.0666456 -1.3830986
12.328142 -7.1840692 -1.3914707
12.258132 -7.2443886 -1.3884807
12.215158 -7.3204899 -1.38868
12.200621 -7.4139075 -1.3922679
12.183702 -7.5063772 -1.3956567
12.16695 -7.5994453 -1.399145
12.165485 -7.702704 -1.4045271
12.143114 -7.7933302 -1.4075171
12.088395 -7.8633513 -1.4067197
12.17283 -8.0250139 -1.4226664
12.479934 -8.3378201 -1.4656229
12.438426 -8.4209328 -1.4668189
12.379137 -8.4920292 -1.465922
12.325981 -8.5672579 -1.4658223
12.269114 -8.639863 -1.4653239
12.20777 -8.7092028 -1.4643273
12.142812 -8.7757835 -1.462932
12.080709 -8.8442469 -1.4619353
11.998241 -8.89746 -1.458447
11.900462 -8.9386396 -1.4530649
11.839849 -9.0072737 -1.4523672
11.782783 -9.078537 -1.4521679
11.712736 -9.1396446 -1.4503739
11.644727 -9.2020864 -1.4488789
11.58416 -9.2702551 -1.4483806
11.530926 -9.3442917 -1.4488789
11.478757 -9.4192867 -1.4495765
11.427633 -9.495266 -1.4504735
11.366872 -9.5632839 -1.4501746
11.30192 -9.6276875 -1.4493772
11.235098 -9.6903534 -1.4483806
11.168683 -9.7532177 -1.4474835
11.136953 -9.846611 -1.4512709
11.297243 -10.112542 -1.4809717
11.254149 -10.199044 -1.4835631
11.083587 -10.169013 -1.468912
10.97214 -10.191455 -1.4622343
10.884031 -10.234728 -1.458746
10.8131 -10.293771 -1.4576496
10.748302 -10.358544 -1.4574503
10.665313 -10.405537 -1.4547592
10.573658 -10.44351 -1.4508722
10.486161 -10.484974 -1.4475832
10.403449 -10.530712 -1.4449918
10.312927 -10.567998 -1.4413042
10.215435 -10.597405 -1.4366199
10.124833 -10.633223 -1.4329321
6.963995 -7.4035935 -0.98034394
9.9373779 -10.69616 -1.4246597
9.8668509 -10.751801 -1.4239621
9.7973528 -10.808455 -1.4234638
9.7348309 -10.872815 -1.4240618
6.7395463 -7.6204376 -0.98124093
6.6782618 -7.6451592 -0.97904825
6.5532379 -7.5955782 -0.96708822
9.59412 -11.25993 -1.4439952
2.1091578 -2.5049517 -0.29024902
2.1026511 -2.5285602 -0.29164436
9.3732433 -11.420005 -1.4421015
9.3080063 -11.483487 -1.4428989
9.2672129 -11.577673 -1.4476829
2.0597062 -2.6043816 -0.29483372
2.0198135 -2.5863776 -0.29094669
1.9869006 -2.5766532 -0.28815603
1.9638234 -2.5792935 -0.28696001
1.9425817 -2.5841348 -0.28606302
1.924911 -2.5936079 -0.28576401
1.9001437 -2.5933275 -0.28426901
1.908093 -2.6380014 -0.28835535
1.9005392 -2.6618097 -0.28985035
8.2854443 -11.762952 -1.4034307
8.2227669 -11.827458 -1.405125
8.1415968 -11.865382 -1.40363
1.8653245 -2.7529659 -0.29533204
1.8495032 -2.7660141 -0.29553139
1.831401 -2.7756491 -0.29533204
7.8832216 -12.115828 -1.4101083
7.7479987 -12.069346 -1.398846
7.6801844 -12.126748 -1.4000421
7.6014142 -12.166893 -1.3992447
7.53549 -12.227707 -1.400939
7.4510188 -12.258408 -1.399145
7.3664546 -12.288533 -1.397351
7.2914214 -12.334358 -1.3974507
7.2135978 -12.375426 -1.397052
7.1385193 -12.421181 -1.3972514
7.0680552 -12.475137 -1.3984474
6.9894357 -12.514796 -1.3980486
6.909636 -12.552217 -1.3974507
6.8282175 -12.586505 -1.3965536
6.7480454 -12.6229 -1.3959557
6.668611 -12.660546 -1.395557
6.5862198 -12.692393 -1.3945603
6.5068583 -12.729909 -1.3942614
6.422811 -12.75804 -1.3929657
6.3408732 -12.790077 -1.3921683
6.2631483 -12.830532 -1.3923676
6.1907673 -12.882174 -1.3938626
6.1103311 -12.917218 -1.3935636
6.0250793 -12.941838 -1.3921683
5.9463849 -12.980373 -1.3923676
5.8703055 -13.024779 -1.3932647
5.8027759 -13.088754 -1.3963543
5.7330914 -13.14874 -1.3990453
5.6507363 -13.180012 -1.3986467
5.5705314 -13.216269 -1.398846
5.4935217 -13.260313 -1.3999424
5.4019265 -13.268888 -1.3972514
5.3034139 -13.259284 -1.3926667
5.2070417 -13.253604 -1.3885803
5.1087914 -13.241672 -1.383896
5.01476 -13.23927 -1.3803079
4.9268446 -13.25207 -1.3784143
4.8410063 -13.269899 -1.3771186
4.7517834 -13.277805 -1.3748262
4.6669283 -13.297322 -1.3738296
4.5862207 -13.32853 -1.3741286
4.4976764 -13.33662 -1.3720355
4.4088936 -13.343181 -1.3698429
4.3318391 -13.385129 -1.3714375
4.2574406 -13.436119 -1.3740289
4.1763911 -13.466742 -1.3745272
4.0832844 -13.457835 -1.3709393
3.9955385 -13.465466 -1.3691452
3.8942742 -13.425699 -1.3624675
3.8199596 -13.478062 -1.3654575
3.7432914 -13.523303 -1.3677499
3.6656923 -13.56619 -1.3698429
3.5902436 -13.618254 -1.3729326
3.5110741 -13.657373 -1.3747265
3.4250321 -13.669973 -1.3738296
3.3375528 -13.676231 -1.3723346
3.252425 -13.691612 -1.3718362
3.1710408 -13.722945 -1.3730322
3.0917923 -13.764473 -1.3753246
3.0087612 -13.78999 -1.3760222
2.9236786 -13.806245 -1.3758229
2.8389101 -13.823924 -1.3758229
2.758693 -13.864505 -1.378215
2.6745105 -13.886057 -1.3787133
2.5927169 -13.920792 -1.3806069
2.5141199 -13.974631 -1.3844939
2.430537 -14.00254 -1.3857896
2.3412919 -13.997561 -1.3837963
2.2528315 -13.995946 -1.3822016
2.1591589 -13.959355 -1.3771186
0.41150108 -2.7666039 -0.24240883
1.9843351 -13.961157 -1.3747265
0.26371387 -1.9333695 -0.15769181
0.25184599 -1.9349512 -0.15769181
0.23887259 -1.9275723 -0.15679482
0.22715645 -1.9299899 -0.15689448
0.21498102 -1.9283805 -0.15659547
0.20304106 -1.9286737 -0.15649581
0.19169067 -1.9348344 -0.15699415
0.17944941 -1.9320109 -0.15659547
0.16776215 -1.9350584 -0.15679482
0.15604421 -1.938035 -0.15699415
0.14436924 -1.9419329 -0.15729314
0.13251814 -1.9437749 -0.15739281
0.12254067 -1.9763323 -0.16058215
0.10936873 -1.9581704 -0.15868849
0.098522812 -1.9826564 -0.16108049
0.12465999 -2.8749349 -0.25048187
0.13044283 -3.512028 -0.3142688
0.081959136 -2.6345718 -0.22626276
0.088457286 -3.5591216 -0.3188535
0.06727583 -3.595412 -0.32244149
0.045030698 -3.580833 -0.32094648
0.016840806 -2.5641496 -0.21908674
0.0010846953 -3.5940511 -0.32224217
-0.021507189 -3.6815503 -0.33101287
-0.030310726 -2.5600452 -0.21868807
-0.060119286 -3.3248522 -0.29533204
-0.079956926 -3.3015423 -0.29303971
-0.1019543 -3.3576789 -0.29872075
-0.5291748 -14.390251 -1.4046267
-0.14678393 -3.4406736 -0.30719244
-0.7041136 -14.349877 -1.4013376
-0.80072051 -14.500274 -1.4168857
-0.89144748 -14.523889 -1.4197761
-0.98491108 -14.582675 -1.4262545
-0.27978754 -3.8076653 -0.34466726
-0.30243188 -3.7969503 -0.34377027
-0.3252115 -3.7890751 -0.34317225
-0.26997092 -2.9368956 -0.25765789
-0.28652301 -2.9203303 -0.25616288
-1.5338409 -14.659253 -1.4386132
-0.32354504 -2.9274728 -0.25725922
-0.34115431 -2.9224677 -0.25696024
-1.8009735 -14.608786 -1.4366199
-1.8905774 -14.59746 -1.4366199
-1.9898872 -14.65756 -1.4438956
-2.0817466 -14.658867 -1.4452909
-2.1716526 -14.645817 -1.4452909
-0.4706915 -3.0514972 -0.27151161
-0.48877391 -3.0446222 -0.27111295
-0.64431673 -3.8600481 -0.35423529
-0.65829188 -3.8001409 -0.34855428
-0.5591765 -3.1154127 -0.27928567
-0.57281727 -3.0825768 -0.27629563
-0.52756214 -2.7458229 -0.24230917
-2.890779 -14.537232 -1.4468856
-2.9815245 -14.527019 -1.4476829
-3.0724592 -14.517212 -1.4485799
-0.57527864 -2.6426103 -0.2331398
-0.85726297 -3.8224838 -0.35463396
-0.8802532 -3.8152127 -0.35443464
-0.61577553 -2.5976906 -0.22965145
-0.63288236 -2.5986965 -0.23014978
-0.64954114 -2.5976601 -0.23044878
-0.67611933 -2.6350644 -0.23473448
-0.72093385 -2.7395899 -0.24599685
-0.73695153 -2.732233 -0.24569784
-3.9919169 -14.428071 -1.461736
-4.1007171 -14.475104 -1.469211
-0.95091599 -3.2829897 -0.3046011
-0.80548 -2.719048 -0.24629585
-0.81290507 -2.6835849 -0.2431065
-4.4759369 -14.438536 -1.476387
-4.5635443 -14.407954 -1.476088
-4.6509452 -14.376842 -1.475789
-4.7434421 -14.36126 -1.4771843
-4.8273387 -14.319628 -1.4758886
-4.9089608 -14.271861 -1.473995
-4.9918265 -14.228327 -1.4725996
-5.0937862 -14.238651 -1.476985
-1.2001743 -3.2936413 -0.31337181
-5.269866 -14.179734 -1.4774834
-1.1527493 -3.0469661 -0.2885547
-1.1656935 -3.024982 -0.28696001
-1.2246157 -3.1205723 -0.29802307
-5.5885553 -13.976844 -1.4700083
-1.2999576 -3.196547 -0.30789012
-1.241864 -3.0009789 -0.28755802
-1.2718472 -3.0208101 -0.29054803
-1.3640641 -3.1848807 -0.30928546
-1.366879 -3.1381426 -0.30509943
-1.3643334 -3.0805755 -0.2997174
-1.4085565 -3.1283898 -0.30589676
-6.3861465 -13.944515 -1.4985131
-6.4778872 -13.918599 -1.5000081
-6.5835896 -13.921764 -1.5047921
-6.6766448 -13.89725 -1.5065861
-1.3899424 -2.8503268 -0.27988365
-1.3835412 -2.7936039 -0.27450162
-1.3603911 -2.7050731 -0.2655316
-1.3882844 -2.7188251 -0.26802328
-7.1332517 -13.75038 -1.5138618
-7.193377 -13.660572 -1.5086792
-7.3089581 -13.675849 -1.5154564
-1.4768885 -2.7250433 -0.27270764
-1.4959804 -2.7202885 -0.27320597
-7.5089927 -13.448649 -1.5050911
-7.6310983 -13.472446 -1.5131642
-7.732955 -13.459016 -1.5170512
-7.8304238 -13.437103 -1.5200412
-5.0054626 -8.4703817 -0.94775277
-8.0269566 -13.393767 -1.5263202
-8.1508474 -13.413136 -1.5343932
-8.2502213 -13.390826 -1.5376823
-8.3322306 -13.339952 -1.5376823
-5.1000347 -8.0556202 -0.91725469
-5.2450418 -8.1732235 -0.93499541
-5.2961783 -8.1425552 -0.93519473
-5.3460407 -8.1099052 -0.93519473
-5.6289921 -8.4260778 -0.97725421
-8.8343277 -13.048943 -1.5406723
-8.9367456 -13.027309 -1.5446589
-9.0312786 -12.993472 -1.5472503
-9.1314611 -12.967098 -1.5508384
-5.6097121 -7.8638983 -0.92981273
-9.359848 -12.950834 -1.5627984
-9.4379606 -12.891554 -1.5625991
-9.5364456 -12.859774 -1.565888
-1.7501863 -2.3316689 -0.25426921
-1.7313221 -2.2773337 -0.24878752
-9.8012962 -12.72068 -1.5707717
-1.74567 -2.2386591 -0.24659485
-1.7420976 -2.206048 -0.24380417
-1.7562227 -2.196094 -0.24390385
-1.7452303 -2.1551294 -0.24001682
-10.179945 -12.405581 -1.5696754
-10.255873 -12.342884 -1.5696754
-1.6391777 -1.9498154 -0.2173924
-1.6704698 -1.9624429 -0.22038241
-10.448831 -12.114345 -1.564692
-10.528202 -12.055999 -1.5654894
-1.6812618 -1.9030375 -0.21659505
-1.6816242 -1.8800831 -0.21490072
-1.6891191 -1.8653059 -0.21430272
-1.7200421 -1.8761674 -0.21719307
-1.7870544 -1.9253554 -0.22536576
-10.965498 -11.66104 -1.5655891
-11.032725 -11.589214 -1.564991
-2.4809585 -2.5755835 -0.32044816
-3.2409685 -3.3230267 -0.42719162
-3.397655 -3.4411135 -0.44662669
-3.4384062 -3.4399011 -0.44941735
-3.2916749 -3.2530186 -0.42579627
-3.3087244 -3.2299807 -0.4253976
-3.4058554 -3.2841918 -0.43616164
-3.4252222 -3.2625461 -0.43606198
-11.146006 -10.483389 -1.494925
-11.21012 -10.414801 -1.494925
-3.1489062 -2.8908448 -0.39041445
-3.5374348 -3.2075732 -0.44054699
-3.5466704 -3.1765163 -0.43915164
-3.4647174 -3.0650568 -0.42559692
-3.451982 -3.0162504 -0.42141092
-3.428231 -2.9586179 -0.41582957
-3.3667903 -2.8697739 -0.40536451
-11.773887 -9.9079342 -1.5035961
-11.864305 -9.8603058 -1.5074831
-3.4082747 -2.7984788 -0.40396917
-3.9417684 -3.1960063 -0.47054678
-10.924331 -8.7443371 -1.3638629
-11.009007 -8.7018204 -1.3678496
-11.03709 -8.6145182 -1.3646601
-11.248952 -8.6693134 -1.3847929
-3.9492588 -3.0061119 -0.45938408
-3.9684253 -2.9824207 -0.45948374
-11.249173 -8.3440228 -1.3651586
-11.440657 -8.3777075 -1.3826003
-11.480556 -8.2991915 -1.381205
-11.557993 -8.2476625 -1.3844939
-11.583976 -8.1594009 -1.3815039
-11.633823 -8.0881691 -1.3815039
-11.667643 -8.0059385 -1.3796103
-3.076772 -2.0845604 -0.33450121
-3.1019149 -2.0739341 -0.33599624
-3.111259 -2.0526714 -0.33559754
