# .PCD v0.7 - Point Cloud Data file format
VERSION 0.7
FIELDS x y z
SIZE 4 4 4
TYPE F F F
COUNT 1 1 1
WIDTH 1557
HEIGHT 1
VIEWPOINT 0 0 0 1 0 0 0
POINTS 1557
DATA ascii
-7.2596083 7.5183706 -1.9092145
-7.2180896 7.5677524 -1.9104973
-7.1863503 7.6276402 -1.9145292
-7.1581655 7.6917405 -1.9196606
-7.1075087 7.7318988 -1.9187442
-7.0698457 7.7862811 -1.9214932
-7.025219 7.8331733 -1.9224095
-6.9659414 7.8636227 -1.919294
-6.9007282 7.8869815 -1.9145292
-6.8708463 7.9507446 -1.9198438
-6.8193793 7.9897628 -1.9191108
-6.7708602 8.0322065 -1.919294
-6.7516403 8.1098642 -1.9280908
-6.7067471 8.1572132 -1.9295568
-6.6528511 8.1936331 -1.9284573
-6.6092157 8.2427359 -1.9304732
-6.5652275 8.2916117 -1.9324892
-6.5233107 8.3433561 -1.9352381
-6.4719939 8.3832254 -1.9352381
-6.407918 8.4063606 -1.9313896
-6.3650846 8.4573021 -1.9341385
-6.3353534 8.5261831 -1.9411026
-6.2916408 8.5767851 -1.9438516
-6.2388959 8.6152287 -1.9438516
-6.1899185 8.6589451 -1.9451344
-6.1349716 8.6943531 -1.9445846
-6.0781374 8.7269926 -1.943485
-6.0144506 8.7495413 -1.9401863
-5.9738975 8.8058052 -1.9445846
-5.924129 8.8488293 -1.9460508
-5.8621354 8.8735294 -1.943485
-5.804894 8.9052143 -1.9425687
-5.7671609 8.9671221 -1.9484332
-5.7041302 8.9898891 -1.9456842
-5.6405163 9.0113878 -1.942752
-5.6047435 9.0776129 -1.9497161
-5.5264397 9.0748892 -1.9416524
-5.4974809 9.1532927 -1.9513655
-5.4091496 9.13272 -1.9396365
-5.3807755 9.213275 -1.9498993
-5.3261051 9.2495251 -1.9506323
-5.2498369 9.2478352 -1.9433018
-5.2169991 9.3227663 -1.9524651
-5.145453 9.3287783 -1.9469671
-5.1383557 9.452589 -1.9665765
-5.0802593 9.4839392 -1.9665765
-5.0247245 9.5201492 -1.967676
-4.968483 9.5551624 -1.9685924
-4.9061747 9.5784683 -1.9671263
-4.8402247 9.5943489 -1.9641939
-4.7764521 9.6141834 -1.9621781
-4.7199631 9.6486082 -1.9632777
-4.6517129 9.6587887 -1.9594291
-4.6327901 9.7724247 -1.9770225
-4.5756502 9.8069029 -1.9783053
-4.5125189 9.8285398 -1.9770225
-4.4537458 9.8596268 -1.9777555
-4.3987536 9.8993454 -1.9803213
-4.3422604 9.936058 -1.9823372
-4.2734485 9.9444513 -1.9786719
-4.2142634 9.9750128 -1.9795883
-4.1473227 9.9870653 -1.9768393
-4.1063962 10.062385 -1.9869188
-4.0555539 10.114764 -1.9924169
-3.9898117 10.130312 -1.9905841
-3.9240315 10.145433 -1.9887515
-3.8599613 10.164725 -1.9878352
-3.7899647 10.167953 -1.9838034
-3.7454033 10.239947 -1.9935164
-3.684494 10.268288 -1.994616
-3.6223986 10.293484 -1.9951658
-3.5649431 10.332244 -1.9984646
-3.5014784 10.353924 -1.9984646
-3.4449947 10.396676 -2.0026796
-3.3705142 10.384892 -1.9962654
-3.3091123 10.412873 -1.9977314
-3.2545023 10.463019 -2.0035961
-3.1910999 10.485613 -2.0041459
-3.146615 10.571893 -2.0171576
-3.0701511 10.551356 -2.0094604
-3.0101912 10.587016 -2.0127592
-2.9233379 10.526669 -1.9975482
-2.8761866 10.608927 -2.0100102
-2.8075173 10.61307 -2.0074446
-2.7258883 10.56632 -1.9951658
-2.6785057 10.652444 -2.0085442
-2.6163678 10.682046 -2.0111098
-2.5459857 10.677817 -2.0072613
-2.4937503 10.750696 -2.0182571
-2.4216821 10.738943 -2.0131257
-2.3574269 10.761283 -2.0145919
-2.2880805 10.76016 -2.0116596
-2.2124813 10.727783 -2.0028629
-2.1543229 10.779716 -2.0101936
-2.0901937 10.803349 -2.0122094
-2.0197067 10.793746 -2.0079944
-1.9616605 10.851402 -2.0166078
-1.9036584 10.912624 -2.0259542
-1.8356857 10.918283 -2.0248547
-1.7656734 10.910903 -2.0213728
-1.6927984 10.883648 -2.0142252
-1.6307759 10.925915 -2.0202732
-1.5657929 10.950313 -2.0230222
-1.4959093 10.940234 -2.0193567
-1.4291348 10.952131 -2.0199065
-1.3640895 10.978254 -2.0232053
-1.294282 10.965916 -2.0193567
-1.228611 10.988305 -2.0221057
-1.1600289 10.984883 -2.0200899
-1.0907569 10.973207 -2.0166078
-1.0239537 10.985567 -2.0177073
-0.95789242 11.007313 -2.0206397
-0.88478708 10.944392 -2.0078111
-0.82310981 11.02314 -2.0215559
-0.75337368 10.99758 -2.0158746
-0.68526763 10.992184 -2.0140421
-0.61835974 11.005997 -2.0158746
-0.55111152 11.015474 -2.0169742
-0.48428786 11.036327 -2.0202732
-0.41730323 11.058738 -2.0239384
-0.349347 11.058143 -2.0233886
-0.28038684 11.016837 -2.0153248
-0.21341109 11.050785 -2.0213728
-0.14584745 11.070563 -2.0248547
-0.077750109 11.047657 -2.0204563
-0.0099448999 11.030231 -2.0171576
0.057617988 11.007474 -2.0129426
0.12517978 11.00888 -2.013309
0.19286402 11.015767 -2.014775
0.2599414 10.992755 -2.0107434
0.32876074 11.037137 -2.0193567
0.3954193 11.005439 -2.0138588
0.46360058 11.01852 -2.0167911
0.53053778 11.001721 -2.0142252
0.59877986 11.012002 -2.0167911
0.66657442 11.012046 -2.0175242
0.73059994 10.954781 -2.0076277
0.79823184 10.955975 -2.0087273
0.86404794 10.933229 -2.0054286
0.93370289 10.958087 -2.0111098
0.99698776 10.909077 -2.0030463
1.0679142 10.943848 -2.0107434
1.1342329 10.929266 -2.0092771
1.203421 10.941645 -2.0129426
1.2690604 10.92136 -2.01056
1.3380789 10.929955 -2.0136755
1.4017327 10.895214 -2.0087273
1.4647478 10.858155 -2.0034127
1.5306578 10.844096 -2.0024965
1.6074871 10.904524 -2.0156915
1.6701854 10.867249 -2.01056
1.7321764 10.827675 -2.0050621
1.811478 10.894423 -2.0197234
1.8652525 10.80754 -2.0054286
1.932916 10.803634 -2.0068948
2.002213 10.808002 -2.0100102
2.0622034 10.762687 -2.0037792
2.13183 10.768153 -2.0072613
2.1809375 10.672038 -1.9915005
2.25773 10.712323 -2.0017633
2.3127787 10.649274 -1.9924169
2.386014 10.67038 -1.9991976
2.4384391 10.599014 -1.988385
2.5002601 10.570458 -1.9858192
2.5718036 10.582622 -1.9911339
2.6333573 10.553288 -1.9885682
2.7065952 10.570264 -1.9949825
2.7684062 10.542048 -1.9927833
2.8361046 10.536254 -1.9949825
2.8954744 10.4997 -1.9913173
2.9590435 10.478897 -1.9907675
3.0440269 10.53232 -2.0046957
3.0907574 10.453109 -1.9929667
3.1437433 10.397248 -1.9858192
3.1984825 10.348647 -1.9801381
3.2787931 10.38226 -1.9905841
3.3288567 10.319844 -1.9823372
3.4044151 10.336575 -1.9896678
3.4561861 10.281013 -1.982887
3.5284529 10.286579 -1.9882017
3.5950747 10.274942 -1.9902176
3.6488042 10.226765 -1.9850862
3.7077897 10.194021 -1.9830703
3.7665112 10.160939 -1.9810544
3.8100321 10.087975 -1.971158
3.8775063 10.079087 -1.9740903
3.9403529 10.057852 -1.9746401
4.0045419 10.039877 -1.9759229
4.0527582 9.9823246 -1.9693254
4.1094284 9.9463663 -1.9671263
4.1711426 9.9227772 -1.9674927
4.2323356 9.8979006 -1.967676
4.2941642 9.8744497 -1.9682258
4.3534794 9.8452177 -1.967676
4.4146123 9.8201132 -1.9680425
4.4682479 9.7785349 -1.9651103
4.5190554 9.7313175 -1.9610785
4.5900064 9.7274113 -1.9660267
4.6487565 9.6972914 -1.9656601
4.6943989 9.6403017 -1.9597956
4.7534623 9.6113157 -1.9597956
4.8132291 9.583725 -1.9601622
4.8598862 9.530365 -1.955214
4.9205313 9.5047312 -1.9561303
4.9540663 9.4273672 -1.946234
5.0127435 9.3985271 -1.9466006
5.0764003 9.3788319 -1.948983
5.1291199 9.3388901 -1.9471503
5.1743636 9.2857733 -1.9425687
5.2302752 9.2521381 -1.9422022
5.28548 9.2173128 -1.9416524
5.3409481 9.1830091 -1.9412858
5.4011889 9.1568384 -1.942752
5.4380975 9.091465 -1.9357879
5.4846034 9.0427961 -1.9324892
5.5523438 9.0290718 -1.9368875
5.6045203 8.9898272 -1.9357879
5.6674528 8.9677353 -1.9385369
5.7064638 8.907958 -1.9330389
5.7674384 8.8826704 -1.9352381
5.8121061 8.8323326 -1.9319394
5.8678269 8.7989578 -1.9324892
5.9084964 8.7432384 -1.9280908
5.9403725 8.6751852 -1.9209434
6.00806 8.6595736 -1.9257083
6.0661688 8.6297836 -1.9273577
6.1281295 8.6052132 -1.93029
6.1503329 8.5251942 -1.9205769
6.217607 8.5079327 -1.9253418
6.2275829 8.4127312 -1.9121467
6.2814441 8.3775072 -1.9128797
6.3285675 8.3333263 -1.9115969
6.368793 8.2803116 -1.9082981
6.4231048 8.2457314 -1.9093977
6.4760141 8.2092524 -1.9101307
6.4968123 8.132493 -1.901334
6.5360799 8.079483 -1.8982185
6.5849085 8.0384655 -1.8980353
6.6541905 8.0221233 -1.9038998
6.7089782 7.9879184 -1.9055492
6.7483125 7.935369 -1.9028002
6.7814822 7.8759332 -1.8984019
6.8148227 7.8171306 -1.8941867
6.8542032 7.7655864 -1.8918042
6.8977928 7.7189856 -1.8907046
6.9371114 7.667768 -1.8885055
6.9813738 7.6221585 -1.8877724
7.0346951 7.5863867 -1.889605
7.0790935 7.5409293 -1.8890553
7.1245532 7.4966383 -1.888872
7.1615572 7.443572 -1.8864896
7.1741729 7.3656855 -1.8776928
7.2330365 7.3355274 -1.8813581
7.281383 7.294487 -1.8822745
7.3225102 7.2462144 -1.8813581
7.3520722 7.1867166 -1.8775096
7.3698654 7.1162033 -1.8707287
7.4596281 7.114953 -1.8826411
7.4909811 7.0575871 -1.8795255
7.5262284 7.0041232 -1.8775096
7.5560365 6.9458356 -1.8742108
7.5839577 6.8861246 -1.8705455
7.577035 6.7954826 -1.8582667
7.6053438 6.7371287 -1.854968
7.6413598 6.6858048 -1.8536851
7.6986027 6.6529346 -1.8577169
7.7347932 6.6017418 -1.8566173
7.7796645 6.5579596 -1.8577169
7.8046474 6.4975209 -1.8540517
7.8124766 6.4232869 -1.8463545
7.8784523 6.3969188 -1.8527688
7.9282918 6.3570671 -1.8553345
7.9594417 6.3021975 -1.8535019
8.0041571 6.2580848 -1.854968
8.0159492 6.1884284 -1.848737
8.0795689 6.1587944 -1.8547847
8.0661526 6.0706763 -1.8428725
8.1789989 6.0773587 -1.860466
8.1543093 5.9817023 -1.8461713
8.2258911 5.9569273 -1.8542349
8.2854786 5.9229221 -1.8595496
8.3192558 5.8702712 -1.8589998
8.3397913 5.8084393 -1.8555177
8.3785152 5.7593856 -1.8562509
8.4478636 5.7310486 -1.863948
8.4624472 5.6654325 -1.8593663
8.5191965 5.6280327 -1.8643146
8.5428629 5.5686746 -1.861932
8.5801783 5.5182791 -1.8626652
8.6014261 5.4576273 -1.8599161
8.6530828 5.4162226 -1.863948
8.6652422 5.3501143 -1.8593663
8.6710396 5.2804813 -1.8535019
8.7243443 5.2398324 -1.8580835
8.741107 5.1771836 -1.8547847
8.8321304 5.1581583 -1.8676133
8.8457241 5.0935659 -1.8637648
8.8716812 5.0362816 -1.8626652
8.9204311 4.9918332 -1.8665137
8.9870462 4.9569473 -1.8742108
8.9853354 4.8843379 -1.86743
9.022069 4.8328266 -1.8688961
9.0454664 4.7741652 -1.8676133
9.0632515 4.712677 -1.8652308
9.0552502 4.6381526 -1.8575337
9.1326885 4.6073012 -1.8677965
9.1519833 4.5468035 -1.8659639
9.1496859 4.4758735 -1.8597329
9.1654625 4.4141026 -1.8573505
9.1977043 4.3603077 -1.8584501
9.2545748 4.3179231 -1.864681
9.3112698 4.2750044 -1.8709121
9.3131371 4.2068634 -1.8659639
9.3360786 4.1484423 -1.8654141
9.3370361 4.0804491 -1.860466
9.4034443 4.0409369 -1.8688961
9.4289675 3.9835448 -1.8690794
9.4604959 3.9286313 -1.8705455
9.4543877 3.8582501 -1.8644978
9.4970446 3.8078501 -1.8683463
9.5586462 3.7646372 -1.8760434
9.5879831 3.7083983 -1.8773264
9.6114759 3.6498468 -1.8775096
9.612504 3.5829053 -1.8732945
9.6186123 3.5181155 -1.8701789
9.6464949 3.461355 -1.8714619
9.6582794 3.3988361 -1.8696291
9.7114773 3.3507338 -1.8760434
9.6946049 3.2784836 -1.8687129
9.7509317 3.2309973 -1.8758602
9.7789888 3.1738377 -1.8775096
9.7757931 3.1066287 -1.8731112
9.7636948 3.0369506 -1.8670635
9.8084784 2.9849994 -1.8721949
9.8397999 2.9286861 -1.8747606
9.9142189 2.8847365 -1.8857565
9.9109306 2.817934 -1.8817247
9.9460316 2.7620673 -1.8852067
9.967536 2.7022738 -1.8861231
9.9563684 2.6337717 -1.8808084
9.970438 2.5721397 -1.8804418
9.9955664 2.5133114 -1.8822745
10.023212 2.4549732 -1.8846569
10.057212 2.3979867 -1.8883222
10.052584 2.3317881 -1.8846569
10.048482 2.2659533 -1.8811749
10.091965 2.2107768 -1.8868561
10.138033 2.1557651 -1.8930871
10.184768 2.1004698 -1.8995014
10.166616 2.0317717 -1.8936369
10.137389 1.961321 -1.8857565
10.157929 1.9007099 -1.8874059
10.175205 1.8393956 -1.8885055
10.195985 1.7786169 -1.8903382
10.218339 1.7179784 -1.8925374
10.205398 1.6514777 -1.888139
6.0762949 0.94490224 -1.1072464
6.0022507 0.89569807 -1.0922188
0 0 -0
0 0 -0
0 0 -0
0 0 -0
0 0 -0
0 0 -0
0 0 -0
0 0 -0
0 0 -0
0 0 -0
0 0 -0
0 0 -0
0 0 -0
0 0 -0
0 0 -0
0 0 -0
0 0 -0
0 0 -0
0 0 -0
0 0 -0
0 0 -0
0 0 -0
0 0 -0
0 0 -0
0 -0 -0
0 -0 -0
0 -0 -0
0 -0 -0
0 -0 -0
0 -0 -0
0 -0 -0
0 -0 -0
0 -0 -0
0 -0 -0
5.9336205 -0.39591199 -1.0694938
5.9340205 -0.43252677 -1.0700436
5.9684954 -0.47187078 -1.0770077
0 -0 -0
0 -0 -0
6.0928421 -0.5947265 -1.102115
6.1526365 -0.63869393 -1.1140273
9.3234425 -1.0255024 -1.7094555
9.1822186 -1.067037 -1.6841649
9.0447435 -1.1073554 -1.6596074
9.1586828 -1.1783825 -1.6823323
9.2107086 -1.2425716 -1.6935115
9.2330866 -1.3033222 -1.6991926
9.2074099 -1.3573709 -1.6958939
9.1853046 -1.4117508 -1.6933281
9.1551132 -1.4646685 -1.6892964
9.1255894 -1.5174302 -1.6854478
9.1006069 -1.5707207 -1.6825155
9.0714436 -1.6230694 -1.6788503
9.0342484 -1.6736873 -1.6737188
8.9764986 -1.7200258 -1.6647388
8.9542036 -1.7727816 -1.6625396
8.9479733 -1.8286742 -1.663456
8.3728886 -1.7647605 -1.5560626
8.7817183 -1.9072605 -1.6361495
8.9022446 -1.9907079 -1.66144
8.8697433 -2.0406656 -1.6575915
8.8694916 -2.0979922 -1.659974
8.8402119 -2.1484289 -1.6568584
8.8182783 -2.2004893 -1.6552091
7.3932314 -1.8932171 -1.3836101
8.7830048 -2.3065403 -1.6537429
8.8114042 -2.3718853 -1.6619898
8.7692013 -2.4183285 -1.6566752
8.7191935 -2.4622064 -1.6498944
8.7020321 -2.5151143 -1.6495278
8.6939783 -2.5706911 -1.6509939
7.9920516 -2.4165981 -1.5173937
7.9132051 -2.4458535 -1.5049317
7.8933616 -2.492882 -1.5040153
7.8854017 -2.5436819 -1.5054815
7.9041934 -2.6033952 -1.5122622
8.6130352 -2.8955281 -1.6548425
8.6016159 -2.9505546 -1.6561254
8.5926285 -3.0065238 -1.657958
8.5730934 -3.0588603 -1.6577748
8.5504675 -3.1100624 -1.6570417
8.5008049 -3.1511939 -1.6509939
8.4665947 -3.1977377 -1.6480618
7.5861783 -2.9185705 -1.4761591
8.3910179 -3.287411 -1.6409143
8.3816462 -3.3432055 -1.6431135
8.3536882 -3.3916132 -1.6416475
8.3209085 -3.4379272 -1.6392649
8.292407 -3.4858713 -1.6377989
8.2880363 -3.54403 -1.6412809
8.2490053 -3.5873694 -1.6377989
8.1917734 -3.6224129 -1.6306515
8.1604261 -3.6685781 -1.6288189
8.1109381 -3.7063243 -1.6233209
8.0675364 -3.7465 -1.6191058
8.0337276 -3.7908971 -1.6169066
7.9340782 -3.803576 -1.6011459
7.9574351 -3.8749959 -1.6108589
7.9467268 -3.9302857 -1.6136079
8.0287609 -4.0323539 -1.635783
8.0231352 -4.0913653 -1.6398147
8.0039911 -4.143681 -1.6410977
7.9914694 -4.1995735 -1.6438466
7.9499373 -4.2402024 -1.6405479
7.9531655 -4.3048115 -1.6467788
7.8947196 -4.3360214 -1.6399981
7.8344741 -4.3657198 -1.6328506
7.7929907 -4.4054856 -1.6297352
7.7624011 -4.4512634 -1.6290021
7.7119975 -4.485465 -1.624054
7.677556 -4.5287051 -1.6225879
7.6361251 -4.5676551 -1.6196556
7.5903029 -4.6037183 -1.6158071
7.5694489 -4.654839 -1.6174564
7.5757833 -4.7230387 -1.6251535
7.5516467 -4.7725849 -1.6262531
7.5197372 -4.8172402 -1.6257033
7.4479866 -4.8359885 -1.6163568
7.4231009 -4.88484 -1.6174564
7.3684511 -4.9139333 -1.6119585
7.3373466 -4.9585023 -1.6117753
7.3221955 -5.0139828 -1.6152573
7.2815995 -5.0520921 -1.6130581
7.1893392 -5.0537133 -1.5991299
7.1565933 -5.0965905 -1.5987633
7.1626582 -5.1674376 -1.6073768
7.1474848 -5.2234697 -1.6112254
7.1192503 -5.2701521 -1.6121417
7.020709 -5.2642002 -1.5967475
7.0094151 -5.3232317 -1.6016957
6.9805169 -5.3691368 -1.602612
6.9334807 -5.4009938 -1.5993131
6.8909483 -5.4361296 -1.597114
6.8605356 -5.4807634 -1.5978471
6.8007908 -5.5017347 -1.591616
6.7638626 -5.5408683 -1.590883
6.7562203 -5.6042318 -1.5972973
6.7104144 -5.6360984 -1.5945483
6.6749568 -5.6765299 -1.594365
6.6392555 -5.7167387 -1.5941818
6.5892324 -5.7444491 -1.5905164
6.5487018 -5.7802181 -1.5892336
6.4845228 -5.7947459 -1.5820863
6.4612379 -5.8456368 -1.5852017
6.4223485 -5.8825159 -1.5844687
6.3760409 -5.9124546 -1.581903
6.3432264 -5.9548302 -1.5828193
6.3158331 -6.0024428 -1.5852017
6.283843 -6.0458536 -1.5864847
6.2121196 -6.0506883 -1.5775046
6.1902771 -6.1038756 -1.5815365
6.1659274 -6.1549387 -1.5850185
6.1218219 -6.1863675 -1.5833691
6.0658803 -6.2055368 -1.5786042
6.0188122 -6.2334466 -1.5762218
5.978416 -6.268126 -1.575672
5.9513035 -6.316854 -1.5787874
2.2281404 -2.3946347 -0.57064629
2.2140706 -2.4089849 -0.57082951
2.2005694 -2.4239805 -0.57119608
2.1836855 -2.4352417 -0.57064629
5.7182288 -6.4552298 -1.5685247
5.6785126 -6.4901948 -1.5685247
5.6514387 -6.5397906 -1.5721899
5.5939727 -6.5541558 -1.5672418
5.5637898 -6.6003823 -1.5701741
5.5118637 -6.6207981 -1.5668752
5.4573998 -6.6377883 -1.5628434
5.4134698 -6.6673336 -1.5619271
5.4155078 -6.7541103 -1.5747557
5.3745737 -6.7879825 -1.5749389
2.0144711 -2.5769732 -0.57064629
1.9914118 -2.5799477 -0.56844705
1.9695842 -2.5843003 -0.56661445
1.9483695 -2.5892677 -0.56496507
1.9301 -2.5980177 -0.56423199
1.8036379 -2.4592106 -0.52941161
1.7856314 -2.4662504 -0.52849531
1.7733238 -2.481159 -0.52941161
4.8692851 -6.9007931 -1.5353537
4.8223562 -6.9240875 -1.5338875
4.7987146 -6.9810901 -1.5401186
4.7679319 -7.0282998 -1.5441504
4.7077627 -7.0320997 -1.5384692
4.6927047 -7.1035051 -1.547999
4.6849999 -7.1873412 -1.5602777
4.6184754 -7.1812267 -1.5525806
4.5843329 -7.2252011 -1.5560626
4.5482593 -7.2665262 -1.5589949
4.487576 -7.2683673 -1.5533136
4.4393144 -7.2898884 -1.5520308
1.7365156 -2.8918295 -0.58970582
1.7192401 -2.903276 -0.58988911
1.6994103 -2.9103749 -0.58915603
4.2399416 -7.3634148 -1.5448835
4.2034168 -7.4046803 -1.5481822
4.1651049 -7.4432001 -1.5509312
4.1165071 -7.4634519 -1.5498316
4.0776777 -7.5015254 -1.5525806
4.016717 -7.4986744 -1.5467161
3.9665005 -7.5153551 -1.5450667
3.9112413 -7.5221081 -1.5414014
3.8739767 -7.5634642 -1.5450667
3.8230672 -7.5783153 -1.5432341
3.7826195 -7.613956 -1.5457997
3.7245975 -7.6140633 -1.5410349
3.6752489 -7.6314592 -1.5399354
3.6245635 -7.6458721 -1.538286
3.5800753 -7.6733131 -1.5393856
3.5329254 -7.6951356 -1.5393856
3.4807856 -7.7059178 -1.5371864
3.4310422 -7.7217402 -1.5360868
3.3812356 -7.7372427 -1.5349871
3.3329208 -7.7560377 -1.5346206
3.292155 -7.7926416 -1.5379194
3.2431471 -7.8099718 -1.5373696
3.1929362 -7.8242631 -1.53627
3.1503556 -7.8573942 -1.539019
3.1046062 -7.8829789 -1.5403018
3.0405736 -7.8615384 -1.5322381
2.9870434 -7.8662615 -1.5294892
2.942498 -7.8945742 -1.5315051
2.8828576 -7.8820138 -1.5254574
2.8437376 -7.9254622 -1.5305887
2.8028872 -7.9650173 -1.5349871
2.7481899 -7.9653382 -1.5316883
2.7077677 -8.0071945 -1.5366366
2.6561117 -8.0161934 -1.5351704
2.6077857 -8.0351448 -1.5357202
2.5456297 -8.0107088 -1.5278398
2.4935091 -8.0167904 -1.5260072
2.4468482 -8.0404043 -1.5276566
2.3963451 -8.0514975 -1.5269235
2.3589833 -8.1075811 -1.5349871
2.3062339 -8.1115017 -1.5329713
2.2593131 -8.1359196 -1.5349871
2.2147522 -8.1695538 -1.5388358
2.1587999 -8.1611309 -1.5346206
2.1054907 -8.161849 -1.5322381
2.0524938 -8.1631737 -1.530039
2.0023668 -8.1756144 -1.530039
1.9619703 -8.2288656 -1.5379194
1.9034439 -8.206274 -1.5313219
1.8420246 -8.168891 -1.5219753
1.7891313 -8.1675558 -1.5195929
1.7393914 -8.1803036 -1.5199594
1.6939317 -8.2139292 -1.5243578
1.6463904 -8.2386284 -1.5271068
1.5885241 -8.2109337 -1.5199594
1.5267195 -8.1596508 -1.5084137
0.47139344 -2.6093469 -0.45518926
1.447426 -8.2978573 -1.5311385
1.3868653 -8.2493839 -1.5203259
1.3370073 -8.2625904 -1.5212423
1.2400409 -7.9733973 -1.4651631
1.1842713 -7.9351583 -1.4565496
1.1017369 -7.7057977 -1.4120163
1.0558996 -7.7231264 -1.4140322
1.0165074 -7.7908721 -1.4255779
0.96977568 -7.8057427 -1.4272273
0.91183424 -7.7266097 -1.4112833
0.86855984 -7.7691841 -1.4182473
0.8229382 -7.7939196 -1.4219126
0.77023637 -7.7499104 -1.4127493
0.72321689 -7.7603636 -1.4138489
0.67524558 -7.7607374 -1.4131159
0.62563252 -7.7402382 -1.4085343
0.57138962 -7.6537409 -1.3916738
0.52609694 -7.6816216 -1.3962555
0.47925952 -7.689611 -1.3971719
0.42941925 -7.6452942 -1.388375
0.38141903 -7.6261849 -1.3843433
0.33328137 -7.5979362 -1.378662
0.28724873 -7.6155558 -1.3815943
0.24228653 -7.6731815 -1.3920404
0.19903249 -7.8248835 -1.4200799
0.15215719 -7.8849301 -1.4310758
0.10501993 -7.9800811 -1.4486693
0.057805553 -8.228301 -1.4948521
0.0073995567 -8.3169765 -1.511346
-0.043836985 -8.3561878 -1.5186765
-0.094852507 -8.3331528 -1.5144615
-0.14661738 -8.3687811 -1.5212423
-0.19766285 -8.354948 -1.5188599
-0.24904105 -8.3575087 -1.5195929
-0.3007755 -8.3685942 -1.5219753
-0.3495999 -8.3066778 -1.5107962
-0.40127185 -8.3191051 -1.5135452
-0.45161596 -8.3037252 -1.5111626
-0.50291431 -8.3066854 -1.5122622
-0.55714279 -8.3524876 -1.5214255
-0.6080966 -8.3449898 -1.5206925
-0.65789562 -8.3234615 -1.5173937
-0.71070695 -8.339838 -1.5212423
-0.76329678 -8.3509836 -1.5241745
-0.80889219 -8.2884159 -1.5133618
-0.86074811 -8.2930746 -1.5151945
-0.91978264 -8.3619032 -1.5291227
-0.96823716 -8.3316889 -1.524541
-1.0154003 -8.2933903 -1.5184933
-1.0695291 -8.312355 -1.5232582
-1.1209067 -8.3085585 -1.523808
-1.1685693 -8.278162 -1.5194097
-1.2286578 -8.334053 -1.5313219
-1.2742474 -8.2904053 -1.524541
-1.3297501 -8.311552 -1.530039
-1.3776609 -8.284811 -1.526557
-1.4371617 -8.3265772 -1.5360868
-1.481994 -8.2827644 -1.5294892
-1.5299237 -8.25805 -1.526557
-1.5757563 -8.2234039 -1.5217921
-1.6191219 -8.1778994 -1.5150113
-0.61267686 -2.9965808 -0.53106099
-0.63105202 -2.9927652 -0.53106099
-0.6487776 -2.9859548 -0.5305112
-0.66537094 -2.9742427 -0.5290451
-0.68426913 -2.9729781 -0.5295949
-0.7013669 -2.9639404 -0.52867854
-0.7183795 -2.9548047 -0.52776223
-0.7348305 -2.9436643 -0.52647936
-2.105583 -8.2227259 -1.5432341
-2.1564963 -8.2115536 -1.5436006
-0.78812283 -2.9267919 -0.52592957
-0.80057901 -2.9019995 -0.52208102
-0.82317835 -2.9140618 -0.52537978
-0 -0 -0
-1.0539709 -3.5636506 -0.65366536
-2.4655294 -8.153904 -1.5489153
-2.4934552 -8.0672398 -1.5349871
-2.5452759 -8.059288 -1.5364532
-1.0451508 -3.2391894 -0.59538704
-1.0634688 -3.2280467 -0.59447074
-2.7104168 -8.0623226 -1.5465329
-1.1077858 -3.2287016 -0.59721971
-1.1269267 -3.2199879 -0.59685314
-2.8421731 -7.9656978 -1.5375528
-2.9141796 -8.0118551 -1.5501982
-1.146715 -3.092694 -0.57577771
-1.1628915 -3.0782423 -0.57431155
-1.1842278 -3.0774715 -0.57559443
-1.2385863 -3.1607661 -0.59373766
-1.2827207 -3.215199 -0.60619968
-3.210427 -7.907361 -1.5518476
-3.2532549 -7.8738847 -1.5490986
-3.3034115 -7.8583064 -1.5500149
-3.3558183 -7.8478322 -1.5520308
-3.4039085 -7.8270931 -1.5520308
-1.3004129 -2.9401331 -0.56020015
-1.3123831 -2.9186487 -0.55745119
-1.3306754 -2.9114354 -0.55763441
-3.5668166 -7.6805692 -1.5395688
-3.6398842 -7.7136612 -1.5509312
-3.6854463 -7.6876364 -1.5501982
-3.736851 -7.6737165 -1.5520308
-3.7930169 -7.6691484 -1.5558794
-3.8461788 -7.65803 -1.5584451
-3.9011333 -7.6500502 -1.5617439
-3.9534225 -7.6364455 -1.563943
-3.9983754 -7.6085629 -1.56321
-4.0500741 -7.5934281 -1.5652258
-4.1171784 -7.6064749 -1.5732895
-4.1580949 -7.5707293 -1.5710903
-4.2035127 -7.5433555 -1.5707239
-4.2651987 -7.544807 -1.5765883
-4.2933197 -7.4869399 -1.5698075
-4.3327532 -7.4494081 -1.567425
-4.3519111 -7.3778048 -1.5577121
-4.3996215 -7.3551812 -1.5586283
-4.4339643 -7.3103952 -1.5547798
-4.495729 -7.3106866 -1.5608275
-4.5451822 -7.2904716 -1.5624769
-4.5945563 -7.2699251 -1.5641263
-4.6533942 -7.263947 -1.5690745
-4.7171488 -7.2649407 -1.575672
-4.7675805 -7.2448936 -1.5776879
-4.8272157 -7.2384052 -1.5828193
-4.864934 -7.1988754 -1.5806202
-4.9056816 -7.164022 -1.5795206
-4.9226499 -7.095016 -1.5707239
-4.9779625 -7.0815673 -1.5745724
-5.0310144 -7.0645032 -1.5776879
-5.080018 -7.0414729 -1.5795206
-5.1335683 -7.024457 -1.5828193
-5.1900249 -7.0109997 -1.5870345
-5.2335358 -6.9798088 -1.5872177
-5.2822094 -6.9553943 -1.5890503
-5.3014145 -6.8924613 -1.581903
-5.3526673 -6.8714361 -1.5846519
-5.3849874 -6.8261137 -1.5817198
-5.446404 -6.8175225 -1.5875843
-5.4708219 -6.7625751 -1.5824528
-5.5527043 -6.7783122 -1.594365
-3.4007623 -4.0995641 -0.95385355
-5.7214484 -6.8120427 -1.619289
-3.5858219 -4.2162914 -0.99270576
-3.6064937 -4.1882501 -0.99123961
-3.5655894 -4.0897155 -0.97236335
-3.7109599 -4.2041163 -1.0062674
-3.7242405 -4.1673393 -1.0027853
-3.8631752 -4.2698007 -1.0343069
-3.7332702 -4.0756507 -0.99123961
-3.8892138 -4.1939583 -1.0271596
-3.894017 -4.1477957 -1.0214784
-3.9214258 -4.1259623 -1.0220282
-4.0059633 -4.1634583 -1.0379722
-4.0094862 -4.1162639 -1.0321077
-4.0174127 -4.0740838 -1.0275261
-4.0485854 -4.0556188 -1.0291755
-4.1607361 -4.1171393 -1.0520836
-3.4843614 -3.4056983 -0.86918509
-3.4924638 -3.3719628 -0.86588633
-3.4206131 -3.2622609 -0.84206188
-3.4305487 -3.2317729 -0.83949614
-4.2879491 -3.9902511 -1.0528167
-3.5061347 -3.2226975 -0.8486594
-3.5243874 -3.1998019 -0.84829289
-3.5505412 -3.1840241 -0.84994227
-3.398561 -3.0102885 -0.8072415
-3.4051306 -2.9790211 -0.80430925
-3.7491217 -3.2396214 -0.88457936
-3.7293005 -3.18273 -0.87486631
-3.7660463 -3.174361 -0.87908143
-3.9320173 -3.273221 -0.91463482
-4.3825693 -3.6030459 -1.0185461
-4.3839898 -3.5593555 -1.013598
-4.3896413 -3.519474 -1.0097494
-4.4026761 -3.4857605 -1.0077335
-4.4263048 -3.4604971 -1.0082833
-4.451345 -3.4362764 -1.0091996
-4.4895453 -3.4220107 -1.0132314
-4.4986763 -3.3855312 -1.0104824
-4.4933262 -3.3385146 -1.0044347
-4.57793 -3.3579824 -1.0192792
-4.4702616 -3.2369933 -0.98977351
-4.590003 -3.2809691 -1.0126816
-4.479929 -3.1609206 -0.98299271
-4.5186 -3.1468575 -0.98739105
-4.5556459 -3.1313248 -0.99142289
-4.5812817 -3.1077282 -0.99288905
-4.5528851 -3.0478377 -0.98225963
-4.5493546 -3.005213 -0.97731149
-4.6080613 -3.0035484 -0.98629147
-4.5908518 -2.9523499 -0.97841108
-4.6221614 -2.9325528 -0.98134333
-4.7675581 -2.9839435 -1.0093828
-4.7665391 -2.9427547 -1.0051677
-4.7039037 -2.864363 -0.98757434
-4.8014493 -2.8835342 -1.0049845
-4.8368144 -2.8645399 -1.0088331
-4.8551488 -2.8353035 -1.0090164
-4.8775659 -2.8084033 -1.010116
-4.8630748 -2.7604642 -1.0033351
-4.8910732 -2.7368143 -1.0057176
-4.8922796 -2.6982048 -1.0024188
-4.7964644 -2.607096 -0.97859436
-4.9380207 -2.6449292 -1.0051677
-4.8767819 -2.5737381 -0.98885721
-4.8654447 -2.529706 -0.98317599
-4.9088731 -2.5141468 -0.98904043
-4.958437 -2.5012493 -0.99618781
-5.0300355 -2.4987731 -1.0079168
-5.0152493 -2.4531736 -1.0016857
-5.0018654 -2.4087038 -0.99582124
-5.0849485 -2.4103959 -1.0099326
-5.1245866 -2.390789 -1.0150641
-5.1436267 -2.3613513 -1.0159804
-5.1445804 -2.3236752 -1.0132314
-5.1461644 -2.2864759 -1.0106658
-5.1321731 -2.2426517 -1.0049845
-5.1557722 -2.215389 -1.0070004
-5.2389956 -2.2131736 -1.0211118
-5.2406745 -2.1760843 -1.0187294
-5.2511973 -2.1427729 -1.0181797
-5.225924 -2.0951445 -1.0104824
-5.1517878 -2.0288129 -0.99307227
-5.4135251 -2.0936315 -1.0429204
-5.5089812 -2.0917878 -1.0594143
-5.4581532 -2.0342526 -1.0467689
-5.3948278 -1.9730304 -1.0317413
-5.377223 -1.9292655 -1.0258768
-5.4279065 -1.9099427 -1.0335739
-5.4720488 -1.8878253 -1.0399882
-5.5477848 -1.8759464 -1.0526334
-5.4472122 -1.8047612 -1.0306417
-5.6087246 -1.8201693 -1.0601473
-5.7678146 -1.8327683 -1.0891032
-5.7714419 -1.795007 -1.0876371
-5.811502 -1.768434 -1.0933183
-5.8627582 -1.7448025 -1.1011987
-6.1480308 -1.7887307 -1.1545289
-6.2780328 -1.7848537 -1.1776202
-6.2244563 -1.7284091 -1.1651582
-6.3772645 -1.7287741 -1.1926479
-6.3402338 -1.6770394 -1.1834847
-6.829205 -1.761644 -1.2756671
-7.139246 -1.7949921 -1.3332123
-7.1157517 -1.7427322 -1.3266147
-7.7746472 -1.8536505 -1.4508685
-7.8088579 -1.8112433 -1.4552668
-8.0528555 -1.8158534 -1.4998002
-8.4690857 -1.8551974 -1.5771381
-9.0582047 -1.9261051 -1.6872804
-9.0785179 -1.8722762 -1.6889298
-9.1592426 -1.83041 -1.702125
-9.307354 -1.8006971 -1.7281486
-9.5636635 -1.7894893 -1.7746979
-10.047511 -1.8163071 -1.8643146
-10.386765 -1.811905 -1.9264414
-10.440344 -1.7553122 -1.934505
-10.440243 -1.6894906 -1.9324892
-10.497039 -1.6326524 -1.9412858
-10.541862 -1.5734388 -1.9478834
-10.557157 -1.5095606 -1.948983
-10.469794 -1.4315664 -1.9308398
-10.474483 -1.366789 -1.9301066
-10.484623 -1.3027356 -1.9304732
-10.505111 -1.2398771 -1.9328556
-10.519359 -1.1761605 -1.9341385
-10.540065 -1.1130387 -1.9367043
-10.520283 -1.0457187 -1.931756
-10.539227 -0.98233426 -1.9341385
-10.536242 -0.91688091 -1.9324892
-10.545588 -0.85253149 -1.9332222
-10.502584 -0.78422022 -1.9242421
-10.567025 -0.72386336 -1.9354213
-10.520247 -0.65582913 -1.9258916
-10.584928 -0.59468704 -1.9372541
-10.570704 -0.5288431 -1.9339552
-10.506966 -0.46103951 -1.9214932
-10.563627 -0.3986021 -1.9315728
-10.548187 -0.33321801 -1.928274
-9.8824816 0.72629476 -1.931734
-9.8553524 0.78512478 -1.9272468
-9.8620758 0.84658933 -1.929588
-9.8576727 0.90717596 -1.929783
-9.8587532 0.96831632 -1.9311486
-9.837019 1.0271587 -1.9280272
-9.8149338 1.0857708 -1.9249058
-9.8334141 1.148936 -1.9299781
-9.762907 1.201457 -1.9172972
-9.7582693 1.261716 -1.9178826
-9.7367373 1.3197221 -1.9151512
-9.7216587 1.378476 -1.9137856
-9.7071962 1.4372386 -1.9126151
-9.7001333 1.4970732 -1.9130052
-9.6956072 1.5573422 -1.9139807
-9.6752272 1.6150264 -1.9118347
-9.6805983 1.6770425 -1.9149562
-9.687501 1.7395322 -1.9184678
-9.6621819 1.7962502 -1.9155414
-9.6220846 1.8499438 -1.9096887
-9.6201715 1.9108609 -1.9116396
-9.6053839 1.9692619 -1.9110544
-9.5931196 2.0281625 -1.9110544
-9.5795364 2.0867777 -1.9108592
-9.5923901 2.1513155 -1.9161267
-9.5398283 2.2010875 -1.908128
-9.5175543 2.2575431 -1.9063722
-9.5025702 2.3156669 -1.906177
-9.5024538 2.3775024 -1.9091034
-9.5028858 2.4396677 -1.9122249
-9.4516973 2.4884372 -1.9048115
-9.4798069 2.5581441 -1.9137856
-9.4128866 2.602145 -1.9032507
-9.421278 2.6668007 -1.908323
-9.3972015 2.7223742 -1.9067624
-9.3859625 2.7816558 -1.9079329
-9.3630857 2.8374872 -1.9067624
-9.3623629 2.9001102 -1.910274
-9.3331709 2.9539495 -1.9079329
-9.2952728 3.0048234 -1.903836
-9.2822485 3.0636466 -1.9050065
-9.226099 3.1080151 -1.897203
-9.2161293 3.1677558 -1.8991538
-9.2363157 3.2382033 -1.9075427
-9.2236614 3.2974575 -1.9091034
-9.2355061 3.3657486 -1.9159316
-9.1512432 3.3987839 -1.9024704
-9.1219606 3.451746 -1.9007145
-9.10427 3.5090637 -1.901495
-9.0570049 3.5548236 -1.8960325
-9.0413971 3.6128778 -1.897398
-9.0381374 3.676049 -1.901495
-8.984601 3.7186801 -1.8948618
-8.974268 3.7790692 -1.8975931
-8.957222 3.836767 -1.8989588
-8.9469986 3.8975325 -1.9018852
-8.907671 3.9456024 -1.8985686
-8.9092274 4.0118661 -1.9042262
-8.8612576 4.055841 -1.8991538
-8.8175297 4.1014476 -1.895057
-8.7851048 4.1521201 -1.8934963
-8.769187 4.2106171 -1.8956422
-8.7255573 4.2557435 -1.8917404
-8.7054319 4.3122506 -1.893106
-8.6840649 4.3682299 -1.8942766
-8.6736937 4.4299102 -1.8979833
-8.6080399 4.4631791 -1.8893993
-8.608264 4.5305333 -1.8956422
-8.546566 4.5652413 -1.8880337
-8.5166693 4.6166611 -1.8876435
-8.5483332 4.7019267 -1.9012998
-8.5021944 4.7447286 -1.897398
-8.4575586 4.7881083 -1.8938864
-8.4050579 4.8267226 -1.8886189
-8.3676567 4.8737607 -1.8868631
-8.3350611 4.9235153 -1.8862779
-8.3223619 4.9851518 -1.8903748
-8.2773676 5.0274658 -1.8870583
-8.2580547 5.0853615 -1.8897895
-8.2083941 5.124507 -1.8854976
-8.1842546 5.1794977 -1.8872533
-8.1382866 5.2206135 -1.8839368
-8.1504993 5.2993259 -1.8944716
-8.0564117 5.3087549 -1.8798399
-8.0016661 5.3433795 -1.8745725
-7.9687285 5.3923759 -1.8745725
-7.9597564 5.4578118 -1.8804252
-7.9245076 5.5054297 -1.880035
-7.9002013 5.5607257 -1.8823761
-7.8627386 5.6068172 -1.8815957
-7.8361373 5.6607008 -1.8835466
-7.8297482 5.7295303 -1.8905699
-7.7629304 5.7540998 -1.8827662
-7.7031655 5.7833662 -1.8767184
-7.6870503 5.845367 -1.8815957
-7.6549239 5.8954163 -1.8825712
-7.6116467 5.9368458 -1.8808154
-7.6020107 6.0047188 -1.8876435
-7.5412827 6.0322561 -1.8815957
-7.5094619 6.082737 -1.8829614
-7.4636569 6.1218567 -1.8808154
-7.4274621 6.1687908 -1.8812056
-7.4292512 6.2477102 -1.8915453
-7.4057093 6.3058963 -1.8954471
-7.3371677 6.3255982 -1.8876435
-7.2908282 6.3640485 -1.8856926
-7.2553158 6.411912 -1.8866681
-7.223145 6.4628501 -1.8886189
-7.1680908 6.4932194 -1.8845221
-7.1729255 6.5781851 -1.8966177
-7.1410513 6.6300826 -1.8989588
-7.1109543 6.6838512 -1.9018852
-7.0726504 6.7300625 -1.9026655
-7.0283976 6.7706103 -1.9018852
-7.0232296 6.8492208 -1.9120299
-6.9859567 6.8970094 -1.9133954
-6.9088244 6.9050741 -1.9036409
-6.8484025 6.9291968 -1.8985686
-6.7790394 6.9437141 -1.8909601
-6.7485595 6.9978881 -1.8944716
-6.7501364 7.0860395 -1.9073477
-6.7105622 7.1316104 -1.9085182
-6.6793623 7.1863027 -1.9122249
-6.6251941 7.2163129 -1.9092985
-6.563004 7.2372098 -1.9040312
-6.5256715 7.2853804 -1.906177
-6.5107369 7.3590775 -1.9151512
-6.4893351 7.4262171 -1.9223696
-6.4436469 7.4658952 -1.9223696
-6.3767219 7.4806581 -1.9159316
-6.3338594 7.523396 -1.9169071
-6.3051324 7.5832367 -1.9223696
-6.2591062 7.6225395 -1.9225646
-6.2202468 7.6707053 -1.9251008
-6.1798058 7.7171497 -1.9272468
-6.1347709 7.7580009 -1.9280272
-6.0948992 7.8055472 -1.9305633
-6.0528784 7.8505659 -1.9325143
-5.9843984 7.8610225 -1.9258813
-5.9437108 7.9077868 -1.9284174
-5.9038434 7.9559236 -1.9313438
-5.8583927 7.9967465 -1.9325143
-5.7942739 8.011878 -1.927442
-5.7461443 8.0488768 -1.9278321
-5.6910009 8.0759649 -1.9258813
-5.663178 8.1421366 -1.9334897
-5.6092272 8.1710711 -1.9321241
-5.554585 8.1988382 -1.9305633
-5.4998131 8.226243 -1.9290026
-5.4557142 8.269659 -1.9313438
-5.4005899 8.2964029 -1.929783
-5.3511724 8.3318605 -1.9303683
-5.3204174 8.3968506 -1.9379768
-5.2838678 8.4534588 -1.9436344
-5.2396183 8.4982443 -1.9465607
-5.1873755 8.5302343 -1.9465607
-5.1288853 8.5518084 -1.9442197
-5.0753174 8.5814295 -1.9438295
-5.0062652 8.5844488 -1.9373915
-4.9691391 8.6422148 -1.9436344
-4.9218206 8.6827812 -1.9459755
-4.8717995 8.718812 -1.9473412
-4.814899 8.7425261 -1.9459755
-4.7672458 8.7831116 -1.9485117
-4.726676 8.8372803 -1.9541693
-4.6563616 8.8357458 -1.9473412
-4.6002517 8.8606682 -1.9465607
-4.54669 8.8904743 -1.9469509
-4.5163145 8.9663849 -1.9576809
-4.4646983 9.0009575 -1.9592416
-4.4167008 9.0431652 -1.9625582
-4.370903 9.0904264 -1.9670453
-4.3129454 9.1126423 -1.9660698
-4.2540522 9.1327105 -1.9647042
-4.1942577 9.1506166 -1.9629483
-4.1509304 9.2047911 -1.9691913
-4.1102762 9.2659512 -1.9769949
-4.0443263 9.2703199 -1.9725078
-3.9931667 9.3084812 -1.9754342
-3.940167 9.3427496 -1.9775802
-3.8880234 9.3794346 -1.9803114
-3.8340981 9.4121981 -1.9822624
-3.7722661 9.4255304 -1.9801164
-3.7107739 9.4393702 -1.9781654
-3.6633787 9.4894123 -1.9840181
-3.6092539 9.5227175 -1.9863592
-3.5599861 9.5695047 -1.9916266
-3.507926 9.6095953 -1.9955285
-3.4564993 9.6521769 -2.0000155
-3.3829148 9.6324854 -1.9914316
-3.3164055 9.631731 -1.9869444
-3.2610061 9.6630516 -1.9892856
-3.2090404 9.7052279 -1.9939678
-3.146107 9.7144718 -1.9918218
-3.0808103 9.7158289 -1.9881151
-3.0191028 9.7279921 -1.9867494
-2.9570775 9.7388258 -1.9851887
-2.9064753 9.7878151 -1.9916266
-2.8488235 9.813942 -1.9933825
-2.7912278 9.8406734 -1.9953333
-2.7360287 9.8765192 -1.9992352
-2.6697457 9.8722906 -1.9949431
-2.6033676 9.8666744 -1.9904561
-2.5418005 9.8786631 -1.9896758
-2.4899614 9.9292736 -1.9968941
-2.421546 9.9138746 -1.9906512
-2.3708744 9.9714861 -1.9994303
-2.3034604 9.9590893 -1.9939678
-2.2373633 9.9510269 -1.9894806
-2.1785636 9.9751081 -1.9916266
-2.1193495 9.9978828 -1.9935776
-2.0561872 10.002051 -1.9918218
-1.9980323 10.030832 -1.9951383
-1.9377457 10.049644 -1.9965039
-1.869398 10.02567 -1.9892856
-1.8073252 10.034057 -1.9887003
-1.7484086 10.060418 -1.9918218
-1.6876174 10.076761 -1.9929923
-1.635269 10.145993 -2.0048928
-1.5614328 10.081203 -1.9898708
-1.5017072 10.105147 -1.9927973
-1.4407798 10.121939 -1.9943579
-1.3787777 10.131561 -1.994553
-1.312548 10.108706 -1.9883101
-1.2554259 10.156478 -1.9963088
-1.1965103 10.193213 -2.0021615
-1.1310205 10.174044 -1.9968941
-1.0705156 10.199326 -2.0006008
-1.0124389 10.251576 -2.0097702
-0.94798243 10.240993 -2.0064535
-0.88554847 10.251503 -2.0074289
-0.82270807 10.257721 -2.0076241
-0.75902939 10.252795 -2.0056732
-0.6948455 10.238667 -2.0019665
-0.63442081 10.281895 -2.0097702
-0.56779188 10.221941 -1.9970891
-0.50602603 10.244824 -2.0009911
-0.44011253 10.177185 -1.9869444
-0.37903568 10.216938 -1.9943579
-0.31661072 10.227895 -1.9961138
-0.25452572 10.257098 -2.0015762
-0.19134791 10.245719 -1.9990401
-0.12916015 10.30162 -2.0099652
-0.065738469 10.268872 -2.0033321
-0.0027248661 10.244563 -1.9984548
0.060410447 10.290483 -2.0076241
0.12296811 10.241863 -1.9980646
0.1869366 10.302695 -2.0103552
0.25031668 10.308218 -2.0117209
0.31275374 10.280019 -2.0064535
0.37309262 10.203417 -1.9916266
0.43581849 10.203876 -1.9922119
0.49822819 10.197091 -1.9914316
0.56148881 10.206573 -1.9939678
0.62470448 10.212725 -1.9959186
0.68735683 10.208699 -1.9959186
0.75099134 10.217983 -1.99865
0.81648165 10.24838 -2.0056732
0.87380517 10.178683 -1.9927973
0.93543398 10.16434 -1.9910414
0.9989354 10.170122 -1.9933825
1.0623391 10.173555 -1.9953333
1.1223677 10.145399 -1.9910414
1.185851 10.149037 -1.9931874
1.2469028 10.131836 -1.9912364
1.3037602 10.083142 -1.9830427
1.3667912 10.083699 -1.9847986
1.427811 10.069297 -1.9836279
1.487268 10.044824 -1.9805065
1.5517185 10.053925 -1.9842132
1.6090206 10.0171 -1.9787507
1.6723932 10.018648 -1.9810917
1.7371856 10.027525 -1.9849936
1.7981602 10.013782 -1.9844083
1.8602873 10.006416 -1.9851887
1.9183153 9.9774771 -1.9816771
1.9884859 10.010732 -1.9908463
2.0579541 10.037734 -1.998845
2.1052969 9.9577484 -1.9851887
2.1651034 9.9388943 -1.9840181
2.2238991 9.9158516 -1.9820672
2.2862442 9.9087095 -1.9834329
2.3485851 9.9011745 -1.9847986
2.4051116 9.8694258 -1.9812869
2.4622896 9.8411627 -1.9785556
2.5270195 9.842968 -1.9820672
2.5848689 9.8177929 -1.9801164
2.6471064 9.8093224 -1.9816771
2.7009706 9.7702084 -1.9769949
2.7568603 9.7392969 -1.9740685
2.8070116 9.6892271 -1.9672403
2.8895512 9.7498684 -1.9834329
2.9382226 9.6953497 -1.9758244
2.9988182 9.6808853 -1.9766047
3.0427675 9.6136808 -1.96646
3.1077344 9.6134939 -1.9703618
3.1663558 9.5933132 -1.9701667
3.2323637 9.5950813 -1.9746538
3.2844799 9.5555897 -1.9705569
3.3281183 9.4926834 -1.9615828
3.4044669 9.5228758 -1.9723127
3.4567871 9.4852209 -1.9688011
3.5128727 9.4583158 -1.9676305
3.5829945 9.468688 -1.9744587
3.6106815 9.3678246 -1.9576809
3.6619999 9.3299732 -1.9543644
3.7326481 9.3410244 -1.9615828
3.7788045 9.2906914 -1.9557301
3.8383665 9.273674 -1.9570956
3.8845356 9.2246389 -1.9516331
3.9344969 9.1853046 -1.9483166
3.9935255 9.167284 -1.9496822
4.0644002 9.175786 -1.9569006
4.0867891 9.0755577 -1.940513
4.1481152 9.0627947 -1.9432442
4.1990938 9.0273905 -1.9410982
4.2535672 8.9996824 -1.940708
4.3019142 8.9592676 -1.9375867
4.3451948 8.9089031 -1.9323192
4.4093571 8.9014082 -1.9366112
4.469182 8.8846989 -1.9389523
4.5285215 8.8667164 -1.9410982
4.5711012 8.8161259 -1.9360259
4.6237392 8.7853088 -1.9354407
4.6576829 8.7195759 -1.9270518
4.7176423 8.7029028 -1.929783
4.7676439 8.6677771 -1.9284174
4.8279095 8.651206 -1.9313438
4.8780017 8.6162996 -1.9301732
4.9234505 8.5734491 -1.9272468
4.9749761 8.5413837 -1.9268566
5.0332785 8.5208292 -1.9291978
5.0950446 8.5057707 -1.9329045
5.1461205 8.4726715 -1.9325143
5.1969824 8.4392662 -1.9321241
5.2330818 8.3822613 -1.9262714
5.2539897 8.3019295 -1.9149562
5.3191314 8.2918234 -1.9202236
5.384881 8.2820511 -1.9256861
5.4264216 8.2349329 -1.9223696
5.4664974 8.1859856 -1.9186629
5.5094757 8.1417313 -1.9161267
5.5560002 8.1029196 -1.9149562
5.5871449 8.0420971 -1.9085182
5.6516294 8.0293169 -1.9137856
5.6979427 7.9904957 -1.9128102
5.7520337 7.9625378 -1.9145659
5.7613912 7.8732767 -1.9012998
5.8049192 7.8314743 -1.8997391
5.8581634 7.8027673 -1.901495
5.9273052 7.7947783 -1.9085182
5.9606566 7.7396145 -1.903836
5.9959683 7.6874294 -1.8999342
6.0405922 7.6474156 -1.8991538
6.0726967 7.5918274 -1.8944716
6.1123734 7.5460405 -1.8923256
6.1461182 7.4932284 -1.8884239
6.2032609 7.4689555 -1.8919355
6.2413969 7.4217453 -1.8895944
6.3033528 7.4027228 -1.8946668
6.3422513 7.3564792 -1.8927158
6.3827548 7.3122535 -1.8913503
6.4242539 7.269278 -1.8903748
6.4628501 7.223145 -1.8886189
6.5077071 7.1840806 -1.8888141
6.5410576 7.1324506 -1.8856926
6.5686803 7.0749331 -1.8810104
6.6092806 7.0316367 -1.8802301
6.6516252 6.9902401 -1.880035
6.6937108 6.9485888 -1.8798399
6.7327962 6.9038758 -1.8788644
6.7984619 6.8861618 -1.8854976
6.8003683 6.8040872 -1.8741822
6.851059 6.7711945 -1.8767184
6.8952851 6.73177 -1.8774989
6.9131603 6.6668701 -1.8710608
6.936892 6.6080923 -1.8663787
6.983737 6.5714521 -1.8681345
7.0260825 6.5304799 -1.8687197
7.0710788 6.4918885 -1.8700854
7.1158652 6.4529901 -1.871451
7.1341376 6.3902321 -1.8657933
7.1548467 6.3300924 -1.8609161
7.1987233 6.2905889 -1.8622818
7.2438693 6.2520666 -1.8640376
7.2641792 6.1922336 -1.8593554
7.2952838 6.1418605 -1.8575996
7.3449001 6.1070132 -1.860721
7.4087658 6.083612 -1.8675492
7.426908 6.0225968 -1.862672
7.4675503 5.9799776 -1.8636475
7.499486 5.9303956 -1.8624768
7.5341868 5.8830609 -1.8620867
7.59267 5.8540854 -1.8677443
7.6190815 5.8002596 -1.8654032
7.6584482 5.7563467 -1.8663787
7.6881104 5.7051563 -1.865013
7.7095208 5.6480236 -1.8616965
7.8004618 5.6414137 -1.8755479
7.8141737 5.5786304 -1.8704755
7.8442478 5.5277543 -1.8695002
7.9029803 5.4968767 -1.8755479
7.8977437 5.4216423 -1.8661835
7.9048762 5.3554802 -1.8599406
7.9677582 5.3270416 -1.867159
8.0199442 5.2910123 -1.8718412
8.0686989 5.2524028 -1.875743
8.0644617 5.1794786 -1.867159
8.0994043 5.1319981 -1.8679394
8.1415539 5.0889611 -1.8704755
8.1768007 5.0414829 -1.871451
8.2159615 4.9963112 -1.8734019
8.2565575 4.9518571 -1.875743
8.2217789 4.8626657 -1.860721
8.2963676 4.8383079 -1.8710608
8.2978382 4.7711811 -1.8646228
8.3312244 4.7225947 -1.8655983
8.3788824 4.6819091 -1.8698903
8.4203396 4.6375051 -1.8728167
8.44174 4.5820093 -1.8712559
8.4792099 4.5352125 -1.8734019
8.5198936 4.4899573 -1.8763282
8.5342255 4.4308181 -1.8734019
8.5717306 4.3837276 -1.875743
8.6159868 4.3398719 -1.8796448
8.6275167 4.2795162 -1.8763282
8.6615448 4.230371 -1.8780841
8.704134 4.1852183 -1.8817908
8.7216711 4.1279569 -1.880035
8.740612 4.071466 -1.8786694
8.7966366 4.0320578 -1.8854976
8.7952814 3.9663169 -1.8798399
8.8051071 3.9059141 -1.8767184
8.8405952 3.8569105 -1.8792546
8.8559818 3.799114 -1.8774989
8.873703 3.7424171 -1.8763282
8.9191513 3.6972854 -1.8812056
8.9434862 3.6432285 -1.8815957
9.0148449 3.6079571 -1.8921306
9.0340748 3.5514991 -1.8915453
9.0611868 3.4981189 -1.8927158
9.0412073 3.4268172 -1.8839368
9.0850458 3.3798234 -1.8888141
9.099164 3.3216615 -1.8874484
9.0925951 3.2561815 -1.8817908
9.1484947 3.2129996 -1.8893993
9.1671095 3.1564858 -1.8892043
9.1890926 3.1011186 -1.8897895
9.2312288 3.052372 -1.8946668
9.2516499 2.9962769 -1.895057
9.2277889 2.9261179 -1.8862779
9.2483797 2.8703139 -1.8868631
9.2798948 2.8177855 -1.8897895
9.3054714 2.763304 -1.8915453
9.3109484 2.7028749 -1.8892043
9.3188658 2.6432853 -1.8874484
9.3575945 2.5923376 -1.8921306
9.3790054 2.5364075 -1.8933011
9.4057722 2.4818125 -1.8956422
9.4198732 2.4238088 -1.8954471
9.4336166 2.3657253 -1.895252
9.4269934 2.3026798 -1.8909601
9.4609833 2.2495556 -1.895057
9.5118761 2.2000771 -1.9026655
9.4677811 2.1287694 -1.8909601
9.5362415 2.0827675 -1.9022753
9.4931917 2.0124249 -1.8909601
9.5341825 1.9600595 -1.8968128
9.5181341 1.8959689 -1.8911551
9.5430717 1.8401291 -1.8938864
9.559968 1.7826173 -1.895057
9.5649338 1.7228824 -1.8938864
9.5666285 1.6626502 -1.8921306
9.6163111 1.6105568 -1.9001293
9.6047096 1.5480909 -1.8958373
6.0462346 0.93694437 -1.1777098
5.9111981 0.87893909 -1.1494217
5.8902626 0.83892334 -1.1441543
5.8797498 0.80065125 -1.1410328
5.87288 0.7630446 -1.1386918
5.8696647 0.72603327 -1.1371311
5.8593969 0.68829054 -1.1342047
5.8547368 0.65135074 -1.1324489
5.8352127 0.61295998 -1.1277667
5.8369122 0.57695168 -1.1273766
5.8364358 0.54076505 -1.1265962
5.8513699 0.50595474 -1.1289372
5.8396993 0.46886736 -1.1260109
5.8199697 0.43136391 -1.1215239
5.8244638 0.39577773 -1.121914
0 0 -0
0 0 -0
0 0 -0
0 0 -0
0 0 -0
0 0 -0
0 0 -0
0 0 -0
0 0 -0
0 0 -0
0 0 -0
0 -0 -0
0 -0 -0
0 -0 -0
0 -0 -0
0 -0 -0
0 -0 -0
0 -0 -0
0 -0 -0
0 -0 -0
0 -0 -0
0 -0 -0
0 -0 -0
0 -0 -0
0 -0 -0
0 -0 -0
0 -0 -0
6.1009688 -0.63660592 -1.1808313
9.0233746 -0.99811107 -1.7664924
8.8797264 -1.0373938 -1.7389847
8.7057648 -1.0712348 -1.7054292
8.5502081 -1.1053724 -1.6755804
8.5908871 -1.1642752 -1.6851398
8.7360373 -1.2386017 -1.7157689
8.7224522 -1.2913191 -1.7145984
8.7211494 -1.3458627 -1.7159641
8.7330627 -1.4026183 -1.7200609
8.7252588 -1.4563385 -1.720256
8.668807 -1.5016394 -1.7106966
8.6362619 -1.5506389 -1.7060144
8.6198349 -1.6023452 -1.7046487
8.585763 -1.6505731 -1.6997715
8.5331469 -1.6948107 -1.6911875
8.3909607 -1.7201355 -1.6644602
8.3687334 -1.7691532 -1.6621192
8.3634701 -1.8217226 -1.6632897
8.3406515 -1.8704287 -1.6609485
8.314683 -1.9182616 -1.6580222
8.2769909 -1.9631287 -1.6527548
8.2295332 -2.0052824 -1.6455364
7.3541279 -1.8397235 -1.4685895
7.3351016 -1.8828609 -1.4670287
8.0309429 -2.1142013 -1.6125661
7.9619527 -2.1483557 -1.6010559
7.89852 -2.1833124 -1.590716
7.8925242 -2.2338736 -1.5922768
8.1396074 -2.3578868 -1.6463168
8.1108818 -2.4036043 -1.6433904
7.9720864 -2.4157641 -1.6176385
7.8971562 -2.446054 -1.6051527
7.8464675 -2.4832137 -1.5977393
7.7946882 -2.519542 -1.5901308
7.6831551 -2.5356481 -1.5700364
7.8505487 -2.644448 -1.6084692
7.7479186 -2.6629088 -1.5903258
7.6944127 -2.6974149 -1.5825223
7.7608323 -2.7743011 -1.6000804
7.7639356 -2.8292589 -1.6043724
7.7979145 -2.895973 -1.6152974
7.8451247 -2.9684181 -1.6291488
7.6153703 -2.934993 -1.584083
7.7688503 -3.049053 -1.62076
7.8665676 -3.1432619 -1.6457316
7.8362312 -3.1870356 -1.6433904
7.7965927 -3.2268035 -1.6390984
7.7766466 -3.2745819 -1.6390984
7.7519002 -3.3203053 -1.638123
7.7205915 -3.363106 -1.6357819
7.6908436 -3.4064422 -1.633831
7.6689029 -3.4531653 -1.6336359
7.6457868 -3.4993393 -1.6332457
7.6170573 -3.542877 -1.631685
7.5934019 -3.5887094 -1.6312948
7.5765438 -3.6377819 -1.6324654
7.561132 -3.6876426 -1.6340261
7.5181499 -3.7239518 -1.629539
7.5021677 -3.7735391 -1.6310997
7.4238477 -3.7913895 -1.6188091
7.3865142 -3.8296449 -1.6156876
7.3906484 -3.8895161 -1.6219305
7.3951902 -3.9500439 -1.6283685
7.4035773 -4.0131111 -1.6357819
7.4149051 -4.07832 -1.6439757
7.4162893 -4.1385598 -1.6500235
7.3839288 -4.1801209 -1.6484628
7.3794022 -4.2375622 -1.65334
7.3608894 -4.2872052 -1.6550958
7.3411999 -4.3362818 -1.6566566
7.3026762 -4.3741875 -1.6539253
7.2706699 -4.4158578 -1.6527548
7.2559643 -4.4681025 -1.6556811
7.2159333 -4.5047479 -1.6527548
7.1467218 -4.5227094 -1.6430002
7.1039782 -4.556942 -1.6394886
7.0717726 -4.5977716 -1.6385132
7.0319633 -4.6335201 -1.6357819
7.0172648 -4.6858411 -1.6390984
7.0598564 -4.7771893 -1.6562663
6.9778371 -4.7843599 -1.6435856
6.9266033 -4.8119736 -1.6383181
6.8159494 -4.7973571 -1.618614
6.7504535 -4.8134594 -1.6098349
6.726356 -4.8588099 -1.6112006
6.7130365 -4.9121556 -1.6152974
6.6804061 -4.9515014 -1.6147121
6.6138225 -4.9653063 -1.605738
6.5957217 -5.0152946 -1.6088594
6.5873566 -5.0730281 -1.6145171
6.5754371 -5.1284342 -1.6193943
6.5261459 -5.1546993 -1.6149073
6.4875016 -5.1891313 -1.6131514
6.4532537 -5.2269878 -1.6125661
6.3861804 -5.2378697 -1.603592
6.3871155 -5.3045321 -1.6121759
6.3236742 -5.3177376 -1.6041772
6.2931662 -5.3583469 -1.6047626
6.2779961 -5.4122324 -1.6094447
6.2306314 -5.4383955 -1.605738
6.1956749 -5.4752245 -1.6053479
6.1553855 -5.5072508 -1.603592
6.1171169 -5.5409646 -1.6024214
6.076498 -5.5724273 -1.6006657
6.0335679 -5.6015978 -1.5983245
6.0069437 -5.6459036 -1.6004705
5.9622421 -5.6731887 -1.5977393
5.9252009 -5.707624 -1.597154
5.8984933 -5.7520909 -1.5994951
5.8637857 -5.7888646 -1.5996902
5.8392534 -5.8358297 -1.6028117
5.7833443 -5.8513165 -1.597154
5.7096539 -5.8480892 -1.5864241
5.6661749 -5.8752465 -1.5842781
5.6672206 -5.9489655 -1.595008
2.2348487 -2.3739429 -0.60921663
2.2282519 -2.3962326 -0.61155772
2.2121806 -2.4084146 -0.61116755
2.1571765 -2.3776195 -0.59926701
5.4290724 -6.0608249 -1.5792058
5.3794355 -6.0800648 -1.5754989
5.3484802 -6.1203437 -1.5774499
5.3165927 -6.1597295 -1.5792058
5.30478 -6.2228413 -1.5872045
5.2519712 -6.2380152 -1.5827173
5.237421 -6.2987838 -1.5901308
5.1457767 -6.266366 -1.5735481
5.1393485 -6.3374391 -1.5836928
5.0691042 -6.3298063 -1.5737432
5.0307779 -6.3615603 -1.5739383
2.0222912 -2.5886252 -0.6140939
1.9949929 -2.5862257 -0.61038715
1.9636426 -2.5781264 -0.60531485
1.9471973 -2.5893424 -0.60511976
1.9295197 -2.5988784 -0.60453445
1.8219713 -2.4856503 -0.5737102
1.7716309 -2.4483004 -0.56180966
1.7565751 -2.4591248 -0.56180966
4.6601191 -6.6127 -1.5698414
4.6188965 -6.6403642 -1.5696462
4.5819502 -6.6742406 -1.5710119
4.5381613 -6.6981692 -1.5700364
4.533493 -6.7805214 -1.5831075
4.4896431 -6.8049355 -1.5823271
4.4451294 -6.8282452 -1.5813518
4.4084477 -6.8636446 -1.5833026
4.3405328 -6.8499665 -1.5737432
4.3015389 -6.8814611 -1.5749137
4.271071 -6.9269285 -1.5794008
4.2025027 -6.910264 -1.5694512
