# .PCD v0.7 - Point Cloud Data file format
VERSION 0.7
FIELDS x y z
SIZE 4 4 4
TYPE F F F
COUNT 1 1 1
WIDTH 1481
HEIGHT 1
VIEWPOINT 0 0 0 1 0 0 0
POINTS 1481
DATA ascii
4.6996064 -16.990803 -1.294332
4.4959965 -16.651567 -1.2655572
3.9353559 -14.938316 -1.1295923
4.2498965 -16.544193 -1.2529776
4.166945 -16.644444 -1.2587777
4.075129 -16.712324 -1.2620921
3.9331412 -16.571106 -1.2492112
3.8318374 -16.59687 -1.2493619
3.7364774 -16.64926 -1.2516217
3.6329751 -16.666027 -1.2511697
3.5279636 -16.675322 -1.2501905
3.4359972 -16.74745 -1.2541075
3.3211226 -16.707581 -1.2494372
3.2221229 -16.746248 -1.2508684
3.1333485 -16.84119 -1.2566686
3.0271327 -16.844397 -1.2554634
0.4747068 -2.7321682 -0.17211322
0.45464855 -2.7153587 -0.17060669
0.43038461 -2.6708398 -0.16699101
0.41337988 -2.6694884 -0.16668969
0.39743078 -2.6749339 -0.16691568
0.3818506 -2.6832457 -0.16736764
0.36470929 -2.6805975 -0.16699101
0.3499178 -2.695641 -0.16797026
0.24136031 -1.950526 -0.11109852
0.22880858 -1.9470181 -0.11072189
0.21565074 -1.9374833 -0.10989329
0.20230767 -1.9248854 -0.10883871
0.19137087 -1.9350219 -0.10951666
0.17848822 -1.9252372 -0.10868806
0.16641575 -1.9233156 -0.10846208
0.15500769 -1.9292706 -0.10883871
0.14345963 -1.9341632 -0.10914002
0.13192441 -1.9399816 -0.10951666
0.12148125 -1.9646416 -0.1113245
0.43343621 -7.8476477 -0.55635524
0.09575475 -1.9331175 -0.10883871
0.083081767 -1.91474 -0.1074075
0.070418902 -1.8903015 -0.10552433
0.058545377 -1.8817277 -0.1048464
0.046658352 -1.8680954 -0.10379182
0.035176896 -1.8673495 -0.10371649
0.023706352 -1.8665332 -0.10364117
0.012318223 -1.877612 -0.10446976
0.0007922856 -1.9025812 -0.10635293
-0.014733435 -2.5108049 -0.15230228
-0.041838102 -3.448921 -0.22318481
-0.062071986 -3.3987501 -0.21941847
-0.41482282 -16.810972 -1.2329407
-0.518704 -16.832031 -1.2347485
-0.62341267 -16.867393 -1.2376863
-0.14778544 -3.4499996 -0.22348611
-0.17067078 -3.483886 -0.22612254
-0.18966924 -3.4399612 -0.22288349
-1.029013 -16.714643 -1.2276678
-1.1326319 -16.723932 -1.228873
-1.23861 -16.762413 -1.2323381
-1.3557762 -16.933413 -1.2458968
-1.471314 -17.059887 -1.2561413
-0.2727145 -2.9609976 -0.18725392
-0.29763511 -3.0277398 -0.19245146
-0.31027821 -2.9693286 -0.18815784
-0.32628974 -2.9475477 -0.1866513
-0.45207068 -3.8635607 -0.25647926
-1.8635101 -15.09407 -1.1115139
-0.49688193 -3.8379447 -0.25497273
-0.52942604 -3.9010239 -0.2600196
-0.551386 -3.8838809 -0.25896505
-0.48026994 -3.2412779 -0.21015327
-0.42768466 -2.7701955 -0.17437303
-0.46449921 -2.8905773 -0.18378888
-2.7761238 -16.59041 -1.2333173
-0.53270453 -3.0732889 -0.19825163
-0.5529654 -3.0778136 -0.19885425
-3.1025887 -16.652172 -1.2422059
-3.2186716 -16.705278 -1.24778
-3.366679 -16.914057 -1.2654065
-3.4671867 -16.877453 -1.2642013
-0.55409497 -2.6204293 -0.16495718
-0.56867433 -2.6101606 -0.1644299
-0.86916864 -3.8723483 -0.26243007
-3.9266107 -16.987415 -1.2797186
-4.0785022 -17.16382 -1.2953112
-4.1014247 -16.801365 -1.2690974
-4.2245646 -16.856163 -1.2753496
-0.70261687 -2.7361817 -0.17603022
-0.72982013 -2.7713504 -0.17911862
-0.63542742 -2.3548272 -0.14687875
-0.92532313 -3.345504 -0.224842
-0.93467987 -3.3004305 -0.2217536
-0.95574713 -3.2975063 -0.22197957
-4.9203205 -16.577967 -1.2689469
-0.80178726 -2.6452851 -0.1714353
-0.81741238 -2.6384108 -0.17128463
-1.0177014 -3.2141247 -0.21730931
-5.5075221 -17.013838 -1.3135403
-5.6108742 -16.976883 -1.3133143
-1.4040773 -4.1651888 -0.29466996
-1.4289589 -4.1546092 -0.29451928
-1.4557456 -4.1495266 -0.29482061
-1.196488 -3.34535 -0.2310188
-1.2132317 -3.3276417 -0.2301902
-1.5211022 -4.0930552 -0.29248548
-1.5507815 -4.095767 -0.29346472
-1.1773322 -3.0535729 -0.20985197
-1.1843742 -3.0165937 -0.20744151
-1.3514094 -3.3805137 -0.23764755
-1.3758876 -3.3813932 -0.23840082
-1.3931736 -3.3645966 -0.23772287
-7.1057982 -16.855286 -1.3444242
-1.2928585 -3.0173337 -0.21060523
-1.3013815 -2.9864941 -0.20872205
-1.4502606 -3.2728779 -0.23305261
-1.826069 -4.0529604 -0.29843628
-1.4325707 -3.1288307 -0.22258219
-1.4576355 -3.1326368 -0.22363676
-1.8713582 -3.9573708 -0.29331407
-1.9128865 -3.9817619 -0.29632714
-1.8239577 -3.7378767 -0.2768175
-1.4175569 -2.8609743 -0.20382582
-1.4355333 -2.8531132 -0.20390114
-0.90053725 -1.7637624 -0.11222842
-0.93063754 -1.7953746 -0.11539215
-1.9010367 -3.6104751 -0.27086666
-1.9048154 -3.5644488 -0.26792893
-1.9095284 -3.521143 -0.26521716
-1.9363886 -3.5189683 -0.26604575
-1.4823077 -2.655653 -0.19237614
-1.4744828 -2.6039994 -0.18868513
-1.4735355 -2.5655105 -0.18612401
-1.4781994 -2.5374696 -0.18446682
-1.4988166 -2.5369351 -0.18522009
-1.5179445 -2.5336771 -0.18574739
-1.4754409 -2.4288883 -0.17731078
-1.4882234 -2.416394 -0.17700948
-1.4771273 -2.3657823 -0.17331846
-5.0691586 -8.0037785 -0.67830938
-1.3923608 -2.1704361 -0.15742451
-1.4040203 -2.1593447 -0.15719852
-1.4403038 -2.1856492 -0.16036224
-1.4331839 -2.1460977 -0.15757516
-1.4323443 -2.1166239 -0.15569198
-10.846873 -15.8054 -1.4107119
-1.4815528 -2.1324522 -0.15878038
-1.5009271 -2.1322882 -0.15960898
-1.5180376 -2.1287198 -0.16013627
-1.5164633 -2.0991642 -0.1582531
-1.5016207 -2.0520113 -0.15471274
-1.6163795 -2.1804979 -0.16766895
-1.6123555 -2.1474216 -0.16548447
-1.5916804 -2.0930545 -0.16126618
-1.5917083 -2.0666642 -0.1596843
-1.628291 -2.0875123 -0.16262205
-1.6188049 -2.0493226 -0.15991029
-12.395276 -15.483041 -1.4608796
-12.493813 -15.411341 -1.4613315
-1.661314 -2.0253439 -0.16051291
-1.650124 -1.9867408 -0.15772581
-1.6680627 -1.9834442 -0.15840375
-1.6666182 -1.9572347 -0.15682189
-1.6831565 -1.9522562 -0.15734918
-1.6996962 -1.9471482 -0.15787646
-1.7175578 -1.9434043 -0.1585544
-2.2490108 -2.512964 -0.21738464
-2.2650576 -2.4998558 -0.21745996
-2.2769823 -2.4822376 -0.21708333
-2.2860608 -2.4616456 -0.21640539
-2.3059051 -2.452656 -0.21693268
-2.3264127 -2.4442375 -0.21753529
-2.344135 -2.4327881 -0.2178366
-3.200429 -3.2803402 -0.30883139
-3.1847508 -3.2244682 -0.30498973
-3.4068787 -3.4071894 -0.32660851
-3.2723296 -3.2327857 -0.31011194
-3.5133924 -3.4284842 -0.33346325
-2.4794848 -2.3905213 -0.22280817
-3.4295163 -3.2654967 -0.3203564
-2.5580375 -2.4063578 -0.2279304
-2.6144047 -2.4292924 -0.23222402
-3.0900159 -2.8358204 -0.27945393
-2.6321955 -2.3863149 -0.2310188
-2.6096344 -2.3368711 -0.22725245
-2.6463382 -2.3406262 -0.22951226
-2.9183035 -2.5492806 -0.25534934
-2.6907208 -2.32165 -0.23109412
-2.6783447 -2.2824681 -0.22845767
-3.4332883 -2.8892298 -0.30160001
-15.478958 -12.859385 -1.4827996
-15.569906 -12.774284 -1.4840049
-3.3975601 -2.7539873 -0.29301277
-15.76209 -12.611533 -1.4875453
-4.0805326 -3.2251444 -0.35553399
-3.8109133 -2.9743407 -0.32781374
-16.095833 -12.39959 -1.4974884
-16.200186 -12.322325 -1.5002002
-3.1872399 -2.3947499 -0.26378596
-3.1369894 -2.3270464 -0.25768447
-3.0997097 -2.2700634 -0.25286356
-16.365963 -11.825853 -1.4879218
-16.453642 -11.736212 -1.4893531
-3.0341549 -2.1374278 -0.24299575
-3.0406618 -2.1142182 -0.24239314
-3.0749586 -2.1101844 -0.24435164
-3.1134484 -2.1086032 -0.24668677
-3.2009573 -2.1393044 -0.25346619
-3.3613935 -2.2167487 -0.26679903
-3.5203872 -2.2906702 -0.27990589
-3.6409636 -2.3374124 -0.2894724
-3.6720884 -2.3256941 -0.29097894
-5.7949047 -3.6197526 -0.47876865
-17.319788 -10.668818 -1.4992962
-3.6503572 -2.2188804 -0.28532943
-3.5911949 -2.1528802 -0.27892664
-3.7228129 -2.2008002 -0.28932175
-3.7396932 -2.1799238 -0.28962305
-17.84383 -10.25022 -1.5171486
-17.903786 -10.139066 -1.5169227
-3.980319 -2.2229836 -0.30702353
-3.9519475 -2.1754482 -0.30340785
-3.9362934 -2.1354744 -0.30092207
-3.8701665 -2.0689921 -0.29414266
-3.9145544 -2.0619276 -0.29685441
-3.8669384 -2.0066535 -0.29173219
-3.9368985 -2.0123737 -0.29662845
-3.9571891 -1.9922129 -0.29730639
-16.965408 -8.4067469 -1.3929348
-7.6781931 -3.746928 -0.60802943
-7.6875563 -3.6932695 -0.60689956
-17.330029 -8.1936197 -1.4107119
-5.7432737 -2.673281 -0.44118059
-5.7577553 -2.6371603 -0.44102994
-19.225386 -8.6602964 -1.55549
-5.8142991 -2.5772109 -0.44306374
-5.8098917 -2.5327237 -0.44140655
-5.8069916 -2.4891734 -0.43990001
-19.591112 -8.2528343 -1.5685215
-11.313483 -4.6848578 -0.88764256
-11.342016 -4.6153512 -0.88764256
-9.6099081 -3.8421483 -0.74444628
-9.6398001 -3.7856612 -0.7449736
-11.644626 -4.4904509 -0.90541971
-11.697139 -4.4284463 -0.90745348
-11.945626 -4.4388881 -0.92530596
-12.00168 -4.3760939 -0.92764109
-12.048023 -4.3094215 -0.92922294
-12.139166 -4.2581835 -0.93442053
-12.218815 -4.2020984 -0.93871415
-11.56589 -3.8984287 -0.88462949
-7.7821407 -2.570405 -0.58174038
-7.8262296 -2.53181 -0.58400023
-12.454204 -3.9440055 -0.94948584
-12.59342 -3.9032235 -0.9586004
-11.622774 -3.5244563 -0.88010985
-11.695807 -3.4683783 -0.88417751
-12.952374 -3.7545757 -0.98134911
-12.960776 -3.6709559 -0.98021919
-9.7086229 -2.6858952 -0.72358078
-9.7056665 -2.6210763 -0.72207421
-12.81401 -3.3758991 -0.96364731
-12.98998 -3.3371432 -0.97577494
-13.250107 -3.3174162 -0.99445599
-13.072579 -3.187876 -0.97908932
-13.016217 -3.0896475 -0.97321379
-13.128204 -3.0312517 -0.98044521
-13.154341 -2.9523878 -0.98104781
-11.539292 -2.5157812 -0.85480005
-13.410061 -2.8373725 -0.99807167
-13.444801 -2.7586427 -0.99942756
-13.465387 -2.6768723 -0.99972886
-13.492331 -2.5962715 -1.0005574
-13.648196 -2.5395081 -1.0113292
-13.47901 -2.4225705 -0.99716771
-13.662612 -2.369108 -1.010124
-13.625748 -2.2766902 -1.006207
-13.645368 -2.1939905 -1.0066589
-13.708833 -2.1179836 -1.0105006
-14.005651 -2.0759103 -1.0321947
-14.485106 -2.0561848 -1.0678242
-15.277071 -2.0729966 -1.1272571
-15.955045 -2.0653222 -1.1779521
-16.363291 -2.0161324 -1.2080828
-22.685274 -2.6534128 -1.6879898
-22.751675 -2.5197639 -1.6918316
-22.913486 -2.3954523 -1.7029799
-23.879442 -2.3483572 -1.7752182
-25.893217 -2.3859775 -1.9269265
-25.99579 -2.2346518 -1.9336306
-25.860907 -2.0632927 -1.9224069
-25.872086 -1.9045011 -1.9223316
-25.872339 -1.7449795 -1.9215029
-25.877584 -1.5858922 -1.9211264
-25.866915 -1.4259837 -1.9196198
-25.867208 -1.2668506 -1.9190172
-25.859552 -1.1074692 -1.9178873
-25.852905 -0.94830251 -1.916908
-25.836311 -0.78898555 -1.9152508
-25.832691 -0.63024789 -1.9146482
-25.827099 -0.4715662 -1.9139702
-25.816544 -0.31292868 -1.912991
-25.822964 -0.15454507 -1.9133676
-25.819437 0.003903778 -1.9130664
-25.810949 0.16227828 -1.9124638
-25.813457 0.32069796 -1.912765
-25.803026 0.4789319 -1.9121624
-25.797609 0.63719797 -1.9120117
-25.777267 0.79498458 -1.9108065
-25.767918 0.95298839 -1.9105053
-25.726717 1.109574 -1.9078689
-25.695522 1.2662303 -1.9060609
-25.666361 1.4227113 -1.9044791
-25.627289 1.57833 -1.9022193
-25.56539 1.7320392 -1.8983023
-22.290312 -0.56771755 -1.9171383
-22.289392 -0.430859 -1.9167891
-22.274683 -0.29386204 -1.9153044
-22.264112 -0.15709706 -1.9142565
-22.240749 -0.020461652 -1.9121605
-22.227505 0.11593809 -1.9110253
-22.209442 0.25212938 -1.9095407
-22.19154 0.38812077 -1.9081434
-22.173801 0.52392548 -1.9068334
-22.156229 0.65955681 -1.9056108
-22.142805 0.79517084 -1.9048249
-22.126562 0.93056136 -1.9038643
-22.099541 1.065303 -1.9020303
-22.087614 1.2006129 -1.9015937
-22.07486 1.3358166 -1.901157
-22.068235 1.4713727 -1.9013317
-22.044882 1.6057403 -1.9001091
-22.01078 1.7390921 -1.8980131
-21.981829 1.8725934 -1.8964412
-21.940163 2.0047174 -1.8938214
-21.909603 2.1375611 -1.8922493
-21.871304 2.2693856 -1.8900661
-21.852016 2.4029984 -1.8896295
-21.825975 2.5357702 -1.8886689
-21.812971 2.6700072 -1.8889309
-21.794203 2.8035448 -1.8887562
-21.778564 2.9374847 -1.8889309
-21.759144 3.0709212 -1.8888435
-21.739891 3.2043748 -1.8888435
-21.70702 3.3357413 -1.8877083
-21.672373 3.4666677 -1.8864857
-21.638901 3.5976212 -1.8854377
-21.592859 3.7262621 -1.8833418
-21.534286 3.8523684 -1.8801979
-21.484776 3.9797108 -1.8779273
-21.441362 4.107903 -1.876268
-21.404026 4.2370663 -1.8752202
-21.374697 4.3677206 -1.8749582
-21.345547 4.4983807 -1.8747835
-21.323383 4.630538 -1.8753074
-21.296515 4.761723 -1.8754821
-21.275633 4.8943162 -1.876268
-21.219027 5.018579 -1.8739102
-21.176218 5.1458592 -1.8728622
-21.205137 5.2908893 -1.878364
-21.116301 5.4065719 -1.8732989
-21.101999 5.5410972 -1.8750454
-21.230173 5.7142258 -1.8898041
-21.216799 5.8504744 -1.8918128
-21.213097 5.9897509 -1.8947819
-21.198914 6.1264367 -1.8968779
-21.189583 6.2648683 -1.8994977
-21.199375 6.4094696 -1.9039515
-21.204382 6.5532498 -1.908056
-21.20747 6.6970325 -1.9120733
-21.201057 6.838347 -1.9153044
-21.204117 6.9832621 -1.9194962
-21.225079 7.1348195 -1.9254346
-21.204458 7.2729993 -1.9276179
-21.195164 7.4154711 -1.9309365
-21.209312 7.5668049 -1.9365255
-21.236444 7.7236977 -1.9434246
-21.196125 7.856626 -1.9441231
-21.207163 8.009059 -1.9497123
-21.190163 8.1515512 -1.9527688
-21.179632 8.2970419 -1.956524
-21.160709 8.4397573 -1.9595805
-21.177752 8.5975409 -1.9661303
-21.165112 8.7440586 -1.9699727
-21.17259 8.8996229 -1.9758239
-21.169794 9.0516911 -1.9808016
-21.152225 9.1981001 -1.9844694
-21.13912 9.3470507 -1.9886613
-21.117714 9.492919 -1.9921545
-21.098938 9.6405315 -1.995997
-21.115284 9.8050518 -2.0033326
-21.090761 9.9514313 -2.0068259
-21.093981 10.111657 -2.0131135
-21.096027 10.272297 -2.0194013
-21.061174 10.415677 -2.0221958
-21.023575 10.558122 -2.0248158
-21.015194 10.715881 -2.0304048
-21.001244 10.871646 -2.0355573
-20.950014 11.008643 -2.0371292
-20.906685 11.150108 -2.0395744
-20.879927 11.300939 -2.0437663
-20.852106 11.45186 -2.0479581
-20.88413 11.636806 -2.0582631
-20.891253 11.809338 -2.06621
-20.85988 11.961086 -2.0704019
-20.81193 12.103879 -2.0730217
-20.73727 12.231351 -2.0730217
-20.713125 12.389042 -2.0782614
-20.617979 12.504538 -2.0763402
-20.524742 12.620897 -2.074681
-20.423244 12.731842 -2.0722358
-20.322001 12.842548 -2.0698779
-20.199198 12.939059 -2.0653367
-20.082663 13.038888 -2.0614941
-19.973984 13.14325 -2.0585251
-19.866442 13.247875 -2.0557303
-19.73443 13.335501 -2.0504034
-19.611958 13.428761 -2.0461242
-19.528372 13.548277 -2.0460367
-19.414719 13.64665 -2.0428057
-19.298971 13.742985 -2.0393999
-19.209436 13.857646 -2.0388758
-19.111176 13.965848 -2.0374784
-18.999502 14.063883 -2.0346839
-18.892126 14.16466 -2.0324135
-18.78661 14.266457 -2.0304048
-18.65134 14.345022 -2.0251651
-18.535463 14.43777 -2.0221086
-18.407419 14.520382 -2.0177422
-18.287622 14.608807 -2.0143361
-18.162786 14.692549 -2.0104063
-18.04455 14.780993 -2.0072625
-17.935881 14.876806 -2.0052538
-17.802303 14.951343 -2.0004508
-17.698845 15.050614 -1.9991409
-17.579741 15.13618 -1.9960843
-17.460253 15.220852 -1.9930278
-17.363544 15.325063 -1.9926784
-17.266212 15.428659 -1.9923291
-17.146101 15.511591 -1.98936
-17.049868 15.615832 -1.9892726
-16.941311 15.70864 -1.987788
-16.830805 15.79934 -1.9861287
-16.70466 15.874866 -1.9826355
-16.586838 15.957726 -1.9801903
-16.464348 16.03557 -1.9772211
-16.344364 16.115309 -1.9746013
-16.202166 16.172365 -1.9692742
-16.087214 16.255898 -1.9673529
-15.959311 16.325808 -1.9638597
-15.822162 16.385445 -1.9592313
-15.697259 16.456989 -1.9561746
-15.573442 16.52907 -1.9532928
-15.457476 16.609001 -1.9514588
-15.331002 16.677134 -1.948315
-15.225037 16.7672 -1.9478784
-15.105905 16.842506 -1.9457824
-14.996992 16.928911 -1.9450839
-14.860036 16.983128 -1.9407173
-14.734705 17.04987 -1.9379228
-14.609763 17.11647 -1.9352156
-14.490979 17.189798 -1.9333817
-14.376945 17.268436 -1.9322463
-14.26186 17.345554 -1.9310237
-14.155161 17.432737 -1.9310237
-14.04793 17.519264 -1.9310237
-13.93584 17.599663 -1.9304124
-13.817157 17.671499 -1.9289278
-13.697508 17.741755 -1.9273559
-13.574498 17.807245 -1.9253473
-13.4512 17.871895 -1.9233388
-12.52014 16.849072 -1.8026493
-13.220265 18.021158 -1.9217668
-13.108273 18.100325 -1.9215921
-12.996385 18.179604 -1.9215049
-12.879997 18.252495 -1.9208062
-12.75808 18.317286 -1.9193215
-12.633032 18.377163 -1.9174004
-12.513323 18.444439 -1.9163524
-12.39548 18.51425 -1.9156537
-12.278351 18.584972 -1.9151298
-12.16082 18.654953 -1.9146057
-12.045588 18.728382 -1.9145185
-11.435132 18.021376 -1.8334765
-11.356583 18.142708 -1.8388036
-11.177531 18.102707 -1.8275381
-11.589597 19.030266 -1.9157411
-11.431063 19.031849 -1.9086673
-11.325747 19.121344 -1.9106759
-11.199164 19.174994 -1.909104
-11.05495 19.197596 -1.9044756
-9.6050768 16.919121 -1.667987
-10.782532 19.267483 -1.8980131
-10.661219 19.328047 -1.8974892
-10.539093 19.386972 -1.8968779
-10.415705 19.443371 -1.8960919
-10.289231 19.4937 -1.8947819
-10.163451 19.544977 -1.8936467
-10.036067 19.592785 -1.8922493
-9.9093771 19.641544 -1.8910267
-9.7789211 19.68235 -1.8891056
-9.650526 19.72677 -1.8876209
-9.5206575 19.767664 -1.8858744
-9.3915043 19.809507 -1.8843024
-9.2651453 19.856829 -1.8833418
-9.1302452 19.885241 -1.8806345
-9.0019073 19.927271 -1.8793246
-8.8632851 19.945717 -1.8758315
-8.7351484 19.986946 -1.8746088
-8.6040859 20.020948 -1.8727748
-8.4698334 20.046753 -1.8702424
-8.3371172 20.075346 -1.868059
-8.2039928 20.102144 -1.8657886
-8.0693712 20.124365 -1.8631686
-7.9406276 20.160524 -1.861946
-7.805634 20.180065 -1.8592387
-7.6774206 20.216404 -1.8581909
-7.5424438 20.234196 -1.8554837
-7.4095912 20.256704 -1.8533003
-7.2817941 20.292412 -1.8524271
-7.1561527 20.333891 -1.8521651
-7.0280023 20.368 -1.8512918
-6.8952341 20.388092 -1.8491958
-6.7656183 20.416779 -1.8479732
-6.6343722 20.439903 -1.8463141
-6.5055113 20.469784 -1.8453534
-6.3762379 20.497902 -1.8443054
-6.2488947 20.531874 -1.8438687
-6.1210904 20.564102 -1.8433448
-5.9934044 20.596491 -1.8429081
-5.8660965 20.630003 -1.8426461
-5.7420688 20.675207 -1.8435194
-5.6174464 20.718702 -1.8443054
-5.4897032 20.750854 -1.8441308
-5.362524 20.785112 -1.8442181
-5.2336731 20.812796 -1.8437815
-5.1037364 20.835808 -1.8429955
-4.972559 20.853167 -1.8417729
-4.841361 20.869699 -1.8405503
-4.7108049 20.888323 -1.8395896
-4.5827613 20.917807 -1.839677
-4.4543257 20.945534 -1.839677
-3.0582395 14.827896 -1.2896751
-2.9488451 14.754558 -1.2814661
-2.8272181 14.611976 -1.2671441
-2.7239461 14.556589 -1.2606816
-2.6310325 14.553423 -1.2589351
-2.5403149 14.561441 -1.2582364
-2.4216785 14.402873 -1.2427791
-2.3350096 14.428278 -1.2437397
-2.2490387 14.459067 -1.2452244
-2.128799 14.261749 -1.2265358
-2.0014753 13.99645 -1.2019088
-1.9077276 13.951222 -1.1968437
-1.8140947 13.901422 -1.1914293
-1.76759 14.22468 -1.2190254
-1.657733 14.044321 -1.2021708
-1.5642192 13.988889 -1.1964071
-1.4820185 14.032896 -1.1994636
-1.4130379 14.214211 -1.214659
-1.3122913 14.077799 -1.2019088
-1.2766904 14.669132 -1.2532586
-1.1895494 14.712436 -1.2564025
-1.1378453 15.236032 -1.3018138
-1.0458359 15.26459 -1.3037351
-0.9448362 15.153399 -1.2934302
-0.86436439 15.381703 -1.3129921
-0.72349167 14.458446 -1.2315136
-0.63463157 14.459626 -1.2312516
-0.57184136 15.150123 -1.291509
-0.47906014 15.15932 -1.292033
-0.38702518 15.200812 -1.2954389
-0.29432559 15.23278 -1.2980587
-0.18981296 14.398579 -1.2247891
-0.10184191 14.453264 -1.2295049
-0.013186335 14.485495 -1.2322996
0.078361869 14.998328 -1.2772743
0.16633524 14.63996 -1.2459229
0.25859749 14.778108 -1.2581491
0.34618917 14.64578 -1.2467089
0.45204416 15.181079 -1.2938669
0.53192818 14.808675 -1.2614676
0.62177831 14.781244 -1.2593718
0.71011323 14.728395 -1.2550925
0.76890564 14.142849 -1.204092
0.85440683 14.116983 -1.2022581
0.94173974 14.122409 -1.2032188
1.0228044 14.039861 -1.1964943
1.1063434 14.000549 -1.1936125
1.192651 13.99846 -1.1940491
1.2788841 13.994846 -1.1943985
1.3638602 13.977813 -1.1936125
1.4473394 13.947382 -1.1916913
1.5298432 13.910513 -1.1892461
1.6130987 13.883053 -1.187674
1.7039409 13.919368 -1.1917785
1.786902 13.889877 -1.1901194
1.8700979 13.863843 -1.1888094
1.9552687 13.853094 -1.1888967
2.044445 13.869416 -1.1914293
2.1369209 13.904858 -1.1957084
2.2225139 13.893451 -1.195883
2.3083742 13.883483 -1.1962324
2.4004631 13.909307 -1.1998129
2.4889212 13.911966 -1.2013849
2.6350129 14.224572 -1.2306403
2.6708882 13.940058 -1.206712
2.7468944 13.875524 -1.2024328
2.8427501 13.911113 -1.2071486
2.929286 13.899257 -1.2076726
3.031003 13.956954 -1.2144843
3.1311467 14.003229 -1.2203354
3.2277291 14.030353 -1.2245272
3.3243032 14.054877 -1.2285444
3.4149487 14.052608 -1.2302036
3.4982157 14.019791 -1.2291557
3.6229639 14.149576 -1.2428664
3.7074389 14.118408 -1.2420805
3.7914093 14.085774 -1.2412071
3.8865047 14.093937 -1.244089
3.9691207 14.056402 -1.2428664
4.0536351 14.026042 -1.2423425
4.1413155 14.006637 -1.2428664
4.2433243 14.034362 -1.2477568
4.3490644 14.071829 -1.253608
4.4542232 14.104726 -1.2591097
4.5327339 14.052479 -1.2568392
4.6160684 14.015886 -1.2560532
4.7032509 13.991076 -1.2564025
4.8006449 13.995877 -1.2595464
4.954855 14.161739 -1.2777109
5.0349622 14.112305 -1.2759644
5.147675 14.153232 -1.2826887
5.2420378 14.14193 -1.2846099
5.3350472 14.126274 -1.2861819
5.4466591 14.158356 -1.292295
5.575942 14.233193 -1.3025125
5.6675987 14.209816 -1.3035605
5.7404432 14.139697 -1.3002419
5.834702 14.122622 -1.3019886
5.9671807 14.19584 -1.3123808
6.0298915 14.102169 -1.3069663
6.118691 14.070386 -1.3074903
6.2222319 14.071754 -1.3112454
6.3668618 14.163241 -1.3237337
6.4354305 14.084041 -1.3198911
6.5397677 14.08314 -1.3236463
6.6660142 14.127436 -1.3318553
6.7771173 14.137471 -1.3368331
6.8755102 14.119804 -1.339191
6.9871888 14.12825 -1.3441688
7.0737462 14.085112 -1.3441688
7.2401328 14.198525 -1.3596261
7.3358178 14.170642 -1.3612853
7.4295797 14.138592 -1.3625953
7.5236931 14.106802 -1.3639926
7.6248078 14.087531 -1.3666998
7.7753596 14.157486 -1.378402
7.8645067 14.113862 -1.3788387
8.0024309 14.156399 -1.3880082
8.1099539 14.143327 -1.3916761
8.2070999 14.111382 -1.39351
8.286952 14.049604 -1.3923748
8.4527712 14.131862 -1.4059981
8.6684666 14.292675 -1.4278306
8.7304344 14.197637 -1.4235513
8.8368835 14.175079 -1.4267826
9.002986 14.246067 -1.4397947
9.1847973 14.338194 -1.4551647
9.285079 14.300784 -1.4571732
9.3737469 14.245207 -1.457348
9.4858475 14.224719 -1.4612777
9.5924711 14.195137 -1.4643342
9.7289171 14.208344 -1.4720193
11.725535 16.900991 -1.7657088
11.818706 16.814056 -1.7641369
11.918763 16.737165 -1.7637002
12.020653 16.66291 -1.7636129
12.118554 16.583208 -1.7630016
12.190445 16.468504 -1.758635
12.008612 16.016394 -1.7173282
12.04762 15.864658 -1.7087699
12.130769 15.772275 -1.7067614
12.289756 15.777708 -1.7156689
11.853286 15.026235 -1.6402161
11.928475 14.932206 -1.6378583
11.967246 14.793675 -1.6305226
12.043275 14.702242 -1.6285139
12.165693 14.667173 -1.6329678
12.884585 15.341365 -1.7187254
13.002997 15.290855 -1.722044
13.114775 15.231921 -1.7244892
13.230246 15.176695 -1.7274585
13.369262 15.147512 -1.7335715
13.521028 15.131307 -1.7413439
13.658393 15.097555 -1.7471949
13.796525 15.063419 -1.7531333
13.941524 15.03546 -1.759945
14.036925 14.953265 -1.7603817
14.126354 14.864688 -1.7601197
14.233181 14.794243 -1.7621282
14.320909 14.703776 -1.761779
14.417853 14.622722 -1.7626523
14.529825 14.556542 -1.7654468
14.625242 14.473422 -1.7662327
14.723746 14.39316 -1.7674553
14.86123 14.350293 -1.7734811
15.021085 14.327594 -1.782214
15.199345 14.32055 -1.7931303
15.376622 14.310497 -1.8038719
15.640149 14.377687 -1.8248309
15.787073 14.335025 -1.8318173
15.960758 14.315044 -1.8419476
16.162378 14.317911 -1.855309
16.384872 14.33655 -1.8710283
16.590864 14.338012 -1.884739
16.77627 14.319373 -1.8960046
17.026045 14.352931 -1.9146057
17.253126 14.364198 -1.9304998
17.507143 14.394726 -1.949363
17.710363 14.380598 -1.962375
17.960697 14.401908 -1.9806269
18.197113 14.408932 -1.9972196
18.410744 14.395185 -2.0111923
18.519224 14.297776 -2.0134628
18.575708 14.160321 -2.010057
18.65349 14.039486 -2.0090964
18.705702 13.899811 -2.0054286
18.735214 13.744115 -1.9994029
18.763525 13.588581 -1.9933771
18.791443 13.433798 -1.9874387
18.815729 13.277463 -1.9812382
18.851885 13.130446 -1.9764352
18.88941 12.985181 -1.971894
18.947296 12.854491 -1.9696234
18.974491 12.703629 -1.964209
18.964811 12.529305 -1.9550394
19.006283 12.389854 -1.9513716
19.013245 12.228811 -1.9442105
19.071941 12.101777 -1.9425513
19.10615 11.959683 -1.9384468
19.155441 11.82757 -1.9360015
19.200428 11.693231 -1.933207
19.248756 11.56135 -1.9308491
19.288479 11.424747 -1.9277052
19.323809 11.286083 -1.924212
19.356438 11.146422 -1.9205441
19.385483 11.005311 -1.9166144
19.410917 10.862805 -1.9124225
19.44842 10.727619 -1.9095407
19.487621 10.59381 -1.9069208
19.502205 10.447223 -1.901943
19.524534 10.305507 -1.8978385
19.535255 10.158396 -1.892686
19.560867 10.019717 -1.8891056
19.56061 9.8685427 -1.8830798
19.634176 9.7549849 -1.8843898
19.594336 9.5857344 -1.8746961
19.580086 9.4303102 -1.8676225
19.607876 9.2959089 -1.8647406
19.617603 9.1535177 -1.8601995
19.660725 9.027154 -1.8589768
19.641302 8.8727179 -1.8518158
19.655319 8.7342339 -1.8479732
19.64282 8.5847425 -1.8416855
19.687803 8.4609079 -1.840987
19.671442 8.3112555 -1.8345245
19.676069 8.1712923 -1.830158
19.697247 8.0387392 -1.8274509
19.706442 7.9017849 -1.8236957
19.688747 7.7547989 -1.8174952
19.687647 7.6151567 -1.8129541
19.699545 7.4811258 -1.8097229
19.693737 7.3409729 -1.8049198
19.699118 7.2056227 -1.8012519
19.704517 7.0708194 -1.7976714
19.724979 6.9418445 -1.7955755
19.747427 6.8138595 -1.7937416
19.77754 6.6887336 -1.7926936
19.810644 6.5647478 -1.791995
19.846762 6.4418383 -1.7916456
19.886864 6.320241 -1.791733
19.924318 6.197803 -1.7916456
19.972456 6.0786238 -1.7926064
20.013197 5.9570975 -1.7929556
20.067545 5.8394752 -1.7946149
20.117371 5.7203202 -1.7959248
20.175127 5.6031733 -1.7980207
20.222589 5.4829249 -1.7992433
20.28089 5.3653631 -1.8015139
20.329826 5.2450519 -1.8029985
20.379017 5.1245852 -1.8045704
20.418785 5.0015783 -1.8053564
20.45878 4.8785076 -1.8062297
20.498034 4.7551346 -1.807103
20.533627 4.630806 -1.8077143
20.566521 4.5057926 -1.808151
20.600601 4.3809648 -1.8087623
20.634899 4.2560892 -1.8094609
20.663555 4.1299815 -1.8097229
20.696333 4.0046287 -1.8104216
20.721493 3.8777463 -1.8105088
20.759602 3.7531874 -1.8118188
20.796959 3.6283066 -1.8131287
20.841427 3.5044303 -1.8151374
20.888103 3.3806224 -1.817408
20.937 3.2568326 -1.8199404
20.97728 3.1313932 -1.8217744
21.00596 3.0040307 -1.8226477
21.031893 2.876164 -1.8233464
21.065937 2.7492523 -1.8248309
21.090319 2.6209254 -1.8255296
6.9242702 0.81710631 -0.5736596
6.9053936 0.77194691 -0.57156372
6.8327279 0.72139871 -0.56475198
6.84793 0.68054461 -0.56571263
6.8311477 0.63657141 -0.56387872
6.8388944 0.5949899 -0.564228
6.8354659 0.55245388 -0.56361669
6.8317733 0.50998235 -0.56300539
6.8397431 0.46839434 -0.56344205
6.8245916 0.42530131 -0.5618701
6.8250837 0.38330656 -0.56169546
6.8044238 0.3402757 -0.5596869
6.821312 0.29917377 -0.56099683
6.8150554 0.25701255 -0.5602982
6.8095341 0.21497087 -0.5596869
6.812717 0.17323507 -0.55986154
6.7967196 0.13110216 -0.55837691
6.7884312 0.089277372 -0.55759096
6.7918396 0.047643799 -0.55785292
6.8029623 0.0059792371 -0.55881357
6.8347483 -0.03592876 -0.56160814
6.8483448 -0.078023374 -0.56283075
6.8666615 -0.1203732 -0.56449002
6.8827238 -0.1629037 -0.56597459
6.8955355 -0.20554696 -0.5671972
6.9110684 -0.24846075 -0.56868184
6.9213572 -0.29136369 -0.5697298
6.9333696 -0.33449811 -0.57095242
6.9918642 -0.38033128 -0.57627952
18.614481 -1.1264819 -1.59725
18.407429 -1.2273599 -1.5796968
18.378687 -1.3387634 -1.5778627
18.337355 -1.4489189 -1.574981
18.269558 -1.5564197 -1.5698285
18.162443 -1.6596088 -1.5612701
14.264349 -1.3918102 -1.2188507
18.088194 -1.8769169 -1.5566417
18.079308 -1.9881953 -1.5569037
10.588923 -1.2304435 -0.89695382
10.582162 -1.2955137 -0.89704114
10.572038 -1.3601661 -0.8968665
10.565467 -1.4252756 -0.89704114
10.568359 -1.4917476 -0.89808911
10.569848 -1.5581634 -0.89904976
13.852673 -2.1289027 -1.19108
13.829512 -2.2122877 -1.1902066
18.180801 -3.022753 -1.5781248
18.141298 -3.1306942 -1.5762908
14.585649 -2.6094265 -1.2613803
17.942831 -3.3236897 -1.5621434
13.460648 -2.5790482 -1.1639204
18.065844 -3.5763149 -1.5769022
18.070887 -3.6926813 -1.5793474
18.043016 -3.8024657 -1.5789107
18.010584 -3.9112017 -1.5781248
17.956108 -4.0149007 -1.5754175
17.869972 -4.1109333 -1.5699158
17.820177 -4.2147722 -1.5677326
17.711699 -4.3040428 -1.5603095
17.691721 -4.4143267 -1.5609208
8.24055 -2.110146 -0.70814723
8.1937237 -2.1518149 -0.7050907
17.440092 -4.6941776 -1.5457255
7.7028556 -2.1243074 -0.66291046
7.7002215 -2.1745088 -0.66387111
17.292355 -4.9975271 -1.5403984
8.0034933 -2.3665576 -0.69408715
7.975472 -2.4115856 -0.69286454
7.9595728 -2.4601827 -0.69277722
8.0165234 -2.5317724 -0.69941425
16.940353 -5.4641523 -1.5228451
16.869606 -5.5558414 -1.5194393
7.8250356 -2.6306572 -0.68614012
16.763407 -5.749835 -1.5160334
16.689259 -5.839098 -1.512453
16.623093 -5.9306803 -1.5096583
16.563921 -6.0243945 -1.5075625
16.450983 -6.0978723 -1.5004888
16.404869 -6.1955314 -1.4997028
16.311689 -6.274972 -1.4945503
16.244127 -6.3636765 -1.4918431
16.146479 -6.43998 -1.4863414
16.067894 -6.5231943 -1.4826735
16.026646 -6.6212816 -1.4825861
15.998572 -6.7248988 -1.4838088
15.942353 -6.8166718 -1.4824115
15.88561 -6.9080081 -1.4810143
15.811035 -6.991251 -1.4779577
15.732405 -7.0722055 -1.4745519
15.661531 -7.1561847 -1.4719319
15.586608 -7.2378831 -1.4689628
15.531993 -7.3287086 -1.4680022
15.479547 -7.4204283 -1.4673035
15.420289 -7.508728 -1.4659935
15.355174 -7.5939302 -1.4641596
15.293156 -7.6804051 -1.4626751
15.22888 -7.7654996 -1.4610158
15.169444 -7.8528428 -1.4598805
15.111274 -7.9406757 -1.4589199
13.070471 -6.9710116 -1.2610309
14.973268 -8.1041794 -1.45499
14.912781 -8.1901474 -1.4539421
14.857895 -8.2790718 -1.4535054
14.799011 -8.3656702 -1.4527194
12.408015 -7.1149621 -1.2163182
12.60955 -7.3336926 -1.2412071
12.578901 -7.4195285 -1.2426918
13.034129 -7.7962151 -1.2938669
14.449402 -8.7635164 -1.4438992
14.342746 -8.8196602 -1.4384848
14.241018 -8.8779888 -1.4335942
12.309178 -7.7790093 -1.2389365
14.094929 -9.0289745 -1.4298391
14.041769 -9.1169167 -1.4301012
13.992222 -9.207284 -1.4307997
13.943752 -9.2984924 -1.431673
13.890562 -9.3866634 -1.4321097
13.839281 -9.4762201 -1.4328083
13.785787 -9.5643644 -1.4333323
13.745586 -9.6619482 -1.4353409
13.732296 -9.7790442 -1.4403187
13.889362 -10.019894 -1.4638103
13.736732 -10.038513 -1.4539421
13.621232 -10.082902 -1.448091
13.522444 -10.138802 -1.4440738
13.409997 -10.183628 -1.438572
13.305408 -10.233532 -1.4339436
13.219574 -10.297227 -1.431411
13.102175 -10.335577 -1.4253854
12.95912 -10.352359 -1.4164777
12.841914 -10.388451 -1.4104519
12.764058 -10.455688 -1.40888
12.697363 -10.531903 -1.408618
12.615718 -10.59552 -1.4066968
12.563369 -10.6837 -1.4081813
12.484745 -10.749537 -1.4066968
12.429816 -10.835757 -1.4080067
12.360854 -10.909844 -1.4077448
12.284766 -10.977518 -1.4066968
12.203142 -11.039991 -1.4050375
12.102114 -11.084384 -1.4011077
11.976165 -11.104925 -1.3942087
11.875116 -11.14752 -1.3902788
11.796383 -11.210567 -1.3890562
11.710144 -11.266162 -1.3869603
11.599404 -11.297489 -1.3818952
11.485176 -11.324387 -1.3763934
11.399258 -11.378459 -1.3743848
11.336934 -11.455978 -1.3753455
11.274785 -11.533873 -1.3763934
11.212106 -11.611436 -1.3774413
11.144774 -11.684339 -1.3779653
11.062623 -11.741626 -1.3766553
6.9454064 -7.46314 -0.85617089
10.917028 -11.875764 -1.3765681
10.829891 -11.927038 -1.3747342
10.717926 -11.950253 -1.369669
6.741003 -7.6097169 -0.85363835
6.6856561 -7.6411896 -0.85250306
6.5832767 -7.6180034 -0.84508002
10.248096 -12.006624 -1.3462647
10.170379 -12.06471 -1.3457407
10.099346 -12.130714 -1.3461773
10.027255 -12.195533 -1.3465266
9.9490957 -12.252962 -1.34609
9.8861895 -12.329322 -1.3478366
9.8084974 -12.387407 -1.3475746
2.0320182 -2.5994141 -0.25167534
1.9995928 -2.5905437 -0.24931744
1.981848 -2.6003876 -0.24905545
1.9640578 -2.6101112 -0.24879345
1.9485997 -2.6229129 -0.24888079
1.9330584 -2.635623 -0.24896812
1.9186031 -2.6498549 -0.2492301
0 -0 -0
9.0908642 -12.883046 -1.3446927
1.8951244 -2.7215056 -0.25315994
1.8891124 -2.7486799 -0.25481921
1.8750076 -2.7643414 -0.25525585
1.8602276 -2.7791052 -0.25560516
8.6666908 -13.118443 -1.3407629
8.5746098 -13.153849 -1.3389289
8.4689484 -13.167673 -1.3349118
8.3661108 -13.184904 -1.3313313
8.2802944 -13.22839 -1.3305453
8.1947842 -13.272166 -1.3298467
8.1095657 -13.316243 -1.3292354
8.0261679 -13.36319 -1.3289734
7.9440212 -13.412186 -1.3289734
7.874639 -13.483043 -1.331244
7.811646 -13.565638 -1.3347372
7.7385902 -13.631506 -1.3365711
7.6450729 -13.661345 -1.3348244
7.556293 -13.699275 -1.3339512
7.4849401 -13.769012 -1.3363091
7.4007845 -13.815558 -1.3363965
7.2982039 -13.827231 -1.3330779
7.209547 -13.864681 -1.3323792
7.1207061 -13.901565 -1.3316807
7.0191193 -13.912976 -1.3285367
6.9349484 -13.95846 -1.3287988
6.8421659 -13.986431 -1.3274015
6.7212033 -13.955453 -1.3203278
6.6230717 -13.970327 -1.3177953
6.5250106 -13.984523 -1.3152627
6.4419904 -14.030634 -1.315874
6.3459358 -14.048109 -1.313778
6.2624507 -14.093155 -1.3143893
6.1850348 -14.152309 -1.3163979
6.1201086 -14.241247 -1.3212883
6.0326109 -14.278531 -1.3212883
5.9433575 -14.311598 -1.3209391
5.8663478 -14.374543 -1.3234717
5.7880473 -14.435232 -1.3258295
5.7044768 -14.483452 -1.3270521
5.624126 -14.54048 -1.3291481
5.5362163 -14.57844 -1.3294973
5.4546633 -14.633604 -1.331506
5.3620329 -14.659313 -1.3308073
5.2679462 -14.680686 -1.3297594
5.1774373 -14.711794 -1.3296721
5.0854454 -14.738577 -1.3292354
4.992362 -14.761953 -1.3285367
4.9004369 -14.788526 -1.3281875
4.8071437 -14.810736 -1.3274888
4.7143655 -14.834257 -1.3269649
4.6211843 -14.856246 -1.3263535
4.5154376 -14.836671 -1.321987
4.397316 -14.773394 -1.3136908
4.2826467 -14.717838 -1.3061804
4.1887169 -14.731382 -1.3050451
4.1505008 -14.944936 -1.3221617
4.0516829 -14.944162 -1.3198038
3.9351959 -14.875326 -1.3113328
3.8533061 -14.935846 -1.3146514
3.7343776 -14.851006 -1.3048705
3.6422353 -14.86977 -1.3045211
3.5664101 -14.956761 -1.3103722
3.4786224 -14.995831 -1.3119441
3.3907087 -15.035357 -1.3136034
3.3064916 -15.092855 -1.3169219
3.2171369 -15.12845 -1.3183192
3.1300862 -15.176199 -1.3208518
3.0429611 -15.225402 -1.3235589
2.9509966 -15.251611 -1.3242576
2.8590083 -15.278243 -1.3250436
2.7664497 -15.30236 -1.3256549
2.6749012 -15.332786 -1.3268775
0.44996011 -2.6781037 -0.20050019
0.42890307 -2.6522961 -0.19796763
0.41828686 -2.6912985 -0.20119882
0.39941198 -2.6780503 -0.19980155
0.38353646 -2.6843951 -0.20015086
0.26608369 -1.9484289 -0.13482831
0.25257614 -1.9381713 -0.13378036
0.24252205 -1.9545132 -0.13509031
0.2293568 -1.9460714 -0.13421701
0.21486482 -1.9246719 -0.13220844
0.20179537 -1.9140661 -0.13116047
0.19152567 -1.9301375 -0.13247041
0.18208367 -1.9570652 -0.13474099
0.1683439 -1.938297 -0.1329944
0.15700972 -1.9462441 -0.1336057
0.15152159 -2.0335977 -0.14120337
0.15927204 -2.3296618 -0.16714028
0.12872548 -2.0701025 -0.14425991
0.11014982 -1.9664195 -0.13509031
0.097982392 -1.9650685 -0.13491565
0.086360194 -1.9755849 -0.13578895
0.075740628 -2.0158963 -0.13928212
0.063086465 -2.0073621 -0.13849616
0.048509363 -1.9190801 -0.13072383
0.035808198 -1.871534 -0.126532
0.024416123 -1.8786911 -0.12714331
0.020231156 -2.9167986 -0.21814077
0.0022158839 -2.7913492 -0.20713724
-0.013969173 -2.610008 -0.19124325
-0.03005136 -2.61585 -0.19176723
-0.057134233 -3.2470977 -0.24713419
-0.078679383 -3.3154032 -0.25315994
-0.10005766 -3.349709 -0.25621647
-0.12057347 -3.3480365 -0.25612915
-0.13806 -3.2745767 -0.24975409
-0.15575249 -3.2239165 -0.2453876
-0.16385607 -3.0080426 -0.22652441
-0.18110693 -2.9870932 -0.22477782
-0.2035397 -3.0475521 -0.23019226
-1.1670732 -16.020996 -1.3706297
-1.2653543 -16.013535 -1.3706297
-1.3629959 -15.998521 -1.3700184
-1.4568758 -15.94323 -1.3659139
-1.5503222 -15.889375 -1.361984
-0.30642501 -2.9498086 -0.22241992
-0.32538992 -2.9557946 -0.22311856
-1.7601147 -15.148656 -1.2993686
-1.8560573 -15.162292 -1.3015519
-0.48483673 -3.7664139 -0.29534015
-0.50780475 -3.7623808 -0.2952528
-0.43135592 -3.0539136 -0.23281214
-0.4435502 -3.0068603 -0.22888231
-0.4678919 -3.0424824 -0.23228817
-0.48796737 -3.0484073 -0.23307413
-0.50911331 -3.0600963 -0.23438407
-0.47672495 -2.7604496 -0.20801054
-0.48190144 -2.6917713 -0.20215945
-0.4985902 -2.6897433 -0.20224679
-0.52126992 -2.7189202 -0.20512865
-3.1641192 -15.983387 -1.3908027
-3.2549529 -15.928535 -1.387659
-0.55459017 -2.6299081 -0.19805495
-0.56733441 -2.6108797 -0.19665769
-0.57704055 -2.5791564 -0.19412513
-0.5948649 -2.5843046 -0.19491109
-0.60841805 -2.5709114 -0.1940378
-0.61571383 -2.5322814 -0.19089393
-3.9045455 -15.648431 -1.3763061
-3.9844294 -15.56145 -1.3706297
-0.64198154 -2.4434376 -0.18390755
-0.6854406 -2.5452669 -0.19351381
-4.260922 -15.451861 -1.3675731
-0.9158442 -3.2422669 -0.25778842
-0.94374132 -3.2643399 -0.26032096
-4.5516791 -15.394696 -1.3697563
-0.80211157 -2.6517732 -0.20530331
-0.8518979 -2.7553034 -0.2152589
-4.7940788 -15.181014 -1.3580542
-5.0063934 -15.521067 -1.3921127
-5.162919 -15.676455 -1.4093167
-5.2605977 -15.649202 -1.4097533
-5.3668623 -15.646783 -1.4125478
-5.4726372 -15.641768 -1.4151677
-5.5798907 -15.639794 -1.418137
-1.2080568 -3.3205795 -0.27219778
-5.8074007 -15.667287 -1.4272193
-5.8904023 -15.596877 -1.423988
-1.1741964 -3.051393 -0.24905545
-1.2121546 -3.0932913 -0.25368392
-1.3222624 -3.3143456 -0.27525434
-1.3628079 -3.3560133 -0.27997014
-1.2841009 -3.1072836 -0.25717711
-1.2398387 -2.9487357 -0.24285504
-1.2563419 -2.9374087 -0.24250573
-6.7121682 -15.435229 -1.4379607
-6.7982912 -15.37462 -1.4361268
-1.3767699 -3.0618887 -0.25674045
-1.4137468 -3.093251 -0.26058295
-7.0079746 -15.091475 -1.4211061
-7.0838647 -15.013055 -1.4177003
-1.9208481 -4.0063362 -0.35192972
-7.3081217 -15.00829 -1.4258219
-1.4139082 -2.8582292 -0.24198174
-1.351843 -2.6910384 -0.22643708
-1.354754 -2.6560688 -0.22381718
-1.3769792 -2.6592071 -0.22495247
-1.39466 -2.6533537 -0.22521447
-1.4113832 -2.6456251 -0.2253018
-1.9306693 -3.5664566 -0.3179585
-1.9534754 -3.5562894 -0.31813318
-1.4850546 -2.6644492 -0.22984293
-1.5136305 -2.6769674 -0.23202617
-1.5230904 -2.6555309 -0.23080356
-8.6257744 -14.831298 -1.4665176
-8.7226877 -14.788388 -1.4675655
-5.0554495 -8.4516954 -0.82578021
-8.9055738 -14.683641 -1.4679148
-8.987155 -14.615144 -1.4665176
-1.3705363 -2.1978085 -0.18949665
-1.3823996 -2.1868312 -0.18923466
-5.2215176 -8.1508789 -0.81102151
-5.2703471 -8.1170158 -0.81084681
-1.4152993 -2.1501968 -0.18809938
-1.4102279 -2.1141214 -0.1852175
-9.725215 -14.391583 -1.4851187
-9.812211 -14.329995 -1.4849441
-9.9096069 -14.283434 -1.4864287
-5.5890274 -7.9509435 -0.81442732
-1.6697223 -2.3441446 -0.21473491
-1.6764979 -2.3233523 -0.21359962
-1.6454655 -2.2510893 -0.20687525
-1.6924367 -2.2857897 -0.21176571
-1.6998569 -2.2665944 -0.21080507
-1.6342084 -2.1513979 -0.19927756
-1.5787524 -2.0520997 -0.18940933
-1.6243699 -2.0848131 -0.19412513
-1.6371315 -2.0748069 -0.19412513
-10.952962 -13.710994 -1.500838
-10.994282 -13.590863 -1.4948996
-11.076836 -13.522377 -1.4948124
-1.6258683 -1.9596288 -0.18565415
-1.6288925 -1.938936 -0.18443154
-1.6420496 -1.9304225 -0.18460619
-1.6584133 -1.9255953 -0.1852175
-1.6754341 -1.9213907 -0.18591614
-1.687192 -1.9110742 -0.18591614
-1.69955 -1.9014286 -0.18600348
-1.7265559 -1.9079558 -0.18801205
-1.7422674 -1.9017338 -0.18853603
-2.2727273 -2.4505637 -0.25543052
-2.2952204 -2.4445617 -0.25639114
-3.1912949 -3.35764 -0.36852235
-3.350657 -3.4822931 -0.38607562
-2.3738849 -2.4368689 -0.26067027
-12.446932 -12.623715 -1.5165575
-3.3726659 -3.3784297 -0.38092315
-3.2418079 -3.2077148 -0.36223462
-3.3739793 -3.2977905 -0.37603271
-3.3862681 -3.2694142 -0.37507206
-3.3911276 -3.2341356 -0.37323815
-12.955344 -12.206211 -1.5228451
-3.5049403 -3.2615037 -0.38214576
-2.5663726 -2.3587596 -0.26800597
-3.5048754 -3.1820841 -0.37742996
-3.5109859 -3.148546 -0.37585804
-3.4676037 -3.0714545 -0.36852235
-2.6069934 -2.2806354 -0.26608473
-3.4914675 -3.0169456 -0.36695042
-3.3659527 -2.8725834 -0.3503578
-13.559052 -11.430153 -1.5170814
-13.619743 -11.339092 -1.5160334
-3.3797841 -2.778506 -0.34599131
-3.9458344 -3.2035661 -0.40799534
-3.823972 -3.065872 -0.39210135
-13.614326 -10.780037 -1.4847695
-13.703757 -10.714706 -1.4873893
-13.772398 -10.632855 -1.4877386
-3.2912123 -2.5084846 -0.32520688
-11.256996 -8.4723406 -1.1975423
-11.26959 -8.3739948 -1.1932632
-11.36574 -8.3376865 -1.1981536
-4.0835619 -2.9569342 -0.40441483
-14.178742 -10.136107 -1.4903585
-3.0972533 -2.1851888 -0.29472885
-3.1130555 -2.1678512 -0.29499084
-3.0680139 -2.1086409 -0.28879043
-3.1501405 -2.1367569 -0.2961261
-3.137531 -2.1002069 -0.29341888
-3.1220994 -2.0622451 -0.29044968
-3.1422048 -2.0479457 -0.29123566
-3.2586031 -2.0954497 -0.30206451
-5.72328 -3.6312766 -0.55663031
-3.4453497 -2.1562612 -0.31874448
-3.4313917 -2.1183321 -0.31594992
-15.102939 -9.1977234 -1.5126276
-3.6074274 -2.1663415 -0.33131993
-3.5855107 -2.1233506 -0.32773942
-3.619977 -2.1138711 -0.32992268
-15.501083 -8.9262209 -1.5305301
-15.609273 -8.861433 -1.5359446
-15.683346 -8.776679 -1.5379531
-3.8556852 -2.1264017 -0.34843653
-3.9097948 -2.125066 -0.35254103
-3.9385664 -2.1095035 -0.35411298
-3.9496739 -2.0843673 -0.35393831
-3.8625176 -2.0081575 -0.34407008
-3.904912 -1.9998617 -0.34703928
-3.9091048 -1.9718255 -0.34625331
-7.6778803 -3.8143809 -0.71399832
-7.6805592 -3.7571294 -0.7119897
-7.7025704 -3.7094994 -0.71190238
-16.623926 -7.8811784 -1.5752429
-10.044978 -4.6867409 -0.93415624
-5.779685 -2.6534095 -0.51995188
-5.7804236 -2.610924 -0.51846731
-5.7954249 -2.5750022 -0.51837999
-5.8038135 -2.5362022 -0.5176813
-10.148321 -4.3610673 -0.93075037
-10.157454 -4.2913494 -0.9290911
-10.304113 -4.2789969 -0.94053131
-10.289593 -4.1991286 -0.93668878
-10.24397 -4.1073647 -0.92996442
-9.6266594 -3.7914269 -0.86944503
-10.463626 -4.0471148 -0.94594574
-10.477086 -3.9785907 -0.94489777
-10.360353 -3.8616872 -0.93171102
-10.41379 -3.808996 -0.93450558
-10.458531 -3.7527654 -0.93651414
-10.433437 -3.6716557 -0.9320603
-10.407743 -3.5909958 -0.92760652
-7.8137383 -2.6423371 -0.68552881
-7.8042731 -2.5858822 -0.68317091
-10.398172 -3.374825 -0.92079479
-10.45571 -3.3227274 -0.92420065
-10.535828 -3.2771523 -0.9297024
-10.532866 -3.2054822 -0.92760652
-10.384295 -3.0907712 -0.91223651
-10.920531 -3.1775854 -0.95948184
-10.903412 -3.1001642 -0.95616329
-10.877116 -3.0206738 -0.95205879
-9.7080402 -2.631912 -0.84420675
-11.070341 -2.928499 -0.96629351
-11.102571 -2.8642509 -0.9676035
-11.120903 -2.7963157 -0.96769083
-11.181392 -2.7386928 -0.97162062
-11.206707 -2.6721132 -0.97240663
-11.166608 -2.5902419 -0.96734148
-11.415516 -2.5742784 -0.98830062
-11.481697 -2.5152726 -0.99284172
-11.325423 -2.4083016 -0.97747171
-11.306815 -2.3319223 -0.9745025
-11.493814 -2.2970624 -0.98995984
-11.509648 -2.2268729 -0.99013454
-11.5652 -2.1640892 -0.99388969
-11.591004 -2.0953898 -0.99502498
-11.976558 -2.0892966 -1.0282103
-11.809376 -1.985538 -1.012229
-11.954092 -1.9345282 -1.0240184
-13.250299 -2.0609865 -1.1379836
-13.384869 -1.9978851 -1.1488124
-14.197624 -2.0302489 -1.2197241
-15.187922 -2.0768733 -1.3062677
-15.882949 -2.072736 -1.3666124
-15.792557 -1.9624627 -1.3575302
-19.635891 -2.3178999 -1.6957577
-20.160587 -2.2545094 -1.7408198
-21.932476 -2.3165233 -1.8958299
-22.20302 -2.2074349 -1.9184483
-22.199286 -2.0695858 -1.9169637
-22.308825 -1.9418019 -1.925522
-22.332233 -1.8058448 -1.9265699
-22.335939 -1.6682632 -1.9259586
-22.314947 -1.5290694 -1.9232514
-22.325897 -1.3922427 -1.923426
-22.313133 -1.2540531 -1.9215921
-22.310459 -1.1166205 -1.9207188
-22.309923 -0.9793992 -1.9201075
-22.307549 -0.84218884 -1.9194089
-22.306322 -0.70510745 -1.9188849
-19.39607 1.4299994 -1.9103374
-19.375029 1.5480328 -1.9091414
-19.350296 1.6656057 -1.9076464
-19.317913 1.7822931 -1.9054538
-19.28681 1.898841 -1.9034605
-19.258961 2.0154889 -1.9018657
-19.22843 2.1316471 -1.9000717
-19.206095 2.2485487 -1.8991748
-19.183048 2.3652563 -1.8982778
-19.180016 2.4844513 -1.8994738
-19.165396 2.6022248 -1.8995734
-19.153994 2.7204723 -1.9000717
-19.128082 2.8366337 -1.8991748
-19.104418 2.9530356 -1.8985767
-19.068256 3.0673571 -1.8967828
-19.040243 3.1828229 -1.8958857
-19.009571 3.2977202 -1.8947895
-18.982124 3.4130657 -1.8940917
-18.950064 3.5274699 -1.8929954
-18.907545 3.6397278 -1.8909024
-18.881927 3.7550914 -1.8906034
-18.840014 3.8670757 -1.8887097
-18.806196 3.9805419 -1.8877131
-18.763918 4.0920424 -1.8859191
-18.724865 4.2040462 -1.8845237
-18.668663 4.3119173 -1.8814341
-18.63895 4.4256949 -1.881135
-18.59791 4.5366759 -1.8797396
-18.557177 4.647562 -1.878444
-18.520601 4.7593575 -1.8776467
-18.488163 4.8721471 -1.8773477
-18.45792 4.985497 -1.8773477
-18.435612 5.101047 -1.8782446
-18.418325 5.2181392 -1.8797396
-18.39934 5.3349338 -1.881135
-18.386292 5.4536729 -1.8832281
-18.369621 5.5715861 -1.885022
-18.356949 5.6909728 -1.8873144
-18.339706 5.8092117 -1.8892081
-18.332117 5.9308228 -1.8921981
-18.314276 6.049438 -1.8941914
-18.301327 6.1699648 -1.8967828
-18.281002 6.2882938 -1.8986764
-18.261789 6.4072647 -1.9007695
-18.271786 6.5369635 -1.9060518
-18.279005 6.6663437 -1.9111348
-18.277861 6.7932844 -1.9154205
-18.266541 6.9169374 -1.9187095
-18.239538 7.0349765 -1.9204038
-18.236778 7.1627674 -1.9247892
-18.215582 7.2837687 -1.9272809
-18.206488 7.4100313 -1.9311678
-18.181822 7.5303631 -1.9334602
-18.172867 7.6576266 -1.9375466
-18.146574 7.7780061 -1.9398389
-18.150497 7.911871 -1.9455199
-18.12344 8.0327692 -1.947912
-18.136404 8.1720295 -1.954789
-18.123011 8.300148 -1.9588753
-18.096998 8.4229507 -1.961666
-18.060266 8.5410662 -1.9633603
-18.034426 8.664649 -1.9663504
-18.014006 8.7912922 -1.9700381
-18.072054 8.9573421 -1.9825962
-18.002531 9.0609026 -1.9810015
-17.956343 9.1761751 -1.9820977
-17.957993 9.3164253 -1.9886758
-17.92338 9.4384937 -1.9912672
-17.900229 9.5670547 -1.9952538
-17.879673 9.6975842 -1.9996392
-17.856445 9.827261 -2.0038252
-17.824478 9.952651 -2.0071142
-17.792509 10.078508 -2.0105028
-17.75449 10.201372 -2.0132935
-17.716492 10.324651 -2.0161839
-17.677647 10.447845 -2.0190742
-17.643932 10.574533 -2.0226622
-17.611877 10.70275 -2.0265493
-17.56451 10.822097 -2.0287421
-17.532377 10.951282 -2.0328283
-17.485025 11.071428 -2.0352204
-17.434349 11.189794 -2.0373135
-17.394552 11.31555 -2.0408018
-17.348053 11.437405 -2.0435925
-17.332151 11.580121 -2.0501704
-17.301966 11.714146 -2.0551538
-17.252737 11.83585 -2.0579445
-17.23126 11.977269 -2.0642235
-17.183475 12.101108 -2.0674129
-17.15345 12.238102 -2.0728946
-17.119162 12.372851 -2.0779774
-17.055767 12.487065 -2.0795722
-17.018785 12.621119 -2.0845556
-16.965687 12.743834 -2.0876453
-16.865 12.830824 -2.0848546
-16.737877 12.897015 -2.0787749
-16.634895 12.981108 -2.0757849
-16.525267 13.059488 -2.0719974
-16.423073 13.143229 -2.0692067
-16.328978 13.233102 -2.0675125
-16.206709 13.299589 -2.0622301
-16.109493 13.386062 -2.0602367
-16.027817 13.485296 -2.0603364
-15.902356 13.547251 -2.054755
-15.797836 13.626372 -2.0519645
-15.705686 13.71585 -2.050868
-15.622722 13.813278 -2.0510674
-15.506535 13.881001 -2.0468814
-15.404114 13.960518 -2.044589
-15.304235 14.04199 -2.0426953
-15.189356 14.10922 -2.0388083
-15.052485 14.155117 -2.0319314
-14.941566 14.224569 -2.0286424
-14.841109 14.303552 -2.0268483
-14.73811 14.379752 -2.0247552
-14.642521 14.46292 -2.0237586
-14.543653 14.542643 -2.0223632
-14.449951 14.627359 -2.0217652
-14.344641 14.700079 -2.0195725
-14.25003 14.783521 -2.0189745
-14.12063 14.830322 -2.0133932
-14.025277 14.912337 -2.0127952
-13.909134 14.971869 -2.0092072
-13.800861 15.039336 -2.0068152
-13.691617 15.105302 -2.0043235
-13.579429 15.167528 -2.0014331
-13.46831 15.230437 -1.9987422
-13.35497 15.290307 -1.9957522
-13.24855 15.357649 -1.9938585
-13.141809 15.42426 -1.9919648
-13.027061 15.481004 -1.9888752
-12.91402 15.539217 -1.9860845
-12.811486 15.609702 -1.9849881
-12.706068 15.676423 -1.9834931
-12.597828 15.73933 -1.9815995
-12.49608 15.810087 -1.9808021
-12.38843 15.873129 -1.9791077
-12.279262 15.933868 -1.9772141
-12.184876 16.013664 -1.9778121
-12.082804 16.083355 -1.9772141
-11.982705 16.155592 -1.9770148
-11.866893 16.206333 -1.9742241
-11.756154 16.263519 -1.9723305
-11.623779 16.289988 -1.9667491
-11.499544 16.326836 -1.962563
