# .PCD v0.7 - Point Cloud Data file format
VERSION 0.7
FIELDS x y z
SIZE 4 4 4
TYPE F F F
COUNT 1 1 1
WIDTH 1616
HEIGHT 1
VIEWPOINT 0 0 0 1 0 0 0
POINTS 1616
DATA ascii
-2.2875333 -2.1550586 -1.0466475
-2.2737255 -2.1158864 -1.033886
-2.3270297 -2.1389701 -1.0528647
-2.3590062 -2.1417949 -1.0616995
-2.3453619 -2.1033158 -1.0492653
-2.3730826 -2.1020377 -1.0561368
-2.3866472 -2.0880592 -1.0564641
-2.4051361 -2.0783162 -1.0590818
-2.4106534 -2.0573878 -1.0558096
-2.4210637 -2.0407312 -1.0548279
-2.4320867 -2.0246289 -1.0541735
-2.4335115 -2.0006702 -1.0492653
-2.4736269 -2.0083239 -1.0616995
-2.4822159 -1.990154 -1.0600635
-2.5032732 -1.9819216 -1.0639901
-2.519855 -1.9700149 -1.0659534
-2.5333917 -1.9556706 -1.0666078
-2.5581234 -1.9498225 -1.0721705
-2.5572 -1.9244347 -1.0666078
-2.5871689 -1.9222267 -1.074461
-2.5783367 -1.8912331 -1.0656261
-2.5998449 -1.8825783 -1.06988
-2.6067336 -1.8632952 -1.0679166
-2.6018991 -1.835831 -1.0610451
-2.6107879 -1.8182123 -1.0600635
-2.6133268 -1.7962738 -1.0564641
-2.623517 -1.7796748 -1.0561368
-2.6414566 -1.768272 -1.0590818
-2.6727614 -1.7655654 -1.0675894
-2.7476819 -1.7909042 -1.0940942
-3.9876428 -2.5637596 -1.599973
-2.7159801 -1.7231528 -1.0721705
-2.7385197 -1.7139709 -1.0770788
-2.7554188 -1.7011043 -1.0796965
-2.7900226 -1.6989005 -1.0895131
-2.8579233 -1.71627 -1.1127455
-2.8293653 -1.6756029 -1.0970391
-2.8534682 -1.6663066 -1.1026018
-2.8726485 -1.65395 -1.1062012
-2.9000039 -1.6460823 -1.1130728
-2.9116991 -1.6291795 -1.1137272
-2.9580557 -1.6313493 -1.1281247
-2.9995649 -1.6303051 -1.1405591
-3.040338 -1.6283664 -1.1526661
-3.1622787 -1.6687402 -1.1965133
-3.1841979 -1.6554039 -1.2010944
-3.2220554 -1.6500398 -1.2118926
-3.2785304 -1.6536292 -1.2298895
-3.315701 -1.6469245 -1.2403605
-3.3520627 -1.6394105 -1.2505043
-3.4702022 -1.670841 -1.292061
-3.5615211 -1.6879392 -1.3231466
-3.5975056 -1.6780303 -1.3329632
-4.0870113 -1.8757409 -1.5155507
-3.7651124 -1.7002175 -1.3889174
-3.7702918 -1.674783 -1.3869541
-3.8047457 -1.6622031 -1.3961163
-3.8322399 -1.646281 -1.4026606
-3.9885297 -1.6844596 -1.4576331
-3.968241 -1.6472828 -1.4461806
-4.0194011 -1.6396676 -1.4615598
-4.0899138 -1.639215 -1.4841379
-4.2520232 -1.6739343 -1.5407466
-4.3274422 -1.6730117 -1.5649607
-4.4021239 -1.6708906 -1.5888475
-4.5141344 -1.6817616 -1.6264776
-4.5705223 -1.6708924 -1.6434929
-4.6598587 -1.671189 -1.6726153
-4.7181659 -1.6594847 -1.6902851
-4.7827568 -1.6492822 -1.7102454
-4.8509789 -1.6395583 -1.7315146
-4.9228482 -1.630246 -1.7540926
-4.9857941 -1.6171991 -1.7733985
-5.0667772 -1.6091572 -1.7992487
-5.1406269 -1.597939 -1.8224812
-5.2805285 -1.6059318 -1.8696005
-5.3428187 -1.5891148 -1.8885791
-5.4150815 -1.5744932 -1.9111573
-5.4437299 -1.5466567 -1.9180288
-5.48772 -1.52282 -1.9304631
-5.5234122 -1.4962792 -1.9399524
-5.5425391 -1.4650143 -1.9435518
-5.5468483 -1.4297999 -1.9419156
-5.5610161 -1.3971186 -1.943879
-5.5749917 -1.3643172 -1.9458423
-5.5740652 -1.327896 -1.9425701
-5.5517282 -1.286635 -1.9317719
-5.5650501 -1.2537911 -1.9337353
-5.5606375 -1.216997 -1.9294814
-5.5790925 -1.1852088 -1.933408
-5.5927386 -1.1522872 -1.9356985
-5.5941434 -1.1168402 -1.9337353
-5.5981073 -1.0819569 -1.9327536
-5.6334367 -1.0529635 -1.9428973
-5.6286321 -1.0163648 -1.9389707
-5.6450028 -0.98359126 -1.9425701
-5.6369529 -0.94659108 -1.9376619
-5.6398563 -0.91153383 -1.9366802
-5.6378732 -0.87575233 -1.9340625
-5.6459446 -0.84155989 -1.9350441
-5.6444535 -0.80596751 -1.9327536
-5.6624007 -0.77310562 -1.9373347
-5.6792192 -0.73993182 -1.9415885
-5.6836524 -0.70507085 -1.9415885
-0 -0 -0
-0 -0 -0
-0 -0 -0
-0 -0 -0
-0 -0 -0
-0 -0 -0
-0 -0 -0
-0 -0 -0
-0 -0 -0
-0 -0 -0
-0 -0 -0
-0 -0 -0
-0 -0 -0
-0 -0 -0
-0 -0 -0
-0 -0 -0
-0 -0 -0
-5.5009117 -0.071425371 -1.8633834
-0 -0 -0
-0 -0 -0
-0 0 -0
-0 0 -0
-0 0 -0
-0 0 -0
-0 0 -0
-0 0 -0
-0 0 -0
-0 0 -0
-0 0 -0
-0 0 -0
-0 0 -0
-5.5536799 -0.14211276 -1.9505918
-0 -0 -0
-0 -0 -0
-0 -0 -0
-0 -0 -0
-0 0 -0
-0 0 -0
-0 0 -0
-0 0 -0
-0 0 -0
-0 0 -0
-0 0 -0
-0 0 -0
-0 0 -0
-0 0 -0
-0 0 -0
-0 0 -0
-0 0 -0
-0 0 -0
-0 0 -0
-0 0 -0
-0 0 -0
-0 0 -0
-0 0 -0
-0 0 -0
-0 0 -0
-0 0 -0
-0 0 -0
-0 0 -0
-0 0 -0
-0 0 -0
-0 0 -0
-0 0 -0
-0 0 -0
-5.4219694 1.0036633 -1.935738
-5.4092374 1.0356745 -1.9333749
-5.3880062 1.0659236 -1.9279734
-5.3666081 1.0959513 -1.922572
-5.364388 1.1298293 -1.92426
-5.3536749 1.161925 -1.9229096
-5.3455257 1.1945474 -1.922572
-5.3454347 1.2290112 -1.9252727
-5.3414574 1.262653 -1.9266231
-5.3390975 1.2967364 -1.9286486
-5.3392601 1.3315213 -1.9316869
-5.3255181 1.3628575 -1.9296614
-5.317966 1.3957475 -1.929999
-5.3047571 1.4271293 -1.928311
-5.2986226 1.4604019 -1.9293238
-5.2886562 1.4926306 -1.9289862
-5.2703547 1.5224414 -1.9256103
-5.2600112 1.5544844 -1.9252727
-5.2476707 1.5859132 -1.92426
-5.2189541 1.6122494 -1.9171706
-5.2161446 1.6465082 -1.9198713
-5.2041516 1.6779053 -1.9191961
-5.1910763 1.708923 -1.9181833
-5.1778159 1.7398434 -1.9171706
-5.1670427 1.7715811 -1.9171706
-5.158741 1.8041842 -1.9181833
-5.1395941 1.8329585 -1.915145
-5.1291351 1.8647815 -1.9154826
-5.1184793 1.8965452 -1.9158202
-5.1102686 1.9292455 -1.9171706
-5.0956988 1.9595518 -1.9161578
-5.0914679 1.99387 -1.9191961
-5.0773892 2.0243762 -1.9185209
-5.0674887 2.0565541 -1.9195337
-5.0512943 2.0861719 -1.9181833
-5.0305886 2.1138453 -1.915145
-5.00454 2.1391242 -1.9100813
-4.9982266 2.1727929 -1.912782
-4.9693031 2.1965716 -1.9067054
-4.9643178 2.2308791 -1.9100813
-4.976223 2.2730284 -1.9202089
-4.945106 2.2955937 -1.9134572
-4.9275217 2.3242869 -1.9121068
-4.9080739 2.3520377 -1.9100813
-4.900321 2.3854041 -1.912782
-4.8923426 2.4187639 -1.9154826
-4.8782506 2.4491596 -1.9158202
-4.8715177 2.4833202 -1.9191961
-4.8561883 2.5131645 -1.9191961
-4.829843 2.5372241 -1.9148074
-4.8224907 2.5712397 -1.9181833
-4.8041391 2.599438 -1.9171706
-4.7831478 2.6261489 -1.915145
-4.7537866 2.6481202 -1.9097437
-4.7513804 2.6851108 -1.9154826
-4.7290988 2.7109377 -1.9131196
-4.7066793 2.7365923 -1.9107565
-4.6841235 2.762074 -1.9083933
-4.6735506 2.7946274 -1.9110941
-4.6539006 2.8217874 -1.9100813
-4.6340928 2.8488114 -1.9090685
-4.6181235 2.8781877 -1.9097437
-4.6083345 2.9114966 -1.9131196
-4.5895905 2.9392104 -1.912782
-4.5769963 2.9709034 -1.915145
-4.5516033 2.994276 -1.9121068
-4.5354948 3.0237141 -1.9131196
-4.5145164 3.0499058 -1.9121068
-4.4972711 3.0786121 -1.912782
-4.4744287 3.1034667 -1.9110941
-4.4599233 3.13411 -1.9131196
-4.4383082 3.1597788 -1.9121068
-4.4234176 3.1902556 -1.9141324
-4.4075594 3.2201135 -1.9158202
-4.3930149 3.2510164 -1.9181833
-4.3699718 3.2756519 -1.916833
-4.3505402 3.302973 -1.9171706
-4.3309379 3.330179 -1.9175082
-4.3022528 3.3503294 -1.9137948
-4.2867885 3.3807442 -1.9161578
-4.2556663 3.3987608 -1.9114317
-4.2347317 3.4248092 -1.9114317
-4.2063551 3.4447651 -1.9080558
-4.1916604 3.4759171 -1.9110941
-4.1680913 3.4997556 -1.9100813
-0 0 -0
-4.1205492 3.5469568 -1.9080558
-4.0937405 3.5678444 -1.9056926
-4.0682421 3.5897822 -1.9040047
-4.0440331 3.6127956 -1.9029919
-4.0231857 3.6388042 -1.9036671
-4.0014768 3.664057 -1.9040047
-3.984442 3.6936598 -1.9067054
-3.9651353 3.7212586 -1.9083933
-3.9463222 3.749408 -1.9104189
-3.9327402 3.7826865 -1.915145
-3.9074328 3.8047762 -1.9141324
-3.8846841 3.8293409 -1.91447
-3.8544512 3.8464563 -1.9110941
-3.8387241 3.8780613 -1.915145
-3.8023522 3.8887558 -1.9087309
-3.7731876 3.9065971 -1.9060302
-3.7510958 3.9317186 -1.907043
-3.7307742 3.9587708 -1.9090685
-3.7019236 3.9767654 -1.9067054
-3.6755414 3.9973264 -1.9056926
-3.6528437 4.021894 -1.9067054
-3.6287258 4.0449324 -1.907043
-3.6057112 4.0692353 -1.9080558
-3.5806749 4.0912828 -1.9080558
-3.5511944 4.108192 -1.9056926
-3.5246978 4.1284728 -1.9050175
-3.4974792 4.1478634 -1.9040047
-3.47136 4.1685219 -1.9036671
-3.446913 4.1911974 -1.9043423
-3.4223185 4.2137294 -1.9050175
-3.392276 4.2295094 -1.9026543
-3.3685985 4.2531958 -1.9040047
-3.3424377 4.2737851 -1.9040047
-3.3144252 4.2919788 -1.9029919
-3.2863154 4.3099895 -1.9019791
-3.2586756 4.3285685 -1.901304
-3.23037 4.3462157 -1.9002912
-3.2069829 4.3705082 -1.9023167
-3.1801054 4.3901038 -1.9023167
-3.1509182 4.4064713 -1.9009664
-3.124907 4.4272599 -1.9016416
-3.0933781 4.4401722 -1.8989408
-3.0666087 4.4598451 -1.8992784
-3.0386574 4.4777985 -1.8989408
-3.0132201 4.4994874 -1.9002912
-2.9839981 4.5155354 -1.8992784
-2.9572635 4.535337 -1.8999536
-2.9293795 4.5533972 -1.8999536
-2.9013853 4.5712857 -1.8999536
-2.8747804 4.5913954 -1.9009664
-2.8450701 4.6065459 -1.8999536
-2.8196898 4.6287394 -1.9019791
-2.7868719 4.6386919 -1.8989408
-2.7602766 4.6589437 -1.9002912
-2.7335372 4.6790438 -1.9016416
-2.7043059 4.6949124 -1.901304
-2.6759124 4.7122359 -1.9016416
-2.6478679 4.7302089 -1.9023167
-2.6169748 4.7430706 -1.9009664
-2.5869234 4.7573848 -1.9002912
-2.5576837 4.7731681 -1.9002912
-2.528348 4.7887721 -1.9002912
-2.4989171 4.8041954 -1.9002912
-2.4698215 4.8202758 -1.9006288
-2.439774 4.8344994 -1.9002912
-2.4100642 4.8493786 -1.9002912
-2.3802636 4.8640752 -1.9002912
-2.3491476 4.8760448 -1.8992784
-2.3155539 4.8827128 -1.8962401
-2.2843559 4.8942699 -1.8952274
-2.2554612 4.9107604 -1.8962401
-2.2256744 4.925365 -1.8965777
-2.1957936 4.9397888 -1.8969153
-2.1665735 4.9557562 -1.8979281
-2.139843 4.9776044 -1.901304
-2.1096272 4.9915075 -1.9016416
-2.078238 5.0026193 -1.9009664
-2.0464358 5.0126629 -1.8999536
-2.01564 5.025125 -1.8999536
-1.9847686 5.0373983 -1.8999536
-1.9514441 5.0433369 -1.8975905
-1.9197934 5.0534558 -1.8969153
-1.8857893 5.0572028 -1.893877
-1.8524587 5.0624909 -1.8915139
-1.8188162 5.0666747 -1.8888133
-1.7848794 5.0697489 -1.885775
-1.7614186 5.102849 -1.8942146
-1.7342992 5.1260438 -1.8989408
-1.6850381 5.0829811 -1.8786856
-1.6631225 5.1218729 -1.8894883
-1.6268144 5.1167321 -1.8837494
-1.6015428 5.14639 -1.8911763
-1.5691123 5.153419 -1.8901635
-1.5396117 5.1701665 -1.8928642
-1.5091751 5.1840348 -1.8945522
-1.4770803 5.1922922 -1.8942146
-1.447714 5.2103267 -1.8975905
-1.4152237 5.2172947 -1.8969153
-1.3817389 5.2204208 -1.8948898
-1.3463863 5.2160411 -1.8901635
-1.308383 5.2004704 -1.8813863
-1.2793624 5.2202854 -1.885775
-1.2457777 5.2216282 -1.8834118
-1.2147795 5.2337584 -1.8850998
-1.1826428 5.2411137 -1.8850998
-1.1510665 5.25103 -1.8861125
-1.120393 5.2653589 -1.8888133
-1.0880643 5.2721348 -1.8888133
-1.0531093 5.2657895 -1.884087
-1.0234642 5.2860141 -1.8891507
-0.99066389 5.2903438 -1.8884757
-0.95550197 5.2815032 -1.8830742
-0.92534471 5.3002481 -1.8878005
-0.89280558 5.3058262 -1.8878005
-0.86098564 5.3158503 -1.8894883
-0.82748282 5.3154526 -1.8874629
-0.79526973 5.3232226 -1.8884757
-0.76205832 5.324275 -1.8871253
-0.72937483 5.3288507 -1.8871253
-0.69641989 5.3313589 -1.8864501
-0.66450804 5.3420706 -1.8888133
-0.63094348 5.3395038 -1.8864501
-0.59816903 5.3432746 -1.8864501
-0.56576824 5.3505888 -1.8878005
-0.53292698 5.3539596 -1.8878005
-0.50041592 5.3608775 -1.8891507
-0.46751276 5.3638468 -1.8891507
-0.43474412 5.3684912 -1.8898259
-0.40179551 5.3710575 -1.8898259
-0.3689608 5.3752999 -1.8905011
-0.33538398 5.3680682 -1.8871253
-0.30286381 5.3775434 -1.8898259
-0.26972044 5.3764801 -1.8888133
-0.23656003 5.3742723 -1.8874629
-0.20361537 5.3765631 -1.8878005
-0.17071132 5.3805337 -1.8888133
-0.13762133 5.3786569 -1.8878005
-0.10474453 5.3859882 -1.8901635
-0.071757749 5.3912354 -1.8918515
-0.03869687 5.3943982 -1.8928642
-0.0055946419 5.3926516 -1.8921891
0.027503606 5.3944669 -1.8928642
0.060518883 5.3866668 -1.8901635
0.093716219 5.3946643 -1.8932018
0.12672728 5.3902235 -1.8918515
0.15988216 5.3921671 -1.8928642
0.19313286 5.3957882 -1.8945522
0.22643402 5.3992038 -1.8962401
0.2592878 5.3920712 -1.8942146
0.29206261 5.3847394 -1.8921891
0.32453048 5.3734503 -1.8888133
0.3569333 5.3629045 -1.885775
0.38976455 5.3596749 -1.8854374
0.42190394 5.3477988 -1.8820615
0.45518777 5.3507366 -1.884087
0.48818165 5.3497176 -1.8847622
0.52045041 5.3410006 -1.8827366
0.55379415 5.3433242 -1.8847622
0.58811039 5.3538609 -1.8898259
0.62094998 5.3501515 -1.8898259
0.65296692 5.3397002 -1.8874629
0.68631798 5.3402615 -1.8891507
0.71882105 5.3340836 -1.8884757
0.75088 5.3249125 -1.8867877
0.78367597 5.321136 -1.8871253
0.81745344 5.3236704 -1.8898259
0.84906399 5.312048 -1.8874629
0.88117957 5.3039527 -1.8864501
0.91434699 5.3021564 -1.8878005
0.94719434 5.2982993 -1.8884757
0.97831613 5.2849832 -1.885775
1.0084256 5.2668619 -1.8813863
1.0409061 5.2614989 -1.8817239
1.0720408 5.2494793 -1.8796983
1.1024854 5.2345128 -1.87666
1.1373771 5.2405276 -1.8813863
1.1709474 5.239881 -1.8837494
1.2066612 5.2481928 -1.8894883
1.2384079 5.2388582 -1.8888133
1.2707516 5.2320752 -1.8891507
1.3032866 5.2260065 -1.8898259
1.3360281 5.2206469 -1.8908387
1.3701862 5.2205453 -1.893877
1.4019486 5.2111306 -1.8935394
1.4348973 5.2060604 -1.8948898
1.4675809 5.1998758 -1.8959025
1.4997202 5.1916771 -1.8962401
1.5288805 5.1733503 -1.8928642
1.5608671 5.164773 -1.8932018
1.5891949 5.1443057 -1.8891507
1.6227129 5.1407413 -1.8915139
1.6536477 5.1288962 -1.8908387
1.6833212 5.1132884 -1.8888133
1.7146641 5.1028633 -1.8888133
1.7502155 5.1047125 -1.8935394
1.7759123 5.0778832 -1.8874629
1.8130425 5.0837369 -1.893877
1.8425938 5.0680933 -1.8921891
1.8726754 5.0540438 -1.8911763
1.9043159 5.0442195 -1.8918515
1.9301641 5.0192609 -1.8867877
1.9605821 5.0064464 -1.8864501
1.9957954 5.0056896 -1.8908387
2.0278878 4.9968381 -1.8921891
2.0610242 4.9903913 -1.8945522
2.0908768 4.9759159 -1.893877
2.1246982 4.9707828 -1.8969153
2.1529071 4.9524727 -1.8948898
2.183635 4.9400301 -1.8952274
2.2112048 4.9205284 -1.8928642
2.2456563 4.9162869 -1.8965777
2.268647 4.8870463 -1.8905011
2.2989919 4.8738856 -1.8908387
2.3251939 4.8520474 -1.8878005
2.3512144 4.8300719 -1.8847622
2.3787212 4.8113346 -1.8830742
2.4128435 4.8059025 -1.8867877
2.441859 4.7901683 -1.8864501
2.471205 4.7750955 -1.8864501
2.4991448 4.7573423 -1.8854374
2.5322735 4.7493939 -1.8884757
2.5600238 4.7312832 -1.8874629
2.5912712 4.7196121 -1.8891507
2.6192653 4.7019787 -1.8884757
2.6485298 4.6866384 -1.8888133
2.6744282 4.6653991 -1.8867877
2.7077348 4.6570387 -1.8901635
2.735781 4.6395259 -1.8898259
2.766129 4.6258841 -1.8911763
2.7959249 4.611239 -1.8921891
2.8251519 4.5956006 -1.8928642
2.8503101 4.5733857 -1.8908387
2.8798263 4.558198 -1.8918515
2.9046953 4.5356855 -1.8898259
2.9293964 4.5130401 -1.8878005
2.9549637 4.4918346 -1.8864501
2.9751601 4.4626536 -1.8817239
3.0103898 4.4560146 -1.8867877
3.0334213 4.4312453 -1.884087
3.0621631 4.4148693 -1.8850998
3.0935237 4.4021587 -1.8878005
3.1210225 4.3838611 -1.8881381
3.1462109 4.3623381 -1.8871253
3.1756947 4.3467517 -1.8888133
3.2006264 4.324914 -1.8878005
3.2276678 4.3059473 -1.8881381
3.2563045 4.2890606 -1.8894883
3.2808392 4.2667608 -1.8884757
3.3110058 4.2517486 -1.8908387
3.3387802 4.2335701 -1.8918515
3.3611698 4.2085905 -1.8898259
3.38693 4.1878877 -1.8898259
3.4191225 4.1750383 -1.8935394
3.4464781 4.1561542 -1.8945522
3.4682834 4.1306033 -1.8925266
3.4978306 4.114265 -1.8948898
3.5223954 4.0920115 -1.8945522
3.5486739 4.0717411 -1.8952274
3.5692317 4.0449491 -1.8928642
3.5990002 4.0285888 -1.8955649
3.6249142 4.0078259 -1.8962401
3.6507089 3.9868972 -1.8969153
3.6731837 3.9623506 -1.8959025
3.6896977 3.9315009 -1.8918515
3.7176414 3.9128821 -1.893877
3.7376654 3.8859265 -1.8918515
3.7680051 3.869664 -1.8952274
3.7929995 3.8478119 -1.8959025
3.8205268 3.828464 -1.8979281
3.8419392 3.802963 -1.8969153
3.8645284 3.7786596 -1.8965777
3.8869641 3.7542222 -1.8962401
3.9072022 3.7277021 -1.8948898
3.9341114 3.7075317 -1.8969153
3.9602311 3.6865296 -1.8986033
3.981391 3.6608863 -1.8979281
4.0002952 3.6332235 -1.8962401
4.0211115 3.6073525 -1.8955649
4.0290809 3.5701253 -1.8888133
4.0686178 3.5608356 -1.8972529
4.0939503 3.538882 -1.8989408
4.1041341 3.5039158 -1.8935394
4.1341915 3.4859493 -1.8975905
4.1489935 3.4550951 -1.8945522
4.1679344 3.4277782 -1.8935394
4.1830435 3.397392 -1.8908387
4.2060137 3.3734283 -1.8918515
4.2281089 3.348726 -1.8925266
4.2582154 3.3302591 -1.8969153
4.2837839 3.3080962 -1.8992784
4.3032532 3.2811782 -1.8989408
4.3278165 3.2581093 -1.9009664
4.3530145 3.235424 -1.9033295
4.3477426 3.1902752 -1.8921891
4.3817186 3.1740308 -1.8986033
4.3949866 3.1427047 -1.8959025
4.4064975 3.1102498 -1.8925266
4.4448061 3.0966067 -1.9009664
4.4613962 3.0676756 -1.8999536
4.4770198 3.0381286 -1.8986033
4.4916668 3.007982 -1.8969153
4.520247 2.987112 -1.901304
4.5400677 2.9603486 -1.9019791
4.5605211 2.9339635 -1.9029919
4.5792327 2.90643 -1.9033295
4.6009688 2.8807755 -1.9050175
4.6209607 2.8539743 -1.9060302
4.6399932 2.8265464 -1.9067054
4.6507945 2.7941442 -1.9040047
4.6719003 2.7679541 -1.9056926
4.6839199 2.7363865 -1.9036671
4.7063313 2.7108843 -1.9060302
4.7310615 2.6866045 -1.9094061
4.7417078 2.6543057 -1.907043
4.7430706 2.6169748 -1.9009664
4.7623463 2.5896215 -1.9023167
4.7905908 2.5670214 -1.9073806
4.8129106 2.541095 -1.9100813
4.8284121 2.5115156 -1.9100813
4.8537836 2.4869933 -1.9141324
4.8756747 2.4605575 -1.916833
4.8738227 2.4222147 -1.9100813
4.9038115 2.3997126 -1.9161578
4.9184437 2.3695781 -1.9161578
4.9294887 2.3377409 -1.9148074
4.9411812 2.3062556 -1.9137948
4.9560943 2.2762866 -1.9141324
4.9648218 2.2435076 -1.9121068
4.9853749 2.2160611 -1.9148074
4.9971538 2.1846755 -1.9141324
5.0113292 2.1543443 -1.91447
5.0374589 2.1290524 -1.9195337
5.0512972 2.0984643 -1.9198713
5.0710492 2.0702775 -1.922572
5.0810361 2.0380716 -1.9215592
5.0943217 2.0072017 -1.9218968
5.1047859 1.9752262 -1.9212216
5.1088905 1.9408575 -1.9181833
5.1145296 1.9071708 -1.9158202
5.1270194 1.8760762 -1.9161578
5.1393199 1.8449003 -1.9164954
5.1532068 1.8142692 -1.9175082
5.1678009 1.7838444 -1.9188585
5.1902404 1.7560244 -1.9232472
5.2062783 1.7259221 -1.9252727
5.2275133 1.6974338 -1.9293238
5.2288599 1.6624737 -1.9259479
5.2452536 1.6323171 -1.928311
5.2497678 1.5984566 -1.9262855
5.2567706 1.5654083 -1.9252727
5.2698917 1.5341767 -1.9266231
5.2819223 1.5025852 -1.9276358
5.2928562 1.4706517 -1.928311
5.2990551 1.4374082 -1.9272983
5.3105049 1.4055896 -1.928311
5.319941 1.3732138 -1.9286486
5.3310051 1.3412346 -1.9296614
5.3391342 1.3084989 -1.9296614
5.3507252 1.276588 -1.9310117
5.3566236 1.2433068 -1.9303366
5.3641515 1.2104157 -1.9303366
5.3668799 1.176471 -1.9286486
5.3712358 1.1429304 -1.9276358
5.3781476 1.1099516 -1.9276358
5.3876257 1.077485 -1.9286486
5.3959842 1.0447649 -1.9293238
5.4022932 1.011636 -1.9293238
5.4139562 0.97947502 -1.9313493
5.423573 0.94688499 -1.9326997
5.4237118 0.91265118 -1.9306742
0 0 -0
0 0 -0
0 0 -0
0 0 -0
0 0 -0
0 0 -0
0 0 -0
0 0 -0
0 0 -0
0 0 -0
0 0 -0
0 0 -0
0 0 -0
0 0 -0
0 0 -0
0 0 -0
0 0 -0
0 0 -0
0 0 -0
0 0 -0
0 0 -0
0 0 -0
0 0 -0
0 0 -0
0 0 -0
0 0 -0
0 0 -0
0 -0 -0
0 -0 -0
0 -0 -0
0 -0 -0
0 -0 -0
0 -0 -0
0 -0 -0
0 -0 -0
0 -0 -0
0 -0 -0
0 -0 -0
5.521152 -0.40149516 -1.9435025
5.5242147 -0.43580851 -1.945528
0 -0 -0
5.5137639 -0.50313896 -1.94384
5.507762 -0.53668767 -1.9428273
5.5174732 -0.57183009 -1.9475535
5.5129251 -0.60557121 -1.9472159
0 -0 -0
0 -0 -0
0 -0 -0
5.5057321 -0.74193919 -1.9505918
5.4880266 -0.77386868 -1.9458656
5.5073876 -0.81109208 -1.9546429
5.5050988 -0.84529787 -1.9556557
5.5258346 -0.88321859 -1.9651082
5.4748111 -0.9095521 -1.9485663
5.4802585 -0.94504648 -1.9526174
5.4623103 -0.97650236 -1.9482287
5.4488111 -1.00863 -1.945528
5.4434443 -1.0422212 -1.9458656
5.4249425 -1.073228 -1.9414769
5.3961205 -1.101976 -1.9333749
5.3330703 -1.1232357 -1.912782
5.2469673 -1.1387742 -1.8837494
5.162714 -1.1537093 -1.855392
5.1142559 -1.1758771 -1.8402005
5.0116739 -1.1847222 -1.8050914
4.9393654 -1.1996825 -1.7811226
4.8688912 -1.2142559 -1.757829
4.8157525 -1.2324431 -1.7409496
4.7634864 -1.2502631 -1.7244078
4.7230015 -1.2706668 -1.7122546
4.6987815 -1.2951218 -1.7061781
4.6880288 -1.3231618 -1.7051653
4.7232299 -1.3644379 -1.7213695
4.7120609 -1.3925933 -1.7203567
4.7097349 -1.4233854 -1.7227198
4.7036104 -1.4530903 -1.7237326
4.6946058 -1.4819238 -1.7237326
4.6827369 -1.5098351 -1.7227198
4.6680198 -1.5367738 -1.7206943
4.6593947 -1.5656871 -1.7210319
4.6505909 -1.5945523 -1.7213695
4.6389422 -1.6224364 -1.7206943
4.6049609 -1.6423345 -1.7115794
4.6045284 -1.6740962 -1.7152929
4.5941696 -1.7023176 -1.7152929
4.5774732 -1.7281481 -1.7129297
4.5685406 -1.756878 -1.7136049
4.5550451 -1.7838475 -1.7125922
4.5387673 -1.8096718 -1.7105666
4.5249615 -1.8364253 -1.7095538
4.5005574 -1.8587667 -1.7044901
4.4812574 -1.8830653 -1.7014518
4.4549041 -1.9042381 -1.6957128
4.439683 -1.9300362 -1.6943624
4.4139814 -1.9511534 -1.688961
4.4130883 -1.9832153 -1.6933497
4.4008365 -2.0102563 -1.6933497
4.3952494 -2.0403917 -1.6960504
4.3579574 -2.0556781 -1.6862603
4.3503551 -2.0848198 -1.6882858
4.3214002 -2.1036472 -1.6818717
4.3075671 -2.1297061 -1.6815341
4.2885294 -2.1531408 -1.679171
4.2676897 -2.1755672 -1.6761327
4.2617841 -2.2056055 -1.679171
4.2531705 -2.23434 -1.6811965
4.2269216 -2.2537529 -1.6761327
4.2270875 -2.2872605 -1.6818717
4.2179246 -2.315872 -1.6838971
4.2118587 -2.3462894 -1.687273
4.1957436 -2.3711624 -1.6865979
4.1876488 -2.4006071 -1.6892986
4.1703987 -2.4248376 -1.6882858
4.1457114 -2.4446442 -1.6842347
4.1160908 -2.4613414 -1.6781582
4.0912519 -2.4806952 -1.6741072
4.0927939 -2.516103 -1.6811965
4.0764794 -2.5406709 -1.6808589
4.0624051 -2.5666411 -1.6815341
4.0552998 -2.5971026 -1.6852475
4.0440254 -2.6250112 -1.687273
4.0341339 -2.6539135 -1.6899738
4.0146408 -2.6765282 -1.6886234
4.0036025 -2.7047994 -1.6909865
3.9877079 -2.7298458 -1.6913241
3.9654682 -2.7505076 -1.688961
3.9308023 -2.7623413 -1.6811965
3.9275825 -2.7962337 -1.687273
3.9095876 -2.8197296 -1.6869355
3.880811 -2.8353369 -1.6818717
3.8572872 -2.8546166 -1.679171
3.8261409 -2.8680694 -1.6730944
3.8257151 -2.904582 -1.6808589
3.783941 -2.9096425 -1.6700561
3.7838416 -2.9466846 -1.6781582
3.7664289 -2.9704292 -1.6784958
3.7532806 -2.9975951 -1.6808589
3.7421365 -3.0264869 -1.6842347
3.7285941 -3.0535657 -1.6865979
3.7170336 -3.0823944 -1.6899738
3.6865158 -3.0954599 -1.6845723
3.6538262 -3.1064384 -1.6781582
3.6354103 -3.1294134 -1.6784958
3.6260753 -3.1603186 -1.6832221
3.6193211 -3.1937177 -1.6892986
2.4350111 -2.1755691 -1.1292398
2.4209182 -2.1898377 -1.1289022
2.4025762 -2.2002015 -1.1265391
3.4935994 -3.2387066 -1.6666802
3.4983723 -3.2832696 -1.6788334
3.4849851 -3.3111563 -1.6822093
3.4646027 -3.3324776 -1.6822093
3.4427409 -3.35236 -1.6815341
3.406687 -3.3582237 -1.6737696
3.4006767 -3.3936903 -1.6811965
3.3665445 -3.401114 -1.6744447
3.3508773 -3.4270906 -1.6771455
3.3140903 -3.4313385 -1.6690433
3.2988219 -3.4577379 -1.6720816
3.264631 -3.4642143 -1.6653298
3.248445 -3.489692 -1.6680305
3.2320688 -3.5151012 -1.6707313
3.21487 -3.5397439 -1.6730944
3.1937187 -3.5601039 -1.673432
3.177433 -3.5859733 -1.6764703
3.15909 -3.6096518 -1.6784958
3.1381133 -3.6303918 -1.679171
3.119446 -3.6538737 -1.6811965
3.1012154 -3.6779826 -1.6835597
3.0846133 -3.7041748 -1.6869355
3.0474761 -3.7055848 -1.6788334
3.0270555 -3.7271364 -1.6801838
2.9988282 -3.7390316 -1.6771455
2.976414 -3.7580996 -1.677483
1.9981391 -2.5551715 -1.1214753
1.983574 -2.5688736 -1.1221505
1.9637789 -2.575757 -1.1197873
1.9456725 -2.5847502 -1.1184371
1.9280914 -2.5943737 -1.1174242
1.9099087 -2.6031199 -1.1160738
1.8038825 -2.4905407 -1.0610471
1.6478417 -2.3047931 -0.97428685
1.6532117 -2.3425441 -0.98644006
2.7005415 -3.8763928 -1.6525015
2.7081752 -3.9386499 -1.6724192
2.6834285 -3.9544139 -1.6720816
2.6543999 -3.9637661 -1.6690433
2.6269145 -3.9752667 -1.6670178
2.5999024 -3.9873681 -1.6653298
2.5702939 -3.9953301 -1.6619539
2.5295875 -3.9855955 -1.6511512
2.5010879 -3.9946597 -1.6484505
2.4710886 -4.0011215 -1.644737
2.4504097 -4.0226393 -1.6474377
2.4218025 -4.0311446 -1.644737
2.3835864 -4.0232544 -1.6352845
2.3731017 -4.0621858 -1.6454121
2.3542404 -4.0872736 -1.6498008
2.3263278 -4.0967307 -1.6477753
2.2947092 -4.0994291 -1.643049
2.2581425 -4.0928288 -1.6346093
2.229389 -4.0999923 -1.6319087
2.2117491 -4.1276984 -1.6376476
2.2004459 -4.1678271 -1.6484505
2.1804786 -4.1921062 -1.6528391
2.1547153 -4.2054067 -1.6528391
2.1386263 -4.2378755 -1.6606036
2.114259 -4.2542896 -1.6619539
2.0897706 -4.2705646 -1.6633043
2.0651619 -4.2866983 -1.6646546
2.0404341 -4.3026915 -1.666005
2.0151894 -4.3176889 -1.6670178
1.4291197 -3.1119435 -1.1862923
1.4096106 -3.119796 -1.1859547
1.390059 -3.1275263 -1.1856171
1.3757453 -3.1472085 -1.1900057
1.8873742 -4.3904438 -1.6720816
1.8582003 -4.39674 -1.6700561
1.8308262 -4.4071894 -1.6697185
1.8033938 -4.417469 -1.6693809
1.7752033 -4.4258304 -1.6683681
1.7442173 -4.4270062 -1.6646546
1.7214375 -4.4490371 -1.6690433
1.6961124 -4.4647956 -1.6710688
1.6693429 -4.4768825 -1.671744
1.643783 -4.4923449 -1.6737696
1.6168238 -4.504118 -1.6744447
1.5879059 -4.5104027 -1.6730944
1.5602007 -4.520061 -1.6730944
1.5303246 -4.5233078 -1.6707313
1.5028375 -4.5335059 -1.6710688
1.4735384 -4.5381656 -1.6693809
1.4459503 -4.5480185 -1.6697185
1.4180169 -4.5568051 -1.6697185
1.3922241 -4.5726237 -1.6724192
1.3619912 -4.573863 -1.6697185
1.3339008 -4.5821342 -1.6697185
1.3018959 -4.5766521 -1.6646546
1.2773185 -4.5972509 -1.6693809
1.2503186 -4.6095443 -1.6710688
1.2212888 -4.6143994 -1.6700561
1.196247 -4.6345658 -1.6747823
1.170544 -4.6527729 -1.6788334
0.72465008 -2.9575863 -1.0502442
0 -0 -0
0 -0 -0
0.67609841 -2.9970512 -1.0600343
0.65809935 -3.0029821 -1.0607095
0.63907307 -3.0042017 -1.0596967
0.61472756 -2.9794891 -1.0492314
0.60234344 -3.0127409 -1.0600343
0.57829732 -2.9877324 -1.049569
0.56255394 -3.0051026 -1.0546329
0.53672802 -2.9677429 -1.0397789
0.51769841 -2.9663441 -1.0380911
0.50386298 -2.9954553 -1.0475435
0.48065558 -2.9687569 -1.0367407
0.46170628 -2.967 -1.0350528
0.44210088 -2.9604676 -1.0316769
0.4232603 -2.9584656 -1.0299889
0.40535495 -2.962872 -1.0306641
0.3866795 -2.9615703 -1.0293137
0.36919796 -2.9694915 -1.0313393
0.3518548 -2.9791791 -1.03404
0.33356827 -2.9812822 -1.03404
0.31556633 -2.9860809 -1.0350528
0.29667833 -2.9823411 -1.0330272
0.27898633 -2.9906657 -1.0353904
0.26054889 -2.9913836 -1.0350528
0.24363412 -3.0107522 -1.041467
0.22578852 -3.0206382 -1.0445052
0.20841151 -3.0388703 -1.0505818
0.19040786 -3.050426 -1.0542953
0.17179322 -3.0534165 -1.0549704
0.1526767 -3.0468922 -1.0522697
0.13406138 -3.0496523 -1.0529449
0.11513238 -3.0447738 -1.0509194
0.096058868 -3.0331924 -1.0465307
0.077494033 -3.0356066 -1.0472059
0.058627591 -3.0237904 -1.0428172
0.039997268 -3.018446 -1.0407917
0.021298282 -2.9941616 -1.0320145
0.0029218611 -2.9904709 -1.0306641
-0.01538955 -2.9829021 -1.0279634
-0.033660494 -2.9799278 -1.0269506
-0.052009471 -2.9834299 -1.028301
-0.070490897 -2.9905829 -1.0310017
-0.089368157 -3.0079708 -1.0374159
-0.10856223 -3.0280612 -1.0448428
-0.12710065 -3.0263975 -1.0445052
-0.14553246 -3.0227399 -1.0434924
-0.16366963 -3.0142708 -1.0407917
-0.1806882 -2.9887805 -1.0320145
-0.1974002 -2.9631958 -1.0232371
-0.21537369 -2.9591124 -1.0222244
-0.23293473 -2.9502282 -1.0195237
-0.25127175 -2.9515572 -1.0205364
-0.27031761 -2.9602711 -1.0242499
-0.28802031 -2.9538724 -1.022562
-0.30458802 -2.9370692 -1.0171605
-0.31972793 -2.908946 -1.0077081
-0.34440318 -2.965836 -1.0289762
-0.362138 -2.9599297 -1.0276258
-0.38221163 -2.97259 -1.0330272
-0.40144902 -2.9776516 -1.0357279
-0.42089427 -2.9835212 -1.0387663
-0.44042662 -2.9892638 -1.0418046
-0.45933127 -2.9902267 -1.0431548
-0.4782643 -2.99107 -1.0445052
-0.49707076 -2.9908648 -1.0455179
-0.5176515 -3.0007451 -1.0502442
-0.53555721 -2.9947326 -1.0492314
-0.55632019 -3.0043483 -1.0539577
-0.57527488 -3.0036516 -1.0549704
-0.59625065 -3.0129931 -1.0596967
-0.612091 -2.996366 -1.0549704
-0.62794375 -2.9805796 -1.0505818
-0.6474179 -2.9821899 -1.0526073
-0.659958 -2.9524391 -1.0431548
-0.67489868 -2.9345734 -1.0380911
-0.6909439 -2.9221325 -1.0350528
-0.71174794 -2.9297292 -1.0394413
-0.74587768 -2.9901538 -1.0634102
-0.74974632 -2.9289818 -1.0424796
-0.76842076 -2.9270577 -1.0434924
-0.7861219 -2.9213786 -1.0431548
-0.80478251 -2.9192224 -1.0441676
-0.83188128 -2.9468427 -1.0563208
-0.86404991 -2.9905171 -1.0745505
-0.88344997 -2.98877 -1.0759009
-1.2094041 -4.0014973 -1.4573755
-1.244767 -4.0290771 -1.4705415
-1.2819297 -4.0608602 -1.4853953
-1.2834313 -3.9803498 -1.4580507
-1.0106153 -3.0693457 -1.1170866
-1.0393213 -3.0925326 -1.1282271
-1.0323333 -3.0104103 -1.0995321
-1.0436398 -2.9835827 -1.0917675
-1.0657206 -2.9877625 -1.0958186
-1.0782449 -2.9652431 -1.0897421
-1.0964191 -2.9585712 -1.0897421
-1.1148843 -2.9526687 -1.0900797
-1.1285893 -2.9343505 -1.085691
-1.1438274 -2.9203584 -1.0829903
-1.1474345 -2.8774352 -1.0691491
-1.1572826 -2.8511515 -1.0617222
-1.1761922 -2.847477 -1.0630726
-1.1819752 -2.8124361 -1.0522697
-1.1921816 -2.7886848 -1.0458555
-1.2073942 -2.7770009 -1.0441676
-1.2255523 -2.7721231 -1.0451804
-1.2475537 -2.775713 -1.049569
-1.2622155 -2.7628686 -1.0475435
-1.2720114 -2.7397029 -1.041467
-1.2867904 -2.7275896 -1.0397789
-1.923757 -4.0141959 -1.554601
-1.3193414 -2.7099006 -1.0391037
-1.3276019 -2.6848776 -1.0323521
-1.3546081 -2.6977127 -1.0407917
-1.3907974 -2.7279279 -1.0563208
-1.4127004 -2.7293749 -1.0603719
-1.4482417 -2.756489 -1.0748881
-1.467342 -2.7517042 -1.0765761
-1.4855422 -2.7451327 -1.0775888
-1.5046228 -2.7400916 -1.0792768
-1.5204914 -2.7291632 -1.0786016
-1.5358194 -2.7173235 -1.0775888
-1.5384215 -2.6833489 -1.0674613
-1.5505997 -2.6665347 -1.064423
-1.5540245 -2.635077 -1.055308
-1.5745109 -2.6327634 -1.0583463
-1.5906357 -2.6230528 -1.0583463
-1.6170514 -2.6300838 -1.0654356
-1.6271851 -2.6105256 -1.0613846
-1.6416643 -2.598105 -1.0603719
-1.657575 -2.5879829 -1.0603719
-1.6770104 -2.5832906 -1.062735
-1.695416 -2.576884 -1.064423
-1.7106735 -2.5656495 -1.0640854
-1.7300719 -2.5605648 -1.0664485
-1.7409657 -2.5429101 -1.0634102
-1.7597544 -2.5368209 -1.0654356
-1.7763692 -2.5275159 -1.0661108
-1.7885692 -2.5119677 -1.0640854
-1.8028475 -2.499419 -1.0634102
-1.8081555 -2.474628 -1.0573336
-1.8149072 -2.4521365 -1.0522697
-1.8282255 -2.4386947 -1.051257
-1.840309 -2.4236822 -1.049569
-1.8511298 -2.4071209 -1.0472059
-1.8728042 -2.4046299 -1.051257
-1.8834436 -2.3879192 -1.0488938
-1.9033464 -2.3829377 -1.0519321
-1.917932 -2.3712142 -1.0519321
-1.9384089 -2.3666842 -1.055308
-1.9540956 -2.356195 -1.0559832
-1.9636743 -2.3383932 -1.0532825
-1.9682311 -2.3148253 -1.0478811
-1.9738011 -2.2927167 -1.0431548
-1.9797926 -2.271337 -1.0387663
-1.9899555 -2.2549112 -1.0367407
-2.0006187 -2.2391486 -1.0350528
-2.0136888 -2.2261329 -1.0347152
-2.0470147 -2.2352574 -1.0451804
-2.0581319 -2.2198937 -1.04383
-2.0659173 -2.2010458 -1.0407917
-2.0748456 -2.1835508 -1.0384287
-2.0934243 -2.1762064 -1.0411294
-2.1126475 -2.1693904 -1.0441676
-2.1100609 -2.1402969 -1.0360655
-2.1278079 -2.131974 -1.0384287
-2.1408494 -2.1188779 -1.0384287
-2.15381 -2.1057019 -1.0384287
-2.1599197 -2.085907 -1.0350528
-2.1713161 -2.0713151 -1.0343776
-2.1874094 -2.0611813 -1.0360655
-2.2103493 -2.0573418 -1.0411294
-2.2492597 -2.0679533 -1.0539577
-2.2751443 -2.0661385 -1.0603719
-2.2912822 -2.0552826 -1.0620598
-2.3045545 -2.0418093 -1.0623974
-2.3276637 -2.0369301 -1.0674613
-2.3329976 -2.0164533 -1.0640854
-2.3395996 -1.9972103 -1.0613846
-2.360445 -1.9900992 -1.0654356
-2.3668253 -1.970759 -1.062735
-2.3781462 -1.9556015 -1.0623974
-2.4032521 -1.9516554 -1.0684739
-2.4137135 -1.9356946 -1.0677987
-2.44104 -1.9331219 -1.0748881
-2.4550798 -1.9198474 -1.0759009
-2.4727733 -1.9093502 -1.0786016
-2.477706 -1.8890043 -1.0755633
-2.4892499 -1.8737659 -1.0755633
-2.4923906 -1.8522797 -1.0718498
-2.5006735 -1.8347241 -1.0704995
-2.511122 -1.8187934 -1.0701619
-2.5184064 -1.8006134 -1.0684739
-2.5209484 -1.7791554 -1.0647604
-2.5364516 -1.7668824 -1.0667861
-2.5596545 -1.7598199 -1.0721874
-2.5742986 -1.7467241 -1.0738754
-2.5896604 -1.7340386 -1.0759009
-2.6081042 -1.7233063 -1.0792768
-2.6241481 -1.7108701 -1.0816399
-2.6464703 -1.7023766 -1.0867038
-2.65925 -1.6876194 -1.0877165
-2.6719484 -1.6727697 -1.0887293
-2.6965768 -1.6652477 -1.0948058
-2.7083516 -1.64965 -1.095481
-2.7216501 -1.63494 -1.0968313
-2.7518754 -1.6302061 -1.1052711
-2.7853954 -1.6270617 -1.1150612
-2.798589 -1.6118199 -1.1164114
-2.8387103 -1.611818 -1.1289022
-2.8731866 -1.6081649 -1.1390299
-2.9159656 -1.6086968 -1.1525334
-2.9753959 -1.6177583 -1.1727887
-3.0267489 -1.6217034 -1.1896682
-3.0774283 -1.6246389 -1.2062099
-3.1148956 -1.6200619 -1.2173504
-3.1901178 -1.6344041 -1.2436823
-0 -0 -0
-3.3034964 -1.641641 -1.2811545
-3.3752255 -1.6515481 -1.3057984
-3.713464 -1.7889401 -1.4364451
-4.1249428 -1.9561231 -1.5954491
-3.9645758 -1.8503447 -1.5272563
-3.720958 -1.7088891 -1.4266551
-3.7305157 -1.685638 -1.4263175
-3.7485294 -1.6661578 -1.4293557
-3.7905927 -1.6570795 -1.4418465
-3.8586268 -1.6587019 -1.4644649
-3.9545655 -1.6712793 -1.4978861
-4.0473237 -1.6812956 -1.5299569
-4.0436206 -1.6507366 -1.5245556
-4.2423725 -1.7016003 -1.5974746
-4.2369704 -1.6693254 -1.591398
-4.3243833 -1.6731938 -1.6211058
-4.3442478 -1.6503062 -1.6248193
-4.4962854 -1.6765797 -1.679171
-4.5489173 -1.6644888 -1.6953752
-4.6042266 -1.6527689 -1.7125922
-4.6666646 -1.6429335 -1.7325099
-4.7229247 -1.6302429 -1.7500645
-4.781878 -1.6178285 -1.7686318
-4.8444285 -1.6059364 -1.7885495
-4.9687839 -1.6134003 -1.8317608
-5.0422788 -1.6031365 -1.8557296
-5.1095409 -1.5900725 -1.8773352
-5.1768308 -1.5762427 -1.8989408
-5.2414346 -1.5608402 -1.9195337
-5.2626619 -1.5320712 -1.9239224
-5.2955027 -1.5064496 -1.9326997
-5.3064599 -1.4744327 -1.9333749
-5.3208575 -1.4433241 -1.9354004
-5.3359833 -1.4123352 -1.9377635
-5.3381691 -1.3779204 -1.9354004
-5.3483486 -1.3455995 -1.9360756
-5.3656468 -1.3149985 -1.9394515
-5.3626275 -1.2794287 -1.9354004
-5.3767953 -1.2479904 -1.9377635
-5.3779244 -1.2135246 -1.9354004
-5.3880272 -1.1811084 -1.9364132
-5.4071417 -1.1505735 -1.9408017
-5.4205527 -1.1187065 -1.9431649
-5.4236231 -1.0846869 -1.9418145
-5.436645 -1.0526408 -1.9441776
-5.4467025 -1.0199556 -1.945528
-5.4473009 -0.98551017 -1.9435025
-5.4513907 -0.95174372 -1.9428273
-5.4617691 -0.91905802 -1.9445152
-5.4793849 -0.88748527 -1.9489039
-5.4930978 -0.85515147 -1.9519422
-0 -0 -0
-0 -0 -0
-0 -0 -0
-0 -0 -0
-0 -0 -0
-0 -0 -0
-0 -0 -0
-0 -0 -0
-0 -0 -0
-0 -0 -0
-0 -0 -0
-0 -0 -0
-0 -0 -0
-0 -0 -0
-0 -0 -0
-0 -0 -0
-0 -0 -0
-0 -0 -0
-5.5505772 -0.21021856 -1.9502542
-0 -0 -0
-0 0 -0
-0 0 -0
-0 0 -0
-0 0 -0
-0 0 -0
-0 0 -0
-0 0 -0
-0 0 -0
-0 0 -0
-0 0 -0
-0 0 -0
-0 0 -0
-0 0 -0
-0 0 -0
-0 0 -0
-0 0 -0
-0 0 -0
-0 0 -0
-0 0 -0
-0 0 -0
-0 0 -0
-0 0 -0
-5.241859 1.1048291 -1.9459741
-5.1919236 1.1276104 -1.9296221
-5.1968002 1.1621085 -1.934145
-5.1904855 1.1941841 -1.9344928
-5.1748495 1.2240658 -1.9313616
-5.1690636 1.2562382 -1.9320575
-5.1467047 1.2842964 -1.9264908
-5.1396356 1.3160845 -1.9268386
-5.1242099 1.3456893 -1.9240553
-5.1077089 1.3749106 -1.9209241
-5.104599 1.4077216 -1.9230115
-5.0985718 1.4397813 -1.9240553
-5.0941448 1.4723409 -1.925795
-5.0859137 1.5038364 -1.9261428
-5.0712066 1.5333854 -1.9240553
-5.0679717 1.5664122 -1.9264908
-5.0457501 1.5935237 -1.9216199
-5.0394464 1.6256059 -1.9230115
-5.0302672 1.6567903 -1.9233595
-5.010232 1.6843358 -1.9195324
-4.9918222 1.7123069 -1.9164011
-4.9767976 1.7413548 -1.9146615
-4.9651361 1.7715439 -1.9143137
-4.9532919 1.8016553 -1.9139657
-4.9403858 1.8313621 -1.9132699
-4.9316869 1.8626356 -1.9143137
-4.9245396 1.8945448 -1.9160533
-4.9215508 1.9281474 -1.9195324
-4.909627 1.9583092 -1.9195324
-4.90273 1.9905144 -1.9216199
-4.8869586 2.0191269 -1.9202282
-4.8658357 2.0454397 -1.9167491
-4.8497458 2.0737822 -1.9153574
-4.8343511 2.1023784 -1.9143137
-4.8222175 2.1323812 -1.9146615
-4.8064775 2.1607759 -1.9136178
-4.8033605 2.194905 -1.9177928
-4.7940536 2.2263119 -1.9195324
-4.7853894 2.2580874 -1.9216199
-4.7714438 2.2874076 -1.9216199
-4.7421484 2.3092499 -1.9153574
-4.7228484 2.335809 -1.9132699
-4.690835 2.3559036 -1.9059637
-4.6537433 2.3731375 -1.8965698
-4.6940379 2.4301071 -1.9195324
-4.654974 2.4462106 -1.9094428
-4.6481481 2.4791408 -1.912922
-4.636971 2.5098469 -1.9146615
-4.6157322 2.5350909 -1.9122262
-4.5984521 2.5624518 -1.9115303
-4.5834589 2.5910807 -1.9118782
-4.5691004 2.6200886 -1.9125741
-4.5496964 2.6461885 -1.9111824
-4.5382185 2.6769142 -1.9132699
-4.5241213 2.7061541 -1.9143137
-4.5050273 2.7324035 -1.9132699
-4.4881763 2.7599945 -1.9132699
-4.4727478 2.7884738 -1.9139657
-4.4611011 2.8193729 -1.9164011
-4.4460855 2.8482101 -1.9174449
-4.4285254 2.8754373 -1.9174449
-4.4147143 2.9051337 -1.9191844
-4.3929062 2.9295654 -1.9174449
-4.3725181 2.9548895 -1.9164011
-4.3543048 2.981663 -1.9164011
-4.3289962 3.0035131 -1.9132699
-4.3081846 3.0284009 -1.9122262
-4.2864676 3.0526023 -1.9108344
-4.2775393 3.085979 -1.9153574
-4.2676053 3.1188076 -1.9195324
-4.2574291 3.1516299 -1.9237075
-4.2395105 3.1788189 -1.9244033
-4.2236586 3.207608 -1.9261428
-4.2016687 3.2317483 -1.9250991
-4.178802 3.2551632 -1.9237075
-4.145503 3.2702878 -1.9174449
-4.1224294 3.2933214 -1.9160533
-4.0992293 3.3161948 -1.9146615
-4.0737286 3.3371248 -1.9122262
-4.051733 3.3608606 -1.9115303
-4.0403657 3.3934989 -1.9160533
-4.026608 3.4243014 -1.9195324
-4.0005488 3.4446607 -1.917097
-3.9800441 3.4697587 -1.9174449
-3.9523544 3.4885297 -1.9143137
-3.9301758 3.5120902 -1.9139657
-3.8974307 3.5260732 -1.9083991
-3.8819427 3.5556214 -1.9115303
-3.8607402 3.5800114 -1.9118782
-3.8373342 3.6023493 -1.9111824
-3.8219526 3.632287 -1.9146615
-3.8009443 3.65697 -1.9153574
-3.7717195 3.6736803 -1.9118782
-3.7471049 3.6947789 -1.9108344
-3.7223735 3.7157137 -1.9097908
-3.7014821 3.7404833 -1.9108344
-3.6738749 3.7584307 -1.9083991
-3.6553018 3.7856245 -1.9108344
-3.6313579 3.8073032 -1.9104866
-3.6034293 3.8247356 -1.9080511
-3.5805318 3.8474603 -1.9083991
-3.5581255 3.8707383 -1.9090949
-3.5324178 3.890415 -1.9080511
-3.5103576 3.9141104 -1.9090949
-3.4844105 3.9334702 -1.9080511
-3.4589753 3.9533646 -1.9073553
-3.4303627 3.9695477 -1.9049199
-3.4108093 3.9962273 -1.9077032
-3.381392 4.0113444 -1.9049199
-3.3603134 4.0363407 -1.9070073
-3.3336978 4.0547104 -1.9059637
-3.3081651 4.0743613 -1.9056157
-3.2825167 4.0938516 -1.9052678
-3.2567537 4.1131806 -1.9049199
-3.2314544 4.1330862 -1.9049199
-3.2060332 4.1528363 -1.9049199
-3.1793554 4.1709385 -1.904224
-3.1565211 4.1941142 -1.9059637
-3.12905 4.2111454 -1.9049199
-3.0959454 4.2204366 -1.9003969
-3.0760379 4.2477074 -1.904224
-3.0537317 4.2718415 -1.9066595
-3.0317855 4.2966275 -1.9094428
-3.0000083 4.3074546 -1.9059637
-2.9655583 4.3141909 -1.9007449
-2.9358742 4.3276501 -1.8986573
-2.9087434 4.3448038 -1.8983095
-2.8840959 4.3656988 -1.8997011
-2.8572543 4.3833132 -1.8997011
-2.8323328 4.4039168 -1.9010928
-2.8122871 4.4322972 -1.9059637
-2.7830491 4.4462905 -1.904572
-2.756207 4.4640813 -1.9049199
-2.7331512 4.4881163 -1.9080511
-2.7055612 4.5048022 -1.9080511
-2.6778693 4.5213184 -1.9080511
-2.6453502 4.5295677 -1.904572
-2.6198459 4.5497766 -1.9063115
-2.5881784 4.5592427 -1.9035282
-2.5583241 4.5717649 -1.9021366
-2.5306768 4.5881972 -1.9024844
-2.5006862 4.6003437 -1.9010928
-2.4746244 4.6197338 -1.9028324
-2.4449193 4.6323433 -1.9017886
-2.4138558 4.6422663 -1.8997011
-2.3848989 4.6561556 -1.8993531
-2.3588169 4.675724 -1.9014407
-2.3304996 4.6909494 -1.9017886
-2.3012609 4.7043185 -1.9014407
-2.272759 4.7191949 -1.9017886
-2.2449641 4.7355933 -1.9028324
-2.2174497 4.7526774 -1.904224
-2.186291 4.7619338 -1.9024844
-2.1566455 4.7744045 -1.9021366
-2.1273096 4.7875476 -1.9021366
-2.0997698 4.8048058 -1.9038761
-2.0698788 4.8167381 -1.9035282
-2.0384614 4.8250294 -1.9017886
-2.0091767 4.8383121 -1.9021366
-1.9773272 4.8453407 -1.900049
-1.948257 4.8591228 -1.9007449
-1.9177185 4.8692408 -1.900049
-1.8874674 4.8800411 -1.8997011
-1.8554927 4.8862715 -1.8976136
-1.8264579 4.9002004 -1.8986573
-1.7944254 4.9060316 -1.8965698
-1.7614408 4.9090071 -1.8934386
-1.7269323 4.9073405 -1.8885678
-1.6977056 4.9205036 -1.8896115
-1.6626798 4.9166169 -1.8840448
-1.6401426 4.9498668 -1.8930907
-1.615235 4.9767814 -1.8997011
-1.5815464 4.9767694 -1.895874
-1.5509799 4.9863801 -1.895874
-1.5198092 4.9940085 -1.8951782
-1.4894053 5.0041389 -1.8955261
-1.4602427 5.0185847 -1.8976136
-1.4289094 5.0256467 -1.8969178
-1.3977951 5.0334163 -1.8965698
-1.3656588 5.0373735 -1.8948302
-1.3373594 5.0556288 -1.8986573
-1.3046756 5.0573845 -1.896222
-1.2738478 5.0662041 -1.8965698
-1.2427382 5.0739245 -1.8965698
-1.2115818 5.0814543 -1.8965698
-1.1803797 5.0887928 -1.8965698
-1.1499574 5.0995984 -1.8979615
-1.1178436 5.1028948 -1.8965698
-1.0894337 5.1234136 -1.9017886
-1.0560849 5.1208196 -1.8983095
-1.0237266 5.1226063 -1.8965698
-0.99120831 5.1232681 -1.8944824
-0.96009833 5.1310968 -1.8951782
-0.92909616 5.1396589 -1.896222
-0.89866865 5.1517286 -1.8986573
-0.8665756 5.1543717 -1.8976136
-0.83523178 5.1614432 -1.8983095
-0.80340219 5.1655445 -1.8979615
-0.77196825 5.1722312 -1.8986573
-0.7399525 5.1750145 -1.8979615
-0.70907289 5.1859598 -1.9003969
-0.6766336 5.1855645 -1.8986573
-0.6450336 5.1914792 -1.8993531
-0.61272842 5.1916151 -1.8979615
-0.5807578 5.1943455 -1.8976136
-0.5481872 5.1912847 -1.8951782
-0.51613873 5.1926847 -1.8944824
-0.48478809 5.2013545 -1.8965698
-0.4527019 5.2023635 -1.895874
-0.42137498 5.2125192 -1.8986573
-0.38931403 5.2140713 -1.8983095
-0.35712218 5.2135563 -1.8972657
-0.32466069 5.2081633 -1.8944824
-0.29269788 5.2100573 -1.8944824
-0.26007116 5.1986461 -1.8896115
-0.22788176 5.1935878 -1.887176
-0.19579937 5.1892672 -1.8850886
-0.1640725 5.194119 -1.8864802
-0.1321989 5.1950278 -1.8864802
-0.10042766 5.2013655 -1.8885678
-0.068583623 5.2075086 -1.8906553
-0.036642436 5.2097063 -1.8913511
-0.0046787602 5.2145205 -1.8930907
0.027327262 5.2163262 -1.8937865
0.059322651 5.2151227 -1.8934386
0.091387421 5.21841 -1.8948302
0.12360663 5.2261868 -1.8979615
0.15564345 5.2243924 -1.8976136
0.1876968 5.2233391 -1.8976136
0.21974307 5.2220893 -1.8976136
0.25137275 5.2122149 -1.8944824
0.28304288 5.2049575 -1.8923949
0.31457657 5.1965723 -1.8899595
0.34633103 5.1926732 -1.8892636
0.37839115 5.1932554 -1.8903073
0.41047147 5.1936398 -1.8913511
0.44265053 5.1947598 -1.8927428
0.47485879 5.1956806 -1.8941344
0.50709498 5.1964016 -1.8955261
0.5393579 5.1969218 -1.8969178
0.57082468 5.1897874 -1.8955261
0.60319996 5.1908431 -1.8972657
0.63515317 5.1879749 -1.8976136
0.66805261 5.1923485 -1.9007449
0.7006529 5.1937261 -1.9028324
0.73172039 5.1837597 -1.9007449
0.76282889 5.1745348 -1.8990053
0.7937091 5.164197 -1.8969178
0.82478786 5.1555271 -1.8955261
0.85579014 5.1466699 -1.8941344
0.88719374 5.140398 -1.8937865
0.91904855 5.1367035 -1.8944824
0.95037848 5.1300454 -1.8941344
0.98166132 5.1231971 -1.8937865
1.0139896 5.1216755 -1.8955261
1.0431415 5.1043353 -1.8913511
1.072893 5.0904999 -1.8885678
1.1062986 5.0938983 -1.8923949
1.1379429 5.0888438 -1.8930907
1.1689355 5.0808525 -1.8927428
1.2000891 5.0735841 -1.8927428
1.2331918 5.0743237 -1.895874
1.2636225 5.0639329 -1.8948302
1.294205 5.0542674 -1.8941344
1.3249546 5.0453248 -1.8937865
1.3556434 5.0361948 -1.8934386
1.3865193 5.027782 -1.8934386
1.4165782 5.0164728 -1.8923949
1.448374 5.0112891 -1.8937865
1.4785634 5.0005097 -1.8930907
1.5086751 4.9895487 -1.8923949
1.5381538 4.976615 -1.8910031
1.5706385 4.973341 -1.8934386
1.5973806 4.9520116 -1.8889157
1.628029 4.9430075 -1.8892636
1.6595238 4.9364796 -1.8906553
1.6894778 4.9253168 -1.8903073
1.7202868 4.9166274 -1.8910031
1.7516834 4.9095111 -1.8923949
1.7817745 4.8986707 -1.8923949
1.813429 4.8920407 -1.8941344
1.8420861 4.8773136 -1.8927428
1.871978 4.8659191 -1.8927428
1.9014573 4.8534684 -1.8923949
1.9301592 4.8390975 -1.8913511
1.9612266 4.8306379 -1.8927428
1.9929789 4.8237114 -1.8948302
2.0232661 4.8131204 -1.8955261
2.0542359 4.8040628 -1.8969178
2.0836744 4.791368 -1.8969178
2.114552 4.7819219 -1.8983095
2.1426997 4.7662921 -1.8972657
2.1711252 4.7513499 -1.8965698
2.200238 4.7379389 -1.8965698
2.2292681 4.724349 -1.8965698
2.2578087 4.7097363 -1.896222
2.285022 4.6924229 -1.8948302
2.3125236 4.6757932 -1.8937865
2.3390656 4.6573272 -1.8920469
2.3667462 4.6412168 -1.8913511
2.3964732 4.6291051 -1.8923949
2.4278858 4.620122 -1.8948302
2.4504507 4.5943851 -1.8903073
2.4870777 4.5949264 -1.8969178
2.5143218 4.5779362 -1.896222
2.5432773 4.5640602 -1.8969178
2.5666184 4.5402088 -1.8934386
2.5976942 4.530067 -1.895874
2.622612 4.509181 -1.8937865
2.6545188 4.5002704 -1.8969178
2.6787119 4.4782667 -1.8944824
2.7066262 4.4625478 -1.8948302
2.7344482 4.4466548 -1.8951782
2.759696 4.4266109 -1.8937865
2.7893105 4.4135561 -1.8955261
2.8168449 4.3971477 -1.895874
2.8422401 4.3774223 -1.8948302
2.8685305 4.3591175 -1.8944824
2.8905406 4.3344154 -1.8913511
2.9170816 4.3165979 -1.8913511
2.9413934 4.2955241 -1.8899595
2.9698331 4.2804756 -1.8913511
2.9944239 4.259872 -1.8903073
3.0221376 4.2437091 -1.8913511
3.0486684 4.2258458 -1.891699
3.0767536 4.2100873 -1.8930907
3.1002965 4.1881156 -1.891699
3.1276236 4.1712637 -1.8927428
3.1508904 4.1490083 -1.8913511
3.1757171 4.1288538 -1.8910031
3.1998389 4.1078115 -1.8903073
3.2273071 4.0910439 -1.891699
3.2529337 4.071897 -1.8920469
3.2813962 4.0562329 -1.8941344
3.3068173 4.0367475 -1.8944824
3.3291292 4.0134954 -1.8930907
3.3524866 3.9915574 -1.8923949
3.3769152 3.9709117 -1.8923949
3.4036641 3.9529579 -1.8937865
3.4229252 3.9263465 -1.8910031
3.4537785 3.9130001 -1.8948302
3.4814723 3.8959281 -1.8969178
3.5065701 3.8758831 -1.8976136
3.5302861 3.8542943 -1.8976136
3.5557818 3.8346221 -1.8986573
3.5798855 3.8134155 -1.8990053
3.609031 3.797493 -1.9021366
3.6374652 3.7806804 -1.9049199
3.6605945 3.7582903 -1.9049199
3.6743684 3.7264144 -1.900049
3.7084262 3.7150762 -1.9059637
3.7304852 3.6915925 -1.9056157
3.7537367 3.6692884 -1.9059637
3.7640381 3.6344676 -1.8997011
3.7862678 3.6113033 -1.8997011
3.8083551 3.5880034 -1.8997011
3.8172565 3.5524359 -1.8930907
3.8438144 3.5333869 -1.8955261
3.8716705 3.5154059 -1.8986573
3.895262 3.4934609 -1.8997011
3.9138167 3.4670084 -1.8983095
3.9392505 3.4466314 -1.9003969
3.9581959 3.4205573 -1.8993531
3.9826758 3.3992484 -1.9010928
4.0091939 3.3795798 -1.9038761
4.0356202 3.3597136 -1.9066595
4.0547104 3.3336978 -1.9059637
4.0750895 3.3087559 -1.9059637
4.0975094 3.2854483 -1.9070073
4.1190615 3.2614081 -1.9077032
4.1323476 3.2308769 -1.904572
4.1506095 3.2043152 -1.9038761
4.1679554 3.1770825 -1.9028324
4.1798792 3.1458127 -1.8993531
4.2043715 3.1240191 -1.9017886
4.2166562 3.0931735 -1.8986573
4.2378345 3.0688915 -1.8997011
4.2558222 3.0422859 -1.8993531
4.2820706 3.0215189 -1.9028324
4.3143797 3.0048292 -1.9090949
4.332736 2.9783001 -1.9090949
4.350153 2.9511328 -1.908747
4.3666205 2.9233425 -1.9080511
4.3883872 2.8990772 -1.9097908
4.4045219 2.8710725 -1.9090949
4.4252105 2.8460207 -1.9104866
4.4417982 2.8183124 -1.9101386
4.4462905 2.7830491 -1.904572
4.4569006 2.751776 -1.9017886
4.485714 2.7316887 -1.9070073
4.5160556 2.7123165 -1.912922
4.5253525 2.6802573 -1.9097908
4.5587158 2.662365 -1.917097
4.5505891 2.6203134 -1.9066595
4.5673971 2.5928049 -1.9070073
4.5881295 2.567477 -1.9090949
4.5988708 2.5365608 -1.9070073
4.6267052 2.5150084 -1.9122262
4.6453562 2.488342 -1.9136178
4.6663413 2.4628539 -1.9160533
4.6830292 2.43504 -1.9167491
4.7078962 2.4113863 -1.9209241
4.719255 2.3807654 -1.9195324
4.727057 2.3484282 -1.9167491
4.7489576 2.3230853 -1.9198804
4.7698808 2.2971554 -1.9226637
4.7788024 2.2654364 -1.9205762
4.7977109 2.2384489 -1.9226637
4.8164682 2.2113144 -1.9247512
4.8308005 2.1821051 -1.9250991
4.8458123 2.1531839 -1.925795
4.8563552 2.1222842 -1.9247512
4.8589487 2.0880067 -1.9205762
4.8690777 2.0570595 -1.9195324
4.8894014 2.0303791 -1.9226637
4.8930864 1.9967995 -1.9191844
4.9113383 1.9691795 -1.9216199
4.9346695 1.9434707 -1.9261428
4.9377565 1.9097755 -1.9226637
4.952888 1.8807726 -1.9240553
4.9660921 1.8510013 -1.9247512
5.0037727 1.8301506 -1.9351887
5.002553 1.7949834 -1.9303179
5.0099349 1.7630104 -1.9289262
5.0215445 1.7325424 -1.9292741
5.0285277 1.7004976 -1.9278824
5.0335274 1.667843 -1.925795
5.0374236 1.634902 -1.9233595
5.0375314 1.6008409 -1.9195324
5.0409923 1.5679533 -1.917097
5.051415 1.5372657 -1.9174449
5.0652456 1.507578 -1.9191844
5.0807023 1.478302 -1.9216199
5.0959902 1.448893 -1.9240553
5.1065912 1.4180986 -1.9247512
