# .PCD v0.7 - Point Cloud Data file format
VERSION 0.7
FIELDS x y z
SIZE 4 4 4
TYPE F F F
COUNT 1 1 1
WIDTH 1534
HEIGHT 1
VIEWPOINT 0 0 0 1 0 0 0
POINTS 1534
DATA ascii
-5.0817828 -1.7155383 -1.5539978
-5.2478399 -1.7357632 -1.602736
-5.2492723 -1.7005782 -1.5998858
-5.4195094 -1.7190206 -1.6497642
-5.5160103 -1.7124314 -1.676556
-5.5731912 -1.6927512 -1.691092
-5.6505523 -1.6784337 -1.7118984
-5.7334681 -1.6648325 -1.7344149
-5.8173494 -1.6505375 -1.7572165
-5.9040394 -1.6360426 -1.7808731
-6.0231538 -1.6292992 -1.8145053
-6.1850381 -1.6323986 -1.8612485
-6.3666759 -1.6385849 -1.9139771
-6.3905563 -1.6029845 -1.9182523
-6.433794 -1.5719267 -1.9285131
-6.4489136 -1.5337498 -1.9302232
-6.4525995 -1.4928558 -1.9285131
-6.4644437 -1.4538658 -1.9293681
-6.4826074 -1.4162174 -1.9322183
-6.5136805 -1.3811822 -1.9390588
-6.5389328 -1.3446612 -1.9441891
-6.5489407 -1.3048881 -1.9447591
-6.5116458 -1.2559743 -1.9310782
-6.5409026 -1.2200345 -1.9376336
-6.5841136 -1.18633 -1.9484644
-6.572381 -1.142628 -1.942764
-6.5641422 -1.0997477 -1.9382037
-6.5773911 -1.060517 -1.9401989
-6.5828271 -1.0199924 -1.9399139
-6.599391 -0.9811303 -1.9430491
-6.6005421 -0.93994391 -1.9416239
-6.6052356 -0.89929688 -1.9413389
-6.6077776 -0.85838103 -1.9404839
-6.6186275 -0.8185252 -1.942194
-6.6159096 -0.77700555 -1.9399139
-6.6243634 -0.73681962 -1.9410539
-6.626853 -0.69595957 -1.9404839
-6.6166902 -0.65387338 -1.9362086
-6.6062608 -0.61193818 -1.9319333
-6.6223059 -0.57246244 -1.9356385
-6.6457586 -0.53342491 -1.9416239
-6.645083 -0.49235463 -1.9404839
-6.6795378 -0.45371005 -1.9498895
-6.7166376 -0.41483787 -1.9601502
-6.7295842 -0.37420112 -1.9632854
-6.7154784 -0.33210009 -1.9584401
-0 -0 -0
-6.6960592 -0.2488156 -1.9515996
-0 -0 -0
-6.6660285 -0.16582115 -1.941909
-6.6506286 -0.12461363 -1.9370637
-6.6503096 -0.083791882 -1.9367787
-6.6478229 -0.04296669 -1.9359236
-0 -0 -0
-6.6545591 0.038655702 -1.9379187
-6.6532383 0.079474963 -1.9376336
-6.6516666 0.12027948 -1.9373487
-6.6469707 0.16099757 -1.9362086
-6.6343608 0.2014285 -1.9327884
-6.6377892 0.24230805 -1.9342134
-6.6371355 0.28307322 -1.9344984
-6.628572 0.32346439 -1.9325033
-6.6331615 0.36449975 -1.9344984
-6.6327138 0.40531048 -1.9350685
-6.6291456 0.4459359 -1.9347835
-0 -0 -0
-0 -0 -0
-0 -0 -0
-0 -0 -0
-0 -0 -0
-0 0 -0
-0 0 -0
-6.4611917 0.11441434 -1.9593153
-0 0 -0
-6.4564366 0.19360876 -1.9584281
-6.4551272 0.23322107 -1.9584281
-6.4316225 0.27189794 -1.9516269
-6.4260168 0.31117195 -1.9504441
-6.4020476 0.34939942 -1.9436427
-6.3826199 0.38763377 -1.93832
-6.3696365 0.42608878 -1.9350672
-6.3869095 0.46662462 -1.9412771
-6.3486915 0.50301564 -1.9303359
-0 0 -0
-6.3439431 0.58106011 -1.9309273
-6.345963 0.62053233 -1.9327016
-6.3534379 0.66064364 -1.9362501
-0 0 -0
-0 0 -0
-0 0 -0
-0 0 -0
-6.3652101 0.85995328 -1.9471912
-6.356976 0.89859235 -1.9463041
-6.3248816 0.9336766 -1.9380243
-6.31148 0.97130579 -1.9356587
-6.2997417 1.0091078 -1.9338844
-6.2849507 1.046332 -1.931223
-6.275588 1.0843881 -1.9303359
-6.2669358 1.1225374 -1.9297445
-6.2843513 1.1654969 -1.9374329
-6.2545648 1.1997175 -1.9303359
-6.2433376 1.2373296 -1.9291531
-6.2300124 1.2744664 -1.9273788
-6.2117934 1.3105005 -1.924126
-6.2017684 1.3481849 -1.9235346
-6.1784639 1.3828754 -1.9188033
-6.1754479 1.4220456 -1.9205775
-6.15731 1.4577105 -1.9176204
-6.1631017 1.4990751 -1.9223518
-6.1519337 1.5364001 -1.9217603
-6.1414652 1.5738816 -1.9214647
-6.1335406 1.6120209 -1.9220561
-6.1050854 1.6446567 -1.9161419
-6.0838289 1.6790369 -1.9125934
-6.0872011 1.7202308 -1.917029
-6.0728607 1.7564874 -1.9158462
-6.0638008 1.7942587 -1.9164376
-6.0517631 1.8311551 -1.9161419
-6.0321999 1.8657136 -1.9134805
-6.0233707 1.9035548 -1.9143677
-6.0061231 1.9387174 -1.9125934
-5.9777827 1.9701524 -1.9072707
-6.0135698 2.022934 -1.9229432
-5.9784555 2.0520427 -1.9155505
-5.9612436 2.0871091 -1.9140719
-5.9276323 2.1162612 -1.9072707
-5.9028659 2.1483462 -1.9034264
-5.8931551 2.1858537 -1.9046093
-5.9198451 2.2371662 -1.9179162
-5.8739114 2.2610953 -1.9072707
-5.8510332 2.2936084 -1.9043136
-5.8510456 2.3351312 -1.9090449
-5.8339524 2.36991 -1.9081578
-5.8210664 2.4063916 -1.9087492
-5.8097138 2.4435451 -1.909932
-5.7946115 2.4791467 -1.909932
-5.7898021 2.5192282 -1.9134805
-5.7654991 2.5508418 -1.9105234
-5.748868 2.5857785 -1.9102278
-5.7354999 2.6221955 -1.9111149
-5.705441 2.6508992 -1.9063835
-5.6752458 2.6793327 -1.9016522
-5.6750646 2.7219532 -1.9072707
-5.6651268 2.7600703 -1.9096364
-5.6557908 2.7985914 -1.9122977
-5.6299763 2.8289535 -1.9093406
-5.6159158 2.8651814 -1.9105234
-5.5863538 2.893436 -1.9063835
-5.5591936 2.9227693 -1.9031308
-5.5580115 2.9658182 -1.9090449
-5.5346689 2.9971366 -1.9072707
-5.5186863 3.0324204 -1.9081578
-5.5008101 3.0666904 -1.9084535
-5.4810586 3.0999148 -1.9081578
-5.4644203 3.1349134 -1.9090449
-5.4525132 3.1727071 -1.9117063
-5.4321208 3.2056179 -1.9114106
-5.4082503 3.2364359 -1.909932
-5.3760395 3.2621269 -1.9054965
-5.3713818 3.3045619 -1.9111149
-5.3356032 3.3278534 -1.9054965
-5.3320403 3.371249 -1.9117063
-5.2903419 3.390502 -1.9040179
-5.2734442 3.4255006 -1.9054965
-5.2523265 3.4577935 -1.9054965
-5.226243 3.4867754 -1.9037222
-5.2023759 3.5171723 -1.902835
-5.1838493 3.5511866 -1.9040179
-5.161962 3.5829272 -1.9040179
-5.1445694 3.6178298 -1.9057921
-5.1191616 3.6471112 -1.9046093
-5.1090813 3.6873972 -1.9093406
-5.0809612 3.7147303 -1.9072707
-5.0626788 3.7492473 -1.9090449
-5.0418711 3.7819605 -1.909932
-5.0231347 3.8162925 -1.9117063
-4.9859953 3.8365569 -1.9063835
-4.9691429 3.8723626 -1.9090449
-4.9445391 3.9021881 -1.9087492
-4.9212489 3.9330499 -1.9090449
-4.8925676 3.9595668 -1.9072707
-4.8681803 3.9895124 -1.9072707
-4.8406687 4.0168681 -1.9060879
-4.8210506 4.0507956 -1.9081578
-4.7924662 4.0772057 -1.9066793
-4.7651873 4.1046648 -1.9057921
-4.7413521 4.1350818 -1.9063835
-4.7108774 4.1596708 -1.9043136
-4.6902514 4.1929541 -1.9063835
-4.6665602 4.223577 -1.9072707
-4.6391482 4.2508407 -1.9066793
-4.6080756 4.2746782 -1.9046093
-4.5789742 4.3002567 -1.9034264
-4.5552716 4.3309045 -1.9046093
-4.5237937 4.3541369 -1.9025394
-4.4894657 4.3744798 -1.8992865
-4.4659405 4.4052982 -1.9007651
-4.4374743 4.4312677 -1.9001737
-4.4142318 4.4624867 -1.901948
-4.3867674 4.4894881 -1.901948
-4.365109 4.5225058 -1.9046093
-4.3320036 4.5436735 -1.9022436
-4.3033876 4.5694733 -1.901948
-4.2824264 4.6034856 -1.9052007
-4.2547455 4.6303787 -1.9054965
-4.2089186 4.6373005 -1.8975123
-4.1740079 4.6559262 -1.8945552
-4.1383944 4.673583 -1.8913025
-4.1096401 4.6988878 -1.8913025
-4.0844779 4.728353 -1.8930767
-4.0591087 4.7576861 -1.894851
-4.02984 4.7825027 -1.894851
-4.0004191 4.8071394 -1.894851
-3.9617488 4.8205252 -1.8904153
-3.9357085 4.8491936 -1.8921895
-3.9130499 4.8821955 -1.895738
-3.8812411 4.9038668 -1.894851
-3.8610795 4.9403839 -1.899878
-3.8301094 4.9632258 -1.8995823
-3.8018997 4.9896727 -1.9007651
-3.7752323 5.0182505 -1.902835
-3.7324073 5.0252166 -1.8966252
-3.7065873 5.0549564 -1.8992865
-3.6592553 5.0551648 -1.8907111
-3.6303904 5.0806313 -1.8918939
-3.589236 5.0887604 -1.886571
-3.5503025 5.0997124 -1.8824311
-3.5351753 5.1450195 -1.8913025
-3.504612 5.1681952 -1.8918939
-3.4802732 5.200716 -1.8960338
-3.4335561 5.1996531 -1.887754
-3.3838544 5.1934118 -1.8776999
-3.3725896 5.2462177 -1.8895282
-3.3423827 5.2700396 -1.8907111
-3.3084631 5.2880197 -1.8898239
-3.2754524 5.3074074 -1.8895282
-3.2428253 5.3274055 -1.8895282
-3.209584 5.3463836 -1.8892325
-3.1757455 5.3643327 -1.8886411
-3.1413257 5.3812428 -1.887754
-3.1096778 5.4029002 -1.8886411
-3.0802395 5.4285254 -1.8910067
-3.0459399 5.4456558 -1.8904153
-3.011085 5.4617333 -1.8895282
-2.9747789 5.47507 -1.887754
-2.9420304 5.494904 -1.8883454
-2.9060302 5.5086284 -1.8868668
-2.8734968 5.5288982 -1.887754
-2.8355997 5.5387731 -1.8850926
-2.8054323 5.5637441 -1.887754
-2.7699664 5.5782866 -1.8868668
-2.7398829 5.6037593 -1.8898239
-2.7054474 5.6204658 -1.8898239
-2.6717281 5.6386867 -1.8904153
-2.6378872 5.6567054 -1.8910067
-2.5999408 5.6658392 -1.8886411
-2.5611956 5.6729789 -1.885684
-2.5240119 5.6833491 -1.8839097
-2.4860327 5.6917262 -1.8815441
-2.4476688 5.6989737 -1.8788826
-2.4059646 5.6980443 -1.87356
-2.3720555 5.7153468 -1.8744471
-2.335499 5.7262559 -1.8732642
-2.3017409 5.7440252 -1.8744471
-2.2643533 5.752707 -1.8726728
-2.2414141 5.7985687 -1.8833183
-2.2095215 5.8220367 -1.886571
-2.1764247 5.8426456 -1.8889368
-2.1434863 5.863965 -1.8915981
-2.1010151 5.8590231 -1.885684
-2.0691459 5.8835192 -1.8895282
-2.0308263 5.8897829 -1.8874582
-1.9983199 5.9129925 -1.8910067
-1.9632022 5.9287701 -1.8921895
-1.9220705 5.9261661 -1.8874582
-1.8801774 5.9205494 -1.8818398
-1.8455158 5.9374475 -1.8836141
-1.8109956 5.9550571 -1.885684
-1.7678846 5.9440823 -1.878587
-1.7348471 5.9667425 -1.8824311
-1.6935028 5.9607348 -1.8771085
-1.6533197 5.958127 -1.8729686
-1.6189787 5.9764581 -1.8756299
-1.5817891 5.9844322 -1.8750385
-1.5417005 5.9810748 -1.8708986
-1.5000831 5.9709659 -1.8646888
-1.4668247 5.9939761 -1.8691243
-1.4320116 6.0112271 -1.8717858
-1.392296 6.0078025 -1.8679415
-1.3566667 6.0218239 -1.8697157
-1.3182619 6.0235028 -1.8676457
-1.2822703 6.03615 -1.8691243
-1.2469445 6.0523248 -1.8717858
-1.2071655 6.0467472 -1.8676457
-1.1731232 6.0699849 -1.8726728
-1.1312916 6.0526547 -1.8649844
-1.1014335 6.099905 -1.8776999
-1.0616881 6.0933728 -1.87356
-1.0271285 6.1167302 -1.8788826
-0.98790038 6.1125441 -1.8756299
-0.95154935 6.1260424 -1.8779956
-0.91323829 6.1270413 -1.8765171
-0.8795439 6.1599541 -1.8850926
-0.84160131 6.1642885 -1.8847969
-0.80462641 6.1759672 -1.8868668
-0.76636326 6.1779442 -1.8859797
-0.72866535 6.1844277 -1.886571
-0.69017464 6.1840353 -1.8850926
-0.65291846 6.1948037 -1.8871626
-0.61470681 6.1967921 -1.886571
-0.57667249 6.2004471 -1.886571
-0.53886443 6.2067242 -1.8874582
-0.5013085 6.216579 -1.8895282
-0.4625158 6.2109642 -1.8868668
-0.42381096 6.2051077 -1.8842055
-0.38661873 6.2218928 -1.8886411
-0.34800699 6.2165174 -1.8862754
-0.30942822 6.209949 -1.8836141
-0.27131885 6.211731 -1.8836141
-0.23284037 6.2037325 -1.880657
-0.1950409 6.2136378 -1.8833183
-0.15664515 6.2042127 -1.8800656
-0.11894012 6.2241592 -1.8859797
-0.080697358 6.2209511 -1.8847969
-0.042610478 6.2337475 -1.8886411
-0.0043557449 6.2281599 -1.8868668
0.033798024 6.2166061 -1.8833183
0.072040707 6.2248788 -1.8859797
0.1103019 6.2281399 -1.8871626
0.14742468 6.1815057 -1.8729686
0.18515089 6.1738009 -1.8708986
0.22240937 6.1553645 -1.8655758
0.26029465 6.1567473 -1.8664629
0.29778996 6.1493092 -1.8646888
0.33551583 6.1473665 -1.8646888
0.37305549 6.1423316 -1.8638016
0.41105559 6.1446924 -1.8652802
0.4484728 6.1382437 -1.8640972
0.48620331 6.1363287 -1.864393
0.52343976 6.1284709 -1.8629144
0.56103355 6.1251435 -1.8629144
0.5983274 6.1187334 -1.8620273
0.63714361 6.1272993 -1.8658715
0.67430973 6.1194763 -1.8646888
0.7123974 6.1199679 -1.8661673
0.75516498 6.1581497 -1.8794742
0.79012978 6.131609 -1.8726728
0.8281213 6.1294856 -1.87356
0.86665106 6.1309099 -1.8756299
0.90578717 6.1358724 -1.8788826
0.94400012 6.133976 -1.8800656
0.98222387 6.1318412 -1.8812484
1.0199865 6.1266413 -1.8815441
1.0556084 6.1089711 -1.8779956
1.0929041 6.101439 -1.8776999
1.1306696 6.0964966 -1.8782912
1.1682355 6.0903826 -1.878587
1.2040982 6.075603 -1.8762213
1.240972 6.0662284 -1.8756299
1.2785646 6.0603695 -1.8762213
1.3157263 6.0524101 -1.8762213
1.3517954 6.0395617 -1.8747427
1.3883995 6.0292921 -1.8741513
1.4264684 6.0253072 -1.8756299
1.4636378 6.0173697 -1.8759257
1.5012264 6.0110559 -1.8768127
1.5397409 6.0082092 -1.8788826
1.5717224 5.9801702 -1.8729686
1.6118643 5.9833274 -1.8771085
1.6493093 5.9760871 -1.8779956
1.6828301 5.954823 -1.8744471
1.7203979 5.9480562 -1.8756299
1.7571331 5.9383039 -1.8759257
1.7863451 5.9036374 -1.8682373
1.8253577 5.9016919 -1.8711942
1.8589451 5.8821826 -1.8685329
1.8973496 5.8779383 -1.8708986
1.9438438 5.8979411 -1.8812484
1.9772557 5.8777537 -1.878587
2.0154543 5.8718362 -1.880657
2.0489204 5.8521457 -1.8782912
2.0880013 5.8484607 -1.8812484
2.1218874 5.8301525 -1.8794742
2.1539669 5.8071709 -1.8762213
2.1868575 5.786696 -1.8738557
2.2254107 5.7811923 -1.8765171
2.260493 5.7665391 -1.8762213
2.2926471 5.7445755 -1.87356
2.3235383 5.719779 -1.8700114
2.3655233 5.7221885 -1.8756299
2.4020708 5.7110887 -1.8768127
2.4351897 5.6918507 -1.8753341
2.4750226 5.688189 -1.8791784
2.5056269 5.6632857 -1.8759257
2.5418963 5.6512899 -1.8771085
2.5761271 5.6347179 -1.8768127
2.6086402 5.6144733 -1.8753341
2.6418173 5.5957694 -1.8744471
2.6761026 5.5794544 -1.8744471
2.7102871 5.5629292 -1.8744471
2.7430987 5.5436258 -1.87356
2.7796354 5.5318117 -1.8753341
2.8126574 5.5129499 -1.8747427
2.8486278 5.4998293 -1.8762213
2.8827651 5.4830928 -1.8765171
2.9172537 5.4669867 -1.8771085
2.9439211 5.4363832 -1.8726728
2.9827423 5.4282641 -1.8762213
3.0145981 5.4073572 -1.8753341
3.0453691 5.3846002 -1.8738557
3.0840549 5.3757567 -1.8774042
3.1102564 5.3451719 -1.8732642
3.1493061 5.3366828 -1.8771085
3.1775777 5.3098812 -1.8744471
3.2115853 5.2927341 -1.8753341
3.2440004 5.2729282 -1.8753341
3.2783153 5.2561665 -1.8765171
3.303869 5.2254553 -1.8726728
3.3374157 5.2074976 -1.87356
3.3672242 5.1837173 -1.8723772
3.3958161 5.1581712 -1.8706028
3.422631 5.1300855 -1.8679415
3.4642088 5.1240249 -1.87356
3.4869468 5.0900626 -1.8688287
3.5426228 5.1038871 -1.8821355
3.5727739 5.0804911 -1.8815441
3.606097 5.0615854 -1.8827269
3.6365275 5.038589 -1.8824311
3.6651201 5.0130963 -1.8812484
3.686147 4.9774618 -1.8762213
3.7189114 4.9578071 -1.8774042
3.7521513 4.9386983 -1.8788826
3.7788887 4.9110398 -1.8771085
3.811887 4.8915281 -1.878587
3.8424208 4.8687968 -1.8788826
3.8811679 4.8563228 -1.8833183
3.8850536 4.8004851 -1.8706028
3.9398649 4.8075905 -1.8830227
3.9686794 4.7825899 -1.8827269
3.9918053 4.7508345 -1.8797698
4.0264516 4.7328005 -1.8824311
4.0479345 4.6993198 -1.8788826
4.0842271 4.6830335 -1.8824311
4.1128845 4.6578851 -1.8824311
4.1413875 4.6325612 -1.8824311
4.1665297 4.6035213 -1.8809526
4.1901803 4.5729384 -1.8788826
4.2162118 4.5450411 -1.8779956
4.2499056 4.5253525 -1.880657
4.2644291 4.4853435 -1.8747427
4.2991567 4.4666643 -1.8779956
4.3304825 4.4443064 -1.8797698
4.3663912 4.4264932 -1.8836141
4.3907695 4.396914 -1.8824311
4.4237781 4.3759365 -1.8850926
4.4430294 4.3413663 -1.8818398
4.4688969 4.3133593 -1.8815441
4.4966617 4.2871757 -1.8821355
4.5242734 4.2608142 -1.8827269
4.548234 4.2310214 -1.8818398
4.5818462 4.2101445 -1.8850926
4.6033492 4.1780992 -1.8833183
4.6246314 4.1459484 -1.8815441
4.654274 4.1212945 -1.8833183
4.6909785 4.1027217 -1.8880496
4.7023296 4.0619955 -1.8824311
4.7387919 4.0429869 -1.8871626
4.7635102 4.0138345 -1.8871626
4.7777696 3.975975 -1.8830227
4.8131456 3.955683 -1.8874582
4.8291678 3.9194531 -1.8842055
4.8486543 3.8861632 -1.8824311
4.8769021 3.8598967 -1.8842055
4.9065151 3.8346064 -1.886571
4.9322205 3.8061793 -1.8874582
4.9516826 3.772949 -1.8859797
4.9724498 3.740772 -1.8850926
4.9999104 3.7136092 -1.8868668
5.0156693 3.6777759 -1.8842055
5.0443316 3.6514127 -1.886571
5.084517 3.6331675 -1.8933724
5.0934439 3.59254 -1.8883454
5.1255832 3.5683157 -1.8921895
5.1544671 3.5416677 -1.894851
5.1721482 3.507293 -1.8933724
5.1983342 3.4786792 -1.8951466
5.2251611 3.4504025 -1.8972166
5.2382307 3.4130611 -1.8942596
5.2606812 3.3818889 -1.894851
5.281333 3.3495462 -1.894851
5.3017859 3.3170776 -1.894851
5.3204136 3.2834804 -1.8942596
5.3371968 3.2487862 -1.8930767
5.3635826 3.2199106 -1.8954424
5.3815947 3.1859663 -1.894851
5.4076419 3.1567385 -1.8972166
5.428565 3.1244516 -1.897808
5.4617581 3.0990992 -1.902835
5.4848394 3.0678599 -1.9043136
5.4993777 3.0318415 -1.902835
5.522913 3.0007777 -1.9046093
5.549643 2.9713428 -1.9075664
5.5669255 2.936789 -1.9072707
5.5822978 2.9012539 -1.9063835
5.5948925 2.8643348 -1.9046093
5.6029801 2.8252196 -1.9013565
5.6142206 2.7878127 -1.8992865
5.6398025 2.7575085 -1.9022436
5.6591983 2.7240946 -1.9031308
5.6723533 2.6876829 -1.901948
5.6887379 2.6528273 -1.901948
5.7075129 2.6190674 -1.902835
5.7339234 2.5887151 -1.9063835
5.7593026 2.5577493 -1.9096364
5.7705112 2.5204506 -1.9081578
5.7893786 2.4865041 -1.9093406
5.8089271 2.4527926 -1.9108192
5.8176913 2.4145398 -1.9087492
5.8253212 2.375911 -1.9063835
5.8486571 2.3436768 -1.9093406
5.8647051 2.3084457 -1.909932
5.8725224 2.2700059 -1.9078621
5.8863401 2.2339299 -1.9078621
5.9070978 2.2004383 -1.9102278
5.919591 2.1638234 -1.909932
5.930059 2.1264932 -1.9090449
5.9520068 2.0932369 -1.912002
5.9611263 2.0554309 -1.9108192
5.970911 2.0178978 -1.909932
5.984087 1.9815233 -1.9102278
6.0006762 1.9462422 -1.9117063
6.010684 1.9088078 -1.9111149
6.026844 1.8733089 -1.9125934
6.0455365 1.8385177 -1.9149591
6.0530415 1.8002988 -1.9137763
6.0685601 1.7644579 -1.9152548
6.0838671 1.7284944 -1.9167334
6.0998812 1.6926649 -1.9185076
6.1166062 1.6569537 -1.9205775
6.126658 1.6193917 -1.9205775
6.1272292 1.5793837 -1.9176204
6.1423635 1.543155 -1.9193947
6.1452212 1.5038471 -1.9173248
6.1311016 1.4605767 -1.909932
6.1427398 1.4235766 -1.9108192
6.1457677 1.3845985 -1.9090449
6.172811 1.3509486 -1.9149591
6.1735091 1.3114591 -1.9125934
6.183311 1.2739401 -1.9131849
6.2022529 1.2382209 -1.9167334
6.1994166 1.1981467 -1.9134805
6.2169805 1.1620165 -1.9167334
6.2211733 1.1233386 -1.9158462
6.2383008 1.0869493 -1.919099
6.248621 1.0492845 -1.9202818
6.2587137 1.0115339 -1.9214647
6.2638588 0.9729653 -1.9211689
6.274435 0.93521714 -1.9226475
6.2876205 0.89778107 -1.9250132
6.2788138 0.85724479 -1.9205775
6.2924809 0.81981385 -1.9232389
6.2898088 0.78024715 -1.9208733
6.3077598 0.74320471 -1.9250132
6.3036566 0.70353287 -1.9223518
6.3050051 0.66454053 -1.9214647
6.3061118 0.6255582 -1.9205775
6.3183918 0.58764958 -1.9232389
6.3190236 0.54862154 -1.9223518
6.3327451 0.51068372 -1.9256046
6.3376646 0.47195908 -1.926196
6.3547368 0.43404037 -1.9306316
6.3486996 0.39450648 -1.9279703
6.3614926 0.35613218 -1.931223
6.3606954 0.31694928 -1.9303359
6.3701553 0.27824882 -1.9327016
6.3526506 0.23843922 -1.9267874
6.3654518 0.19981599 -1.9303359
6.3675132 0.16077872 -1.9306316
6.3693347 0.12172368 -1.9309273
6.3623204 0.082540266 -1.9285617
6.3569756 0.043460704 -1.9267874
6.3638096 0.0044593243 -1.9288573
6.3618064 -0.034578096 -1.9282659
6.3710265 -0.07372269 -1.931223
6.3857365 -0.11308286 -1.9359543
6.3925624 -0.15244459 -1.93832
6.3494935 -0.19040848 -1.9253088
6.3892555 -0.23084524 -1.9380243
6.3886733 -0.27008492 -1.93832
6.3888044 -0.30937231 -1.9389114
6.3829703 -0.34835944 -1.9377286
6.3845267 -0.38774946 -1.9389114
6.3991842 -0.42806348 -1.9442341
6.3973899 -0.46738961 -1.9445299
6.4001155 -0.50708681 -1.9463041
6.4111609 -0.54756618 -1.9507397
6.4267063 -0.58863544 -1.956654
6.413466 -0.62712878 -1.9536968
6.4266 -0.66824657 -1.9590195
6.395792 -0.70473897 -1.9507397
6.411274 -0.74628782 -1.9569496
6.3980403 -0.7845667 -1.9542882
6.4035277 -0.82515186 -1.957541
6.399291 -0.86455548 -1.9578367
6.3702183 -0.90046334 -1.9504441
6.3721337 -0.94064891 -1.9528097
6.3454704 -0.97653455 -1.9463041
6.3280396 -1.0136389 -1.9427556
6.302855 -1.0493115 -1.9368415
6.2793536 -1.0850385 -1.9315187
6.1672616 -1.1046901 -1.8983995
6.0100837 -1.1146489 -1.8510861
5.8727231 -1.1264995 -1.8099828
5.7701197 -1.1435764 -1.7798206
5.6871858 -1.1634566 -1.7558682
5.6173139 -1.1851225 -1.7360557
5.5641956 -1.2096268 -1.721566
5.5287018 -1.2374877 -1.7126948
5.5023861 -1.2671016 -1.7067807
5.5038037 -1.3030399 -1.7097377
5.5458293 -1.3489747 -1.725706
5.5152035 -1.3774241 -1.718609
5.5122004 -1.4126614 -1.7203832
5.488646 -1.4425728 -1.7156519
5.463088 -1.4717517 -1.7103291
5.4696093 -1.5095643 -1.7153561
5.4299073 -1.5345258 -1.7055978
5.4176364 -1.567018 -1.7047106
5.4033389 -1.5988756 -1.7032322
5.3769684 -1.6270208 -1.6979094
5.3696218 -1.6608293 -1.6987965
5.3502212 -1.6908674 -1.6958394
5.3279271 -1.7198499 -1.6919953
5.2855186 -1.7420454 -1.6816454
5.2729197 -1.7738349 -1.681054
5.2791038 -1.8120469 -1.6866724
5.2498531 -1.8380926 -1.6807584
5.2312784 -1.8677014 -1.6783926
5.2269015 -1.902378 -1.6807584
5.2007995 -1.9290993 -1.6760269
5.191546 -1.9619875 -1.6769141
5.174952 -1.9920896 -1.6754355
5.1572948 -2.0217135 -1.6736614
5.1368074 -2.0501337 -1.6709999
5.1409478 -2.088444 -1.6766183
5.1227393 -2.1177597 -1.6748441
5.0964398 -2.1435976 -1.6704085
5.0779214 -2.1725743 -1.6686343
5.0697508 -2.2059774 -1.6704085
5.0351529 -2.2277684 -1.6633115
5.0353284 -2.2648904 -1.6680429
5.0248117 -2.2973328 -1.6692257
5.0106211 -2.3281212 -1.6692257
4.9910583 -2.3563752 -1.6674515
4.9687538 -2.3832378 -1.66479
4.9634838 -2.4182825 -1.6680429
4.9417024 -2.4453034 -1.6656772
4.9223371 -2.4734349 -1.6641986
4.8908997 -2.4953437 -1.6585802
4.8890691 -2.5323353 -1.6633115
4.8861222 -2.5689538 -1.6677471
4.8407688 -2.5831475 -1.6573974
4.8584294 -2.6309948 -1.6692257
4.8430319 -2.661216 -1.6695215
4.8216052 -2.6880915 -1.6677471
4.7734222 -2.6997573 -1.6565102
4.7650537 -2.7337489 -1.6594673
4.7391071 -2.7576509 -1.6562146
4.7204518 -2.7857068 -1.6556231
4.7040901 -2.815109 -1.6559188
4.6965289 -2.8498657 -1.6594673
4.6781402 -2.878129 -1.6591716
4.6620135 -2.9077904 -1.659763
4.6489286 -2.9394038 -1.6615373
4.6283922 -2.9663277 -1.6606501
4.6004906 -2.9884272 -1.6571016
4.585259 -3.0186999 -1.6582845
4.5690346 -3.048368 -1.6591716
4.5589495 -3.0822306 -1.6624244
4.5328584 -3.1052873 -1.659763
4.5113649 -3.131408 -1.6588759
4.4889402 -3.1568325 -1.657693
4.4562588 -3.1748943 -1.6526661
4.4227509 -3.1921155 -1.6473433
4.4053946 -3.2208843 -1.6482304
4.3855486 -3.2478545 -1.6482304
4.360188 -3.2706904 -1.6461605
4.3453622 -3.3014274 -1.6482304
4.3447089 -3.3431733 -1.6559188
4.3226066 -3.3685946 -1.6553274
4.3063555 -3.3986046 -1.6571016
4.2772117 -3.4184041 -1.6538489
4.2776918 -3.4620109 -1.6624244
4.2497187 -3.482744 -1.659763
4.1995974 -3.4849648 -1.6482304
4.1927633 -3.5229571 -1.6541445
4.174706 -3.551712 -1.6556231
4.1607966 -3.5841181 -1.6588759
4.1632056 -3.6309273 -1.6689299
4.1265264 -3.643759 -1.6630158
4.1005297 -3.6658273 -1.6615373
4.0666265 -3.6806629 -1.656806
4.0425572 -3.7042551 -1.6562146
4.0323591 -3.7406836 -1.6615373
3.9905283 -3.7476995 -1.6535531
2.3722596 -2.2556798 -0.97224182
2.3501146 -2.2622445 -0.96869332
2.3471372 -2.2872877 -0.97342467
3.8830707 -3.8304162 -1.6473433
3.8655787 -3.860245 -1.6500046
3.8411479 -3.8832119 -1.649709
3.8105721 -3.8998754 -1.6467519
3.7759557 -3.9121866 -1.6420206
3.7538576 -3.9373558 -1.6429076
3.7237329 -3.9540565 -1.6402463
3.7020042 -3.9796281 -1.6414292
3.669759 -3.9938278 -1.6378807
3.631701 -4.0014157 -1.6316707
3.6140952 -4.0314479 -1.6349236
3.6101909 -4.077148 -1.6446819
3.5725272 -4.0848422 -1.6387677
3.5455222 -4.1045175 -1.6378807
3.5146902 -4.1196547 -1.6352192
3.497349 -4.1506391 -1.6390635
3.499315 -4.2050614 -1.6523703
3.4558563 -4.2050524 -1.6437948
3.4631021 -4.2669706 -1.6600587
3.4105659 -4.2553434 -1.6470476
3.4134436 -4.312892 -1.6615373
1.9973694 -2.5560164 -0.96307486
1.9798974 -2.5659552 -0.96218777
1.9606416 -2.5734966 -0.96041352
1.9442397 -2.5847151 -0.96011782
1.9141026 -2.5774248 -0.95272511
1.9135048 -2.6099198 -0.96070921
1.7019479 -2.3515608 -0.85750711
1.6847098 -2.3580735 -0.85602856
1.6713105 -2.3699276 -0.85661995
3.1491003 -4.5234981 -1.6650858
3.1256137 -4.5490336 -1.6674515
3.0949614 -4.5641732 -1.6659729
3.0839007 -4.6084819 -1.6754355
3.0387189 -4.6018095 -1.6659729
3.0020809 -4.607563 -1.6612415
2.9727197 -4.6242895 -1.6606501
2.9335442 -4.6255026 -1.6544403
2.9025738 -4.6393661 -1.6529617
2.8735507 -4.6562757 -1.6526661
2.8677769 -4.7113543 -1.6662686
2.8314385 -4.7165771 -1.661833
2.7975779 -4.7256417 -1.6588759
2.7670841 -4.7402434 -1.6579888
2.7222195 -4.7298117 -1.6482304
2.698333 -4.7555647 -1.6514832
2.6681697 -4.7703648 -1.6508918
2.6374655 -4.7841368 -1.6500046
2.6066926 -4.7977118 -1.6491176
2.5893812 -4.8363538 -1.6571016
2.5779343 -4.8867912 -1.6692257
2.541292 -4.8898029 -1.66479
2.5182071 -4.9189086 -1.6695215
2.4802349 -4.9189143 -1.6641986
1.5105221 -3.0423684 -1.0103881
1.4981209 -3.0644519 -1.0148238
1.4697589 -3.0537899 -1.0080225
1.4346297 -3.0282207 -0.99619418
2.3100104 -4.953722 -1.6508918
2.280767 -4.970407 -1.6517789
2.2502263 -4.9843082 -1.6517789
2.2176619 -4.9936562 -1.6503004
2.1854498 -5.0036678 -1.6491176
2.1543298 -5.0161057 -1.6488218
2.1183078 -5.0169096 -1.6446819
2.0904148 -5.0368714 -1.6470476
2.058748 -5.0478339 -1.6464561
2.0209839 -5.0435238 -1.6408377
1.9899995 -5.0558295 -1.6408377
1.9637628 -5.0804186 -1.6449777
1.9308579 -5.0879068 -1.6434991
1.8989357 -5.0978684 -1.6429076
1.8702441 -5.1166015 -1.6452733
1.8378466 -5.1252832 -1.6443862
1.8063638 -5.1364636 -1.6443862
1.7741902 -5.1456442 -1.6437948
1.741666 -5.1537189 -1.6429076
1.7091095 -5.1615882 -1.6420206
1.6741639 -5.1619825 -1.6387677
1.643905 -5.1767101 -1.6402463
1.6138121 -5.1921725 -1.6420206
1.580533 -5.1974072 -1.640542
1.5461612 -5.1987667 -1.6378807
1.5169007 -5.217329 -1.6408377
1.4812033 -5.2136736 -1.6366978
1.4537838 -5.2392325 -1.6420206
1.4238576 -5.2563524 -1.6446819
1.3886483 -5.2539077 -1.6411334
1.3511378 -5.2419786 -1.6346278
1.3247687 -5.2733321 -1.6420206
1.2912515 -5.2767224 -1.640542
1.2586284 -5.2836165 -1.6402463
1.2246749 -5.2847257 -1.6381763
1.1905453 -5.2846856 -1.6358107
0.7470606 -3.4143367 -1.0408461
0.72808218 -3.4282005 -1.0438032
0.70645493 -3.4297965 -1.0429161
0.68446141 -3.4293828 -1.0414375
0.66050494 -3.4185114 -1.0367062
0.63863909 -3.4178047 -1.0352277
0.61392009 -3.4009776 -1.028722
0.59025192 -3.3886821 -1.023695
0.5713473 -3.4035449 -1.0272435
0.54969043 -3.4022713 -1.0257649
0.52865744 -3.4046361 -1.0254693
0.51142019 -3.4323816 -1.0331577
0.48926914 -3.4278896 -1.030792
0.46693397 -3.4213622 -1.0278349
0.44654945 -3.428899 -1.0293134
0.42609003 -3.4363146 -1.030792
0.40566823 -3.4445567 -1.0325663
0.38759971 -3.4745128 -1.0411417
0.36897835 -3.502476 -1.0491259
0.34870729 -3.5170319 -1.0529702
0.32658947 -3.5133984 -1.0511959
0.30676192 -3.5353217 -1.0574057
0.28491014 -3.535233 -1.0568143
0.26292899 -3.5331042 -1.0556315
0.23883456 -3.499388 -1.0446903
0.21723962 -3.4988806 -1.0440989
0.19416314 -3.4715343 -1.0352277
0.1714305 -3.4440374 -1.0263563
0.15108825 -3.4631574 -1.0319748
0.12979998 -3.4630647 -1.0316792
0.10899905 -3.4781182 -1.0361148
0.087945737 -3.4901812 -1.0396632
0.066455483 -3.4868345 -1.0384804
0.044810377 -3.4680729 -1.0325663
0.023477111 -3.4606404 -1.0302006
0.0022535191 -3.4750485 -1.0346363
-0.019048491 -3.4711759 -1.0334533
-0.040225942 -3.4604862 -1.0302006
-0.0615426 -3.4649498 -1.0316792
-0.082847401 -3.4664171 -1.0322706
-0.10442969 -3.476347 -1.0355233
-0.12551716 -3.4689581 -1.0334533
-0.1461553 -3.4528518 -1.028722
-0.16756958 -3.4566607 -1.0302006
-0.18638416 -3.4116898 -1.016598
-0.20708299 -3.4066679 -1.0154152
-0.22759981 -3.3996143 -1.013641
-0.24845517 -3.3981538 -1.013641
-0.26982892 -3.4032314 -1.0157109
-0.28973088 -3.3900898 -1.0121624
-0.31287757 -3.4139333 -1.0201465
-0.33298299 -3.4033926 -1.0174851
-0.35692048 -3.4307404 -1.0266521
-0.38298365 -3.4740636 -1.0408461
-0.40053958 -3.4393864 -1.030792
-0.41547644 -3.3866103 -1.0151194
-0.43649253 -3.3858922 -1.0157109
-0.45521432 -3.3680031 -1.0109795
-0.47520322 -3.3604171 -1.009501
-0.49469784 -3.3498778 -1.0071354
-0.51596922 -3.3515003 -1.0086139
-0.53516459 -3.3397818 -1.0059525
-0.56191975 -3.3741279 -1.0177809
-0.58553922 -3.3875606 -1.0231036
-0.61776304 -3.4478462 -1.0432117
-0.64430523 -3.4731081 -1.0523787
-0.66704291 -3.4765949 -1.0547444
-0.68706274 -3.4658771 -1.0526744
-0.70908165 -3.4653397 -1.0538572
-0.73249972 -3.4712055 -1.0571101
-0.75601637 -3.4769139 -1.0603628
-0.77399862 -3.457294 -1.0556315
-0.79455471 -3.449687 -1.0547444
-0.81658667 -3.4484651 -1.0559272
-0.83660209 -3.4387486 -1.0544486
-0.85930598 -3.4400384 -1.0565186
-0.87115103 -3.3986108 -1.044986
-0.78929967 -3.0023847 -0.91990149
-0.80696183 -2.9947178 -0.91901439
-0.82557595 -2.9906309 -0.91931009
-0.84832597 -3.0011368 -0.92433709
-0.86778605 -2.9995458 -0.92551994
-0.90785372 -3.0674477 -0.94917661
-1.0436618 -3.4485919 -1.0742611
-1.0975387 -3.5479896 -1.1085632
-1.1264832 -3.5639608 -1.1159559
-1.1395284 -3.5297084 -1.1070846
-1.0675901 -3.2386675 -1.014528
-1.0694753 -3.1786349 -0.99708128
-1.0852381 -3.1611702 -0.99353278
-1.0989332 -3.1382225 -0.98821008
-1.1017903 -3.0855365 -0.97312891
-1.1210288 -3.0796158 -0.97342467
-1.1392395 -3.070888 -0.97283322
-1.1641383 -3.0799251 -0.97815597
-1.1830144 -3.0727241 -0.97815597
-1.3625429 -3.4754243 -1.1144774
-1.3672024 -3.4252977 -1.1005791
-1.3935859 -3.4301202 -1.1050147
-1.4182556 -3.4303331 -1.1079718
-1.434463 -3.4101188 -1.1041276
-1.4579899 -3.4074008 -1.1061976
-1.4739158 -3.3870029 -1.1023533
-1.4846226 -3.3551815 -1.0946649
-1.4957784 -3.3250992 -1.0875679
-1.5054299 -3.2924006 -1.0795839
-1.5155416 -3.2614427 -1.0721911
-1.5277772 -3.2356684 -1.0665727
-1.5352101 -3.2003927 -1.0577015
-1.5585835 -3.1986418 -1.0603628
-1.5815696 -3.195868 -1.0627285
-1.6174456 -3.2185404 -1.0739654
-1.6367297 -3.2077045 -1.0736697
-1.6471558 -3.1797874 -1.0674598
-1.673303 -3.1823044 -1.0718955
-1.6820056 -3.1517496 -1.0647985
-1.6772065 -3.0968471 -1.0491259
-1.6837573 -3.0638921 -1.0411417
-1.70113 -3.0509999 -1.0402547
-1.7259314 -3.0513144 -1.0440989
-1.7436708 -3.0390096 -1.0435075
-1.7584419 -3.0216477 -1.0411417
-1.7832601 -3.0214968 -1.044986
-1.7939183 -2.9973822 -1.0402547
-1.805339 -2.9748845 -1.0361148
-1.8370723 -2.9857199 -1.0440989
-1.8356436 -2.9427793 -1.0325663
-1.876636 -2.9677963 -1.0458732
-1.89378 -2.954617 -1.0452816
-1.9212394 -2.9573617 -1.0506045
-1.9214914 -2.9183879 -1.0405504
-1.9107357 -2.8636298 -1.0245821
-1.9774892 -2.9246626 -1.0517873
-1.9975567 -2.9156265 -1.0529702
-2.0126858 -2.8993907 -1.0514916
-2.0282404 -2.8838608 -1.0503087
-2.0375836 -2.8596907 -1.0458732
-2.0299366 -2.8122756 -1.0325663
-2.0511003 -2.8051658 -1.0346363
-2.0620208 -2.7840827 -1.0313834
-2.0813575 -2.7744348 -1.0325663
-2.0954525 -2.7578082 -1.0310878
-2.1268973 -2.7638268 -1.0384804
-2.1373572 -2.7424357 -1.0352277
-2.1399422 -2.7112713 -1.0281307
-2.1535563 -2.6943583 -1.0266521
-2.1808646 -2.6944606 -1.0319748
-2.2130983 -2.7002399 -1.0396632
-2.2326748 -2.6902854 -1.0411417
-2.2558994 -2.684581 -1.0443946
-2.2723291 -2.6706886 -1.0443946
-2.2924139 -2.6610384 -1.0461688
-2.3212554 -2.6613221 -1.052083
-2.3438637 -2.6541901 -1.0550401
-2.3613787 -2.6411829 -1.0556315
-2.381386 -2.6308939 -1.0574057
-2.3974841 -2.6162324 -1.0574057
-2.4186888 -2.6070757 -1.0597714
-2.4281008 -2.5852218 -1.0568143
-2.4393106 -2.5654283 -1.0547444
-2.431159 -2.5256333 -1.0440989
-2.4466102 -2.5106685 -1.0440989
-2.4512365 -2.4847271 -1.0393676
-2.4752109 -2.4784279 -1.0432117
-2.4842598 -2.4571469 -1.0405504
-2.5033891 -2.4458635 -1.0423247
-2.5238478 -2.4357648 -1.0446903
-2.535289 -2.4169366 -1.0432117
-2.5514622 -2.4026449 -1.0438032
-2.5703528 -2.3908484 -1.0455774
-2.595525 -2.384728 -1.0500131
-2.6072793 -2.3661888 -1.0488302
-2.6274388 -2.355248 -1.0511959
-2.6718774 -2.3656824 -1.0636156
-2.6647718 -2.3303752 -1.0547444
-2.6804664 -2.3152297 -1.0553358
-2.6902618 -2.2950187 -1.0535616
-2.7013712 -2.276006 -1.0523787
-2.7189567 -2.2624433 -1.0538572
-2.7335258 -2.2463241 -1.054153
-2.7487409 -2.2307134 -1.0547444
-2.7601404 -2.212013 -1.0538572
-2.7789042 -2.1991856 -1.0559272
-2.7757876 -2.1691508 -1.0494217
-2.7829952 -2.1474087 -1.047056
-2.7976387 -2.1314502 -1.0476474
-2.8106644 -2.114244 -1.0476474
-2.8166826 -2.0918317 -1.044986
-2.8317757 -2.0762041 -1.0458732
-2.8583899 -2.0688729 -1.0511959
-2.8663673 -2.0479627 -1.0494217
-2.8788793 -2.0303366 -1.0494217
-2.8818755 -2.0060835 -1.0458732
-2.9264095 -2.0105453 -1.0579971
-2.9481783 -1.9989856 -1.0615456
-2.9588006 -1.9797957 -1.0609542
-2.9493701 -1.9473894 -1.0529702
-2.9748695 -1.938122 -1.0579971
-2.9714386 -1.9100162 -1.0523787
-2.9952025 -1.8994231 -1.0568143
-3.0035615 -1.8789823 -1.0556315
-3.0353568 -1.8730612 -1.0630242
-3.0647435 -1.8653299 -1.0695298
-3.0769503 -1.8469815 -1.0698255
-3.0800054 -1.8232 -1.0668684
-3.0894842 -1.8033037 -1.066277
-3.0855887 -1.7757347 -1.0609542
-3.115535 -1.7676127 -1.0677555
-3.1313245 -1.7512611 -1.0695298
-3.1679437 -1.7463138 -1.0786967
-3.1844747 -1.7300355 -1.0807667
-3.2278733 -1.7280508 -1.0922993
-3.2781255 -1.7291642 -1.1061976
-3.3327494 -1.7319281 -1.1215744
-3.3331099 -1.7062216 -1.1180259
-3.3912816 -1.7098266 -1.1345855
-3.4025645 -1.6894108 -1.1348813
-3.4806616 -1.7016541 -1.1582422
-3.525466 -1.6968404 -1.1700705
-3.5962389 -1.7038132 -1.19077
-3.5590096 -1.6595066 -1.1745061
-3.6898055 -1.6930249 -1.2156096
-3.8577089 -1.7415102 -1.2691327
-3.900624 -1.732155 -1.2800739
-3.9505715 -1.7253975 -1.2933807
-4.0427122 -1.7361897 -1.3208816
-4.1395311 -1.7477731 -1.349861
-4.211937 -1.7479775 -1.3705605
-4.2438116 -1.7307605 -1.3776575
-4.3084407 -1.726367 -1.3956957
-4.3393965 -1.707947 -1.4024971
-4.403255 -1.7019577 -1.4202396
-4.4475527 -1.68779 -1.4314765
-4.4909463 -1.6728089 -1.4424176
-4.5379109 -1.6586703 -1.4545417
-4.6981678 -1.6846542 -1.5039248
-4.8940535 -1.7210944 -1.5648408
-4.9216805 -1.6969502 -1.5704592
-5.042407 -1.7040397 -1.6065356
-5.1969547 -1.720823 -1.6535531
-5.2583003 -1.7054101 -1.6701128
-5.3260241 -1.6913331 -1.6887424
-5.4439425 -1.6920865 -1.723636
-5.4715872 -1.6639333 -1.7292545
-5.5311375 -1.6450379 -1.7452227
-5.6273508 -1.6361443 -1.7730192
-5.7126336 -1.6229975 -1.7972673
-5.7519398 -1.5960904 -1.8067299
-5.8704243 -1.5902478 -1.8416235
-6.0989518 -1.6120665 -1.9117063
-6.130929 -1.5803378 -1.9188033
-6.1655254 -1.5489755 -1.9267874
-6.1888318 -1.5145223 -1.931223
-6.2110176 -1.47962 -1.9353629
-6.2171879 -1.4408349 -1.9344758
-6.2352304 -1.4047599 -1.9374329
-6.2418666 -1.3660662 -1.9368415
-6.2566719 -1.3291311 -1.9389114
-6.2469325 -1.2870522 -1.933293
-6.2528386 -1.2483233 -1.9327016
-6.2706976 -1.2119278 -1.9359543
-6.2658086 -1.1711463 -1.9321102
-6.2785172 -1.1336968 -1.9338844
-6.3107648 -1.09958 -1.9418685
-6.3268137 -1.0624199 -1.9448256
-6.3303843 -1.0231218 -1.9439385
-6.3271036 -0.98279321 -1.9409814
-6.3131733 -0.94099361 -1.9347715
-6.3528724 -0.90710223 -1.945417
-6.3706231 -0.86978537 -1.9492612
-6.3805766 -0.83129698 -1.9507397
-6.3940892 -0.79318976 -1.9534011
-6.3997846 -0.75405329 -1.9536968
-6.4137845 -0.71583098 -1.956654
-6.4133058 -0.67596227 -1.9551754
-0 -0 -0
-0 -0 -0
-0 -0 -0
-0 -0 -0
-0 -0 -0
-0 -0 -0
-0 -0 -0
-0 -0 -0
-0 -0 -0
-0 -0 -0
-0 -0 -0
-0 -0 -0
-0 0 -0
-0 0 -0
-6.0864034 0.51882678 -1.9270163
-0 0 -0
-0 0 -0
-0 0 -0
-0 0 -0
-0 0 -0
-0 0 -0
-0 0 -0
-0 0 -0
-0 0 -0
-0 0 -0
-0 0 -0
-0 0 -0
-0 0 -0
-5.9903712 1.034086 -1.9175088
-6.0288844 1.0788791 -1.9322301
-6.0202794 1.1155041 -1.9316167
-5.9880829 1.1475811 -1.923336
-6.0136061 1.1907787 -1.9340702
-6.0033889 1.2270827 -1.9331502
-5.9994721 1.2646817 -1.934377
-5.9748578 1.2978302 -1.9288565
-5.9704971 1.3352984 -1.9300833
-5.9594088 1.3712667 -1.9291631
-5.9592185 1.4097809 -1.9319234
-5.9412079 1.4440696 -1.9288565
-5.940546 1.4825728 -1.9316167
-5.9267273 1.5178139 -1.9300833
-5.9117794 1.5526993 -1.928243
-5.8855982 1.5844872 -1.9227226
-5.8858581 1.6233563 -1.9260962
-5.8730388 1.6586641 -1.9251761
-5.8673224 1.6959915 -1.9267097
-5.85498 1.7314206 -1.9260962
-5.8415132 1.7664865 -1.9251761
-5.8260174 1.8008898 -1.9236426
-5.8066897 1.8340222 -1.9208825
-5.8007617 1.8713712 -1.9227226
-5.7900739 1.9072267 -1.9230293
-5.7845774 1.9448426 -1.9251761
-5.7698345 1.9793724 -1.9242561
-5.7494955 2.0119073 -1.9214958
-5.7424212 2.049068 -1.923336
-5.736001 2.0865428 -1.9254829
-5.715951 2.119051 -1.9230293
-5.6939378 2.1507185 -1.9199624
-5.6797457 2.1852734 -1.9196557
-5.6573687 2.2166085 -1.9165888
-5.6551533 2.2558665 -1.9205757
-5.6253324 2.284075 -1.9150553
-5.6024156 2.3149121 -1.9119884
-5.5898609 2.3499823 -1.9126017
-5.6007137 2.3950949 -1.9214958
-5.5920215 2.4320734 -1.9236426
-5.5709004 2.4636438 -1.9214958
-5.5582829 2.4989512 -1.922416
-5.5428448 2.5330091 -1.922416
-5.5159769 2.5617576 -1.9184289
-5.4881048 2.5898657 -1.9141352
-5.44379 2.6099072 -1.9040143
-5.4447865 2.6515985 -1.9101483
-5.4309735 2.6862235 -1.9110683
-5.4228935 2.7237706 -1.9141352
-5.4001436 2.7539654 -1.9119884
-5.3780732 2.7844217 -1.9101483
-5.3608871 2.8173685 -1.9101483
-5.3275442 2.8416951 -1.9043211
-5.3242359 2.8820362 -1.9095348
-5.3064518 2.9146507 -1.9095348
-5.292625 2.9494731 -1.9110683
-5.2818837 2.9861097 -1.9138285
-5.2684155 3.0213046 -1.9156687
-5.2456646 3.0511806 -1.9141352
-5.2219257 3.0804074 -1.9122951
-5.198843 3.1099465 -1.9107616
-5.1723394 3.1373436 -1.9080014
-5.1521811 3.1685226 -1.9076947
-5.1374879 3.2030985 -1.9095348
-5.1322179 3.2437174 -1.9150553
-5.1001983 3.2674429 -1.9104549
-5.0888333 3.3043792 -1.9138285
-5.0740271 3.3392053 -1.9159753
-5.0574017 3.3729174 -1.9175088
-5.0271482 3.3974881 -1.9138285
-5.0093479 3.4304221 -1.9150553
-4.9733491 3.4507821 -1.9092282
-4.953639 3.4823282 -1.9098415
-4.9329538 3.5132098 -1.9101483
-4.9174786 3.547868 -1.9126017
-4.8925433 3.5757272 -1.911375
-4.863627 3.6005816 -1.9086148
-4.8505793 3.6372106 -1.9122951
-4.8205914 3.6611464 -1.9092282
-4.801054 3.6929779 -1.9104549
-4.7760515 3.7206118 -1.9095348
-4.7538795 3.7504368 -1.9098415
-4.732265 3.780724 -1.9104549
-4.711937 3.8120847 -1.9116817
-4.684041 3.8373048 -1.9098415
-4.6633372 3.8684046 -1.9110683
-4.6489863 3.9049056 -1.9150553
-4.6198645 3.9290402 -1.9129084
-4.5913424 3.9535861 -1.9110683
-4.5662799 3.9810579 -1.9107616
-4.5410533 4.0083714 -1.9104549
-4.5149536 4.0348902 -1.9098415
-4.4978733 4.0695434 -1.9132152
-4.4622927 4.08742 -1.9086148
-4.4455018 4.1224909 -1.9122951
-4.4235921 4.1529484 -1.9138285
-4.3897495 4.172143 -1.9101483
-4.3469234 4.1824975 -1.902481
-4.3286767 4.2163978 -1.9058546
-4.3027239 4.2428789 -1.9058546
-4.2725682 4.2651644 -1.9040143
-4.2489944 4.2940068 -1.9052411
-4.2219019 4.3193169 -1.9049344
-4.2039123 4.3540435 -1.9089215
-4.1705494 4.3728676 -1.9058546
-4.1495123 4.4046116 -1.9086148
-4.1224079 4.4299893 -1.9086148
-4.0932164 4.4530978 -1.9076947
-4.0530224 4.4640336 -1.9015609
-4.013484 4.4753528 -1.8957337
-3.9802694 4.4934812 -1.8929734
-3.9639015 4.5307155 -1.8984939
-3.9341605 4.5527911 -1.8975738
-3.9073865 4.5782933 -1.8981873
-3.8835142 4.6072774 -1.9003341
-3.8606508 4.6376042 -1.9030943
-3.8303094 4.6589994 -1.9021742
-3.7998507 4.6801968 -1.9012542
-3.7657049 4.6967397 -1.8984939
-3.7368152 4.7197576 -1.8984939
-3.7054408 4.7395973 -1.8972671
-3.6751263 4.7607374 -1.8966538
-3.6423848 4.7786551 -1.8948137
-3.6135671 4.8016748 -1.8951203
-3.5857391 4.8260493 -1.8960404
-3.5746322 4.8732905 -1.9061612
-3.5245719 4.8673754 -1.8951203
-3.4946399 4.8889103 -1.8951203
-3.4574447 4.9001493 -1.8911333
-3.4316633 4.9275208 -1.8935869
-3.4019029 4.9492688 -1.8938936
-3.3698683 4.9676862 -1.8929734
-3.3488514 5.0025086 -1.8984939
-3.3118 5.0134311 -1.8948137
-3.2809758 5.0336576 -1.8948137
-3.2505429 5.0544953 -1.8951203
-3.2281337 5.0880094 -1.9003341
-3.1907957 5.0980382 -1.8966538
-3.1659529 5.1280503 -1.9006407
-3.1260152 5.1335583 -1.895427
-3.1052349 5.1705956 -1.9021742
-3.0584195 5.1641612 -1.8926668
-3.0281146 5.1852961 -1.8935869
-2.9924431 5.1971793 -1.8911333
-2.9651945 5.223721 -1.8942002
-2.9284403 5.2335095 -1.8911333
-2.8999491 5.2580481 -1.8935869
-2.8662686 5.2732339 -1.8926668
-2.8334093 5.2898827 -1.8923601
-2.801342 5.3080101 -1.8926668
-2.7731092 5.3335447 -1.8957337
-2.7377286 5.3453765 -1.8938936
-2.705307 5.3629241 -1.8942002
-2.6715031 5.3777175 -1.8935869
-2.6413822 5.3999939 -1.8957337
-2.603245 5.405808 -1.8920534
-2.5704341 5.4225397 -1.8923601
-2.5399294 5.4442477 -1.8945069
-2.4949648 5.4346423 -1.8856128
-2.4564805 5.4385715 -1.8816259
-2.4331076 5.4761591 -1.8895998
-2.405556 5.504941 -1.8945069
-2.3642211 5.5021062 -1.8883731
-2.3393016 5.5375538 -1.8957337
-2.3081985 5.558836 -1.8981873
-2.2711711 5.5658436 -1.8957337
-2.2284806 5.5584702 -1.8883731
-2.1978183 5.5808959 -1.89144
-2.1611311 5.5880618 -1.8892932
-2.1237636 5.5932078 -1.8865329
-2.0900688 5.6079178 -1.8871464
-2.0592141 5.6304703 -1.89052
-2.0275187 5.651063 -1.8932801
-1.9852282 5.6418476 -1.8859196
-1.9515039 5.6566219 -1.8868396
-1.9167588 5.6684895 -1.8868396
-1.8915151 5.7090578 -1.8966538
-1.8517513 5.7060704 -1.8917466
-1.8144002 5.7100677 -1.8892932
-1.7750922 5.7074594 -1.8846928
-1.7524996 5.7592225 -1.8984939
-1.7049193 5.7288127 -1.8846928
-1.6710645 5.7437358 -1.8862263
-1.6365705 5.756628 -1.8871464
-1.6045258 5.7784843 -1.8911333
-1.5687907 5.7873025 -1.8908266
-1.5349534 5.8032608 -1.8929734
-1.4993163 5.8125696 -1.8929734
-1.4629271 5.8188906 -1.8920534
-1.4278742 5.8305311 -1.8929734
-1.390087 5.8308492 -1.8902133
-1.3529942 5.8337054 -1.8883731
-1.3171737 5.8418975 -1.8883731
-1.2853731 5.8684659 -1.8945069
-1.2471653 5.8660007 -1.8911333
-1.2115328 5.8754072 -1.8917466
-1.1717328 5.8640628 -1.8856128
-1.1360908 5.8730111 -1.8862263
-1.0965362 5.8611588 -1.8800924
-1.0637652 5.8855734 -1.8859196
-1.0251817 5.8779244 -1.8813192
-0.98815048 5.8784723 -1.8794791
-0.95373243 5.8947606 -1.8828527
-0.91637635 5.8929777 -1.8803991
-0.88090199 5.9031963 -1.8819325
-0.84520215 5.9122596 -1.8831593
-0.80878055 5.9163909 -1.8828527
-0.77246302 5.9212422 -1.8828527
-0.73693645 5.9324827 -1.8849995
-0.69996482 5.9321661 -1.883466
-0.66418582 5.9420252 -1.8853061
-0.62781352 5.9469352 -1.8856128
-0.59187555 5.9563584 -1.887453
-0.55602187 5.9674597 -1.8899065
-0.52021879 5.9802418 -1.8929734
-0.48198527 5.9643464 -1.8868396
-0.44453171 5.9558015 -1.8831593
-0.40797922 5.9584169 -1.8831593
-0.37093931 5.953208 -1.8807058
-0.33467004 5.9601235 -1.8822392
-0.29870859 5.9744234 -1.8862263
-0.26158798 5.9656835 -1.8828527
-0.22512101 5.9709811 -1.8840793
-0.18850936 5.9732013 -1.8843861
-0.15204695 5.9818573 -1.8868396
-0.11530378 5.9807744 -1.8862263
-0.079072565 6.0175352 -1.8978806
-0.041999049 5.996016 -1.8908266
-0.005203533 5.9904499 -1.8889865
0.031527292 5.98561 -1.887453
0.0682206 5.9824486 -1.8865329
0.10491006 5.9809661 -1.8862263
0.14149302 5.9754519 -1.8846928
0.17815505 5.9744711 -1.8846928
0.21446645 5.9637537 -1.8816259
0.25017035 5.9414043 -1.8748786
0.28629899 5.9331026 -1.8727318
0.32197195 5.9179287 -1.8684381
0.35983613 5.9414935 -1.8767188
0.39507821 5.9211297 -1.8708916
0.43334469 5.9451737 -1.8794791
0.46883783 5.930068 -1.875492
0.50643057 5.9413052 -1.8800924
0.54443926 5.9551468 -1.8856128
0.5809691 5.951694 -1.8856128
0.6195448 5.9678979 -1.8920534
0.65448314 5.9488468 -1.8871464
0.69339389 5.9655185 -1.8938936
0.72616076 5.9299755 -1.8837727
0.76508778 5.9452324 -1.8902133
0.7977289 5.9121289 -1.8810124
0.83652163 5.9250288 -1.8868396
0.87147099 5.9103689 -1.8837727
0.90829909 5.9086733 -1.8849995
0.94062221 5.8785534 -1.8770255
0.98136455 5.9008374 -1.8862263
1.0159321 5.8853259 -1.8831593
1.0513532 5.8752337 -1.8819325
1.0873832 5.8686724 -1.8819325
1.1222962 5.8562813 -1.8800924
1.1598741 5.8576875 -1.8828527
1.1938865 5.8411355 -1.8797857
1.2247921 5.8104172 -1.8721184
1.2672963 5.8344154 -1.8825459
1.3026559 5.8246717 -1.8819325
1.3385845 5.8174968 -1.8822392
1.3746934 5.8110266 -1.8828527
1.4091984 5.7978578 -1.8813192
1.4470533 5.7983365 -1.8843861
1.4823678 5.7884264 -1.8840793
1.5185828 5.7819834 -1.8849995
1.5532889 5.7697997 -1.8840793
1.5906885 5.7674999 -1.8865329
1.6219054 5.7429762 -1.8816259
1.6542039 5.7228589 -1.8782523
1.6884773 5.7098632 -1.8773322
1.7223778 5.6957512 -1.8761054
1.7589815 5.6905317 -1.8779455
1.7930043 5.676909 -1.8770255
1.8286806 5.6685176 -1.8779455
1.8649173 5.6617103 -1.8794791
1.8984078 5.6465521 -1.8782523
1.9357998 5.6428995 -1.8810124
1.9713312 5.6336107 -1.8819325
2.0090618 5.6303725 -1.8849995
2.044548 5.6206226 -1.8859196
2.0793281 5.6088638 -1.8862263
2.1126947 5.593329 -1.8853061
2.1473169 5.5811486 -1.8856128
2.1797848 5.563437 -1.8840793
2.2156446 5.5543776 -1.8856128
2.2496839 5.540678 -1.8856128
2.2832747 5.5258904 -1.8853061
2.3193521 5.5170403 -1.8871464
2.3524117 5.5009551 -1.8865329
2.3857408 5.4855447 -1.8862263
2.4185843 5.4690619 -1.8856128
2.4524868 5.454987 -1.8859196
2.4843287 5.4363737 -1.8846928
2.5200453 5.4262066 -1.8865329
2.5484161 5.4003134 -1.8828527
2.5860319 5.3940153 -1.8862263
2.6207478 5.3814683 -1.887453
2.6600506 5.3780828 -1.8920534
2.6857347 5.3472018 -1.8868396
2.7219546 5.3374043 -1.8892932
2.7550907 5.3214474 -1.8895998
2.7872477 5.3035998 -1.8892932
2.8224263 5.2914362 -1.8911333
2.8503082 5.2656488 -1.8880664
2.8821056 5.2472267 -1.8877597
2.9110034 5.2236242 -1.8856128
2.9439371 5.2073212 -1.8862263
2.9701493 5.1792526 -1.8825459
3.0057025 5.1675119 -1.8849995
3.0368693 5.1481524 -1.8846928
3.0679119 5.1286044 -1.8843861
3.1022854 5.1145658 -1.8862263
3.132113 5.0930023 -1.8853061
3.1607854 5.0696502 -1.8837727
3.1903069 5.0477471 -1.8828527
3.2176239 5.0224676 -1.8807058
3.2540843 5.0114098 -1.8840793
3.2816319 4.9865789 -1.8822392
3.3142805 4.9695163 -1.883466
3.3452435 4.9498754 -1.8837727
3.3744764 4.9276857 -1.8831593
3.4057343 4.9084511 -1.8837727
3.4374304 4.8897972 -1.8846928
3.4706826 4.8732648 -1.8865329
3.512217 4.8680844 -1.8929734
3.5358415 4.8379908 -1.8895998
3.5563967 4.803966 -1.8846928
3.5875199 4.784338 -1.8856128
3.6098986 4.7531409 -1.8819325
3.6407368 4.7331643 -1.8828527
3.6767313 4.7197452 -1.8865329
3.7014942 4.6918664 -1.8843861
3.7236767 4.6608872 -1.8810124
3.7557979 4.6423907 -1.8828527
3.7932622 4.6303005 -1.887453
3.8179548 4.6025438 -1.8856128
3.8461237 4.5790305 -1.8856128
3.8858664 4.569119 -1.89144
3.9001622 4.5293245 -1.8846928
3.9335108 4.511764 -1.887453
3.9598603 4.4861169 -1.8868396
3.9898496 4.4645734 -1.8880664
4.0197234 4.4428306 -1.8892932
4.0462656 4.4173808 -1.8889865
4.0778251 4.3973546 -1.8911333
4.0982141 4.3653131 -1.8880664
4.1255779 4.3407745 -1.8883731
4.1600556 4.3236074 -1.8920534
4.185842 4.2973189 -1.8917466
4.2141361 4.2735868 -1.8926668
4.2436423 4.2510166 -1.8942002
4.2689691 4.2242289 -1.8938936
4.288681 4.1919684 -1.8911333
4.3150067 4.1662359 -1.89144
4.3398004 4.1390243 -1.8911333
4.3651152 4.1123176 -1.8911333
4.3944468 4.0893459 -1.8929734
4.4229603 4.0655255 -1.8945069
4.4450035 4.0357513 -1.8932801
4.4569259 3.9969652 -1.8877597
4.4906306 3.9777455 -1.8917466
4.5006237 3.9375849 -1.8856128
4.5441475 3.9266944 -1.8938936
4.560915 3.8925605 -1.8908266
4.597815 3.8755414 -1.896347
4.6134605 3.8405597 -1.8929734
4.6303205 3.806741 -1.8902133
4.6558084 3.7800574 -1.8911333
4.6774292 3.7502284 -1.89052
4.7003522 3.7214575 -1.89052
4.7290978 3.6972353 -1.8929734
4.7479272 3.6652412 -1.89144
4.7756267 3.6400774 -1.8935869
4.7978721 3.6107061 -1.8935869
4.8161159 3.5783615 -1.8920534
4.8464251 3.5549338 -1.895427
4.8588943 3.5184329 -1.8917466
4.8850379 3.491873 -1.8935869
4.925817 3.4755478 -1.9012542
4.9517369 3.4485211 -1.9030943
4.9782948 3.4218459 -1.9052411
5.0015607 3.3928378 -1.9061612
5.0262399 3.3647316 -1.9076947
5.0372596 3.3275342 -1.9040143
5.0504045 3.2918873 -1.9012542
5.066505 3.2582631 -1.8997207
5.0839906 3.225585 -1.8988006
5.1093349 3.1978631 -1.9009475
5.1345305 3.1699517 -1.9030943
5.162828 3.1438308 -1.9064679
5.1844687 3.1135628 -1.907388
5.1952853 3.0768442 -1.9043211
5.2107787 3.0429893 -1.9030943
5.2252274 3.0085855 -1.9015609
5.2634573 2.9877403 -1.9089215
5.2800293 2.954459 -1.908308
5.3097277 2.9284387 -1.9126017
5.3342872 2.8994389 -1.9150553
5.3402295 2.8603642 -1.9107616
5.3088522 2.8017862 -1.8929734
5.358882 2.7862766 -1.9049344
5.3741827 2.7524753 -1.9043211
5.3952198 2.7215905 -1.9058546
5.4084077 2.6867418 -1.9046278
5.4256463 2.653924 -1.9049344
5.4615541 2.6300774 -1.9119884
5.4698477 2.5928485 -1.9092282
5.4985938 2.5652709 -1.9138285
5.5168257 2.5326748 -1.9147487
5.5296593 2.4976017 -1.9138285
5.5448804 2.4636252 -1.9138285
5.5520425 2.4261277 -1.9110683
5.569448 2.393142 -1.9119884
5.5901651 2.361515 -1.9141352
5.5966377 2.3238864 -1.911375
5.6160798 2.2916589 -1.9132152
5.6388702 2.2606964 -1.9162821
5.657064 2.2277973 -1.9178156
5.6821685 2.1975052 -1.9218025
5.6919856 2.161248 -1.9205757
5.7069235 2.1269464 -1.9211892
5.7207608 2.092216 -1.9214958
5.7370744 2.0583599 -1.9227226
