# .PCD v0.7 - Point Cloud Data file format
VERSION 0.7
FIELDS x y z
SIZE 4 4 4
TYPE F F F
COUNT 1 1 1
WIDTH 1493
HEIGHT 1
VIEWPOINT 0 0 0 1 0 0 0
POINTS 1493
DATA ascii
-4.0092478 -3.2550588 -0.41515636
-3.801434 -3.0477991 -0.38956881
-13.661184 -10.817142 -1.4900092
-13.728085 -10.733728 -1.4900966
-13.792899 -10.648684 -1.4900092
-3.3308237 -2.5386817 -0.32957336
-11.26018 -8.4747372 -1.1978917
-11.263194 -8.3692417 -1.1925646
-11.351282 -8.3270798 -1.1965817
-4.0666184 -2.9446635 -0.40258092
-14.256539 -10.191725 -1.4987422
-3.0834167 -2.1754243 -0.29324424
-3.0999765 -2.1587415 -0.29359356
-3.0786858 -2.1159773 -0.28992569
-3.0825431 -2.0908947 -0.28896508
-3.1830587 -2.1306891 -0.29822201
-3.1711376 -2.0946441 -0.29560214
-3.2239871 -2.1012602 -0.29979396
-3.3080354 -2.1272445 -0.30721697
-5.72328 -3.6312766 -0.55663031
-3.4149518 -2.1372325 -0.3156006
-3.4432583 -2.1256595 -0.31717256
-15.21014 -9.2630129 -1.5236311
-3.5792465 -2.1494145 -0.32843807
-3.5897963 -2.1258891 -0.32817608
-3.6001923 -2.1023152 -0.32791409
-15.54511 -8.9515743 -1.534984
-15.60754 -8.8604498 -1.5357699
-15.668568 -8.7684088 -1.5364685
-3.8103273 -2.1013813 -0.34389541
-3.8704104 -2.1036551 -0.34861121
-3.9139793 -2.0963318 -0.35166773
-3.9214826 -2.0694866 -0.35114378
-16.099855 -8.3718977 -1.5532359
-3.9182112 -2.0066743 -0.34834921
-3.9295609 -1.9821461 -0.34826189
-7.6653905 -3.8081751 -0.71277571
-7.6671367 -3.7505627 -0.71067977
-7.6684651 -3.6930728 -0.70858383
-16.634729 -7.8862996 -1.5762908
-10.039561 -4.6842136 -0.93363225
-5.779685 -2.6534095 -0.51995188
-5.7559123 -2.5998507 -0.51610941
-5.7763081 -2.5665069 -0.51654607
-5.7983365 -2.5338085 -0.51715738
-10.16388 -4.367754 -0.932235
-10.17489 -4.2987161 -0.93075037
-10.278354 -4.2682986 -0.93808609
-10.301583 -4.2040219 -0.93782407
-10.226402 -4.1003199 -0.92830515
-9.6238785 -3.7903318 -0.869183
-10.405093 -4.0244732 -0.94044399
-10.445422 -3.9665656 -0.94192857
-10.352885 -3.8589034 -0.93101239
-10.401628 -3.8045471 -0.93337029
-10.488535 -3.7635329 -0.9393087
-10.447533 -3.6766164 -0.93337029
-10.419044 -3.5948951 -0.92865449
-7.7986398 -2.6372304 -0.68413156
-7.8014364 -2.5849421 -0.68290895
-10.394382 -3.3735948 -0.9204455
-10.460457 -3.3242362 -0.92463732
-10.507292 -3.2682748 -0.92708254
-10.552878 -3.2115736 -0.92944044
-10.529421 -3.1339722 -0.92551059
-10.881315 -3.1661727 -0.95590132
-10.886165 -3.0952594 -0.95459139
-10.867517 -3.0180078 -0.95118552
-9.7003489 -2.6298263 -0.84350812
-11.013522 -2.913466 -0.96114111
-11.059164 -2.8530512 -0.96367365
-11.122835 -2.7968016 -0.96786547
-11.180425 -2.7384555 -0.9715333
-11.214458 -2.6739619 -0.97310525
-11.129732 -2.581687 -0.96402299
-11.392194 -2.5690181 -0.98620468
-11.490456 -2.5171914 -0.99362773
-11.265985 -2.3956604 -0.9721446
-11.274619 -2.3252809 -0.97162062
-11.508467 -2.2999911 -0.99126983
-11.475417 -2.2202487 -0.98707801
-11.542679 -2.1598742 -0.99188113
-11.564537 -2.0906043 -0.99266708
-11.938285 -2.0826187 -1.0248044
-11.74159 -1.974139 -1.0062032
-12.022929 -1.9456704 -1.0301315
-13.191239 -2.0517983 -1.1327437
-13.410485 -2.0017095 -1.151083
-14.200583 -2.0306721 -1.2199861
-15.169168 -2.0743084 -1.3046085
-15.863194 -2.0701575 -1.3648659
-15.762899 -1.9587765 -1.3549103
-19.6814 -2.3232729 -1.699775
-20.449669 -2.2868426 -1.7663201
-21.04781 -2.223068 -1.8178445
-22.221855 -2.2093079 -1.9201075
-22.242928 -2.0736554 -1.9208062
-22.299892 -1.9410243 -1.924736
-22.303438 -1.8035158 -1.9240373
-22.300177 -1.6655915 -1.9228147
-22.300039 -1.5280476 -1.9219415
-22.305017 -1.3909403 -1.9215921
-22.297218 -1.2531585 -1.9201949
-22.303493 -1.1162719 -1.9201075
-22.302958 -0.97909325 -1.9194962
-22.305557 -0.84211361 -1.9192343
-22.298357 -0.70485556 -1.9181863
-19.439734 1.433221 -1.9147228
-19.421646 1.5517602 -1.9138259
-19.401846 1.6700461 -1.9128292
-19.369434 1.7870497 -1.9106364
-19.330379 1.9031333 -1.9078459
-19.288649 2.0185976 -1.9048558
-19.255133 2.134609 -1.9027628
-19.223883 2.2506323 -1.9009688
-19.205761 2.3680582 -1.9005702
-19.188896 2.4856021 -1.9003707
-19.175257 2.6035643 -1.9005702
-19.157934 2.7210324 -1.9004705
-19.135958 2.8378019 -1.8999721
-19.108351 2.9536438 -1.8989754
-19.075132 3.0684636 -1.8974804
-19.041225 3.182987 -1.8959854
-19.008591 3.2975502 -1.8946898
-18.970371 3.4109519 -1.8928957
-18.9305 3.5238268 -1.8910021
-18.894842 3.6372819 -1.8896067
-18.863386 3.7514026 -1.8887097
-18.828316 3.8646741 -1.8875138
-18.797434 3.978687 -1.886816
-18.762947 4.0918303 -1.8858194
-18.729719 4.2051363 -1.885022
-18.690962 4.3170686 -1.8837264
-18.651535 4.4286842 -1.8824307
-18.615311 4.5409217 -1.8815337
-18.57262 4.6514306 -1.8800387
-18.532166 4.7623301 -1.8788427
-18.493937 4.8736691 -1.8779457
-18.442551 4.9813447 -1.875753
-18.424105 5.0978622 -1.8770487
-18.394392 5.2113571 -1.877248
-18.378317 5.3288364 -1.8789424
-18.358627 5.4454656 -1.8803377
-18.345818 5.5643644 -1.8825303
-18.330338 5.6827216 -1.8845237
-18.318838 5.8026004 -1.8870153
-18.298983 5.9201012 -1.8887097
-18.278374 6.0375767 -1.8904041
-18.273985 6.1607447 -1.8938924
-18.287588 6.2905598 -1.8993741
-18.252401 6.4039698 -1.8997728
-18.260542 6.5329409 -1.9048558
-18.249092 6.6554327 -1.9079455
-18.251747 6.7835765 -1.9126298
-18.230251 6.903193 -1.9148225
-18.241394 7.0356927 -1.9206032
-18.221033 7.1565828 -1.9230949
-18.20542 7.2797041 -1.9261845
-18.191742 7.4040289 -1.9295732
-18.16987 7.5254126 -1.9321645
-18.152695 7.6491251 -1.9353539
-18.142916 7.7764378 -1.9394403
-18.150497 7.911871 -1.9455199
-18.140724 8.040431 -1.9498056
-18.158176 8.1818419 -1.957181
-18.142912 8.3092651 -1.961068
-18.11504 8.4313488 -1.9636594
-18.097145 8.5585089 -1.9674467
-18.071198 8.6823187 -1.9704367
-18.051561 8.8096228 -1.9742241
-18.045307 8.9440842 -1.9796062
-17.950094 9.0345068 -1.9751211
-17.969631 9.1829672 -1.9835927
-17.969473 9.3223829 -1.9899715
-17.94803 9.4514771 -1.9940578
-17.920412 9.5778437 -1.9975462
-17.893667 9.7051754 -2.0012338
-17.866905 9.8330183 -2.0050211
-17.831429 9.9565315 -2.0079114
-17.808092 10.087337 -2.0122969
-17.753628 10.200876 -2.0131938
-17.71907 10.326154 -2.0164828
-17.673365 10.445313 -2.0185759
-17.641371 10.572998 -2.0223632
-17.599123 10.694998 -2.0250542
-17.575523 10.828882 -2.0300376
-17.525625 10.947063 -2.0320311
-17.511086 11.087932 -2.0383101
-17.464493 11.209144 -2.0409014
-17.43959 11.344851 -2.0461838
-17.407864 11.476842 -2.0507684
-17.384272 11.614949 -2.0564494
-17.334923 11.736461 -2.0591404
-17.289658 11.861182 -2.0624294
-17.249233 11.989764 -2.066416
-17.198933 12.111994 -2.0693064
-17.15102 12.236368 -2.0725956
-17.100615 12.359445 -2.0756853
-17.057373 12.48824 -2.0797715
-16.970036 12.584962 -2.078476
-16.921135 12.710366 -2.0820639
-16.823824 12.799493 -2.0796719
-16.722115 12.884868 -2.0767815
-16.598028 12.952335 -2.0711005
-16.539318 13.070594 -2.0737915
-16.423073 13.143229 -2.0692067
-16.328205 13.232475 -2.0674129
-16.229013 13.317895 -2.0651205
-16.163061 13.430579 -2.0672135
-16.020964 13.47953 -2.0594394
-15.910687 13.554349 -2.0558515
-15.808384 13.635471 -2.0533597
-15.710932 13.720431 -2.0515656
-15.611541 13.803391 -2.0495725
-15.513206 13.886975 -2.0477784
-15.417384 13.972546 -2.0463831
-15.316698 14.053427 -2.0443897
-15.203936 14.122764 -2.0408018
-15.098873 14.198746 -2.0383101
-14.997775 14.278087 -2.0364163
-14.871199 14.332554 -2.0310342
-14.75805 14.39921 -2.0275459
-14.652431 14.472711 -2.0251539
-14.547874 14.546865 -2.0229614
-14.438065 14.615325 -2.020071
-14.341166 14.696519 -2.0190742
-14.249339 14.782804 -2.0188749
-14.130921 14.841132 -2.0148883
-14.020506 14.907263 -2.0120976
-13.911165 14.974056 -2.0095062
-13.798843 15.037136 -2.0065162
-13.696962 15.111199 -2.005121
-13.597347 15.187545 -2.0041242
-13.494016 15.259509 -2.0026293
-13.396858 15.338272 -2.0021307
-13.273247 15.38628 -1.9976459
-13.166328 15.453042 -1.9957522
-13.049481 15.507651 -1.9923635
-12.957263 15.591256 -1.9928619
-12.828529 15.63047 -1.9876791
-12.727369 15.702705 -1.9868819
-12.59845 15.740107 -1.9816991
-12.497314 15.811648 -1.9810015
-12.390265 15.875483 -1.9794067
-12.28655 15.943327 -1.9784101
-12.193913 16.025543 -1.9793071
-12.078023 16.07699 -1.9764167
-11.970258 16.138807 -1.9749217
-11.858664 16.195093 -1.9728287
-11.746829 16.250616 -1.9707358
-11.63476 16.305378 -1.9686427
-11.515013 16.348801 -1.9652541
-11.400852 16.399538 -1.962862
-11.279747 16.439646 -1.9592741
-11.17699 16.506077 -1.958975
-11.063338 16.556145 -1.9567823
-10.945661 16.599627 -1.953892
-10.843601 16.666475 -1.953892
-10.737371 16.726833 -1.9531944
-10.627083 16.780634 -1.951799
-10.519701 16.838774 -1.9510016
-10.40731 16.888603 -1.9493073
-10.297803 16.942789 -1.948211
-10.178304 16.980053 -1.9452209
-10.070888 17.037046 -1.944623
-9.9596472 17.087343 -1.9433273
-9.7837248 17.024761 -1.9290749
-9.5363646 16.832535 -1.9000717
-9.4401789 16.903763 -1.9015667
-9.4456682 17.16012 -1.9242909
-9.3549042 17.244869 -1.9273806
-9.2568893 17.316862 -1.9290749
-9.156024 17.383902 -1.9302709
-9.0510197 17.443287 -1.9306695
-8.944272 17.49938 -1.9307692
-8.8358345 17.552155 -1.9305699
-8.7266445 17.603365 -1.9302709
-8.6101761 17.639589 -1.9283773
-8.4940233 17.675945 -1.9265832
-8.3781738 17.712439 -1.9248888
-8.2613564 17.746374 -1.9229952
-8.1489964 17.789494 -1.9221978
-8.0347834 17.828274 -1.9210019
-7.9204021 17.866322 -1.9198059
-7.8082414 17.909111 -1.9192078
-7.6958542 17.951199 -1.9186099
-7.5828581 17.991663 -1.9179121
-7.4711781 18.035093 -1.9176131
-7.3517489 18.059399 -1.9153209
-7.2363667 18.093082 -1.9141248
-7.1146641 18.110285 -1.9112345
-6.9991102 18.142458 -1.9100385
-6.8841348 18.175756 -1.9090418
-6.7700543 18.211126 -1.9083441
-6.655458 18.244846 -1.9075468
-6.5460658 18.292835 -1.9083441
-6.4320526 18.327961 -1.9078459
-6.316237 18.357674 -1.9068491
-6.1990266 18.382883 -1.9054538
-6.0801849 18.402622 -1.9035602
-5.967154 18.439583 -1.9035602
-5.8436823 18.4436 -1.9001714
-5.7292256 18.475306 -1.8997728
-5.6154671 18.509161 -1.8996731
-5.5032058 18.548037 -1.9001714
-5.3917875 18.590055 -1.9010684
-5.278976 18.627577 -1.9015667
-5.1667027 18.667288 -1.9023641
-5.0525842 18.700562 -1.9025635
-4.9402804 18.740833 -1.9035602
-4.8254433 18.771757 -1.9036598
-4.7075119 18.790394 -1.9025635
-4.5914202 18.816025 -1.9022645
-4.475421 18.841908 -1.9020652
-4.3595014 18.868044 -1.9019655
-3.2916884 14.654741 -1.4667193
-3.1726589 14.541476 -1.4530649
-3.0213506 14.267661 -1.4230651
-2.924345 14.24012 -1.4183807
-2.838079 14.263651 -1.4189788
-2.753515 14.29643 -1.4205735
-2.7023456 14.509677 -1.4406065
-2.5581453 14.21946 -1.4094107
-2.4759507 14.2643 -1.4124007
-2.3850987 14.259596 -1.4104074
-2.2847569 14.194388 -1.4023343
-2.1406131 13.839388 -1.3649592
-2.0344889 13.709545 -1.3505075
-1.9450129 13.684335 -1.3467201
-1.8551197 13.652629 -1.3423347
-1.7784727 13.719014 -1.3479161
-1.6977925 13.758307 -1.3508065
-1.6144984 13.778348 -1.3518032
-1.5293773 13.783051 -1.3513048
-1.4451917 13.796134 -1.3517035
-1.3636333 13.836429 -1.3548928
-1.3166522 14.255722 -1.3962547
-1.2384589 14.371591 -1.4071183
-1.3171833 16.467773 -1.6170173
-1.1589632 15.700539 -1.5391773
-1.0204073 15.08291 -1.4764867
-0.92906094 15.10875 -1.47848
-0.84654903 15.298959 -1.4970181
-0.71122783 14.460109 -1.4124007
-0.62244624 14.463206 -1.4123011
-0.55975074 15.174728 -1.483264
-0.46504378 15.126161 -1.4780813
-0.37302777 15.161555 -1.4813703
-0.27819845 15.066063 -1.4716029
-0.20070516 16.288286 -1.5938945
-0.093470156 15.097198 -1.4744933
-0.0008334688 15.109427 -1.4756893
0.091606662 15.065368 -1.4713039
0.1836651 15.033679 -1.4682143
0.27605325 15.040228 -1.4690117
0.36476481 14.893022 -1.4544603
0.45433772 14.831824 -1.4485799
0.54449266 14.805887 -1.4462875
0.63477397 14.789345 -1.4449918
0.79306042 16.159626 -1.5828314
0.77676576 14.067106 -1.3734308
0.86202765 14.045192 -1.3717365
0.94543874 13.998936 -1.3676502
1.0349046 14.041494 -1.3725339
1.125404 14.089432 -1.3780156
1.2044903 13.997005 -1.3694443
1.2922726 14.010159 -1.3715372
1.381237 14.032662 -1.3746269
1.463376 13.986318 -1.3708396
1.5378684 13.875213 -1.3605739
1.6283011 13.910975 -1.3651586
1.7087537 13.861221 -1.3611718
1.7923657 13.839622 -1.3600755
1.8870274 13.900338 -1.3673512
1.9687833 13.863871 -1.3648596
2.0546894 13.857434 -1.3654575
2.141655 13.857349 -1.3667532
2.2339139 13.889137 -1.3713379
2.3140066 13.844746 -1.3682482
2.4087803 13.887148 -1.3740289
2.4918313 13.860355 -1.3728329
2.5759192 13.839913 -1.3723346
2.6649301 13.845343 -1.3745272
2.7595403 13.877525 -1.3795106
2.844239 13.858382 -1.3793112
2.9306617 13.847484 -1.3800089
3.031054 13.900208 -1.3872846
3.1171594 13.885232 -1.3876833
3.3075714 14.321501 -1.4345268
3.3291647 14.022126 -1.4058228
3.4469819 14.131934 -1.4192778
3.5082409 14.009172 -1.4088128
3.5837297 13.946908 -1.4046267
3.7004337 14.043001 -1.4168857
3.7992468 14.0671 -1.4217694
3.9239731 14.182574 -1.4362211
3.9827082 14.058668 -1.4258558
4.0680642 14.031099 -1.4255568
4.1639862 14.039261 -1.4290451
4.2965574 14.166746 -1.4450915
4.3383136 13.994709 -1.4298425
4.4319153 13.992488 -1.4324338
4.5287166 13.999112 -1.4360218
4.6192102 13.985232 -1.4375168
4.6884027 13.907598 -1.4323342
4.8238249 14.024406 -1.4477825
4.9460287 14.097822 -1.458746
5.030427 14.061587 -1.4581479
5.2362947 14.358562 -1.493131
5.2920551 14.239425 -1.483862
5.4075208 14.281127 -1.4918354
5.4635315 14.165984 -1.4830647
5.5918241 14.237772 -1.4944267
5.6801887 14.205965 -1.4947257
5.7612453 14.156099 -1.493131
5.8377156 14.095662 -1.49044
6.0319095 14.315396 -1.5182471
6.2670445 14.621979 -1.555722
6.3117104 14.480182 -1.5444596
6.3875365 14.412072 -1.5412703
6.4574504 14.331786 -1.5367852
6.5386367 14.27742 -1.5351906
6.6290579 14.243345 -1.5358882
6.7146268 14.198804 -1.5354896
6.8567848 14.272134 -1.548247
6.9835086 14.310269 -1.557217
7.0848832 14.294786 -1.5603067
7.73528 15.369115 -1.6856879
7.344902 14.373337 -1.5790441
7.4127932 14.289138 -1.5746588
7.5944567 14.422102 -1.5948912
7.8746548 14.734138 -1.635655
7.7333851 14.258725 -1.5870174
7.8351231 14.237156 -1.5900074
8.3017139 14.868165 -1.6679472
8.2539864 14.571941 -1.6397413
8.6074858 14.98085 -1.6928639
8.5579481 14.685329 -1.6647577
8.6448565 14.627403 -1.6641598
8.7405844 14.584326 -1.6653558
8.8831377 14.618 -1.6756215
8.9063711 14.455637 -1.6629637
9.2342424 14.78384 -1.7082126
9.3120041 14.706726 -1.7058207
9.3805676 14.615818 -1.701834
9.5020876 14.607193 -1.7077143
9.4819899 14.382476 -1.6877809
9.559557 14.308306 -1.6858872
10.083997 14.894501 -1.7639265
10.185331 14.847115 -1.7657205
10.291574 14.806398 -1.7684115
10.405723 14.776325 -1.7724979
10.497348 14.713819 -1.7726972
10.565283 14.618488 -1.7689099
10.643024 14.537329 -1.7669165
10.848795 14.629192 -1.786551
10.963455 14.595763 -1.790737
11.09679 14.586023 -1.7980127
11.210374 14.549187 -1.8019993
11.314127 14.498953 -1.8043914
11.41892 14.449554 -1.8069828
11.477521 14.341928 -1.8021986
11.552149 14.255001 -1.8001057
11.647604 14.193849 -1.8014014
11.777722 14.174151 -1.8081787
11.931739 14.181559 -1.8186438
12.088868 14.190636 -1.8295075
12.219258 14.166673 -1.8361852
12.375336 14.170869 -1.8467499
12.525331 14.166225 -1.8563179
12.669759 14.153602 -1.8649889
12.852591 14.181758 -1.879341
13.013368 14.183274 -1.8903044
13.182094 14.191366 -1.9023641
13.347999 14.194295 -1.9139255
13.511687 14.192836 -1.9250882
13.680001 14.194198 -1.9368489
13.850227 14.19545 -1.948809
14.046155 14.220628 -1.964357
14.23165 14.232675 -1.9783105
14.424191 14.249269 -1.9931608
14.587555 14.234849 -2.0038252
14.734087 14.202385 -2.0120976
14.869238 14.157679 -2.0187752
14.975399 14.084581 -2.0214663
15.083409 14.012745 -2.0244563
15.117785 13.872841 -2.0174797
15.201884 13.779151 -2.01738
15.262423 13.664377 -2.0141907
15.292308 13.523016 -2.0070145
15.311292 13.373296 -1.9985429
15.361416 13.2518 -1.9943569
15.409869 13.129548 -1.9900712
15.467299 13.01553 -1.9870812
15.513962 12.893034 -1.9827955
15.572782 12.781188 -1.9802041
15.625402 12.664721 -1.9769151
15.678735 12.549333 -1.9738255
15.714066 12.420195 -1.9685431
15.766446 12.305177 -1.965553
15.806184 12.180875 -1.961068
15.858455 12.066791 -1.9582773
15.910716 11.953123 -1.9555863
15.958184 11.836305 -1.952397
16.000002 11.715828 -1.9486096
16.043362 11.597033 -1.9451213
16.089109 11.480459 -1.9420316
16.132402 11.362616 -1.9387426
16.176491 11.24581 -1.935653
16.220573 11.129454 -1.932663
16.264664 11.013539 -1.9297726
16.312906 10.90082 -1.9274802
16.360378 10.787923 -1.9251878
16.397072 10.668344 -1.9216995
16.432077 10.548184 -1.9181116
16.476315 10.434384 -1.9157195
16.499521 10.307788 -1.9109355
16.531115 10.187042 -1.9072478
16.567801 10.069915 -1.9042578
16.600258 9.950676 -1.9008691
16.628452 9.8293924 -1.8970817
16.649765 9.7046318 -1.8925967
16.672764 9.5814676 -1.8884107
16.685354 9.4529924 -1.8831284
16.71003 9.3320007 -1.879341
16.74431 9.2168207 -1.8767496
16.781307 9.1034689 -1.874557
16.816666 8.989542 -1.8722646
16.842455 8.8708878 -1.8689756
16.878019 8.7577543 -1.8668827
16.90663 8.6413498 -1.864092
16.92556 8.5204506 -1.8603046
16.951668 8.4036217 -1.8574142
16.980558 8.2885399 -1.8549225
17.005983 8.1721277 -1.8521318
17.031519 8.0561409 -1.8494409
17.040939 7.9330111 -1.8450556
17.04768 7.8092408 -1.8404709
17.070782 7.6934543 -1.8377799
17.091286 7.5768723 -1.8348895
17.121037 7.4647026 -1.8330954
17.144567 7.350101 -1.8307035
17.175591 7.2389698 -1.8292085
17.202219 7.1262116 -1.8273149
17.221659 7.0107737 -1.8247235
17.234787 6.8931494 -1.8215342
17.259161 6.7803574 -1.8196404
17.269804 6.6625128 -1.8163514
17.303846 6.5539551 -1.8156538
17.347466 6.4490438 -1.8160524
17.403536 6.3486171 -1.8178464
17.455278 6.2464042 -1.8192418
17.509239 6.1447835 -1.8209361
17.560726 6.042088 -1.8224311
17.602184 5.9358134 -1.8229295
17.647722 5.8308177 -1.8239261
17.693581 5.7257929 -1.8250225
17.730278 5.6177201 -1.8252218
17.771067 5.5108862 -1.8259195
17.801689 5.4008746 -1.8256204
17.834494 5.291544 -1.8256204
17.873316 5.1839538 -1.8263181
17.898087 5.072289 -1.8256204
17.926954 4.9618421 -1.8254211
17.961864 4.8530483 -1.8259195
18.00285 4.7457876 -1.8271154
18.043196 4.638207 -1.8283114
18.085793 4.5310349 -1.8298064
18.108421 4.4187984 -1.8293082
18.140034 4.3087535 -1.8298064
18.163221 4.1966953 -1.8295075
18.183777 4.0840788 -1.8290092
18.213354 3.9734886 -1.8295075
18.244207 3.8631012 -1.8302052
18.279263 3.7534852 -1.8314011
18.306829 3.6422255 -1.8318995
18.336649 3.5313332 -1.8326968
18.370689 3.4211226 -1.8339925
18.397211 3.3093944 -1.8345906
18.419132 3.196789 -1.8347899
18.448214 3.0853519 -1.8357865
18.475639 2.97352 -1.8366835
18.507303 2.8622279 -1.8380789
18.528454 2.7491994 -1.8384775
18.552855 2.6365786 -1.8392749
8.6606541 1.1772392 -0.83772033
8.7535639 1.1351981 -0.84639138
6.8761377 0.84911031 -0.65622658
6.7478018 0.79128122 -0.64277148
6.7159386 0.74580544 -0.6390838
6.7075233 0.70323664 -0.63778818
6.6829953 0.65923911 -0.63489783
6.6819606 0.61776346 -0.63439947
6.6786857 0.57615465 -0.6337018
6.6711845 0.53429222 -0.63260549
6.6654067 0.49268997 -0.63170844
6.6623478 0.45138001 -0.63111049
6.6610193 0.41024816 -0.63071179
6.6574502 0.3690398 -0.63011378
6.6595893 0.3281835 -0.63011378
6.656507 0.28710133 -0.62961543
6.6571488 0.24621578 -0.62951577
6.6595287 0.20539413 -0.62961543
6.6696162 0.16474774 -0.63051248
6.6675172 0.12376577 -0.63021344
6.6681509 0.082852326 -0.63021344
6.678484 0.041996598 -0.63121015
6.6855807 0.0010172486 -0.63190782
6.6954112 -0.040065993 -0.63290447
6.7069788 -0.081294298 -0.6341005
6.7192869 -0.12268439 -0.63539612
6.7293496 -0.1641797 -0.63649249
6.7371664 -0.20574202 -0.63738948
6.743732 -0.24736978 -0.63818681
6.7450695 -0.28887212 -0.63848585
6.7471452 -0.33044904 -0.63888448
6.7509518 -0.37217218 -0.6394825
6.8746705 -0.42133993 -0.6521402
8.7085505 -0.58770424 -0.83652431
16.421085 -1.2104859 -1.6115355
16.267546 -1.2995629 -1.5968845
16.227543 -1.3966217 -1.5936952
16.1721 -1.4918665 -1.5890108
16.124023 -1.5872641 -1.5851238
16.089239 -1.6835787 -1.5826321
16.07465 -1.78183 -1.5822334
10.604244 -1.2409648 -1.0316725
10.595443 -1.305886 -1.0315728
10.579336 -1.3698508 -1.0307754
10.579606 -1.435944 -1.0316725
10.593253 -1.5040517 -1.0339648
10.595636 -1.5707746 -1.0351608
13.853416 -2.1410468 -1.3663546
13.792864 -2.2184212 -1.3615705
13.845727 -2.3141706 -1.3683479
15.761612 -2.7340729 -1.5645924
15.741601 -2.8302042 -1.5642934
14.664541 -2.7294714 -1.4563539
15.745745 -3.030879 -1.5683798
13.375914 -2.6597521 -1.3282818
15.763898 -3.2354825 -1.5741605
15.743749 -3.3321471 -1.5741605
15.712313 -3.4263535 -1.5730641
15.732739 -3.5320733 -1.5773498
15.742764 -3.6359324 -1.5806388
15.737583 -3.7365985 -1.5824327
15.745293 -3.8406398 -1.5856221
8.2353697 -2.0618446 -0.81260425
8.2109995 -2.1093647 -0.81140822
15.623823 -4.1171274 -1.5806388
15.591543 -4.2110996 -1.5799412
7.6740346 -2.1226647 -0.75978065
15.455405 -4.3785129 -1.5712701
15.413914 -4.4691057 -1.5697751
8.0104628 -2.3753488 -0.79914916
7.9700289 -2.4166563 -0.79645813
7.9521995 -2.4646299 -0.79615915
7.9625378 -2.5214913 -0.79885018
8.395648 -2.7155051 -0.84609234
15.041512 -4.9681835 -1.5489446
14.98623 -5.0521164 -1.5463533
7.8022881 -2.6831238 -0.78868413
14.898693 -5.2270737 -1.543762
14.864467 -5.3177214 -1.5435627
14.796971 -5.3962121 -1.5398749
14.731872 -5.4751148 -1.5364863
14.684042 -5.5601187 -1.5349913
14.641294 -5.6468906 -1.5340942
14.572103 -5.7231603 -1.5304066
14.504376 -5.7995334 -1.5269182
14.450087 -5.8809185 -1.5249249
14.399021 -5.9633789 -1.5233302
14.353908 -6.0481396 -1.5224332
14.294578 -6.1266904 -1.5200412
14.227529 -6.20156 -1.5168518
14.114617 -6.2556758 -1.5086792
14.046939 -6.3290815 -1.5054898
13.995174 -6.4093513 -1.5040945
13.943857 -6.4896445 -1.5027988
13.901977 -6.5742297 -1.5025995
13.854201 -6.6559591 -1.5018021
13.823831 -6.746079 -1.5029981
13.736711 -6.8082352 -1.497915
13.684012 -6.8870249 -1.4967191
13.629092 -6.964519 -1.4953238
13.223987 -6.860126 -1.4544603
13.018774 -6.8553576 -1.4360218
12.905386 -6.8971157 -1.4279488
12.734254 -6.9064288 -1.4132978
12.610569 -6.9398131 -1.4040287
12.460895 -6.957387 -1.3917696
12.398924 -7.0229244 -1.3895769
12.290895 -7.0616879 -1.3821019
12.285159 -7.1590166 -1.3864872
12.244427 -7.2362876 -1.386886
12.215158 -7.3204899 -1.38868
12.192967 -7.409256 -1.391371
12.179466 -7.503767 -1.3951583
12.145853 -7.5862656 -1.3966533
12.172211 -7.7069631 -1.4053243
12.141439 -7.7922549 -1.4073178
12.093399 -7.8666067 -1.4073178
12.024966 -7.9275169 -1.4049257
12.509717 -8.3577213 -1.469211
12.448313 -8.4276276 -1.468015
12.389804 -8.4993467 -1.4672177
12.333334 -8.5723696 -1.4667193
12.27969 -8.6473112 -1.4666196
12.2183 -8.7167158 -1.4656229
12.147651 -8.7792807 -1.4635299
12.079906 -8.8436594 -1.4618356
12.007832 -8.9045734 -1.4596429
11.919556 -8.9529829 -1.4554569
11.833514 -9.0024538 -1.4515699
11.772536 -9.0706415 -1.4508722
11.71509 -9.1414814 -1.4506729
11.651752 -9.2076387 -1.4497759
11.59892 -9.2820683 -1.4502742
11.54484 -9.3555689 -1.4506729
11.484141 -9.4237061 -1.4502742
11.419215 -9.4882698 -1.4493772
11.348599 -9.5479078 -1.4477825
11.30192 -9.6276875 -1.4493772
11.257701 -9.7098522 -1.4513706
11.203156 -9.7833271 -1.4520682
11.195839 -9.8986826 -1.4591446
11.316518 -10.129798 -1.4835631
11.196644 -10.146922 -1.475789
11.085786 -10.171031 -1.469211
10.955373 -10.175879 -1.459942
10.895628 -10.245635 -1.4603406
10.815262 -10.295829 -1.4579486
10.73684 -10.347495 -1.4558556
10.656055 -10.396502 -1.4534636
10.559501 -10.429524 -1.4488789
10.48405 -10.482862 -1.4472842
10.396457 -10.523634 -1.4439952
10.314317 -10.569423 -1.4415035
10.22165 -10.603853 -1.4375168
10.128263 -10.636826 -1.4334304
6.9803548 -7.42099 -0.98273593
9.9333143 -10.691787 -1.4240618
9.8675241 -10.752535 -1.4240618
9.8033667 -10.81509 -1.4243608
9.7374849 -10.87578 -1.4244604
6.732955 -7.6129837 -0.98024428
6.6926613 -7.6616473 -0.98124093
6.5519381 -7.5940714 -0.96688884
9.5405626 -11.197063 -1.4357228
2.1091578 -2.5049517 -0.29024902
2.1051948 -2.5316212 -0.29204303
9.3631439 -11.407698 -1.4405068
9.3080063 -11.483487 -1.4428989
9.2672129 -11.577673 -1.4476829
6.3456774 -8.0276518 -0.98722094
2.0228741 -2.5902998 -0.29144505
1.9954032 -2.5876877 -0.28955138
1.974668 -2.5935476 -0.28875402
1.9533386 -2.598455 -0.28785703
1.9379507 -2.6111908 -0.28795668
1.9224801 -2.6238356 -0.28805634
1.9174188 -2.6509044 -0.28995004
1.9068961 -2.6707196 -0.29094669
8.2888813 -11.767833 -1.4040287
8.2142477 -11.815203 -1.40363
8.147788 -11.874408 -1.4047264
1.870903 -2.7612052 -0.29632872
1.8616644 -2.7842157 -0.29772407
1.8467366 -2.7989089 -0.29812273
7.8403568 -12.049936 -1.4022347
7.7469234 -12.067672 -1.3986467
7.6737967 -12.11666 -1.398846
7.6061587 -12.174488 -1.4001417
7.5360117 -12.228554 -1.4010386
7.4515352 -12.259258 -1.3992447
7.3679895 -12.291094 -1.39765
7.2899027 -12.331788 -1.3971517
7.2100906 -12.369409 -1.3963543
7.1300921 -12.406514 -1.395557
7.0602083 -12.461285 -1.3968526
6.9874954 -12.511321 -1.39765
6.9000411 -12.534782 -1.3954573
6.8225245 -12.57601 -1.3953576
6.7466383 -12.620268 -1.3956567
6.6681476 -12.659666 -1.3954573
6.588511 -12.69681 -1.3950586
6.5077639 -12.731681 -1.3944607
6.4232583 -12.758929 -1.3930653
6.3404312 -12.789186 -1.3920686
6.2566018 -12.817119 -1.3908726
6.1830106 -12.86603 -1.3920686
6.1128836 -12.922615 -1.3941617
6.0338964 -12.960782 -1.3942614
5.9505281 -12.98942 -1.3933643
5.8690796 -13.022058 -1.3929657
5.8096304 -13.104218 -1.3980486
5.7338867 -13.150564 -1.3992447
5.6436801 -13.163549 -1.3968526
5.5639629 -13.200682 -1.3971517
5.4942832 -13.262152 -1.4001417
5.401176 -13.267044 -1.397052
5.3056302 -13.264828 -1.3932647
5.2124982 -13.267496 -1.3900753
5.1123719 -13.250956 -1.3848926
5.0087695 -13.223452 -1.3786136
4.9154043 -13.221292 -1.3751253
4.8318009 -13.244659 -1.3744276
4.7514482 -13.276868 -1.3747265
4.6649518 -13.291689 -1.3732315
4.5765104 -13.300303 -1.3711386
4.4894109 -13.312105 -1.3694443
4.405148 -13.331842 -1.3686469
4.3336768 -13.390809 -1.3720355
4.2514305 -13.417148 -1.3720355
4.1699085 -13.445833 -1.3723346
4.0827069 -13.455931 -1.3707399
3.9890301 -13.443525 -1.3668529
3.9039731 -13.459147 -1.3659558
3.8297243 -13.512526 -1.3690455
3.73878 -13.507001 -1.3660555
3.6566107 -13.532569 -1.3663546
3.5851722 -13.59901 -1.3709393
3.5078542 -13.644845 -1.3734308
3.4214058 -13.655495 -1.3723346
3.3326006 -13.655931 -1.3702415
3.2480571 -13.673218 -1.3699425
3.1681294 -13.710341 -1.3717365
3.0887406 -13.750881 -1.3739293
3.0085492 -13.789018 -1.3759226
2.9249151 -13.812086 -1.3764209
2.8377097 -13.818076 -1.3752249
2.7612162 -13.877192 -1.3795106
2.6777084 -13.902667 -1.3804076
2.5934455 -13.924705 -1.3810056
2.5132394 -13.969735 -1.3839957
2.4298565 -13.998618 -1.385391
2.34162 -13.999524 -1.3839957
2.2547281 -14.007734 -1.3833976
2.1640234 -13.990822 -1.3803079
0.41529652 -2.7921946 -0.24500018
1.9897926 -13.999578 -1.3786136
0.26130387 -1.915622 -0.15589781
0.24967276 -1.9181761 -0.15599747
0.23972504 -1.9344851 -0.15749247
0.22542067 -1.9151659 -0.15539947
0.21289763 -1.9095902 -0.1547018
0.20179808 -1.9167984 -0.1552998
0.19091061 -1.9269125 -0.1561968
0.17844369 -1.9211119 -0.15549913
0.1668233 -1.9241534 -0.15569848
0.15501378 -1.9251409 -0.15569848
0.14371066 -1.933002 -0.15639614
0.13184728 -1.9338474 -0.15639614
0.12089384 -1.9495173 -0.15789115
0.10854525 -1.9432678 -0.15719348
0.096814752 -1.9478725 -0.15759215
0.10578536 -2.4355409 -0.20642902
0.12740484 -3.4294972 -0.30599645
0.10831146 -3.4938657 -0.31237513
0.087481394 -3.5193326 -0.31486681
0.066251397 -3.5397003 -0.31686014
0.044433448 -3.5320807 -0.31606281
0.023033937 -3.5770619 -0.32054782
0.0010850427 -3.5781307 -0.32064751
-0.021427536 -3.6686153 -0.32971719
-0.043949567 -3.6694098 -0.32981688
-0.059385814 -3.285058 -0.29134536
-0.079003736 -3.262748 -0.28915268
-0.10253463 -3.3765755 -0.30061442
-0.53115368 -14.443946 -1.4100087
-0.14900672 -3.4923668 -0.31237513
-0.70973074 -14.464167 -1.4127994
-0.80110508 -14.507228 -1.4175835
-0.89175272 -14.528854 -1.4202744
-0.9836356 -14.563812 -1.4243608
-0.28037328 -3.815604 -0.34546459
-0.30290774 -3.8029015 -0.34436825
-0.32529688 -3.7900665 -0.34327191
-0.27097711 -2.9477944 -0.25875422
-0.28808385 -2.9361739 -0.25775757
-1.5358098 -14.678056 -1.4405068
-0.32376444 -2.9294508 -0.25745857
-0.34231192 -2.9323504 -0.25795689
-1.8076737 -14.6631 -1.4421015
-1.8940302 -14.624103 -1.4393108
-1.9888158 -14.649673 -1.4430982
-2.0834262 -14.670688 -1.4464868
-2.1729667 -14.654675 -1.4461879
-0.47373265 -3.0711639 -0.27350497
-0.4919357 -3.0642698 -0.27310631
-0.62462312 -3.7422807 -0.34227526
-0.65829188 -3.8001409 -0.34855428
-0.56217092 -3.1320608 -0.28097999
-0.56935644 -3.0639908 -0.27440196
-0.53565252 -2.787837 -0.24659485
-2.9156289 -14.662147 -1.4596429
-2.9815245 -14.527019 -1.4476829
-3.0823522 -14.563937 -1.4533639
-0.58164078 -2.6717751 -0.23612981
-0.85181218 -3.7982128 -0.3521423
-0.8755495 -3.7948537 -0.35234162
-0.62152374 -2.6218927 -0.23214312
-0.64278865 -2.6392963 -0.2343358
-0.66622472 -2.6642585 -0.23732582
-0.68156892 -2.6562657 -0.23692715
-0.72651345 -2.7607572 -0.24818952
-0.74447751 -2.7600899 -0.24858819
-3.9884667 -14.415604 -1.4604403
-4.0974617 -14.463616 -1.468015
-0.94925308 -3.277256 -0.30400309
-0.80293292 -2.7104626 -0.24539885
-0.81348282 -2.6854894 -0.24330583
-4.4759369 -14.438536 -1.476387
-4.5698557 -14.427874 -1.478181
-4.6628923 -14.413762 -1.479676
-4.7456269 -14.367874 -1.477882
-4.8305182 -14.329056 -1.4768853
-4.9070187 -14.266215 -1.473397
-4.991497 -14.227388 -1.4725
-5.0941215 -14.239589 -1.4770846
-1.1878992 -3.2599895 -0.30978379
-5.2764535 -14.197454 -1.479377
-1.1640267 -3.0767426 -0.29174405
-1.1753628 -3.0500472 -0.28965104
-1.2137014 -3.0927887 -0.29503307
-5.6092467 -14.028581 -1.4755896
-1.3010831 -3.1993117 -0.30818912
-1.2338672 -2.9816744 -0.285465
-1.3077853 -3.1060834 -0.29981709
-1.3440695 -3.1382399 -0.30420244
-1.3589258 -3.1199005 -0.3031061
-1.3740112 -3.102407 -0.30210942
-1.3926126 -3.0930107 -0.30200976
-6.3853178 -13.942706 -1.4983138
-6.4795666 -13.922208 -1.5004067
-6.5746551 -13.902876 -1.5026991
-6.6658711 -13.874828 -1.5040945
-1.3803405 -2.8306546 -0.27769098
-1.3685156 -2.763293 -0.27111295
-1.3711286 -2.7264035 -0.26792359
-1.3855674 -2.7135091 -0.26742527
-7.1043811 -13.694737 -1.5075828
-7.1901312 -13.654409 -1.5079814
-7.3028603 -13.664441 -1.5141609
-1.4821074 -2.7346642 -0.27380398
-1.4988592 -2.7255187 -0.27380398
-7.5148144 -13.459074 -1.5062871
-7.6266842 -13.464655 -1.5122671
-7.7319632 -13.45729 -1.5168518
-7.8254132 -13.428507 -1.5190445
-5.0054626 -8.4703817 -0.94775277
-8.0269566 -13.393767 -1.5263202
-8.1492977 -13.410585 -1.5340942
-8.2606621 -13.407768 -1.5396756
-8.344883 -13.360205 -1.5400742
-5.0995021 -8.0547791 -0.91715497
-5.2423544 -8.1690369 -0.93449706
-5.2880392 -8.1300449 -0.93369973
-5.3569951 -8.1265192 -0.93718809
-5.6312037 -8.4293871 -0.97765291
-8.8360014 -13.051414 -1.5409713
-8.9254875 -13.0109 -1.5426656
-9.0165119 -12.97223 -1.5446589
-9.1159916 -12.945134 -1.5481473
-5.602777 -7.8541789 -0.9286167
-9.3785009 -12.976639 -1.5659877
-9.4491301 -12.906807 -1.5644927
-9.5192556 -12.836597 -1.5629977
-1.7220972 -2.2942784 -0.24958487
-1.7295145 -2.2749581 -0.24848853
-1.7051771 -2.2146497 -0.24220949
-9.8791647 -12.660301 -1.5707717
-1.728524 -2.188874 -0.2416115
-9.997098 -12.492282 -1.5648913
-10.04662 -12.397466 -1.5606056
-10.105457 -12.314821 -1.5579146
-10.204996 -12.281663 -1.561702
-1.6359745 -1.9460087 -0.21689406
-1.6536919 -1.9427505 -0.21779107
-10.428682 -12.090988 -1.5616024
-10.524275 -12.051502 -1.5648913
-1.6720339 -1.8926021 -0.21519972
-1.6836152 -1.8823071 -0.21519972
-1.6871144 -1.8630942 -0.21400371
-1.7032236 -1.8578391 -0.21470138
-1.7484524 -1.8838029 -0.21968473
-10.987311 -11.684235 -1.5687784
-11.059484 -11.617319 -1.5688781
-11.086365 -11.50339 -1.5624994
-3.318799 -3.4027877 -0.43835431
-3.3773763 -3.4205852 -0.44373634
-3.4503675 -3.4518619 -0.4511117
-3.2761009 -3.2376354 -0.42360359
-3.3101487 -3.2313704 -0.42559692
-3.3972583 -3.2759058 -0.43496564
-3.4064851 -3.2447076 -0.43347064
-11.14818 -10.485434 -1.4952241
-11.215953 -10.420218 -1.4957224
-3.1555047 -2.8968992 -0.39131147
-3.5293248 -3.200223 -0.43945065
-3.543705 -3.1738617 -0.43875298
-3.4565177 -3.0578067 -0.42450058
-3.4542303 -3.0182137 -0.42170992
-3.4297378 -2.9599178 -0.41602889
-3.3622458 -2.8659022 -0.4047665
-11.778455 -9.9117775 -1.5041941
-11.86354 -9.8596697 -1.5073835
-3.4059672 -2.7965853 -0.40367016
-3.9603212 -3.2110419 -0.47293881
-10.962398 -8.7748022 -1.3687465
-10.992612 -8.6888647 -1.3657565
-11.060623 -8.6328821 -1.3676502
-11.2324 -8.656559 -1.3827
-3.947675 -3.0049069 -0.45918474
-3.9636519 -2.9788349 -0.45888573
-11.258763 -8.3511353 -1.3663546
-11.411755 -8.3565464 -1.3790122
-11.476523 -8.296277 -1.3807065
-11.551513 -8.2430391 -1.3836966
-11.611636 -8.1788807 -1.3848926
-11.641994 -8.0938482 -1.3825006
-11.681591 -8.0155077 -1.3813046
-3.1196165 -2.1135685 -0.33968392
-3.1391451 -2.0988095 -0.34048125
-3.1245506 -2.0614345 -0.33719224
-3.1313019 -2.0384257 -0.33649457
-3.1571486 -2.0277734 -0.33808923
-3.1796193 -2.0147512 -0.33928522
-3.2408683 -2.0257781 -0.34506592
-3.4302869 -2.1149437 -0.36589634
-3.4942183 -2.1248612 -0.37187639
-3.5464499 -2.1269112 -0.37646106
-3.5996935 -2.1289055 -0.38114542
-3.619566 -2.1107862 -0.38194275
-3.7316644 -2.145546 -0.39340445
-3.6694374 -2.0799415 -0.38473344
-3.8202631 -2.1345186 -0.4005805
-3.8699007 -2.1311879 -0.4047665
-3.9388819 -2.1377645 -0.41114521
-3.9791284 -2.1280956 -0.41423488
-3.9560149 -2.084631 -0.41014853
-14.253943 -7.3963637 -1.5707717
-8.7206459 -4.4579458 -0.94326776
-8.9593668 -4.5108232 -0.9669885
-7.6487122 -3.7924857 -0.81738824
-7.6879339 -3.7533381 -0.81918222
-9.1063499 -4.3766031 -0.9742642
-9.1959972 -4.3504238 -0.98124093
-9.0890083 -4.2317743 -0.96649021
-9.1817474 -4.2065864 -0.97386557
-5.7800765 -2.6058068 -0.5973233
-5.7995954 -2.5719047 -0.59772199
-5.7897277 -2.5251374 -0.5949313
-9.3535509 -4.0105648 -0.98163956
-9.2092676 -3.8820012 -0.96330082
-9.3432283 -3.8711119 -0.97526091
-9.3373137 -3.8017066 -0.97207153
-9.3650837 -3.7461896 -0.97256988
-9.5518208 -3.7530437 -0.99021095
-9.3546495 -3.6094985 -0.96658987
-9.4361744 -3.5745838 -0.97296858
-9.4765835 -3.5235505 -0.97496188
-9.5522432 -3.4851112 -0.98074257
-9.435729 -3.3771608 -0.96609151
-9.2149754 -3.2345355 -0.94047707
-9.2308846 -3.1766379 -0.94007844
-9.5010071 -3.2044973 -0.96658987
-7.8170033 -2.5834248 -0.78689009
-9.3748894 -3.0343685 -0.94924778
-9.313652 -2.9515476 -0.94087577
-9.4846001 -2.9417841 -0.95692217
-9.5034237 -2.8838212 -0.95702183
-9.6478138 -2.86309 -0.97027755
-9.6451311 -2.7980189 -0.96818453
-9.6984959 -2.7490921 -0.97197187
-9.6816177 -2.6802437 -0.96848357
-9.7113295 -2.6244206 -0.96987885
-9.8600283 -2.5997772 -0.98363292
-9.7803879 -2.5147092 -0.97376591
-9.9230413 -2.4865613 -0.98692197
-9.9274778 -2.423034 -0.9858256
-9.8821363 -2.3478215 -0.97964627
-9.8624239 -2.2793036 -0.9761579
-9.9169998 -2.2279015 -0.98034394
-10.036449 -2.1901212 -0.99120766
-10.233681 -2.1674426 -1.0100447
-10.262383 -2.1078103 -1.0116394
-10.29952 -2.0496542 -1.0141311
-10.565944 -2.0353265 -1.0400445
-10.701488 -1.9934024 -1.0526025
-10.974995 -1.9747208 -1.0792136
-11.050629 -1.9183981 -1.085692
-11.063173 -1.8507208 -1.0857917
-12.034115 -1.9372143 -1.1831664
-13.249384 -2.0494041 -1.305159
-13.532379 -2.0082128 -1.3325675
-14.514801 -2.0629792 -1.4307395
-15.360332 -2.0870156 -1.5149581
-16.762228 -2.1727214 -1.6552894
-17.442822 -2.1521523 -1.7226644
-18.197887 -2.1319888 -1.7975143
-19.600117 -2.1743493 -1.9375466
-19.655642 -2.0584984 -1.9418323
-19.674835 -1.9385374 -1.9425299
-19.597185 -1.8095497 -1.9335599
-19.60792 -1.6892695 -1.9335599
-19.620892 -1.5691637 -1.9338589
-19.622211 -1.4481572 -1.9330616
-19.635693 -1.3280658 -1.9335599
-19.632547 -1.2068875 -1.9324635
-19.643557 -1.0866213 -1.9328623
-19.650848 -0.96611899 -1.9329619
-19.656406 -0.8455255 -1.9329619
-19.652275 -0.72457069 -1.9320649
-19.633476 -0.60327148 -1.9297726
-19.619898 -0.48237661 -1.9280782
-19.611546 -0.36178088 -1.9269819
-19.598471 -0.24125706 -1.9254869
-19.593613 -0.12096205 -1.9248888
-19.588017 -0.00073576119 -1.9242909
-19.583672 0.11942955 -1.9238923
-19.577595 0.2395293 -1.9233938
-19.574762 0.35963231 -1.9232942
-19.56423 0.4795385 -1.9224969
-19.550974 0.5992679 -1.9215002
-19.543945 0.71910918 -1.9212012
-19.526241 0.83845937 -1.9199055
-19.493896 0.95693552 -1.9172145
-19.478716 1.0760354 -1.9163175
-19.443939 1.1938252 -1.9135268
-19.423342 1.3122358 -1.9122312
-17.407906 -0.44327804 -1.9183648
-17.409304 -0.33643758 -1.9182531
-17.416008 -0.22967541 -1.9188113
-17.422058 -0.12284362 -1.9193695
-17.41354 -0.015933177 -1.9183648
-17.423248 0.090966254 -1.9194812
-17.392551 0.1975337 -1.9161319
-17.410883 0.30459586 -1.9183648
-17.38385 0.41083491 -1.9155737
-17.356169 0.51675367 -1.9127827
-17.34572 0.62298989 -1.9120011
-17.330648 0.72895038 -1.910773
-17.282177 0.83317101 -1.9058608
-17.260862 0.93833405 -1.9040745
-17.197247 1.0407467 -1.8975992
-17.237141 1.1493537 -1.9028465
-17.215887 1.2540867 -1.9012835
-17.177158 1.3572719 -1.8978225
-17.178408 1.4634868 -1.898939
-17.139416 1.5661517 -1.8955897
-17.152233 1.6735067 -1.8981575
-17.158445 1.7804626 -1.9000554
-17.093857 1.8798466 -1.8940266
-17.071142 1.9834358 -1.8927987
-17.07246 2.0898352 -1.8943616
-17.040588 2.1921418 -1.8922404
-17.035681 2.2978549 -1.8932452
-17.0065 2.4002578 -1.8915706
-17.000299 2.5058665 -1.8925754
-16.958084 2.6060565 -1.8895611
-16.962381 2.713356 -1.8919055
-16.939531 2.8164062 -1.8912356
-16.931725 2.921982 -1.8923521
-16.907608 3.0247684 -1.8916821
-16.841827 3.1197674 -1.8863233
-16.836031 3.2256658 -1.8878864
-16.817873 3.3292952 -1.8881097
-16.803944 3.4338174 -1.8888911
-16.764082 3.5329666 -1.8867699
-16.767338 3.6412451 -1.8896726
-16.724314 3.7395058 -1.8873281
-16.693306 3.8402717 -1.886435
-16.650087 3.9380536 -1.8842021
-16.617884 4.0382652 -1.883309
-16.577366 4.1363058 -1.8815228
-16.525681 4.2312899 -1.8785084
-16.518631 4.3376575 -1.8807412
-16.48115 4.4360914 -1.8795131
-16.4632 4.5397758 -1.8806297
-16.42547 4.6380062 -1.8795131
-16.383337 4.7348413 -1.8779502
-16.334917 4.8296437 -1.8757174
-16.291658 4.925756 -1.8741543
-16.237391 5.018292 -1.8713633
-16.193027 5.1136389 -1.8698003
-16.149996 5.2092409 -1.8684605
-16.114897 5.3073049 -1.8681257
-16.076378 5.4041843 -1.8674558
-16.041975 5.5024028 -1.8673441
-16.006035 5.6000748 -1.8671209
-15.968565 5.6971788 -1.866786
-15.94358 5.798789 -1.868014
-15.947766 5.9113584 -1.8728147
-15.929788 6.0161223 -1.8750474
-15.933384 6.1294508 -1.8799597
-15.925083 6.2386994 -1.8835323
-15.904964 6.3436589 -1.8857652
-15.88784 6.4501014 -1.8884445
-15.87368 6.5580902 -1.8915706
-15.8478 6.6615267 -1.8933568
-15.81942 6.764111 -1.8949199
-15.790377 6.8665977 -1.8964828
-15.80157 6.9870658 -1.9030697
-15.804626 7.1046691 -1.9087635
-15.792371 7.2159653 -1.912671
-15.772133 7.3240294 -1.9156853
-15.752062 7.4325409 -1.9188113
-15.733939 7.5423694 -1.9222722
-15.695405 7.6426845 -1.923277
-15.658904 7.744132 -1.9246167
-15.625301 7.8472028 -1.9264029
-15.592793 7.9510555 -1.9284126
-15.583426 8.0671387 -1.9334364
-15.57322 8.1834059 -1.9384604
-15.549897 8.2933035 -1.9419212
-15.516197 8.3980198 -1.9441541
-15.508799 8.5174637 -1.9498479
-15.497913 8.6356802 -1.9552068
-15.460206 8.7394133 -1.9572163
-15.441636 8.8543777 -1.9617937
-15.413647 8.9644461 -1.9652545
-15.363487 9.061883 -1.9659244
-15.299067 9.1508799 -1.964808
-15.253676 9.2512798 -1.9662594
-15.25842 9.3826981 -1.9744092
-15.216585 9.4861336 -1.9765304
-15.189176 9.5989647 -1.9806612
-15.155095 9.7080631 -1.9840105
-15.136084 9.8273859 -1.989481
-15.119497 9.9490242 -1.9953979
-15.08297 10.058148 -1.9987472
-15.037438 10.161634 -2.0009801
-14.992844 10.266062 -2.0034363
-14.936918 10.362962 -2.004441
-14.895002 10.469847 -2.0074553
-14.8321 10.562196 -2.0076787
-14.804085 10.679749 -2.0128143
-14.769568 10.79325 -2.0171683
-14.727026 10.901408 -2.0205176
-14.658269 10.990375 -2.0202942
-14.627754 11.108355 -2.0255413
-14.588466 11.220316 -2.0296721
-14.539728 11.325495 -2.0325749
-14.499611 11.437882 -2.0368173
-14.443909 11.53842 -2.0389385
-14.399108 11.648078 -2.0427344
-14.330441 11.738729 -2.0431809
-14.294858 11.856889 -2.0485396
-14.238578 11.958438 -2.0509958
-14.187646 12.064891 -2.0543451
-14.120128 12.157554 -2.0553498
-14.097701 12.289674 -2.0631649
-14.034694 12.387123 -2.0650628
-13.980654 12.492868 -2.0684121
-13.919212 12.592418 -2.0707567
-13.84828 12.683628 -2.0717614
-13.809545 12.804846 -2.07779
-13.696661 12.857373 -2.0725429
-13.584375 12.909682 -2.0674074
-13.476262 12.965234 -2.0629416
-13.370826 13.022717 -2.0589225
-13.271563 13.085676 -2.0559082
-13.124906 13.100873 -2.0454137
-13.033788 13.170564 -2.0437391
-12.967318 13.265212 -2.0460837
-12.828384 13.285196 -2.0368173
-12.769947 13.388108 -2.0406132
-12.688241 13.466934 -2.0407248
-12.607401 13.546717 -2.0410597
-12.520007 13.61943 -2.0403898
-12.415495 13.673188 -2.0369289
-12.303496 13.71804 -2.0322399
-12.192734 13.763521 -2.0277743
-12.092347 13.820127 -2.0250947
-12.004722 13.891056 -2.0246482
-11.911519 13.955384 -2.0233085
-11.838477 14.043405 -2.0255413
-11.756536 14.121126 -2.0263228
-11.65894 14.179948 -2.024425
-11.577352 14.258162 -2.0254297
-11.493999 14.334357 -2.0262113
-11.394725 14.390591 -2.0242016
-11.298253 14.450059 -2.0227504
-11.191765 14.496301 -2.0195127
-11.080917 14.536249 -2.0154936
-10.946696 14.544418 -2.0071204
-10.86021 14.6153 -2.0076787
-10.781497 14.696885 -2.0097997
-10.683538 14.7523 -2.0083485
-10.596864 14.823234 -2.00913
-10.497116 14.875797 -2.0074553
-10.401667 14.934218 -2.0066738
-10.300829 14.984658 -2.0048876
-10.23324 15.083764 -2.0097997
-10.116168 15.109937 -2.0048876
-10.013952 15.157629 -2.0029898
-9.9153318 15.210463 -2.0018733
-9.8298788 15.283553 -2.0035479
-9.7045021 15.294075 -1.996961
-9.5867491 15.315428 -1.991937
-9.4774542 15.349442 -1.9886994
-9.3691368 15.38439 -1.9856851
-9.271493 15.436477 -1.9850153
-9.15837 15.462295 -1.9809961
-9.0623207 15.516482 -1.9807729
-8.9644623 15.56749 -1.9802146
-8.8668108 15.618745 -1.979768
-8.7562504 15.646841 -1.9764187
-8.6509581 15.683742 -1.9742975
-8.5445938 15.718193 -1.971953
-8.4456425 15.765945 -1.9713949
-8.332509 15.786711 -1.9674873
-8.2249413 15.817264 -1.9649196
-8.1159544 15.844437 -1.9620169
-8.0096292 15.876193 -1.959784
-7.9076419 15.916141 -1.9586676
-7.8019724 15.948294 -1.9566581
-7.6931882 15.973482 -1.953867
-7.5852404 15.999734 -1.9512992
-7.4890261 16.050478 -1.9518574
-7.3854251 16.085291 -1.9505178
-7.2820883 16.120342 -1.9492897
-7.1794062 16.156548 -1.9482849
-7.0809326 16.202116 -1.9485081
-6.9790306 16.23978 -1.9478383
-6.8769331 16.276806 -1.9471685
-6.7761688 16.31686 -1.9469452
-6.6755471 16.35721 -1.9468335
-6.5761652 16.400629 -1.9471685
-6.4743166 16.437897 -1.9468335
-6.3787112 16.491217 -1.9485081
-6.2774029 16.530045 -1.9485081
-6.1748171 16.565458 -1.9481733
-6.0740814 16.605833 -1.9485081
-5.976439 16.654951 -1.9499595
-5.8734736 16.689432 -1.9497362
-5.7709589 16.725157 -1.9497362
-5.666316 16.754604 -1.9490664
-5.5593414 16.776794 -1.947615
-5.4513874 16.795465 -1.9458288
-5.3494334 16.832388 -1.9462754
-5.2401476 16.845917 -1.9440424
-5.1424718 16.896767 -1.9462754
-5.0350122 16.915619 -1.944824
-4.9314032 16.947149 -1.9449356
-4.8243346 16.966576 -1.9437076
-4.7166815 16.98341 -1.9422562
-4.6095238 17.00148 -1.9410281
-4.5020676 17.017916 -1.9396884
-4.3950801 17.035597 -1.938572
-4.2902265 17.061281 -1.9384604
-4.1859326 17.089214 -1.9386836
-4.082149 17.11941 -1.9392419
-3.4681199 14.950561 -1.6862602
-3.3255949 14.746659 -1.6603591
-3.175283 14.494015 -1.6289877
-3.0854628 14.509336 -1.6285411
-2.9411678 14.260349 -1.5978395
-2.8440683 14.230379 -1.592369
-2.7629292 14.279758 -1.5960532
-2.6732473 14.285698 -1.5948251
-2.5623786 14.173728 -1.5802
-2.4642594 14.125551 -1.5729432
-2.388582 14.206065 -1.5804232
-2.2835863 14.110583 -1.5679193
-2.1806166 14.019262 -1.5559735
-2.0404098 13.669705 -1.5147775
-1.9526967 13.655407 -1.5117632
-1.8729118 13.696669 -1.5151125
-1.7838192 13.669473 -1.5107584
-1.6980728 13.665368 -1.5090837
-1.6229305 13.749547 -1.517457
-1.5809509 14.138481 -1.5603276
-1.4803884 14.017467 -1.5455909
-1.4075276 14.158794 -1.5605509
-1.3585442 14.573832 -1.6064359
-1.2805586 14.713563 -1.6212844
-1.1892122 14.708267 -1.619833
-1.1566144 15.487266 -1.7068025
-1.0372376 15.139142 -1.6668345
-1.0069363 16.148943 -1.7798165
-0.90833133 16.163748 -1.7808213
-0.72108108 14.410297 -1.582991
-0.63269114 14.415443 -1.5831027
-0.61050564 16.173756 -1.7803748
-0.47591218 15.05979 -1.6547771
-0.38243467 15.020702 -1.6500881
-0.28880116 14.947255 -1.6416032
-0.21390989 16.22262 -1.7847288
-0.10468576 14.85527 -1.6309973
-0.013818835 15.15972 -1.6651598
0.078915626 15.104864 -1.6590195
0.17315009 15.241224 -1.6744262
0.27949393 15.974143 -1.7569299
0.38461128 16.273149 -1.7907575
0.47913498 16.091686 -1.7706618
0.53116709 14.787472 -1.6244104
0.6215992 14.776983 -1.6236289
0.71144426 14.756018 -1.6217309
0.79641837 14.649169 -1.6102318
0.84932476 14.032974 -1.54146
0.93428993 14.010643 -1.5395621
1.0408099 14.287116 -1.5713803
1.0970742 13.883205 -1.5266117
1.1894075 13.960377 -1.5361012
1.2741402 13.94292 -1.5349848
1.3601508 13.939784 -1.535543
1.4459658 13.934141 -1.5358779
1.5421889 14.022799 -1.5469306
1.6185702 13.930155 -1.5375526
1.7054622 13.931798 -1.5388923
1.7935761 13.94177 -1.5412368
1.8766968 13.912775 -1.5392272
1.9613343 13.896077 -1.538669
2.0438092 13.865102 -1.5365478
2.1347313 13.890607 -1.5409019
2.2288682 13.93318 -1.5472655
2.3108964 13.898655 -1.544921
2.4027233 13.922406 -1.549275
2.5615962 14.318254 -1.5961648
2.572125 13.885033 -1.5484935
2.6580215 13.872893 -1.5489401
2.7454093 13.868021 -1.5502799
2.839999 13.897649 -1.5556387
2.9270642 13.888713 -1.5566435
3.0299413 13.952065 -1.5660214
3.129586 13.996248 -1.5732782
3.5615885 15.481765 -1.7467704
3.3180301 14.028353 -1.5815396
3.7503669 15.433031 -1.7463238
3.8240631 15.325844 -1.7366109
3.9069376 15.25877 -1.7315871
3.757457 14.308905 -1.6240754
3.8604217 14.342196 -1.6306623
3.9488795 14.320155 -1.6308856
4.035862 14.292787 -1.6305507
4.1502452 14.360358 -1.64138
4.2656093 14.427061 -1.6522093
4.3390975 14.351152 -1.6464039
4.3522534 14.08215 -1.6179351
4.4340897 14.040965 -1.6162604
4.5741515 14.180896 -1.6360211
4.7664514 14.472539 -1.6738679
4.866878 14.477873 -1.6779987
4.9569106 14.451497 -1.6784452
4.9486837 14.144099 -1.6455108
5.0280313 14.092877 -1.6430546
5.3086848 14.595955 -1.7069141
5.4685984 14.753194 -1.7296891
5.4916124 14.540866 -1.7082537
5.6010666 14.559763 -1.7146174
5.5859098 14.258638 -1.6824644
5.7189422 14.338553 -1.696308
5.9006348 14.534307 -1.7243303
6.0029845 14.529973 -1.7282377
6.0465889 14.384765 -1.7150639
6.1405983 14.361098 -1.7167386
6.255547 14.38512 -1.7243303
6.3340502 14.324653 -1.7216508
6.4523826 14.353498 -1.7300241
6.5295949 14.290135 -1.7271214
6.704206 14.437277 -1.750343
6.8181076 14.449793 -1.7570415
6.8971915 14.387971 -1.7545854
6.9857798 14.346273 -1.754697
7.0745564 14.304921 -1.7549202
7.1742377 14.28522 -1.7579347
7.2748461 14.266605 -1.7611723
7.3850889 14.265825 -1.7667544
7.4826527 14.239595 -1.7692105
7.6040211 14.257424 -1.7773604
7.6809535 14.191272 -1.7749043
7.8018484 14.205719 -1.7828308
7.9149852 14.204457 -1.7888596
8.0337782 14.211857 -1.7961164
8.1302214 14.178675 -1.7982376
8.2105722 14.117353 -1.7967862
8.3293505 14.12149 -1.8039312
8.4076796 14.056471 -1.802145
8.5277815 14.060699 -1.8095134
8.6420031 14.05382 -1.8155421
8.7501526 14.035949 -1.8202311
8.8769875 14.046679 -1.8288275
8.9967775 14.044665 -1.835861
9.1174173 14.042542 -1.8430061
9.2372761 14.037803 -1.8499279
9.3761635 14.060232 -1.8606457
9.5162287 14.082305 -1.871475
9.6462479 14.087606 -1.880183
9.7727242 14.086124 -1.8881097
9.902401 14.087684 -1.8965945
10.01517 14.063895 -1.9017301
