# .PCD v0.7 - Point Cloud Data file format
VERSION 0.7
FIELDS x y z
SIZE 4 4 4
TYPE F F F
COUNT 1 1 1
WIDTH 1504
HEIGHT 1
VIEWPOINT 0 0 0 1 0 0 0
POINTS 1504
DATA ascii
0.08652506 -3.4340558 -0.431604
0.065129571 -3.4176819 -0.42929977
0.044080354 -3.4120731 -0.4284865
0.023047738 -3.3984089 -0.42658892
0.0022169973 -3.4272187 -0.43051964
-0.060936209 -11.268021 -1.5032042
-0.13099788 -11.347682 -1.5141832
-0.20057105 -11.343693 -1.5137765
-0.27014729 -11.341258 -1.513641
-0.33973086 -11.339387 -1.513641
-0.40944448 -11.341049 -1.5141832
-0.47960913 -11.352181 -1.5160807
-0.55145729 -11.394547 -1.5223157
-0.62136257 -11.390949 -1.5223157
-0.69088441 -11.380988 -1.5215025
-0.76010925 -11.367638 -1.5202826
-0.83071101 -11.374618 -1.5219091
-0.90103608 -11.376221 -1.5228579
-0.97183329 -11.382323 -1.5244844
-1.042649 -11.386999 -1.5259753
-1.1142331 -11.398137 -1.5284151
-1.1853788 -11.402911 -1.5300417
-1.2576009 -11.416104 -1.5328881
-1.330144 -11.429824 -1.53587
-1.4026617 -11.441115 -1.5385808
-1.4701788 -11.411657 -1.5357344
-1.5208137 -11.25907 -1.5159452
-0.41527882 -2.9362991 -0.36735678
-0.43719274 -2.96016 -0.37101641
-1.7592824 -11.433833 -1.5442736
-1.821887 -11.375865 -1.5377675
-1.8833588 -11.314628 -1.5308549
-0.52168041 -3.0178576 -0.38063994
-0.54036242 -3.0155749 -0.38077548
-2.0826359 -11.231284 -1.5243489
-2.1386364 -11.151154 -1.5149964
-2.1977761 -11.091171 -1.5084903
-2.2663844 -11.080389 -1.5088969
-2.3294227 -11.043008 -1.505644
-0.61711609 -2.8377664 -0.35895312
-0.63343495 -2.8290923 -0.35827541
-0.64989293 -2.8212903 -0.35773325
-2.5867233 -10.927559 -1.497918
-0.89585894 -3.6824365 -0.48012826
-0.91843712 -3.6768701 -0.48012826
-2.8257856 -11.027819 -1.5190626
-0.75375438 -2.8671043 -0.36722124
-0.76411802 -2.8356383 -0.36342603
-0.78255689 -2.8347168 -0.36396819
-3.1198149 -11.040959 -1.5312616
-0.80930281 -2.7972987 -0.36003748
-0 -0 -0
-3.3466122 -11.061323 -1.5426471
-1.002612 -3.2410049 -0.42577565
-1.0248675 -3.2423501 -0.42686
-3.5350423 -10.952591 -1.536141
-3.6003191 -10.925048 -1.5353278
-1.0894283 -3.2379615 -0.42902869
-3.7244673 -10.85193 -1.5312616
-1.1297358 -3.2262189 -0.42929977
-1.1455134 -3.208029 -0.42767325
-1.1614493 -3.1906984 -0.42618227
-3.9855313 -10.746111 -1.5296351
-1.1591945 -3.0668406 -0.41018826
-1.1801256 -3.065218 -0.4110015
-4.076004 -10.398806 -1.4896499
-1.2169173 -3.0486648 -0.41073042
-1.2329909 -3.0347149 -0.40978163
-1.2561297 -3.03808 -0.41140813
-4.3372731 -10.312997 -1.4922253
-4.4016399 -10.288922 -1.4926319
-4.4635029 -10.258995 -1.4922253
-4.5255656 -10.229602 -1.4919542
-4.5910926 -10.207967 -1.492903
-4.6602311 -10.194021 -1.4950716
-4.7439814 -10.211061 -1.5019844
-1.3364431 -2.8303258 -0.38985685
-1.3550698 -2.8247526 -0.39026347
-1.3736782 -2.819057 -0.39067012
-1.3940252 -2.8167913 -0.39161891
-5.026505 -10.004074 -1.4933096
-5.0882444 -9.9739265 -1.4934452
-5.1479807 -9.9398785 -1.4930385
-5.2162495 -9.9221363 -1.4952072
-5.2863603 -9.9074259 -1.497918
-5.3470516 -9.8748026 -1.497918
-5.405633 -9.8383341 -1.4973758
-5.4663806 -9.8058462 -1.4975114
-4.8373375 -8.5535069 -1.3059896
-4.8877583 -8.5202265 -1.3054475
-4.9389486 -8.4883633 -1.3051764
-4.9813733 -8.4416857 -1.3026011
-5.8169975 -9.7211227 -1.5114723
-5.8821888 -9.6945648 -1.5129633
-5.9498687 -9.671792 -1.515132
-4.9191389 -7.8872995 -1.2333388
-5.1850338 -8.2011642 -1.2890468
-5.2128067 -8.1341591 -1.283354
-5.2658567 -8.1070061 -1.2841673
-5.3525438 -8.1308174 -1.2933842
-5.6382031 -8.4514112 -1.351532
-5.6383519 -8.3403196 -1.3389266
-5.6642261 -8.2687826 -1.3328271
-6.4859333 -9.344923 -1.5178428
-6.5380216 -9.2976561 -1.5166229
-6.5914989 -9.2525225 -1.5158097
-6.6394506 -9.199852 -1.5137765
-5.6748934 -7.7624049 -1.277119
-1.700205 -2.2954512 -0.35244709
-1.7285248 -2.3039985 -0.35570011
-6.8470449 -9.0128393 -1.5101168
-1.7300856 -2.2480619 -0.34973621
-1.7304498 -2.2202101 -0.34675428
-1.7642937 -2.2352173 -0.35122719
-1.7668425 -2.2104177 -0.34878743
-7.1988182 -8.8956108 -1.5271952
-7.2557769 -8.8543377 -1.5277374
-7.3169284 -8.818038 -1.5292283
-7.3810945 -8.7851133 -1.5313971
-7.4419212 -8.7479601 -1.5328881
-7.4973974 -8.7043848 -1.5332947
-7.5493631 -8.656724 -1.5330236
-7.6233211 -8.6340065 -1.5373609
-7.681437 -8.5929775 -1.5384452
-7.7286997 -8.5398064 -1.5373609
-7.7950087 -8.5075645 -1.5402074
-7.8639073 -8.4777355 -1.5435959
-7.9279857 -8.4423246 -1.5460356
-7.969398 -8.3827486 -1.5440025
-8.0103779 -8.3229837 -1.5419694
-8.0917177 -8.3049011 -1.5479332
-8.1557417 -8.2684975 -1.5505086
-8.2287245 -8.2407341 -1.5548459
-8.2953329 -8.2061157 -1.5579634
-3.4817181 -3.4019301 -0.62759864
-3.3257439 -3.209851 -0.59398407
-3.3783605 -3.2208354 -0.60021907
-8.5151386 -8.0197659 -1.5618942
-8.5830469 -7.9849143 -1.5654182
-3.2087381 -2.9482667 -0.55779421
-3.4651895 -3.1449473 -0.60184556
-3.5552382 -3.1871214 -0.61485767
-3.5287404 -3.1245208 -0.60645401
-3.4837122 -3.0467119 -0.59479731
-3.4573574 -2.9864159 -0.5866648
-3.4484837 -2.9419937 -0.58178526
-3.6945138 -3.112958 -0.62258357
-3.7858896 -3.1504421 -0.63546014
-3.839592 -3.1554635 -0.64155954
-3.8311884 -3.1093659 -0.63668001
-9.2074957 -7.3802061 -1.5759906
-9.2510529 -7.322341 -1.5757195
-9.2981491 -7.2672701 -1.5761261
-9.3896255 -7.2464018 -1.5842587
-9.4299717 -7.1856494 -1.583581
-9.5103025 -7.1550541 -1.589816
-5.8342013 -4.3333497 -0.95588297
-9.6373377 -7.0671053 -1.5965931
-6.0458407 -4.3764677 -0.98272043
-6.0266337 -4.3064528 -0.97499448
-6.049706 -4.2671084 -0.97445232
-6.0058484 -4.1812205 -0.96279562
-6.2322626 -4.2823296 -0.99613911
-6.1567435 -4.1750503 -0.97933185
-6.0924973 -4.0771279 -0.96455771
-6.1504693 -4.0615087 -0.96997941
-6.2034969 -4.0420852 -0.97458786
-5.7156534 -3.6744139 -0.89122909
-5.7364182 -3.6382129 -0.89095801
-6.2936454 -3.9377253 -0.97729868
-6.132206 -3.7845478 -0.94747931
-6.1849318 -3.7648823 -0.9522233
-6.319191 -3.7936723 -0.96997941
-6.3184786 -3.7406931 -0.9661842
-6.3139319 -3.6858678 -0.96184683
-6.2634425 -3.6050427 -0.95032573
-6.3181887 -3.5851254 -0.95547634
-6.4213467 -3.591759 -0.96821737
-6.5994363 -3.6384022 -0.99261504
-6.437953 -3.4980237 -0.96401554
-6.4881182 -3.4738898 -0.96848845
-6.6293616 -3.4973555 -0.98705781
-6.5443254 -3.4013205 -0.97065711
-6.5518436 -3.3543279 -0.968624
-6.5997262 -3.3278937 -0.97282583
-6.6422052 -3.2983534 -0.97621435
-6.7050409 -3.2784274 -0.98272043
-6.706284 -3.228199 -0.97987401
-6.6749325 -3.1628046 -0.97214806
-6.6080141 -3.0815845 -0.95913601
-6.7105408 -3.0794148 -0.97174144
-6.6913843 -3.0210567 -0.96604866
-5.7916527 -2.5721185 -0.82860839
-5.8036938 -2.5349467 -0.82806623
-6.6994314 -2.8774347 -0.95913601
-6.7635093 -2.855932 -0.96604866
-6.8394699 -2.8386886 -0.9747234
-6.9081321 -2.8176258 -0.98231381
-6.9170136 -2.7718678 -0.98109388
-6.9053125 -2.7181225 -0.97689205
-7.0225887 -2.7146444 -0.9916662
-6.9437056 -2.6352885 -0.97770536
-6.9133234 -2.5753376 -0.97092819
-6.9262037 -2.5318491 -0.97052157
-6.9975648 -2.5093727 -0.97865415
-6.9810524 -2.4552112 -0.97404569
-6.9688234 -2.4029624 -0.97011495
-7.1223493 -2.4071133 -0.99017525
-7.2686591 -2.4069767 -1.0091512
-7.377533 -2.3929045 -1.0227054
-7.186224 -2.2822049 -0.99315721
-7.1840081 -2.2330678 -0.99085295
-7.2298031 -2.1987486 -0.9954614
-7.2621512 -2.1599963 -0.99817228
-7.2143812 -2.0976887 -0.98949754
-7.191854 -2.0433617 -0.98448247
-7.2472172 -2.0111189 -0.99058187
-7.3483553 -1.9907109 -1.0031873
-7.3623476 -1.9460913 -1.0034584
-7.3799062 -1.9023643 -1.0042717
-7.5153956 -1.8881961 -1.0217566
-7.6307745 -1.8674886 -1.0363953
-7.8444848 -1.8688608 -1.0648593
-7.8915157 -1.8289714 -1.0698743
-8.2099466 -1.8497814 -1.1129769
-8.2230778 -1.799795 -1.113248
-8.4210091 -1.7890518 -1.1394078
-9.2556782 -1.9071391 -1.2544835
-9.1088371 -1.8186842 -1.2323899
-9.6888885 -1.8727782 -1.3116825
-10.299143 -1.925281 -1.3950411
-10.674435 -1.9277415 -1.4455986
-11.320498 -1.9727923 -1.5337013
-11.823861 -1.985855 -1.6018792
-12.417775 -2.0073605 -1.6825272
-12.679509 -1.969923 -1.7170905
-13.132329 -1.957842 -1.7780848
-13.677658 -1.953446 -1.8518199
-14.308811 -1.9540945 -1.9373473
-14.25962 -1.8583206 -1.9289436
-14.229458 -1.7656649 -1.9232509
-14.34826 -1.6910809 -1.9381605
-14.258916 -1.5919043 -1.9244708
-14.281224 -1.5057341 -1.9262328
-14.336533 -1.4226775 -1.9326034
-14.332168 -1.3334898 -1.9308412
-14.335145 -1.2450954 -1.9301635
-14.326714 -1.1558379 -1.9279948
-14.301919 -1.0655526 -1.9236575
-14.283477 -0.97608823 -1.9202689
-14.288208 -0.88836658 -1.9201334
-14.288444 -0.80040181 -1.9194556
-14.289128 -0.71251702 -1.9189135
-14.301149 -0.62517357 -1.9199978
-14.306696 -0.53748602 -1.9202689
-14.315667 -0.44987857 -1.9210821
-13.05204 0.96189636 -1.9197271
-13.026175 1.0403875 -1.9167675
-13.02743 1.1209741 -1.9179513
-13.004549 1.1994331 -1.9155836
-13.00974 1.2804654 -1.9175074
-12.93672 1.3534697 -1.9077406
-12.936035 1.4336947 -1.9089245
-12.913242 1.5114309 -1.9068527
-12.900781 1.5902734 -1.9064088
-12.920204 1.6732143 -1.9108483
-12.921453 1.754057 -1.912624
-12.898698 1.8316391 -1.9108483
-12.857868 1.9063954 -1.9064088
-12.801947 1.9784528 -1.8997495
-12.799331 2.0585382 -1.9012294
-12.772802 2.1347508 -1.8991576
-12.789671 2.2183254 -1.9037451
-12.790419 2.2993855 -1.9059649
-12.778986 2.378366 -1.9064088
-12.743758 2.4528046 -1.9033011
-12.690639 2.523427 -1.8975298
-12.67201 2.600651 -1.8970859
-12.658717 2.6789706 -1.8975298
-12.661366 2.7608082 -1.9004894
-12.641293 2.8377948 -1.9000455
-12.618825 2.9141939 -1.8993056
-12.597819 2.990881 -1.8988616
-12.551367 3.0613248 -1.8945702
-12.540022 3.1402037 -1.8957541
-12.525307 3.2183197 -1.8964939
-12.526363 3.3006587 -1.8997495
-12.495373 3.3746195 -1.8981217
-12.470618 3.450171 -1.8975298
-12.441602 3.5244672 -1.896346
-12.414992 3.5993636 -1.895606
-12.373711 3.669847 -1.8926464
-12.350014 3.7454145 -1.8924985
-12.335301 3.8237584 -1.8938303
-12.309721 3.898777 -1.8935343
-12.277099 3.9714942 -1.8922025
-12.255316 4.0476809 -1.8926464
-12.215255 4.1177459 -1.8902787
-12.206593 4.1984115 -1.8929424
-12.193666 4.2778153 -1.8950142
-12.156014 4.3485551 -1.8932383
-12.117024 4.4186554 -1.8913146
-12.07856 4.4887857 -1.8895388
-12.039692 4.5586104 -1.887763
-12.019798 4.6356025 -1.8890948
-11.989287 4.7085443 -1.8887988
-11.967517 4.7849584 -1.8899827
-11.935184 4.8571811 -1.8895388
-11.906983 4.9310794 -1.8898348
-11.880148 5.0055828 -1.8904266
-11.842848 5.0756559 -1.8893908
-11.78791 5.1379504 -1.8855432
-11.745313 5.2053733 -1.8837675
-11.718562 5.2797813 -1.8846554
-11.684147 5.3507619 -1.8843595
-11.651095 5.4223537 -1.8843595
-11.57648 5.4742899 -1.8775523
-11.564066 5.5554986 -1.8811039
-11.543093 5.6328573 -1.8833236
-11.508312 5.703578 -1.8833236
-11.463382 5.7691932 -1.8816957
-11.426887 5.8389721 -1.8815478
-11.378554 5.9025998 -1.8794761
-11.362248 5.9829059 -1.8828796
-11.348873 6.0650988 -1.8868752
-11.327962 6.14358 -1.8896868
-11.303049 6.2201247 -1.8919065
-11.271578 6.2932196 -1.8930904
-11.234472 6.3632369 -1.8933864
-11.198647 6.4340215 -1.8939782
-11.173483 6.5110803 -1.8964939
-11.135876 6.5810266 -1.8969378
-11.105465 6.655333 -1.8987137
-11.070335 6.7269449 -1.8997495
-11.060846 6.8144603 -1.9053729
-11.042311 6.8968716 -1.9095163
-11.003963 6.9671421 -1.9102563
-10.989303 7.0526938 -1.9152876
-10.948309 7.1216083 -1.9157317
-10.888718 7.178308 -1.91292
-10.874892 7.2653151 -1.9183953
-10.824376 7.3280239 -1.9173595
-10.764529 7.384232 -1.9146957
-10.714958 7.44732 -1.9139558
-10.698169 7.5334272 -1.9192832
-10.649328 7.5972047 -1.9188392
-10.63858 7.6884761 -1.9254985
-10.593598 7.7553616 -1.9259424
-10.573615 7.840837 -1.9311217
-10.546656 7.9216065 -1.9351172
-10.487619 7.9783854 -1.9331934
-10.445518 8.0480194 -1.9345254
-10.424787 8.1344738 -1.9400007
-10.360711 8.1872473 -1.937337
-10.348886 8.2815647 -1.9447361
-10.302487 8.3486452 -1.945624
-10.273237 8.4298983 -1.9499154
-10.220558 8.4921427 -1.9497675
-10.175826 8.5610628 -1.9512473
-10.160746 8.6554089 -1.9586464
-10.099208 8.7104855 -1.9570186
-10.050041 8.7761917 -1.9579065
-10.02786 8.8658638 -1.9642698
-9.9747448 8.928546 -1.9645656
-9.9168415 8.9869251 -1.9639738
-9.8841009 9.0683327 -1.9685612
-9.8478365 9.1469841 -1.9725567
-9.8023319 9.2174006 -1.9747764
-9.7398605 9.2719173 -1.9735926
-9.6884823 9.3369961 -1.9747764
-9.6451664 9.4100819 -1.9777361
-9.5809135 9.4628315 -1.9764042
-9.5401525 9.5389242 -1.9801039
-9.4696283 9.5853205 -1.9775881
-9.4368811 9.6701431 -1.9832114
-9.3897219 9.7406826 -1.9858751
-9.3359156 9.8045597 -1.9872069
-9.2776127 9.863821 -1.9876509
-9.2196064 9.92346 -1.9882429
-9.1605501 9.9820299 -1.9886868
-9.0904951 10.028523 -1.986763
-9.0287905 10.084113 -1.986763
-8.9746065 10.148213 -1.9885387
-8.9115191 10.202345 -1.9883908
-8.8571482 10.266568 -1.9903146
-8.8016834 10.329756 -1.9920903
-8.7476864 10.394918 -1.99431
-8.6894283 10.455243 -1.9956419
-8.6389151 10.525183 -1.9988976
-8.5828886 10.588749 -2.0009692
-8.5233173 10.648163 -2.0023012
-8.4670191 10.7119 -2.0045209
-8.4078255 10.772227 -2.0061486
-8.3427773 10.825181 -2.0064447
-8.2714081 10.86987 -2.0052607
-8.2158413 10.935442 -2.0080724
-8.1521235 10.990415 -2.0089602
-8.1038132 11.066561 -2.0138438
-8.0409718 11.123291 -2.0151756
-7.9754415 11.176445 -2.0159154
-7.9351864 11.265601 -2.0233145
-7.8619614 11.308393 -2.0222788
-7.7840338 11.344188 -2.0200589
-7.7098451 11.385185 -2.0188751
-7.6475339 11.44379 -2.0209467
-7.578805 11.492976 -2.0213907
-7.5081429 11.539263 -2.0213907
-7.4382663 11.586779 -2.0216868
-7.3675604 11.633037 -2.0218346
-7.2939467 11.674669 -2.0212429
-7.2247691 11.723413 -2.0219827
-7.1511588 11.764988 -2.0215387
-7.0798521 11.810342 -2.0218346
-7.0087619 11.856115 -2.0222788
-6.9403639 11.906587 -2.0236106
-6.8711176 11.955809 -2.0247943
-6.8068905 12.014093 -2.027606
-6.7397952 12.067722 -2.0296779
-6.6708679 12.118381 -2.0313056
-6.5982714 12.162561 -2.0318975
-6.5225868 12.201075 -2.0316014
-6.4434519 12.232991 -2.0302696
-6.3723698 12.280198 -2.0316014
-6.2941995 12.313783 -2.0307136
-6.2278624 12.370723 -2.0338213
-6.1557927 12.416678 -2.0351532
-6.0820923 12.459549 -2.036041
-6.0059557 12.497524 -2.0361891
-5.9287367 12.533247 -2.036041
-5.8517222 12.569389 -2.036041
-5.7753115 12.606856 -2.0363369
-5.6990676 12.644761 -2.0367808
-5.62498 12.687629 -2.0381126
-5.5466294 12.720998 -2.0379648
-5.4770422 12.77479 -2.0412204
-5.4035473 12.820004 -2.0431442
-5.3259187 12.855659 -2.0435882
-5.2514114 12.899089 -2.0453639
-5.1743689 12.936578 -2.0462518
-5.1035714 12.990176 -2.0498033
-5.0230575 13.019401 -2.0495074
-4.9514832 13.072174 -2.0530589
-4.8718696 13.104164 -2.053355
-4.7873058 13.122661 -2.051579
-4.7186904 13.185311 -2.0569065
-4.6416273 13.225215 -2.0586822
-4.5658607 13.269344 -2.061198
-4.4868832 13.304607 -2.0623817
-4.3992696 13.314046 -2.0595701
-4.3184066 13.343612 -2.060014
-4.2382421 13.375514 -2.0609019
-4.1534562 13.392766 -2.0595701
-4.0691919 13.411374 -2.0585344
-4.0017314 13.486342 -2.0663774
-3.9186299 13.509692 -2.0662293
-3.8321574 13.521112 -2.0643055
-3.7493849 13.545325 -2.0644536
-3.6672335 13.571895 -2.0650456
-3.5866611 13.604661 -2.0666733
-3.5053325 13.635033 -2.0680051
-3.4451513 13.750301 -2.0825074
-3.3511062 13.731789 -2.0764401
-3.2645016 13.74247 -2.0749602
-3.1983697 13.841258 -2.0870948
-3.1090479 13.841323 -2.0841351
-3.0175276 13.830185 -2.0795476
-2.9203217 13.790386 -2.0706687
-2.8185477 13.72473 -2.0579424
-2.7213557 13.676776 -2.0480275
-2.6261673 13.634947 -2.0391486
-2.5348532 13.609968 -2.0329335
-2.4448202 13.589251 -2.027458
-2.3590252 13.590354 -2.0253863
-2.2733088 13.590917 -2.0233145
-2.1868892 13.586058 -2.0205028
-2.1003125 13.578695 -2.0173953
-2.0115871 13.55513 -2.01192
-1.9254558 13.546656 -2.0088122
-1.8416334 13.553315 -2.0080724
-1.7591995 13.570245 -2.0089602
-1.6742064 13.567041 -2.0068886
-1.5902389 13.571165 -2.0060008
-1.506393 13.575752 -2.0052607
-1.4228594 13.582772 -2.0049648
-1.3396842 13.593216 -2.0052607
-1.2555256 13.593302 -2.004077
-1.1711619 13.589911 -2.002449
-1.0878325 13.597827 -2.0025971
-1.0039409 13.598328 -2.0017092
-0.92075098 13.608179 -2.0023012
-0.83729601 13.614559 -2.002449
-0.75363374 13.617466 -2.0021532
-0.67045242 13.629736 -2.0033369
-0.58668196 13.630629 -2.002893
-0.50310773 13.635949 -2.0031891
-0.41906586 13.626917 -2.0014131
-0.33561453 13.636152 -2.002449
-0.25204745 13.643888 -2.0033369
-0.16839808 13.651112 -2.0042248
-0.084645353 13.653866 -2.0045209
-0.0008654127 13.645226 -2.0031891
0.08289668 13.650909 -2.004077
0.166692 13.653111 -2.0045209
0.25053567 13.655786 -2.0051126
0.33456421 13.663878 -2.0065925
0.41827646 13.657614 -2.0060008
0.50258005 13.668627 -2.0080724
0.58643973 13.665286 -2.0080724
0.67056859 13.667357 -2.0089602
0.75529104 13.678785 -2.011328
0.83957225 13.679816 -2.0122159
0.92409474 13.683288 -2.0135477
1.0089825 13.690182 -2.0154715
1.0930437 13.684719 -2.0156195
1.1782641 13.692534 -2.0178392
1.2621669 13.684062 -2.0176911
1.3494035 13.709524 -2.0227227
1.4347341 13.71279 -2.0244985
1.5159035 13.677188 -2.0205028
1.6073904 13.732459 -2.0302696
1.6924685 13.729209 -2.0313056
1.7762963 13.715623 -2.0308616
1.860154 13.702506 -2.0305657
1.9446135 13.693771 -2.0310097
2.0300515 13.691365 -2.0324895
2.1131151 13.672787 -2.0316014
2.2054551 13.712291 -2.0395925
2.2924867 13.716058 -2.0422564
2.3813386 13.729017 -2.0463998
2.464833 13.710254 -2.0458078
2.5541615 13.723068 -2.0500994
2.6413088 13.722676 -2.0524671
2.7320206 13.73919 -2.0574985
2.8198516 13.739606 -2.0601621
2.9075856 13.738494 -2.0626779
2.9968877 13.743585 -2.0662293
3.0865779 13.749062 -2.0699289
3.1771162 13.756845 -2.0740724
3.2664945 13.75826 -2.077328
3.352962 13.746606 -2.0786598
3.4410915 13.741123 -2.0810275
3.5334656 13.751359 -2.085911
3.6250863 13.757153 -2.0902023
3.7161369 13.759475 -2.0940499
3.8055055 13.754523 -2.0968616
3.8933353 13.743284 -2.0987854
3.980895 13.730535 -2.1005611
4.0588803 13.684991 -2.0973055
4.093678 13.497994 -2.0720007
4.2200665 13.61337 -2.0940499
4.2957511 13.562707 -2.0902023
4.4032478 13.61137 -2.102041
4.4739628 13.545594 -2.0959737
4.5513043 13.501019 -2.0933101
4.6134677 13.412986 -2.0838392
4.6927342 13.376027 -2.0825074
4.8077064 13.439167 -2.0971575
4.8738093 13.364818 -2.0900545
4.9105797 13.213223 -2.0706687
5.0034719 13.214289 -2.0757003
5.0720005 13.151044 -2.0705209
5.1522369 13.118755 -2.0703728
5.2212501 13.058428 -2.0657854
5.310226 13.048129 -2.0693369
5.3682356 12.962306 -2.0607541
5.4388356 12.908162 -2.0573504
5.5155978 12.869093 -2.0564625
5.5829954 12.808717 -2.052171
5.6626854 12.776932 -2.0526149
5.7344751 12.727519 -2.0502472
5.8075194 12.681303 -2.0484715
5.8731174 12.619429 -2.0441799
5.9419808 12.565274 -2.0412204
6.0116863 12.513424 -2.0387046
6.0835819 12.466525 -2.037077
6.1546898 12.418329 -2.0353012
6.2303267 12.379448 -2.0351532
6.3084188 12.345389 -2.035893
6.3781285 12.295037 -2.0339692
6.4456143 12.240794 -2.0314536
6.5131416 12.187059 -2.0290859
6.5816669 12.135565 -2.0271621
6.6588669 12.10015 -2.0280499
6.7286468 12.051293 -2.0267181
6.7966156 11.999454 -2.0249424
6.8558249 11.932657 -2.0206509
6.9284153 11.889512 -2.0205028
6.9946952 11.835709 -2.018579
7.068203 11.794264 -2.0188751
7.1368427 11.744756 -2.0178392
7.2035847 11.692325 -2.0163593
7.2641878 11.630289 -2.0132518
7.3243017 11.567952 -2.0101442
7.378582 11.496992 -2.0055568
7.4425154 11.441554 -2.0037808
7.5109458 11.393195 -2.0033369
7.5708213 11.332093 -2.0006733
7.6285667 11.268229 -1.9975656
7.694766 11.217132 -1.9968258
7.754416 11.156713 -1.9944581
7.8101974 11.091134 -1.9912025
7.8608713 11.018851 -1.986763
7.9196434 10.958387 -1.9845432
7.9861493 10.90879 -1.9843953
8.0499878 10.85561 -1.9836553
8.1164455 10.806012 -1.9836553
8.17062 10.740266 -1.9806957
8.2279158 10.678963 -1.978624
8.2774649 10.608005 -1.9747764
8.3356533 10.548481 -1.9731486
8.3946581 10.490187 -1.9718168
8.4513941 10.42926 -1.970041
8.5045614 10.364211 -1.9675254
8.5705242 10.314876 -1.9681172
8.6221914 10.248472 -1.9654536
8.6643887 10.171285 -1.9607182
8.7143612 10.103702 -1.9579065
8.7605782 10.032164 -1.9543549
8.8082113 9.9626627 -1.9512473
8.8612595 9.8995867 -1.9494715
8.9118729 9.8340368 -1.9472518
8.9660273 9.7726116 -1.94592
9.0224562 9.7137899 -1.9451801
9.0696936 9.6452789 -1.9425163
9.1089277 9.568675 -1.9382249
9.1475649 9.4919538 -1.9339334
9.2035618 9.4335232 -1.9334894
9.2640524 9.3796883 -1.9340814
9.3032475 9.3044863 -1.9302338
9.3460913 9.2333279 -1.9272742
9.3869972 9.1606121 -1.9240186
9.426651 9.0870571 -1.9206151
9.4707699 9.0181341 -1.9182473
9.5223236 8.9564657 -1.9175074
9.572752 8.8938303 -1.9166195
9.6074686 8.8168726 -1.912624
9.6437998 8.7418165 -1.9090724
9.689888 8.6758823 -1.9075927
9.7377529 8.6116772 -1.9065567
9.7851963 8.5472116 -1.9055208
9.8239765 8.4753828 -1.9028572
9.8584805 8.4001932 -1.8994536
9.8863783 8.3198061 -1.8948661
9.9174643 8.2425537 -1.8910186
9.9479752 8.1652336 -1.887171
9.9932795 8.1003046 -1.8862832
10.029667 8.0283289 -1.8837675
10.069427 7.9592786 -1.8819917
10.117296 7.8967352 -1.8818437
10.168693 7.8369226 -1.8824357
10.213439 7.771986 -1.8818437
10.248282 7.6996675 -1.8794761
10.268326 7.6166101 -1.8744446
10.297311 7.5406079 -1.871189
10.321744 7.4616413 -1.8671935
10.346401 7.3832331 -1.863346
10.392318 7.3201795 -1.8634939
10.438662 7.2574043 -1.8637899
10.475657 7.1881819 -1.8624581
10.497454 7.1087985 -1.8584626
10.522783 7.032166 -1.855207
10.557477 6.9620233 -1.8537271
10.589219 6.8901019 -1.8518034
10.620477 6.8180532 -1.8498796
10.66629 6.755404 -1.8506196
10.699151 6.6845903 -1.8491397
10.727336 6.6110339 -1.84692
10.755866 6.5378971 -1.8448483
10.793235 6.470252 -1.8444042
10.826773 6.4003816 -1.8433684
10.843624 6.3208818 -1.8395209
10.89421 6.261126 -1.8415927
10.926398 6.1907501 -1.8405567
10.983175 6.1341982 -1.8438123
11.027539 6.0705061 -1.8449962
11.074142 6.007915 -1.846624
11.112542 5.9407845 -1.84692
11.150535 5.8734093 -1.8472159
11.181096 5.8021474 -1.846328
11.204158 5.7271314 -1.8442563
11.252339 5.6649461 -1.8464761
11.281569 5.5931611 -1.8455881
11.353894 5.5424852 -1.8519514
11.385906 5.471858 -1.8516554
11.40228 5.3938589 -1.8488437
11.437851 5.3250461 -1.8492876
11.461318 5.2506461 -1.8478079
11.49332 5.180222 -1.8478079
11.528504 5.1112061 -1.8483998
11.562369 5.0415578 -1.8488437
11.618538 4.9814272 -1.8529873
11.662556 4.9158044 -1.855207
11.687016 4.8418808 -1.8543191
11.71559 4.7697067 -1.854171
11.743717 4.6973643 -1.8540231
11.77508 4.6263022 -1.854467
11.805091 4.5546765 -1.854763
11.829116 4.4807553 -1.854171
11.860094 4.4094672 -1.854763
11.907368 4.3440671 -1.8580186
11.931936 4.2702565 -1.8577226
11.951381 4.1946712 -1.8566868
11.973153 4.1199732 -1.8560948
11.971029 4.0372667 -1.8518034
11.989003 3.9615664 -1.8507675
12.05637 3.901933 -1.8575747
12.080084 3.827883 -1.8575747
12.111846 3.7563248 -1.8589065
12.123309 3.6784923 -1.8571308
12.139015 3.602067 -1.8560948
12.164688 3.5286174 -1.8566868
12.211802 3.461189 -1.8606822
12.224231 3.3838198 -1.8593504
12.241899 3.307976 -1.8589065
12.264834 3.2335548 -1.8593504
12.28157 3.1575 -1.8589065
12.316064 3.0859268 -1.8612742
12.343413 3.0124083 -1.862606
12.355892 2.9352429 -1.8617182
12.381378 2.8611538 -1.862902
12.401596 2.7857795 -1.863346
12.403961 2.706471 -1.8611263
12.400984 2.6262145 -1.8581666
12.461429 2.5592222 -1.8649738
12.507936 2.4888856 -1.8697093
12.531713 2.4137743 -1.8710411
12.538509 2.3353875 -1.8698572
12.531189 2.2545578 -1.8666016
12.557455 2.1798234 -1.8685254
12.56279 2.1014266 -1.8673415
12.557872 2.0214756 -1.8646778
12.565152 1.9436284 -1.8639379
6.386229 0.94834101 -0.92750764
6.1402836 0.87339234 -0.8894763
5.9857874 0.81400818 -0.86535519
5.9465337 0.77154696 -0.85869598
5.9197464 0.73117185 -0.85396057
5.9113517 0.69334 -0.85203683
5.9066477 0.6560747 -0.85070497
5.8977752 0.61848146 -0.84878123
5.8906326 0.58121562 -0.84715343
5.8812857 0.54387909 -0.84522963
5.8864827 0.50795162 -0.84552562
5.8855453 0.47150815 -0.84493369
5.8794508 0.43473163 -0.84360182
5.8829942 0.39871448 -0.84374982
0 0 -0
0 0 -0
5.8685927 0.28934163 -0.84064221
0 0 -0
0 0 -0
0 0 -0
5.8729372 0.14520776 -0.84049422
5.8747067 0.10918755 -0.84064221
0 0 -0
0 0 -0
0 -0 -0
0 -0 -0
0 -0 -0
0 -0 -0
0 -0 -0
0 -0 -0
0 -0 -0
0 -0 -0
0 -0 -0
0 -0 -0
0 -0 -0
0 -0 -0
0 -0 -0
0 -0 -0
0 -0 -0
6.2340345 -0.57436818 -0.89820719
11.499937 -1.1317296 -1.690503
11.488842 -1.2018585 -1.689911
11.472404 -1.2713488 -1.6885792
10.606863 -1.2412715 -1.5593909
10.590213 -1.3052408 -1.5580591
10.56435 -1.3679087 -1.5553954
10.551838 -1.4321721 -1.5548035
10.552644 -1.4982812 -1.5562832
10.568686 -1.5667764 -1.5601308
11.07786 -1.7118485 -1.6387093
11.061289 -1.778846 -1.6378213
11.047239 -1.8461939 -1.6373774
11.030831 -1.9130982 -1.6366376
11.014992 -1.9800458 -1.6360456
10.998746 -2.0468712 -1.6354537
10.992778 -2.1156287 -1.6364895
10.98541 -2.1841969 -1.6373774
10.969863 -2.2511632 -1.6370815
10.944233 -2.3159726 -1.6353056
10.91339 -2.379498 -1.63279
10.907269 -2.4483671 -1.6341218
8.3143921 -1.9197201 -1.2382699
10.853309 -2.5765467 -1.6305703
10.841139 -2.6440306 -1.6311622
10.835264 -2.7131445 -1.63279
10.830864 -2.782778 -1.6347138
7.50279 -1.97648 -1.1223999
7.502933 -2.0258324 -1.1243237
10.747307 -2.9732258 -1.6299783
10.725055 -3.0380356 -1.6293864
10.710961 -3.1051633 -1.6301264
10.698343 -3.1727953 -1.6311622
7.961565 -2.4140885 -1.2063057
7.9409347 -2.4611368 -1.2054179
7.9285126 -2.5107112 -1.2058618
7.927072 -2.5638797 -1.2080816
10.58002 -3.4941976 -1.6286465
10.534952 -3.5511494 -1.624947
10.506418 -3.6134715 -1.623911
10.469117 -3.6726301 -1.6215434
10.381204 -3.713474 -1.6111846
7.7158384 -2.813247 -1.1903237
10.460925 -3.8874538 -1.6313101
10.456298 -3.9589236 -1.6344178
10.458569 -4.0333304 -1.6387093
10.459397 -4.1075521 -1.6428528
10.445017 -4.1760592 -1.6446285
10.366068 -4.2184434 -1.6360456
10.313492 -4.2709928 -1.6317542
10.275244 -4.3292017 -1.6298304
10.213036 -4.3769703 -1.6240591
10.133406 -4.4166298 -1.6154761
10.090745 -4.4719105 -1.6129603
10.066722 -4.5353675 -1.6135523
10.012629 -4.5851064 -1.6092608
9.9950657 -4.6514649 -1.6110367
9.9484568 -4.7042484 -1.6080769
9.8864222 -4.7493539 -1.6026016
9.8473177 -4.8051543 -1.6009738
9.8070154 -4.8602147 -1.5991981
9.7743587 -4.9189639 -1.5987542
9.7422314 -4.9779458 -1.5984582
9.7000923 -5.0317078 -1.5965344
9.655035 -5.0837579 -1.5941666
9.6070881 -5.1340461 -1.591355
9.5780134 -5.1943121 -1.591799
9.5459614 -5.252984 -1.591799
9.5057783 -5.3071179 -1.5904671
9.4592676 -5.3575449 -1.5880994
9.3996344 -5.4002094 -1.5835119
9.368885 -5.4592767 -1.5839559
9.3411713 -5.5201831 -1.5849918
9.2816763 -5.5621419 -1.5805523
9.2144117 -5.5989556 -1.5747811
9.1849356 -5.6585016 -1.5756689
9.1508818 -5.7152772 -1.5758169
9.116477 -5.7718472 -1.5759649
9.0733995 -5.8228683 -1.574633
9.0209208 -5.8676453 -1.5716734
8.9822702 -5.9212527 -1.5712295
8.9383688 -5.9713101 -1.5698977
8.8819075 -6.0127344 -1.566346
8.8497391 -6.0704765 -1.5672339
8.8001442 -6.1161957 -1.5650142
8.7365761 -6.1518536 -1.5602788
8.6672668 -6.1829414 -1.5545075
8.6355782 -6.2406411 -1.5556914
8.6051035 -6.2993536 -1.5571712
8.5845594 -6.3655853 -1.5605748
8.5216179 -6.4003191 -1.5561353
8.4585743 -6.4345202 -1.5516958
8.4118824 -6.4808669 -1.550364
8.3649416 -6.5268826 -1.5490322
8.3441334 -6.5934176 -1.5527318
8.3058367 -6.6463461 -1.5531757
8.2587528 -6.6922026 -1.5519918
8.1999512 -6.7283206 -1.5485882
8.1356936 -6.7595448 -1.5441488
8.085741 -6.8023329 -1.542521
8.042345 -6.8505354 -1.542225
7.958972 -6.8642235 -1.534086
7.9092555 -6.9064236 -1.5326061
7.8771019 -6.9639959 -1.5346779
7.8379073 -7.0154963 -1.5354178
7.7763944 -7.0468521 -1.5317183
7.7322803 -7.0937657 -1.5315703
7.6791887 -7.1323261 -1.5296465
7.6295176 -7.1738901 -1.5284626
7.5731797 -7.2089753 -1.525947
7.5387726 -7.2649164 -1.5280187
7.4834361 -7.3006763 -1.525799
7.4370923 -7.3450665 -1.525503
7.1569166 -7.1555839 -1.4757811
7.0538011 -7.1395564 -1.4632026
7.0153861 -7.1883659 -1.4643865
6.958107 -7.2177467 -1.4615748
6.9075513 -7.2538581 -1.460243
6.8202286 -7.2507167 -1.4509201
6.7742643 -7.2909794 -1.4506241
6.7354178 -7.3389664 -1.4519559
6.6636939 -7.3508439 -1.4460367
6.5571179 -7.3230643 -1.4322743
2.1654298 -2.4472704 -0.45041361
2.1490719 -2.4590213 -0.45011765
2.1404028 -2.4796505 -0.45159745
6.4062114 -7.5179143 -1.4393774
6.4147201 -7.6221619 -1.452104
6.3570857 -7.6484475 -1.4495882
6.2799211 -7.6506128 -1.4424851
6.2179151 -7.6705613 -1.4389335
6.1762938 -7.715519 -1.4402654
6.1834121 -7.8223286 -1.4534358
2.0088527 -2.5723319 -0.44982168
1.9882021 -2.5783424 -0.44863781
1.9645596 -2.5802612 -0.44671404
1.9457204 -2.5883131 -0.44597414
1.9274458 -2.5970256 -0.44538221
1.8302653 -2.4978845 -0.4248127
1.8120074 -2.5050602 -0.4240728
1.817281 -2.5451143 -0.42940015
5.9529276 -8.4508791 -1.5081891
5.9099936 -8.5002403 -1.5105568
5.8700347 -8.554285 -1.5138124
5.7908216 -8.5508318 -1.5067093
5.7470365 -8.5993605 -1.509077
5.6571455 -8.5783148 -1.4990143
5.5973926 -8.602088 -1.4970905
5.5316849 -8.6162958 -1.4935389
1.7867285 -2.8195148 -0.46092033
1.7672988 -2.8270698 -0.4603284
1.7499191 -2.8378603 -0.4603284
5.3262687 -8.7621326 -1.4957587
5.3090115 -8.8557262 -1.5064133
5.2339425 -8.8532276 -1.5003461
5.1859951 -8.8962841 -1.5022699
5.1229348 -8.9133596 -1.4997542
5.0574226 -8.9256945 -1.4964986
4.9929175 -8.9392881 -1.4935389
4.935112 -8.9645567 -1.492651
4.8828425 -8.9998856 -1.4935389
4.8359199 -9.0453768 -1.4962026
4.7867789 -9.0871305 -1.4982743
4.7313867 -9.1172085 -1.4984223
4.6794062 -9.1539936 -1.4997542
4.6240392 -9.1843004 -1.5000501
4.5574965 -9.1921196 -1.4966465
4.4923334 -9.2021351 -1.4936869
4.4310746 -9.2197208 -1.4920591
4.3735743 -9.2449474 -1.4917631
4.3176007 -9.2734022 -1.4920591
4.2630897 -9.3051147 -1.492947
4.2014451 -9.3211794 -1.4913192
4.1429701 -9.3440704 -1.4908752
4.0839772 -9.3656893 -1.4902833
4.0233164 -9.3832998 -1.4890994
3.9672019 -9.4114552 -1.4896914
3.9120288 -9.4420166 -1.4907272
3.8510375 -9.4585142 -1.4895434
3.7907252 -9.4764557 -1.4886554
3.7292533 -9.4912519 -1.4873236
3.6752169 -9.5250282 -1.4890994
3.6191549 -9.553874 -1.4901353
3.5570197 -9.5666313 -1.4886554
3.4989307 -9.5901346 -1.4889514
3.4383552 -9.6067667 -1.4882115
3.3780346 -9.623951 -1.4876196
3.3227801 -9.6557198 -1.4893954
3.2644191 -9.6787376 -1.4898393
3.2037292 -9.694829 -1.4892474
3.1402247 -9.7020712 -1.4873236
3.0872054 -9.7418985 -1.4905792
3.0273721 -9.7606583 -1.4905792
2.9662766 -9.7752647 -1.4899874
2.9059596 -9.7923326 -1.4898393
2.8455448 -9.8090296 -1.4896914
2.7850347 -9.8253527 -1.4895434
2.7265413 -9.8489294 -1.4905792
2.6681211 -9.8731117 -1.4917631
2.6082468 -9.8921661 -1.4922071
2.5457773 -9.9012785 -1.4911712
2.4835346 -9.9109564 -1.4902833
2.4215035 -9.9212046 -1.4895434
2.3594401 -9.9310646 -1.4888035
2.29935 -9.9492092 -1.4893954
2.2408595 -9.9747105 -1.4911712
2.17856 -9.9834414 -1.4904313
2.1145992 -9.9840422 -1.4885075
2.0668216 -10.062707 -1.4985703
0.51549435 -2.5858979 -0.35600108
0.50167447 -2.599695 -0.35762888
0.48625663 -2.6056411 -0.35807282
0.47376025 -2.6280434 -0.36103246
0.46168336 -2.6542871 -0.36458403
0.45386821 -2.7077937 -0.37227911
0.43520284 -2.6978338 -0.37035534
0.42181399 -2.7209785 -0.37346295
0.40307912 -2.7098193 -0.37139121
0.38338447 -2.6907001 -0.3681356
0.36833128 -2.7037818 -0.3697634
0.35300487 -2.7157989 -0.37124321
0.3421444 -2.7650282 -0.37834635
1.1783648 -10.053623 -1.476077
0.30153927 -2.7090578 -0.36931947
0.2831609 -2.6941357 -0.36680377
0.2715674 -2.7460179 -0.37435085
0.72581196 -7.8528671 -1.1414896
0.67430556 -7.8187442 -1.1357183
0.6251362 -7.8079472 -1.1334987
0.5781613 -7.8244576 -1.1354223
0.53234088 -7.8604202 -1.1403058
0.63190168 -10.270163 -1.501086
0.20169863 -3.6290691 -0.50531495
0.177099 -3.582824 -0.4982118
0.15405078 -3.5591412 -0.49451226
0.13097246 -3.5264165 -0.48948085
0.1081197 -3.4876127 -0.48356158
0.086233079 -3.4684367 -0.48060194
0.1882087 -10.172131 -1.483772
0.126093 -10.197817 -1.4874716
0.021940529 -3.3982303 -0.46994722
0.00094002398 -10.225299 -1.4914671
-0.061923049 -10.244892 -1.4944268
-0.12475904 -10.242341 -1.4941308
-0.18749316 -10.23545 -1.493243
-0.25012314 -10.227186 -1.4922071
-0.31226408 -10.205688 -1.4892474
-0.37527978 -10.214452 -1.4908752
-0.43845728 -10.223814 -1.492651
-0.50098693 -10.21698 -1.4920591
-0.56306702 -10.202851 -1.4904313
-0.62547797 -10.196243 -1.4899874
-0.68956375 -10.214908 -1.4933909
-0.76008815 -10.317006 -1.5093729
-0.84568572 -10.591142 -1.5512519
-0.91371131 -10.621225 -1.5565792
-0.98068309 -10.635116 -1.5595388
-1.0487323 -10.65744 -1.5638304
-1.1153413 -10.662608 -1.5656061
-1.18129 -10.660479 -1.566346
-1.2456437 -10.644189 -1.5650142
-1.3039088 -10.579415 -1.5564313
-1.3216425 -10.207343 -1.5015299
-1.3813201 -10.177482 -1.4982743
-1.440542 -10.146295 -1.4948708
-1.4995784 -10.115742 -1.4916152
-0.45031449 -2.9197223 -0.4035033
-0.47387779 -2.9520557 -0.40883064
-1.6801391 -10.054236 -1.4867318
-0.52139813 -3.0113049 -0.41874546
-0.54424226 -3.032383 -0.422445
-0.56012267 -3.0144024 -0.42022526
-1.9465733 -10.11486 -1.5027138
-2.0076354 -10.097876 -1.5019739
-2.0681646 -10.078585 -1.5009381
-2.1240261 -10.037646 -1.4966465
-2.1929533 -10.058244 -1.5018259
-0.64187247 -2.8634043 -0.40054366
-0.65475476 -2.8391762 -0.39743605
-2.3724649 -9.9940443 -1.4984223
-2.4363213 -9.9898672 -1.5000501
-2.4999754 -9.9843235 -1.5015299
-0.93548071 -3.6440907 -0.52440464
-0.7622084 -2.8961742 -0.40957057
-0.77532166 -2.8742571 -0.4069069
-0.78713965 -2.8484764 -0.4036513
-0.81484908 -2.8797507 -0.40927461
-0.81432229 -2.8120067 -0.39950779
-0.84478205 -2.8515198 -0.40646294
-2.9756744 -9.8127193 -1.4957587
-0.99160296 -3.2017827 -0.46299207
-1.0216846 -3.228636 -0.46817145
-3.2078564 -9.9171877 -1.5210636
-3.2121816 -9.726408 -1.4941308
-3.2714853 -9.7055779 -1.4939828
-3.329689 -9.6815815 -1.4933909
-1.1248263 -3.2088416 -0.47024319
-1.1428282 -3.1972234 -0.46950328
-3.4836075 -9.5536146 -1.4830322
-3.5790343 -9.6312504 -1.4988662
-1.1566486 -3.0572615 -0.45056158
-1.1782335 -3.0574887 -0.45174545
-3.7806587 -9.6272554 -1.509077
-1.2020767 -3.0088234 -0.44627011
-1.2279733 -3.019711 -0.44922975
-3.9470053 -9.5313644 -1.5050815
-4.0023417 -9.4996758 -1.5038977
-4.0636725 -9.4822111 -1.5050815
-4.1332397 -9.4833889 -1.5093729
-4.1913509 -9.4578495 -1.5093729
-4.2448349 -9.4220362 -1.5077451
-4.2943301 -9.3778296 -1.5047855
-1.3254143 -2.8500206 -0.43176788
-1.342031 -2.8400462 -0.43147191
-1.3585752 -2.8299754 -0.43117595
-1.3802521 -2.8304737 -0.43265575
-4.608963 -9.3001709 -1.5145524
-4.6677198 -9.2752495 -1.5151442
-4.7335453 -9.2640467 -1.518104
-4.7889328 -9.2321939 -1.51766
-4.8445687 -9.2008858 -1.517364
-4.9013996 -9.1718597 -1.517512
-4.9585276 -9.1433506 -1.517808
-4.7407999 -8.6154318 -1.4328662
-4.7434249 -8.4963799 -1.4174762
-4.7676816 -8.418067 -1.4090412
-4.7813015 -8.3226271 -1.3976465
-4.8098679 -8.2546835 -1.3909874
-4.8488522 -8.2054329 -1.3875837
-4.8930068 -8.1653471 -1.385808
-4.9199018 -8.0971394 -1.3791488
-4.964304 -8.0583792 -1.377669
-4.9319139 -7.8969193 -1.3545837
-5.0818677 -8.0269327 -1.3829963
-5.2010102 -8.1046276 -1.402382
-5.2608886 -8.0883131 -1.4051937
-5.3370948 -8.0963383 -1.4124447
-5.4526091 -8.1621141 -1.4302026
-5.4149761 -7.9991155 -1.4068215
-5.4594798 -7.9592152 -1.4056376
-5.5053911 -7.9215064 -1.4048977
-5.5635743 -7.9013224 -1.4074134
-5.6228657 -7.8823323 -1.410225
-5.6676488 -7.8428736 -1.4093372
-5.684114 -7.7648606 -1.4013461
-6.3037238 -8.501153 -1.5450367
-6.3557673 -8.4623137 -1.5450367
-6.3896055 -8.3995447 -1.5405972
-1.7087795 -2.2193244 -0.38056609
-1.7327088 -2.2220519 -0.38308179
-1.7463105 -2.2113783 -0.38308179
-1.7604644 -2.2013936 -0.38322976
-1.7795433 -2.1974652 -0.3845616
-6.7452612 -8.2205925 -1.5525837
-6.8088489 -8.1950226 -1.5556914
-6.868556 -8.1644411 -1.557911
-6.9249368 -8.1296701 -1.5593909
-6.979857 -8.0930176 -1.5605748
-7.0410938 -8.063446 -1.5632384
-7.0937133 -8.0237951 -1.5639783
-7.1513886 -7.9896965 -1.5659021
-7.2069197 -7.9529939 -1.567382
-7.2509022 -7.9035225 -1.566346
-7.3066649 -7.8668532 -1.5679739
-7.3534427 -7.8204317 -1.5676779
-7.3951516 -7.7687182 -1.566346
-7.4399352 -7.7203479 -1.5657542
-7.5023618 -7.690124 -1.5690098
-7.5570512 -7.6516852 -1.5706376
-7.5828791 -7.5841928 -1.5661981
-7.6503801 -7.5583725 -1.5706376
-3.4904754 -3.4073169 -0.69132835
-3.4094877 -3.2876925 -0.67016691
-3.3708608 -3.2107921 -0.65803236
-7.9531641 -7.4808154 -1.5952026
-7.9380493 -7.3753352 -1.582772
-3.5401552 -3.2498338 -0.68052566
-3.2815621 -2.9756739 -0.62429249
-3.37713 -3.0247447 -0.63983059
-3.5675154 -3.1559508 -0.67416245
-3.44677 -3.0116985 -0.6463418
-3.4389734 -2.9678841 -0.64116246
-3.4345343 -2.9274864 -0.63672298
-3.7891891 -3.1897006 -0.70257497
-3.7600079 -3.1259379 -0.69310415
-3.8823268 -3.1875062 -0.71308172
-5.2341285 -4.2433677 -0.96968251
-5.3504086 -4.2834735 -0.98699641
-5.3447776 -4.2254214 -0.98092914
-5.3885365 -4.2065411 -0.98433274
-5.4886684 -4.2307448 -0.99839103
-5.4720221 -4.1646509 -0.99040002
-5.5101247 -4.1405005 -0.99276775
-5.5441647 -4.1130934 -0.99439555
-5.5437627 -4.0603018 -0.98966008
-5.7368965 -4.1478691 -1.0207363
-5.7670698 -4.1160364 -1.0216242
-5.6709275 -3.9951553 -0.9994269
-5.7692332 -4.0116515 -1.0128933
-5.7619343 -3.9543567 -1.007122
-5.5780787 -3.7780921 -0.96953458
-5.7590423 -3.8492861 -0.9979471
-5.7627363 -3.8008118 -0.99439555
-5.7842913 -3.7643023 -0.99409956
-5.6832666 -3.6491427 -0.97205025
-5.7347951 -3.6327205 -0.9772296
-5.6739364 -3.5455928 -0.96257937
-5.6576953 -3.4873655 -0.95592022
-5.7482901 -3.4947016 -0.96805471
-5.9248633 -3.5524065 -0.99513543
-5.9610229 -3.5245402 -0.99765116
-5.9415221 -3.4639947 -0.99054801
-5.9909625 -3.443733 -0.99543142
-5.7899666 -3.2811453 -0.95725203
-5.897203 -3.2942557 -0.97219825
-5.9441648 -3.2727916 -0.97678566
-5.892848 -3.1975918 -0.96465117
-5.8713627 -3.1394629 -0.95769596
-5.9745221 -3.1476171 -0.97190225
-5.9094467 -3.0671759 -0.95769596
-6.0540891 -3.095216 -0.9788574
-5.9263225 -2.9842002 -0.95429242
-6.0960464 -3.022886 -0.97959733
-6.0087142 -2.9338062 -0.96198744
-6.2120209 -2.98597 -0.99276775
-6.2650933 -2.9642878 -0.99853903
-6.3172355 -2.9416487 -1.0041623
-6.2659302 -2.8711209 -0.99276775
-6.2753139 -2.8289633 -0.99143589
-5.7997909 -2.5719912 -0.91078568
-5.851727 -2.5521641 -0.91670495
-6.2817817 -2.6938839 -0.98418474
-6.3319139 -2.6694987 -0.98966008
-6.3216767 -2.6196215 -0.98536861
-6.5648046 -2.6732466 -1.0220681
-6.6573019 -2.6633937 -1.0343506
-6.6385388 -2.6087556 -1.0287274
-6.5233932 -2.5174336 -1.0077139
-6.4656506 -2.4496901 -0.99602336
-6.4935384 -2.4147954 -0.9980951
-6.5100913 -2.3755841 -0.99839103
-6.5189576 -2.3335953 -0.99750316
-6.6040778 -2.3184373 -1.0087498
-6.5564556 -2.256639 -0.99898297
-6.6535859 -2.2444875 -1.0121534
-6.6193395 -2.1877992 -1.0046062
-6.7079163 -2.1714976 -1.0164448
-6.7823973 -2.1497107 -1.0260637
-6.7595639 -2.0969253 -1.0204403
-6.7656784 -2.0534003 -1.0194045
-6.7648764 -2.0079107 -1.0173328
-6.8901029 -1.9991409 -1.0349426
-6.858469 -1.9444247 -1.0281354
-6.6920276 -1.8529831 -1.0004628
-6.8493514 -1.8513457 -1.0231041
-6.9256129 -1.8264227 -1.0331668
-6.9309421 -1.7824166 -1.0322789
-7.1806278 -1.7996862 -1.0691265
-7.3452654 -1.7930957 -1.0928036
-7.3032069 -1.7354251 -1.0846646
-7.8552704 -1.8156735 -1.1678305
-7.9733744 -1.7914904 -1.1842564
-8.2035608 -1.7903717 -1.2178484
-8.2376137 -1.7449173 -1.2213999
-8.9902573 -1.8466733 -1.3347542
-9.5708036 -1.9047201 -1.4216197
-9.8095617 -1.8897089 -1.4562474
-10.321699 -1.9226997 -1.5324582
-11.260931 -2.0261383 -1.673485
-11.313103 -1.9639359 -1.6795523
-11.658545 -1.950255 -1.7301621
-11.829452 -1.9042882 -1.7542832
-12.292462 -1.9014734 -1.8226509
-12.911416 -1.9161155 -1.9145478
-13.093304 -1.8610579 -1.9402966
-13.044697 -1.7725661 -1.9312698
-13.1691 -1.7072312 -1.9484357
-13.156752 -1.623611 -1.945032
-13.068238 -1.5313505 -1.9302338
-13.077388 -1.4511365 -1.9302338
-13.093915 -1.3716915 -1.9314177
-13.107006 -1.2918074 -1.9321576
-13.143246 -1.2139955 -1.9364491
-13.155374 -1.1337513 -1.937189
-13.149266 -1.051986 -1.9352652
-13.131803 -0.96953815 -1.9317137
-13.13553 -0.88881129 -1.9314177
-13.136788 -0.80795395 -1.9308258
-13.143474 -0.72744209 -1.9311217
-13.123982 -0.64561743 -1.9275702
-13.13659 -0.56546003 -1.928902
-13.134871 -0.48466286 -1.9281621
-13.101022 -0.40293801 -1.9226868
-13.088417 -0.32218033 -1.920467
-13.105968 -0.24215618 -1.9228348
-13.127975 -0.16198932 -1.9259424
-13.1396 -0.081501044 -1.9275702
-13.173479 -0.00087570469 -1.9326016
-13.101041 0.079510696 -1.9217988
-13.108218 0.15999293 -1.9229827
-13.107979 0.24043867 -1.9231308
-13.101313 0.32074171 -1.9223908
-13.14457 0.40252033 -1.929198
-13.122087 0.48243785 -1.9262383
-13.104058 0.56230706 -1.9240186
-13.088508 0.64211887 -1.9222429
-13.063584 0.72126955 -1.9191352
-13.03917 0.80019933 -1.9161756
-13.046843 0.88105845 -1.9180993
-12.124319 -0.30649891 -1.9190916
-12.123011 -0.23204292 -1.9186134
-12.104464 -0.15739579 -1.9154261
-12.107176 -0.083134867 -1.9157449
-12.122266 -0.0088563766 -1.9181354
-12.124066 0.065535225 -1.9184541
-12.134295 0.14005084 -1.9202071
-12.123337 0.21432866 -1.9186134
-12.110937 0.28845382 -1.9168605
-12.09019 0.36219862 -1.9138325
-12.08774 0.43637583 -1.9138325
-12.086808 0.51061988 -1.9141512
-12.134723 0.58725327 -1.9224381
-12.133848 0.6618607 -1.9229163
-12.099997 0.73450661 -1.9181354
-12.073591 0.80728871 -1.9146293
-12.078257 0.88207436 -1.9162229
-12.057855 0.95499986 -1.9138325
-12.019308 1.0261972 -1.9085735
-12.005903 1.099297 -1.9074579
-11.987142 1.171791 -1.9055456
-11.972853 1.2446064 -1.90443
-11.985598 1.3203163 -1.9077767
-11.96158 1.3920084 -1.9052268
-11.986131 1.4694604 -1.9106452
-11.933806 1.5374295 -1.9036332
-11.935888 1.6122104 -1.9055456
-11.879828 1.6789259 -1.8980554
-11.898602 1.7561108 -1.9028364
-11.904191 1.8316379 -1.9055456
-11.879081 1.9024611 -1.9033145
-11.819467 1.9673728 -1.8955057
-11.749776 2.0299447 -1.8861032
-11.763337 2.1066997 -1.890406
-11.738542 2.1766791 -1.8884935
-11.777321 2.2587037 -1.8970993
-11.76324 2.3309255 -1.8970993
-11.752584 2.4038506 -1.8977367
-11.765627 2.4818258 -1.9023583
-11.741495 2.5520849 -1.900924
-11.697676 2.6178298 -1.8963025
-11.679469 2.6891131 -1.8959837
-11.647378 2.7570887 -1.8934339
-11.642712 2.8315361 -1.8955057
-11.591596 2.894551 -1.8899279
-11.580311 2.9673364 -1.8910434
-11.535151 3.0313113 -1.8865812
-11.524913 3.1043432 -1.8880155
-11.522779 3.1797266 -1.890884
-11.500201 3.2495642 -1.890406
-11.472459 3.317873 -1.8891311
-11.479338 3.3963256 -1.8937526
-11.413871 3.4532623 -1.8862625
-11.379263 3.5191486 -1.8840314
-11.372517 3.593663 -1.8865812
-11.355889 3.665195 -1.8875374
-11.365066 3.7453089 -1.8929558
-11.268886 3.7904263 -1.8805254
-11.238879 3.8572564 -1.8794098
-11.265316 3.9437571 -1.8880155
-11.209294 4.0015216 -1.8825971
-11.207723 4.0786648 -1.8865812
-11.18156 4.1470141 -1.8864219
-11.109729 4.1980982 -1.8784536
-11.111401 4.276825 -1.8832346
-11.085869 4.345283 -1.8833939
-11.128684 4.4410291 -1.8955057
-11.085675 4.5029144 -1.8927964
-11.041415 4.5640621 -1.8899279
-10.980441 4.6179485 -1.8841908
-10.964607 4.6906719 -1.8864219
-10.901219 4.7428956 -1.880366
-10.901706 4.8228745 -1.885625
-10.865605 4.8868408 -1.8845094
-10.836313 4.9538293 -1.8846688
-10.779749 5.0081649 -1.8800473
-10.73721 5.0687356 -1.8779756
-10.671191 5.1178741 -1.8717604
-10.644913 5.1858487 -1.8727165
-10.612892 5.2510672 -1.8727165
-10.522251 5.2868371 -1.8621985
-10.571399 5.3930206 -1.8770194
-10.520576 5.4487042 -1.8738321
-10.479955 5.5094795 -1.8725572
-10.44421 5.5727506 -1.8722384
-10.403743 5.6334395 -1.8711228
-10.378498 5.7023988 -1.8728759
-10.351936 5.7707791 -1.8744695
-10.324926 5.8390484 -1.8760632
-10.276916 5.8954139 -1.8738321
-10.197029 5.933042 -1.8657045
-10.198694 6.0180736 -1.8728759
-10.178519 6.0906763 -1.8760632
-10.135892 6.1499434 -1.875107
-10.088716 6.2063303 -1.873354
-10.069711 6.2801318 -1.8770194
-10.069372 6.3660665 -1.8843502
-10.049239 6.4399815 -1.8880155
-10.012019 6.5031343 -1.8884935
-9.9719276 6.5644445 -1.8884935
-9.8912201 6.5986633 -1.8806847
-9.9192476 6.7056718 -1.8940713
-9.8445215 6.743536 -1.8875374
-9.8532429 6.8387113 -1.897418
-9.8143263 6.9013124 -1.8980554
-9.829689 7.0026422 -1.9095297
-9.7745285 7.0541587 -1.9071392
-9.7557678 7.132062 -1.9120796
-9.6800871 7.1682887 -1.905705
-9.6453981 7.2346578 -1.9076173
-9.5984669 7.291913 -1.9071392
-9.5527611 7.3500686 -1.9069798
-9.5261717 7.4231076 -1.9108046
-9.4447956 7.4532886 -1.9034739
-9.4189377 7.5271239 -1.9076173
-9.3978996 7.605269 -1.9128764
-9.3556395 7.6665444 -1.9138325
-9.3517284 7.7597365 -1.9229163
-9.3039398 7.8169713 -1.9229163
-9.1978989 7.8246589 -1.9106452
-9.2282572 7.9485955 -1.9273785
-9.1837759 8.0089626 -1.9283347
-9.129281 8.0605888 -1.9272192
-9.1039391 8.1381645 -1.9324782
-9.0677414 8.2064581 -1.9355061
-9.0062981 8.2519388 -1.9331156
-8.968524 8.319129 -1.9359841
-8.9302635 8.3861666 -1.9388527
-8.877924 8.4401236 -1.9386934
-8.802495 8.4718475 -1.9334344
-8.7807531 8.5553226 -1.940287
-8.7126303 8.5937881 -1.9367809
-8.6995564 8.6868458 -1.9458648
-8.624567 8.7183056 -1.9409244
-8.60886 8.8098936 -1.9496895
-8.5477848 8.8554478 -1.9480958
-8.5103197 8.9255915 -1.95208
-8.44524 8.9668617 -1.9496895
-8.3887167 9.017067 -1.9493707
-8.3412466 9.0770922 -1.9512831
-8.2933559 9.1368742 -1.9531955
-8.2562494 9.2089052 -1.9578171
-8.2094069 9.2704763 -1.9602076
-8.1738186 9.3451958 -1.9654665
-8.1047068 9.3817263 -1.962598
-8.054038 9.4395399 -1.9643511
-7.9711552 9.4593401 -1.9581358
-7.8984385 9.4906197 -1.9544704
-7.8456979 9.5457687 -1.9559047
-7.8249316 9.6404848 -1.9656259
-7.8014441 9.7329931 -1.974869
-7.7428021 9.7822266 -1.9751878
-7.6856737 9.8334408 -1.9759846
-7.6378589 9.8968258 -1.9793313
-7.5757923 9.9419336 -1.9790125
-7.5277052 10.005587 -1.9825186
-7.4567513 10.038907 -1.9799687
-7.3734121 10.055017 -1.9740722
-7.3167872 10.107266 -1.9755065
-7.2678347 10.170444 -1.9791719
-7.1950498 10.200327 -1.9763033
-7.1447368 10.262107 -1.9798093
-7.0749254 10.29599 -1.9778969
-7.0232539 10.356364 -1.9812436
-6.9689112 10.413211 -1.9839528
-6.9097819 10.463189 -1.9853871
-6.8449121 10.504562 -1.9852277
-6.7808623 10.547195 -1.9853871
-6.716547 10.589437 -1.9855465
-6.6545873 10.63547 -1.9865026
-6.5897222 10.676942 -1.986662
-6.5184388 10.707899 -1.9849091
-6.4485483 10.740923 -1.9836341
-6.3855395 10.785385 -1.9845903
-6.3282013 10.839709 -1.9874588
-6.2660031 10.886035 -1.9888932
-6.1995773 10.925136 -1.9890524
-6.1377268 10.972447 -1.9908055
-6.0755291 11.019411 -1.9925585
-6.0096865 11.059952 -1.9931959
-5.9361181 11.086175 -1.9912835
-5.8624549 11.111912 -1.9893712
-5.7891545 11.138039 -1.9876182
-5.7301526 11.191804 -1.9909649
-5.6653738 11.234686 -1.9923991
-5.5998454 11.27631 -1.993674
-5.5301161 11.30957 -1.9935147
-5.4597616 11.341511 -1.9931959
-5.3921824 11.379258 -1.9939928
-5.3197551 11.406762 -1.9930366
-5.2546062 11.449955 -1.994949
-5.1801887 11.472984 -1.9933553
-5.1072898 11.49914 -1.9923991
-5.028337 11.511263 -1.9890524
-4.9607277 11.549156 -1.9903274
-4.9020605 11.608479 -1.995427
-4.8436084 11.66934 -2.0008454
-4.7819834 11.72352 -2.0051482
-4.7242827 11.78838 -2.0113635
-4.6587329 11.834599 -2.0143914
-4.5710778 11.824287 -2.0076981
-4.5022931 11.862266 -2.0094512
-4.4308014 11.893368 -2.0100884
-4.3757081 11.969472 -2.0185349
-4.3011823 11.993308 -2.0180569
-4.2278395 12.020405 -2.0182161
-4.1655912 12.079719 -2.0239532
-4.0999289 12.130301 -2.0282562
-4.0279045 12.162727 -2.029531
-3.9541135 12.19003 -2.030009
-3.8795414 12.215004 -2.0301685
-3.806277 12.244235 -2.0311246
-3.7376838 12.289083 -2.03479
-3.672343 12.345849 -2.0405271
-3.5959697 12.366254 -2.0402083
-3.5332475 12.434617 -2.0480173
-3.4626923 12.476991 -2.0515232
-3.3871024 12.501814 -2.0521607
-3.3199177 12.558629 -2.0582166
-3.2427969 12.578764 -2.0582166
-3.1691632 12.612786 -2.060607
-3.0914781 12.631035 -2.0604477
-3.0184941 12.668973 -2.0636349
-2.9391415 12.680524 -2.0625193
