# .PCD v0.7 - Point Cloud Data file format
VERSION 0.7
FIELDS x y z
SIZE 4 4 4
TYPE F F F
COUNT 1 1 1
WIDTH 1509
HEIGHT 1
VIEWPOINT 0 0 0 1 0 0 0
POINTS 1509
DATA ascii
-3.4506602 -3.3708138 -1.1581526
-3.4279683 -3.3078063 -1.143206
-3.454524 -3.2927351 -1.1453756
-3.4527533 -3.2508583 -1.1379023
-3.4498887 -3.208467 -1.1301879
-3.4709404 -3.1885512 -1.1306701
-3.4976285 -3.1737139 -1.1330808
-3.393425 -3.0414596 -1.091857
-3.4185646 -3.0263686 -1.0940267
-3.5956454 -3.1439216 -1.1463399
-3.8565745 -3.330435 -1.2256536
-3.9005706 -3.3268571 -1.233368
-4.2780023 -3.6035271 -1.3493252
-3.3724854 -2.8059053 -1.0496688
-3.4031386 -2.7962461 -1.0540082
-3.4458604 -2.7960968 -1.0622047
-3.33266 -2.670552 -1.0207398
-3.4829583 -2.7560084 -1.063169
-3.5151012 -2.7465322 -1.0679905
-3.4857745 -2.6893542 -1.053526
-3.5562625 -2.7090685 -1.0704013
-3.5526483 -2.6720347 -1.0641334
-3.4848092 -2.5877202 -1.0380973
-3.4606955 -2.5370359 -1.0258024
-3.4997883 -2.5328171 -1.0330347
-3.492358 -2.4949408 -1.0260435
-3.5083942 -2.4740243 -1.0262846
-3.5450196 -2.4674141 -1.0327936
-3.5664933 -2.4500103 -1.0347222
-3.5919039 -2.4351575 -1.0378562
-3.6213 -2.4227824 -1.0421956
-3.6644499 -2.419224 -1.0506332
-3.6889851 -2.4030478 -1.053526
-3.6889622 -2.3709264 -1.0491867
-3.7083592 -2.3513637 -1.0506332
-3.7013206 -2.3151896 -1.0443652
-3.6956308 -2.2802098 -1.0385793
-3.6962852 -2.2494221 -1.0347222
-3.7932448 -2.2766209 -1.0588297
-3.8380492 -2.2715847 -1.0677495
-3.8024535 -2.2191434 -1.053526
-3.820205 -2.1981893 -1.0547314
-3.8581047 -2.1885879 -1.0617226
-3.8070745 -2.1288919 -1.0434009
-3.8336668 -2.1129839 -1.0472581
-3.8448536 -2.0884953 -1.0467759
-3.8233657 -2.0465534 -1.037133
-3.7963576 -2.0022395 -1.0260435
-3.7474184 -1.9471538 -1.0089271
-3.8698928 -1.9806923 -1.0397848
-3.869839 -1.950797 -1.0364097
-3.8791277 -1.9257214 -1.0356865
-3.9397044 -1.9257373 -1.0491867
-3.9400761 -1.8960596 -1.0460527
-3.9779518 -1.884305 -1.053285
-3.9700849 -1.8508447 -1.0479813
-4.0095978 -1.8393919 -1.0556958
-4.0438104 -1.8251293 -1.0619637
-4.0744495 -1.8089412 -1.0672673
-4.1183844 -1.7982677 -1.0761871
-4.1427193 -1.7787038 -1.0798032
-4.241188 -1.7902151 -1.1034286
-4.2045774 -1.7444584 -1.0906516
-4.2817116 -1.7457243 -1.1084912
-4.3806405 -1.7547641 -1.1321166
-4.4030666 -1.7324686 -1.1352504
-4.5331221 -1.7515633 -1.1670724
-4.5637488 -1.731284 -1.172376
-4.5797434 -1.7052795 -1.1738225
-4.6147346 -1.6861336 -1.1803315
-4.7181878 -1.6911662 -1.2049211
-4.770596 -1.6769795 -1.2160107
-4.9578958 -1.7086672 -1.2625381
-5.1448374 -1.7378069 -1.3088245
-5.3378458 -1.7665429 -1.3565574
-5.3264256 -1.7265795 -1.3507715
-5.3535714 -1.6991459 -1.355111
-6.2092075 -1.9286654 -1.5749714
-6.3045011 -1.9159125 -1.5966681
-6.0844841 -1.8083881 -1.5366405
-6.0004001 -1.7434182 -1.5120509
-6.5935874 -1.8718567 -1.6624817
-6.5591207 -1.8186655 -1.650669
-6.5635986 -1.7766113 -1.6489815
-6.7611127 -1.7855879 -1.6969553
-6.8076572 -1.7532609 -1.7061162
-6.8700609 -1.7244436 -1.7193754
-6.9795036 -1.7064431 -1.7446883
-7.0870924 -1.6867144 -1.769519
-7.2589946 -1.6806041 -1.8107429
-7.551333 -1.699491 -1.8825831
-7.6943588 -1.6821238 -1.9163337
-7.7406125 -1.6425303 -1.9254946
-7.7952237 -1.6041917 -1.936825
-7.8163419 -1.5586067 -1.939718
-7.830523 -1.5115362 -1.9409233
-7.8606391 -1.4673755 -1.946227
-7.847527 -1.4151577 -1.9406823
-7.8254652 -1.3616601 -1.9329679
-7.8135724 -1.3102508 -1.9279053
-7.8358369 -1.2646002 -1.9315214
-7.850162 -1.2175368 -1.9332089
-7.8862839 -1.1736277 -1.9404413
-7.8856502 -1.1241217 -1.9385126
-7.8904757 -1.0754533 -1.9380305
-7.8719034 -1.0237674 -1.9317625
-7.903079 -0.978544 -1.9380305
-7.8858013 -0.92731631 -1.9322447
-7.9260669 -0.88277483 -1.9409233
-7.9313345 -0.83412474 -1.9409233
-7.9256792 -0.78439343 -1.9382715
-7.9090829 -0.7337783 -1.9329679
-7.9308405 -0.68673974 -1.9373072
-7.925231 -0.63728762 -1.9348965
-7.9193139 -0.5879302 -1.9324857
-7.9411693 -0.54057682 -1.9370662
-7.9055905 -0.48944736 -1.9274231
-7.8900337 -0.43990657 -1.9228427
-7.9168172 -0.39268437 -1.9288696
-7.9268346 -0.34443623 -1.9307982
-7.9268589 -0.29571953 -1.9303161
-7.9353147 -0.24728628 -1.9320036
-7.934742 -0.19854318 -1.9315214
-7.9338703 -0.14981641 -1.9310392
-7.9326992 -0.10110782 -1.9305571
-7.9360819 -0.052450608 -1.9312804
-7.9546938 -0.0037607707 -1.9358608
-7.9448624 0.044992011 -1.93345
-7.9386144 0.093670368 -1.9320036
-7.9495339 0.14258958 -1.9348965
-7.9523907 0.19145833 -1.9358608
-7.9462156 0.24010241 -1.9346554
-7.9455628 0.28889036 -1.9348965
-7.9358835 0.33730713 -1.9329679
-7.9259095 0.38561603 -1.9310392
-7.9243636 0.43429449 -1.9312804
-7.9312363 0.48350126 -1.9336911
-7.94555 0.53332978 -1.9380305
-7.5943875 -0.18918709 -1.9356821
-7.5808911 -0.14231202 -1.9319061
-7.5787182 -0.095757045 -1.9311509
-7.5714211 -0.049202383 -1.929137
-7.5580311 -0.0027384742 -1.9256128
-7.569519 0.043703232 -1.9286336
-7.5487862 0.089907125 -1.9233472
-7.4726162 0.1348657 -1.9037122
-7.5258288 0.18202187 -1.9178091
-7.5381136 0.22860608 -1.9213333
-7.5501089 0.27534786 -1.9248576
-7.5492444 0.32171044 -1.9251094
-7.5683947 0.36906156 -1.9306474
-7.5350647 0.41379687 -1.922592
-7.5178938 0.45913917 -1.9188161
-7.4975538 0.5040918 -1.9142848
-7.5097628 0.55121917 -1.9183125
-7.5428996 0.60020304 -1.9278784
-7.5188255 0.64473879 -1.922592
-7.5089455 0.69032997 -1.9210817
-7.5161266 0.73752457 -1.9241024
-7.5191603 0.7844317 -1.9261162
-7.5093961 0.83002228 -1.9248576
-7.4868588 0.87406427 -1.9203265
-7.4813547 0.91998631 -1.9203265
-7.4861269 0.96723735 -1.9230955
-7.4637475 1.0109457 -1.9188161
-7.4689026 1.0583521 -1.9218369
-7.4593959 1.1037357 -1.9210817
-7.4257011 1.1453555 -1.9140332
-7.4462452 1.1953442 -1.9213333
-7.4292245 1.239419 -1.9188161
-7.4128971 1.2834949 -1.9165505
-7.3934512 1.3269045 -1.9135296
-7.4232311 1.3793149 -1.9235989
-7.3785119 1.4178988 -1.9140332
-7.3554339 1.4603196 -1.9102572
-7.3757262 1.5114455 -1.9180609
-7.3473754 1.5526726 -1.9130262
-7.3348732 1.5971085 -1.912271
-7.3173804 1.6403911 -1.9102572
-7.2911458 1.6815623 -1.9059777
-7.2957578 1.7298399 -1.9100055
-7.2840662 1.7743443 -1.9097537
-7.2843084 1.8218223 -1.9127744
-7.2645559 1.864319 -1.9105089
-7.2660832 1.9123061 -1.9140332
-7.2439342 1.9540819 -1.9112641
-7.2327404 1.9987508 -1.9115158
-7.2026467 2.0380867 -1.9067329
-7.1760612 2.0782056 -1.902957
-7.1427598 2.1161509 -1.8974189
-7.1954041 2.1798575 -1.9152918
-7.1504602 2.2142346 -1.9067329
-7.1081347 2.2490187 -1.8989292
-7.1227498 2.301815 -1.9067329
-7.1222782 2.3500242 -1.9105089
-7.1049728 2.3927548 -1.9097537
-7.0837502 2.434104 -1.9079915
-7.064115 2.4759228 -1.9067329
-7.0542583 2.5211749 -1.9082433
-7.0341091 2.5627553 -1.9069847
-7.0291395 2.6099093 -1.9100055
-7.0066566 2.6505935 -1.9082433
-7.0029039 2.6984067 -1.9117676
-6.9636917 2.7324884 -1.9054743
-6.9342117 2.7701395 -1.90195
-6.9323249 2.8188312 -1.9062295
-6.9113216 2.8598342 -1.9052225
-6.8998876 2.9048157 -1.9069847
-6.8676996 2.9410028 -1.902957
-6.8477497 2.9823141 -1.9024535
-6.839941 3.0289769 -1.9054743
-6.8362293 3.0776422 -1.9097537
-6.7987356 3.1110749 -1.9044673
-6.7795181 3.1527326 -1.9044673
-6.7504206 3.189724 -1.9016984
-6.7350841 3.2331777 -1.902957
-6.7159886 3.2748666 -1.9032087
-6.6827588 3.3095715 -1.8994327
-6.6588674 3.3487747 -1.8984258
-6.6468139 3.3939705 -1.9009432
-6.6078196 3.4253383 -1.8956567
-6.5823951 3.4635656 -1.8943981
-6.5644341 3.5057125 -1.8954051
-6.5274839 3.5376256 -1.8908738
-6.5260077 3.5888021 -1.8969154
-6.4945674 3.6235909 -1.8941463
-6.4789495 3.667186 -1.8961602
-6.4529686 3.7049437 -1.8951533
-6.4292779 3.7439816 -1.8949015
-6.4095173 3.7853289 -1.8959085
-6.3861704 3.8245857 -1.8959085
-6.3692012 3.8677168 -1.8979223
-6.3371077 3.9016511 -1.8954051
-6.3105855 3.9389243 -1.8946499
-6.283844 3.9760189 -1.8938947
-6.2544413 4.0113664 -1.8923842
-6.2118583 4.038064 -1.8868462
-6.1901975 4.0782328 -1.887853
-6.1739111 4.1220493 -1.8906221
-6.1509075 4.1614809 -1.8913773
-6.1356344 4.2062569 -1.8946499
-6.1216335 4.2521067 -1.8984258
-6.0898871 4.2856894 -1.8966637
-6.0619001 4.3218522 -1.8961602
-6.0399752 4.3623657 -1.8976706
-6.0107512 4.3976297 -1.8969154
-5.9945407 4.4424949 -1.9004396
-5.9547849 4.4698977 -1.8964119
-5.9164596 4.4981518 -1.8928877
-5.8933492 4.5379124 -1.8943981
-5.8714995 4.5787487 -1.8964119
-5.8167105 4.5936971 -1.8876014
-5.8005085 4.6389723 -1.891629
-5.7696786 4.6726489 -1.8908738
-5.7453895 4.7116451 -1.8923842
-5.7133927 4.7443366 -1.8913773
-5.6982493 4.7911367 -1.8961602
-5.6672702 4.8247557 -1.8956567
-5.6324277 4.8550158 -1.8938947
-5.6222205 4.9066653 -1.9006914
-5.5804033 4.9308176 -1.8966637
-5.5406661 4.9565773 -1.8933911
-5.5115833 4.9917803 -1.8938947
-5.4680099 5.0137324 -1.8893634
-5.4257941 5.0366549 -1.8853358
-5.3665767 5.0433431 -1.8752664
-5.3530602 5.0928526 -1.8815597
-5.3279839 5.1316447 -1.8838253
-5.3095627 5.1770763 -1.8886082
-5.2714977 5.2034392 -1.8863426
-5.2682247 5.2644167 -1.8969154
-5.2222157 5.2828779 -1.8918808
-5.1842928 5.3092823 -1.8898669
-5.1361642 5.3249722 -1.8840771
-5.1167464 5.3704 -1.8891118
-5.0538487 5.3699818 -1.8777838
-5.0432096 5.4249892 -1.8863426
-5.0117912 5.4579701 -1.8870978
-4.9821086 5.4929199 -1.8886082
-4.9392695 5.5132952 -1.885084
-4.8950853 5.5319023 -1.8810563
-4.8464007 5.5450745 -1.8752664
-4.8325238 5.5981488 -1.8833219
-4.7987113 5.6284318 -1.8835737
-4.7559814 5.6481466 -1.8803011
-4.7268052 5.683919 -1.8825667
-4.7010541 5.7240334 -1.8863426
-4.6652341 5.7520189 -1.886091
-4.6183567 5.7661843 -1.8813081
-4.5954976 5.8103538 -1.8865944
-4.5502276 5.8262382 -1.8825667
-4.5232587 5.8655434 -1.8863426
-4.4795609 5.8831778 -1.8830701
-4.4474492 5.9159679 -1.8848323
-4.4058743 5.9361515 -1.8825667
-4.3522058 5.9396548 -1.8750148
-4.3491473 6.0125113 -1.8898669
-4.3369203 6.0737376 -1.9009432
-4.2789402 6.0709662 -1.891629
-4.2443724 6.101079 -1.8928877
-4.2063093 6.1262097 -1.8926359
-4.1686401 6.1519036 -1.8926359
-4.1324286 6.1797795 -1.8933911
-4.0938993 6.2042117 -1.8931395
-4.061563 6.2381358 -1.8959085
-4.0205946 6.2588682 -1.8946499
-3.9805608 6.2809682 -1.8938947
-3.9511819 6.320045 -1.8984258
-3.9026759 6.3285189 -1.8936429
-3.8753397 6.3713632 -1.8994327
-3.830198 6.3850632 -1.8964119
-3.7919335 6.4101105 -1.8969154
-3.750092 6.4290771 -1.8956567
-3.7153988 6.4603553 -1.898174
-3.6733019 6.4788218 -1.8969154
-3.6405625 6.5139103 -1.9006914
-3.5972562 6.5301924 -1.8989292
-3.5594289 6.5563941 -1.9001878
-3.5186763 6.5772576 -1.8999362
-3.4768987 6.5961556 -1.899181
-3.4452813 6.6345429 -1.9042156
-3.403626 6.6538343 -1.9037122
-3.3575089 6.6642222 -1.9006914
-3.3178453 6.6872988 -1.9014466
-3.2669787 6.687531 -1.8956567
-3.235532 6.7275105 -1.9014466
-3.1904645 6.7393641 -1.899181
-3.1523228 6.7658315 -1.9011948
-3.109539 6.7824073 -1.9004396
-3.0742319 6.815474 -1.9044673
-3.0335329 6.836863 -1.9052225
-2.9915254 6.8553476 -1.9052225
-2.9463522 6.8664594 -1.9032087
-2.9101841 6.8986754 -1.9072363
-2.8618684 6.9020987 -1.9032087
-2.8245773 6.932076 -1.9067329
-2.7801909 6.9447846 -1.9054743
-2.7389431 6.9653153 -1.9064811
-2.7041728 7.0027547 -1.912271
-2.6649284 7.0291696 -1.91504
-2.6079075 7.0082011 -1.9047191
-2.572825 7.0458889 -1.9107606
-2.5354192 7.0779424 -1.9152918
-2.4826381 7.0668869 -1.9079915
-2.4385993 7.0801568 -1.9074881
-2.3941817 7.0922356 -1.9067329
-2.3418047 7.0801468 -1.8994327
-2.3033891 7.110034 -1.9037122
-2.2591341 7.1221886 -1.9032087
-2.2254355 7.1682653 -1.9120193
-2.1850669 7.1938238 -1.9152918
-2.1378534 7.1968908 -1.9125228
-2.0931141 7.208014 -1.9120193
-2.0517535 7.2309628 -1.9147884
-2.0127754 7.2630014 -1.9200747
-1.9585668 7.2397151 -1.9105089
-1.8980498 7.1907735 -1.8941463
-1.8686117 7.2594557 -1.909502
-1.8219134 7.2623363 -1.9072363
-1.773412 7.2573967 -1.902957
-1.7207838 7.2342467 -1.8938947
-1.6883653 7.2965269 -1.9077399
-1.6448375 7.3124146 -1.9092503
-1.6096505 7.366807 -1.9210817
-1.5644183 7.376545 -1.9210817
-1.5068408 7.3262844 -1.9052225
-1.4656433 7.3543749 -1.9102572
-1.4280084 7.4021902 -1.9205781
-1.3798995 7.3965425 -1.9168022
-1.3271061 7.363915 -1.9059777
-1.2855457 7.3928962 -1.9115158
-1.2404796 7.4025536 -1.9120193
-1.1982719 7.4300904 -1.9173057
-1.1525109 7.4363465 -1.9170539
-1.1105632 7.4681668 -1.9235989
-1.0626705 7.4604688 -1.9198229
-1.014261 7.44767 -1.9147884
-0.9709143 7.4719882 -1.9195713
-0.92267144 7.4585953 -1.9145366
-0.87711495 7.4660387 -1.91504
-0.83225131 7.4799366 -1.9173057
-0.78664309 7.4877901 -1.9180609
-0.73925519 7.4780293 -1.9142848
-0.69505459 7.5007343 -1.9190677
-0.64751601 7.4875021 -1.9145366
-0.60210401 7.4980874 -1.9162987
-0.55680126 7.511292 -1.9188161
-0.50991428 7.5029802 -1.9157952
-0.46494269 7.523355 -1.9203265
-0.4179104 7.5106053 -1.9162987
-0.37200987 7.5168948 -1.9173057
-0.3257542 7.5161352 -1.9165505
-0.27826107 7.4812417 -1.9069847
-0.23265268 7.4924812 -1.909502
-0.18640962 7.4831252 -1.9067329
-0.14081839 7.5015454 -1.9112641
-0.094946727 7.5148487 -1.9145366
-0.048695225 7.493999 -1.9089985
-0.0027312532 7.5406108 -1.9210817
0.043382078 7.5133877 -1.9140332
0.089597292 7.5226574 -1.9165505
0.13563187 7.5151925 -1.9147884
0.18162492 7.5093813 -1.9135296
0.22802036 7.5187664 -1.9162987
0.27404469 7.5143242 -1.9155436
0.3185415 7.4747915 -1.905726
0.36534172 7.4920292 -1.9107606
0.40992662 7.4645214 -1.9042156
0.45577928 7.4628315 -1.9044673
0.50208074 7.4676194 -1.9064811
0.54760855 7.4605374 -1.9054743
0.59260809 7.4473896 -1.902957
0.64085495 7.473505 -1.9107606
0.68554831 7.4569039 -1.9074881
0.72770053 7.415956 -1.8979223
0.77660286 7.4440794 -1.9064811
0.82311445 7.4468694 -1.9084951
0.87069905 7.4580202 -1.9127744
0.91254789 7.4208388 -1.9044673
0.96141112 7.4410152 -1.9112641
1.0062711 7.4292216 -1.9097537
1.0521085 7.4248238 -1.9102572
1.0986378 7.4249301 -1.9120193
1.1425533 7.4075279 -1.9092503
1.1869102 7.3936887 -1.9074881
1.2319362 7.3843575 -1.9069847
1.2760671 7.3699841 -1.9052225
1.3168209 7.3372483 -1.8986775
1.3635842 7.3385458 -1.9011948
1.4082217 7.3281398 -1.9006914
1.448261 7.2946801 -1.8941463
1.4972663 7.3065147 -1.8996844
1.545471 7.3132873 -1.9039639
1.5899036 7.3017755 -1.9034604
1.6357348 7.2966046 -1.9047191
1.6800402 7.2845445 -1.9042156
1.7251521 7.2759819 -1.9047191
1.7743443 7.2840662 -1.9097537
1.8147793 7.2561417 -1.9052225
1.8542171 7.2251835 -1.8999362
1.902209 7.2277093 -1.9037122
1.9412295 7.196279 -1.8984258
1.9868948 7.1898293 -1.8999362
2.0328176 7.1840215 -1.9016984
2.0760522 7.1686244 -1.9009432
2.1175251 7.1473994 -1.8986775
2.1652687 7.1472392 -1.9022018
2.2107999 7.1393661 -1.9037122
2.2519376 7.117362 -1.9014466
2.2931859 7.0960431 -1.8994327
2.3333483 7.0717287 -1.8966637
2.3711367 7.0407691 -1.8921325
2.4212112 7.0462236 -1.8976706
2.4624801 7.0257549 -1.8961602
2.4938192 6.977704 -1.8870978
2.5375803 6.9649987 -1.887853
2.5779111 6.9429464 -1.886091
2.6249149 6.9387655 -1.8893634
2.6702242 6.9297538 -1.8913773
2.7151685 6.9195457 -1.8931395
2.753267 6.8919702 -1.8901186
2.79441 6.8722572 -1.8893634
2.829865 6.8388848 -1.8848323
2.8653915 6.8062282 -1.8805529
2.9006238 6.7733941 -1.8762734
2.9448347 6.7616796 -1.8780355
2.9803908 6.7302094 -1.8742596
3.0279863 6.7259154 -1.8782873
3.0599377 6.6869683 -1.8724974
3.104991 6.6768427 -1.8750148
3.1496217 6.6655407 -1.8772804
3.1879487 6.6408544 -1.87577
3.2341499 6.6324773 -1.8790425
3.2773619 6.617712 -1.8805529
3.3083408 6.5784554 -1.8750148
3.3605251 6.581305 -1.8818115
3.3808031 6.5218954 -1.8704836
3.4018312 6.4650559 -1.8599108
3.4318628 6.4261332 -1.8546245
3.5030437 6.4636664 -1.871994
3.530514 6.420001 -1.865449
3.577384 6.4117403 -1.8694767
3.617135 6.3905115 -1.8697284
3.6336322 6.3287487 -1.857897
3.6670394 6.2971339 -1.8551279
3.7046247 6.2728481 -1.8546245
3.7455304 6.2541504 -1.8558831
3.78283 6.2293963 -1.8553797
3.8280847 6.2176061 -1.8589039
3.8482292 6.1652646 -1.8500934
3.8952997 6.1562576 -1.8546245
3.9340453 6.1338701 -1.8551279
3.9758275 6.1161075 -1.8571419
4.0148773 6.0940218 -1.857897
4.0613289 6.0829558 -1.8621764
4.0709209 6.0170393 -1.8493382
4.0995564 5.9799733 -1.8455622
4.130651 5.9467578 -1.8430449
4.1843266 5.9458365 -1.8508486
4.210619 5.9058652 -1.8463174
4.2688751 5.9105172 -1.8561349
4.3039184 5.8826504 -1.8556315
4.3554897 5.8771262 -1.8624282
4.3827548 5.8386803 -1.8586522
4.4325542 5.8301692 -1.8646938
4.4582071 5.7898254 -1.8604143
4.487103 5.7539659 -1.8576453
4.5325203 5.7392373 -1.8619248
4.5610013 5.7030044 -1.8591557
4.6141801 5.6974745 -1.8667076
4.6312566 5.6473527 -1.8594074
4.6794219 5.6352105 -1.8649455
4.7145333 5.6071329 -1.8651972
4.7450857 5.5736775 -1.8636868
4.778564 5.5437245 -1.8634351
4.8309431 5.5354462 -1.8707353
4.8648167 5.5056996 -1.8707353
4.8997979 5.4771886 -1.8712388
4.9300652 5.4434342 -1.8699801
4.9372115 5.3845472 -1.8599108
4.9708157 5.3548608 -1.8601626
5.0148454 5.3362494 -1.864442
5.0581665 5.3165979 -1.8684697
5.0705533 5.2645483 -1.8609178
5.1149211 5.2458105 -1.865449
5.1320562 5.1991735 -1.8599108
5.1884871 5.1922321 -1.8689733
5.2181835 5.158257 -1.8682179
5.2393498 5.1159992 -1.864442
5.2880559 5.1005526 -1.8707353
5.2968316 5.0466456 -1.86268
5.3502493 5.0352759 -1.8707353
5.3810444 5.0023527 -1.8707353
5.4287443 4.984952 -1.8767769
5.441309 4.9352922 -1.8704836
5.4577937 4.8895416 -1.8657007
5.4855185 4.8540368 -1.8649455
5.5421596 4.8438535 -1.8742596
5.5476022 4.7888856 -1.8659524
5.5702538 4.7491045 -1.8636868
5.6392636 4.7485003 -1.8772804
5.6377864 4.6884365 -1.8669593
5.6754222 4.6611266 -1.8699801
5.7264638 4.644505 -1.8775321
5.7427688 4.5996003 -1.8735044
5.7678471 4.5618749 -1.8724974
5.8033566 4.5323553 -1.8750148
5.8394876 4.5031629 -1.8777838
5.8816376 4.4783883 -1.8825667
5.885026 4.4241853 -1.874763
5.9042902 4.3822236 -1.8722457
5.9435582 4.3550663 -1.8762734
5.9842825 4.3287258 -1.8808045
6.0044298 4.287426 -1.8787907
6.0163856 4.2404661 -1.8742596
6.0470576 4.2067866 -1.87577
6.0942974 4.1843953 -1.8825667
6.1294713 4.1534381 -1.8855875
6.1620812 4.1205921 -1.887853
6.1694779 4.0709772 -1.8823149
6.1821756 4.0251241 -1.878539
6.2010574 3.9834533 -1.8767769
6.2204781 3.9422207 -1.8752664
6.2757325 3.9234755 -1.8848323
6.2774477 3.8711774 -1.8780355
6.3134851 3.8401315 -1.8818115
6.3369288 3.8013203 -1.8818115
6.3451414 3.7534959 -1.8772804
6.3538418 3.7062018 -1.8730009
6.4033084 3.6825867 -1.8810563
6.4485145 3.6561165 -1.887853
6.4708266 3.6164804 -1.887853
6.4513593 3.5538247 -1.8755182
6.5538425 3.5580437 -1.8994327
6.5525112 3.5054357 -1.8926359
6.5696158 3.4629076 -1.8913773
6.6044822 3.4296689 -1.8954051
6.6202326 3.3864355 -1.8938947
6.6417508 3.3461862 -1.8941463
6.6682262 3.3083813 -1.8959085
6.6744876 3.2606061 -1.8918808
6.6638436 3.2049079 -1.8830701
6.7122483 3.1776259 -1.8913773
6.707057 3.1249349 -1.8843288
6.713789 3.0780749 -1.8808045
6.7757759 3.0563231 -1.8931395
6.8023634 3.018223 -1.8954051
6.8234158 2.9775891 -1.8961602
6.8433361 2.9364288 -1.8966637
6.8496327 2.8894928 -1.8933911
6.8663397 2.847039 -1.8931395
6.8765097 2.8019326 -1.8911256
6.907948 2.7654421 -1.8951533
6.9220843 2.721941 -1.8943981
6.9359469 2.6783705 -1.8936429
6.9549656 2.6367915 -1.8943981
6.9782696 2.5967674 -1.8964119
6.9904356 2.5525727 -1.8954051
7.0105214 2.5112643 -1.8966637
7.0321898 2.4704471 -1.8984258
7.038981 2.4244149 -1.8961602
7.0619769 2.3839653 -1.8984258
7.0801468 2.3418047 -1.8994327
7.1008272 2.3004057 -1.9011948
7.1498632 2.2679138 -1.9107606
7.1285219 2.2130945 -1.9011948
7.1512275 2.1721263 -1.9037122
7.1560712 2.1257255 -1.9014466
7.1643329 2.0804272 -1.9001878
7.1862736 2.0390706 -1.9027052
7.182795 1.9905435 -1.8984258
7.2098207 1.9504777 -1.9024535
7.2263312 1.9074376 -1.9037122
7.2566438 1.8678877 -1.9087468
7.2491946 1.8186158 -1.9037122
7.2714982 1.7768587 -1.9067329
7.2737904 1.7301921 -1.9044673
7.2984128 1.6888018 -1.9082433
7.2916422 1.6401639 -1.9037122
7.3100781 1.5972521 -1.9059777
7.29986 1.5481508 -1.9006914
7.3224931 1.5060608 -1.9042156
7.3192573 1.4586428 -1.9009432
7.3337712 1.4148055 -1.9024535
7.3527794 1.3717327 -1.9052225
7.3724871 1.3286514 -1.9082433
7.3843145 1.2840531 -1.9092503
7.3996902 1.2399995 -1.9112641
7.4186249 1.1964222 -1.9142848
6.3460832 0.98347956 -1.63008
5.8590074 0.87118512 -1.5004382
5.8297505 0.83030361 -1.4913759
5.8117208 0.79138184 -1.4853343
5.8279839 0.757204 -1.488355
5.7921805 0.71643746 -1.4777824
5.8022346 0.68156165 -1.4792928
0 0 -0
0 0 -0
0 0 -0
0 0 -0
0 0 -0
0 0 -0
0 0 -0
0 0 -0
5.7962341 0.35811606 -1.4702305
5.8021879 0.32275957 -1.4712373
5.8098588 0.28743926 -1.4727477
5.7438307 0.24884827 -1.4551265
5.8177838 0.21630183 -1.4740064
5.8102956 0.18032971 -1.4717408
5.8025856 0.14445764 -1.4694753
5.8091683 0.10896022 -1.4709857
5.8174691 0.073412001 -1.4729995
5.7258716 0.037113052 -1.449085
5.784059 0.0020031349 -1.4641888
5.8100929 -0.033636726 -1.4709857
5.8097768 -0.069286153 -1.4709857
5.7395725 -0.10367924 -1.452861
0 -0 -0
0 -0 -0
0 -0 -0
0 -0 -0
0 -0 -0
0 -0 -0
0 -0 -0
5.8260646 -0.39179873 -1.4785376
5.8409247 -0.42881376 -1.4830687
5.8651967 -0.46679297 -1.4901172
5.8786144 -0.50417715 -1.4943967
5.9679289 -0.54873896 -1.5185629
5.8951011 -0.57854593 -1.5004382
7.5490003 -0.78754318 -1.9339199
7.5382543 -0.83321047 -1.9324095
7.4964714 -0.87518603 -1.9228437
7.4928813 -0.92140317 -1.9233472
7.4640508 -0.96438622 -1.9173057
7.4522386 -1.0093875 -1.9157952
7.4114084 -1.0502082 -1.9067329
7.3033428 -1.0806535 -1.8800493
7.0880589 -1.093295 -1.8251719
6.8748136 -1.1036431 -1.7707978
6.743813 -1.1251085 -1.7380728
6.6643076 -1.153922 -1.7189412
6.5932784 -1.1833407 -1.7020751
6.5335598 -1.2140527 -1.6882299
6.5478473 -1.2583185 -1.6940198
6.6586628 -1.3220234 -1.7254862
6.6750765 -1.3679055 -1.7320312
6.6248941 -1.400035 -1.720955
6.6332006 -1.4443637 -1.7254862
6.6015487 -1.4799573 -1.7194446
6.5574503 -1.5123904 -1.7101306
6.5461636 -1.5521512 -1.7096272
6.463172 -1.5744264 -1.6899921
6.489068 -1.6229752 -1.6995579
6.4743004 -1.6615582 -1.6982992
6.4284177 -1.6918942 -1.6887335
6.4057679 -1.7280302 -1.6854609
6.3763871 -1.762148 -1.6804262
6.3449674 -1.7954437 -1.6748881
6.3068728 -1.8265361 -1.667588
6.3057537 -1.8682234 -1.670357
6.2774997 -1.9018296 -1.6658258
6.2712593 -1.9420292 -1.6673362
6.2177024 -1.967337 -1.6560084
6.205514 -2.005451 -1.6560084
6.1884966 -2.0419736 -1.6547496
6.164844 -2.0762012 -1.6517289
6.1620569 -2.1174479 -1.6544979
6.1188083 -2.1446555 -1.6461908
6.0891294 -2.1762974 -1.6416596
6.0929389 -2.2199123 -1.6464425
6.0837393 -2.2589402 -1.6477011
6.0561862 -2.2910912 -1.6439252
6.0420141 -2.328208 -1.6439252
6.0474358 -2.3730135 -1.6494633
6.0237737 -2.4064853 -1.646946
6.0142736 -2.4455884 -1.6484563
6.0063086 -2.485405 -1.6504703
5.9847016 -2.5195839 -1.6487081
5.9593425 -2.5520678 -1.645939
5.9391346 -2.5866535 -1.6446804
5.9284611 -2.6253977 -1.6461908
5.9228306 -2.6664915 -1.6492115
5.879076 -2.6903009 -1.6414078
5.8747439 -2.7320361 -1.6449322
5.8604951 -2.7692719 -1.6456873
5.8337951 -2.8005724 -1.6429182
5.8173714 -2.8367393 -1.64317
5.8041921 -2.8745279 -1.6444286
5.7899036 -2.9118266 -1.6454356
5.7624469 -2.9424572 -1.6426666
5.7391281 -2.9750874 -1.6411562
5.7164831 -3.007993 -1.6398975
5.6936502 -3.0407329 -1.6386389
5.6774378 -3.0769944 -1.639394
5.6423378 -3.1029129 -1.6346111
5.6316442 -3.1421902 -1.6371285
5.592886 -3.1657226 -1.6313386
5.559927 -3.1922708 -1.6273109
5.5603075 -3.2380133 -1.6333525
5.5345016 -3.268625 -1.6315904
5.5276265 -3.3104777 -1.6356181
5.5014191 -3.3408163 -1.6338559
5.4816403 -3.3750169 -1.6341077
5.4682178 -3.4131997 -1.6363733
5.4561682 -3.4523795 -1.6391423
5.4625812 -3.5035558 -1.6477011
5.4239402 -3.5259316 -1.6424148
5.4030118 -3.5596783 -1.6426666
5.3786535 -3.5911517 -1.6419114
5.3396835 -3.612699 -1.6366249
5.3046441 -3.6366398 -1.6325973
5.2965379 -3.6790574 -1.6371285
5.2730727 -3.7109301 -1.6368767
5.2541437 -3.7460241 -1.6381353
5.2255673 -3.7742262 -1.6363733
5.1991863 -3.8039329 -1.6353663
5.1617517 -3.8253913 -1.6308352
5.1227016 -3.8453722 -1.6258005
5.1074853 -3.8831747 -1.6285696
5.0613241 -3.8973188 -1.6212693
5.0281568 -3.9211597 -1.6182486
5.0632467 -3.9987206 -1.6378837
5.0416389 -4.0321307 -1.6388905
5.0235724 -4.068471 -1.6411562
4.97756 -4.082036 -1.6341077
4.9680557 -4.125484 -1.639394
4.9574642 -4.1683455 -1.6444286
4.9597988 -4.2225237 -1.6539944
4.9249992 -4.245295 -1.6509737
4.9010458 -4.2773433 -1.6517289
4.8718071 -4.3047719 -1.6507219
4.8330388 -4.3236151 -1.6464425
4.8214836 -4.3668308 -1.6517289
4.8024454 -4.4035273 -1.6544979
4.7845564 -4.4414706 -1.6577704
4.7543931 -4.4680934 -1.6567636
4.7030468 -4.4745021 -1.6482047
4.66435 -4.4925342 -1.644177
4.64224 -4.526474 -1.6461908
4.6288438 -4.56915 -1.6514771
2.3195686 -2.3182042 -0.8127076
2.3046203 -2.3317049 -0.81245589
2.2922983 -2.3478789 -0.81321108
4.5327868 -4.699481 -1.6580222
4.4524589 -4.6732554 -1.6386389
4.4276805 -4.7047157 -1.6401492
4.3934574 -4.7261248 -1.6381353
4.4115081 -4.804316 -1.65626
4.4014535 -4.8527989 -1.663812
4.3560948 -4.8624153 -1.6577704
4.3159151 -4.8774562 -1.6537427
4.2578816 -4.8717852 -1.6426666
4.2215843 -4.8904934 -1.6401492
4.1902418 -4.9148316 -1.6396458
4.1593823 -4.9397097 -1.639394
4.1296134 -4.9658823 -1.6396458
4.0818663 -4.9701877 -1.6325973
4.0555606 -5.000401 -1.6343594
4.0175414 -5.0161276 -1.6313386
4.0016975 -5.0596604 -1.6376319
2.010607 -2.5747948 -0.80943513
1.9906331 -2.5817187 -0.80767298
1.9700639 -2.5877247 -0.80565912
1.9500777 -2.5943491 -0.80389702
1.9295076 -2.600049 -0.80188316
1.7933853 -2.4479074 -0.74901956
1.7261436 -2.3867261 -0.72586024
1.7035923 -2.3862462 -0.72233599
1.6682876 -2.3673866 -0.71302193
3.6623485 -5.2645426 -1.6278144
3.629977 -5.2869153 -1.6278144
3.6045268 -5.3195038 -1.6310868
3.5707431 -5.3399119 -1.6305834
3.5309811 -5.3512201 -1.6273109
3.4991362 -5.3744073 -1.6278144
3.4681861 -5.3990331 -1.6288213
3.4339566 -5.4185772 -1.6283178
3.3914089 -5.4247746 -1.6237867
3.367204 -5.460309 -1.6283178
3.3255889 -5.4676375 -1.6242901
3.2939692 -5.4912601 -1.6252971
3.2597208 -5.5105348 -1.6250453
3.2243843 -5.5279245 -1.6242901
3.1773765 -5.5249538 -1.6174934
3.1491446 -5.5544486 -1.6205142
3.1135874 -5.5711322 -1.619759
3.077477 -5.5867414 -1.618752
3.0371361 -5.5944629 -1.6154795
1.6006249 -2.9924114 -0.84241194
1.5813311 -3.000464 -0.84190845
1.5633368 -3.0109692 -0.84216022
2.9081829 -5.6854062 -1.6207659
2.874985 -5.7066007 -1.6217728
2.8261502 -5.6963916 -1.6137174
2.7932689 -5.7179732 -1.614976
2.7480631 -5.7140732 -1.6089345
2.7245467 -5.7553191 -1.615983
2.6789622 -5.7499976 -1.6096897
2.6391931 -5.7566504 -1.6069206
2.6078012 -5.7815576 -1.6094379
2.5781655 -5.810719 -1.6132139
2.5490441 -5.8415079 -1.6174934
2.5120082 -5.8543706 -1.6167382
2.482811 -5.8857241 -1.6212693
2.4321916 -5.8659825 -1.6114519
2.3881176 -5.8610783 -1.6059138
2.346354 -5.8612461 -1.601886
2.3202639 -5.9007506 -1.6089345
2.2868032 -5.9220991 -1.6109483
2.2370408 -5.9007268 -1.6011308
2.1947162 -5.898016 -1.5965997
2.1697733 -5.9422798 -1.6051586
2.1247845 -5.9317932 -1.5986135
2.0998974 -5.9775896 -1.6076758
2.0650713 -5.995852 -1.6091863
2.0229795 -5.9928217 -1.6049068
1.987082 -6.0078783 -1.605662
1.9489876 -6.0162749 -1.604655
1.9129138 -6.0308881 -1.6054102
1.877021 -6.0462089 -1.6064172
1.8404493 -6.0594645 -1.6069206
1.8068178 -6.0827036 -1.6101931
1.7667617 -6.0843816 -1.6076758
1.733623 -6.1100039 -1.6117035
1.6919639 -6.1056042 -1.6076758
1.6529521 -6.1102657 -1.6061654
1.6178995 -6.1296506 -1.6086828
1.5797757 -6.1375875 -1.6081793
1.5430286 -6.1509204 -1.6091863
1.5018115 -6.1461706 -1.6054102
1.461831 -6.1458545 -1.602893
1.4249661 -6.1584802 -1.6038998
1.3894883 -6.1774936 -1.6066689
1.3561039 -6.2067037 -1.6122071
1.3204048 -6.2262683 -1.6152278
0.80788404 -3.9288533 -1.0030167
1.244467 -6.2448506 -1.615983
0.7629109 -3.9555762 -1.0075479
0.74981058 -4.0201192 -1.023407
0.72341245 -4.01512 -1.0208896
0.6883139 -3.959414 -1.0050305
0.66336644 -3.9597449 -1.0040236
0.63967395 -3.9675624 -1.0050305
0.61872768 -3.9934092 -1.0108204
0.59577936 -4.0076604 -1.0135894
0.57513684 -4.0390263 -1.0208896
0.54524791 -4.0050802 -1.011072
0.52066296 -4.0083504 -1.011072
0.49736589 -4.0220351 -1.0138412
0.73849916 -6.2866697 -1.6061654
0.44604459 -4.0105224 -1.00931
0.41889891 -3.9891212 -1.0030167
0.39612892 -4.0089521 -1.0075479
0.37384605 -4.0363626 -1.0140928
0.3471534 -4.0164042 -1.008303
0.32327783 -4.0281053 -1.0108204
0.30034563 -4.054142 -1.0171137
0.27572691 -4.0597706 -1.0181205
0.25039321 -4.0546246 -1.0163585
0.22524071 -4.0512528 -1.0150998
0.19989957 -4.0428925 -1.0125824
0.1748793 -4.0392084 -1.0113238
0.14901121 -4.0111918 -1.0037719
0.12394487 -3.9975207 -0.99999589
0.099462517 -4.0001411 -1.0004994
0.074624799 -3.985194 -0.99647164
0.049961984 -3.9691255 -0.99219221
0.025708379 -3.9848418 -0.99621993
0.0012561618 -3.9820211 -0.99546474
-0.023237992 -3.9925995 -0.9982338
-0.047861911 -4.003027 -1.0010028
-0.07259725 -4.0123343 -1.0035201
-0.097658753 -4.0301962 -1.008303
-0.12247359 -4.032423 -1.0090582
-0.14781253 -4.0480371 -1.0133376
-0.17289495 -4.0528555 -1.014848
-0.19903091 -4.0778179 -1.0216448
-0.22097318 -4.020472 -1.0070443
-0.24858545 -4.0673404 -1.0196309
-0.27347264 -4.0647731 -1.0193793
-0.29819608 -4.060123 -1.0186241
-0.32110828 -4.033133 -1.012079
-0.34444427 -4.0146947 -1.0077996
-0.3688944 -4.0105782 -1.0072961
-0.39226791 -3.9957178 -1.0040236
-0.41717926 -3.997086 -1.0050305
-0.44509783 -4.0252333 -1.013086
-0.47550872 -4.0714512 -1.0259242
-0.49835646 -4.0511665 -1.0213931
-0.52270871 -4.0441933 -1.0203861
-0.55011058 -4.060091 -1.0254208
-0.5778628 -4.0767617 -1.0307071
-0.60187525 -4.0664377 -1.028945
-0.62784743 -4.0693636 -1.0307071
-0.65433824 -4.0749903 -1.0332245
-0.67710072 -4.0575342 -1.0297002
-0.70115918 -4.0485349 -1.0284415
-0.72427827 -4.0346308 -1.0259242
-0.74866712 -4.0282078 -1.0254208
-0.76789206 -3.9950256 -1.0178689
-0.78994125 -3.9778981 -1.0145963
-0.80889571 -3.9464293 -1.0075479
-0.83889675 -3.9688516 -1.014848
-0.86982077 -3.9938903 -1.0229034
-0.89579201 -3.9950886 -1.0246656
-0.92094088 -3.992346 -1.0254208
-0.95189369 -4.0139294 -1.032721
-0.97993982 -4.0221181 -1.036497
-0.75081819 -3.0010884 -0.76437515
-0.7711426 -3.0039244 -0.76638901
-0.78955978 -2.9991362 -0.76638901
-0.80744326 -2.9923663 -0.76588553
-0.82398474 -2.9808257 -0.76412344
-0.84120542 -2.9719887 -0.76311648
-0.86319363 -2.9797859 -0.76664072
-1.1566 -3.9033058 -1.0186241
-1.185298 -3.9118814 -1.0229034
-1.2181516 -3.9331946 -1.0307071
-1.2463489 -3.9385643 -1.0342314
-1.253829 -3.8792713 -1.0201344
-1.0902309 -3.3035157 -0.8645643
-1.0857737 -3.223388 -0.8444258
-1.1033305 -3.2102582 -0.84266365
-1.1130854 -3.1751144 -0.83485997
-1.4074064 -3.9374115 -1.0473214
-1.1244715 -3.0857403 -0.81396627
-1.1396791 -3.0688026 -0.81119722
-1.1656774 -3.0807612 -0.81648362
-1.2447507 -3.2297857 -0.86003315
-1.5398947 -3.9239197 -1.0561321
-1.2218277 -3.0578842 -0.81623185
-1.2412965 -3.0521226 -0.81673533
-1.2577807 -3.039083 -0.81522495
-1.2756535 -3.0295243 -0.81472147
-1.651155 -3.8552642 -1.050594
-1.6778705 -3.852159 -1.0526078
-1.70892 -3.8586049 -1.0573907
-1.7428921 -3.8709919 -1.0639358
-1.7714431 -3.8707855 -1.0669565
-1.7665973 -3.7984133 -1.0493352
-1.7704396 -3.7463748 -1.0375038
-1.7959064 -3.7406762 -1.0390143
-1.8620863 -3.8183172 -1.0646909
-1.8107538 -3.655911 -1.0208896
-1.8431518 -3.6646183 -1.0266794
-1.8651627 -3.6523778 -1.0264277
-1.892437 -3.6503165 -1.0291967
-1.9215586 -3.6514833 -1.0329727
-1.9430157 -3.6379166 -1.0324693
-1.9542348 -3.6055045 -1.0264277
-1.9828492 -3.6053183 -1.0299519
-2.0006902 -3.5854774 -1.0276864
-2.0112123 -3.5529196 -1.0216448
-2.0628486 -3.5925503 -1.0372522
-2.1092021 -3.6216428 -1.0498388
-2.1131768 -3.5777988 -1.0405247
-2.1410563 -3.5747292 -1.0435455
-2.1674707 -3.5689697 -1.0458111
-2.1999831 -3.5729103 -1.0510974
-2.20803 -3.5371768 -1.0443007
-2.1914022 -3.4630401 -1.0256726
-2.240299 -3.4927063 -1.0390143
-2.2759283 -3.5008035 -1.0458111
-2.2909772 -3.4770744 -1.0427903
-2.3321507 -3.4927337 -1.0521044
-2.331847 -3.4462941 -1.0420351
-2.3447413 -3.4199471 -1.038259
-2.3723063 -3.4150345 -1.0412799
-2.4115949 -3.426533 -1.049587
-2.4550457 -3.4431934 -1.0596563
-2.4381638 -3.3754971 -1.0427903
-2.4771147 -3.3854685 -1.0508456
-2.4966886 -3.3686502 -1.0503422
-2.5085969 -3.3416569 -1.0465662
-2.5571668 -3.3631833 -1.0586493
-2.6007807 -3.3773365 -1.0684669
-2.6214547 -3.3613148 -1.0684669
-2.6528261 -3.3588383 -1.072998
-2.63712 -3.2971468 -1.0578941
-2.6591284 -3.2831602 -1.0586493
-2.6847465 -3.2735176 -1.0609149
-2.6497591 -3.1907139 -1.0385108
-2.657454 -3.1603203 -1.0337279
-2.8436637 -3.3399835 -1.1006885
-2.8798997 -3.3407996 -1.1069818
-2.7094481 -3.1043072 -1.0314623
-2.8463488 -3.2210748 -1.077781
-2.9131606 -3.2562068 -1.0961573
-2.9278884 -3.2325315 -1.0941435
-2.9515917 -3.2187858 -1.0956539
-2.9798455 -3.209836 -1.0989264
-3.027982 -3.2218184 -1.1097509
-3.0603673 -3.2165015 -1.1145338
-2.9081843 -3.0192065 -1.0500904
-3.2495914 -3.3325415 -1.1704181
-3.2108324 -3.2526135 -1.1485175
-4.6959696 -4.699306 -1.6877265
-2.9167087 -2.8829682 -1.0264277
-2.9322662 -2.8629889 -1.0256726
-3.4596438 -3.3367827 -1.20994
-3.469543 -3.3054776 -1.206164
-3.2804546 -3.0871224 -1.1313998
-3.4602299 -3.2165236 -1.1885428
-3.44925 -3.167083 -1.1777184
-3.4492636 -3.1283031 -1.1709216
-3.4337955 -3.0760806 -1.1588385
-3.1293683 -2.7688959 -1.0465662
-3.0829051 -2.6942296 -1.0246656
-3.1147623 -2.6885438 -1.0299519
-3.1937966 -2.7227559 -1.0513492
-3.273366 -2.7560973 -1.0727463
-3.2842627 -2.7310097 -1.0707325
-3.3226461 -2.7286203 -1.0780326
-3.3588681 -2.7240331 -1.0845777
-3.3724978 -2.7009521 -1.0835707
-3.3745852 -2.6688004 -1.0787879
-3.2932699 -2.5717897 -1.0465662
-3.330446 -2.5680835 -1.0536147
-3.3892589 -2.5804346 -1.0677117
-3.3980665 -2.5543554 -1.0654461
-3.4704041 -2.5755665 -1.0838225
-3.4049571 -2.4947298 -1.0576425
-3.3582544 -2.428977 -1.0377556
-3.3628566 -2.4010136 -1.0344831
-3.3798988 -2.3820071 -1.0352383
-3.3920674 -2.3595655 -1.0344831
-3.4487655 -2.3677435 -1.0478249
-3.5289235 -2.3910587 -1.0684669
-3.5025003 -2.341922 -1.0556285
-3.486917 -2.3006635 -1.0463145
-3.505023 -2.2818654 -1.0475732
-3.5051165 -2.2514231 -1.0432937
-3.5229521 -2.2324641 -1.0445523
-3.5480721 -2.217989 -1.0480766
-3.5476112 -2.1875398 -1.0437971
-3.5584865 -2.164222 -1.0430419
-3.5634 -2.137368 -1.0405247
-3.598104 -2.1282756 -1.0470697
-3.6119311 -2.1066458 -1.0473214
-3.6449234 -2.0960245 -1.053363
-3.6551902 -2.0721879 -1.0526078
-3.67206 -2.0520821 -1.0538664
-3.6727149 -2.022974 -1.0503422
-3.6637955 -1.9888557 -1.0440489
-3.6537433 -1.9544668 -1.0375038
-3.6305661 -1.9135067 -1.0271829
-3.647392 -1.8938704 -1.0286933
-3.6890998 -1.8868823 -1.0375038
-3.7178936 -1.8729206 -1.0425385
-3.7648599 -1.8677102 -1.0528595
-3.7979882 -1.8551956 -1.0591528
-3.8206377 -1.8373103 -1.0624253
-3.8528323 -1.8237723 -1.0684669
-3.8902671 -1.8123606 -1.0760188
-3.9224277 -1.7981375 -1.0820603
-3.9686744 -1.7899553 -1.0921296
-3.9981594 -1.773814 -1.097416
-4.0258212 -1.7566036 -1.102199
-4.0498638 -1.7375937 -1.1059749
-4.0756078 -1.719107 -1.1102543
-4.1057467 -1.7022233 -1.1157924
-4.1887093 -1.7065831 -1.1361827
-4.3159008 -1.7276148 -1.1689078
-4.3183141 -1.6979125 -1.1666422
-4.3855276 -1.6933506 -1.1825013
-4.4003601 -1.6681253 -1.1837599
-4.4059777 -1.639406 -1.1825013
-4.5950403 -1.6777451 -1.2320924
-4.6608248 -1.6694304 -1.247448
-4.8965096 -1.7200438 -1.3096257
-4.8923311 -1.6849235 -1.305598
-5.022697 -1.6954298 -1.3385748
-5.113862 -1.6913278 -1.3607272
-5.3257709 -1.7252494 -1.4158564
-5.3685436 -1.7027818 -1.424667
-5.4962721 -1.7062576 -1.4566369
-5.9566774 -1.8092228 -1.5789784
-6.1096072 -1.8148111 -1.6174934
-6.3092937 -1.8320861 -1.6685948
-6.3502092 -1.8017938 -1.6766503
-6.2650843 -1.7361692 -1.6507219
-6.4334993 -1.740415 -1.6932646
-6.5273376 -1.7228942 -1.7156687
-6.6024551 -1.6994604 -1.7330382
-6.7169538 -1.6850619 -1.7609804
-6.8296404 -1.6688619 -1.7884191
-7.0619493 -1.6797904 -1.8478278
-7.2578692 -1.6794181 -1.8974189
-7.3615127 -1.6558843 -1.9223403
-7.341279 -1.6040713 -1.9142848
-7.421988 -1.5740584 -1.9331647
-7.4315066 -1.5284883 -1.9331647
-7.430305 -1.4807794 -1.9303957
-7.4325991 -1.4338764 -1.9286336
-7.4593334 -1.3916171 -1.9334165
-7.496305 -1.3509723 -1.9409684
-7.412919 -1.2890286 -1.9168022
-7.4540958 -1.2491195 -1.9256128
-7.4931493 -1.2084451 -1.9339199
-7.4392157 -1.1529558 -1.9178091
-7.4710388 -1.1109903 -1.9243542
-7.5026259 -1.0686777 -1.9308991
-7.4965758 -1.0209239 -1.9276266
-7.5122962 -0.97615415 -1.930144
-7.5239072 -0.93075436 -1.9316543
-7.5208259 -0.88355428 -1.9293888
-7.5289912 -0.83771193 -1.930144
-7.5262899 -0.79068983 -1.9281301
-7.5175161 -0.74316084 -1.9246058
-7.5228987 -0.69710958 -1.9248576
-7.5038934 -0.64893442 -1.9188161
-7.5414982 -0.60559225 -1.9276266
-7.5354204 -0.55859113 -1.9251094
-7.5406375 -0.51247549 -1.9256128
-7.5523334 -0.46673506 -1.9278784
-7.5763135 -0.42157003 -1.9334165
-7.5681252 -0.37454796 -1.9306474
-7.5712476 -0.32814571 -1.9308991
-7.5634475 -0.28132302 -1.9283818
-7.55826 -0.23469865 -1.9266198
-7.1980758 0.52869326 -1.9258791
-7.1908493 0.57254291 -1.9248277
-7.1852784 0.61648911 -1.924302
-7.190968 0.6614508 -1.9269305
-7.2059779 0.70744979 -1.9321878
-7.1976628 0.75125027 -1.9311364
-7.1804514 0.79401958 -1.9277191
-7.1735277 0.83783889 -1.9271934
-7.1481423 0.87936187 -1.9216733
-7.1540942 0.9246915 -1.9248277
-7.1454177 0.96818167 -1.9240391
-7.1450739 1.0128204 -1.9256163
-7.1186824 1.0536727 -1.9200962
-7.1235251 1.0990996 -1.9232504
-7.1156945 1.1426349 -1.9229876
-7.1095014 1.1864334 -1.9232504
-7.1125445 1.231847 -1.926142
-7.1010537 1.2747831 -1.9250906
-7.0864582 1.3170952 -1.9232504
-7.0735064 1.3596406 -1.9219362
-7.061245 1.402265 -1.9208847
-7.0468373 1.4444022 -1.9193076
-7.0331221 1.4866152 -1.9179932
-7.0191545 1.5287142 -1.9166789
-7.0218806 1.5745004 -1.9200962
-6.9895248 1.6123477 -1.9137874
-6.9992142 1.6598828 -1.9193076
-6.9579644 1.695256 -1.9106331
-6.9502392 1.7386202 -1.9114217
-6.9534578 1.7848338 -1.9153646
-6.9582367 1.8316437 -1.9198333
-6.9608393 1.8780764 -1.9237761
-6.9305859 1.9156082 -1.9185189
-6.9029202 1.9536282 -1.9140503
-6.8852429 1.9943354 -1.9124731
-6.8645506 2.0340765 -1.9101074
-6.8574805 2.0778379 -1.9116845
-6.8270917 2.1144493 -1.9066901
-6.8572211 2.1699882 -1.9190447
-6.826335 2.2063816 -1.9140503
-6.8062549 2.2461081 -1.9122102
-6.7804589 2.2838225 -1.908793
-6.7781792 2.3294623 -1.9122102
-6.7783256 2.3761177 -1.916416
-6.7645268 2.417989 -1.9166789
-6.7423115 2.4568059 -1.9145761
-6.7253008 2.4974577 -1.9140503
-6.7116551 2.5393596 -1.9145761
-6.6851444 2.5763285 -1.9114217
-6.6638222 2.6151836 -1.9098445
-6.6503382 2.6570971 -1.9106331
-6.6258659 2.6945803 -1.9082673
-6.6056418 2.7337086 -1.9072158
-6.5834088 2.7719414 -1.9056387
-6.5520868 2.8062043 -1.9014329
-6.5559731 2.8556046 -1.9077415
-6.5427384 2.897732 -1.9090558
-6.5257149 2.9382191 -1.9093188
-6.4838777 2.9673603 -1.9022214
-6.4769201 3.0123801 -1.9056387
-6.4687819 3.0570138 -1.908793
-6.4585996 3.1008251 -1.9114217
-6.4316478 3.1365883 -1.9090558
-6.4019065 3.1708527 -1.9059016
-6.4012914 3.2196152 -1.9116845
-6.3367372 3.2360067 -1.8980156
-6.3416004 3.2877095 -1.9056387
-6.3238692 3.3279073 -1.9064273
-6.2973738 3.3634644 -1.9045873
-6.27068 3.3988218 -1.9027472
-6.2201204 3.4209554 -1.8935469
-6.2411361 3.4825709 -1.9066901
-6.2179708 3.5198493 -1.9061644
-6.1929097 3.5560133 -1.905113
-6.1718078 3.5944312 -1.9053758
-6.1189017 3.614073 -1.8956499
-6.1595116 3.6892381 -1.9156275
-6.1013021 3.7054212 -1.9043244
-6.0800943 3.7438004 -1.9048501
-6.0332751 3.7662163 -1.897227
-5.9896722 3.7902634 -1.8906555
-6.0036564 3.8509123 -1.9027472
-5.9702091 3.8813653 -1.8995929
-5.939836 3.913677 -1.8974899
-5.9221292 3.9543366 -1.8995929
-5.9057441 3.9960079 -1.9022214
-5.8922534 4.0398097 -1.9059016
-5.8665624 4.0753374 -1.9056387
-5.8304014 4.1034808 -1.9019586
-5.8011856 4.1363769 -1.9006443
-5.7819524 4.176415 -1.9027472
-5.7507677 4.2078247 -1.9009072
-5.7287159 4.2459049 -1.9022214
-5.7079563 4.2850313 -1.9040614
-5.6777167 4.3170533 -1.9027472
-5.6557069 4.3553429 -1.9043244
-5.6151838 4.379281 -1.8995929
-5.5904784 4.4154472 -1.9003814
-5.5572534 4.4448442 -1.8982785
-5.5381222 4.4855404 -1.90117
-5.501544 4.5120935 -1.8980156
-5.4826608 4.553164 -1.90117
-5.4538813 4.5860982 -1.9009072
-5.4263735 4.6201019 -1.90117
-5.3891549 4.6457496 -1.8980156
-5.3612742 4.6793637 -1.8982785
-5.2674012 4.6546612 -1.8746209
-5.2933822 4.7357945 -1.8945985
-5.2413445 4.7474542 -1.8861868
-5.2398453 4.8049612 -1.8964385
-5.1925893 4.8206081 -1.8898669
-5.1868129 4.8748484 -1.8988042
-5.1749749 4.9238772 -1.9056387
-5.1231265 4.9347844 -1.8974899
-5.0982761 4.9715161 -1.8995929
-5.0779734 5.0128736 -1.9035357
-5.0389314 5.0357518 -1.9003814
-4.9997997 5.0583396 -1.897227
-4.9605813 5.080637 -1.8940727
-4.9259653 5.1075058 -1.8927584
-4.8798947 5.1222639 -1.8869754
-4.8662229 5.1710844 -1.8940727
-4.8311181 5.1973114 -1.8927584
-4.7965274 5.2240138 -1.8917069
-4.7624393 5.2512021 -1.8909184
-4.7185431 5.2673874 -1.8861868
-4.702754 5.3150306 -1.8930212
-4.6630707 5.3357935 -1.8901298
-4.6466312 5.3832974 -1.8969642
-4.6122608 5.4102387 -1.8964385
-4.584569 5.4450808 -1.8988042
-4.541821 5.4619789 -1.8948613
-4.500875 5.4807954 -1.8917069
-4.4416409 5.4768314 -1.8806667
-4.4399114 5.5439005 -1.8945985
-4.3687119 5.5241127 -1.8783009
-4.3430467 5.5614624 -1.881981
-4.3141418 5.5948834 -1.8843467
-4.2978454 5.6450496 -1.8924955
-4.2335668 5.6319766 -1.8790895
-4.185133 5.6392503 -1.8727808
-4.1778173 5.7021861 -1.8853983
-4.132575 5.7136397 -1.8806667
-4.0974388 5.7388892 -1.8806667
-4.0627046 5.7647114 -1.8809296
-4.0316629 5.7958684 -1.8830324
-4.0085812 5.8387938 -1.8890783
-3.9715974 5.8616824 -1.8885525
-3.9291222 5.8763156 -1.8853983
-3.9046788 5.9180326 -1.8911812
-3.8630302 5.9337931 -1.8885525
-3.8270698 5.9581966 -1.8888154
-3.7868247 5.9758615 -1.8869754
-3.7674704 6.026804 -1.8959128
-3.7324448 6.0530925 -1.8969642
-3.6847079 6.0585675 -1.8914441
-3.6519291 6.0885096 -1.8938098
-3.6302161 6.1373796 -1.9022214
-3.5827703 6.142868 -1.8969642
-3.5469344 6.1680818 -1.8980156
-3.5028369 6.1788168 -1.8945985
-3.467211 6.2044053 -1.8959128
-3.4160464 6.2018976 -1.8885525
-3.3765473 6.2201972 -1.887764
-3.341047 6.245903 -1.8893412
-3.3327913 6.3234782 -1.906953
-3.2868168 6.3301067 -1.9027472
-3.2553809 6.3647594 -1.9072158
-3.2162662 6.384614 -1.9072158
-3.1594563 6.3687887 -1.8964385
-3.1232817 6.3941236 -1.8982785
-3.0856614 6.416646 -1.89933
-3.0462315 6.4354582 -1.89933
-3.0034287 6.4470315 -1.897227
-2.9465313 6.4276218 -1.885924
-2.9106054 6.4534969 -1.8882897
-2.8623481 6.4518304 -1.8825067
-2.8350489 6.4975724 -1.8909184
-2.809958 6.549428 -1.90117
-2.7588487 6.5407639 -1.8935469
-2.7194021 6.5593514 -1.8940727
-2.6911116 6.605402 -1.9027472
-2.6444383 6.6065617 -1.8982785
-2.6133795 6.6469088 -1.9053758
-2.576714 6.6736202 -1.9085301
-2.5316148 6.6784782 -1.9053758
-2.4808362 6.6676607 -1.8977528
-2.4412003 6.6863828 -1.8988042
-2.4176872 6.7502885 -1.9129988
-2.3675935 6.7404165 -1.9059016
-2.3327847 6.7739754 -1.9114217
-2.2856252 6.7717056 -1.9066901
-2.2407012 6.7755256 -1.9037986
-2.2056227 6.809341 -1.9095817
-2.1535964 6.7905555 -1.9003814
-2.1147485 6.8128572 -1.90301
-2.0776696 6.8413997 -1.9074787
-2.0351033 6.8521695 -1.906953
-2.0064642 6.9108582 -1.9200962
-1.9616536 6.9146852 -1.9177303
-1.9153268 6.9126439 -1.9137874
-1.8668332 6.9019127 -1.9074787
-1.8170674 6.8852491 -1.8995929
-1.77022 6.8785148 -1.8945985
-1.7336109 6.9117084 -1.9009072
-1.6971184 6.9465857 -1.9077415
-1.651563 6.944665 -1.9043244
-1.6091375 6.9556079 -1.9045873
-1.5611399 6.9418168 -1.8980156
-1.5283929 6.9965115 -1.9106331
-1.480835 6.9840488 -1.9045873
-1.4365945 6.9863877 -1.9027472
-1.3974673 7.0139966 -1.9080044
-1.3505701 7.0025434 -1.9024843
-1.3153547 7.052433 -1.9140503
-1.2717153 7.0584717 -1.9135245
-1.2221078 7.0300193 -1.9035357
-1.1807011 7.047853 -1.9064273
-1.1398888 7.0702062 -1.9106331
-1.0956 7.0713463 -1.9090558
-1.0541744 7.0912967 -1.9127359
-1.0100998 7.0938106 -1.9116845
-0.96447402 7.0845785 -1.9074787
-0.92197871 7.0980177 -1.9095817
-0.87639844 7.0872626 -1.905113
-0.83188397 7.0838823 -1.9027472
-0.79181015 7.1195393 -1.9111588
-0.7421748 7.0676489 -1.8956499
-0.6995523 7.079751 -1.8977528
-0.65254563 7.0454807 -1.8872383
-0.61353236 7.0983763 -1.9006443
-0.57389438 7.1510568 -1.9140503
-0.53057456 7.1621413 -1.9161532
-0.48485756 7.1392713 -1.9090558
-0.44187304 7.1555939 -1.9127359
-0.3966772 7.1350498 -1.9064273
-0.35336477 7.146986 -1.9090558
-0.30950505 7.1490197 -1.9090558
-0.26552668 7.147892 -1.9082673
-0.2223174 7.1706028 -1.9140503
-0.17795783 7.1573639 -1.9101074
-0.13407354 7.1602502 -1.9106331
-0.090100586 7.1580439 -1.9098445
-0.045995932 7.1295176 -1.9019586
-0.0022535909 7.1586103 -1.9098445
0.041538086 7.1362987 -1.9037986
0.085500203 7.1503811 -1.9077415
0.12961908 7.1632271 -1.9114217
0.17286344 7.1333609 -1.9035357
0.21745424 7.1591687 -1.9108959
0.26130724 7.1557713 -1.9103702
0.30582851 7.1684923 -1.9143132
0.34943026 7.1587715 -1.9122102
0.3936677 7.1622729 -1.9137874
0.43725309 7.1539445 -1.9122102
0.48055631 7.1424627 -1.9098445
0.52493924 7.1470776 -1.9119474
0.56479287 7.0937099 -1.8982785
0.61153108 7.1276011 -1.9085301
0.65472257 7.11795 -1.906953
0.69583571 7.087873 -1.8998557
0.73830986 7.073874 -1.897227
0.78180659 7.0701699 -1.8974899
0.82775152 7.0872803 -1.9035357
0.86992514 7.0715346 -1.9006443
0.91577554 7.0852008 -1.9059016
0.95845407 7.0737119 -1.9043244
1.002924 7.0753398 -1.9064273
1.0457529 7.0652351 -1.9053758
1.0915884 7.0748954 -1.9098445
1.1355911 7.0718746 -1.9108959
1.1792799 7.0666771 -1.9114217
1.2189924 7.038394 -1.9056387
1.2624974 7.032681 -1.9061644
1.3059783 7.0266991 -1.9066901
1.345241 6.9986567 -1.90117
1.3872181 6.9855394 -1.8998557
1.4329628 6.9910731 -1.9037986
1.4748338 6.9774294 -1.9024843
1.5184406 6.9720197 -1.9035357
1.5552765 6.9362116 -1.8961756
1.5982411 6.9284182 -1.8967013
1.6433964 6.9297462 -1.8998557
1.6836002 6.9101582 -1.897227
1.7189397 6.8716192 -1.8893412
1.7673116 6.8852396 -1.8961756
1.7994491 6.8360124 -1.8853983
1.8519224 6.863965 -1.8964385
1.8909178 6.8413134 -1.8932841
1.9346999 6.8360806 -1.8951242
1.9712372 6.8055468 -1.8898669
2.0167978 6.8062739 -1.8935469
2.0582426 6.7928476 -1.8932841
2.1007407 6.7828555 -1.8940727
2.1396987 6.7615595 -1.8917069
2.1728339 6.7225986 -1.8843467
2.2119246 6.7027264 -1.8825067
2.2610214 6.7128 -1.8893412
2.30405 6.7042747 -1.8909184
2.3425887 6.6827273 -1.8888154
2.3790004 6.655509 -1.8851354
2.4237587 6.6516643 -1.8882897
2.4608307 6.6267185 -1.8853983
2.5014451 6.6114945 -1.8853983
2.5430067 6.598722 -1.8861868
2.5940263 6.6099367 -1.8940727
2.6280892 6.5777693 -1.8893412
2.6604006 6.5418587 -1.8835582
2.7108252 6.5503721 -1.8909184
2.725497 6.4731522 -1.8730437
2.756804 6.4367962 -1.8672607
2.8020291 6.4330273 -1.8712037
2.8434031 6.4201241 -1.8725179
2.8819501 6.4007969 -1.8719922
2.9259901 6.3935199 -1.8751466
2.9688282 6.3833194 -1.8775123
3.0161874 6.3824277 -1.8827696
3.0306463 6.3124876 -1.8672607
3.0782063 6.3119831 -1.8727808
3.1108806 6.2808733 -1.8691007
3.1454577 6.2539101 -1.866735
3.1912341 6.2490988 -1.8712037
3.2455094 6.2602334 -1.8806667
3.2501509 6.1761703 -1.860952
3.2911687 6.1620684 -1.862792
3.3298364 6.1434546 -1.8633177
3.366539 6.1212168 -1.862792
3.404505 6.1012874 -1.8630549
3.4423532 6.0811224 -1.8633177
3.4853683 6.0699253 -1.8664721
3.534204 6.0684333 -1.8727808
3.5561576 6.0208831 -1.8646321
3.5717106 5.9633608 -1.8533289
3.6152472 5.952877 -1.8570091
3.639055 5.9100451 -1.8504375
3.6926255 5.9154296 -1.8593748
3.7221437 5.8820629 -1.8559576
3.7691073 5.8761663 -1.8614777
3.8098259 5.8602085 -1.8638434
3.8467739 5.8383327 -1.8643692
3.8798451 5.8106079 -1.8630549
3.9170477 5.7890892 -1.8638434
3.956861 5.7713108 -1.8659464
3.9966033 5.753262 -1.8680493
4.0301633 5.726264 -1.8672607
4.0730667 5.7124248 -1.8709408
4.115952 5.6982741 -1.8746209
