# .PCD v0.7 - Point Cloud Data file format
VERSION 0.7
FIELDS x y z
SIZE 4 4 4
TYPE F F F
COUNT 1 1 1
WIDTH 1616
HEIGHT 1
VIEWPOINT 0 0 0 1 0 0 0
POINTS 1616
DATA ascii
-2.5898926 -1.8753772 -1.0656261
-2.5982752 -1.8572537 -1.0643172
-2.6018991 -1.835831 -1.0610451
-2.6200953 -1.8246893 -1.0639901
-2.6195581 -1.8005536 -1.0590818
-2.6211705 -1.7780842 -1.0551552
-2.6320312 -1.7619674 -1.0551552
-2.6435816 -1.746305 -1.0554824
-2.6906707 -1.7537737 -1.0705345
-3.9900279 -2.5652921 -1.6009547
-2.7295475 -1.7317538 -1.0777332
-2.7425256 -1.7164761 -1.0787148
-2.7779374 -1.7149955 -1.0888586
-2.8085899 -1.7101973 -1.0970391
-2.8538721 -1.7138389 -1.1111094
-2.8496959 -1.6876335 -1.1052195
-2.8697915 -1.6758311 -1.1091461
-2.9021354 -1.6709136 -1.117981
-2.9139771 -1.6540073 -1.1186354
-2.9248958 -1.6365575 -1.1189626
-2.9754355 -1.6409265 -1.1349963
-3.0319502 -1.6478928 -1.1533206
-3.0436707 -1.6301498 -1.153975
-3.1555917 -1.6652143 -1.1938956
-3.1774895 -1.651919 -1.1984767
-3.2262616 -1.6521921 -1.2135286
-3.270092 -1.6493764 -1.2266173
-3.3013115 -1.6397828 -1.2347978
-3.3299887 -1.6286232 -1.2419966
-3.4105957 -1.6421634 -1.2691556
-3.4991775 -1.6584146 -1.2992598
-3.5795193 -1.6696471 -1.3260916
-4.1394053 -1.899771 -1.535511
-3.9227343 -1.7713419 -1.4487983
-3.7607913 -1.670566 -1.3833548
-3.8220663 -1.6697643 -1.4026606
-3.8296349 -1.6451628 -1.4016789
-3.955447 -1.6704983 -1.4451989
-4.0040274 -1.662127 -1.4595965
-4.0342765 -1.6457314 -1.4671226
-4.1188622 -1.6508085 -1.494936
-4.2256427 -1.6635565 -1.53093
-4.329205 -1.6736927 -1.5656151
-4.4083085 -1.6732363 -1.5911381
-4.4999652 -1.6764867 -1.6212422
-4.5589838 -1.6666772 -1.6392391
-4.6349516 -1.6622629 -1.6634532
-4.7502594 -1.6707646 -1.702065
-4.8292131 -1.6652905 -1.7272607
-4.864408 -1.6440938 -1.7364229
-4.9210539 -1.6296523 -1.7534381
-4.9750071 -1.6137029 -1.7694719
-5.0541677 -1.6051555 -1.7946676
-5.1595778 -1.6038253 -1.8293527
-5.2642546 -1.6009861 -1.8637106
-5.3754272 -1.5988061 -1.900359
-5.4332299 -1.579766 -1.9177016
-5.4655466 -1.5528504 -1.925882
-5.4940944 -1.5245874 -1.9327536
-5.507906 -1.4920821 -1.9343897
-5.5215259 -1.4594646 -1.9360257
-5.5267167 -1.4246149 -1.9347169
-5.5353537 -1.3906769 -1.9347169
-5.5419469 -1.3562374 -1.9340625
-5.5575185 -1.3239576 -1.9366802
-5.5710611 -1.2911114 -1.9386435
-5.5650501 -1.2537911 -1.9337353
-5.578177 -1.220832 -1.9356985
-5.5855632 -1.186582 -1.9356985
-5.5853343 -1.1507633 -1.9330808
-5.5950699 -1.1170251 -1.9340625
-5.6213026 -1.0864351 -1.9409341
-5.6371522 -1.0536572 -1.9442062
-5.6332817 -1.0172035 -1.9406068
-5.6310387 -0.981161 -1.9376619
-5.6453404 -0.94799781 -1.9406068
-5.640789 -0.91168445 -1.9370074
-5.636939 -0.87560749 -1.9337353
-5.6197743 -0.83766448 -1.925882
-5.6332273 -0.80436689 -1.9288269
-5.6212039 -0.76748937 -1.922937
-5.5827026 -0.7273767 -1.9078851
-0 -0 -0
-0 -0 -0
-0 -0 -0
-0 -0 -0
-0 -0 -0
-0 -0 -0
-0 -0 -0
-0 -0 -0
-0 -0 -0
-0 -0 -0
-0 -0 -0
-0 -0 -0
-0 -0 -0
-0 -0 -0
-0 -0 -0
-0 -0 -0
-0 -0 -0
-0 -0 -0
-0 -0 -0
-0 -0 -0
-0 -0 -0
-0 0 -0
-0 0 -0
-0 0 -0
-0 0 -0
-0 0 -0
-0 0 -0
-0 0 -0
-0 0 -0
-0 0 -0
-0 0 -0
-0 0 -0
-5.4746375 -0.14008437 -1.9222344
-5.4697471 -0.10637975 -1.9202089
-0 -0 -0
-0 -0 -0
-0 -0 -0
-0 0 -0
-0 0 -0
-0 0 -0
-0 0 -0
-0 0 -0
-0 0 -0
-0 0 -0
-0 0 -0
-0 0 -0
-0 0 -0
-0 0 -0
-0 0 -0
-0 0 -0
-0 0 -0
-0 0 -0
-0 0 -0
-0 0 -0
-0 0 -0
-0 0 -0
-0 0 -0
-0 0 -0
-0 0 -0
-0 0 -0
-0 0 -0
-0 0 -0
-0 0 -0
-0 0 -0
-0 0 -0
-0 0 -0
-5.3349648 0.98756444 -1.9040047
-5.3472948 1.0238193 -1.9107565
-5.3695378 1.0622714 -1.9212216
-5.3684525 1.0963279 -1.9232472
-5.3653088 1.1300232 -1.9245975
-5.3610339 1.1635215 -1.9256103
-5.3464446 1.1947526 -1.9229096
-5.3371782 1.2271136 -1.9222344
-5.3268003 1.2591894 -1.9212216
-5.3134851 1.2905178 -1.9191961
-5.2890267 1.3189977 -1.9131196
-5.2954249 1.3551586 -1.9185209
-5.2788157 1.3854752 -1.9154826
-5.2693062 1.4175949 -1.915145
-5.2659535 1.4514003 -1.9171706
-5.256043 1.4834286 -1.916833
-5.2504592 1.5166959 -1.9181833
-5.2473731 1.5507505 -1.9205465
-5.2467699 1.5856409 -1.9239224
-5.2441368 1.6200268 -1.9266231
-5.2269163 1.6499075 -1.9239224
-5.209527 1.6796379 -1.9212216
-5.1946526 1.7101001 -1.9195337
-5.1822772 1.7413421 -1.9188585
-5.1643715 1.7706654 -1.9161578
-5.1525211 1.8020093 -1.9158202
-5.1511202 1.8370681 -1.9195337
-5.1362123 1.867354 -1.9181833
-5.127306 1.899815 -1.9191961
-5.1129103 1.9302427 -1.9181833
-5.1053634 1.9632674 -1.9198713
-5.0940971 1.9948996 -1.9202089
-5.0817609 2.0261188 -1.9202089
-5.0674887 2.0565541 -1.9195337
-5.0582547 2.0890458 -1.9208841
-5.0331922 2.1149392 -1.9161578
-5.0071368 2.140234 -1.9110941
-4.9818244 2.165664 -1.9063678
-4.9581108 2.1916254 -1.9023167
-4.9437113 2.2216206 -1.9019791
-4.9565296 2.2640347 -1.9124444
-4.945106 2.2955937 -1.9134572
-4.9317784 2.3262947 -1.9137948
-4.9140162 2.3548846 -1.9124444
-4.8884716 2.3796372 -1.9080558
-4.9016247 2.4233522 -1.9191961
-4.8732033 2.4466259 -1.9137948
-4.8706789 2.4828928 -1.9188585
-4.8486643 2.5092714 -1.9161578
-4.8373432 2.5411634 -1.9178458
-4.8183374 2.5690258 -1.9164954
-4.8024836 2.5985422 -1.9164954
-4.7847981 2.6270547 -1.9158202
-4.7669444 2.6554482 -1.915145
-4.747283 2.6827955 -1.9137948
-4.7250156 2.7085972 -1.9114317
-4.7074933 2.7370653 -1.9110941
-4.687367 2.7639863 -1.9097437
-4.6565847 2.7844839 -1.9040047
-4.6426315 2.8149557 -1.905355
-4.6220641 2.8414178 -1.9040047
-4.6109333 2.8737073 -1.9067054
-4.601172 2.9069724 -1.9100813
-4.592761 2.9412408 -1.9141324
-4.575417 2.9698784 -1.91447
-4.5618267 3.0010004 -1.9164954
-4.5472431 3.0315452 -1.9181833
-4.5254364 3.057282 -1.916833
-4.5050387 3.0839288 -1.9161578
-4.48139 3.1082945 -1.9141324
-4.4653144 3.137898 -1.9154826
-4.4352407 3.1575954 -1.9107565
-4.4180732 3.1864018 -1.9117692
-4.3961582 3.2117848 -1.9107565
-4.3703146 3.2342198 -1.9080558
-4.3368297 3.2508132 -1.9019791
-4.3280478 3.2858992 -1.907043
-4.2854171 3.2951822 -1.8969153
-4.2955685 3.3451247 -1.9107565
-4.2720056 3.3690877 -1.9094061
-4.2299218 3.3782034 -1.899616
-4.2296081 3.4206662 -1.9090685
-4.2121811 3.4495358 -1.9107565
-4.1974578 3.4807236 -1.9137948
-4.178184 3.5082288 -1.9148074
-4.1608825 3.5374575 -1.916833
-4.1433792 3.5666058 -1.9188585
-4.1199975 3.5907252 -1.9181833
-4.0908294 3.60971 -1.9148074
-4.0650935 3.6316075 -1.9131196
-4.0392432 3.6533253 -1.9114317
-4.0125852 3.6742272 -1.9094061
-3.9878938 3.6968591 -1.9083933
-3.9610167 3.7173941 -1.9063678
-3.9408624 3.7442217 -1.9077182
-3.9198496 3.7702894 -1.9087309
-3.8952928 3.7929568 -1.9080558
-3.8719463 3.8167865 -1.9080558
-3.8531184 3.8451264 -1.9104189
-3.8294528 3.8686965 -1.9104189
-3.7964289 3.8826988 -1.9056926
-3.7731876 3.9065971 -1.9060302
-3.746547 3.9269516 -1.9046799
-3.7210898 3.9484961 -1.9040047
-3.6967924 3.9712539 -1.9040047
-3.666621 3.9876266 -1.9009664
-3.6408186 4.008656 -1.9002912
-3.6205537 4.0358243 -1.9026543
-3.593225 4.0551457 -1.901304
-3.5701354 4.0792422 -1.9023167
-3.5444226 4.100359 -1.9019791
-3.5198078 4.122746 -1.9023167
-3.4938381 4.1435461 -1.9019791
-3.468348 4.1649055 -1.9019791
-3.4427273 4.1861086 -1.9019791
-3.4157901 4.2056928 -1.901304
-3.392276 4.2295094 -1.9026543
-3.3668449 4.2509823 -1.9029919
-3.3430178 4.2745266 -1.9043423
-3.3190284 4.2979383 -1.9056926
-3.2937357 4.3197198 -1.9063678
-3.268301 4.341352 -1.907043
-3.2399166 4.3590579 -1.9060302
-3.213109 4.3788557 -1.9060302
-3.174583 4.3824811 -1.8989408
-3.1569414 4.4148932 -1.9046799
-3.109164 4.4049592 -1.8918515
-3.0998356 4.44944 -1.9029919
-3.0660753 4.4590693 -1.8989408
-3.0407717 4.4809136 -1.9002912
-3.0142679 4.5010514 -1.9009664
-2.9855552 4.5178914 -1.9002912
-2.9546926 4.5313945 -1.8982657
-2.9278514 4.5510221 -1.8989408
-2.9018896 4.5720801 -1.9002912
-2.8757796 4.5929909 -1.9016416
-2.8450701 4.6065459 -1.8999536
-2.8128331 4.6174855 -1.8972529
-2.7868719 4.6386919 -1.8989408
-2.7559576 4.6516557 -1.8972529
-2.7283134 4.6701035 -1.8979281
-2.6991372 4.6859407 -1.8975905
-2.6680095 4.6983218 -1.8959025
-2.6391308 4.7146039 -1.8959025
-2.6092434 4.7290602 -1.8952274
-2.5797276 4.7441545 -1.8948898
-2.5492356 4.7574048 -1.893877
-2.5134034 4.7604718 -1.8888133
-2.486753 4.7808142 -1.8908387
-2.4573717 4.7959828 -1.8908387
-2.4287462 4.8126512 -1.8915139
-2.3987515 4.8266201 -1.8911763
-2.3695047 4.8420935 -1.8915139
-2.3417926 4.8607812 -1.8932018
-2.3074858 4.8657031 -1.8894883
-2.2775869 4.8797703 -1.8894883
-2.2479954 4.8945088 -1.8898259
-2.2167578 4.9056368 -1.8888133
-2.1885278 4.9234467 -1.8905011
-2.1609168 4.9428196 -1.8928642
-2.133894 4.9637685 -1.8959025
-2.1033967 4.9767685 -1.8959025
-2.0731814 4.9904499 -1.8962401
-2.0439448 5.0065627 -1.8975905
-2.0121353 5.0163889 -1.8965777
-1.9816625 5.0295167 -1.8969153
-1.9500852 5.0398254 -1.8962401
-1.9177872 5.0481763 -1.8948898
-1.8877629 5.0624948 -1.8959025
-1.8566645 5.0739822 -1.8959025
-1.8245419 5.0826216 -1.8948898
-1.7920705 5.0901694 -1.8935394
-1.7592682 5.096621 -1.8918515
-1.7270575 5.1046448 -1.8908387
-1.6933334 5.1079979 -1.8881381
-1.6567255 5.1021771 -1.8820615
-1.6290965 5.123908 -1.8864501
-1.5973464 5.1329088 -1.8861125
-1.5628047 5.1327081 -1.8823991
-1.5334313 5.1494179 -1.8850998
-1.5049642 5.1695747 -1.8891507
-1.4737313 5.1805224 -1.8898259
-1.4434289 5.1949091 -1.8918515
-1.4130052 5.2091188 -1.893877
-1.3795706 5.2122312 -1.8918515
-1.347563 5.2205977 -1.8918515
-1.315275 5.2278552 -1.8915139
-1.282052 5.231256 -1.8898259
-1.2516776 5.2463489 -1.8925266
-1.2192501 5.2530131 -1.8921891
-1.189068 5.2695775 -1.8955649
-1.1575185 5.2804523 -1.8969153
-1.1231366 5.2782483 -1.8935394
-1.0926321 5.2942591 -1.8969153
-1.0599419 5.2999406 -1.8965777
-1.0259701 5.2989516 -1.893877
-0.99135715 5.2940445 -1.8898259
-0.9593578 5.3028069 -1.8908387
-0.92583054 5.30303 -1.8888133
-0.89171171 5.2993283 -1.8854374
-0.85993171 5.3093462 -1.8871253
-0.82762772 5.3163824 -1.8878005
-0.79526973 5.3232226 -1.8884757
-0.76432675 5.3401155 -1.8928642
-0.73039657 5.3363113 -1.8898259
-0.69983572 5.3574929 -1.8959025
-0.66625196 5.3560815 -1.893877
-0.63370675 5.3628731 -1.8948898
-0.60110319 5.3694668 -1.8959025
-0.56824452 5.3739901 -1.8962401
-0.5346998 5.3717561 -1.8942146
-0.50155413 5.3730612 -1.8935394
-0.46865803 5.3769751 -1.893877
-0.43558064 5.3788114 -1.8935394
-0.40270928 5.3832603 -1.8942146
-0.36941251 5.3818736 -1.8928642
-0.3365593 5.386857 -1.893877
-0.30302283 5.3803625 -1.8908387
-0.26976767 5.3774199 -1.8891507
-0.23697467 5.3836761 -1.8908387
-0.20393661 5.3850288 -1.8908387
-0.17089084 5.386179 -1.8908387
-0.1379111 5.3899488 -1.8918515
-0.10467104 5.3822236 -1.8888133
-0.071581371 5.3780584 -1.8871253
-0.038533118 5.3718076 -1.8847622
-0.0055789324 5.3785319 -1.8871253
0.027385397 5.3709345 -1.8844246
0.06040334 5.3763127 -1.8864501
0.093423195 5.3777232 -1.8871253
0.12650675 5.3808131 -1.8884757
0.15940911 5.3761721 -1.8871253
0.19199048 5.3638043 -1.8830742
0.22501665 5.3653469 -1.884087
0.25820443 5.3695064 -1.8861125
0.28972077 5.3415031 -1.87666
0.32311359 5.3499603 -1.8803735
0.35580939 5.3459988 -1.8796983
0.38928711 5.3531032 -1.8830742
0.42249563 5.3553057 -1.8847622
0.45630381 5.3638673 -1.8888133
0.4892073 5.3609667 -1.8888133
0.52263969 5.3634853 -1.8908387
0.5545699 5.3508143 -1.8874629
0.58728874 5.3463755 -1.8871253
0.61899793 5.3333211 -1.8837494
0.65239602 5.3350286 -1.885775
0.6837998 5.3206553 -1.8820615
0.71706206 5.3210235 -1.8837494
0.74969774 5.3165236 -1.8837494
0.78216809 5.3108921 -1.8834118
0.81488317 5.3069234 -1.8837494
0.84564853 5.2906694 -1.8796983
0.88056272 5.3002381 -1.8850998
0.91386729 5.2993736 -1.8867877
0.94653201 5.2945929 -1.8871253
0.98020005 5.2951646 -1.8894883
1.0126721 5.2890506 -1.8894883
1.04748 5.2947416 -1.893877
1.0769359 5.2734585 -1.8884757
1.1114061 5.2768831 -1.8921891
1.1443622 5.2727242 -1.8932018
1.1777196 5.2701964 -1.8948898
1.2108781 5.2665405 -1.8962401
1.2440362 5.2626758 -1.8975905
1.2751935 5.2503695 -1.8959025
1.306702 5.2397065 -1.8948898
1.3369613 5.2242947 -1.8921891
1.3656473 5.2032461 -1.8874629
1.3963257 5.1902237 -1.885775
1.4263958 5.1752062 -1.8834118
1.4563341 5.1600151 -1.8810487
1.4877068 5.1500778 -1.8807111
1.5203459 5.1444631 -1.8820615
1.5510664 5.1323347 -1.8810487
1.5853063 5.1317143 -1.8844246
1.6119483 5.1066303 -1.8786856
1.6475834 5.1100821 -1.8837494
1.6794957 5.1016645 -1.8844246
1.7104676 5.0903711 -1.884087
1.7462476 5.0931368 -1.8891507
1.778087 5.0841031 -1.8898259
1.8098813 5.0748706 -1.8905011
1.8384136 5.0565925 -1.8878005
1.8716944 5.0513959 -1.8901635
1.9013245 5.0362935 -1.8888133
1.9315152 5.0227752 -1.8881381
1.9609253 5.0073233 -1.8867877
1.9919614 4.9960713 -1.8871253
2.0225792 4.9837546 -1.8871253
2.0556355 4.9773407 -1.8894883
2.0850434 4.9620304 -1.8884757
2.1158206 4.9500093 -1.8888133
2.1461535 4.9369335 -1.8888133
2.1764054 4.9236722 -1.8888133
2.2088902 4.9153767 -1.8908387
2.2393999 4.9025869 -1.8911763
2.2690432 4.8879004 -1.8908387
2.3001966 4.8764396 -1.8918515
2.330888 4.8639321 -1.8925266
2.3598647 4.8478456 -1.8918515
2.3908174 4.8358059 -1.8928642
2.4179108 4.8159976 -1.8908387
2.4482706 4.8027482 -1.8915139
2.4776936 4.7876353 -1.8915139
2.5070233 4.7723427 -1.8915139
2.535373 4.7552085 -1.8908387
2.5653985 4.7412181 -1.8915139
2.5921769 4.7212625 -1.8898259
2.6215553 4.7060905 -1.8901635
2.6471405 4.6841798 -1.8878005
2.6716197 4.6604986 -1.8847622
2.6982734 4.6407633 -1.8834118
2.7228734 4.6176329 -1.8807111
2.7511554 4.6008387 -1.8807111
2.7778699 4.5814562 -1.8796983
2.8064218 4.5651274 -1.8800359
2.8338823 4.5470228 -1.8796983
2.8617289 4.5295486 -1.8796983
2.8894677 4.5119042 -1.8796983
2.9206851 4.4996171 -1.8820615
2.9492736 4.4831839 -1.8827366
2.979337 4.4689193 -1.8844246
3.0119703 4.4583545 -1.8878005
3.0344846 4.4327989 -1.8847622
3.0739641 4.4318862 -1.8925266
3.1016409 4.4137115 -1.8928642
3.1286647 4.3945971 -1.8928642
3.1577728 4.3783712 -1.8942146
3.180692 4.3535924 -1.8918515
3.2056653 4.3317242 -1.8908387
3.2271035 4.3051939 -1.8878005
3.2563045 4.2890606 -1.8894883
3.2808392 4.2667608 -1.8884757
3.3110058 4.2517486 -1.8908387
3.3387802 4.2335701 -1.8918515
3.3646941 4.2130041 -1.8918515
3.3940325 4.196671 -1.893877
3.4191225 4.1750383 -1.8935394
3.4416716 4.1503572 -1.8918515
3.4592049 4.1197896 -1.8874629
3.4880762 4.1027899 -1.8894883
3.5144129 4.082737 -1.8901635
3.539398 4.0610962 -1.8901635
3.5605133 4.0350671 -1.8881381
3.5814426 4.0089321 -1.8861125
3.6129184 3.9945612 -1.8898259
3.6411743 3.9764831 -1.8918515
3.6667848 3.9554472 -1.8925266
3.6922741 3.9342465 -1.8932018
3.705972 3.9005978 -1.8878005
3.7291832 3.8771067 -1.8874629
3.7673483 3.8689895 -1.8948898
3.7837489 3.8384264 -1.8911763
3.815208 3.8231335 -1.8952274
3.8352499 3.7963405 -1.8935394
3.8571255 3.7714202 -1.8928642
3.876132 3.7437584 -1.8908387
3.8990302 3.7199044 -1.8908387
3.9224668 3.6965561 -1.8911763
3.939563 3.6672873 -1.8884757
3.9716909 3.6519661 -1.8932018
3.9982047 3.6313248 -1.8952274
4.0246143 3.6104958 -1.8972529
4.0544415 3.5926006 -1.9009664
4.0764089 3.5676553 -1.9009664
4.0982227 3.5425758 -1.9009664
4.11344 3.5118618 -1.8979281
4.1377892 3.4889834 -1.8992784
4.1518865 3.4575047 -1.8959025
4.1773849 3.4355519 -1.8979281
4.1940026 3.4062943 -1.8959025
4.2126217 3.3787293 -1.8948898
4.2222061 3.3440504 -1.8898259
4.2441282 3.3192403 -1.8905011
4.2666497 3.2948625 -1.8915139
4.2882833 3.2697623 -1.8921891
4.3142815 3.2479179 -1.8948898
4.3416834 3.2270005 -1.8982657
4.366714 3.2041981 -1.9006288
4.3824811 3.174583 -1.8989408
4.4049401 3.1498232 -1.9002912
4.4164944 3.1173069 -1.8969153
4.4378552 3.0917635 -1.8979281
4.4582939 3.065542 -1.8986033
4.4777985 3.0386574 -1.8989408
4.4963589 3.0111248 -1.8989408
4.5178914 2.9855552 -1.9002912
4.5377021 2.958806 -1.9009664
4.5533972 2.9293795 -1.8999536
4.5792327 2.90643 -1.9033295
4.5961819 2.8777781 -1.9029919
4.6185584 2.8524902 -1.9050175
4.6383853 2.825567 -1.9060302
4.657249 2.7980227 -1.9067054
4.6727099 2.768434 -1.9060302
4.6928596 2.7416103 -1.9073806
4.7193813 2.7184024 -1.9114317
4.7433386 2.6935775 -1.91447
4.7293878 2.647408 -1.9019791
4.7504878 2.621068 -1.9040047
4.7706151 2.5941188 -1.9056926
4.7905908 2.5670214 -1.9073806
4.8095813 2.5393367 -1.9087309
4.8284121 2.5115156 -1.9100813
4.8470821 2.4835589 -1.9114317
4.8647509 2.4550436 -1.9124444
4.8830948 2.4268236 -1.9137948
4.8987389 2.3972297 -1.9141324
4.9184437 2.3695781 -1.9161578
4.9405446 2.3429852 -1.9191961
4.9548283 2.3126264 -1.9191961
4.9663587 2.2810018 -1.9181833
4.97683 2.2489352 -1.916833
4.9853749 2.2160611 -1.9148074
4.9988785 2.1854298 -1.9148074
5.0113292 2.1543443 -1.91447
5.0279217 2.1250207 -1.9158202
5.0573816 2.1009927 -1.9222344
5.0597205 2.0656514 -1.9181833
5.0749207 2.0356181 -1.9191961
5.0925698 2.0065114 -1.9212216
5.1047859 1.9752262 -1.9212216
5.1150498 1.943198 -1.9205465
5.1198211 1.9091444 -1.9178458
5.1296711 1.8770468 -1.9171706
5.1446357 1.8468088 -1.9185209
5.1567583 1.8155198 -1.9188585
5.1660218 1.7832299 -1.9181833
5.1875653 1.7551191 -1.9222344
5.1937699 1.7217745 -1.9205465
5.2149796 1.693363 -1.9245975
5.2216835 1.6601914 -1.9232472
5.242557 1.6314777 -1.9272983
5.2416635 1.5959884 -1.9232472
5.2531619 1.5643336 -1.9239224
5.2554317 1.5299659 -1.9212216
5.2601938 1.4964023 -1.9195337
5.2656488 1.4630898 -1.9181833
5.2727098 1.4302599 -1.9175082
5.2832065 1.398362 -1.9181833
5.2916875 1.3659186 -1.9181833
5.2908406 1.3311263 -1.9148074
5.3126221 1.3019992 -1.9198713
5.3214264 1.2695956 -1.9202089
5.3291163 1.23692 -1.9202089
5.3393602 1.2048197 -1.9212216
5.3494105 1.1726402 -1.9222344
5.3611083 1.1407746 -1.9239224
5.3744602 1.1091903 -1.9262855
5.383934 1.0767463 -1.9272983
5.4015288 1.0458388 -1.9313493
5.4133954 1.013716 -1.9333749
5.4111772 0.97897208 -1.9303366
5.4180098 0.94591326 -1.9306742
5.4172139 0.91155732 -1.928311
0 0 -0
0 0 -0
0 0 -0
0 0 -0
0 0 -0
0 0 -0
0 0 -0
0 0 -0
0 0 -0
0 0 -0
0 0 -0
0 0 -0
0 0 -0
0 0 -0
0 0 -0
0 0 -0
0 0 -0
0 0 -0
0 0 -0
0 0 -0
0 0 -0
0 0 -0
0 0 -0
0 0 -0
0 0 -0
0 0 -0
0 0 -0
0 -0 -0
0 -0 -0
0 -0 -0
0 -0 -0
0 -0 -0
0 -0 -0
0 -0 -0
0 -0 -0
0 -0 -0
0 -0 -0
0 -0 -0
5.5389895 -0.40279099 -1.9499167
5.5420442 -0.43721378 -1.9519422
0 -0 -0
5.5353241 -0.50510478 -1.9516046
5.5293102 -0.5387857 -1.9505918
5.5249639 -0.57260585 -1.9502542
5.5166678 -0.60598201 -1.9485663
0 -0 -0
0 -0 -0
0 -0 -0
5.4842758 -0.73904943 -1.9428273
5.5141253 -0.77754682 -1.9553181
5.5222878 -0.81328535 -1.9600443
5.5134721 -0.84658301 -1.958694
5.4951606 -0.87831813 -1.9539677
5.4831681 -0.91093987 -1.9516046
5.4728374 -0.94376737 -1.9499167
5.4632368 -0.97666794 -1.9485663
5.4552903 -1.0098288 -1.9478911
5.4332747 -1.0402749 -1.9421521
5.4129381 -1.0708541 -1.9370884
5.400732 -1.1029174 -1.9350628
5.3726778 -1.1315746 -1.9272983
5.2782435 -1.1455597 -1.8952274
5.1902738 -1.1598657 -1.8655196
5.1270995 -1.1788291 -1.8449267
5.0080099 -1.1838562 -1.803741
4.9421096 -1.2003487 -1.7821354
4.8716311 -1.214939 -1.7588418
4.8212242 -1.2338428 -1.7429751
4.7753229 -1.2533687 -1.7287964
4.7375455 -1.2745783 -1.717656
4.7060413 -1.2971222 -1.7088788
4.6744399 -1.3193277 -1.7001014
4.7078562 -1.3599981 -1.7156305
4.7057419 -1.3907263 -1.7179936
4.7124381 -1.4242022 -1.7237326
4.6847234 -1.4472573 -1.7166432
4.6919131 -1.481074 -1.7227198
4.6755695 -1.5075248 -1.7200191
4.6546082 -1.5323597 -1.7156305
4.6433334 -1.5602915 -1.7149553
4.6381245 -1.5902792 -1.7166432
4.6309452 -1.6196402 -1.717656
4.6368794 -1.653715 -1.7237326
4.6124902 -1.6769903 -1.7183312
4.603879 -1.7059144 -1.7190064
4.5765924 -1.7278156 -1.7125922
4.573812 -1.7589047 -1.7156305
4.5743284 -1.7913972 -1.7200191
4.5431395 -1.8114145 -1.7122546
4.5249615 -1.8364253 -1.7095538
4.4996877 -1.8584075 -1.7041525
4.4786539 -1.8819716 -1.700439
4.4523072 -1.9031284 -1.6947
4.4439993 -1.9319122 -1.6960504
4.4535856 -1.9686561 -1.7044901
4.4251089 -1.9886161 -1.6980759
4.3982677 -2.009083 -1.6923369
4.3850036 -2.0356362 -1.6919993
4.3766875 -2.0645113 -1.6936872
4.3520532 -2.0856333 -1.688961
4.3197074 -2.1028233 -1.6811965
4.3084106 -2.1301231 -1.6818717
4.3011484 -2.1594751 -1.6842347
4.2853012 -2.1845434 -1.6832221
4.2693086 -2.2094986 -1.6822093
4.2581706 -2.2369661 -1.6832221
4.2584858 -2.2705793 -1.688961
4.2436457 -2.2962182 -1.6886234
4.2137985 -2.3136072 -1.6822093
4.2159705 -2.3485794 -1.688961
4.1924658 -2.3693104 -1.6852475
4.1778488 -2.3949902 -1.6852475
4.1663299 -2.4224722 -1.6865979
4.1432791 -2.4432101 -1.6832221
4.1306334 -2.4700358 -1.6842347
4.1033258 -2.4880149 -1.679171
4.101615 -2.5215249 -1.6849099
4.0892615 -2.5486357 -1.6862603
4.0711589 -2.572171 -1.6852475
4.0505438 -2.5940571 -1.6832221
4.0463943 -2.6265485 -1.6882858
4.0302019 -2.6513274 -1.6882858
4.0146408 -2.6765282 -1.6886234
3.9989226 -2.7016382 -1.688961
3.9799402 -2.7245293 -1.6879482
3.9662418 -2.751044 -1.6892986
3.9469764 -2.7737052 -1.6882858
3.9283493 -2.7967794 -1.6876106
3.8988988 -2.8120217 -1.6822093
3.8823311 -2.8364472 -1.6825469
3.8746908 -2.8674939 -1.6869355
3.8457248 -2.8827469 -1.6818717
3.8309631 -2.908566 -1.6832221
3.8040895 -2.925133 -1.679171
3.7920113 -2.9530456 -1.6818717
3.7686465 -2.9721775 -1.6795086
3.7540164 -2.9981825 -1.6811965
3.747992 -3.0312219 -1.6869355
3.7300506 -3.0547583 -1.687273
3.7126861 -3.0787897 -1.6879482
3.6901205 -3.0984862 -1.6862603
3.6566951 -3.1088769 -1.6795086
3.63327 -3.1275713 -1.677483
3.624656 -3.1590817 -1.6825469
3.6108508 -3.1862447 -1.6852475
2.4518597 -2.1906185 -1.137342
2.4404666 -2.2075157 -1.1383547
2.430347 -2.2256267 -1.1400427
3.506716 -3.2508643 -1.6730944
3.5011179 -3.285846 -1.6801838
3.4767957 -3.3033767 -1.6781582
3.4584966 -3.3266053 -1.679171
3.4501598 -3.3595829 -1.6852475
3.4133911 -3.3648312 -1.6771455
3.4006767 -3.3936903 -1.6811965
3.3857496 -3.4205129 -1.6842347
3.3581166 -3.4344933 -1.6808589
3.3101664 -3.4272764 -1.6670178
3.2916741 -3.4502468 -1.6683681
3.2756069 -3.4758589 -1.6710688
3.2599905 -3.5020926 -1.6741072
3.2479982 -3.5324225 -1.679171
3.2249966 -3.5508919 -1.6784958
3.1987476 -3.5657089 -1.6761327
3.1768088 -3.585269 -1.6761327
3.1491704 -3.5983193 -1.6730944
3.1270323 -3.6175747 -1.6730944
3.1176124 -3.6517262 -1.6801838
3.1006086 -3.6772628 -1.6832221
3.0767822 -3.694772 -1.6825469
3.045084 -3.7026768 -1.677483
3.0163727 -3.7139852 -1.6741072
2.9929383 -3.7316892 -1.6737696
2.9705694 -3.750721 -1.6741072
2.007998 -2.5677757 -1.1272143
1.9858756 -2.5718536 -1.1235008
1.9643496 -2.5765054 -1.1201249
1.9445401 -2.5832462 -1.1177619
1.9264067 -2.5921073 -1.1164114
1.8959856 -2.5841484 -1.1076342
1.7646723 -2.43642 -1.0370783
1.6423659 -2.2971368 -0.97091097
1.61684 -2.2910223 -0.96382165
2.7118423 -3.8926113 -1.6595908
2.6916404 -3.9146066 -1.6619539
2.6707418 -3.9357216 -1.6639795
2.6512568 -3.9590735 -1.6670178
2.6212053 -3.9666288 -1.6633043
2.5957887 -3.9810607 -1.6626291
2.5708032 -3.9961216 -1.6622915
2.5432084 -4.0070524 -1.660266
2.5105803 -4.0098171 -1.6548647
2.4785089 -4.013134 -1.6498008
2.4450223 -4.0137973 -1.6437242
2.4135606 -4.0174284 -1.6389979
2.3927038 -4.0386405 -1.6416987
2.3645537 -4.0475564 -1.6393355
2.3387341 -4.0603576 -1.6386604
2.322144 -4.0893645 -1.644737
2.3066652 -4.1207838 -1.6518263
2.2786083 -4.1299148 -1.6498008
2.2532246 -4.1438184 -1.6498008
2.2397618 -4.1799664 -1.6589156
2.1956108 -4.1586714 -1.644737
2.1717901 -4.175405 -1.6460873
2.1534274 -4.2028933 -1.6518263
2.1284468 -4.2177081 -1.6525015
2.109231 -4.244175 -1.657903
2.0806668 -4.2519646 -1.6558774
2.057807 -4.2714348 -1.658578
2.0311558 -4.2831306 -1.6582404
2.0020494 -4.2895422 -1.6558774
1.9776564 -4.3060226 -1.6575654
1.4084476 -3.1172228 -1.1849419
1.3889117 -3.1249459 -1.1846043
1.3700885 -3.1342719 -1.1849419
1.8795658 -4.3722844 -1.6649922
1.849404 -4.3759317 -1.6619539
1.8203518 -4.3819814 -1.6599284
1.796277 -4.4000401 -1.6626291
1.7646886 -4.399622 -1.6582404
1.7455977 -4.4305091 -1.666005
1.7238157 -4.4551821 -1.6714064
1.6991216 -4.4727144 -1.6741072
0 -0 -0
1.6450771 -4.4958806 -1.6751199
1.6177781 -4.5067759 -1.6754575
1.5888439 -4.5130663 -1.6741072
1.5620439 -4.5253992 -1.6751199
1.5312299 -4.5259824 -1.671744
1.5019488 -4.5308256 -1.6700561
1.472666 -4.5354795 -1.6683681
1.4442385 -4.5426364 -1.667693
1.4180169 -4.5568051 -1.6697185
1.3861908 -4.5528135 -1.6649922
1.3582292 -4.5612335 -1.6649922
1.3307427 -4.5712891 -1.6656674
1.3013806 -4.5748415 -1.6639795
1.2753019 -4.5899959 -1.6666802
1.2466213 -4.5959177 -1.666005
1.2196023 -4.6080298 -1.667693
1.1929523 -4.6218061 -1.6700561
1.1664089 -4.6363416 -1.6727568
0.72689134 -2.9667284 -1.0536201
0.715011 -2.9976847 -1.0634102
0.69852012 -3.0102675 -1.0664485
0.67879277 -3.0089877 -1.064423
0.66213179 -3.0213711 -1.0674613
0.63907307 -3.0042017 -1.0596967
0.61815339 -2.9960823 -1.055308
0.60178941 -3.0099719 -1.0590215
0.57955033 -2.9942012 -1.0519321
0.56220728 -3.003252 -1.0539577
0.54175735 -2.9955304 -1.0499066
0.52045172 -2.9821074 -1.04383
0.50417548 -2.9973118 -1.0482187
0.48216125 -2.9780488 -1.0401165
0.46605214 -2.9949024 -1.0451804
0.44599715 -2.9865341 -1.0411294
0.42712998 -2.9854875 -1.0397789
0.40969735 -2.9945803 -1.042142
0.39107126 -2.9951708 -1.041467
0.37222081 -2.9937778 -1.0401165
0.35362327 -2.9941359 -1.0394413
0.33398744 -2.985024 -1.0353904
0.31507108 -2.9814005 -1.0333648
0.29630509 -2.9785943 -1.0316769
0.2802121 -3.0037868 -1.0401165
0.2607125 -2.993259 -1.0357279
0.24401437 -3.0154431 -1.0431548
0.22628056 -3.027209 -1.0468683
0.2081534 -3.035114 -1.0492314
0.1899965 -3.0438497 -1.0519321
0.17168722 -3.0515368 -1.0542953
0.15324351 -3.0581734 -1.0563208
0.13443455 -3.0581157 -1.0559832
0.11531085 -3.0494769 -1.0526073
0.096298233 -3.0407188 -1.0492314
0.077469885 -3.0346656 -1.0468683
0.058590844 -3.0219083 -1.042142
0.039896481 -3.0109165 -1.0380911
0.021298282 -2.9941616 -1.0320145
0.0029176718 -2.9867055 -1.0293137
-0.015370637 -2.9791369 -1.026613
-0.033660494 -2.9799278 -1.0269506
-0.052009471 -2.9834299 -1.028301
-0.070490897 -2.9905829 -1.0310017
-0.089284681 -3.0051482 -1.0364031
-0.10799104 -3.0120692 -1.0391037
-0.12651008 -3.0122905 -1.0394413
-0.14593874 -3.0312018 -1.0465307
-0.16341509 -3.0095713 -1.0391037
-0.1802348 -2.9812639 -1.0293137
-0.19702555 -2.9575605 -1.0212116
-0.2155783 -2.9619288 -1.0232371
-0.23323058 -2.9539816 -1.020874
-0.25159064 -2.9553087 -1.0218868
-0.27117231 -2.9696453 -1.0276258
-0.28765541 -2.950125 -1.0212116
-0.30449107 -2.9361327 -1.0168229
-0.32167941 -2.9267237 -1.0141222
-0.34255955 -2.9499407 -1.0232371
-0.3628231 -2.9655356 -1.0296513
-0.3820917 -2.9716563 -1.0326896
-0.40144902 -2.9776516 -1.0357279
-0.42286474 -2.9975023 -1.04383
-0.44097492 -2.9929888 -1.0431548
-0.45947406 -2.9911571 -1.0434924
-0.47752181 -2.9864225 -1.0428172
-0.49599135 -2.9843647 -1.0431548
-0.51429373 -2.9812653 -1.0431548
-0.53357023 -2.9836133 -1.0451804
-0.55032593 -2.9719529 -1.042142
-0.57014358 -2.9768407 -1.0451804
-0.59478974 -3.0056057 -1.056996
-0.60889035 -2.9806874 -1.0492314
-0.62658626 -2.9741318 -1.0482187
-0.6454221 -2.972991 -1.0492314
-0.66365188 -2.9689748 -1.0492314
-0.68122417 -2.9620945 -1.0482187
-0.69635576 -2.945034 -1.0434924
-0.71685606 -2.9507678 -1.0472059
-0 -0 -0
-0.75511223 -2.9499559 -1.0502442
-0.76818186 -2.9261472 -1.0431548
-0.78783321 -2.9277415 -1.0455179
-0.80478251 -2.9192224 -1.0441676
-0.8270247 -2.9296303 -1.0499066
-0.85752082 -2.9679089 -1.0661108
-0.8773157 -2.9680076 -1.0681363
-1.2194771 -4.0348368 -1.4698663
-1.256433 -4.0668507 -1.4847202
-1.2759808 -4.0420094 -1.4783061
-1.3016244 -4.0367918 -1.4793187
-1.0112039 -3.0711341 -1.1177619
-1.0375228 -3.0871787 -1.1262015
-1.0408795 -3.0353425 -1.1089846
-1.0445718 -2.9862485 -1.0927804
-1.0682496 -2.9948554 -1.0985193
-1.0750294 -2.9563963 -1.0863662
-1.0895524 -2.9400351 -1.0826527
-1.1069068 -2.9315331 -1.0819775
-1.1285893 -2.9343505 -1.085691
-1.1530931 -2.9440241 -1.0921052
-1.1523142 -2.8896766 -1.0738754
-1.1615294 -2.8616183 -1.0657732
-1.1822994 -2.8622677 -1.0688115
-1.1863502 -2.82285 -1.0563208
-1.1947709 -2.7947438 -1.0482187
-1.2058934 -2.7735476 -1.0428172
-1.2312597 -2.7850375 -1.0502442
-1.2533402 -2.7885921 -1.0546329
-1.2704271 -2.7808495 -1.0546329
-1.2831072 -2.7636099 -1.0509194
-1.2992371 -2.7539821 -1.0502442
-1.938399 -4.0447559 -1.5667541
-1.3304634 -2.7327528 -1.0482187
-1.3497088 -2.7296009 -1.0502442
-1.3702325 -2.7288392 -1.0532825
-1.3984913 -2.7430236 -1.0623974
-1.4187564 -2.7410791 -1.065098
-1.4539318 -2.7673225 -1.0792768
-1.4744267 -2.7649944 -1.0819775
-1.4810632 -2.7368536 -1.0742129
-1.5109643 -2.7516437 -1.084003
-1.5218654 -2.7316301 -1.0796144
-1.532115 -2.7107675 -1.0748881
-1.54123 -2.6882489 -1.0694867
-1.5520189 -2.6689761 -1.0654356
-1.5545025 -2.6358879 -1.0556456
-1.574994 -2.6335711 -1.0586839
-1.5979552 -2.6351268 -1.0634102
-1.6126152 -2.6228664 -1.0623974
-1.6331588 -2.6201122 -1.0654356
-1.6431724 -2.6004922 -1.0613846
-1.667219 -2.6030445 -1.0667861
-1.6795726 -2.5872386 -1.064423
-1.6948986 -2.5760977 -1.0640854
-1.7075409 -2.56095 -1.0620598
-1.7258569 -2.5543246 -1.0637478
-1.728206 -2.5242677 -1.055308
-1.7399071 -2.5082016 -1.0529449
-1.7704166 -2.5190437 -1.0623974
-1.7738309 -2.4912624 -1.0549704
-1.7995442 -2.494838 -1.0613846
-1.7964957 -2.4586658 -1.0502442
-1.8076288 -2.4422998 -1.0478811
-1.8214513 -2.429656 -1.0472059
-1.8368943 -2.4191837 -1.0475435
-1.8499824 -2.4056284 -1.0465307
-1.8658648 -2.3957174 -1.0472059
-1.8805295 -2.3842235 -1.0472059
-1.8974729 -2.3755822 -1.0485562
-1.9060948 -2.3565753 -1.0451804
-1.9235003 -2.3484769 -1.0468683
-1.9420797 -2.3417027 -1.0492314
-1.9503592 -2.3225329 -1.0458555
-1.9578671 -2.302633 -1.042142
-1.9701169 -2.2884359 -1.0411294
-1.9816478 -2.2734659 -1.0397789
-1.9930693 -2.2584405 -1.0384287
-2.0024998 -2.2412546 -1.0360655
-2.0206337 -2.2338126 -1.0384287
-2.038116 -2.2255375 -1.0404541
-2.0504534 -2.2116094 -1.0397789
-2.0607646 -2.1955543 -1.0380911
-2.0703075 -2.1787736 -1.0360655
-2.0895095 -2.1721356 -1.0391037
-2.0988584 -2.1552272 -1.0370783
-2.1001496 -2.1302409 -1.0310017
-2.1198294 -2.1239779 -1.0343776
-2.1314843 -2.1096065 -1.0337024
-2.1443884 -2.0964882 -1.0337024
-2.1626279 -2.0885229 -1.0364031
-2.1788073 -2.0784631 -1.0380911
-2.1915193 -2.0650549 -1.0380911
-2.2131052 -2.0599074 -1.0424796
-2.2354028 -2.0552099 -1.0472059
-2.2549386 -2.0477841 -1.0505818
-2.2765691 -2.0420816 -1.0549704
-2.2876475 -2.0268257 -1.0542953
-2.3007491 -2.0133708 -1.0546329
-2.3144836 -2.000447 -1.055308
-2.3238513 -1.983763 -1.0539577
-2.3345406 -1.9682531 -1.0532825
-2.3487434 -1.9556988 -1.0542953
-2.3606992 -1.9412504 -1.0542953
-2.391562 -1.9421595 -1.0630726
-2.4129791 -1.9351056 -1.0674613
-2.4358752 -1.9290305 -1.072525
-2.4535968 -1.9186875 -1.0752257
-2.4712832 -1.9081994 -1.0779264
-2.4784544 -1.8895752 -1.0759009
-2.486994 -1.8720673 -1.0745505
-2.5007002 -1.8584569 -1.0755633
-2.5128152 -1.8436348 -1.0759009
-2.5103595 -1.8182411 -1.0698243
-2.5214689 -1.8028036 -1.0698243
-2.5332522 -1.7878411 -1.0701619
-2.5495806 -1.7760307 -1.072525
-2.5720639 -1.7683541 -1.0775888
-2.587539 -1.7557106 -1.0796144
-2.6084301 -1.7466104 -1.084003
-2.6167421 -1.7290155 -1.0829903
-2.625725 -1.7118984 -1.0823151
-2.6456788 -1.7018672 -1.0863662
-2.6497138 -1.6815658 -1.0836655
-2.6623752 -1.6667745 -1.0846782
-2.6893694 -1.6607956 -1.0917675
-2.7107632 -1.6511192 -1.0964938
-2.7200363 -1.6339704 -1.0961562
-2.7510657 -1.6297262 -1.1049335
-2.7788937 -1.6232628 -1.1123605
-2.8426325 -1.6371937 -1.1346413
-2.8346179 -1.6094936 -1.1272143
-2.8657947 -1.6040263 -1.1359916
-2.9258552 -1.6141543 -1.1565845
-2.9596846 -1.6092134 -1.1663746
-3.0275786 -1.622148 -1.1900057
-3.0807579 -1.6263971 -1.2075603
-3.1349368 -1.6304882 -1.2254524
-3.192631 -1.635692 -1.2446949
-3.2580681 -1.6440656 -1.2669758
-3.2756808 -1.6278144 -1.270014
-3.3507073 -1.6395477 -1.2960083
-3.7855422 -1.8236721 -1.4651401
-4.1138868 -1.9508789 -1.5910604
-4.0285454 -1.8802078 -1.5525753
-3.7406313 -1.7179266 -1.4344195
-3.7682569 -1.7026957 -1.4411713
-3.7614312 -1.671894 -1.4344195
-3.8268154 -1.6729187 -1.4560251
-3.8690038 -1.6631638 -1.468516
-3.9571667 -1.6723788 -1.4988989
-4.0786166 -1.6942983 -1.5421102
-4.095036 -1.6717314 -1.5444733
-4.2414989 -1.7012498 -1.5971371
-4.2527337 -1.6755376 -1.5974746
-4.3059487 -1.6660593 -1.6140164
-4.310811 -1.6376009 -1.6119909
-4.5139241 -1.6831586 -1.6859227
-4.5577569 -1.6677241 -1.6987511
-4.6175156 -1.6575403 -1.717656
-4.6755428 -1.64606 -1.7358857
-4.7166963 -1.6280925 -1.7477014
-4.7952523 -1.6223546 -1.7736956
-4.8381743 -1.6038625 -1.7861865
-4.9347644 -1.602351 -1.8189324
-5.081748 -1.6156887 -1.8705834
-5.1517825 -1.6032214 -1.8932018
-5.1957402 -1.5820018 -1.9060302
-5.2306089 -1.5576156 -1.9154826
-5.2662768 -1.533124 -1.9252727
-5.2846384 -1.5033581 -1.9286486
-5.3037391 -1.4736766 -1.9323621
-5.3199492 -1.4430777 -1.9350628
-5.3368931 -1.4125761 -1.9381011
-5.3409033 -1.3786263 -1.9364132
-5.3556514 -1.3474374 -1.9387763
-5.367475 -1.3154469 -1.9401267
-5.3937573 -1.2868581 -1.9468783
-5.3822966 -1.2492677 -1.9397891
-5.3981247 -1.2180843 -1.9428273
-5.4128523 -1.1865522 -1.945528
-5.4191103 -1.1531212 -1.9451904
-5.4408336 -1.1228937 -1.9505918
-5.4300838 -1.0859796 -1.9441776
-5.4347968 -1.0522827 -1.9435025
-5.4291239 -1.0166625 -1.9391139
-5.451932 -0.98634839 -1.9451904
-5.4569545 -0.95271546 -1.9448528
-5.4645538 -0.91952682 -1.945528
-5.4812431 -0.88778645 -1.9495791
-5.4949579 -0.85544121 -1.9526174
-0 -0 -0
-0 -0 -0
-0 -0 -0
-0 -0 -0
-0 -0 -0
-0 -0 -0
-0 -0 -0
-0 -0 -0
-0 -0 -0
-0 -0 -0
-0 -0 -0
-0 -0 -0
-0 -0 -0
-0 -0 -0
-0 -0 -0
-0 -0 -0
-0 -0 -0
-0 -0 -0
-0 -0 -0
-0 -0 -0
-0 0 -0
-0 0 -0
-0 0 -0
-0 0 -0
-0 0 -0
-0 0 -0
-0 0 -0
-0 0 -0
-0 0 -0
-0 0 -0
-0 0 -0
-0 0 -0
-0 0 -0
-0 0 -0
-0 0 -0
-0 0 -0
-0 0 -0
-0 0 -0
-0 0 -0
-0 0 -0
-0 0 -0
-0 0 -0
-5.218926 1.0999902 -1.9372762
-5.1928396 1.1278096 -1.9299699
-5.1730132 1.1567839 -1.9250991
-5.1575956 1.1866095 -1.9219679
-5.1483932 1.2178016 -1.921272
-5.1426458 1.2498118 -1.9219679
-5.1348801 1.281343 -1.9219679
-5.1232886 1.3118948 -1.9205762
-5.1151423 1.3433061 -1.9205762
-5.1095195 1.3753983 -1.9216199
-5.1009841 1.4067239 -1.9216199
-5.08955 1.4372315 -1.9205762
-5.0779338 1.4676518 -1.9195324
-5.0688329 1.4987818 -1.9195324
-5.0676169 1.5322993 -1.9226637
-5.0554328 1.5625336 -1.9216199
-5.0430684 1.5926762 -1.9205762
-5.0358772 1.6244539 -1.9216199
-5.0204725 1.6535619 -1.9195324
-5.012898 1.6852326 -1.9205762
-4.9918222 1.7123069 -1.9164011
-4.9838762 1.7438333 -1.9174449
-4.9748483 1.7750115 -1.9181408
-4.9647446 1.8058238 -1.9184886
-4.9553289 1.8369051 -1.9191844
-4.9579959 1.8725789 -1.9247512
-4.9525375 1.9053231 -1.9271866
-4.9407535 1.9356754 -1.9271866
-4.9253001 1.9645648 -1.925795
-4.907073 1.9922788 -1.9233595
-4.8886914 2.0198431 -1.9209241
-4.8701568 2.0472572 -1.9184886
-4.8531938 2.0752573 -1.9167491
-4.8291931 2.1001339 -1.9122262
-4.8239322 2.1331398 -1.9153574
-4.8107524 2.1626987 -1.9153574
-4.7914233 2.1894474 -1.912922
-4.7855511 2.2223613 -1.9160533
-4.810823 2.2700956 -1.9320575
-4.7587643 2.2813256 -1.9164011
-4.7193928 2.2981625 -1.9059637
-4.7152858 2.3320665 -1.9101386
-4.6824584 2.3516941 -1.9024844
-4.6662703 2.3795288 -1.9017886
-4.6640687 2.4145837 -1.9070073
-4.6873369 2.4632263 -1.9230115
-4.6713076 2.4914997 -1.9226637
-4.6493368 2.5165436 -1.9198804
-4.6346297 2.5454755 -1.9202282
-4.5992713 2.5629084 -1.9118782
-4.5875392 2.5933886 -1.9136178
-4.5682874 2.619622 -1.9122262
-4.5521274 2.6476033 -1.9122262
-4.5293374 2.6716728 -1.9094428
-4.5120544 2.6989324 -1.9090949
-4.4922032 2.7246218 -1.9077032
-4.4754004 2.7521341 -1.9077032
-4.4639978 2.783016 -1.9101386
-4.4492149 2.8118572 -1.9111824
-4.4318776 2.8391042 -1.9111824
-4.4159465 2.8672657 -1.9118782
-4.3990531 2.8948228 -1.9122262
-4.3835478 2.9233215 -1.9132699
-4.3701878 2.9533141 -1.9153574
-4.3457971 2.9758346 -1.9125741
-4.3366976 3.0088592 -1.9167491
-4.3112521 3.0305581 -1.9136178
-4.2902856 3.0553224 -1.9125741
-4.2722178 3.0821381 -1.912922
-4.2577667 3.111614 -1.9150095
-4.2378407 3.1371226 -1.9146615
-4.2155118 3.1608162 -1.9132699
-4.2005172 3.1900256 -1.9153574
-4.1778922 3.2134523 -1.9139657
-4.1610541 3.2413323 -1.9153574
-4.1388798 3.2650604 -1.9143137
-4.1275558 3.2974186 -1.9184886
-4.1014156 3.3179643 -1.9157053
-4.0795298 3.3418791 -1.9150095
-4.0582261 3.3662491 -1.9146615
-4.0439544 3.3965147 -1.9177928
-4.0108991 3.4109361 -1.9118782
-3.9906046 3.436094 -1.9122262
-3.9652066 3.4568179 -1.9101386
-3.9467325 3.4835651 -1.9115303
-3.9231865 3.5058417 -1.9104866
-3.9009061 3.5292189 -1.9101386
-3.8812516 3.5549881 -1.9111824
-3.8579907 3.5774608 -1.9104866
-3.835284 3.6004238 -1.9101386
-3.8110816 3.6219509 -1.9090949
-3.7887859 3.645267 -1.9090949
-3.7663476 3.6684461 -1.9090949
-3.74577 3.6934621 -1.9101386
-3.7270172 3.720351 -1.9122262
-3.708075 3.7471488 -1.9143137
-3.687634 3.7725129 -1.9157053
-3.6598594 3.7903466 -1.9132699
-3.632005 3.8079817 -1.9108344
-3.601501 3.8226881 -1.9070073
-3.5798934 3.8467739 -1.9080511
-3.5505137 3.8624539 -1.9049199
-3.5280073 3.8855553 -1.9056157
-3.5053513 3.9085257 -1.9063115
-3.4825461 3.9313645 -1.9070073
-3.4565065 3.9505417 -1.9059637
-3.4315884 3.9709666 -1.9056157
-3.4077671 3.992661 -1.9059637
-3.3838084 4.0142126 -1.9063115
-3.3579147 4.0334582 -1.9056157
-3.3342931 4.0554347 -1.9063115
-3.3105283 4.0772729 -1.9070073
-3.2854483 4.0975094 -1.9070073
-3.2614081 4.1190615 -1.9077032
-3.2401137 4.1441665 -1.9101386
-3.2117608 4.1602583 -1.9083991
-3.1850371 4.1783957 -1.9077032
-3.1599026 4.1986094 -1.9080511
-3.12905 4.2111454 -1.9049199
-3.0992715 4.2249727 -1.9024844
-3.0787864 4.2515049 -1.9059637
-3.0510066 4.2680273 -1.9049199
-3.026382 4.2889662 -1.9059637
-2.9866173 4.288219 -1.8972657
-2.9687438 4.3188272 -1.9028324
-2.942188 4.3369617 -1.9028324
-2.9176071 4.3580494 -1.904224
-2.8908117 4.3758698 -1.904224
-2.8659546 4.396667 -1.9056157
-2.8439927 4.4220557 -1.9090949
-2.8168061 4.4394231 -1.9090949
-2.7905078 4.4582124 -1.9097908
-2.7640848 4.4768467 -1.9104866
-2.7346134 4.490519 -1.9090949
-2.7055612 4.5048022 -1.9080511
-2.6783469 4.5221252 -1.9083991
-2.6510217 4.5392838 -1.908747
-2.6235871 4.5562773 -1.9090949
-2.5932677 4.5682125 -1.9073553
-2.5642734 4.5824018 -1.9066595
-2.5356555 4.5972285 -1.9063115
-2.5020289 4.6028152 -1.9021366
-2.4741819 4.618907 -1.9024844
-2.4440446 4.6306849 -1.9010928
-2.4207733 4.6555767 -1.9052678
-2.3921616 4.6703424 -1.9052678
-2.3592389 4.6765614 -1.9017886
-2.3309166 4.6917892 -1.9021366
-2.2987902 4.699265 -1.8993531
-2.2690995 4.7115922 -1.8986573
-2.2381399 4.72119 -1.8969178
-2.2087328 4.7339845 -1.8965698
-2.1784713 4.7448916 -1.8955261
-2.1504734 4.7607327 -1.8965698
-2.1235046 4.7789788 -1.8986573
-2.0952671 4.7944961 -1.8997011
-2.0676589 4.8115692 -1.9014407
-2.0362735 4.8198471 -1.8997011
-2.0066612 4.8322506 -1.8997011
-1.9744949 4.8383956 -1.8972657
-1.9451187 4.8512902 -1.8976136
-1.915315 4.8631339 -1.8976136
-1.8901714 4.8870373 -1.9024844
-1.8618127 4.9029255 -1.904224
-1.8313665 4.9133787 -1.9038761
-1.8021498 4.927165 -1.9049199
-1.7690353 4.9301872 -1.9017886
-1.7247552 4.9011497 -1.8861324
-1.702595 4.9346848 -1.8951782
-1.6734849 4.9485917 -1.8965698
-1.6410266 4.9525366 -1.8941344
-1.607426 4.952703 -1.8903073
-1.5781416 4.9660468 -1.891699
-1.545693 4.9693694 -1.8892636
-1.5151724 4.9787602 -1.8892636
-1.4856638 4.9915581 -1.8906553
-1.4578872 5.0104828 -1.8944824
-1.429678 5.0283523 -1.8979615
-1.4025576 5.0505805 -1.9031802
-1.3695805 5.0518522 -1.9003969
-1.3385571 5.0601606 -1.9003969
-1.3049095 5.0582924 -1.8965698
-1.2717921 5.0580206 -1.8934386
-1.2414012 5.0684609 -1.8944824
-1.2096267 5.0732465 -1.8934386
-1.1786866 5.0814862 -1.8937865
-1.1487212 5.0941105 -1.895874
-1.1192465 5.1093059 -1.8990053
-1.0886545 5.1197453 -1.9003969
-1.0568415 5.1244926 -1.8997011
-1.0253783 5.1308808 -1.8997011
-0.99174196 5.1260295 -1.8955261
-0.95854831 5.1228027 -1.8920469
-0.92626446 5.1239748 -1.8903073
-0.89480692 5.1295619 -1.8903073
-0.86191857 5.1266346 -1.887176
-0.82939899 5.1253481 -1.8847407
-0.79980522 5.1423841 -1.8892636
-0.76878989 5.1509037 -1.8906553
-0.73862755 5.1657333 -1.8944824
-0.70679045 5.169239 -1.8941344
-0.67687577 5.1874237 -1.8993531
-0.6450336 5.1914792 -1.8993531
-0.61283809 5.1925464 -1.8983095
-0.58034194 5.1906185 -1.896222
-0.54966092 5.2052698 -1.9003969
-0.51724905 5.2038798 -1.8986573
-0.48548248 5.2088227 -1.8993531
-0.45326939 5.2089014 -1.8983095
-0.421601 5.2153225 -1.8997011
-0.38938364 5.2150064 -1.8986573
-0.35737762 5.2172976 -1.8986573
-0.32535815 5.2193923 -1.8986573
-0.29327407 5.2203541 -1.8983095
-0.26151687 5.2276735 -1.9003969
-0.22955821 5.2319899 -1.9014407
-0.19699417 5.2211204 -1.8969178
-0.16492487 5.2212939 -1.8965698
-0.13286087 5.2212701 -1.896222
-0.10078547 5.2201123 -1.8955261
-0.068680733 5.2150078 -1.8934386
-0.036642436 5.2097063 -1.8913511
-0.0046762237 5.2107706 -1.891699
0.027270958 5.2060137 -1.8899595
0.059192203 5.2038732 -1.8892636
0.091187946 5.2071614 -1.8906553
0.12329339 5.2130647 -1.8930907
0.15544659 5.217833 -1.8951782
0.18729031 5.2120962 -1.8934386
0.21922798 5.2099123 -1.8930907
0.25096443 5.2037868 -1.8913511
0.2826851 5.1984048 -1.8899595
0.31446287 5.1947007 -1.8892636
0.34651881 5.1954794 -1.8903073
0.37845948 5.1941905 -1.8906553
0.41091591 5.1992474 -1.8934386
0.44360819 5.2059693 -1.8969178
0.47597075 5.2078176 -1.8986573
0.50718629 5.1973343 -1.895874
0.53790313 5.1829348 -1.891699
0.57082468 5.1897874 -1.8955261
0.60211575 5.181531 -1.8937865
0.63332701 5.1730862 -1.8920469
0.66481686 5.167243 -1.8913511
0.69726324 5.1686411 -1.8934386
0.72830808 5.1596241 -1.891699
0.76022708 5.1569128 -1.8923949
0.79285336 5.1586375 -1.8948302
0.82419461 5.151824 -1.8941344
0.85455823 5.1392717 -1.8913511
0.88607615 5.1339312 -1.8913511
0.91673404 5.1237836 -1.8896115
0.94832671 5.1189842 -1.8899595
0.97830528 5.1057029 -1.887176
1.0105263 5.1042023 -1.8889157
1.0416381 5.0969872 -1.8885678
1.0730866 5.0914173 -1.8889157
1.1047051 5.0865693 -1.8896115
1.1367141 5.0833545 -1.8910031
1.1678835 5.0762844 -1.8910031
1.2000891 5.0735841 -1.8927428
1.2316407 5.0679469 -1.8934386
1.2633953 5.0630231 -1.8944824
1.2937394 5.0524511 -1.8934386
1.3247163 5.0444179 -1.8934386
1.3556434 5.0361948 -1.8934386
1.3875171 5.0313969 -1.8948302
1.4181081 5.0218863 -1.8944824
1.4488951 5.0130901 -1.8944824
1.4793615 5.0032067 -1.8941344
1.5092181 4.9913435 -1.8930907
1.5378767 4.9757195 -1.8906553
1.5672481 4.9626136 -1.8892636
1.5968046 4.9502273 -1.8882198
1.6265615 4.9385552 -1.887524
1.6571323 4.9293709 -1.8878719
1.6882603 4.9217701 -1.8889157
1.719977 4.9157429 -1.8906553
1.752629 4.9121599 -1.8934386
1.7856225 4.9092426 -1.8965698
1.8157114 4.8981938 -1.8965698
1.8477206 4.8922224 -1.8986573
1.8770303 4.8790431 -1.8979615
1.904537 4.8613238 -1.8955261
1.933287 4.8469343 -1.8944824
1.9601679 4.828032 -1.891699
1.9904716 4.8176465 -1.8923949
2.0189042 4.8027501 -1.8913511
2.0475976 4.788548 -1.8906553
2.0773153 4.7767534 -1.8910031
2.1092412 4.7699189 -1.8934386
2.1407766 4.7620173 -1.8955261
2.1711252 4.7513499 -1.8965698
2.200238 4.7379389 -1.8965698
2.2336709 4.7336745 -1.9003969
2.2602415 4.714808 -1.8983095
2.2920029 4.7067504 -1.9007449
2.3179293 4.6867166 -1.8983095
2.3449588 4.669055 -1.8969178
2.371433 4.650403 -1.8951782
2.3969042 4.6299372 -1.8927428
2.4274495 4.6192923 -1.8944824
2.4561887 4.6051378 -1.8948302
2.4839525 4.5891557 -1.8944824
2.517031 4.5828662 -1.8983095
2.5432773 4.5640602 -1.8969178
2.5707724 4.5475531 -1.8965698
2.6014266 4.5365725 -1.8986573
2.6249697 4.5132322 -1.8955261
2.6511834 4.4946189 -1.8944824
2.6787119 4.4782667 -1.8944824
2.7075989 4.4641509 -1.8955261
2.7310092 4.4410653 -1.8927428
2.7582076 4.4242244 -1.8927428
2.7843001 4.405632 -1.8920469
2.8107743 4.3876758 -1.891699
2.838665 4.3719192 -1.8923949
2.8680151 4.3583341 -1.8941344
2.8941829 4.3398747 -1.8937865
2.9123557 4.309608 -1.8882198
2.9482815 4.3055787 -1.8944824
2.9735754 4.2858667 -1.8937865
2.9987383 4.2660069 -1.8930907
3.0248578 4.2475266 -1.8930907
3.0464735 4.222805 -1.8903073
3.0756469 4.2085738 -1.8923949
3.0986226 4.1858554 -1.8906553
3.1236854 4.1660142 -1.8903073
3.1486216 4.1460223 -1.8899595
3.1711433 4.12291 -1.8882198
3.2004154 4.108551 -1.8906553
3.2238221 4.0866284 -1.8896115
3.2523484 4.0711646 -1.891699
3.2796266 4.0540466 -1.8930907
3.3085999 4.0389228 -1.8955261
3.3327215 4.0178242 -1.8951782
3.3585179 3.998735 -1.895874
3.3842053 3.9794803 -1.8965698
3.4085593 3.9586403 -1.8965698
3.4346335 3.9397709 -1.8976136
3.4587429 3.9186223 -1.8976136
3.4808474 3.8952293 -1.8965698
3.5046825 3.8737979 -1.8965698
3.5309193 3.8549855 -1.8979615
3.5564194 3.8353095 -1.8990053
3.5830946 3.8168325 -1.9007449
3.6038628 3.7920573 -1.8993531
3.6277127 3.7705486 -1.8997011
3.6527431 3.7502327 -1.9007449
3.670418 3.72241 -1.8979615
3.6951766 3.7018087 -1.8990053
3.7191541 3.6803844 -1.8997011
3.7396548 3.6555293 -1.8986573
3.7599905 3.6305611 -1.8976136
3.7801607 3.6054811 -1.8965698
3.8028948 3.5828614 -1.8969178
3.8282397 3.5626526 -1.8986573
3.8472662 3.5365586 -1.8972657
3.8765302 3.5198164 -1.9010928
3.9078276 3.5047255 -1.9059637
3.9124126 3.4657652 -1.8976136
3.9314876 3.4398425 -1.8965698
3.9518106 3.4150417 -1.896222
3.9798226 3.3968143 -1.8997011
3.9962885 3.368706 -1.8976136
4.0240898 3.3501186 -1.9010928
4.0474672 3.3277454 -1.9024844
4.0707216 3.3052111 -1.9038761
4.0931201 3.2819302 -1.9049199
4.1168561 3.2596626 -1.9066595
4.1397343 3.23665 -1.9080511
4.1610007 3.2123337 -1.908747
4.1821241 3.1878781 -1.9094428
4.2053523 3.1649749 -1.9111824
4.2216821 3.1368759 -1.9097908
4.2310214 3.1037064 -1.9052678
4.2423911 3.0721898 -1.9017886
4.2611618 3.0461011 -1.9017886
4.2820706 3.0215189 -1.9028324
4.3043771 2.9978659 -1.904572
4.3427811 2.9852021 -1.9136178
4.368 2.9632344 -1.9167491
4.3759704 2.929599 -1.9122262
4.3977757 2.9052763 -1.9139657
4.4068785 2.8726077 -1.9101386
4.4228444 2.8444998 -1.9094428
4.4449649 2.8203208 -1.9115303
4.4176779 2.7651484 -1.8920469
4.4377527 2.7399592 -1.8934386
4.4680953 2.7209649 -1.8993531
4.5023909 2.7041135 -1.9070073
4.5245457 2.6797795 -1.9094428
4.5425224 2.6529124 -1.9101386
4.5587149 2.62499 -1.9101386
4.5804439 2.6002073 -1.9125741
4.6012216 2.5747993 -1.9146615
4.6177545 2.5469708 -1.9150095
4.6332955 2.518589 -1.9150095
4.6445293 2.4878995 -1.9132699
4.6597075 2.4593544 -1.9132699
4.6747103 2.4307168 -1.9132699
4.6870332 2.4007058 -1.9122262
4.7008381 2.3714795 -1.9118782
4.7186599 2.3442588 -1.9132699
4.7354817 2.3164968 -1.9143137
4.7487617 2.2869904 -1.9139657
4.7635522 2.2582109 -1.9143137
4.7773185 2.2289398 -1.9143137
4.7926092 2.2003667 -1.9150095
4.8051658 2.1705325 -1.9146615
4.8235345 2.1432908 -1.9167491
4.83144 2.1114023 -1.9146615
4.8486114 2.0835671 -1.9164011
4.8535314 2.0504954 -1.9132699
4.8738151 2.0239105 -1.9164011
4.8887458 1.9950293 -1.9174449
4.9078574 1.9677846 -1.9202282
4.9224563 1.9386636 -1.921272
4.9351335 1.9087615 -1.9216199
4.9441228 1.8774463 -1.9205762
4.9608207 1.8490379 -1.9226637
4.9685507 1.8172766 -1.921272
4.9690175 1.7829586 -1.917097
4.9807487 1.7527468 -1.9174449
4.995841 1.7236805 -1.9191844
5.0036588 1.6920936 -1.9181408
5.0246272 1.6648961 -1.9223157
5.0436664 1.6369265 -1.925795
5.0562959 1.6067996 -1.9268386
5.060688 1.574075 -1.9247512
5.075633 1.5446301 -1.9268386
5.0832181 1.512923 -1.9261428
5.0960064 1.4827514 -1.9275346
5.1086159 1.4524797 -1.9289262
5.120142 1.4218585 -1.9299699
5.120626 1.3882091 -1.9268386
5.1335793 1.3579612 -1.9285783
5.1372757 1.3252666 -1.9268386
5.1407642 1.2925779 -1.9250991
5.1449561 1.2601191 -1.9237075
5.1480312 1.2274404 -1.9219679
5.1536388 1.1954062 -1.921272
5.1544747 1.1623193 -1.9188366
5.158762 1.1300689 -1.9177928
5.1784377 1.1011212 -1.9226637
5.1823416 1.0687587 -1.9216199
5.1860437 1.0363897 -1.9205762
5.2107153 1.0081068 -1.9275346
5.2287831 0.97835451 -1.9320575
5.2411461 0.94741887 -1.9344928
5.2477841 0.91540283 -1.9348408
5.2449813 0.88178873 -1.9317095
5.2465906 0.84899127 -1.9303179
5.2591128 0.81793386 -1.9331012
5.2668142 0.78606367 -1.934145
5.2724667 0.75386482 -1.9344928
