# .PCD v0.7 - Point Cloud Data file format
VERSION 0.7
FIELDS x y z
SIZE 4 4 4
TYPE F F F
COUNT 1 1 1
WIDTH 1517
HEIGHT 1
VIEWPOINT 0 0 0 1 0 0 0
POINTS 1517
DATA ascii
-3.4014106 -3.0491979 -0.69867969
-3.3697996 -2.983763 -0.68784297
-3.4006765 -2.9740794 -0.69055212
-3.4158728 -2.9505758 -0.6899147
-4.8074646 -4.101584 -0.98139197
-3.7560496 -3.1648161 -0.75413847
-3.8300309 -3.1871803 -0.76561272
-4.9286685 -4.0506382 -0.99111319
-4.8729491 -3.9549916 -0.97437996
-4.890192 -3.9194601 -0.97294569
-4.8986683 -3.8771262 -0.96975839
-4.9278102 -3.8512514 -0.97087395
-5.0373158 -3.8872921 -0.98840404
-5.0971928 -3.8838356 -0.99573475
-5.0128527 -3.7711713 -0.97390187
-5.1143546 -3.7986224 -0.98967892
-5.2561841 -3.8541586 -1.0134242
-5.2125626 -3.7732053 -1.0000377
-5.2010789 -3.7164686 -0.99318492
-5.2415323 -3.6970048 -0.99669099
-5.0745363 -3.5327733 -0.9593997
-5.2913871 -3.6357594 -0.99764717
-5.3634357 -3.6370249 -1.0073683
-5.2502809 -3.5134461 -0.98107326
-5.2577362 -3.471916 -0.97836405
-5.2458563 -3.4180303 -0.97198951
-5.3315005 -3.4274223 -0.98441988
-5.3382587 -3.3856549 -0.98171073
-5.4275565 -3.3957772 -0.99477857
-5.3021164 -3.2721868 -0.96704918
-5.5506139 -3.3787131 -1.010237
-5.5526204 -3.3334117 -1.0067309
-5.4098687 -3.2027073 -0.97613299
-5.3936114 -3.1485472 -0.96943969
-5.3306923 -3.0681119 -0.95414066
-5.3657308 -3.0446036 -0.95716864
-5.39465 -3.0174065 -0.95908099
-5.7493572 -3.1696777 -1.0210737
-5.4026475 -2.9354234 -0.95382196
-5.645093 -3.0224557 -0.99493796
-5.6687708 -2.9905252 -0.99589413
-5.6502242 -2.9365625 -0.98920083
-5.5732336 -2.8532448 -0.97198951
-5.519237 -2.7829866 -0.95908099
-5.5813022 -2.7714641 -0.96720856
-5.6602826 -2.7675238 -0.97836405
-5.6015496 -2.6963406 -0.96481812
-5.7919507 -2.74436 -0.99589413
-5.7791562 -2.694999 -0.9906351
-5.7229075 -2.6261327 -0.97772664
-5.7659059 -2.6031568 -0.98250753
-5.7754545 -2.5649235 -0.98139197
-5.8987384 -2.5764675 -1.0003563
-5.9706745 -2.5643833 -1.010237
-5.9981198 -2.5326927 -1.0123087
-6.0108118 -2.4947057 -1.0118306
-6.0333185 -2.4607601 -1.0131055
-5.9383407 -2.3796215 -0.99398178
-6.1347122 -2.4147449 -1.0255359
-5.9569664 -2.3026538 -0.99222875
-5.9469862 -2.2569501 -0.98808527
-6.1105881 -2.2762547 -1.0139023
-6.1235127 -2.238379 -1.0137429
-6.0906692 -2.184099 -1.0057747
-6.198947 -2.1801 -1.0220299
-6.2420721 -2.1523225 -1.0271295
-5.9689794 -2.0172448 -0.97836405
-6.2464595 -2.0684218 -1.0234642
-6.374536 -2.0675251 -1.043066
-6.40592 -2.0343499 -1.0462532
-6.3277817 -1.9668695 -1.0309542
-6.3841219 -1.9415088 -1.0384444
-6.4110546 -1.906804 -1.0409943
-6.4662395 -1.8801121 -1.0483249
-6.6153488 -1.8795305 -1.0714328
-6.536387 -1.8138213 -1.0562932
-6.5950365 -1.7865901 -1.0642614
-6.685092 -1.7670341 -1.0774887
-6.8325105 -1.761228 -1.1002778
-6.8996778 -1.7334671 -1.1096803
-7.2045693 -1.7631599 -1.1586051
-7.3765879 -1.7573651 -1.1853783
-8.1354485 -1.8855188 -1.3093637
-8.1584215 -1.8381696 -1.3112761
-8.2679129 -1.8096105 -1.3275312
-9.03304 -1.919108 -1.4519948
-9.0040359 -1.8552768 -1.4453014
-9.5738459 -1.9115492 -1.5372547
-10.012843 -1.9354093 -1.6075343
-10.479649 -1.9590313 -1.6822762
-10.611938 -1.9164525 -1.7020373
-10.83357 -1.8879191 -1.7364601
-11.029929 -1.8524843 -1.7667392
-11.56248 -1.8690722 -1.8519992
-12.076119 -1.8761594 -1.9340718
-12.068851 -1.79926 -1.9310439
-12.10312 -1.7285236 -1.9348686
-12.058722 -1.6467458 -1.9259442
-12.102862 -1.5771899 -1.931522
-12.077043 -1.4985211 -1.9257848
-12.099736 -1.4260076 -1.9280159
-12.094522 -1.3502043 -1.9257848
-12.098653 -1.2755542 -1.9251474
-12.110181 -1.2016844 -1.9257848
-12.100616 -1.1257998 -1.9230757
-12.084675 -1.0495652 -1.9194102
-12.109584 -0.97690415 -1.9224381
-12.121257 -0.903023 -1.9233943
-12.130509 -0.82890069 -1.9240319
-12.140294 -0.75476015 -1.9248286
-12.141739 -0.68008876 -1.9243506
-12.127935 -0.60469019 -1.921482
-12.146212 -0.53091031 -1.9238725
-12.122604 -0.45537114 -1.9195696
-12.132077 -0.38119692 -1.9206852
-11.220551 0.82479125 -1.9206111
-11.213316 0.89346707 -1.9202679
-11.192899 0.96098822 -1.9176942
-11.245653 1.0350722 -1.9279894
-11.178303 1.0980772 -1.917351
-11.220346 1.1717666 -1.9259303
-11.173778 1.2362537 -1.9190669
-11.136627 1.3013582 -1.9139193
-11.133321 1.3702689 -1.9147773
-11.100278 1.4353949 -1.9104877
-11.100048 1.5046698 -1.9120319
-11.103287 1.5745496 -1.9142625
-11.078798 1.6404824 -1.9116887
-11.08897 1.7115878 -1.915292
-11.068532 1.7780327 -1.9135761
-11.031178 1.8415318 -1.9089434
-11.029378 1.9108659 -1.9106592
-11.047504 1.9839061 -1.9159783
-11.002192 2.0455289 -1.9101444
-10.972988 2.1098347 -1.9072275
-10.969499 2.1790445 -1.9089434
-10.946271 2.2443311 -1.9072275
-10.896632 2.30391 -1.9008789
-10.889029 2.3721957 -1.9020799
-10.856004 2.4348664 -1.8988198
-10.819741 2.4965568 -1.8950449
-10.834892 2.5701778 -1.9005357
-10.822746 2.6375446 -1.901222
-10.80158 2.7027059 -1.900364
-10.790519 2.7704029 -1.9013937
-10.775222 2.8370619 -1.9017367
-10.758563 2.9033809 -1.9019084
-10.720605 2.9638245 -1.8983051
-10.750561 3.0432394 -1.907056
-10.719384 3.105581 -1.9048253
-10.695404 3.1698952 -1.9039674
-10.654069 3.2288871 -1.900021
-10.628409 3.2924488 -1.8989915
-10.585466 3.3504643 -1.8948734
-10.587206 3.4226279 -1.8989915
-10.584716 3.4937029 -1.9024231
-10.561213 3.5579545 -1.9020799
-10.519618 3.6159627 -1.8984767
-10.477711 3.6735947 -1.8948734
-10.454044 3.737484 -1.8947018
-10.454055 3.8099942 -1.8989915
-10.398158 3.8620586 -1.8929859
-10.372422 3.9250903 -1.8926427
-10.36285 3.9943309 -1.8953881
-10.326225 4.0531602 -1.8931575
-10.322202 4.124855 -1.897104
-10.30126 4.1899695 -1.8979619
-10.277178 4.2538519 -1.8983051
-10.258146 4.319891 -1.8996778
-10.206997 4.3722763 -1.8950449
-10.19804 4.4426937 -1.8984767
-10.153475 4.4976015 -1.8952166
-10.133771 4.5634589 -1.8967608
-10.119016 4.6317043 -1.8993345
-10.046638 4.6733418 -1.890927
-10.055181 4.752584 -1.8981335
-9.9983006 4.8009691 -1.8928144
-9.9500608 4.8531561 -1.8892111
-9.9527569 4.9303007 -1.8955597
-9.8835955 4.9717932 -1.8880099
-9.8616762 5.0368266 -1.8897258
-9.7973528 5.0800056 -1.8832055
-9.7816896 5.1482863 -1.8862941
-9.7603426 5.2137799 -1.8883531
-9.7108469 5.2641783 -1.8849214
-9.6438379 5.3046679 -1.8780581
-9.6171293 5.3671026 -1.8792591
-9.5908737 5.4298949 -1.8806318
-9.572753 5.4974742 -1.8837203
-9.5209646 5.5456929 -1.8801171
-9.4816694 5.6010013 -1.8790876
-9.4268417 5.6469221 -1.8749695
-9.4576883 5.7445564 -1.8883531
-9.3811607 5.7771626 -1.8799455
-9.3789606 5.8554878 -1.8868089
-9.3536768 5.9197764 -1.8890395
-9.3213234 5.9797182 -1.8898973
-9.2481184 6.0131669 -1.8823477
-9.2398386 6.0887752 -1.8883531
-9.1916542 6.1382413 -1.8861226
-9.1472912 6.1901073 -1.8847499
-9.1318855 6.2617192 -1.8895543
-9.0843935 6.3114495 -1.8876668
-9.0656347 6.3812504 -1.8919564
-9.0295172 6.439044 -1.8926427
-8.9650841 6.4764404 -1.8873236
-8.9506159 6.5499473 -1.8928144
-8.9332075 6.6217594 -1.8977903
-8.8924093 6.6764479 -1.8977903
-8.8802881 6.7529521 -1.9041389
-8.8176136 6.791081 -1.8995062
-8.7897596 6.8559647 -1.9025947
-8.7846317 6.9390841 -1.9108309
-8.7326584 6.9854693 -1.9087718
-8.7179537 7.0618672 -1.9151205
-8.6561794 7.1002297 -1.9110024
-8.598052 7.1412482 -1.9077423
-8.5887527 7.2230425 -1.9156352
-8.5165205 7.2519712 -1.9092865
-8.4748478 7.3066645 -1.9099729
-8.4320812 7.3604712 -1.9104877
-8.3712587 7.3983688 -1.9068843
-8.3469954 7.4686475 -1.9118603
-8.2929802 7.5124469 -1.9099729
-8.2786722 7.5924921 -1.9175227
-8.2362614 7.6471686 -1.9185522
-8.171958 7.681366 -1.9144341
-8.1318083 7.7381558 -1.91615
-8.0742426 7.778336 -1.9137478
-8.0609198 7.8614397 -1.9221554
-8.0391684 7.937057 -1.9286757
-8.0056438 8.0015583 -1.9324505
-7.9557042 8.0498285 -1.932279
-7.9047852 8.0970821 -1.9319358
-7.8665781 8.1574898 -1.9348527
-7.8218122 8.2113113 -1.9362254
-7.7854567 8.2742195 -1.9398288
-7.7318583 8.3189478 -1.9391423
-7.6999874 8.3872805 -1.9441184
-7.6397772 8.424881 -1.9418877
-7.5958257 8.4804058 -1.9439467
-7.5462589 8.5298052 -1.9446331
-7.4970198 8.5796576 -1.945491
-7.4474525 8.6292257 -1.9463489
-7.3969207 8.6777592 -1.9470353
-7.3492451 8.7297659 -1.9485795
-7.2999506 8.7799988 -1.9497807
-7.2621927 8.8444233 -1.9542419
-7.1953793 8.8735113 -1.9508102
-7.1432595 8.9205704 -1.9514965
-7.0877786 8.96346 -1.9513249
-7.047802 9.0261955 -1.9556146
-7.0055175 9.0864353 -1.9593894
-6.9585824 9.1410084 -1.9619632
-6.9047303 9.1866837 -1.9626496
-6.8541017 9.2367897 -1.9643654
-6.7967148 9.2778769 -1.9641938
-6.7471628 9.3297844 -1.9664245
-6.6995187 9.3846407 -1.9693414
-6.6259227 9.4030209 -1.964537
-6.5681019 9.4435005 -1.964537
-6.5167236 9.493371 -1.966596
-6.4450917 9.5136013 -1.9624779
-6.3865957 9.552969 -1.9624779
-6.3582354 9.638031 -1.9720867
-6.3038139 9.6842937 -1.973631
-6.2485318 9.7294235 -1.9750037
-6.1934605 9.7750702 -1.976548
-6.1359754 9.8170662 -1.9774059
-6.0761404 9.8553696 -1.9775774
-6.0165782 9.8941507 -1.9779207
-5.9618349 9.94102 -1.9799796
-5.9042358 9.9833508 -1.9811808
-5.8403869 10.015135 -1.9803228
-5.7729335 10.040533 -1.9782637
-5.7092743 10.072337 -1.9775774
-5.6516881 10.11492 -1.9791217
-5.5947447 10.1589 -1.9810091
-5.5355945 10.1991 -1.9822103
-5.4724455 10.232004 -1.9820386
-5.4187441 10.282823 -1.9854704
-5.3528247 10.310631 -1.9844408
-5.2724171 10.309949 -1.9779207
-5.2148175 10.353544 -1.9801512
-5.1533794 10.38976 -1.9810091
-5.0951514 10.432693 -1.9832398
-5.0357366 10.473528 -1.9851272
-4.9739051 10.509572 -1.9861567
-4.9122372 10.546145 -1.9873579
-4.8277364 10.533098 -1.9791217
-4.7788062 10.597548 -1.9858135
-4.7220774 10.645584 -1.9894168
-4.6570625 10.675261 -1.9895884
-4.5957437 10.713594 -1.9914758
-4.5398707 10.765194 -1.9959371
-4.4616623 10.763724 -1.9904463
-4.4007354 10.803672 -1.9928485
-4.3391194 10.842361 -1.9950792
-4.2905269 10.914627 -2.0036583
-4.2188644 10.9288 -2.0014279
-4.1583591 10.971984 -2.004688
-4.0930181 11.002833 -2.0057175
-4.0294819 11.038846 -2.0077765
-3.9673173 11.07913 -2.0106933
-3.9136214 11.144165 -2.0182431
-3.8474128 11.17449 -2.0194442
-3.7677531 11.165215 -2.0134387
-3.7171059 11.242376 -2.0233908
-3.6477504 11.264035 -2.0232191
-3.5741019 11.272119 -2.0206454
-3.5153787 11.32771 -2.0268223
-3.450099 11.363207 -2.0293963
-3.3828337 11.392662 -2.0309405
-3.3172584 11.428343 -2.0336859
-3.2435796 11.436161 -2.0314553
-3.1754508 11.463443 -2.0328279
-3.109937 11.500781 -2.036088
-3.038306 11.515837 -2.0354016
-2.9648898 11.523767 -2.0335143
-2.8917303 11.532187 -2.0317984
-2.8330657 11.59948 -2.0407207
-2.7720892 11.659776 -2.0484421
-2.7071509 11.705361 -2.0535898
-2.6275012 11.687149 -2.0474126
-2.5488076 11.671288 -2.0417504
-2.4769416 11.685744 -2.0415788
-2.4020205 11.685282 -2.0388334
-2.3385465 11.741347 -2.0462115
-2.2636626 11.740965 -2.0436378
-2.190135 11.746885 -2.0422652
-2.1180162 11.760103 -2.0422652
-2.046155 11.774818 -2.0426083
-1.9711031 11.770634 -2.0396912
-1.9005659 11.793205 -2.0415788
-1.8349489 11.848456 -2.0493
-1.7607666 11.849748 -2.0475843
-1.6797014 11.801807 -2.0372891
-1.6207942 11.911462 -2.0547907
-1.5389311 11.853771 -2.0429513
-1.4749831 11.934366 -2.0554771
-1.3997768 11.926558 -2.0525601
-1.320155 11.877152 -2.0424366
-1.2479725 11.891888 -2.0436378
-1.1786568 11.936577 -2.050158
-1.0999514 11.884725 -2.0398629
-1.0236204 11.85199 -2.0329995
-0.95772129 11.943483 -2.0479274
-0.8876875 11.993347 -2.0556488
-0.81448054 12.004465 -2.0566783
-0.73917204 11.982688 -2.0520453
-0.66743314 12.019459 -2.0577078
-0.59105211 11.970193 -2.0484421
-0.51695645 11.95883 -2.0458684
-0.44211227 11.922398 -2.039005
-0.37031615 11.969197 -2.0467262
-0.29694057 11.974198 -2.047241
-0.22337124 11.97087 -2.0463831
-0.149499 11.938522 -2.0405493
-0.076137461 11.922467 -2.0376322
-0.0029817482 11.926651 -2.0383186
0.070216544 11.9294 -2.0388334
0.14373501 11.955342 -2.0434661
0.21667528 11.931581 -2.0395198
0.29120347 11.984194 -2.0489569
0.36852038 12.106256 -2.0705767
0.43813771 11.976765 -2.0484421
0.51140678 11.968929 -2.0475843
0.58223486 11.912431 -2.0383186
0.65678132 11.935193 -2.0429513
0.73042375 11.937822 -2.0441525
0.80392426 11.937047 -2.0448389
0.87541771 11.90831 -2.0407207
0.9477641 11.893875 -2.0391765
1.0203882 11.88391 -2.0384903
1.0946432 11.89214 -2.041064
1.1659524 11.868532 -2.038147
1.2399836 11.872913 -2.040206
1.3170401 11.903269 -2.0468979
1.389709 11.892029 -2.0463831
1.4614465 11.8735 -2.0446672
1.5374346 11.888735 -2.0489569
1.6066453 11.851743 -2.0441525
1.6778133 11.830932 -2.0422652
1.7460428 11.791179 -2.0371175
1.8133967 11.748114 -2.0314553
1.8870111 11.746492 -2.0331712
1.9598624 11.739552 -2.034029
2.031858 11.727304 -2.034029
2.099247 11.689406 -2.0295677
2.1696711 11.669525 -2.0283666
2.2412331 11.655993 -2.0283666
2.3117507 11.63719 -2.0275087
2.386477 11.639193 -2.0304258
2.4584606 11.627222 -2.0309405
2.5234635 11.583041 -2.0257928
2.5908213 11.550998 -2.022876
2.6614265 11.533924 -2.0227044
2.7348769 11.528879 -2.0247633
2.8083658 11.523367 -2.0268223
2.8768659 11.497316 -2.0252781
2.9336329 11.426013 -2.0156693
3.008956 11.427804 -2.0192726
3.0659232 11.36062 -2.0105219
3.1434515 11.370079 -2.0156693
3.2131577 11.350577 -2.0156693
3.2912445 11.359981 -2.0209885
3.3636866 11.349017 -2.0227044
3.4092493 11.24897 -2.0082912
3.4939549 11.278655 -2.0175569
3.5494139 11.2138 -2.0096638
3.5932961 11.114945 -1.9955939
3.6777995 11.14227 -2.004688
3.7505026 11.132564 -2.0070901
3.823225 11.122384 -2.0094924
3.8920507 11.100575 -2.0098355
3.9544497 11.060716 -2.0069184
4.0067201 10.993667 -1.9990256
4.0682678 10.953176 -1.9961087
4.1381888 10.935378 -1.9974813
4.2101712 10.922649 -1.9998835
4.2843127 10.914951 -2.0033152
4.34828 10.881139 -2.0019426
4.4093943 10.840566 -1.9993688
4.4705515 10.800563 -1.9969666
4.5332961 10.764757 -1.9954224
4.6015902 10.742172 -1.9964519
4.6591516 10.69477 -1.9928485
4.7127132 10.638959 -1.9877009
4.7742624 10.601757 -1.9861567
4.8416843 10.577638 -1.9871862
4.9189644 10.574528 -1.9923338
4.97365 10.522771 -1.9882157
5.0432415 10.502711 -1.9902748
5.088583 10.432611 -1.982725
5.1546874 10.405605 -1.983583
5.2179952 10.372901 -1.9834113
5.2846813 10.346829 -1.9846125
5.3412652 10.30109 -1.9820386
5.4052887 10.269867 -1.9823818
5.4607735 10.222605 -1.9796364
5.5172906 10.177647 -1.9774059
5.5739365 10.133244 -1.9753468
5.628325 10.085089 -1.9726015
5.6925273 10.05465 -1.9734594
5.7511702 10.014406 -1.9724299
5.8030863 9.9627562 -1.9691697
5.8726268 9.9413805 -1.9720867
5.9249077 9.8907928 -1.9691697
5.9870195 9.8567781 -1.9696845
6.0442867 9.8148241 -1.968655
6.086132 9.7483053 -1.9626496
6.1405625 9.7024546 -1.9609337
6.1840191 9.639719 -1.9557861
6.2425137 9.6007671 -1.9556146
6.2888355 9.5433645 -1.951668
6.3412547 9.4955854 -1.9497807
6.401608 9.4597616 -1.950467
6.4584174 9.4186783 -1.9501238
6.5059681 9.3643112 -1.9470353
6.5547967 9.3121319 -1.9444615
6.6083789 9.2669249 -1.943432
6.6541529 9.21103 -1.9401718
6.7023988 9.1588984 -1.9377697
6.7484961 9.104147 -1.9348527
6.8095555 9.0696573 -1.936397
6.8609028 9.0222149 -1.9351959
6.920341 8.9854107 -1.936397
6.9620128 8.9256907 -1.9326221
7.010541 8.8750744 -1.9309063
7.0654812 8.8326607 -1.9310778
7.1114821 8.7791901 -1.9288472
7.1520939 8.7193956 -1.925244
7.20609 8.6761045 -1.9254155
7.2553849 8.627202 -1.924386
7.2966857 8.5690212 -1.9212976
7.3381896 8.511405 -1.9183805
7.3799095 8.4543447 -1.9156352
7.4140286 8.3889742 -1.9110024
7.4502521 8.3264399 -1.907056
7.4985557 8.2776489 -1.9063696
7.5485392 8.2307568 -1.906198
7.5962186 8.1813974 -1.9055116
7.6435766 8.1317625 -1.9048253
7.6851778 8.0761461 -1.9027663
7.7359543 8.0302582 -1.9031094
7.7768264 7.9741769 -1.9010504
7.802073 7.9024758 -1.8952166
7.8462358 7.8502741 -1.894187
7.8921542 7.7999053 -1.8936722
7.9321098 7.7437639 -1.8917848
7.9730926 7.6887932 -1.8902406
8.0122728 7.6322532 -1.8883531
8.0546465 7.5788965 -1.8873236
8.0880079 7.5172606 -1.8842351
8.1180134 7.452836 -1.8804603
8.1402349 7.3817101 -1.8749695
8.1897783 7.3355665 -1.875999
8.2434893 7.2930093 -1.8780581
8.290309 7.2442355 -1.8785728
8.3398237 7.1977363 -1.8797739
8.3545885 7.1215067 -1.873082
8.3943596 7.0669379 -1.8722241
8.4405937 7.017817 -1.8729105
8.4636984 6.9496422 -1.8684492
8.4893446 6.8839297 -1.8646743
8.5168114 6.8200121 -1.8614143
8.5623627 6.7706804 -1.8622721
8.5866613 6.7046781 -1.8584973
8.6221762 6.647655 -1.8572962
8.6635876 6.595222 -1.8574678
8.7487841 6.5756731 -1.8672482
8.763649 6.5030847 -1.8617574
8.7819262 6.4334722 -1.8571246
8.8076639 6.3696532 -1.8542076
8.8353558 6.307478 -1.8518054
8.8738918 6.2531466 -1.8518054
8.8951073 6.1867685 -1.8482022
8.9491463 6.1432219 -1.8516339
8.9948292 6.09372 -1.8533498
9.0435171 6.0460782 -1.855752
9.0565948 5.9747443 -1.850776
9.1071224 5.9281969 -1.8536929
9.136693 5.8679466 -1.8523202
9.1800165 5.8165193 -1.8538646
9.2172041 5.7611265 -1.8542076
9.2683144 5.7142839 -1.8574678
9.2728977 5.6388831 -1.8512907
9.3149271 5.5864391 -1.8528349
9.3617496 5.5366998 -1.8554088
9.4100142 5.4875884 -1.8583257
9.4076357 5.4091253 -1.8511192
9.4406481 5.3512993 -1.8511192
9.4672852 5.2899089 -1.849918
9.5280437 5.2473993 -1.8555803
9.5392809 5.1775613 -1.8514624
9.5847702 5.1263642 -1.8542076
9.6352196 5.077559 -1.8579825
9.667943 5.0192509 -1.8583257
9.7090845 4.9652166 -1.8603847
9.7217693 4.8966875 -1.856953
9.7851715 4.8535752 -1.8634733
9.7988329 4.7856627 -1.8603847
9.8200216 4.7216067 -1.8588405
9.8479176 4.6608419 -1.8586689
9.8504305 4.5882683 -1.8536929
9.9267616 4.549902 -1.8629586
9.9491043 4.4864774 -1.8619291
9.9881525 4.4305382 -1.8641596
10.01515 4.3691688 -1.8641596
10.042676 4.308023 -1.8643312
10.063474 4.2440248 -1.8633016
10.115719 4.1931338 -1.8682777
10.147643 4.1335869 -1.8694787
10.164583 4.0679507 -1.8679345
10.20494 4.011631 -1.8708514
10.245907 3.9553237 -1.87394
10.246031 3.8833063 -1.8694787
10.279822 3.824142 -1.8713661
10.291062 3.756604 -1.8691356
10.314846 3.6937203 -1.8693072
10.348471 3.6342762 -1.8713661
10.384548 3.5755203 -1.87394
10.396957 3.5085855 -1.8722241
10.433256 3.4496717 -1.8749695
10.427045 3.37679 -1.8699936
10.43536 3.3088777 -1.8677629
10.466758 3.2482879 -1.8698219
10.494976 3.1865792 -1.8713661
10.511497 3.1212821 -1.8708514
10.531398 3.0570006 -1.8710231
10.56607 2.996892 -1.87394
10.61749 2.941205 -1.8799455
10.578275 2.8605776 -1.8696504
10.611822 2.7998877 -1.8725673
10.649793 2.7401204 -1.8763422
10.681695 2.6785553 -1.8790876
10.663475 2.6045516 -1.8729105
10.680214 2.5393004 -1.873082
10.688874 2.4721668 -1.871881
10.738445 2.4143105 -1.8780581
10.744395 2.3464844 -1.8765137
10.757627 2.2803097 -1.8763422
10.769485 2.2138627 -1.875999
10.77707 2.1465867 -1.8749695
10.79294 2.0809786 -1.8754842
10.817127 2.0168808 -1.8775432
10.85063 1.9543098 -1.8813181
10.905126 1.895112 -1.8888679
10.928208 1.8301152 -1.890927
10.94215 1.7634965 -1.8914417
6.2679071 0.97125244 -1.0657736
6.0018678 0.89240283 -1.0179013
5.9262757 0.8440454 -1.0036597
5.92451 0.80673742 -1.0024587
5.9019928 0.76682132 -0.99765426
5.884099 0.72781587 -0.99370778
5.888454 0.69169801 -0.99370778
5.8759418 0.65370554 -0.99079084
5.8710241 0.6167146 -0.98924655
5.8737173 0.58058238 -0.98907501
5.8722639 0.54407752 -0.98821706
5.8548799 0.50625753 -0.98461378
5.8480558 0.46953666 -0.98289794
5.851809 0.43371743 -0.98306948
5.8582921 0.39806962 -0.98375583
0 0 -0
0 0 -0
5.8498669 0.28944284 -0.98118204
0 0 -0
0 0 -0
5.8492804 0.18156502 -0.98032415
5.8384657 0.14537917 -0.97826511
5.8343229 0.10946085 -0.97740722
0 0 -0
0 0 -0
0 0 -0
0 -0 -0
0 -0 -0
0 -0 -0
0 -0 -0
0 -0 -0
0 -0 -0
0 -0 -0
0 -0 -0
0 -0 -0
0 -0 -0
0 -0 -0
0 -0 -0
0 -0 -0
0 -0 -0
0 -0 -0
0 -0 -0
9.8564224 -1.0291871 -1.6870837
9.6795444 -1.0707774 -1.6572279
9.7363939 -1.1375886 -1.6683809
9.7673645 -1.2020061 -1.6750727
9.7598047 -1.2619148 -1.6750727
9.7469969 -1.3211139 -1.6742147
9.7621174 -1.3842176 -1.6783328
9.744669 -1.4427912 -1.6767886
9.7190809 -1.4999996 -1.6738716
9.6814861 -1.5550724 -1.6688956
9.6406679 -1.6092534 -1.6634049
9.6170225 -1.6660212 -1.6610028
9.5794687 -1.7201203 -1.6561984
9.5542059 -1.7761638 -1.6536245
9.5286169 -1.8319621 -1.6510508
9.4785452 -1.8827121 -1.6441873
9.4436531 -1.9360846 -1.6400694
9.4306326 -1.9937894 -1.6398977
8.3516932 -1.8191557 -1.4497813
9.3929586 -2.1065636 -1.6376672
9.3894558 -2.166374 -1.639383
9.3903646 -2.2273581 -1.6419568
9.4023628 -2.291235 -1.6465895
9.3938618 -2.3503191 -1.6476191
7.410758 -1.9022937 -1.2936387
7.4141889 -1.9517444 -1.2963841
9.4013195 -2.5369542 -1.6570562
9.3893747 -2.5956423 -1.6577426
9.3656883 -2.6510582 -1.6563699
9.3605995 -2.711766 -1.6584289
9.3532295 -2.771951 -1.6601448
7.9765396 -2.417114 -1.4127189
7.9248586 -2.4546387 -1.4060271
7.9068303 -2.5023265 -1.4055123
7.902576 -2.5544324 -1.4075713
8.7389879 -2.8842695 -1.5638855
9.1963177 -3.0979786 -1.6512223
9.16782 -3.1511445 -1.6495064
9.1418047 -3.2050555 -1.6483054
9.1173286 -3.2594295 -1.6474475
9.0990086 -3.3159859 -1.6477907
9.0858784 -3.3744988 -1.6491634
7.6184554 -2.8826158 -1.3797746
9.0263195 -3.4790084 -1.6459032
9.0112219 -3.5368478 -1.6471043
8.9545879 -3.5781775 -1.6405841
8.892313 -3.6167183 -1.6330343
8.8208008 -3.6508615 -1.6237687
8.780076 -3.6972673 -1.620337
8.7744293 -3.7584434 -1.6235971
8.6934023 -3.7870238 -1.6126157
8.7024269 -3.8546615 -1.6187928
8.6929836 -3.9144597 -1.6215382
8.7028399 -3.9833097 -1.6280583
8.7309341 -4.0611548 -1.6381819
8.7085228 -4.1159139 -1.6386967
8.7159624 -4.1850529 -1.6450453
8.6998587 -4.2432055 -1.6469327
8.6577692 -4.2886338 -1.6438442
8.6040106 -4.327949 -1.638525
8.5571146 -4.3703523 -1.6345786
8.5056505 -4.4100757 -1.6297742
8.4845324 -4.4653945 -1.6309752
8.4300375 -4.5029783 -1.6256561
8.3840618 -4.5447578 -1.6220529
8.3050928 -4.5680966 -1.6119293
8.300993 -4.6324148 -1.6167337
8.2638397 -4.6784072 -1.6150179
8.2443752 -4.7344227 -1.6169053
8.1896334 -4.7700419 -1.6117578
8.1220427 -4.7976508 -1.6040365
8.1025925 -4.8534727 -1.6060954
8.1265459 -4.9358354 -1.6170769
8.091074 -4.9825063 -1.6160474
8.0428019 -5.0211 -1.612444
7.9652267 -5.0408468 -1.6028353
7.9233675 -5.0827093 -1.6006048
7.9093747 -5.1425099 -1.604208
7.8727369 -5.1876907 -1.6031785
7.7932425 -5.2041616 -1.5932266
7.7554531 -5.2480164 -1.5920254
7.7596655 -5.3205791 -1.5997468
7.6734786 -5.3309865 -1.5884222
7.6696234 -5.398387 -1.5945992
7.6122937 -5.4281831 -1.5894517
7.6179714 -5.5030613 -1.5978594
7.5649824 -5.5357356 -1.5937413
7.5522408 -5.5978913 -1.5983741
7.4633946 -5.6033063 -1.5865347
7.4077015 -5.6328921 -1.5819019
7.3745599 -5.6794415 -1.5822451
7.3201542 -5.709434 -1.5779555
7.3445063 -5.8012695 -1.5911676
7.2610784 -5.8080659 -1.5805292
7.232193 -5.8580914 -1.5820736
7.1900191 -5.8973579 -1.5807009
7.140058 -5.9300327 -1.5776123
7.0997682 -5.9705606 -1.5767543
7.0607495 -6.0120955 -1.5762396
7.0088058 -6.0424385 -1.5728079
6.9738245 -6.0872741 -1.5733227
6.9474144 -6.1397371 -1.5758965
6.9184198 -6.190134 -1.5779555
6.8591361 -6.213285 -1.5729795
6.7947474 -6.2312803 -1.5668024
6.7527757 -6.2695031 -1.5659446
6.6955175 -6.2932739 -1.5614833
6.6489267 -6.3267674 -1.5595958
6.6220417 -6.379066 -1.5625128
6.5933542 -6.4298964 -1.5650866
6.5537772 -6.4702315 -1.5650866
6.524404 -6.5207705 -1.5676603
6.4586501 -6.5347524 -1.5613117
6.4232488 -6.5791941 -1.5625128
6.3738694 -6.6092625 -1.5602822
6.3236842 -6.6382599 -1.55788
6.300384 -6.6955929 -1.5623412
6.2679005 -6.7435069 -1.5645719
6.2430592 -6.799984 -1.5688615
2.2077937 -2.43345 -0.53334463
2.1941352 -2.4484186 -0.53368783
2.1771126 -2.4596219 -0.53317302
5.9900379 -6.8546987 -1.5465554
5.9292011 -6.8696933 -1.5415794
5.9150543 -6.9389367 -1.5491291
5.8501625 -6.94872 -1.5431237
5.8011179 -6.9769092 -1.5414078
5.7957053 -7.0580602 -1.551703
5.7709012 -7.116447 -1.5568504
5.7012672 -7.119422 -1.5496439
5.6373138 -7.128767 -1.5439816
2.0258269 -2.5931547 -0.53420258
1.9942399 -2.5852489 -0.52974135
1.9699864 -2.5864615 -0.52733916
1.9528955 -2.5969253 -0.52699596
1.9369243 -2.6088593 -0.52699596
1.822502 -2.4863749 -0.49799809
1.8025937 -2.4911239 -0.49662539
1.7884191 -2.5037413 -0.49696857
5.2063088 -7.3879786 -1.5352308
5.1636915 -7.4238291 -1.5360887
5.1152554 -7.4513116 -1.5352308
5.0909848 -7.5143695 -1.5419226
5.0206938 -7.5094275 -1.5343728
4.9837432 -7.5540733 -1.5372897
4.9383731 -7.5861621 -1.5376329
4.8896031 -7.6130047 -1.5369467
4.8733759 -7.6911335 -1.5468985
4.7968559 -7.6741052 -1.5372897
4.7538137 -7.710103 -1.5386624
1.7442211 -2.8667529 -0.54552716
1.7286246 -2.8807809 -0.54621351
1.7119187 -2.8930292 -0.54655671
4.5740829 -7.8431692 -1.5424373
4.5023055 -7.83009 -1.5342013
4.4570909 -7.862711 -1.5352308
4.4154882 -7.9019523 -1.5376329
4.3550406 -7.907321 -1.5333433
4.3045607 -7.9304309 -1.532657
4.2539616 -7.9532185 -1.5319706
4.2027855 -7.974813 -1.5311127
4.1560431 -8.0048227 -1.5319706
4.1055026 -8.0275412 -1.5314559
4.0499663 -8.0402622 -1.5290537
3.9966168 -8.0570173 -1.5275095
3.9626656 -8.1132584 -1.5336865
3.9128089 -8.1374207 -1.5336865
3.8623836 -8.1603851 -1.5335149
3.797684 -8.1526728 -1.5275095
3.7356873 -8.1498489 -1.5225334
3.6981621 -8.2004585 -1.5278525
3.6469765 -8.2211943 -1.5275095
3.593313 -8.2361927 -1.5261368
3.5477567 -8.2698565 -1.5283673
3.4942679 -8.2851152 -1.5271662
3.4475143 -8.316411 -1.5290537
3.3912191 -8.3246336 -1.5266515
3.3389783 -8.3425417 -1.5261368
3.2823217 -8.3491182 -1.5235629
3.2338684 -8.3764544 -1.5249356
3.1848538 -8.4025879 -1.5261368
3.1256819 -8.4016571 -1.5223619
3.0794749 -8.4354849 -1.5251073
3.0240054 -8.4440193 -1.5232198
2.9747477 -8.4698515 -1.5245925
2.9175916 -8.4730396 -1.5218471
2.8702707 -8.5047846 -1.5244209
2.8106122 -8.4997864 -1.5203029
2.7614398 -8.5262451 -1.5220187
2.704309 -8.5280027 -1.5192733
2.6425903 -8.5143251 -1.5137826
2.6023149 -8.569973 -1.5209892
2.5429535 -8.5631132 -1.5168711
2.4722443 -8.5161095 -1.5055465
2.4406354 -8.6041002 -1.5187585
2.3893731 -8.6246099 -1.519788
2.323812 -8.5925083 -1.5113804
2.2697895 -8.6018419 -1.5105225
2.21893 -8.6232405 -1.5118952
2.1695697 -8.6510267 -1.5144689
2.1187837 -8.6737471 -1.5161848
2.0682561 -8.6980858 -1.5182438
2.0099652 -8.689496 -1.5144689
1.9529376 -8.6853247 -1.511552
1.9071721 -8.7317944 -1.517729
0.54757917 -2.5790145 -0.42026997
0.52718413 -2.5601306 -0.41632351
0.51762056 -2.5942359 -0.42181423
0.50076085 -2.5925262 -0.42095631
0.49134102 -2.6304159 -0.42713338
0.4640221 -2.5713277 -0.41615194
1.5134591 -8.7075977 -1.500399
1.4743119 -8.8022261 -1.5154984
0.43353203 -2.6844778 -0.43468314
0.4202165 -2.7075324 -0.43828642
1.247215 -8.3913031 -1.4386283
1.1617168 -8.1598358 -1.3965899
1.0362343 -7.6123366 -1.2991295
0.34768689 -2.6711113 -0.43022192
0.33334339 -2.6898162 -0.43313888
0.94906646 -8.0831499 -1.3785734
0.89956009 -8.0897999 -1.3787451
0.8507269 -8.1030054 -1.3801177
0.79847723 -8.0825825 -1.3756565
0.74496847 -8.0451469 -1.3682784
0.67611516 -7.8238163 -1.3288137
0.62856829 -7.8337097 -1.3298433
0.57961822 -7.8256292 -1.3277842
0.53398752 -7.8644233 -1.3339612
0.50177109 -8.1281281 -1.3794314
0.44403651 -7.9894071 -1.3547231
0.38288352 -7.7459874 -1.3118268
0.33674872 -7.7806711 -1.3174891
0.29824966 -8.0326529 -1.3610717
0.25008032 -8.0707655 -1.3674204
0.20133281 -8.1036644 -1.3729111
0.1549153 -8.2830315 -1.4039681
0.10625514 -8.4581881 -1.4343387
0.056777045 -8.843874 -1.5014285
0.0025126408 -8.8548927 -1.5033159
-0.051914319 -8.8705044 -1.5060613
-0.10632979 -8.8690338 -1.5058897
-0.16090901 -8.877079 -1.5074339
-0.21571109 -8.8897133 -1.5098361
-0.27025327 -8.8882217 -1.5098361
-0.32503808 -8.8932877 -1.5110372
-0.37934723 -8.8852205 -1.5100077
-0.4342925 -8.8915815 -1.511552
-0.48949274 -8.9005537 -1.513611
-0.54445785 -8.9032822 -1.5146406
-0.59821534 -8.8869963 -1.5124099
-0.65215504 -8.8752985 -1.5110372
-0.70777583 -8.8858604 -1.513611
-0.76456326 -8.9078522 -1.5182438
-0.81703693 -8.8794489 -1.5141258
-0.86832315 -8.8419142 -1.5084635
-0.92409617 -8.8511171 -1.5110372
-0.98413545 -8.8971767 -1.5201312
-1.0392811 -8.8958635 -1.5209892
-1.0938456 -8.8893185 -1.5209892
-1.1498861 -8.8941641 -1.5230482
-1.2031138 -8.8771791 -1.5213324
-1.2553457 -8.854023 -1.518587
-1.3126818 -8.8666191 -1.5221902
-1.3721746 -8.8915005 -1.5280242
-1.424517 -8.8692961 -1.525622
-1.4789113 -8.8603888 -1.525622
-1.5305573 -8.8356161 -1.5228766
-1.5836974 -8.820241 -1.5218471
-0.55474144 -2.9883864 -0.49044833
-0.57288128 -2.9839587 -0.49027675
-0.59636509 -3.0064766 -0.49490955
-0.6175729 -3.0162718 -0.49731174
-1.8743083 -8.8658218 -1.5393488
-1.9255257 -8.839716 -1.536775
-0.66802675 -2.9822843 -0.49336529
-0.6825459 -2.9618106 -0.49044833
-0.69774908 -2.9451058 -0.48821771
-0.71370655 -2.9321547 -0.48667344
-2.1907523 -8.756422 -1.5331718
-2.2373319 -8.7151432 -1.5281957
-2.276963 -8.6488543 -1.5187585
-0.78596383 -2.9156587 -0.48701662
-0.79464775 -2.877548 -0.48101115
-0.80960476 -2.8631389 -0.47929528
-0.82633466 -2.8552787 -0.47878054
-2.5619168 -8.6448336 -1.5314559
-2.6100531 -8.6129236 -1.5285389
-2.6584778 -8.5826321 -1.5259651
-1.0035133 -3.1731954 -0.54072279
-1.0432752 -3.2297821 -0.55221903
-1.0643086 -3.227062 -0.55290538
-2.8758562 -8.5372105 -1.5300832
-1.1063923 -3.2212112 -0.55427802
-1.1284188 -3.2208695 -0.55547911
-1.1445112 -3.203681 -0.55359167
-3.0861909 -8.4686899 -1.5309411
-3.1439285 -8.4652929 -1.5338581
-1.1600391 -3.067822 -0.53231514
-1.1724615 -3.0441005 -0.5292266
-1.1990389 -3.0570235 -0.53300148
-1.266408 -3.1712761 -0.55582231
-3.3954372 -8.3484449 -1.5307696
-3.4563971 -8.35112 -1.5352308
-3.5094857 -8.3342943 -1.5360887
-3.5555139 -8.3008308 -1.5338581
-3.6044121 -8.2743435 -1.5330001
-3.6634955 -8.2709856 -1.5366035
-3.707298 -8.2330809 -1.5336865
-1.3257527 -2.8983989 -0.51618612
-1.3509929 -2.9062877 -0.51927465
-3.8649514 -8.1776972 -1.5364318
-3.9065251 -8.1360674 -1.5330001
-3.9632852 -8.126111 -1.5357455
-4.0135088 -8.1025229 -1.535917
-4.0706773 -8.0927048 -1.5388341
-4.123394 -8.0737162 -1.5400351
-4.1773915 -8.0570087 -1.541751
-4.2276678 -8.0329685 -1.5420941
-4.2773418 -8.0077457 -1.5422658
-4.3259263 -7.980484 -1.5420941
-4.3781362 -7.9598322 -1.5432953
-4.4302559 -7.9388404 -1.5444963
-4.4924769 -7.9355106 -1.5493008
-4.5562959 -7.934278 -1.5546199
-4.6143169 -7.9223452 -1.55788
-4.6623392 -7.8930349 -1.5577084
-4.7030869 -7.8516026 -1.5551347
-4.7138338 -7.7611337 -1.5426089
-4.7127986 -7.6532164 -1.52648
-4.7466235 -7.6032643 -1.5221902
-4.79951 -7.5839853 -1.5242493
-4.856595 -7.5709767 -1.527681
-4.9265909 -7.577373 -1.5352308
-4.9870887 -7.568388 -1.5396919
-5.0536799 -7.5679564 -1.5460407
-5.1243186 -7.5727029 -1.5535904
-5.2007771 -7.58499 -1.562856
-5.2685833 -7.5836782 -1.5693762
-5.2957339 -7.5238194 -1.5635424
-5.2988935 -7.4310298 -1.5506734
-5.3968954 -7.4710426 -1.5662876
-5.426343 -7.4155278 -1.5614833
-5.4752622 -7.3868413 -1.5625128
-5.5311322 -7.3672867 -1.5656013
-5.5959148 -7.3590856 -1.5712637
-5.6583991 -7.3472443 -1.5762396
-5.708828 -7.3193774 -1.5777839
-5.7401953 -7.2672048 -1.5740091
-5.7932944 -7.2426162 -1.5764112
-5.850029 -7.2222419 -1.5798429
-5.8892345 -7.1801181 -1.5784702
-5.8891129 -7.0908017 -1.5664593
-5.9654875 -7.0937366 -1.5753816
-6.0357304 -7.0885 -1.5825883
-6.0842576 -7.0573006 -1.583961
-6.1339254 -7.027257 -1.5856768
-6.153439 -6.9629149 -1.5794997
-6.2308679 -6.9639349 -1.5885937
-6.2800951 -6.9328723 -1.5903096
-6.3345037 -6.9072757 -1.5933981
-6.3754258 -6.8668342 -1.593055
-6.426887 -6.8376346 -1.5954572
-6.4877391 -6.8180523 -1.6002616
-4.1355858 -4.2936964 -0.9993701
-4.2299566 -4.338057 -1.0163571
-4.2461114 -4.301506 -1.0137832
-4.3204846 -4.3234458 -1.0256226
-4.3027825 -4.2532306 -1.0148128
-3.495476 -3.4133837 -0.81199902
-3.4844394 -3.3611012 -0.80427772
-3.4143951 -3.253371 -0.78248638
-3.4407511 -3.2384348 -0.78403068
-4.5466948 -4.226541 -1.0422664
-3.50999 -3.2232807 -0.79106563
-3.5289717 -3.2010214 -0.79089403
-3.5749669 -3.2029679 -0.7970711
-3.4499192 -3.0530419 -0.76344043
-3.4114597 -2.9819074 -0.75022835
-3.4453557 -2.9744346 -0.75383162
-4.6242561 -3.9424272 -1.0194455
-3.7506759 -3.158411 -0.81508756
-3.8389266 -3.192646 -0.83070183
-4.5132918 -3.7066176 -0.97826511
-4.561204 -3.6993287 -0.98392743
-4.6238084 -3.7032888 -0.99284989
-4.6557178 -3.6821797 -0.99490887
-4.6665754 -3.6444502 -0.99233508
-4.7239614 -3.6428132 -1.0000564
-4.768959 -3.6310618 -1.0050324
-4.7840605 -3.5964053 -1.0034882
-4.7878399 -3.5534823 -0.9995417
-4.7356377 -3.4699006 -0.98358428
-4.7935638 -3.4673307 -0.99147719
-4.8243709 -3.4447205 -0.99353617
-4.8341413 -3.4071105 -0.99113399
-4.8185582 -3.3520749 -0.98341268
-4.8609672 -3.3374972 -0.98804545
-4.896852 -3.318105 -0.99130559
-4.8638806 -3.2524114 -0.98015255
-4.9092398 -3.239321 -0.98547173
-4.8992977 -3.1897924 -0.97929466
-4.8101797 -3.0899413 -0.95681697
-4.9214277 -3.1188865 -0.97586292
-4.9997902 -3.1256976 -0.98804545
-5.0557756 -3.1177058 -0.99559522
-5.063025 -3.0794606 -0.99319303
-5.0235248 -3.0133805 -0.98135364
-4.9944305 -2.954421 -0.97174489
-5.1222544 -2.98773 -0.99387938
-5.0619121 -2.9110751 -0.9780935
-5.2168159 -2.9576759 -1.0055472
-5.2288451 -2.9222474 -1.004346
-5.2112942 -2.8706269 -0.99731106
-5.2036986 -2.8249712 -0.99233508
-5.2113781 -2.7878788 -0.99044764
-5.2292576 -2.756309 -0.99061924
-5.2889175 -2.7464092 -0.99902695
-5.3179498 -2.7201838 -1.0014291
-5.3345408 -2.6875024 -1.0014291
-5.3827043 -2.6704757 -1.0076061
-5.3609219 -2.6188114 -1.000228
-5.3582435 -2.576905 -0.99662471
-5.4576626 -2.583586 -1.0127537
-5.3599906 -2.4972332 -0.99096245
-5.3814816 -2.4671707 -0.99216354
-5.5033956 -2.4822855 -1.0125822
-5.4041476 -2.3977509 -0.99079084
-5.4639096 -2.3842382 -0.9993701
-5.4847741 -2.3533854 -1.0005713
-5.4791398 -2.3112674 -0.99679631
-5.4932179 -2.2776043 -0.99679631
-5.5390244 -2.2568603 -1.0028018
-5.5911846 -2.2382009 -1.0100083
-5.5928926 -2.1991675 -1.0077778
-5.6706185 -2.1896377 -1.0197887
-5.7069788 -2.1635284 -1.0240784
-5.7339973 -2.1336212 -1.0266521
-5.7775216 -2.1095426 -1.0323144
-5.768096 -2.0660839 -1.0281965
-5.7639327 -2.0247786 -1.0251079
-5.6989307 -1.9627615 -1.0108663
-5.7612748 -1.9447615 -1.0201319
-5.7272649 -1.8942249 -1.0117242
-5.8006401 -1.8790736 -1.0230489
-5.8646517 -1.8601158 -1.0326576
-5.9324102 -1.8416101 -1.0429528
-6.0482388 -1.8369346 -1.0619987
-6.1170073 -1.816889 -1.0724654
-6.3201075 -1.8350519 -1.1072972
-6.2374148 -1.7696342 -1.0903102
-6.3943701 -1.7718159 -1.1167344
-6.4346032 -1.7405167 -1.1220535
-6.5147014 -1.7193418 -1.1345793
-6.8399882 -1.7603118 -1.1912024
-6.9290204 -1.7379502 -1.2052723
-7.2496414 -1.7711059 -1.2608659
-7.3916836 -1.7577951 -1.2843732
-7.8525023 -1.816475 -1.3648466
-7.9029093 -1.7771147 -1.3718816
-7.9540896 -1.737414 -1.3790882
-8.0532684 -1.7073611 -1.3948741
-8.0124474 -1.6474067 -1.38578
-9.6784887 -1.9278908 -1.679877
-9.8129921 -1.8921428 -1.7016684
-9.994873 -1.8636591 -1.7318674
-10.235912 -1.8436595 -1.7725331
-10.436307 -1.8136905 -1.8059922
-10.983593 -1.8393843 -1.9007072
-11.196008 -1.8043823 -1.9362254
-11.212709 -1.736555 -1.9372549
-11.249465 -1.6716294 -1.9418877
-11.320957 -1.6113119 -1.9526976
-11.29256 -1.5366409 -1.9460058
-11.22264 -1.457056 -1.9321073
-11.23137 -1.3881679 -1.9321073
-11.283707 -1.3243908 -1.9398288
-11.298474 -1.2558914 -1.9410298
-11.307927 -1.1867471 -1.941373
-11.267937 -1.1126984 -1.9331368
-11.287305 -1.0447178 -1.9353675
-11.28565 -0.9747631 -1.9339948
-11.299275 -0.9061265 -1.9353675
-11.312482 -0.83735937 -1.9367402
-11.296766 -0.76653302 -1.9331368
-11.283557 -0.69611287 -1.9300483
-11.264009 -0.62555653 -1.9259303
-11.279442 -0.55701196 -1.9279894
-11.303317 -0.48868358 -1.9315926
-11.303149 -0.4192093 -1.9310778
-11.292707 -0.34945178 -1.9288472
-11.280851 -0.27981389 -1.926445
-11.256745 -0.21011521 -1.9219838
-11.285405 -0.14138389 -1.9267882
-11.294927 -0.072191037 -1.9283324
-11.303039 -0.0028865125 -1.9297051
-11.349146 0.066744722 -1.9377697
-11.330791 0.1361656 -1.9346812
-11.323832 0.20557958 -1.9336517
-11.280993 0.2740483 -1.926445
-11.25842 0.34263057 -1.9228418
-11.255121 0.41166836 -1.9226701
-11.274037 0.48164806 -1.926445
-11.240366 0.54932129 -1.9211259
-11.234817 0.61817211 -1.9207827
-11.198362 0.68510735 -1.9151205
-11.215572 0.75526482 -1.9188954
-10.564775 -0.26886499 -1.931023
-10.56426 -0.20399766 -1.9306564
-10.534841 -0.13877016 -1.9249753
-10.507969 -0.073932275 -1.9198438
-10.511173 -0.0094579654 -1.9203936
-10.513983 0.055052891 -1.9209434
-10.564563 0.1201438 -1.9304732
-10.512516 0.1840715 -1.9209434
-10.534776 0.24912849 -1.9253418
-10.474091 0.31200996 -1.9143459
-10.48868 0.37687135 -1.9174614
-10.498939 0.44175836 -1.9198438
-10.5412 0.50834686 -1.928274
-10.501562 0.57104331 -1.9214932
-10.515523 0.63653743 -1.9247919
-10.446681 0.69673228 -1.9126965
-10.435346 0.76031899 -1.9114137
-10.463804 0.82696682 -1.9176446
-10.429148 0.88865322 -1.9121467
-10.427415 0.9529863 -1.9128797
-10.38517 1.0134184 -1.906099
-10.397334 1.079049 -1.9095809
-10.412992 1.1452966 -1.9137961
-10.429205 1.2118903 -1.9181944
-10.401082 1.2733521 -1.9143459
-10.391123 1.3368971 -1.9139793
-10.383698 1.4007621 -1.9141626
-10.384642 1.4658226 -1.9159952
-10.322934 1.5217739 -1.906099
-10.295913 1.5823983 -1.9028002
-10.335516 1.6534611 -1.9121467
-10.277658 1.7089481 -1.9031667
-10.29701 1.7771604 -1.9088479
-10.256881 1.8351153 -1.90335
-10.225128 1.8942561 -1.8995014
-10.231658 1.9604748 -1.9029834
-10.187613 2.0169191 -1.8969357
-10.212608 2.0870662 -1.904083
-10.198648 2.1494877 -1.9038998
-10.191031 2.2132764 -1.9049994
-10.183015 2.2770526 -1.906099
-10.16023 2.3375084 -1.9044496
-10.142825 2.3991275 -1.9038998
-10.11645 2.4585323 -1.9017006
-10.131698 2.5281744 -1.9075651
-10.070281 2.5785904 -1.8987683
-10.051417 2.6395831 -1.8982185
-10.070155 2.7106607 -1.9049994
-10.07134 2.7773638 -1.9084814
-10.011535 2.8270879 -1.9002345
-10.010055 2.8931038 -1.90335
-9.992115 2.9544699 -1.90335
-9.9568605 3.0106039 -1.9000512
-9.9335041 3.0701902 -1.8991349
-9.9126043 3.1304913 -1.8987683
-9.8782396 3.1864269 -1.8958361
-9.8510323 3.2445185 -1.89437
-9.8197565 3.3011436 -1.8921708
-9.7835083 3.3559127 -1.8890553
-9.7822189 3.4226971 -1.8929039
-9.7943659 3.4945467 -1.8995014
-9.7533379 3.5475221 -1.8956529
-9.7452145 3.6124256 -1.8984019
-9.7090702 3.6669436 -1.8956529
-9.6909752 3.7282128 -1.8965691
-9.6807318 3.7926252 -1.8991349
-9.6052303 3.8311961 -1.8886888
-9.5942936 3.8952372 -1.8912544
-9.5765724 3.9566607 -1.8925374
-9.5539274 4.016109 -1.8929039
-9.527297 4.0738821 -1.8925374
-9.5057268 4.133832 -1.8932704
-9.475688 4.1900926 -1.892354
-9.4560766 4.2509766 -1.8936369
-9.4548512 4.3203568 -1.8987683
-9.3809071 4.3563466 -1.8890553
-9.3593349 4.4163418 -1.8901548
-9.3196497 4.4677372 -1.8875892
-9.3194609 4.5381789 -1.8932704
-9.2605972 4.5800242 -1.8868561
-9.211236 4.6261721 -1.8824577
-9.2036963 4.6933212 -1.8868561
-9.2244883 4.775465 -1.8973023
-9.1132097 4.7889924 -1.8800753
-9.086256 4.8462076 -1.8806251
-9.1030359 4.9271359 -1.8905214
-9.0648766 4.9786396 -1.888872
-9.0298643 5.0317745 -1.8879557
-8.9953966 5.0851507 -1.8872226
-8.9597616 5.137805 -1.8863063
-8.9246683 5.1907072 -1.8855733
-8.8630142 5.227891 -1.879159
-8.8653603 5.3028636 -1.8866729
-8.803236 5.3393188 -1.8802586
-8.7862196 5.403017 -1.8837407
-8.737052 5.4469457 -1.8802586
-8.7175932 5.5093803 -1.8833741
-8.6927299 5.5685997 -1.88539
-8.6402578 5.6100554 -1.8813581
-8.6179914 5.6710711 -1.8841071
-8.5830317 5.7238431 -1.8841071
-8.5086517 5.7499804 -1.8753104
-8.4529314 5.7881956 -1.8707287
-8.4140263 5.8377118 -1.8699957
-8.4472151 5.9378452 -1.8857565
-8.3914032 5.9758792 -1.8813581
-8.3713207 6.0393329 -1.8852067
-8.2991829 6.0650644 -1.877143
-8.276825 6.1269855 -1.8806251
-8.192668 6.1428633 -1.8698125
-8.1673489 6.202529 -1.8727447
-8.1797886 6.2914815 -1.8846569
-8.1588688 6.3554473 -1.888872
-8.1390142 6.4206104 -1.8934537
-8.1094503 6.478406 -1.8958361
-8.0703115 6.5286608 -1.8960193
-8.0171719 6.5674663 -1.8929039
-7.96386 6.6058664 -1.8897884
-7.9314585 6.6615615 -1.8918042
-7.8926811 6.7120132 -1.892354
-7.8982825 6.8007245 -1.9038998
-7.8260231 6.8225746 -1.8963859
-7.7854872 6.8717666 -1.8967525
-7.7336464 6.910893 -1.89437
-7.7202573 6.9845958 -1.9017006
-7.7055287 7.0577292 -1.9088479
-7.6267557 7.0721254 -1.8998679
-7.5638657 7.1006231 -1.8949198
-7.5386829 7.1645074 -1.8996847
-7.5108747 7.226305 -1.9038998
-7.4530125 7.259223 -1.9004177
-7.4048305 7.3013659 -1.8995014
-7.3995504 7.3862491 -1.9099475
-7.3437171 7.421032 -1.9071985
-7.2946081 7.4624376 -1.9062822
-7.2978497 7.557972 -1.9194773
-7.2493019 7.6004744 -1.9189276
-7.1984849 7.6405191 -1.917828
-7.138073 7.6701522 -1.9141626
-7.0935369 7.716701 -1.9148957
-7.0328374 7.7455254 -1.9112303
-6.99962 7.8046322 -1.9152622
-6.9685488 7.8665657 -1.9200271
-6.9253283 7.9150949 -1.9214932
-6.8734174 7.9537196 -1.9205769
-6.8353353 8.0084553 -1.9236923
-6.7822657 8.0457363 -1.9225928
-6.7535276 8.1121311 -1.9286406
-6.7129908 8.1648073 -1.9313896
-6.6559496 8.1974487 -1.9293736
-6.6153655 8.2504053 -1.9323058
-6.5774331 8.3070259 -1.9361545
-6.5269442 8.3480024 -1.9363377
-6.4725947 8.3840036 -1.9354213
-6.414474 8.4149609 -1.9334054
-6.3644934 8.4565172 -1.9339552
-6.3259716 8.5135584 -1.9381703
-6.2747774 8.5537987 -1.9385369
-6.2169843 8.5849733 -1.9368875
-6.165906 8.6253576 -1.9374373
-6.1105986 8.6598148 -1.9367043
-6.0528531 8.6906929 -1.9352381
-6.025589 8.7657433 -1.9438516
-5.9738975 8.8058052 -1.9445846
-5.9148312 8.8349428 -1.9429352
-5.8778505 8.897316 -1.9487997
-5.8043571 8.9043903 -1.9423854
-5.7480159 8.9373579 -1.9418356
-5.6867485 8.9624977 -1.9396365
-5.6405163 9.0113878 -1.942752
-5.584084 9.0441551 -1.9423854
-5.5443368 9.1042757 -1.9480667
-5.4741964 9.1145277 -1.9429352
-5.4116545 9.1369495 -1.9405528
-5.362431 9.1818666 -1.9431185
-5.3226709 9.2435617 -1.9493495
-5.2673097 9.2786121 -1.9498993
-5.2366834 9.3579388 -1.9599789
-5.1995831 9.4269085 -1.9678593
-5.1552591 9.4836817 -1.973174
-5.0667963 9.4588099 -1.9612617
-5.0173821 9.5062389 -1.9647437
-4.9607725 9.5403347 -1.9654769
-4.8958659 9.5583448 -1.9629111
-4.8313684 9.5767956 -1.9605287
-4.771203 9.6036186 -1.9599789
-4.7273073 9.66362 -1.9663931
-4.664084 9.684473 -1.9647437
-4.6176291 9.7404461 -1.970425
-4.5793915 9.8149204 -1.9799548
-4.5084167 9.8196058 -1.9751899
-4.4626498 9.8793364 -1.9817874
-4.4111295 9.9271946 -1.9860026
-4.3461971 9.9450665 -1.9841698
-4.2746134 9.9471607 -1.9792217
-4.202785 9.9478464 -1.9740903
-4.1563721 10.008855 -1.9812376
-4.0997095 10.046001 -1.98362
-4.0467725 10.092866 -1.9880184
-3.9894514 10.129397 -1.9904009
-3.9289968 10.15827 -1.9913173
-3.8589144 10.161968 -1.9872854
-3.8019831 10.200192 -1.9902176
-3.743377 10.234408 -1.9924169
-3.6791811 10.253483 -1.9916837
-3.607712 10.251756 -1.9869188
-3.5466647 10.279275 -1.9880184
-3.4907696 10.322262 -1.9922335
-3.4332433 10.361217 -1.9957156
-3.3781018 10.408268 -2.0008471
-3.3144722 10.429737 -2.0010302
-3.2530422 10.458326 -2.0026796
-3.1976836 10.507244 -2.0083609
-3.1278231 10.508764 -2.0048788
-3.0687776 10.546637 -2.0085442
-3.0045445 10.56716 -2.0089107
-2.9396491 10.585396 -2.0089107
-2.8759294 10.607978 -2.0098269
-2.8117917 10.629226 -2.01056
-2.7435718 10.634856 -2.0083609
-2.6847394 10.677232 -2.013309
-2.6156662 10.679181 -2.01056
-2.5411968 10.657736 -2.0034127
-2.4879739 10.725798 -2.0134923
-2.3998368 10.642087 -1.994616
-2.3420675 10.691182 -2.0012136
-2.27581 10.702467 -2.0006638
-2.2134743 10.732596 -2.0037792
-2.1489275 10.752725 -2.0050621
-2.0924349 10.814931 -2.0144086
-2.0327277 10.863318 -2.0211895
-1.9632348 10.860108 -2.0182571
-1.8896334 10.832245 -2.0107434
-1.8293276 10.880474 -2.0177073
-1.7677155 10.923518 -2.0237551
-1.6955186 10.901133 -2.0175242
-1.6307759 10.925915 -2.0202732
-1.5620348 10.924038 -2.018074
-1.5020372 10.985038 -2.027787
-1.4230275 10.905341 -2.0111098
-1.3560867 10.913868 -2.0111098
-1.2852913 10.889766 -2.0050621
-1.2204156 10.915032 -2.0083609
-1.1540389 10.928182 -2.0094604
-1.0846286 10.911579 -2.0050621
-1.0213981 10.95816 -2.0125759
-0.95345873 10.956386 -2.0111098
-0.88954222 11.003184 -2.0188069
-0.82332951 11.026081 -2.0221057
-0.75599533 11.03583 -2.0230222
-0.68759334 11.029468 -2.0210061
-0.61858046 11.009923 -2.0166078
-0.55155396 11.024311 -2.0186238
-0.48342523 11.016685 -2.0166078
-0.41526243 11.004708 -2.0138588
-0.3486633 11.036526 -2.0193567
-0.28153902 11.062043 -2.0237551
-0.2139816 11.080272 -2.0268707
-0.14523712 11.024364 -2.0162413
-0.077833563 11.059453 -2.0226555
-0.0099744117 11.061689 -2.0230222
0.058042098 11.089067 -2.0281534
0.12544717 11.032472 -2.0177073
0.19408329 11.085554 -2.027787
0.26151922 11.059585 -2.0232053
0.32955006 11.063668 -2.0243049
0.39492562 10.991685 -2.0112932
0.46364188 11.019503 -2.0169742
0.53157878 11.023324 -2.0182571
0.59888655 11.013966 -2.0171576
0.66639632 11.009102 -2.0169742
0.73406512 11.006767 -2.0173409
0.79916 10.96872 -2.0111098
0.86668003 10.96655 -2.0116596
0.92844713 10.896378 -1.9995642
1.003606 10.981522 -2.0166078
1.0717319 10.982985 -2.018074
1.1425511 11.009447 -2.0243049
1.2052474 10.958257 -2.016058
1.2670186 10.903783 -2.0072613
1.3268532 10.838232 -1.9964486
1.4038646 10.91179 -2.011843
1.4642222 10.854258 -2.0026796
1.5317568 10.851883 -2.0039625
1.5905738 10.789762 -1.9940662
1.6643628 10.829354 -2.0034127
1.732487 10.829616 -2.0054286
1.7982588 10.814902 -2.0046957
1.8553902 10.750384 -1.994616
1.9291079 10.782344 -2.0028629
1.9995276 10.793503 -2.0072613
2.0535102 10.717308 -1.9951658
2.1324024 10.771047 -2.0078111
2.1978619 10.754869 -2.0072613
2.2561085 10.704628 -2.0002973
2.3315525 10.735735 -2.0089107
2.3836546 10.659826 -1.9971817
2.4631209 10.706315 -2.0089107
2.5038803 10.585766 -1.9887515
2.5831771 10.62943 -2.000114
2.6297877 10.53898 -1.9858192
2.7026939 10.555026 -1.9920503
2.7679069 10.540146 -1.9924169
2.8386595 10.545747 -1.9968152
2.8983488 10.510124 -1.9933331
2.9545026 10.462814 -1.9876519
3.0142789 10.429378 -1.9847196
3.0723627 10.390889 -1.9808711
3.1437433 10.397248 -1.9858192
3.2121246 10.392791 -1.9887515
3.2728729 10.363512 -1.9869188
3.332176 10.330136 -1.9843532
3.3973427 10.315099 -1.9854528
3.4633899 10.302445 -1.9871022
3.532918 10.299598 -1.9907675
3.601892 10.294429 -1.9940662
3.6580529 10.25269 -1.9902176
3.7077897 10.194021 -1.9830703
3.7562616 10.133286 -1.9755564
3.8284392 10.136718 -1.9808711
3.8880944 10.106613 -1.9795883
3.9475243 10.076159 -1.9783053
4.0034494 10.037137 -1.9753731
4.0642209 10.010562 -1.9750066
4.1203132 9.9727154 -1.972441
4.17838 9.9399958 -1.9709748
4.2447023 9.9268255 -1.9735405
4.3082767 9.9069042 -1.9748234
4.3662004 9.8739891 -1.9735405
4.4150157 9.8210096 -1.9682258
4.4653878 9.7722759 -1.9638275
4.5269217 9.7482586 -1.9645605
4.5770025 9.6998501 -1.9603454
4.6364336 9.6715832 -1.9603454
4.6677165 9.5855017 -1.9484332
4.7491045 9.6025038 -1.957963
4.7929354 9.543313 -1.9517319
4.8438101 9.4988365 -1.9486165
4.8988395 9.4628258 -1.9473336
4.9604678 9.4395504 -1.9487997
5.0206075 9.4132729 -1.9497161
5.0665741 9.3606758 -1.9451344
5.1400037 9.3587084 -1.9513655
5.1777129 9.2917852 -1.9438516
5.2307591 9.2529936 -1.9423854
5.2952595 9.2343693 -1.9453176
5.3399596 9.1813087 -1.9409193
5.3991914 9.1534519 -1.9420189
5.4547496 9.1193066 -1.9418356
5.4993868 9.067173 -1.9378039
5.5441051 9.0156727 -1.9339552
5.59724 8.9781485 -1.9332222
5.6480222 8.9369869 -1.931756
5.7064638 8.907958 -1.9330389
5.752985 8.8604078 -1.93029
5.8067026 8.8241196 -1.9301066
5.8498292 8.7719669 -1.9264414
5.8985891 8.7285767 -1.9247919
5.9487033 8.6873522 -1.9236923
6.00806 8.6595736 -1.9257083
6.0639076 8.6265669 -1.9266247
6.1178656 8.5907984 -1.9269912
6.1578097 8.5355587 -1.9229593
6.1671462 8.4388781 -1.9093977
6.2503929 8.4435472 -1.919294
6.3003149 8.4026766 -1.9187442
6.3303514 8.3356752 -1.9121467
6.3574061 8.2655058 -1.9048162
6.4194803 8.2410784 -1.9082981
6.4583578 8.1868687 -1.9048162
6.5121512 8.1516953 -1.9059157
6.5422626 8.0871258 -1.9000512
6.6048427 8.0628023 -1.9038998
6.6428943 8.0085039 -1.900601
6.6874828 7.9623232 -1.8993181
6.7495861 7.9368668 -1.9031667
6.7795577 7.8736978 -1.8978521
6.7941518 7.7934175 -1.8883222
