# .PCD v0.7 - Point Cloud Data file format
VERSION 0.7
FIELDS x y z
SIZE 4 4 4
TYPE F F F
COUNT 1 1 1
WIDTH 1500
HEIGHT 1
VIEWPOINT 0 0 0 1 0 0 0
POINTS 1500
DATA ascii
3.4293025 -5.714951 -1.615472
3.4045477 -5.753427 -1.6205345
3.3696702 -5.7750468 -1.6207757
3.3351393 -5.797297 -1.6212578
3.298069 -5.8151188 -1.6205345
3.2467022 -5.8072886 -1.6125791
3.2250555 -5.852603 -1.6198114
1.6069586 -2.9578006 -0.79605788
1.5887797 -2.9676051 -0.79605788
1.5755185 -2.986742 -0.79870969
3.0764289 -5.9222355 -1.6176417
3.0373812 -5.9358163 -1.6161952
2.9947896 -5.9422073 -1.6128201
2.9552534 -5.9543853 -1.6111326
2.9135509 -5.9619422 -1.6082398
2.8693433 -5.9639635 -1.6039004
2.8409996 -5.999001 -1.6087219
2.8135633 -6.0365539 -1.6142666
2.7716177 -6.0431175 -1.6113738
2.7285004 -6.0467396 -1.6077576
2.6909533 -6.0624804 -1.6075165
2.6513753 -6.0735407 -1.60607
2.6087015 -6.0772085 -1.602695
2.5819244 -6.1181388 -1.6094451
2.5257511 -6.0890403 -1.5973914
2.4876096 -6.1026258 -1.5969093
2.4439864 -6.1024575 -1.592811
2.4199913 -6.1516604 -1.6019719
2.3787041 -6.15734 -1.5995611
2.3381264 -6.1645594 -1.5976324
2.3012726 -6.1815186 -1.5983557
2.2589731 -6.1836715 -1.5952218
2.2229519 -6.2028975 -1.5966681
2.187423 -6.2237458 -1.5985968
2.1472974 -6.231545 -1.5971503
2.1170909 -6.2685113 -1.6034182
2.0727983 -6.2638764 -1.5988379
2.0328295 -6.2718606 -1.5976324
1.9975352 -6.2943916 -1.6002843
1.9617531 -6.3157983 -1.602695
1.9260654 -6.3379316 -1.6053468
1.8929433 -6.3691673 -1.6104094
1.8454382 -6.3517699 -1.6029361
1.8098732 -6.3751116 -1.60607
1.7670941 -6.373003 -1.602695
1.7277035 -6.3827887 -1.6024539
1.6842967 -6.377317 -1.5983557
1.6458602 -6.3903513 -1.5990789
1.6047298 -6.3927989 -1.5971503
1.5675472 -6.4110103 -1.5993199
1.5315487 -6.4346704 -1.6029361
1.4894124 -6.4326 -1.6000432
1.4456557 -6.4226809 -1.5952218
1.4101553 -6.4494452 -1.5998021
1.3699517 -6.4551282 -1.5990789
1.330709 -6.4653134 -1.5995611
1.2942375 -6.4895377 -1.6036594
1.2547617 -6.4992628 -1.6041415
1.2168168 -6.517334 -1.6067933
1.1676832 -6.4740558 -1.5940163
0.71634543 -4.1136365 -0.99711448
1.0932803 -6.518527 -1.6017307
1.0534172 -6.5260706 -1.6019719
1.0139487 -6.5362477 -1.6029361
0.61089444 -4.1011791 -0.98988223
0.58790779 -4.120223 -0.99373943
0.89634627 -6.5749598 -1.6082398
0.85186046 -6.5485759 -1.6002843
0.81059104 -6.545011 -1.5981146
0.76996356 -6.5460062 -1.5971503
0.72989082 -6.5515718 -1.5973914
0.43119258 -4.0946712 -0.98264998
0.40882787 -4.1252484 -0.98964113
0.60469842 -6.5155783 -1.5853376
0.56537688 -6.5269012 -1.5872662
0.52446377 -6.5196061 -1.5846144
0.48509574 -6.5314121 -1.5867841
0.44619453 -6.5516944 -1.5911235
0.25545549 -4.1171589 -0.98457855
0.36576155 -6.5566764 -1.5911235
0.32667416 -6.5820613 -1.5969093
0.17946082 -4.1172853 -0.98361427
0.24767949 -6.6340661 -1.608963
0.20573537 -6.5956893 -1.5990789
0.1655266 -6.6075001 -1.6017307
0.12556243 -6.639442 -1.6094451
0.084857896 -6.6429987 -1.6101683
0.044020358 -6.6317487 -1.6072755
0.0033253445 -6.6241298 -1.6053468
-0.037297066 -6.6201434 -1.6043825
-0.048078906 -4.1218843 -0.98385537
-0.073422045 -4.124423 -0.98457855
-0.098610148 -4.1190438 -0.98337322
-0.20134273 -6.6696177 -1.6174006
-0.24123621 -6.6401305 -1.6104094
-0.27986568 -6.5890746 -1.5981146
-0.32213503 -6.6250381 -1.6075165
-0.36027667 -6.5773916 -1.596186
-0.40110156 -6.5828066 -1.5981146
-0.27362505 -4.084866 -0.97686416
-0.48355842 -6.6006184 -1.6039004
-0.32373202 -4.0812006 -0.97686416
-0.55796868 -6.5177979 -1.5848554
-0.60310578 -6.5703044 -1.5988379
-0.64350384 -6.5674462 -1.5990789
-0.68671012 -6.5913668 -1.60607
-0.72746104 -6.5899229 -1.6067933
-0.48352414 -4.1503835 -0.99783772
-0.50827038 -4.1415591 -0.99639124
-0.8531149 -6.6100664 -1.615472
-0.89443922 -6.6104774 -1.6169184
-0.9345749 -6.6019821 -1.6161952
-0.97563469 -6.5999637 -1.6171595
-1.0168529 -6.598649 -1.6183649
-1.0582454 -6.5980349 -1.6198114
-0.69154322 -4.1513343 -1.005311
-0.71236527 -4.1202374 -0.99856091
-1.1820863 -6.5917668 -1.6234275
-1.2228651 -6.586298 -1.6239096
-0.78606969 -4.0959435 -0.99590909
-0.81062007 -4.0881872 -0.99518585
-0.83646894 -4.0869393 -0.9961502
-1.3915583 -6.5894361 -1.6328294
-0.89048272 -4.0943842 -1.0007306
-0.9181366 -4.1002069 -1.0036235
-0.94349587 -4.0954418 -1.0038645
-1.5470297 -6.5287485 -1.6265615
-0.73363417 -3.0161631 -0.73096764
-0.74930114 -3.0003068 -0.72807473
-0.76697272 -2.9928327 -0.72735149
-1.6865299 -6.4118562 -1.6067933
-0.80440003 -2.9860065 -0.72807473
-0.81960416 -2.9697893 -0.72518182
-0.83146846 -2.9422925 -0.719396
-0.87731636 -3.0331511 -0.74422675
-1.2165673 -4.1099033 -1.024597
-1.2350082 -4.08007 -1.0188112
-1.2548518 -4.055728 -1.0144719
-1.2797136 -4.0479522 -1.0144719
-1.0788856 -3.3418794 -0.83221912
-1.0935923 -3.3176856 -0.82763869
-1.0838802 -3.2216983 -0.80425441
-1.0947961 -3.1892881 -0.79750431
-1.1092079 -3.1678567 -0.79364711
-1.4673656 -4.1086864 -1.0436419
-1.1277312 -3.0983829 -0.77894157
-1.145032 -3.0868559 -0.77773619
-1.1725366 -3.1024649 -0.78376305
-1.2006246 -3.1187572 -0.79003102
-1.5700181 -4.003922 -1.0282131
-1.6031978 -4.0158429 -1.033999
-1.6292707 -4.0095263 -1.0349633
-1.2497106 -3.0228903 -0.77243251
-1.2633393 -3.0035374 -0.76929855
-1.2794524 -2.9903762 -0.76785207
-1.720978 -3.9540982 -1.0311061
-1.7581764 -3.9727473 -1.0390615
-1.8080195 -4.0185213 -1.0544903
-1.8213347 -3.9826422 -1.0477402
-1.8359151 -3.9502718 -1.0419544
-1.805384 -3.8231075 -1.0101326
-1.8313284 -3.8172073 -1.011579
-1.876411 -3.8503864 -1.0238738
-1.8974168 -3.8335824 -1.0224273
-1.9165428 -3.8131976 -1.0200166
-1.9518213 -3.824703 -1.0265256
-1.988206 -3.8376415 -1.0335168
-2.0062926 -3.8150637 -1.0306239
-2.0100033 -3.7658708 -1.0202577
-2.0210485 -3.7312827 -1.0139897
-2.0429699 -3.7171106 -1.0135076
-2.0818176 -3.7333202 -1.0217041
-2.1295459 -3.7643945 -1.03424
-2.1579196 -3.7605147 -1.0368918
-2.1980474 -3.776556 -1.0453295
-2.2083464 -3.7412715 -1.0390615
-2.2432289 -3.7476332 -1.0448474
-2.2601364 -3.7238441 -1.0419544
-2.285996 -3.7148645 -1.0434009
-2.297441 -3.682656 -1.0380973
-2.3127289 -3.6570084 -1.0347222
-2.3387921 -3.6484673 -1.0364097
-2.351613 -3.6194019 -1.0320704
-2.4010088 -3.6462357 -1.0443652
-2.4141748 -3.6177137 -1.0402669
-2.4553626 -3.6309655 -1.0487045
-2.4803395 -3.6198335 -1.0499099
-2.5052722 -3.6085317 -1.0511153
-2.5251322 -3.5899169 -1.050151
-2.5296457 -3.5498588 -1.0426776
-2.5650179 -3.5531523 -1.0484635
-2.59021 -3.5420461 -1.0499099
-2.6101611 -3.5237472 -1.0491867
-2.6031835 -3.4696338 -1.037374
-2.6526189 -3.4906785 -1.0489457
-2.7853076 -3.618897 -1.0942677
-2.8122351 -3.607861 -1.0961963
-2.7037897 -3.4252672 -1.0438831
-2.7229371 -3.4063389 -1.0431598
-2.733403 -3.3767462 -1.0390615
-2.7842271 -3.3966811 -1.0508742
-2.7337129 -3.2936716 -1.0231506
-2.85693 -3.3993986 -1.062928
-2.8607476 -3.3618529 -1.0564189
-2.9060347 -3.3729048 -1.0658208
-2.9222085 -3.3498919 -1.0641334
-2.9311407 -3.3188081 -1.0597939
-2.9941573 -3.3484979 -1.0757049
-3.0244198 -3.3408527 -1.079321
-3.2068737 -3.4989114 -1.1388667
-3.1734776 -3.4201338 -1.1188574
-3.0275772 -3.2230909 -1.0583476
-3.1516566 -3.3141377 -1.0959553
-3.210309 -3.3345795 -1.1096965
-3.2700071 -3.3551195 -1.1236789
-3.3334858 -3.3785043 -1.1388667
-3.3939428 -3.3978024 -1.152849
-3.4036839 -3.3659976 -1.1489918
-3.4659371 -3.38573 -1.1634563
-3.4635942 -3.3421664 -1.1555008
-3.4566321 -3.2947435 -1.1460989
-3.459821 -3.2575092 -1.140313
-3.4534428 -3.2117708 -1.1313933
-3.5009649 -3.2161195 -1.1407952
-3.4832506 -3.1606741 -1.1282593
-3.393425 -3.0414596 -1.091857
-3.3967597 -3.0070751 -1.0867944
-3.6022224 -3.1496694 -1.1485096
-3.8455546 -3.3209229 -1.2220376
-3.9434061 -3.3633754 -1.2473503
-4.3670897 -3.6785374 -1.3782542
-3.3687541 -2.8028026 -1.0484635
-3.3956387 -2.7900867 -1.0515975
-3.4315388 -2.7844818 -1.0576243
-3.3705356 -2.700886 -1.0327936
-3.4814358 -2.7548041 -1.0626869
-3.5204556 -2.7507133 -1.0696781
-3.4926915 -2.6946878 -1.0556958
-3.5678451 -2.7178872 -1.0740174
-3.5596302 -2.6772833 -1.066303
-3.4762366 -2.581358 -1.0354455
-3.4567811 -2.534168 -1.024597
-3.5013611 -2.5339546 -1.0335168
-3.4931479 -2.4955046 -1.0262846
-3.5226734 -2.4840877 -1.0306239
-3.5848548 -2.4951246 -1.0448474
-3.5712938 -2.4533062 -1.0361687
-3.5718179 -2.4215479 -1.0318292
-3.6229136 -2.4238613 -1.0426776
-3.6571593 -2.4144137 -1.0484635
-3.7019982 -2.41152 -1.0573833
-3.7069266 -2.3824656 -1.0544903
-3.7075393 -2.3508441 -1.050392
-3.7235401 -2.3290796 -1.0508742
-3.7303262 -2.301604 -1.0487045
-3.7394032 -2.2756462 -1.0472581
-3.8023996 -2.2821124 -1.0614815
-3.8464022 -2.2765257 -1.0701603
-3.7907169 -2.2122979 -1.050151
-3.8244114 -2.2006083 -1.0559368
-3.8361535 -2.1761434 -1.0554546
-3.8197823 -2.1359935 -1.047017
-3.8217657 -2.1064286 -1.0438831
-3.8209715 -2.0755308 -1.0400258
-3.8267887 -2.0483844 -1.0380973
-3.7894893 -1.9986193 -1.0241148
-3.7749805 -1.9614654 -1.0166416
-3.8569322 -1.9740632 -1.0361687
-3.8577046 -1.944684 -1.0330347
-3.8939075 -1.9330536 -1.0397848
-3.9170315 -1.9146622 -1.0429187
-3.9540701 -1.9027894 -1.0499099
-3.9709342 -1.8809831 -1.0513563
-3.9771225 -1.8541235 -1.0499099
-4.0254779 -1.8466718 -1.0600351
-4.0500031 -1.8279223 -1.0636512
-4.0744495 -1.8089412 -1.0672673
-4.1210532 -1.799432 -1.0769104
-4.1311245 -1.7737292 -1.0766692
-4.2250919 -1.7834258 -1.0990893
-4.2198181 -1.7507771 -1.0947499
-4.2817116 -1.7457243 -1.1084912
-4.3184714 -1.7298784 -1.1154823
-4.4048734 -1.7331789 -1.1357327
-4.5331221 -1.7515633 -1.1670724
-4.5837135 -1.7388524 -1.1776797
-4.6097593 -1.7164479 -1.181778
-4.6174698 -1.6871321 -1.1810547
-4.6889505 -1.6806941 -1.1972067
-4.7852468 -1.6821258 -1.2198678
-4.9349551 -1.7007668 -1.2565112
-5.1457572 -1.7381172 -1.3090656
-5.2595243 -1.7406408 -1.336066
-5.3005738 -1.7182055 -1.3440214
-5.34062 -1.6950383 -1.3517359
-6.1480336 -1.9096758 -1.5590605
-6.4595814 -1.963011 -1.6369277
-6.0900664 -1.8100461 -1.5380869
-5.98176 -1.738006 -1.5072293
-6.5441036 -1.8578176 -1.6497047
-6.5609913 -1.8191837 -1.6511511
-6.584209 -1.7821864 -1.6542851
-6.7019954 -1.7699857 -1.6817677
-6.7851 -1.7474555 -1.7003304
-6.8917117 -1.7298744 -1.72492
-6.9795036 -1.7064431 -1.7446883
-7.0700974 -1.6826725 -1.7651796
-7.2476482 -1.6779791 -1.8078499
-7.5797386 -1.7058794 -1.8898154
-7.7455587 -1.6933091 -1.9293517
-7.7681446 -1.6483685 -1.9324857
-7.8085327 -1.6069285 -1.9402001
-7.7887397 -1.5531069 -1.9327267
-7.8362403 -1.512639 -1.9423698
-7.8406043 -1.4636385 -1.9411644
-7.8494372 -1.415502 -1.9411644
-7.8283339 -1.3621588 -1.9336911
-7.8212299 -1.3115336 -1.9298339
-7.8358369 -1.2646002 -1.9315214
-7.8856473 -1.2230352 -1.9421287
-7.8968434 -1.1751976 -1.9430931
-7.8942976 -1.1253531 -1.9406823
-7.9250946 -1.0801666 -1.9467092
-7.9055882 -1.0281432 -1.9402001
-7.903079 -0.978544 -1.9380305
-7.9330316 -0.9328633 -1.9440573
-7.9009886 -0.87998533 -1.9346554
-7.9081697 -0.83169198 -1.9351375
-7.9276109 -0.78458434 -1.9387537
-7.9467716 -0.73726934 -1.9423698
-7.9675827 -0.68991596 -1.9464681
-7.9339375 -0.63798648 -1.9370662
-7.9299603 -0.58871901 -1.9351375
-7.9653764 -0.54222107 -1.9430931
-7.9278698 -0.49082345 -1.9329679
-7.9404221 -0.44270855 -1.9353787
-7.9226332 -0.39297199 -1.9303161
-7.932652 -0.34468815 -1.9322447
-7.9491653 -0.29654843 -1.9358608
-7.9653859 -0.24821898 -1.9394768
-7.9463844 -0.1988328 -1.9344143
-7.9590993 -0.15028912 -1.9373072
-7.9443445 -0.10125455 -1.93345
-7.9341412 -0.052438062 -1.9307982
-7.9721632 -0.0037664874 -1.9402001
-7.9448624 0.044992011 -1.93345
-7.9279394 0.093542859 -1.9293517
-7.9427419 0.14246675 -1.9332089
-7.9378371 0.19110583 -1.9322447
-7.9239044 0.239425 -1.9291106
-7.9300451 0.28832388 -1.9310392
-7.9329748 0.33718309 -1.9322447
-7.9181547 0.3852376 -1.9291106
-7.8981991 0.43285674 -1.9247713
-7.9021754 0.48172539 -1.9264588
-7.9000392 0.53026831 -1.9266999
-7.5585899 -0.18829347 -1.926368
-7.5625062 -0.14196594 -1.9271232
-7.5748472 -0.095707931 -1.930144
-7.5675497 -0.049177025 -1.9281301
-7.521255 -0.0027232298 -1.916047
-7.5491958 0.043586951 -1.9233472
-7.5178189 0.089539915 -1.9152918
-7.5258365 0.13582341 -1.9175574
-7.5364718 0.18227872 -1.9205781
-7.5458522 0.22884035 -1.9233472
-7.556879 0.27559441 -1.9266198
-7.5424757 0.32142234 -1.9233472
-7.553895 0.36835527 -1.9268714
-7.5176702 0.41284257 -1.9180609
-7.4889135 0.45737082 -1.9112641
-7.5110726 0.505 -1.9178091
-7.5087976 0.55114836 -1.9180609
-7.4936976 0.59629047 -1.91504
-7.5043616 0.64349926 -1.9188161
-7.5060544 0.69006431 -1.9203265
-7.5007157 0.73601317 -1.9200747
-7.4681435 0.7791121 -1.9127744
-7.4978523 0.82874697 -1.9218369
-7.4839749 0.87372774 -1.9195713
-7.4775124 0.91951406 -1.9193195
-7.4870868 0.96736127 -1.9233472
-7.4647064 1.0110755 -1.9190677
-7.4459047 1.0550946 -1.9157952
-7.4507794 1.1024612 -1.9188161
-7.4362226 1.1469778 -1.9168022
-7.4357338 1.1936574 -1.9185643
-7.4234967 1.2384636 -1.9173057
-7.4071755 1.2825046 -1.91504
-7.3886881 1.3260499 -1.912271
-7.3794613 1.3711843 -1.9120193
-7.3709087 1.4164381 -1.9120193
-7.3478398 1.4588122 -1.9082433
-7.3482313 1.5058126 -1.9107606
-7.3303313 1.5490718 -1.9084951
-7.3083949 1.5913446 -1.9052225
-7.2984934 1.6361581 -1.9052225
-7.2883167 1.68091 -1.9052225
-7.2769237 1.7253754 -1.9049708
-7.2737226 1.7718253 -1.9069847
-7.2589583 1.8154836 -1.9059777
-7.2561188 1.8621542 -1.9082433
-7.2408128 1.9056568 -1.9072363
-7.2355242 1.9518138 -1.9089985
-7.2094193 1.9923073 -1.9052225
-7.2007842 2.0375597 -1.9062295
-7.1955833 2.083858 -1.9082433
-7.1297684 2.1123028 -1.8938947
-7.1629853 2.170038 -1.9064811
-7.1338191 2.2090826 -1.9022018
-7.117362 2.2519376 -1.9014466
-7.0877547 2.290508 -1.8971671
-7.1250353 2.3509338 -1.9112641
-7.1242342 2.3992405 -1.91504
-7.0947337 2.4378774 -1.9110124
-7.0632014 2.4756029 -1.9064811
-7.0378537 2.5153129 -1.9037122
-7.0041008 2.5518241 -1.8986775
-6.9928474 2.5964365 -1.8999362
-6.9876471 2.6434035 -1.902957
-6.9902611 2.6935356 -1.9082433
-6.9772058 2.7377903 -1.9092503
-6.9674659 2.783422 -1.9112641
-6.9350147 2.8199246 -1.9069847
-6.909533 2.8590941 -1.9047191
-6.8873997 2.899559 -1.9034604
-6.8801551 2.946336 -1.9064811
-6.8495245 2.9830871 -1.902957
-6.8204727 3.0203569 -1.8999362
-6.8203444 3.0704918 -1.9052225
-6.7987356 3.1110749 -1.9044673
-6.7672324 3.1470199 -1.9009432
-6.7574205 3.1930313 -1.9037122
-6.7377014 3.2344339 -1.9037122
-6.7255578 3.279532 -1.9059777
-6.6870952 3.3117187 -1.9006914
-6.6536794 3.3461661 -1.8969154
-6.6356082 3.3882496 -1.8976706
-6.6224265 3.4329093 -1.8999362
-6.5969558 3.471226 -1.8986775
-6.5883379 3.5184767 -1.9024535
-6.5615196 3.5560691 -1.9009432
-6.5268555 3.5892684 -1.8971671
-6.5030193 3.6283059 -1.8966637
-6.4840031 3.6700461 -1.8976706
-6.4638801 3.7112076 -1.8984258
-6.448514 3.7551823 -1.9006914
-6.4186845 3.7907419 -1.8986775
-6.4011159 3.8335354 -1.9004396
-6.3783007 3.8732419 -1.9006914
-6.3593597 3.9153497 -1.9022018
-6.3056593 3.9358499 -1.8931395
-6.28548 3.9770536 -1.8943981
-6.2739935 4.0239048 -1.8984258
-6.2232189 4.0454478 -1.8903704
-6.2095938 4.0910101 -1.8938947
-6.2036929 4.1419311 -1.8999362
-6.176559 4.1788335 -1.8994327
-6.1140814 4.191483 -1.887853
-6.1248131 4.2543149 -1.8994327
-6.0938449 4.2884741 -1.8979223
-6.0760851 4.331964 -1.9006914
-6.0376215 4.3606658 -1.8969154
-6.0076265 4.3953443 -1.8959085
-5.9805441 4.4321237 -1.8959085
-5.9516888 4.4675741 -1.8954051
-5.9334097 4.5110373 -1.8984258
-5.8941159 4.5385027 -1.8946499
-5.8386817 4.5531592 -1.8855875
-5.8394966 4.6116905 -1.8951533
-5.7808561 4.6232572 -1.885084
-5.7734389 4.6756945 -1.8921325
-5.7476344 4.7134862 -1.8931395
-5.7037129 4.7362995 -1.8881048
-5.6849151 4.7799268 -1.891629
-5.655479 4.8147187 -1.891629
-5.6390257 4.8607025 -1.8961602
-5.6149282 4.9003019 -1.898174
-5.5796781 4.9301767 -1.8964119
-5.5421085 4.9578681 -1.8938947
-5.5108662 4.9911308 -1.8936429
-5.4637299 5.0098081 -1.887853
-5.44069 5.0504808 -1.8906221
-5.4110093 5.0850949 -1.8911256
-5.3811083 5.1195345 -1.891629
-5.3203158 5.1242599 -1.8810563
-5.3282728 5.1953177 -1.8954051
-5.2956061 5.2272334 -1.8951533
-5.2435784 5.2397909 -1.887853
-5.1936383 5.2539721 -1.8813081
-5.1768551 5.3016658 -1.8870978
-5.1375079 5.3263655 -1.8845805
-5.1013913 5.3542848 -1.8833219
-5.0790548 5.3967614 -1.8873496
-5.0326657 5.4136486 -1.8823149
-5.0117912 5.4579701 -1.8870978
-4.9684539 5.4778666 -1.8833219
-4.9392695 5.5132952 -1.885084
-4.9168925 5.5565434 -1.8896152
-4.8642349 5.5654769 -1.8823149
-4.8224049 5.5864277 -1.8792942
-4.7924318 5.6210675 -1.8810563
-4.7802939 5.6770172 -1.8901186
-4.7305183 5.6883836 -1.8840771
-4.70474 5.7285204 -1.887853
-4.6627955 5.7490125 -1.885084
-4.6250124 5.7744932 -1.8840771
-4.5876923 5.8004861 -1.8833219
-4.5692911 5.8506451 -1.8906221
-4.5143929 5.8540483 -1.8825667
-4.4942188 5.9024267 -1.8893634
-4.4282565 5.8904409 -1.8765252
-4.4087582 5.9400373 -1.8838253
-4.374516 5.9700994 -1.8848323
-4.3440418 6.0054541 -1.8876014
-4.3042989 6.0280576 -1.8863426
-4.2778249 6.0693841 -1.8911256
-4.2465835 6.1042571 -1.8938947
-4.2150745 6.1389747 -1.8966637
-4.181128 6.17033 -1.8984258
-4.1351185 6.1838017 -1.8946499
-4.0970974 6.2090583 -1.8946499
-4.0652595 6.2438126 -1.8976706
-4.0258255 6.2670107 -1.8971671
-3.9815969 6.2826028 -1.8943981
-3.9419465 6.305274 -1.8938947
-3.9011517 6.3260479 -1.8928877
-3.866286 6.3564801 -1.8949015
-3.8192444 6.3668056 -1.8908738
-3.7850344 6.3984494 -1.8933911
-3.7496045 6.4282413 -1.8954051
-3.7125034 6.4553218 -1.8966637
-3.6766436 6.4847145 -1.8986775
-3.634896 6.5037727 -1.8976706
-3.6019263 6.5386686 -1.9014466
-3.5654323 6.567451 -1.9034604
-3.5268943 6.5926175 -1.9044673
-3.4836686 6.6089973 -1.902957
-3.4443891 6.6328249 -1.9037122
-3.4128826 6.6719279 -1.9089985
-3.3662188 6.6815076 -1.905726
-3.3273094 6.7063713 -1.9069847
-3.2882214 6.731009 -1.9082433
-3.2376297 6.7318711 -1.9027052
-3.2041316 6.7682295 -1.9074881
-3.1531403 6.7675858 -1.9016984
-3.1155896 6.7956033 -1.9042156
-3.0690582 6.8040061 -1.9011948
-3.0390286 6.8492475 -1.9087468
-2.9903641 6.8526864 -1.9044673
-2.9585657 6.8949189 -1.9112641
-2.9056697 6.8879752 -1.9042156
-2.8666878 6.9137201 -1.9064811
-2.8172724 6.9141512 -1.9016984
-2.7762339 6.9349017 -1.9027052
-2.7286711 6.9391966 -1.899181
-2.6985941 6.9883099 -1.9082433
-2.6525755 6.996592 -1.9059777
-2.6136463 7.0236206 -1.9089985
-2.5681767 7.0331616 -1.9072363
-2.5184455 7.0305657 -1.9022018
-2.4762218 7.0486255 -1.902957
-2.4310343 7.0581965 -1.9014466
-2.3904667 7.0812325 -1.9037122
-2.3478839 7.0985231 -1.9044673
-2.3066704 7.1201615 -1.9064811
-2.2603047 7.1258783 -1.9042156
-2.2237134 7.1627197 -1.9105089
-2.1816912 7.1827116 -1.912271
-2.1315138 7.1755533 -1.9067329
-2.0874455 7.1884966 -1.9067329
-2.041713 7.1955838 -1.9052225
-2.0001085 7.2173023 -1.9077399
-1.950225 7.2088861 -1.9022018
-1.9111433 7.2403674 -1.9074881
-1.8700595 7.265079 -1.9110124
-1.8228556 7.2660909 -1.9082433
-1.7715738 7.2498755 -1.9009432
-1.7322081 7.2822642 -1.9067329
-1.6946939 7.3238702 -1.91504
-1.6452624 7.3143029 -1.9097537
-1.5850604 7.2542949 -1.8911256
-1.5618075 7.3642373 -1.9178091
-1.5154219 7.3679943 -1.9162987
-1.4679137 7.3657646 -1.913278
-1.425808 7.3907871 -1.9175574
-1.3816749 7.4060564 -1.9193195
-1.3307118 7.3839164 -1.9112641
-1.2843847 7.3862219 -1.9097537
-1.2404796 7.4025536 -1.9120193
-1.1968846 7.4214911 -1.91504
-1.1513247 7.4286957 -1.91504
-1.1081423 7.4518933 -1.9193195
-1.0608957 7.4480133 -1.9165505
-1.0171353 7.4687667 -1.9203265
-0.96841913 7.4527936 -1.9145366
-0.92279029 7.4595556 -1.9147884
-0.87564629 7.4535432 -1.9117676
-0.83107352 7.4693565 -1.9145366
-0.78613728 7.4829774 -1.9168022
-0.73925519 7.4780293 -1.9142848
-0.69282085 7.4766426 -1.9127744
-0.64543021 7.4633975 -1.9082433
-0.59985602 7.4701114 -1.9089985
-0.55379421 7.4707561 -1.9082433
-0.50833815 7.4798064 -1.9097537
-0.46315029 7.4943762 -1.9127744
-0.41715693 7.497077 -1.9127744
-0.37148312 7.5062618 -1.9145366
-0.32525072 7.5045323 -1.9135296
-0.27966595 7.5189595 -1.9168022
-0.23385619 7.5311747 -1.9195713
-0.18624055 7.4763532 -1.9049708
-0.14147413 7.5363803 -1.9203265
-0.094799399 7.5032363 -1.9115158
-0.048853714 7.5181932 -1.9152918
-0.0027123983 7.4951243 -1.9092503
0.043415301 7.5191946 -1.9155436
0.089666143 7.5284638 -1.9180609
0.13625874 7.5500274 -1.9238507
0.18195182 7.5229263 -1.9170539
0.22778606 7.5110273 -1.9142848
0.27460822 7.529799 -1.9195713
0.31944692 7.4960637 -1.9112641
0.36581257 7.5016956 -1.913278
0.41093394 7.482882 -1.9089985
0.45849079 7.5072675 -1.916047
0.50285923 7.479207 -1.909502
0.5466882 7.4479899 -1.9022018
0.59467942 7.4734378 -1.9097537
0.6395328 7.458077 -1.9067329
0.68607956 7.4626861 -1.9089985
0.73185688 7.4583359 -1.9089985
0.77820879 7.4594803 -1.9105089
0.82173288 7.4343643 -1.9052225
0.86856776 7.4397564 -1.9079915
0.91396475 7.4323654 -1.9074881
0.96463412 7.4659705 -1.9178091
1.0084785 7.4455252 -1.9140332
1.0579449 7.4660277 -1.9210817
1.099629 7.4316316 -1.9137814
1.1360642 7.3654423 -1.898174
1.1855301 7.3850884 -1.9052225
1.2303442 7.3748116 -1.9044673
1.2765623 7.3728452 -1.9059777
1.3222899 7.3677311 -1.9067329
1.3680029 7.3623338 -1.9074881
1.4115083 7.3452473 -1.9052225
1.4554209 7.3307528 -1.9037122
1.5023165 7.3311653 -1.9062295
1.5436704 7.3047652 -1.9016984
1.5931972 7.316906 -1.9074881
1.636793 7.3013263 -1.9059777
1.6861286 7.3109498 -1.9112641
1.726938 7.2835155 -1.9067329
1.7679323 7.2577372 -1.9027052
1.8117273 7.2439361 -1.90195
1.8554196 7.2298708 -1.9011948
1.9017165 7.2258377 -1.9032087
1.9424895 7.2009511 -1.8996844
1.9868948 7.1898293 -1.8999362
2.0315003 7.1793652 -1.9004396
2.0776672 7.174202 -1.9024535
2.1205487 7.1576071 -1.9014466
2.1633048 7.1407557 -1.9004396
2.2039304 7.117178 -1.8976706
2.2458076 7.0979848 -1.8961602
2.2893178 7.0840712 -1.8961602
2.330013 7.0616188 -1.8938947
2.3745337 7.050858 -1.8949015
2.4180667 7.0370708 -1.8951533
2.4589593 7.015708 -1.8933911
2.5009837 6.9977541 -1.8926359
2.5445366 6.9840951 -1.8931395
2.5849845 6.9619994 -1.8913773
2.6225181 6.9324293 -1.8876014
2.6653533 6.9171104 -1.887853
2.7109268 6.9087343 -1.8901186
2.7493181 6.8820839 -1.8873496
2.7918587 6.8659816 -1.8876014
2.8320849 6.8442502 -1.8863426
2.8729007 6.8240681 -1.8855875
2.9063377 6.7867393 -1.8800493
2.9459939 6.7643418 -1.8787907
2.9854844 6.7417135 -1.8775321
3.0351367 6.7418008 -1.8828185
3.0784597 6.7274508 -1.8840771
3.1123359 6.6926389 -1.8795459
3.159544 6.6865416 -1.8833219
3.1950681 6.6556869 -1.8800493
3.2426326 6.6498756 -1.8840771
3.2807977 6.62465 -1.8825667
3.3266013 6.6147704 -1.8855875
3.3578846 6.5761333 -1.8803011
3.3874834 6.5347843 -1.8742596
3.4198558 6.4993157 -1.8699801
3.4706111 6.4986982 -1.8760216
3.5016603 6.4611139 -1.8712388
3.5342445 6.4267855 -1.8674628
3.5575809 6.3762431 -1.8589039
3.5913944 6.3450294 -1.8561349
3.6268864 6.316998 -1.8543727
3.6631436 6.2904434 -1.8531141
3.7090535 6.2803483 -1.8568901
3.7400613 6.2450171 -1.8531141
3.7938805 6.2475958 -1.8609178
3.8346803 6.2283201 -1.8621764
3.8651383 6.1923585 -1.8584005
3.9077182 6.1758866 -1.860666
3.9471064 6.1542368 -1.8614212
3.9737177 6.1128616 -1.8561349
4.0063591 6.0810905 -1.8538693
4.0554185 6.0741014 -1.8594074
4.0606179 6.0018091 -1.8445553
4.0962734 5.975184 -1.8440517
4.1273384 5.9419885 -1.8415345
4.1726313 5.9292154 -1.8455622
4.2089338 5.903501 -1.8455622
4.2734079 5.9167938 -1.8581487
4.3210607 5.9060836 -1.8631834
4.3514562 5.8716831 -1.860666
4.3786879 5.833262 -1.8568901
4.4348969 5.833251 -1.8657007
4.4611592 5.7936597 -1.861673
4.4906735 5.7585454 -1.8591557
4.5259228 5.7308826 -1.8591557
4.5730901 5.7181211 -1.8641903
4.5904274 5.6681418 -1.8568901
4.6386204 5.656333 -1.8624282
4.6602564 5.6121283 -1.8571419
4.6977181 5.5871315 -1.8584005
4.7588868 5.5898905 -1.8692249
4.7867775 5.5532546 -1.8667076
4.8264885 5.5303416 -1.8689733
4.8423896 5.4803147 -1.8619248
4.8791509 5.4541063 -1.8631834
4.9157729 5.4276524 -1.864442
4.9581404 5.4073744 -1.8679663
4.9859591 5.3711758 -1.8659524
5.0227981 5.3447127 -1.8674628
5.051496 5.3095856 -1.8659524
5.1074767 5.3028889 -1.874763
5.1169481 5.247889 -1.8662041
5.1606092 5.2281032 -1.8704836
5.1775422 5.1812782 -1.8649455
5.2202482 5.1602983 -1.8689733
5.2428117 5.11938 -1.8657007
5.2713389 5.0844269 -1.8646938
5.3206539 5.069345 -1.8712388
5.337564 5.0233364 -1.8662041
5.37183 4.9937859 -1.8674628
5.3938165 4.9528756 -1.864442
5.4477601 4.9411445 -1.8727492
5.4657226 4.8966455 -1.8684697
5.4971142 4.8642988 -1.8689733
5.5326867 4.8355732 -1.8709871
5.5497999 4.7907829 -1.8667076
5.598238 4.7729659 -1.8732526
5.6259384 4.7372789 -1.8727492
5.6482034 4.6971002 -1.8704836
5.6821527 4.6666551 -1.8722457
5.6926413 4.6170697 -1.8662041
5.7450347 4.6014152 -1.8742596
5.7845459 4.5750837 -1.8780355
5.8071704 4.5353341 -1.8762734
5.8425531 4.505527 -1.8787907
5.8616185 4.4631433 -1.8760216
5.895082 4.431746 -1.8780355
5.9244952 4.3972216 -1.8787907
5.9443388 4.355638 -1.8765252
5.9991808 4.3395038 -1.8855875
5.9949789 4.2806768 -1.87577
6.0329971 4.2521758 -1.8795459
6.074863 4.2261324 -1.8845805
6.1158381 4.1991873 -1.8893634
6.1358805 4.1577816 -1.8876014
6.1572542 4.1173639 -1.8863426
6.1872487 4.0827045 -1.887853
6.1935301 4.0325174 -1.8820633
6.2124567 3.9907768 -1.8803011
6.2564449 3.9650173 -1.8863426
6.2724504 3.9214232 -1.8838253
6.3038073 3.8874347 -1.886091
6.3159657 3.8416405 -1.8825667
6.3593364 3.8147633 -1.8886082
6.3276496 3.7431474 -1.871994
6.4023266 3.7344866 -1.8876014
6.4142146 3.6888595 -1.8843288
6.4501982 3.6570711 -1.8883566
6.4463277 3.6027865 -1.8805529
6.4928951 3.5767078 -1.887853
6.5402346 3.5506549 -1.8954051
6.5550709 3.5068054 -1.8933911
6.5807457 3.4687748 -1.8946499
6.6122122 3.4336836 -1.8976706
6.6159244 3.3842316 -1.8926359
6.6391582 3.3448796 -1.8933911
6.6690931 3.3088117 -1.8961602
6.6840529 3.2652793 -1.8946499
6.6961131 3.2204297 -1.8923842
6.7157469 3.1792827 -1.8923842
6.7272334 3.1343367 -1.8901186
6.7436996 3.09179 -1.8893634
6.7837157 3.0599048 -1.8954051
6.8120937 3.0225413 -1.898174
6.8092237 2.971395 -1.8921325
6.8486724 2.9387188 -1.898174
6.8665748 2.8966408 -1.898174
6.8734913 2.8500049 -1.8951533
6.8953304 2.8096025 -1.8964119
6.9151354 2.7683198 -1.8971671
6.9355941 2.7272542 -1.898174
6.9395585 2.6797652 -1.8946499
6.9576802 2.6378207 -1.8951533
6.9673853 2.5927165 -1.8933911
7.0031624 2.5572207 -1.8989292
7.024188 2.5161605 -1.9004396
7.0422339 2.4739761 -1.9011948
7.0572815 2.4307191 -1.9011948
7.0674782 2.3858228 -1.8999362
7.095767 2.346972 -1.9037122
7.0989857 2.2998092 -1.9006914
7.1166534 2.2573781 -1.9016984
7.1460829 2.2185476 -1.9059777
7.1660433 2.1766274 -1.9077399
7.1616373 2.1273794 -1.902957
7.1829205 2.0858257 -1.9052225
7.1853423 2.0388064 -1.9024535
7.1967845 1.9944211 -1.9022018
7.1995444 1.9476972 -1.8996844
7.2169743 1.9049672 -1.9011948
7.2163429 1.8575119 -1.8979223
7.2567039 1.8205001 -1.905726
7.2761989 1.7780076 -1.9079915
7.2756734 1.7306402 -1.9049708
7.3078418 1.690984 -1.9107606
7.3114705 1.6446251 -1.9089985
7.3204784 1.5995252 -1.9087468
7.3235278 1.5531716 -1.9069847
7.3376598 1.5091811 -1.9082433
7.3353925 1.4618592 -1.9052225
7.3774834 1.4232408 -1.9140332
7.3784666 1.3765262 -1.9120193
7.4058228 1.3346609 -1.9170539
7.3814545 1.2835555 -1.9084951
7.3958726 1.2393596 -1.9102572
7.3842287 1.1908733 -1.9052225
6.3011336 0.9765107 -1.6182486
5.8475204 0.86947632 -1.4974174
5.8297505 0.83030361 -1.4913759
5.8117208 0.79138184 -1.4853343
5.8279839 0.757204 -1.488355
5.8008246 0.7175073 -1.4800479
5.8022346 0.68156165 -1.4792928
0 0 -0
0 0 -0
0 0 -0
0 0 -0
0 0 -0
0 0 -0
0 0 -0
0 0 -0
5.8087916 0.35889274 -1.4735029
5.8002553 0.32265192 -1.4707339
5.7914929 0.28652939 -1.4679649
5.7322283 0.24834481 -1.4521058
5.8090801 0.21597762 -1.4717408
5.8160996 0.18051024 -1.4732512
5.8170977 0.14481992 -1.4732512
5.8091683 0.10896022 -1.4709857
5.8000503 0.073191002 -1.4684683
5.7258716 0.037113052 -1.449085
5.784059 0.0020031349 -1.4641888
5.8100929 -0.033636726 -1.4709857
5.8097768 -0.069286153 -1.4709857
5.743443 -0.1037489 -1.4538679
0 -0 -0
0 -0 -0
0 -0 -0
0 -0 -0
0 -0 -0
0 -0 -0
0 -0 -0
5.8376522 -0.3925772 -1.4815583
5.8467159 -0.42923853 -1.4845791
5.8931746 -0.46901774 -1.4974174
5.8901858 -0.5051688 -1.4974174
5.9447994 -0.54661375 -1.5125213
5.8951011 -0.57854593 -1.5004382
7.5210853 -0.78463244 -1.9266198
7.526711 -0.83193523 -1.9293888
7.5272322 -0.8787756 -1.9308991
7.5159349 -0.92423689 -1.9293888
7.4717293 -0.96537787 -1.9193195
7.4666243 -1.0113353 -1.9195713
7.4344063 -1.0534658 -1.9127744
7.2133489 -1.0673423 -1.8563867
7.02493 -1.0835613 -1.8085576
6.8528357 -1.1001161 -1.7650081
6.7476311 -1.1257453 -1.7390797
6.6719365 -1.1552424 -1.720955
6.5866103 -1.1821443 -1.7003131
6.5230932 -1.2121085 -1.6854609
6.5478473 -1.2583185 -1.6940198
6.6643586 -1.323154 -1.7269967
6.6371522 -1.360136 -1.721962
6.6258411 -1.4002351 -1.7212068
6.6199617 -1.4414817 -1.721962
6.5921049 -1.4778408 -1.7169273
6.5631089 -1.513695 -1.711641
6.5405135 -1.5508119 -1.7081168
6.5064268 -1.5849605 -1.7015717
6.4712291 -1.6185147 -1.694775
6.4518018 -1.6557857 -1.6922576
6.4293532 -1.6921405 -1.6889851
6.3917518 -1.7242501 -1.681685
6.3334765 -1.7502922 -1.6688466
6.3552113 -1.7983416 -1.6776572
6.3282537 -1.8327268 -1.6733778
6.3038979 -1.8676736 -1.6698536
6.2932458 -1.906599 -1.6701052
6.2546182 -1.9368771 -1.6628051
6.2352343 -1.9728831 -1.6607912
6.2073555 -2.0060461 -1.6565118
6.1976871 -2.0450056 -1.657267
6.1859398 -2.0833042 -1.6575187
6.1464972 -2.112102 -1.6502185
6.144382 -2.1536174 -1.6532393
6.1401653 -2.1945345 -1.6557566
6.0965762 -2.2212374 -1.6474494
6.0810175 -2.2579298 -1.646946
6.0634279 -2.2938302 -1.645939
6.0564637 -2.333775 -1.6479529
6.0321198 -2.3670046 -1.6451838
6.0237737 -2.4064853 -1.646946
6.026825 -2.4506912 -1.6519806
6.0241942 -2.4928048 -1.6555048
5.9945135 -2.5237141 -1.6514771
5.9548941 -2.550163 -1.6446804
5.9524446 -2.5924494 -1.6484563
5.9443898 -2.6324506 -1.6507219
5.9104753 -2.6609302 -1.6456873
5.8922768 -2.6963406 -1.6451838
5.8791318 -2.7340765 -1.6461908
5.8526196 -2.7655511 -1.6434218
5.8215804 -2.7947094 -1.639394
5.8147616 -2.8354669 -1.6424148
5.7998557 -2.8723805 -1.64317
5.7803926 -2.9070442 -1.6426666
5.7589989 -2.940697 -1.6416596
5.7391281 -2.9750874 -1.6411562
5.7070613 -3.0030363 -1.6371285
5.6834054 -3.0352623 -1.6356181
5.6723328 -3.0742278 -1.6378837
5.6482744 -3.1061769 -1.6363733
5.6215024 -3.1365321 -1.6341077
5.6223655 -3.1824062 -1.6401492
5.6086082 -3.2202172 -1.6419114
5.5879073 -3.2540834 -1.6416596
5.5420017 -3.2730539 -1.6338559
5.53759 -3.3164442 -1.6386389
5.5146546 -3.3488529 -1.6378837
5.4997721 -3.3861787 -1.6396458
5.4977746 -3.4316461 -1.6454356
5.4635291 -3.4570365 -1.6414078
5.4365115 -3.4868379 -1.6396458
5.4288092 -3.5290964 -1.6439252
5.3957381 -3.5548868 -1.640401
5.3681898 -3.584166 -1.6386389
5.3444934 -3.6159527 -1.6381353
5.3341794 -3.6568856 -1.6419114
5.3013072 -3.6823697 -1.6386389
5.2881107 -3.7215118 -1.6416596
5.2722688 -3.758945 -1.6439252
5.2475362 -3.790091 -1.6434218
5.1921568 -3.7987902 -1.6331007
5.1625295 -3.8259676 -1.6310868
5.1366343 -3.8558295 -1.6303316
5.1175013 -3.8907888 -1.6318421
5.0912309 -3.9203446 -1.6310868
5.0502901 -3.9384179 -1.6255488
5.0450177 -3.9843261 -1.6318421
5.0386157 -4.0297127 -1.6378837
4.9980001 -4.0477633 -1.6325973
4.9887853 -4.0912409 -1.6378837
4.9628434 -4.1211562 -1.6376319
4.9515381 -4.1633635 -1.6424148
4.9288468 -4.1961761 -1.6434218
4.9022737 -4.2257085 -1.64317
4.8893785 -4.2671623 -1.6477011
4.8797851 -4.3118205 -1.653491
4.8366456 -4.3268414 -1.6477011
4.7899194 -4.3382468 -1.6406527
4.7960248 -4.3976407 -1.6522323
4.77037 -4.4283028 -1.6527358
4.7445192 -4.4588151 -1.6532393
4.7360034 -4.5058532 -1.660036
4.6775947 -4.5052896 -1.6489599
4.631846 -4.5163403 -1.6424148
4.6047354 -4.5453553 -1.6426666
2.3106687 -2.3093114 -0.80943513
2.2957749 -2.3227577 -0.80918336
2.2821558 -2.3374929 -0.80943513
4.5368185 -4.7036605 -1.6595325
4.4524589 -4.6732554 -1.6386389
4.4157405 -4.6920304 -1.6356181
4.3829141 -4.7147841 -1.6341077
4.4193635 -4.81287 -1.6592808
4.3930006 -4.8434801 -1.6605395
4.3244495 -4.827096 -1.6454356
4.3178396 -4.8796306 -1.6544979
4.2763524 -4.8929162 -1.6499667
4.2329683 -4.9036798 -1.6446804
4.1927533 -4.9177775 -1.6406527
4.1512785 -4.9300861 -1.6361215
4.1221871 -4.9569535 -1.6366249
4.0775661 -4.9649525 -1.6308352
4.0537314 -4.9981465 -1.6336042
4.0066509 -5.0025311 -1.6268075
3.9896896 -5.0444794 -1.6325973
2.0141814 -2.579371 -0.81094551
1.9894511 -2.5801859 -0.8071695
1.9688913 -2.5861847 -0.80515569
1.9500777 -2.5943491 -0.80389702
1.9300845 -2.600826 -0.80213487
1.8786221 -2.5642209 -0.78652751
1.7278454 -2.3890784 -0.72661543
1.6923436 -2.3704946 -0.71730137
1.629256 -2.3120148 -0.69540071
3.669534 -5.2748704 -1.6310868
3.6442208 -5.3076582 -1.6343594
3.602355 -5.3162994 -1.63008
3.5685911 -5.3366938 -1.6295764
3.5384438 -5.3625288 -1.6308352
3.5165634 -5.4011707 -1.6361215
3.4901569 -5.4332314 -1.639394
3.4438007 -5.4341083 -1.6331007
3.4001312 -5.438725 -1.6280661
3.3575511 -5.4446583 -1.6235349
3.3195534 -5.457716 -1.6212693
3.2939692 -5.4912601 -1.6252971
3.2626774 -5.5155325 -1.6265557
3.2229214 -5.5254169 -1.6235349
3.1822019 -5.5333433 -1.6200107
3.163466 -5.5797048 -1.6280661
3.1206703 -5.5838041 -1.6235349
3.0765429 -5.5850463 -1.6182486
3.0366743 -5.5936122 -1.6152278
1.6015381 -2.994118 -0.84291542
1.5853931 -3.0081692 -0.84417409
1.5682436 -3.0204167 -0.84492928
2.9011302 -5.6716208 -1.6167382
2.8623559 -5.6815367 -1.6144726
2.8321726 -5.708529 -1.6172416
2.8000665 -5.7318864 -1.6190038
2.7614875 -5.741982 -1.61699
2.7253749 -5.7570686 -1.6164864
2.6879551 -5.7692966 -1.6152278
2.6492777 -5.7786431 -1.6132139
2.611383 -5.7894969 -1.6117035
2.5801282 -5.8151422 -1.6144726
2.5490441 -5.8415079 -1.6174934
2.5127716 -5.8561492 -1.6172416
2.4719009 -5.8598652 -1.6139691
2.4388647 -5.8820739 -1.615983
2.4019966 -5.8951354 -1.6154795
2.3690171 -5.9178486 -1.6177452
2.3273482 -5.9187636 -1.6139691
2.2892442 -5.9284186 -1.6127105
2.2288055 -5.8790088 -1.5950893
2.2018051 -5.9170632 -1.601886
2.1704373 -5.944098 -1.605662
2.1335979 -5.9563923 -1.6054102
2.0979724 -5.9721107 -1.6061654
2.0669625 -6.0013418 -1.6106967
2.0285521 -6.0093269 -1.6094379
1.9916414 -6.0216608 -1.6094379
1.9531641 -6.0291643 -1.6081793
1.9155477 -6.0391903 -1.6076758
1.8773079 -6.0471334 -1.6066689
1.841012 -6.0613165 -1.6074241
1.8024076 -6.0678601 -1.6061654
1.7632525 -6.0722995 -1.6044034
1.7267531 -6.0857973 -1.6051586
1.6901543 -6.0990758 -1.6059138
1.6557328 -6.120542 -1.6089345
1.614935 -6.1184216 -1.605662
1.5759149 -6.122592 -1.6041516
1.5387888 -6.1340237 -1.604655
1.4990541 -6.1348891 -1.6023895
1.465191 -6.1599774 -1.6066689
1.4286759 -6.174509 -1.6081793
1.3926749 -6.1916566 -1.6104449
1.3552773 -6.2029219 -1.6112001
1.3183963 -6.2168012 -1.6127105
1.2812011 -6.2295132 -1.6139691
1.2404938 -6.2249188 -1.6106967
0.74842435 -3.8805051 -0.98766106
0.75460416 -4.0458064 -1.0302037
0.72512949 -4.0246444 -1.023407
0.68980658 -3.9679952 -1.0072961
0.6659264 -3.9750166 -1.0080513
0.63890326 -3.9627852 -1.0037719
0.61665189 -3.98002 -1.0072961
0.59706098 -4.0162759 -1.015855
0.573089 -4.0246544 -1.0171137
0.54550922 -4.0069981 -1.0115756
0.5186668 -3.992995 -1.0070443
0.49962437 -4.0402842 -1.0186241
0.47199997 -4.0192442 -1.0123308
0.44615167 -4.0114841 -1.0095617
0.42163044 -4.0151086 -1.0098134
0.39793885 -4.0272512 -1.0123308
0.37625846 -4.0623817 -1.0208896
0.34782085 -4.0241175 -1.0103168
0.32358789 -4.0319643 -1.0118272
0.30013084 -4.0512462 -1.0163585
0.2748732 -4.0472183 -1.014848
0.25003475 -4.0488286 -1.014848
0.22459489 -4.0396571 -1.012079
0.19846292 -4.0138941 -1.0050305
0.17399822 -4.0189042 -1.0060375
0.14865097 -4.0015206 -1.0012546
0.12382451 -3.9936514 -0.99898899
0.099269301 -3.9924009 -0.99848551
0.074588366 -3.9832587 -0.99596816
0.049937431 -3.96719 -0.99168873
0.025613287 -3.9703252 -0.99244392
0.001254156 -3.9771821 -0.99420607
-0.023177084 -3.9819539 -0.99546474
-0.047976665 -4.0127039 -1.0035201
-0.073015161 -4.0355577 -1.0095617
-0.098079048 -4.0476112 -1.0128342
-0.12320574 -4.0566068 -1.0153515
-0.14834084 -4.0625443 -1.0171137
-0.17363574 -4.07026 -1.0193793
-0.19808917 -4.058485 -1.0166101
-0.22118525 -4.0243373 -1.0080513
-0.24817283 -4.0605783 -1.0178689
-0.27198058 -4.0425639 -1.0135894
-0.29883322 -4.0688095 -1.0208896
-0.32110828 -4.033133 -1.012079
-0.34312212 -3.9992664 -1.0037719
-0.36676919 -3.9874485 -1.0012546
-0.39009529 -3.9735646 -0.9982338
-0.4176811 -4.0018988 -1.0062891
-0.44552293 -4.0290809 -1.0140928
-0.47360176 -4.0551095 -1.0216448
-0.49764803 -4.0454035 -1.0198827
-0.52022946 -4.0249968 -1.0153515
-0.5477733 -4.0428281 -1.0208896
-0.57582682 -4.0623884 -1.0269312
-0.60244167 -4.0702672 -1.0299519
-0.62784743 -4.0693636 -1.0307071
-0.65341818 -4.0692568 -1.0317141
-0.67885196 -4.0680346 -1.0324693
-0.70347005 -4.0618858 -1.0319659
-0.72974735 -4.0651135 -1.0339797
-0.75255567 -4.0491409 -1.0309589
-0.77099603 -4.0111828 -1.0221483
-0.78730345 -3.9646082 -1.011072
-0.81336313 -3.9682357 -1.0133376
-0.83829659 -3.966011 -1.0140928
-0.86693877 -3.9806511 -1.0193793
-0.89558035 -3.9941442 -1.0244138
-0.91898388 -3.9838586 -1.0231552
-0.94832206 -3.9988623 -1.0286933
-0.97329879 -3.9948487 -1.0291967
-0.75387013 -3.013294 -0.76764768
-0.77186412 -3.0067368 -0.7671442
-0.79128367 -3.005688 -0.7681511
-0.80618322 -2.9876943 -0.76462692
-0.82140738 -2.9714973 -0.7616061
-0.83672661 -2.9561574 -0.75883704
-0.85969448 -2.967701 -0.76336825
-1.1618224 -3.9209366 -1.023407
-1.1855785 -3.9128077 -1.0231552
-1.2213001 -3.9433641 -1.0334762
-1.2440137 -3.9311824 -1.0322175
-1.2544241 -3.8811131 -1.0206379
-1.0947789 -3.3173018 -0.86834031
-1.081759 -3.2114644 -0.84115326
-1.0948402 -3.1855454 -0.83586693
-1.1038035 -3.1486275 -0.82755977
-1.3960083 -3.905514 -1.0385108
-1.1257964 -3.0893779 -0.81497318
-1.1437209 -3.07969 -0.81421798
-1.178688 -3.1151593 -0.82604939
-1.516137 -3.9341974 -1.0563837
-1.5448433 -3.9365327 -1.0596563
-1.2282895 -3.0740619 -0.82076305
-1.2310907 -3.0270197 -0.80968684
-1.2514908 -3.0238802 -0.81094551
-1.2681441 -3.0116844 -0.80968684
-1.6519169 -3.8570435 -1.0510974
-1.6867573 -3.8725674 -1.0583977
-1.7002999 -3.8391364 -1.0518526
-1.7270023 -3.8356915 -1.0538664
-1.7670139 -3.861105 -1.0641874
-1.7698616 -3.805434 -1.0513492
-1.7716799 -3.7490001 -1.038259
-1.8021882 -3.7537637 -1.0427903
-1.9002581 -3.8966091 -1.0873468
-1.8373804 -3.7096829 -1.036497
-1.8514125 -3.6810465 -1.0314623
-1.8651627 -3.6523778 -1.0264277
-1.9017894 -3.6683605 -1.0344831
-1.9188548 -3.6463444 -1.0314623
-1.9439275 -3.6396241 -1.0329727
-1.955618 -3.6080573 -1.0271829
-1.9851807 -3.6095586 -1.0312107
-2.0105917 -3.6032262 -1.0329727
-2.0121658 -3.5546041 -1.0221483
-2.0532119 -3.5757637 -1.0322175
-2.1204026 -3.6408789 -1.0556285
-2.144671 -3.6311333 -1.0566355
-2.1500061 -3.5896747 -1.0480766
-2.1795256 -3.5888238 -1.0518526
-2.2101302 -3.5893934 -1.0561321
-2.1972694 -3.5199354 -1.0390143
-2.2074425 -3.4883938 -1.0334762
-2.2408214 -3.493521 -1.039266
-2.2838397 -3.5129752 -1.049587
-2.2835236 -3.4657598 -1.039266
-2.3009846 -3.4460485 -1.0375038
-2.3161209 -3.4230475 -1.0347348
-2.3387222 -3.4111664 -1.03549
-2.3590567 -3.3959572 -1.0352383
-2.410481 -3.4249501 -1.0490836
-2.425833 -3.4022145 -1.0465662
-2.4171994 -3.346467 -1.0334762
-2.4954 -3.4104638 -1.0589011
-2.5197363 -3.3997536 -1.0604115
-2.5068541 -3.339335 -1.0458111
-2.5395961 -3.3400698 -1.0510974
-2.5753932 -3.3443623 -1.0576425
-2.5946751 -3.3269706 -1.0571389
-2.6258361 -3.3246589 -1.0616701
-2.6479998 -3.3107522 -1.0624253
-2.6396389 -3.2590921 -1.050594
-2.7099063 -3.3042009 -1.0712359
-2.615756 -3.1497614 -1.0246656
-2.6281826 -3.1255033 -1.0218965
-2.8744025 -3.3760941 -1.1130234
-2.8773725 -3.337867 -1.1059749
-2.7743528 -3.1786849 -1.0571389
-2.8905628 -3.2711191 -1.0951505
-2.926065 -3.2706332 -1.101192
-2.9343846 -3.2397053 -1.0966609
-2.9450517 -3.2116523 -1.0931365
-2.9798455 -3.209836 -1.0989264
-3.0465384 -3.2415664 -1.1167994
-3.1150651 -3.2739999 -1.1351757
-2.9511497 -3.0638206 -1.0662013
-3.2293234 -3.3117526 -1.1628662
-3.2393856 -3.2815433 -1.1590903
-4.6220918 -4.6253672 -1.6605395
-2.8685319 -2.8353395 -1.0088065
-2.8713348 -2.8034856 -1.0035201
-3.4659126 -3.3428299 -1.2122055
-3.4688425 -3.30481 -1.2059124
-3.3156912 -3.1202881 -1.1439863
-3.4581037 -3.2145467 -1.1877877
-3.4471114 -3.1651192 -1.1769632
-3.4585824 -3.1367559 -1.1741941
-3.4373994 -3.0793097 -1.1600971
-3.1974945 -2.829186 -1.0702289
-3.7962711 -3.3177798 -1.2711108
-3.1697044 -2.7359772 -1.0488318
-3.1842232 -2.7145929 -1.0480766
-3.2711451 -2.7542272 -1.0719911
-3.2649167 -2.7149196 -1.0641874
-3.3211503 -2.727392 -1.0775292
-3.3205357 -2.6929398 -1.0717394
-3.3407733 -2.67554 -1.072998
-3.353332 -2.651989 -1.0717394
-3.3077614 -2.5831089 -1.0513492
-3.3036237 -2.5473969 -1.0448041
-3.3068726 -2.5176971 -1.0407764
-3.3671246 -2.5310917 -1.0553769
-3.4525309 -2.5622993 -1.0780326
-3.3823187 -2.4781401 -1.0503422
-3.3747211 -2.4408894 -1.0430419
-3.3510427 -2.3925772 -1.0307071
-3.3854358 -2.3859103 -1.0370004
-3.4302001 -2.3860965 -1.0465662
-3.4607327 -2.3759611 -1.0516008
-3.5553615 -2.4089756 -1.076774
-3.4783661 -2.3257816 -1.0480766
-3.467531 -2.2878699 -1.040273
-3.493669 -2.274472 -1.0440489
-3.493717 -2.2440994 -1.0397695
-3.536031 -2.2407539 -1.0485801
-3.5365839 -2.2108057 -1.0445523
-3.5467875 -2.187032 -1.0435455
-3.5402963 -2.1531568 -1.0375038
-3.56423 -2.1378658 -1.0407764
-3.5847769 -2.1203911 -1.0430419
-3.6094232 -2.1051826 -1.0465662
-3.6348562 -2.090234 -1.0503422
-3.6560321 -2.0726655 -1.0528595
-3.6745942 -2.0534987 -1.0546216
-3.6718671 -2.0225072 -1.0500904
-3.6671977 -1.9907029 -1.0450559
-3.6358235 -1.9448788 -1.0322175
-3.6279979 -1.9121528 -1.0264277
-3.6491098 -1.8947625 -1.0291967
-3.6813455 -1.8829151 -1.0352383
-3.7023365 -1.8650818 -1.0380074
-3.7969365 -1.8836268 -1.0621736
-3.7936404 -1.8530713 -1.0578941
-3.8188934 -1.8364712 -1.0619218
-3.8344636 -1.8150752 -1.0631806
-3.8683364 -1.8021413 -1.0697255
-3.9162698 -1.7953138 -1.0802983
-3.9863179 -1.7979147 -1.0971643
-4.016736 -1.7820576 -1.1027024
-4.0302558 -1.7585392 -1.1034576
-4.0747657 -1.7482805 -1.1130234
-4.0907664 -1.7255026 -1.1145338
-4.1173687 -1.7070427 -1.1190649
-4.169888 -1.6989131 -1.1308963
-4.3042212 -1.7229382 -1.1656352
-4.3075066 -1.6936619 -1.1636214
-4.384625 -1.693002 -1.1822495
-4.4256978 -1.6777331 -1.1908084
-4.4422584 -1.6529089 -1.1925706
-4.6232214 -1.6880372 -1.2398961
-4.6380477 -1.6612699 -1.2411547
-4.8654652 -1.7091358 -1.3010669
-4.8996515 -1.6874453 -1.3076118
-5.0080256 -1.6904763 -1.3345472
-5.10743 -1.6892 -1.358965
-5.3460255 -1.7318124 -1.4213945
-5.3427138 -1.6945872 -1.4176185
-5.3844361 -1.671531 -1.4261774
-5.9427876 -1.805003 -1.5752025
-6.0186911 -1.7877991 -1.5928237
-6.2907062 -1.8266875 -1.6635603
-6.3548646 -1.803115 -1.6779089
-6.2949286 -1.7444415 -1.6587774
-6.4811435 -1.753307 -1.7061028
-6.4927154 -1.7137535 -1.7063546
-6.6183882 -1.7035625 -1.7373176
-6.6906705 -1.6784667 -1.7539319
-6.8362212 -1.6704704 -1.7901813
-7.0186396 -1.669486 -1.836248
-7.2550406 -1.6787634 -1.8966637
-7.3813405 -1.6603454 -1.9276266
-7.4178629 -1.6208091 -1.9346751
-7.4172544 -1.5730542 -1.9319061
-7.43435 -1.5290734 -1.9339199
-7.4549818 -1.4856987 -1.9369407
-7.4525547 -1.4377273 -1.9339199
-7.4574304 -1.3912621 -1.9329131
-7.4686842 -1.345993 -1.9336683
-7.4663138 -1.2983164 -1.9308991
-7.4426417 -1.2471995 -1.922592
-7.4444218 -1.2005841 -1.9210817
-7.458343 -1.1559212 -1.9228437
-7.4480643 -1.1075727 -1.9183125
-7.5045424 -1.0689507 -1.9314026
-7.4697256 -1.0172659 -1.9205781
-7.5295715 -0.97839975 -1.9346751
-7.4912515 -0.92671293 -1.9230955
-7.5294766 -0.88457102 -1.9316543
-7.5338006 -0.8382473 -1.9314026
-7.4858651 -0.78644079 -1.9175574
-7.54352 -0.74573284 -1.9314026
-7.501698 -0.69514394 -1.9193195
-7.5559602 -0.65343988 -1.9324095
-7.5511451 -0.60636741 -1.930144
-7.5595493 -0.560381 -1.9314026
-7.5116701 -0.51050532 -1.9180609
-7.4895468 -0.46285155 -1.9115158
-7.5347629 -0.41925585 -1.922592
-7.5420265 -0.37325495 -1.9238507
-7.5509429 -0.32726464 -1.9256128
-7.5615129 -0.28125095 -1.9278784
-7.5398808 -0.23412699 -1.9218369
-7.2076979 0.52940154 -1.9285077
-7.2120085 0.57423103 -1.9306107
-7.1872005 0.61665434 -1.9248277
-7.1957717 0.66189349 -1.9282448
-7.1906147 0.70593899 -1.927982
-7.1794305 0.74934435 -1.926142
-7.1775746 0.79370099 -1.9269305
-7.1629863 0.83660597 -1.924302
-7.1759124 0.8827827 -1.9292964
-7.1856704 0.92877799 -1.9335021
-7.1616707 0.97038662 -1.9285077
-7.1479397 1.013227 -1.9264048
-7.1444511 1.0574912 -1.9271934
-7.1206646 1.0986577 -1.9224619
-7.1404624 1.1466162 -1.9298221
-7.1218724 1.1885 -1.9266677
-7.1020875 1.2300342 -1.9232504
-7.0896583 1.2727355 -1.9219362
-7.0855098 1.3169186 -1.9229876
-7.0754008 1.3600051 -1.9224619
-7.0640841 1.4028292 -1.9216733
-7.0780272 1.4508005 -1.927982
-7.0321779 1.4864155 -1.9177303
-7.0361233 1.5324128 -1.9214104
-7.0416508 1.5789368 -1.9256163
-6.9848247 1.6112626 -1.9124731
-7.0029693 1.660774 -1.920359
-6.9748368 1.6993698 -1.9153646
-6.9502392 1.7386202 -1.9114217
-6.9534578 1.7848338 -1.9153646
-6.9470406 1.8286946 -1.9166789
-6.933826 1.8707834 -1.9161532
-6.9194269 1.9125218 -1.9153646
-6.9066334 1.9546797 -1.9151018
-6.9139705 2.0026615 -1.9206219
-6.8756514 2.0373678 -1.9132617
-6.8704071 2.0817571 -1.9153646
-6.8630342 2.1255875 -1.9169418
-6.8618202 2.1714444 -1.920359
-6.8336792 2.2087567 -1.9161532
-6.8007579 2.2442932 -1.9106331
-6.7347436 2.2684164 -1.8956499
-6.7754421 2.328521 -1.9114217
-6.7555642 2.3681347 -1.9098445
-6.749083 2.4124656 -1.9122102
-6.7305274 2.4525099 -1.9111588
-6.7216835 2.4961135 -1.9129988
-6.6963148 2.5335529 -1.9101074
-6.6635389 2.5679979 -1.905113
-6.6395736 2.6056628 -1.9027472
-6.6351075 2.6510091 -1.9061644
-6.63659 2.6989436 -1.9114217
-6.6306024 2.7440431 -1.9145761
-6.605638 2.7813053 -1.9122102
-6.6017504 2.8274844 -1.9161532
-6.5497813 2.8529067 -1.9059016
-6.5559702 2.9035947 -1.9129988
-6.5090003 2.9306903 -1.9043244
-6.5066862 2.9778032 -1.9090558
-6.4961653 3.0213346 -1.9114217
-6.4783769 3.0615499 -1.9116845
-6.4403358 3.0920527 -1.9059016
-6.4342489 3.1378577 -1.9098445
-6.4045 3.172138 -1.9066901
-6.3900871 3.2139773 -1.9082673
-6.373683 3.2548816 -1.9093188
-6.3261833 3.2797136 -1.9009072
-6.3289919 3.3306041 -1.9080044
-6.2760992 3.3520973 -1.8980156
-6.3012142 3.4153781 -1.9122102
-6.2530885 3.4390943 -1.9037986
-6.2419786 3.483041 -1.906953
-6.2154522 3.5184231 -1.9053758
-6.1895633 3.5540912 -1.9040614
-6.1743088 3.5958884 -1.9061644
-6.1587739 3.6376319 -1.9082673
-6.1396484 3.6773367 -1.9093188
-6.111197 3.7114327 -1.9074787
-6.0932379 3.7518966 -1.9090558
-6.0602818 3.7830808 -1.9059016
-6.0173898 3.8078094 -1.8995929
-5.9882278 3.8410122 -1.8977528
-5.9621205 3.8761051 -1.8969642
-5.9495034 3.9200487 -1.9006443
-5.8996644 3.9393313 -1.8922327
-5.8977542 3.9905996 -1.8995929
-5.8755445 4.0283499 -1.9003814
-5.8626008 4.0725842 -1.9043244
-5.8138342 4.0918169 -1.8964385
-5.8098259 4.14254 -1.9035357
-5.7788243 4.1741548 -1.9016957
-5.7585535 4.2135234 -1.9035357
-5.7008142 4.2252183 -1.8927584
-5.6639805 4.252007 -1.8890783
-5.663126 4.3059559 -1.8977528
-5.6258974 4.3323798 -1.8940727
-5.6129017 4.3775005 -1.8988042
-5.612433 4.4327931 -1.9080044
-5.5836215 4.4659414 -1.9074787
-5.5163817 4.4679265 -1.8935469
-5.512733 4.5212731 -1.9019586
-5.4871135 4.5568633 -1.9027472
-5.455358 4.5873404 -1.9014329
-5.4315152 4.6244812 -1.90301
-5.4052296 4.6596117 -1.9037986
-5.3641815 4.6819019 -1.89933
-5.3187265 4.7000308 -1.8932841
-5.301291 4.7428722 -1.8974899
-5.282814 4.7850285 -1.9014329
-5.1993179 4.7677855 -1.8814553
-5.204608 4.8317695 -1.8943356
-5.1319833 4.8232994 -1.8783009
-5.1568036 4.9065824 -1.8988042
-5.1224318 4.9341149 -1.897227
-5.086535 4.960063 -1.8951242
-5.040215 4.9755874 -1.8890783
-5.0389314 5.0357518 -1.9003814
-4.9977655 5.0562806 -1.8964385
-4.9646249 5.0847797 -1.8956499
-4.9125719 5.0936141 -1.8875011
