# .PCD v0.7 - Point Cloud Data file format
VERSION 0.7
FIELDS x y z
SIZE 4 4 4
TYPE F F F
COUNT 1 1 1
WIDTH 1511
HEIGHT 1
VIEWPOINT 0 0 0 1 0 0 0
POINTS 1511
DATA ascii
-3.2718649 -8.9904938 -1.5057006
-3.3770838 -9.1053896 -1.5289677
-1.1575029 -3.0623636 -0.48975313
-1.184427 -3.0763946 -0.49341848
-1.1903126 -3.0359797 -0.48768139
-1.2122114 -3.0368712 -0.48911566
-3.6113362 -8.8904982 -1.5103221
-3.6499813 -8.8298531 -1.5036288
-3.7247565 -8.8564329 -1.5122344
-3.7871821 -8.8524723 -1.5155811
-3.8473358 -8.8426466 -1.5179716
-3.9039171 -8.8242903 -1.5189278
-3.95151 -8.7857647 -1.5163779
-1.3068191 -2.8579087 -0.46855766
-1.3226665 -2.8462551 -0.46792021
-1.3417915 -2.8416567 -0.46855766
-4.1625185 -8.6790228 -1.515103
-4.2252049 -8.6728439 -1.518609
-4.2884097 -8.6671066 -1.5222744
-4.3423953 -8.642395 -1.5225931
-4.3926511 -8.6103115 -1.521637
-4.4549336 -8.6016054 -1.5249836
-4.516356 -8.5907116 -1.5280116
-4.5671239 -8.5593538 -1.527374
-4.6134467 -8.5198841 -1.5253024
-4.6599326 -8.4810333 -1.5233899
-4.6647787 -8.367775 -1.5077723
-4.678617 -8.2728262 -1.4955013
-4.691958 -8.1788807 -1.4833895
-4.7207069 -8.113245 -1.4765369
-4.7578583 -8.06287 -1.4725528
-4.7849383 -7.9962502 -1.4655408
-4.7980671 -7.9076581 -1.4543853
-4.8418422 -7.870501 -1.452951
-4.8837748 -7.8305917 -1.4510386
-4.9217076 -7.7846231 -1.4480107
-4.9379554 -7.7052364 -1.4386082
-4.9894423 -7.681416 -1.4398831
-5.0370235 -7.6514812 -1.4400425
-5.1162 -7.6688852 -1.4494449
-5.1720052 -7.6504345 -1.4519948
-5.2378178 -7.6462479 -1.4574132
-5.3155932 -7.6585727 -1.4661782
-5.3840632 -7.6564999 -1.472234
-5.4710355 -7.679605 -1.4833895
-5.5446281 -7.6827154 -1.4907203
-5.6143851 -7.6796322 -1.4969355
-5.6772628 -7.6664596 -1.5012383
-5.7330818 -7.6433268 -1.5036288
-5.7989817 -7.6331615 -1.5087285
-5.9474444 -7.7296686 -1.535661
-6.0657535 -7.7841425 -1.5543066
-6.1237979 -7.7599521 -1.5570159
-6.1558895 -7.7029505 -1.5530317
-6.171988 -7.6266618 -1.5450635
-6.2981324 -7.685626 -1.5653028
-6.350215 -7.6529145 -1.5665777
-6.3691115 -7.5805483 -1.5595657
-6.4027119 -7.5262861 -1.5563784
-6.4455504 -7.4831181 -1.5555816
-6.5147028 -7.4702139 -1.5613186
-6.5728307 -7.4441609 -1.5643466
-6.6203575 -7.405899 -1.5648247
-6.6809101 -7.3819733 -1.56849
-6.7387505 -7.3546715 -1.5715179
-6.7924786 -7.3225942 -1.5735897
-6.8507967 -7.2951717 -1.576777
-6.8852272 -7.2422662 -1.5743866
-6.9288507 -7.1991715 -1.5742272
-6.9832273 -7.1671281 -1.5766176
-7.0319252 -7.129065 -1.5777332
-7.085999 -7.0962629 -1.5801237
-7.1434436 -7.0665364 -1.583311
-3.4791634 -3.3994334 -0.74648899
-3.4097512 -3.2909448 -0.72624975
-3.3584328 -3.2018337 -0.71031332
-3.450598 -3.249531 -0.72640908
-7.3900948 -6.8750205 -1.5906417
-3.5134754 -3.2283185 -0.73150873
-3.5215223 -3.1960828 -0.7289589
-3.4205213 -3.0663328 -0.70282316
-3.3853199 -2.9975076 -0.69118959
-3.406621 -2.9792793 -0.69182706
-3.4136317 -2.9486396 -0.68943661
-4.8712983 -4.1560516 -0.99493796
-3.7635987 -3.1711779 -0.75573212
-3.8027143 -3.1644452 -0.7598756
-4.937058 -4.0575337 -0.99286622
-4.8614521 -3.9456589 -0.97198951
-4.8601508 -3.8953791 -0.96673048
-4.8723502 -3.8562937 -0.96434003
-4.8951426 -3.825717 -0.96418065
-5.0115256 -3.8673871 -0.983145
-5.0383019 -3.8389578 -0.98378247
-5.0294189 -3.7836356 -0.97724849
-5.1397147 -3.8174605 -0.99477857
-5.2490191 -3.8489044 -1.01199
-5.2341533 -3.7888362 -1.0043404
-5.2195525 -3.7296705 -0.99685031
-5.2415323 -3.6970048 -0.99669099
-5.0850687 -3.5401065 -0.96147144
-5.2954555 -3.638555 -0.99844396
-5.3585334 -3.6337004 -1.0064121
-5.2699714 -3.5266244 -0.98489803
-5.2577362 -3.471916 -0.97836405
-5.2268329 -3.4056337 -0.96832412
-5.2592568 -3.3809729 -0.97055519
-5.3190846 -3.3734925 -0.97804534
-5.3907337 -3.3727357 -0.98776656
-5.3298392 -3.2892981 -0.97230822
-5.5219436 -3.361259 -1.0048186
-5.5805511 -3.3501816 -1.01199
-5.3937287 -3.1931508 -0.97310507
-5.3842335 -3.1430719 -0.96768665
-5.3383927 -3.0725446 -0.95557499
-5.3803272 -3.0528867 -0.95987779
-5.4161892 -3.0294559 -0.96306509
-5.7234221 -3.1553774 -1.0162928
-5.4269352 -2.9486217 -0.95828414
-5.6433525 -3.0215235 -0.99461925
-5.6478157 -2.9794688 -0.99206942
-5.6712465 -2.9474902 -0.9930256
-5.6136551 -2.8739419 -0.97932023
-5.4972 -2.7718732 -0.9550969
-5.6095963 -2.785516 -0.97230822
-5.6806803 -2.7774987 -0.98202944
-5.6309032 -2.7104726 -0.9700771
-5.8428011 -2.7684581 -1.0049779
-5.8113651 -2.7100215 -0.99637222
-5.7211132 -2.6253092 -0.97740787
-5.7686048 -2.6043756 -0.98298562
-5.8025208 -2.576946 -0.98617291
-5.8978338 -2.5760722 -1.0001969
-5.9271355 -2.54568 -1.0025874
-5.9635611 -2.5180976 -1.0062528
-5.9880171 -2.4852433 -1.0078465
-6.0415454 -2.4641161 -1.0145397
-5.9804935 -2.3965161 -1.0013125
-6.1227703 -2.4100435 -1.0234642
-5.994719 -2.3172498 -0.99876267
-5.9534469 -2.2594028 -0.98920083
-6.0643334 -2.259021 -1.0059341
-6.1272216 -2.2397349 -1.0143805
-6.1027493 -2.1884317 -1.0078465
-6.1942906 -2.178462 -1.0212331
-6.1683431 -2.1268952 -1.0145397
-6.0400572 -2.0412707 -0.99047577
-6.2830086 -2.0805268 -1.0296794
-6.37078 -2.0663066 -1.0424285
-6.3823977 -2.0268784 -1.0422691
-6.2278543 -1.9358023 -1.0140617
-6.2027798 -1.886348 -1.0078465
-6.4356565 -1.9141228 -1.0451378
-6.4510722 -1.8757011 -1.0457752
-6.4795532 -1.8409402 -1.0486437
-6.5183134 -1.8088048 -1.0532653
-6.6264811 -1.7951103 -1.0695205
-6.6984539 -1.7705668 -1.0797198
-6.8153028 -1.7567914 -1.0974092
-6.9284015 -1.7406852 -1.1144612
-7.1700487 -1.7547097 -1.152868
-7.420763 -1.7678918 -1.1927091
-8.1133289 -1.8803911 -1.3056984
-8.0900431 -1.82276 -1.2999612
-8.2949162 -1.8155218 -1.3319935
-9.0253143 -1.9174665 -1.4507198
-9.0137043 -1.8572695 -1.4468951
-9.5428658 -1.9053625 -1.532155
-10.05646 -1.9438419 -1.6147057
-10.515553 -1.9657447 -1.6881727
-10.551705 -1.9055725 -1.6921568
-10.816063 -1.8848678 -1.7335914
-11.068872 -1.8590263 -1.7731138
-11.587818 -1.8731691 -1.8561426
-12.029295 -1.8688831 -1.9264224
-12.028818 -1.7932904 -1.9245099
-12.093347 -1.7271276 -1.933275
-12.072416 -1.6486163 -1.9281753
-12.130273 -1.5807629 -1.9359841
-12.069205 -1.4975483 -1.9245099
-12.071303 -1.4226558 -1.9233943
-12.070975 -1.3475748 -1.9219601
-12.093743 -1.2750365 -1.9243506
-12.089551 -1.1996365 -1.9224381
-12.09865 -1.1256168 -1.9227569
-12.124999 -1.0530688 -1.9259442
-12.132216 -0.97873074 -1.9261036
-12.112396 -0.90236264 -1.9219601
-12.132479 -0.8290354 -1.9243506
-12.148176 -0.75525045 -1.9261036
-12.126954 -0.67926013 -1.9219601
-12.11216 -0.60390306 -1.9189322
-12.124514 -0.52996117 -1.9203664
-12.15516 -0.45659512 -1.9248286
-12.127144 -0.38104174 -1.9198884
-11.212691 0.82421267 -1.9192384
-11.214297 0.89354539 -1.9204396
-11.219401 0.96326631 -1.922327
-11.17502 1.0285637 -1.9156352
-11.147909 1.0950882 -1.9120319
-11.127262 1.1620359 -1.9096297
-11.113069 1.2295306 -1.9084285
-11.130755 1.3006716 -1.9128898
-11.123544 1.3690646 -1.9130614
-11.151083 1.44197 -1.9194101
-11.102977 1.5050671 -1.9125466
-11.086705 1.5721964 -1.9113456
-11.084645 1.6413488 -1.9127183
-11.070471 1.7087305 -1.9120319
-11.039351 1.773342 -1.9084285
-11.037008 1.8425057 -1.9099729
-11.011906 1.9078369 -1.9075707
-11.00484 1.9762399 -1.9084285
-10.957639 2.0372407 -1.9022515
-10.936226 2.1027622 -1.9007072
-10.893164 2.1638725 -1.8953881
-10.912494 2.2374022 -1.901222
-10.91398 2.30758 -1.9039674
-10.868814 2.36779 -1.8984767
-10.871384 2.4383178 -1.9015652
-10.847579 2.5029831 -1.900021
-10.827224 2.5683579 -1.899163
-10.807432 2.6338108 -1.8984767
-10.800625 2.7024667 -1.9001925
-10.767618 2.7645206 -1.8972756
-10.775222 2.8370619 -1.9017367
-10.746198 2.9000428 -1.8996778
-10.733898 2.9675012 -1.9007072
-10.712645 3.0325019 -1.9001925
-10.69762 3.0992734 -1.9008789
-10.669902 3.162334 -1.8993345
-10.63427 3.2228847 -1.8964176
-10.618058 3.2892411 -1.897104
-10.615521 3.3599806 -1.900364
-10.610641 3.4302063 -1.9032811
-10.596877 3.4977186 -1.9046538
-10.550943 3.5544937 -1.9001925
-10.501917 3.6098762 -1.8952166
-10.465625 3.6693561 -1.8926427
-10.434565 3.7305171 -1.8910985
-10.447576 3.8076322 -1.8977903
-10.440639 3.8778417 -1.9008789
-10.412041 3.9400873 -1.900021
-10.372043 3.9978752 -1.897104
-10.339981 4.0585613 -1.8957313
-10.311224 4.1204672 -1.8950449
-10.277534 4.1803164 -1.8935007
-10.234397 4.2361388 -1.8902406
-10.262686 4.3218031 -1.9005357
-10.21243 4.3746042 -1.8960744
-10.182687 4.4360032 -1.8955597
-10.153475 4.4976015 -1.8952166
-10.09335 4.5452514 -1.8890395
-10.073333 4.6107883 -1.8905838
-10.045745 4.6729259 -1.8907553
-10.021337 4.7365832 -1.8916132
-10.009846 4.8065143 -1.8950449
-9.9837065 4.8695712 -1.8957313
-9.8883162 4.8983707 -1.883034
-9.8712749 4.9655938 -1.8856077
-9.8336029 5.0224838 -1.8842351
-9.833209 5.0986023 -1.8902406
-9.7930222 5.1542525 -1.8885248
-9.712553 5.1882453 -1.8789159
-9.6952581 5.2557259 -1.8818328
-9.6412487 5.3032432 -1.8775432
-9.6033659 5.3594198 -1.8765137
-9.5737286 5.420186 -1.8772001
-9.6060696 5.5166116 -1.8904122
-9.5141554 5.5417256 -1.8787444
-9.4842138 5.6025047 -1.8796023
-9.4589548 5.666163 -1.8814898
-9.4400072 5.7338147 -1.8847499
-9.4147129 5.7978296 -1.8868089
-9.3814678 5.8570533 -1.8873236
-9.3486824 5.9166145 -1.8880099
-9.3122025 5.9738655 -1.8880099
-9.2522478 6.0158529 -1.8832055
-9.2052908 6.0660043 -1.8811466
-9.1654396 6.1207309 -1.8806318
-9.1562653 6.1961818 -1.8866373
-9.1286354 6.2594905 -1.8888679
-9.0900564 6.3153849 -1.8888679
-9.0543566 6.3733101 -1.8895543
-9.0311213 6.4401884 -1.8929859
-8.9938307 6.4972119 -1.8935007
-8.9776449 6.5697312 -1.8986483
-8.9371643 6.6246929 -1.8986483
-8.8703518 6.6598835 -1.8929859
-8.8591175 6.7368493 -1.8995062
-8.8183947 6.7916822 -1.8996778
-8.7905369 6.8565707 -1.9027663
-8.7482996 6.9103794 -1.9027663
-8.6995802 6.9590039 -1.9013937
-8.662075 7.0165939 -1.9025947
-8.6021023 7.0558643 -1.8988198
-8.589716 7.1343236 -1.9058548
-8.5570879 7.1964073 -1.9084285
-8.5375214 7.2698569 -1.9140909
-8.4644022 7.297657 -1.9075707
-8.4328232 7.3611193 -1.9106592
-8.4044743 7.4277306 -1.9146056
-8.3477287 7.4693046 -1.9120319
-8.299551 7.5184002 -1.9115171
-8.2931919 7.6058116 -1.9209543
-8.2304859 7.6418056 -1.9171795
-8.1999502 7.7076836 -1.9211259
-8.133235 7.7395139 -1.9164931
-8.0777893 7.7817535 -1.9146056
-8.0446997 7.8456178 -1.918209
-8.0419722 7.939826 -1.9293621
-8.0272427 8.0231504 -1.9377697
-7.9702454 8.0645447 -1.9358822
-7.9329987 8.125988 -1.9389708
-7.8727322 8.1638727 -1.936397
-7.8177357 8.2070312 -1.9351959
-7.7733064 8.2613039 -1.9367402
-7.7345405 8.3218346 -1.9398288
-7.6833334 8.3691359 -1.9398288
-7.6298513 8.4139328 -1.9393139
-7.599112 8.4840755 -1.9448047
-7.5540915 8.53866 -1.9466921
-7.5002604 8.5833664 -1.9463489
-7.4442348 8.6254969 -1.945491
-7.3911695 8.671011 -1.945491
-7.3403635 8.7192144 -1.9461774
-7.2923932 8.7709084 -1.9477216
-7.2559414 8.8368092 -1.952526
-7.1947589 8.8727465 -1.9506385
-7.1383338 8.9144182 -1.9501238
-7.0963326 8.9742794 -1.9537271
-7.0538645 9.0339603 -1.9573303
-7.0091262 9.0911169 -1.9604189
-6.9585824 9.1410084 -1.9619632
-6.8917103 9.1693573 -1.9588747
-6.8317962 9.2067242 -1.9578451
-6.7821617 9.258007 -1.9599042
-6.7338867 9.3114233 -1.9624779
-6.7058144 9.3934612 -1.9712288
-6.646349 9.4320145 -1.9707141
-6.573164 9.4507799 -1.9660813
-6.507247 9.4795618 -1.9636791
-6.4517212 9.5233898 -1.964537
-6.3800263 9.5431404 -1.9604189
-6.3392506 9.6092472 -1.9660813
-6.2823195 9.6512661 -1.9667675
-6.2320309 9.7037249 -1.9696845
-6.1802807 9.7542648 -1.9722583
-6.1281443 9.804534 -1.9748321
-6.0694203 9.8444672 -1.9753468
-6.0150428 9.8916245 -1.9774059
-5.9577823 9.9342604 -1.9786069
-5.8957114 9.9689341 -1.9782637
-5.8473334 10.02705 -1.982725
-5.7817712 10.055907 -1.9813523
-5.7141318 10.080909 -1.9792933
-5.6540904 10.119221 -1.9799796
-5.592844 10.155449 -1.9803228
-5.5168004 10.164463 -1.9753468
-5.4780197 10.24243 -1.9840977
-5.4035902 10.25406 -1.9798081
-5.3501015 10.305385 -1.9834113
-5.2876654 10.339772 -1.9837545
-5.2289958 10.381701 -1.985642
-5.1665096 10.416239 -1.9861567
-5.103796 10.450399 -1.9866714
-5.040431 10.483294 -1.9870147
-4.9600005 10.480186 -1.9804944
-4.900177 10.520246 -1.9823818
-4.8359442 10.55101 -1.9825534
-4.7885232 10.619103 -1.9899316
-4.7332597 10.6708 -1.9942212
-4.6669083 10.697836 -1.993878
-4.5953555 10.712689 -1.9913043
-4.5341296 10.751577 -1.9933633
-4.4703369 10.784657 -1.9943928
-4.3869877 10.769912 -1.9864999
-4.3288732 10.816751 -1.9902748
-4.27215 10.867865 -1.9949075
-4.2046766 10.892035 -1.9945644
-4.1524253 10.956323 -2.001771
-4.1012597 11.024994 -2.0098355
-4.0355606 11.055505 -2.010865
-3.9683135 11.081913 -2.0112081
-3.9021995 11.11163 -2.0122375
-3.8390765 11.15027 -2.0149829
-3.7668085 11.162415 -2.012924
-3.7133958 11.231152 -2.0213318
-3.6456265 11.257474 -2.022018
-3.5746973 11.273996 -2.0209885
-3.5095408 11.308891 -2.0233908
-3.4446626 11.345296 -2.0261362
-3.3794696 11.38133 -2.0288815
-3.3153367 11.42172 -2.0324848
-3.2473416 11.44943 -2.0338573
-3.1778169 11.471988 -2.0343721
-3.1083946 11.495075 -2.0350585
-3.0393109 11.519647 -2.036088
-2.9707789 11.546666 -2.0376322
-2.9020298 11.573277 -2.0391765
-2.8323648 11.596608 -2.040206
-2.7604725 11.610894 -2.0396912
-2.6887338 11.625693 -2.0393481
-2.6229653 11.666964 -2.0438094
-2.5511186 11.681875 -2.0436378
-2.4791877 11.696345 -2.0434661
-2.4111407 11.729672 -2.0467262
-2.3404698 11.75101 -2.0479274
-2.267391 11.760312 -2.0470695
-2.1933837 11.764318 -2.0453537
-2.122205 11.783373 -2.0463831
-2.0446377 11.766083 -2.041064
-1.9761441 11.800756 -2.0450103
-1.9043255 11.816549 -2.0456967
-1.8349489 11.848456 -2.0493
-1.7562808 11.819538 -2.0422652
-1.6906605 11.87886 -2.0508444
-1.6202632 11.907557 -2.0541046
-1.5408323 11.868426 -2.0455253
-1.4737757 11.924588 -2.0537612
-1.3982852 11.913837 -2.0503297
-1.3272229 11.940797 -2.0535898
-1.2487943 11.899726 -2.0450103
-1.1699526 11.84834 -2.0347154
-1.1014932 11.901402 -2.0427799
-1.0285316 11.908917 -2.0429513
-0.95803595 11.947412 -2.0486138
-0.88333011 11.934398 -2.0453537
-0.81388122 11.995619 -2.0551341
-0.73929316 11.984654 -2.0523887
-0.666179 11.996835 -2.0537612
-0.59173095 11.983969 -2.0508444
-0.51695645 11.95883 -2.0458684
-0.44294974 11.945041 -2.0429513
-0.37019467 11.965259 -2.0460401
-0.29652697 11.957456 -2.0443242
-0.22337124 11.97087 -2.0463831
-0.15009876 11.986792 -2.0489569
-0.076472014 11.975665 -2.0468979
-0.0029858104 11.95325 -2.0429513
0.070458218 11.969791 -2.0458684
0.14393796 11.972089 -2.0463831
0.21721478 11.96113 -2.0446672
0.29041058 11.951694 -2.0432947
0.36461136 11.978243 -2.0482705
0.43799326 11.972827 -2.0477557
0.51026869 11.942354 -2.0429513
0.58184934 11.904559 -2.0369458
0.65911305 11.977491 -2.0503297
0.73102635 11.947656 -2.0458684
0.80259842 11.917389 -2.0414071
0.87744278 11.93582 -2.0455253
0.95058471 11.929229 -2.0453537
1.0246069 11.932987 -2.0470695
1.096632 11.913723 -2.0448389
1.1679771 11.889122 -2.0417504
1.2405981 11.878792 -2.0412357
1.3096663 11.836684 -2.0352302
1.3824991 11.830383 -2.0355732
1.4584354 11.849055 -2.0403776
1.530986 11.838906 -2.040206
1.6057183 11.844909 -2.0429513
1.6786438 11.836784 -2.0432947
1.7513858 11.827236 -2.0434661
1.8162539 11.766612 -2.0347154
1.8873239 11.748438 -2.0335143
1.9614855 11.749269 -2.0357449
2.0409451 11.779722 -2.0432947
2.0964594 11.673892 -2.0268223
2.1664279 11.652092 -2.0252781
2.2384415 11.641481 -2.0257928
2.3098302 11.627527 -2.0257928
2.387665 11.644983 -2.0314553
2.4541788 11.606981 -2.0273371
2.5236733 11.584003 -2.0259645
2.6022537 11.601945 -2.03197
2.6587672 11.522405 -2.0206454
2.7332847 11.522169 -2.0235622
2.7915637 11.454453 -2.0144682
2.8708851 11.473425 -2.0209885
2.945152 11.47086 -2.0237339
3.013222 11.443999 -2.0221896
3.0764513 11.399615 -2.0175569
3.1481783 11.38717 -2.0187578
3.2241635 11.389441 -2.0227044
3.2912445 11.359981 -2.0209885
3.3527648 11.312181 -2.0160124
3.4255421 11.30271 -2.0180717
3.488414 11.260776 -2.0142968
3.5553615 11.232584 -2.0130956
3.6266415 11.218057 -2.0144682
3.6935527 11.18998 -2.0134387
3.7649753 11.175508 -2.0149829
3.8065672 11.073939 -2.0005698
3.8777044 11.05967 -2.0022857
3.940516 11.021755 -1.999712
4.0144815 11.014955 -2.0029721
4.0792475 10.982727 -2.0015993
4.1496983 10.965783 -2.0031435
4.2197404 10.947468 -2.0045164
4.2828727 10.911283 -2.0026288
4.3340187 10.845462 -1.9952507
4.4019685 10.822315 -1.9959371
4.4626374 10.781448 -1.9933633
4.5397978 10.780192 -1.9983393
4.6015902 10.742172 -1.9964519
4.6520677 10.678513 -1.98976
4.7115159 10.636256 -1.9871862
4.7803316 10.615232 -1.9887304
4.8560381 10.60899 -1.9931917
4.9239516 10.585246 -1.9943928
4.9921775 10.561959 -1.9957654
5.0517721 10.520473 -1.9937065
5.1119094 10.480423 -1.9919906
5.1717458 10.440032 -1.9902748
5.2299509 10.396662 -1.9880441
5.2846813 10.346829 -1.9846125
5.3344612 10.287972 -1.9794649
5.3878493 10.23674 -1.9758615
5.4575233 10.216522 -1.9784354
5.5130639 10.169852 -1.9758615
5.5720372 10.129791 -1.9746605
5.6230431 10.075626 -1.9707141
5.6803908 10.033218 -1.9691697
5.7285976 9.975111 -1.964537
5.7877121 9.936368 -1.9638506
5.8530817 9.9083014 -1.9653949
5.9213634 9.8848772 -1.9679687
5.9859962 9.855094 -1.9693414
6.0241361 9.7821112 -1.9619632
6.068912 9.7207298 -1.9569873
6.1331854 9.6908007 -1.9585315
6.1994481 9.663765 -1.9607621
6.2366056 9.5916824 -1.9537271
6.2855825 9.5384293 -1.9506385
6.3374243 9.489851 -1.9485795
6.4038172 9.4630241 -1.9511533
6.465661 9.4292402 -1.9523544
6.5188985 9.3829184 -1.9509817
6.5650053 9.3266315 -1.9475501
6.6083789 9.2669249 -1.943432
6.6593456 9.2182169 -1.9417162
6.711709 9.1716175 -1.940515
6.7590575 9.118392 -1.9379413
6.8125134 9.073596 -1.9372549
6.8591132 9.0198631 -1.9346812
6.9107218 8.9729233 -1.9336517
6.9656487 8.9303513 -1.9336517
7.0129843 8.8781662 -1.9315926
7.0556335 8.8203526 -1.9283324
7.0947371 8.758523 -1.9242145
7.1483445 8.7148256 -1.9242145
7.2067194 8.6768627 -1.9255872
7.2572875 8.6294641 -1.9249008
7.289659 8.560771 -1.9194101
7.3259654 8.4972296 -1.9151205
7.3753738 8.4491501 -1.9144341
7.4277306 8.4044743 -1.9146056
7.4548507 8.3315783 -1.908257
7.4965711 8.2754593 -1.9058548
7.5485392 8.2307568 -1.906198
7.5982299 8.1835632 -1.9060264
7.6496496 8.1382227 -1.9063696
7.6953659 8.0868502 -1.9053401
7.7386885 8.0330954 -1.9037958
7.7782025 7.9755874 -1.9013937
7.8096876 7.9101868 -1.897104
7.8518081 7.8558478 -1.8955597
7.8949575 7.8026752 -1.8943586
7.9412751 7.7527094 -1.8940154
7.9823122 7.6976824 -1.8924712
8.0279675 7.6472001 -1.892128
8.0575171 7.5815969 -1.8880099
8.0959463 7.5246372 -1.8861226
8.1405134 7.4734874 -1.8857794
8.1752682 7.4134722 -1.8832055
8.2081261 7.3519974 -1.8802886
8.2434893 7.2930093 -1.8780581
8.2747288 7.2306242 -1.8749695
8.309989 7.1719918 -1.8729105
8.344841 7.1131997 -1.8708514
8.4003897 7.0720134 -1.8735968
8.4383211 7.0159278 -1.8723958
8.4789267 6.9621439 -1.871881
8.5054159 6.8969584 -1.8682777
8.5337315 6.8335576 -1.8651891
8.5639076 6.7719021 -1.8626153
8.5920973 6.7089219 -1.8596984
8.6299791 6.6536698 -1.859012
8.6659393 6.597012 -1.8579825
8.7164936 6.5514083 -1.8602132
8.7446594 6.488997 -1.8576394
8.7692099 6.4241581 -1.8543793
8.8084631 6.3702302 -1.8543793
8.8497896 6.3177795 -1.854894
8.8835554 6.2599549 -1.8538646
8.9031954 6.1923928 -1.849918
8.935338 6.1337447 -1.848717
8.949151 6.0627813 -1.8437409
9.0042019 6.0198007 -1.8475158
9.026989 5.9552174 -1.8445989
9.0972137 5.9217486 -1.8516339
9.111824 5.8519783 -1.8471727
9.1858425 5.8202095 -1.8550656
9.2339134 5.7715678 -1.8576394
9.2926359 5.7292752 -1.8624438
9.3040438 5.6578188 -1.8576394
9.3292904 5.5950513 -1.855752
9.3897343 5.5532465 -1.8610711
9.427887 5.4980083 -1.8619291
9.4418001 5.4287643 -1.8579825
9.4835033 5.3755856 -1.8596984
9.5163088 5.3172946 -1.8596984
9.5375376 5.2526264 -1.8574678
9.5695868 5.1940064 -1.8574678
9.611702 5.1407652 -1.8595269
9.6195307 5.0692935 -1.854894
9.6600733 5.0151663 -1.8567815
9.7064524 4.963871 -1.85987
9.748167 4.9099798 -1.8621006
9.7825232 4.852262 -1.8629586
9.8129969 4.7925787 -1.8631301
9.8360043 4.7292895 -1.8619291
9.9004574 4.6857018 -1.8687924
9.9308081 4.6256971 -1.8691356
9.9446745 4.5581098 -1.8663902
9.9562893 4.4897165 -1.8633016
9.9998608 4.43573 -1.8663902
10.028695 4.3750763 -1.8667334
10.068027 4.3188949 -1.8691356
10.07346 4.2482347 -1.8651891
10.112988 4.1920023 -1.8677629
10.103848 4.1157522 -1.8612427
10.162754 4.0672188 -1.8675914
10.171931 3.9986591 -1.8646743
10.192599 3.9347513 -1.863988
10.217471 3.8724856 -1.8641596
10.267818 3.8196778 -1.8691356
10.246639 3.7403934 -1.8608994
10.330614 3.6993649 -1.8722241
10.381934 3.6460245 -1.8775432
10.375233 3.572314 -1.8722241
10.414693 3.5145686 -1.8754842
10.424837 3.4468892 -1.8734252
10.420485 3.374666 -1.8687924
10.471986 3.3204868 -1.8744547
10.481812 3.2529585 -1.8725673
10.507232 3.1902988 -1.8735968
10.513387 3.1218429 -1.8711946
10.515313 3.0523336 -1.8681061
10.526261 2.9856055 -1.8667334
10.572866 2.9288485 -1.871881
10.583981 2.8621199 -1.8706799
10.624206 2.8031535 -1.8747979
10.631664 2.7354581 -1.873082
10.682651 2.6787946 -1.8792591
10.706543 2.6150661 -1.8806318
10.696508 2.5431726 -1.875999
10.78966 2.4954655 -1.8898973
10.735562 2.4136627 -1.8775432
10.802145 2.3590901 -1.8868089
10.758591 2.2805138 -1.8765137
10.798436 2.2198107 -1.8811466
10.831178 2.1573579 -1.8845782
10.864526 2.0947731 -1.8881816
10.876206 2.0278897 -1.8880099
10.927228 1.9680974 -1.8948734
10.895419 1.8934263 -1.8871521
10.938896 1.8319039 -1.8928144
10.916862 1.7594236 -1.8869804
6.1491308 0.95286947 -1.0448402
6.018434 0.89486277 -1.0208182
5.948709 0.84723598 -1.0076061
5.9225578 0.80647194 -1.0021155
5.9225097 0.76948291 -1.0012575
5.872366 0.72636694 -0.99164879
5.8825831 0.69100952 -0.99267828
5.8681087 0.65283567 -0.98941815
5.8651452 0.61609823 -0.98821706
5.8511677 0.57835793 -0.98512852
5.8742261 0.54425889 -0.98856026
5.8548799 0.50625753 -0.98461378
5.8608222 0.47055912 -0.98512852
5.8645816 0.43466154 -0.98530012
5.8504286 0.39753687 -0.98238319
0 0 -0
0 0 -0
5.8341236 0.28866699 -0.97843671
0 0 -0
0 0 -0
5.8256474 0.18083614 -0.97620612
5.8148289 0.1447953 -0.97414708
5.851068 0.10977168 -0.98032415
0 0 -0
0 0 -0
0 0 -0
0 -0 -0
0 -0 -0
0 -0 -0
0 -0 -0
0 -0 -0
0 -0 -0
0 -0 -0
0 -0 -0
0 -0 -0
0 -0 -0
0 -0 -0
0 -0 -0
0 -0 -0
0 -0 -0
0 -0 -0
0 -0 -0
9.8427048 -1.0277531 -1.6846815
9.7568998 -1.079344 -1.670783
9.7373724 -1.1377032 -1.6685525
9.7800751 -1.2035718 -1.6773033
9.7754374 -1.263938 -1.6778181
9.7635927 -1.3233653 -1.6771318
9.750412 -1.3825566 -1.6762738
9.7193308 -1.4390366 -1.6723274
9.6996088 -1.496992 -1.67044
9.6824589 -1.5552287 -1.6690673
9.6562157 -1.6118505 -1.6661503
9.6189642 -1.6663578 -1.6613458
9.5823784 -1.720643 -1.6567131
9.5503321 -1.7754431 -1.6529382
9.5073328 -1.8278675 -1.6472759
9.4679165 -1.8805996 -1.6422999
9.4446182 -1.9362825 -1.6402409
9.4248495 -1.992566 -1.6388682
8.3285913 -1.8141204 -1.4456632
9.403533 -2.1089363 -1.6395546
9.3884954 -2.1661522 -1.6392114
9.3788614 -2.2246282 -1.6398977
9.4071493 -2.2924018 -1.6474475
9.3948174 -2.3505583 -1.6477907
7.4069409 -1.9013133 -1.2929524
7.399899 -1.9479803 -1.2938104
9.4003687 -2.5366974 -1.6568847
9.3922234 -2.5964301 -1.6582574
9.3799067 -2.6550846 -1.6589437
9.3710079 -2.7147825 -1.6603163
9.3579521 -2.7733512 -1.6610028
7.9878531 -2.4205441 -1.4147779
7.9314456 -2.4566801 -1.4072282
7.9190402 -2.5061924 -1.407743
7.9053879 -2.5553417 -1.4080861
8.740859 -2.8848872 -1.5642287
9.176713 -3.0913715 -1.6476191
9.1696825 -3.1517851 -1.6498497
9.1548195 -3.2096202 -1.6507076
9.1368084 -3.2663963 -1.6510508
9.10919 -3.3196976 -1.6496781
9.0821848 -3.3731263 -1.648477
7.6285901 -2.8864522 -1.381662
9.038269 -3.4836159 -1.6481339
8.9873791 -3.5274863 -1.6426431
8.9500141 -3.576349 -1.6397262
8.9096508 -3.6237726 -1.6362945
8.8471975 -3.6617906 -1.6287447
8.7882471 -3.7007093 -1.6218812
8.7354918 -3.7417588 -1.6162189
8.6870804 -3.7842689 -1.6114146
8.7042284 -3.8554597 -1.619136
8.6777134 -3.9075813 -1.6186211
8.7315035 -3.9964335 -1.6335491
8.7523718 -4.0711298 -1.6422999
8.7432585 -4.1323357 -1.6453885
8.7177382 -4.1859059 -1.6453885
8.6892338 -4.2380219 -1.6448737
8.6551208 -4.2873216 -1.6433294
8.6022501 -4.3270636 -1.6381819
8.5597467 -4.3716969 -1.6350933
8.4934063 -4.4037256 -1.627372
8.4644823 -4.4548392 -1.6270288
8.4282999 -4.5020499 -1.625313
8.3953209 -4.5508623 -1.6242834
8.3180399 -4.5752201 -1.6145031
8.305294 -4.6348162 -1.6175916
8.2672691 -4.6803489 -1.6157042
8.2349787 -4.7290249 -1.6150179
8.207509 -4.780457 -1.6153611
8.166996 -4.8242121 -1.6131305
8.1304808 -4.8701825 -1.6117578
8.0987606 -4.9189553 -1.6114146
8.0541668 -4.9597721 -1.6084976
8.0118837 -5.0017929 -1.6060954
7.9868693 -5.0545473 -1.6072966
7.9515591 -5.1007981 -1.6064386
7.9234147 -5.1516404 -1.6071249
7.874382 -5.1887751 -1.6035217
7.8137231 -5.2178416 -1.5975162
7.831327 -5.2993731 -1.6079829
7.7856641 -5.3384099 -1.6052375
7.7454805 -5.3810215 -1.6036932
7.6631789 -5.3938498 -1.5932266
7.6355529 -5.4447732 -1.5944277
7.616374 -5.5019073 -1.5975162
7.5673676 -5.5374813 -1.594256
7.5150456 -5.5703144 -1.5903096
7.4429126 -5.587925 -1.5820736
7.4437714 -5.660327 -1.5897949
7.3784623 -5.6824474 -1.5831031
7.3341355 -5.7203417 -1.581044
7.2710695 -5.7432489 -1.5748669
7.2564626 -5.8043733 -1.5794997
7.2276001 -5.8543701 -1.581044
7.2037287 -5.9086056 -1.5837893
7.1393003 -5.9294028 -1.5774407
7.0854435 -5.9585114 -1.5734942
7.0652499 -6.0159278 -1.5772691
7.0065675 -6.0405087 -1.5722932
6.9678874 -6.0820904 -1.57195
6.9429855 -6.1358223 -1.5748669
6.8729053 -6.1494002 -1.5673171
6.8240929 -6.1815333 -1.5647434
6.8056369 -6.2412696 -1.5693762
6.7376156 -6.2554245 -1.5623412
6.6969528 -6.2946239 -1.5618265
6.6717625 -6.3485017 -1.5650866
6.6220417 -6.379066 -1.5625128
6.5940595 -6.4305844 -1.5652581
6.5621886 -6.4785385 -1.5671456
6.5097728 -6.506144 -1.5640571
6.4434166 -6.5193353 -1.5575368
6.4170556 -6.5728488 -1.5609685
6.3718181 -6.6071348 -1.5597675
6.3039808 -6.6175709 -1.552904
6.2693329 -6.6625853 -1.5544482
6.2598529 -6.7348466 -1.5625128
6.2617121 -6.8203058 -1.5736659
2.2177193 -2.4443979 -0.53591841
2.2020218 -2.4572256 -0.53574681
2.1882086 -2.4721665 -0.53609002
6.0049458 -6.8717628 -1.5505018
5.946578 -6.8898325 -1.5462122
5.8914108 -6.9111938 -1.5427805
5.8552375 -6.9547501 -1.5444963
5.7841144 -6.9564538 -1.536775
5.7882042 -7.0489225 -1.5496439
5.767179 -7.1118555 -1.5558209
5.7141972 -7.1355724 -1.5532472
5.6629748 -7.1612258 -1.5511882
2.052501 -2.6273234 -0.54175234
1.9870225 -2.5758858 -0.5276823
1.9735664 -2.5911653 -0.52836865
1.9588138 -2.6048012 -0.52871186
1.9427942 -2.6167712 -0.52871186
1.8184271 -2.4808114 -0.496797
1.7916263 -2.4759552 -0.49336529
1.7735387 -2.4828925 -0.49250737
5.2034721 -7.3839517 -1.5343728
5.1569424 -7.4141231 -1.5340296
5.139226 -7.4862394 -1.5426089
5.1031394 -7.5323143 -1.5456975
5.0480666 -7.5503802 -1.5429521
5.0249672 -7.6165752 -1.5503303
4.9485831 -7.6018505 -1.5408931
4.922605 -7.664402 -1.5475849
4.829092 -7.6212249 -1.5324854
4.8015547 -7.6816244 -1.5388341
4.7072892 -7.6346245 -1.5232198
1.7406386 -2.8608601 -0.54432607
1.7235585 -2.8723316 -0.54449767
1.7043976 -2.8803089 -0.54398292
4.5656476 -7.8287005 -1.5395204
4.497396 -7.8215489 -1.5324854
4.4420333 -7.8361406 -1.5299116
4.4015555 -7.8770099 -1.532657
4.3488636 -7.896102 -1.5311127
4.3026814 -7.9269671 -1.5319706
4.2418833 -7.9306307 -1.5275095
4.1991119 -7.9678397 -1.52974
4.141974 -7.977716 -1.5266515
4.1068482 -8.0301723 -1.5319706
4.0566125 -8.0534611 -1.5316274
4.0049324 -8.0737867 -1.5307696
3.9527237 -8.0928974 -1.52974
3.9029922 -8.1169987 -1.52974
3.8505857 -8.1354504 -1.5287105
3.8039222 -8.166069 -1.5300832
3.7422535 -8.1641788 -1.5252788
3.6949229 -8.1932735 -1.52648
3.6445804 -8.2157907 -1.52648
3.5988266 -8.2488356 -1.5285389
3.5419323 -8.2562752 -1.5257936
3.4957988 -8.2887459 -1.5278525
3.4422343 -8.303669 -1.5266515
3.3927052 -8.3282833 -1.5273378
3.3451996 -8.3580914 -1.5290537
3.2884474 -8.364706 -1.52648
3.2335136 -8.375535 -1.5247641
3.1792688 -8.3878479 -1.5233914
3.1287725 -8.4099674 -1.5239061
3.0774486 -8.4299326 -1.5240777
3.0286539 -8.4570045 -1.525622
2.9750741 -8.4707804 -1.5247641
2.9281723 -8.5037804 -1.5275095
2.8731048 -8.5131865 -1.5259651
2.817414 -8.5203657 -1.5240777
2.7684186 -8.5478029 -1.5259651
2.7135367 -8.5571156 -1.5245925
2.6507638 -8.5406713 -1.518587
2.5908699 -8.5322657 -1.5141258
2.5451963 -8.5706682 -1.5182438
2.4933832 -8.5889626 -1.5187585
2.4443977 -8.6173697 -1.5211607
2.3875329 -8.6179638 -1.518587
2.3310101 -8.6191368 -1.5161848
2.2790852 -8.6370878 -1.5168711
2.2211385 -8.6318274 -1.5134394
2.1662164 -8.6376486 -1.5120667
2.1129425 -8.6498203 -1.5118952
2.0627894 -8.6750822 -1.5141258
2.0041959 -8.6645393 -1.5100077
1.9531536 -8.686286 -1.5117235
1.9317534 -8.844408 -1.5378045
0.55309224 -2.6050365 -0.42490277
0.53590798 -2.602591 -0.42387328
0.52108276 -2.6116276 -0.42490277
0.5041163 -2.6099389 -0.42404485
0.49061912 -2.6265419 -0.42644703
0.4826965 -2.6750734 -0.43451154
1.5163249 -8.7240982 -1.5033159
1.4510579 -8.6632795 -1.4909618
0.4383882 -2.7146294 -0.44000229
0.41855901 -2.6968231 -0.43639898
0.4050425 -2.7198048 -0.44000229
1.150619 -8.0818081 -1.382863
1.0305268 -7.5703607 -1.2917513
0.34920779 -2.6828353 -0.43228096
0.33261892 -2.6839497 -0.43210936
0.94746006 -8.0694513 -1.3761712
0.90151733 -8.1074247 -1.3818336
0.85175413 -8.1128035 -1.3818336
0.79973447 -8.0953274 -1.3778871
0.744515 -8.0402422 -1.3674204
0.67763931 -7.8414841 -1.3319023
0.62786043 -7.8248715 -1.3282989
0.57947302 -7.8236642 -1.3274411
0.53438711 -7.8703208 -1.3349907
0.49771348 -8.0622463 -1.3679352
0.44496349 -8.0061293 -1.35764
0.39524853 -7.996901 -1.355581
0.15373918 -3.5375512 -0.57778519
0.29755783 -8.0139475 -1.3578116
0.25071809 -8.091444 -1.3710237
0.20082192 -8.0829821 -1.3693079
0.15476903 -8.2751522 -1.4025954
0.1067325 -8.4966068 -1.4410305
0.056944322 -8.8704729 -1.5060613
0.0025148976 -8.8696709 -1.5058897
-0.051855374 -8.8606529 -1.5043454
-0.10632979 -8.8690338 -1.5058897
-0.160927 -8.8780642 -1.5076056
-0.21525458 -8.8710003 -1.5065761
-0.2697421 -8.8714819 -1.5069191
-0.32460475 -8.8814735 -1.5089782
-0.3798109 -8.8960476 -1.5118952
-0.43482259 -8.9024057 -1.5134394
-0.49030617 -8.915309 -1.5161848
-0.54602468 -8.9288492 -1.5191017
-0.59940863 -8.9046888 -1.5154984
-0.65331227 -8.8910179 -1.5137826
-0.70738411 -8.88095 -1.5127531
-0.76363516 -8.8970547 -1.5163563
-0.81866407 -8.8971071 -1.5172143
-0.87410796 -8.9007397 -1.5187585
-0.92788601 -8.8873701 -1.5173858
-0.9859789 -8.9138231 -1.5230482
-1.0398535 -8.9007559 -1.5218471
-1.0911958 -8.8678074 -1.5172143
-1.1474837 -8.8756008 -1.519788
-1.2043056 -8.8859644 -1.5228766
-1.2568684 -8.8647528 -1.5204744
-1.3100826 -8.8490772 -1.5191017
-1.3678136 -8.863266 -1.5230482
-1.4243608 -8.8683233 -1.5254503
-1.4779373 -8.854558 -1.5245925
-1.5287062 -8.8249388 -1.5209892
-0.53744 -2.9975517 -0.49147785
-0.55131811 -2.9699838 -0.48718822
-0.57250905 -2.982024 -0.48993358
-0.59406048 -2.9948816 -0.49285051
-0.61579108 -3.0075862 -0.49576747
-1.8767551 -8.877388 -1.5414078
-1.9240571 -8.8329782 -1.535574
-0.66759533 -2.9803617 -0.49302211
-0.68321073 -2.9646904 -0.4909631
-0.69911402 -2.9508569 -0.48924723
-0.7165069 -2.9436402 -0.48873249
-2.2022355 -8.8022947 -1.5414078
-2.2417436 -8.7323189 -1.5312843
-2.2762103 -8.6459961 -1.5182438
-0.78390956 -2.9080498 -0.48564395
-0.79359728 -2.8737497 -0.4803248
-0.80853105 -2.8593473 -0.47860897
-0.82496345 -2.8505476 -0.47792262
-2.568918 -8.6684475 -1.5357455
-2.6114824 -8.6176376 -1.5293969
-2.6576028 -8.5798082 -1.5254503
-2.6932466 -8.5098047 -1.5156701
-1.0390313 -3.2166588 -0.54981685
-1.0636909 -3.2251909 -0.55256218
-2.8834071 -8.5596161 -1.5342013
-1.0990244 -3.1997838 -0.55033159
-1.1150507 -3.1827538 -0.54844415
-1.1295824 -3.1619377 -0.54587036
-3.080117 -8.4520292 -1.5278525
-3.1497614 -8.4809923 -1.536775
-1.1666657 -3.0853281 -0.53557527
-1.1696262 -3.036747 -0.52785391
-1.1961584 -3.0496874 -0.53162879
-1.2532438 -3.1383436 -0.54964525
-3.4177139 -8.4031963 -1.5410646
-3.4620502 -8.3647728 -1.5378045
-3.5167522 -8.3515444 -1.5393488
-3.561722 -8.31532 -1.5366035
-3.6103153 -8.2878904 -1.535574
-3.6746702 -8.2962055 -1.5414078
-3.707298 -8.2330809 -1.5336865
-1.3298539 -2.9073565 -0.51790196
-1.3410183 -2.8848505 -0.51515663
-3.8780048 -8.205308 -1.541751
-3.9154825 -8.1547165 -1.5366035
-3.9645813 -8.128768 -1.5362602
-4.0301304 -8.1360674 -1.5424373
-4.0684633 -8.0883045 -1.5379761
-4.1180158 -8.0631886 -1.5379761
-4.1710415 -8.0447655 -1.5393488
-4.2244549 -8.0268669 -1.5408931
-4.2829127 -8.0181732 -1.5443248
-4.3306222 -7.9891443 -1.54381
-4.389534 -7.9805479 -1.5474133
-4.4446616 -7.9646468 -1.5496439
-4.4992733 -7.9475121 -1.551703
-4.5607123 -7.9419665 -1.5561641
-4.6158047 -7.9248991 -1.5583948
-4.6688542 -7.9040613 -1.559939
-4.7000489 -7.8465319 -1.5541052
-4.7046261 -7.7459784 -1.5395204
-4.7102151 -7.6490221 -1.525622
-4.736187 -7.5865521 -1.5187585
-4.7810674 -7.5548515 -1.5182438
-4.8592548 -7.5751224 -1.5285389
-4.9298139 -7.5823283 -1.5362602
-4.9925103 -7.5766139 -1.5414078
-5.0575104 -7.5736914 -1.5472417
-5.1182442 -7.5637283 -1.551703
-5.184618 -7.561429 -1.55788
-5.2668967 -7.5812511 -1.5688615
-5.2849579 -7.5085139 -1.5602822
-5.3046141 -7.4390507 -1.5523893
-5.3686233 -7.4319148 -1.55788
-5.426343 -7.4155278 -1.5614833
-5.4940376 -7.4121656 -1.5680035
-5.5370483 -7.375164 -1.5673171
-5.6018786 -7.3669267 -1.5729795
-5.673429 -7.3667555 -1.5805292
-5.709434 -7.3201542 -1.5779555
-5.7579069 -7.2896218 -1.578985
-5.7982183 -7.2487702 -1.5777839
-5.8469281 -7.2184148 -1.578985
-5.8823614 -7.1717396 -1.5765828
-5.9205894 -7.1286912 -1.5750386
-5.9743657 -7.1042914 -1.5777839
-6.0370078 -7.0900002 -1.5829314
-6.0823278 -7.0550623 -1.5834461
-6.1293898 -7.0220618 -1.5844758
-6.188673 -7.0027738 -1.5887654
-6.2479496 -6.9830217 -1.593055
-6.2953095 -6.9496636 -1.594256
-6.3398314 -6.9130836 -1.5947708
-6.3754258 -6.8668342 -1.593055
-6.43431 -6.84553 -1.5973446
-6.4931726 -6.8237615 -1.6016343
-4.1519914 -4.3107228 -1.0034882
-4.2106953 -4.3183112 -1.0115527
-4.2308826 -4.2860847 -1.0100083
-4.2835693 -4.2865191 -1.0165286
-4.2901688 -4.2407665 -1.0117242
-3.5081663 -3.4257698 -0.81508756
-3.4837303 -3.3604174 -0.80410612
-3.3958466 -3.2357061 -0.77802515
-3.4070258 -3.2067082 -0.77596617
-4.556798 -4.2359295 -1.0446686
-3.5114415 -3.2246132 -0.79140884
-3.5289717 -3.2010214 -0.79089403
-3.5668941 -3.1957383 -0.79518366
-3.4358985 -3.0406406 -0.76018029
-3.4255562 -2.9942226 -0.75348848
-3.4095533 -2.9435418 -0.74559557
-4.6542487 -3.9679878 -1.026309
-3.7438924 -3.1527014 -0.81354332
-3.8495331 -3.2014627 -0.83310401
-4.5300436 -3.7203698 -0.98203999
-4.5650306 -3.7024307 -0.98478538
-4.6222701 -3.7020574 -0.99250668
-4.661128 -3.6864567 -0.99610996
-4.6984143 -3.6693053 -0.9993701
-4.7239614 -3.6428132 -1.0000564
-4.7658229 -3.6286752 -1.004346
-4.7588577 -3.5774667 -0.9979974
-4.7941694 -3.5581782 -1.0009143
-4.7308688 -3.466408 -0.98255473
-4.7887735 -3.4638674 -0.99044764
-4.8123431 -3.4361358 -0.99096245
-4.7640738 -3.3577473 -0.97620612
-4.7967196 -3.336889 -0.97877985
-4.8536563 -3.33248 -0.98650122
-4.9033775 -3.3225248 -0.99267828
-4.8753476 -3.2600758 -0.98255473
-4.9322672 -3.2545087 -0.9902761
-4.8679209 -3.1693726 -0.97277439
-4.8043771 -3.0862153 -0.95561588
-4.9438982 -3.1331205 -0.98049575
-5.0098157 -3.1319625 -0.9901045
-5.0859671 -3.1363156 -1.0017723
-5.0832281 -3.0917435 -0.99731106
-5.0666161 -3.0392177 -0.9901045
-4.9893422 -2.9514124 -0.97071534
-5.1137433 -2.9827681 -0.99216354
-5.0576415 -2.9086201 -0.97723562
-5.2022452 -2.9494188 -1.0026302
-5.2563677 -2.9376218 -1.0098368
-5.2380476 -2.8853571 -1.0026302
-5.2201509 -2.8338985 -0.99559522
-5.2191968 -2.7920597 -0.99199194
-5.2196698 -2.7512579 -0.9887318
-5.2959127 -2.7500401 -1.0003996
-5.2626882 -2.6919305 -0.99061924
-5.2835059 -2.661804 -0.99147719
-5.3571086 -2.6577835 -1.0026302
-5.3680038 -2.6222694 -1.0016007
-5.3573556 -2.5764782 -0.99645317
-5.4603343 -2.5848501 -1.0132685
-5.3966074 -2.5142841 -0.9979974
-5.3707342 -2.4622459 -0.9901045
-5.4818406 -2.4725683 -1.0084641
-5.4140544 -2.402144 -0.99267828
-5.4720368 -2.3877828 -1.0009143
-5.4920177 -2.3564918 -1.0019438
-5.4954801 -2.3181562 -0.99988484
-5.4913979 -2.2768502 -0.99645317
-5.5335498 -2.2546308 -1.0017723
-5.5728908 -2.2308819 -1.0065767
-5.6002283 -2.2020502 -1.0091505
-5.6623468 -2.1864452 -1.0182445
-5.6793408 -2.1530569 -1.0189308
-5.7182999 -2.1277835 -1.0237352
-5.7673411 -2.1058278 -1.030427
-5.7653136 -2.0650878 -1.0276817
-5.7416234 -2.0169466 -1.0209899
-5.697999 -1.9624408 -1.0106947
-5.6651258 -1.9123262 -1.0024587
-5.6898489 -1.881858 -1.0048609
-5.773459 -1.8702743 -1.0180728
-5.8477473 -1.8547577 -1.0295691
-5.9164147 -1.8366477 -1.0400358
-5.9615102 -1.8106111 -1.0462129
-6.1528959 -1.8275417 -1.0789857
-6.3324075 -1.8386208 -1.1095278
-6.2459455 -1.7720528 -1.0918546
-6.4010162 -1.7736561 -1.1179355
-6.4079742 -1.7333186 -1.1172491
-6.5289903 -1.7231102 -1.137153
-6.8647957 -1.7666918 -1.1956636
-7.0828733 -1.7765133 -1.2328976
-7.212316 -1.7619933 -1.2541741
-7.3878498 -1.756884 -1.2836868
-7.813148 -1.8073775 -1.3578116
-7.8904138 -1.7743067 -1.369651
-7.926177 -1.7313212 -1.3741122
-7.9886951 -1.6936805 -1.3833778
-7.9468265 -1.6339244 -1.3741122
-9.6697931 -1.9261597 -1.6783328
-9.8275032 -1.8949389 -1.7042422
-9.9890623 -1.8625762 -1.7308379
-10.200037 -1.8372021 -1.7661844
-10.477074 -1.8207706 -1.8131988
-10.995253 -1.8413357 -1.9027663
-11.189199 -1.8032857 -1.9350243
-11.182528 -1.7318839 -1.9319358
-11.247517 -1.67134 -1.9415445
-11.316081 -1.6106184 -1.9518397
-11.274013 -1.534119 -1.9427457
-11.210917 -1.4555352 -1.9300483
-11.21377 -1.3859944 -1.9290189
-11.280771 -1.3240465 -1.9393139
-11.297496 -1.2557827 -1.9408582
-11.318706 -1.1878771 -1.9432604
-11.32284 -1.1181144 -1.9427457
-11.310848 -1.0468944 -1.9394855
-11.32393 -0.97806537 -1.9406866
-11.306149 -0.90667701 -1.9365686
-11.296762 -0.83619738 -1.9339948
-11.302664 -0.76693261 -1.9341664
-11.266841 -0.69508332 -1.9271314
-11.29942 -0.62751949 -1.9321073
-11.312898 -0.55866063 -1.9338232
-11.300364 -0.48855624 -1.9310778
-11.303149 -0.4192093 -1.9310778
-11.293693 -0.34948215 -1.9290189
-11.357671 -0.28171143 -1.9398288
-11.323726 -0.21135853 -1.9336517
-11.33269 -0.14197141 -1.9350243
-11.337288 -0.072457433 -1.9357107
-11.31092 -0.0028877161 -1.9310778
-11.304813 0.066479474 -1.9300483
-11.282521 0.1355806 -1.9262735
-11.232226 0.20390712 -1.9176942
-11.263265 0.27361581 -1.9233565
-11.241679 0.34211937 -1.9199249
-11.250198 0.41148779 -1.9218123
-11.294706 0.48253322 -1.9300483
-11.299405 0.55221266 -1.931421
-11.271213 0.62017846 -1.9271314
-11.212129 0.68595105 -1.9175227
-11.229333 0.75619292 -1.9212976
-10.551999 -0.26853937 -1.9286406
-10.516099 -0.20306581 -1.9216765
-10.517147 -0.13853642 -1.9216765
-10.523697 -0.074043542 -1.9227761
-10.509208 -0.0094561204 -1.9200271
-10.534627 0.055160195 -1.9247919
-10.570461 0.12021065 -1.9315728
-10.521362 0.18422605 -1.9225928
-10.545586 0.24938373 -1.9273577
-10.52617 0.31355932 -1.9240589
-10.538784 0.37866974 -1.9268079
-10.536263 0.44332737 -1.9268079
-10.528434 0.50773174 -1.9258916
-10.496654 0.57077658 -1.9205769
-10.501785 0.63570637 -1.9222263
-10.504554 0.70058978 -1.9235091
-10.503979 0.76531696 -1.9242421
-10.481445 0.82836026 -1.9209434
-10.52612 0.89691234 -1.93029
-10.441121 0.95423836 -1.9154454
-10.420393 1.0168543 -1.9126965
-10.407113 1.0800635 -1.9114137
-10.432536 1.1474454 -1.9174614
-10.413582 1.2100755 -1.9152622
-10.406937 1.2740686 -1.9154454
-10.392097 1.3370225 -1.9141626
-10.370059 1.3989227 -1.9115969
-10.381721 1.4654105 -1.9154454
-10.375452 1.529514 -1.9159952
-10.322147 1.5864292 -1.9077483
-10.315131 1.6502007 -1.9082981
-10.295114 1.7118499 -1.9064655
-10.27376 1.7731487 -1.9044496
-10.259784 1.8356346 -1.9038998
-10.213529 1.8921077 -1.8973023
-10.258692 1.9656538 -1.9081149
-10.226187 2.0245545 -1.9042664
-10.215498 2.0876565 -1.9046328
-10.207306 2.1513119 -1.9055492
-10.191992 2.213485 -1.9051826
-10.176299 2.2755513 -1.9048162
-10.13053 2.3306768 -1.8987683
-10.138042 2.3979964 -1.9029834
-10.085882 2.4511046 -1.8958361
-10.13742 2.5296023 -1.9086647
-10.076947 2.5802972 -1.9000512
-10.136992 2.6620522 -1.9147124
-10.073003 2.7114272 -1.9055492
-10.041961 2.7692633 -1.9028002
-10.017212 2.8286905 -1.901334
-10.010055 2.8931038 -1.90335
-10.006256 2.9586506 -1.906099
-9.9690933 3.0143023 -1.9024336
-9.9428968 3.0730927 -1.9009675
-9.9163532 3.1316752 -1.8995014
-9.8679476 3.1831074 -1.8938202
-9.8444958 3.2423661 -1.8930871
-9.8318701 3.3052156 -1.8945533
-9.8114052 3.3654804 -1.8945533
-9.7905703 3.4256189 -1.8945533
-9.7860327 3.4915738 -1.8978521
-9.7607288 3.55021 -1.8971189
-9.7728682 3.6226752 -1.9038998
-9.7173471 3.6700692 -1.8973023
-9.6891403 3.7275071 -1.8962027
-9.6477795 3.779717 -1.8925374
-9.5960989 3.8275542 -1.8868561
-9.5842743 3.8911698 -1.8892386
-9.5711212 3.9544086 -1.8914378
-9.5539274 4.016109 -1.8929039
-9.5535107 4.0850897 -1.8978521
-9.5471973 4.1518645 -1.9017006
-9.4999638 4.2008257 -1.8973023
-9.4578695 4.2517829 -1.8940035
-9.4101429 4.2999301 -1.889605
-9.3621836 4.3476524 -1.8852067
-9.3548899 4.4142442 -1.8892386
-9.3639746 4.4889836 -1.8967525
-9.321228 4.5390396 -1.8936369
-9.2808647 4.5900474 -1.8910712
-9.2323208 4.6367602 -1.8868561
-9.208951 4.6960006 -1.8879557
-9.1528997 4.7384076 -1.8822745
-9.1532412 4.8100266 -1.8885055
-9.1235552 4.8660994 -1.8885055
-9.0753698 4.9121628 -1.8846569
-9.0312719 4.9601846 -1.8817247
-9.0109711 5.0212479 -1.8839239
-8.9414806 5.0546746 -1.875677
-8.946969 5.1304703 -1.8835573
-8.9144707 5.1847768 -1.8833741
-8.8630142 5.227891 -1.879159
-8.8333006 5.2836885 -1.8797088
-8.8040762 5.3398285 -1.8804418
-8.77952 5.3988976 -1.8822745
-8.7212009 5.4370651 -1.8767766
-8.6835203 5.4878492 -1.8758602
-8.6844521 5.5632973 -1.8835573
-8.6287146 5.602561 -1.8787924
-8.576108 5.6435122 -1.8747606
-8.5740347 5.717844 -1.8820913
-8.5575237 5.7830048 -1.8863063
-8.5097122 5.8270731 -1.8835573
-8.4576426 5.8679709 -1.879892
-8.4254999 5.9225821 -1.8808084
-8.3497629 5.9462276 -1.8718284
-8.3226871 6.00425 -1.8740276
-8.3079138 6.0714445 -1.879159
-8.3084307 6.1503801 -1.8879557
-8.2359285 6.1752968 -1.879892
-8.2213697 6.2435513 -1.88539
-8.1961527 6.3040671 -1.8885055
-8.1480103 6.3469901 -1.8863063
-8.0865297 6.37921 -1.8809916
-8.0817995 6.4563179 -1.8892386
-8.0298023 6.495893 -1.8863063
-8.0080452 6.5599914 -1.8907046
-7.9933701 6.6303425 -1.8969357
-7.9216719 6.6533427 -1.8894218
-7.8986726 6.7171078 -1.8938202
-7.8446436 6.7545428 -1.8907046
-7.80972 6.808363 -1.892354
-7.7832761 6.8698153 -1.8962027
-7.7424431 6.9187531 -1.8965691
-7.7144251 6.9793196 -1.9002345
-7.6779804 7.0324988 -1.9018838
-7.6145005 7.0607624 -1.8967525
-7.5731835 7.1093698 -1.8973023
-7.5443835 7.1699252 -1.9011508
-7.4917464 7.2079029 -1.8989516
-7.4663935 7.2722549 -1.9038998
-7.4174309 7.3137894 -1.9028002
-7.3988547 7.3855548 -1.9097643
-7.3603134 7.4378014 -1.9115969
-7.3056035 7.4736848 -1.9092145
-7.2828264 7.5424142 -1.9154454
-7.224875 7.5748658 -1.9123299
-7.1897211 7.631218 -1.9154454
-7.1333847 7.6651149 -1.9128797
-7.077569 7.6993318 -1.9104973
-7.0182981 7.7295141 -1.9071985
-6.9871483 7.7907276 -1.9117801
-6.9600744 7.8569999 -1.9176446
-6.9091439 7.8965988 -1.9169116
-6.8875594 7.9700828 -1.9246087
-6.8366117 8.0099506 -1.9240589
-6.7955718 8.0615196 -1.9264414
-6.7478666 8.1053314 -1.9269912
-6.7054982 8.155695 -1.9291904
-6.662766 8.205843 -1.9313896
-6.6086006 8.2419691 -1.93029
-6.5688896 8.296236 -1.9335887
-6.5214944 8.341033 -1.9346883
-6.4707928 8.381669 -1.9348716
-6.4240098 8.4274693 -1.9363377
-6.3804555 8.4777241 -1.9389035
-6.3371124 8.5285501 -1.9416524
-6.2782664 8.5585546 -1.9396365
-6.2256336 8.5969162 -1.9396365
-6.1607604 8.6181602 -1.9357879
-6.1026635 8.6485701 -1.9341385
-6.070271 8.7156992 -1.9409193
-6.025032 8.7649336 -1.9436682
-5.9777608 8.8114996 -1.9458674
-5.9230351 8.8471956 -1.9456842
-5.8832698 8.9055176 -1.9506323
-5.8140206 8.9192142 -1.9456842
-5.7613111 8.9580278 -1.9464172
-5.714138 9.0056601 -1.9491663
-5.6384296 9.0080547 -1.9420189
-5.6037107 9.0759401 -1.9493495
-5.5279737 9.0774088 -1.9422022
-5.4797645 9.1237974 -1.9449512
-5.4392099 9.1834688 -1.9506323
-5.3877168 9.2251596 -1.9524651
-5.3516159 9.2938242 -1.9601622
-5.3187571 9.3692312 -1.9693254
-5.274611 9.4257097 -1.9744568
-5.2062306 9.4389591 -1.970425
-5.1472769 9.4689989 -1.9700584
-5.0839729 9.4908724 -1.9680425
-5.0178409 9.5071087 -1.9649271
-4.9566908 9.532485 -1.9638275
-4.9003482 9.5670938 -1.9647437
-4.8428817 9.5996151 -1.9652935
-4.7817011 9.6247482 -1.9643773
-4.717371 9.6433105 -1.9621781
-4.6687765 9.6942158 -1.9667597
-4.6214194 9.7484407 -1.9720744
-4.5702462 9.7953215 -1.9759229
-4.5174413 9.8392611 -1.9792217
-4.4513173 9.8542519 -1.976656
-4.3827848 9.8634119 -1.9729908
-4.3335986 9.9162407 -1.9783053
-4.2816 9.963418 -1.9825205
-4.2238288 9.9976521 -1.9841698
-4.1495848 9.9925127 -1.9779389
-4.0889368 10.019607 -1.9783053
-4.042748 10.082829 -1.9860026
-3.9797239 10.104701 -1.9854528
-3.9130371 10.117011 -1.9830703
-3.8578672 10.159211 -1.9867356
-3.8043869 10.206641 -1.9915005
-3.7484429 10.248257 -1.9951658
-3.6858222 10.271989 -1.995349
-3.6168504 10.277719 -1.9920503
-3.5659051 10.335032 -1.9990144
-3.5008485 10.352061 -1.998098
-3.4307694 10.353751 -1.9942495
-3.3647473 10.367126 -1.9927833
-3.3052413 10.400694 -1.995349
-3.2612185 10.48461 -2.0078111
-3.1982563 10.509125 -2.0087273
-3.1295061 10.514418 -2.0059783
-3.0734472 10.562683 -2.0116596
-3.0126114 10.595527 -2.0144086
-2.9420168 10.593921 -2.01056
-2.8741286 10.601336 -2.0085442
-2.8082714 10.615921 -2.0079944
-2.7433262 10.633904 -2.0081775
-2.6669972 10.606682 -1.9997474
-2.6161339 10.68109 -2.0109265
-2.5487223 10.689292 -2.0094604
-2.4864187 10.719094 -2.0122094
-2.4169238 10.717846 -2.009094
-2.3588996 10.768004 -2.0158746
-2.2880805 10.76016 -2.0116596
-2.2202268 10.765332 -2.0100102
-2.1558645 10.787428 -2.0116596
-2.085151 10.777289 -2.0072613
-2.0236855 10.815004 -2.0120261
-1.9564131 10.822381 -2.0111098
-1.8914922 10.842897 -2.0127592
-1.8293276 10.880474 -2.0177073
-1.7639456 10.900228 -2.0193567
-1.7024702 10.945816 -2.0259542
-1.6325178 10.937582 -2.0224724
-1.5662105 10.953233 -2.023572
-1.4943107 10.928547 -2.0171576
-1.4273535 10.938484 -2.0173409
-1.3560867 10.913868 -2.0111098
-1.2799891 10.844856 -1.9966319
-1.2198693 10.910148 -2.0074446
-1.1514571 10.903741 -2.0048788
-1.0868659 10.934078 -2.0092771
-1.0243187 10.989482 -2.0184405
-0.95669872 10.993602 -2.018074
-0.88787794 10.982607 -2.0149584
-0.82267034 11.017259 -2.0204563
-0.75162596 10.97208 -2.0111098
-0.68685889 11.017694 -2.0188069
-0.61609733 10.965755 -2.0083609
-0.55165225 11.026275 -2.0189903
-0.48135486 10.969543 -2.0078111
-0.41555926 11.012567 -2.0153248
-0.34841469 11.028666 -2.0178907
-0.28128856 11.052217 -2.0219226
-0.2128596 11.022282 -2.016058
-0.14558774 11.050904 -2.0211895
-0.078049146 11.089928 -2.0283368
-0.0099725667 11.059723 -2.0226555
0.057858147 11.053678 -2.0215559
0.12568115 11.053114 -2.0215559
0.19336203 11.044271 -2.0200899
0.26165846 11.065482 -2.0243049
0.32902384 11.04598 -2.0210061
0.39594823 11.020175 -2.0166078
0.46306381 11.005753 -2.0144086
0.53039587 10.998775 -2.0136755
0.59744638 10.987461 -2.0122094
0.66408122 10.970832 -2.0098269
0.73125374 10.964589 -2.0094604
0.7978034 10.950091 -2.0076277
0.86668003 10.96655 -2.0116596
0.93195099 10.937517 -2.0072613
1.0030693 10.975648 -2.0155082
1.0690596 10.955588 -2.0129426
1.1396092 10.981091 -2.0189903
1.2041731 10.948484 -2.0142252
1.2684932 10.916477 -2.0096438
1.3279279 10.847014 -1.998098
1.3895682 10.800636 -1.9909507
1.4504266 10.751963 -1.9834368
1.5251633 10.80516 -1.9951658
1.6006072 10.857841 -2.0068948
1.6601825 10.802148 -1.9982812
1.7265872 10.792728 -1.9984646
1.802289 10.839147 -2.0092771
1.857229 10.761041 -1.9966319
1.9259921 10.764925 -1.9995642
1.9930824 10.758705 -2.0006638
2.0511057 10.704756 -1.9927833
