# .PCD v0.7 - Point Cloud Data file format
VERSION 0.7
FIELDS x y z
SIZE 4 4 4
TYPE F F F
COUNT 1 1 1
WIDTH 1488
HEIGHT 1
VIEWPOINT 0 0 0 1 0 0 0
POINTS 1488
DATA ascii
2.9223683 -5.3831916 -1.6283184
2.8851881 -5.393364 -1.6259526
1.5788834 -2.9943874 -0.88178796
1.5667032 -3.0160079 -0.88546807
1.5415796 -3.0126781 -0.8815251
2.792315 -5.5426884 -1.6503989
2.7269626 -5.4966164 -1.6312099
2.6885281 -5.5037084 -1.6283184
2.6643214 -5.5401015 -1.6343642
2.6236753 -5.5423913 -1.6301584
2.5855455 -5.5496387 -1.6275299
2.5482295 -5.558382 -1.6254269
2.5144725 -5.5747924 -1.6256897
2.4833479 -5.5971723 -1.6277927
2.4354579 -5.5813508 -1.6185925
2.3966022 -5.5855489 -1.6154381
2.3664079 -5.6099286 -1.6183296
2.3275092 -5.613647 -1.6151752
2.2941122 -5.6305032 -1.6159638
2.2677641 -5.6650772 -1.6220096
2.2280207 -5.6663132 -1.6183296
2.1925161 -5.6780772 -1.6178039
2.1518233 -5.6760855 -1.6133353
2.1176276 -5.6909904 -1.613861
2.0833302 -5.7056894 -1.6143867
2.059988 -5.7510672 -1.6238497
2.0195477 -5.749033 -1.6196439
1.9861183 -5.7667899 -1.6212211
1.9516218 -5.781611 -1.6220096
1.9267074 -5.8255401 -1.6312099
1.881417 -5.8078785 -1.6227983
1.845162 -5.8174739 -1.6222725
1.8085743 -5.8259215 -1.6214839
1.7730733 -5.8378325 -1.6217468
1.7366706 -5.8467522 -1.6212211
1.7002252 -5.8554449 -1.6206954
1.6637385 -5.8639102 -1.6201696
1.6303017 -5.883307 -1.6227983
1.5939199 -5.8922682 -1.6225355
1.5579817 -5.9028702 -1.6227983
1.5200508 -5.9057779 -1.6209582
1.4819084 -5.9075065 -1.6188554
1.4419714 -5.9014912 -1.6146495
1.4039488 -5.9027181 -1.6125467
1.3670521 -5.9084015 -1.611758
1.328446 -5.9063234 -1.6088666
1.2915633 -5.9115357 -1.608078
1.2570662 -5.927844 -1.6104437
1.2181457 -5.9231596 -1.6070265
1.1812139 -5.9276838 -1.6062379
0.74281317 -3.8486373 -1.027414
0.7177704 -3.8455346 -1.0253111
0.69125539 -3.8337238 -1.0208424
0.6668936 -3.8331399 -1.0195282
0.64431691 -3.8428693 -1.0211053
0.62333345 -3.8629439 -1.025574
0.60257053 -3.8857656 -1.0308312
0.58098406 -3.9046597 -1.035037
0.56041104 -3.9320314 -1.0416086
0.53510404 -3.9267917 -1.0392429
0.50777239 -3.9051239 -1.0324084
0.48143637 -3.889015 -1.0271511
0.45621628 -3.8803966 -1.0239967
0.43175906 -3.8773692 -1.0224196
0.40836227 -3.8837836 -1.023471
0.38537657 -3.8948579 -1.0258368
0.36315858 -3.9154031 -1.0308312
0.33904436 -3.9165964 -1.0305684
0.31423593 -3.9089854 -1.0279397
0.28924918 -3.8973691 -1.0242596
0.26526469 -3.898108 -1.0239967
0.2410448 -3.8948472 -1.0226824
0.21708854 -3.8952894 -1.0224196
0.19327839 -3.8984754 -1.0229453
0.16956203 -3.9044077 -1.0242596
0.14538787 -3.8995895 -1.0226824
0.12104131 -3.8869071 -1.0190023
0.09702263 -3.8808248 -1.0171623
0.072904103 -3.8649478 -1.0126936
0.04907997 -3.8566394 -1.0103279
0.025572903 -3.8819532 -1.0171623
0.0017548254 -3.8926501 -1.0200539
-0.022130061 -3.8925877 -1.0200539
-0.045990728 -3.890449 -1.0195282
-0.069931656 -3.8939524 -1.0205796
-0.093987897 -3.9002018 -1.0224196
-0.11744614 -3.8841214 -1.0182137
-0.14233741 -3.9122534 -1.0260997
-0.1658445 -3.8997388 -1.0229453
-0.18887302 -3.880338 -1.0179509
-0.21315673 -3.8877764 -1.0203167
-0.23700766 -3.8863952 -1.0203167
-0.26104444 -3.8877559 -1.0211053
-0.28461105 -3.882232 -1.0200539
-0.30919394 -3.8900304 -1.0226824
-0.3345443 -3.9053631 -1.027414
-0.35885498 -3.9070799 -1.0284654
-0.38263276 -3.902884 -1.0279397
-0.40667352 -3.9014225 -1.0282025
-0.43177274 -3.9094024 -1.0310941
-0.4486911 -3.8463066 -1.0145338
-0.48242769 -3.9258342 -1.0371399
-0.50564021 -3.9161022 -1.0352999
-0.52719516 -3.8947604 -1.0303055
-0.5531165 -3.9057813 -1.0342485
-0.58046567 -3.9252198 -1.0405571
-0.60512859 -3.9253983 -1.0416086
-0.63165301 -3.9368532 -1.0458144
-0.65897655 -3.9519362 -1.0510716
-0.68519044 -3.9592261 -1.054226
-0.70674074 -3.9397533 -1.0500202
-0.72472525 -3.9021432 -1.04082
-0.75211793 -3.9156246 -1.0458144
-0.76917046 -3.875922 -1.0360885
-0.79274428 -3.8701844 -1.0358256
-0.81268239 -3.8473125 -1.0308312
-0.83298624 -3.8271701 -1.0266254
-0.85455233 -3.8135142 -1.0242596
-0.88466328 -3.8373425 -1.0324084
-0.9126479 -3.8506172 -1.0376656
-0.9282586 -3.8121367 -1.0284654
-0.75646639 -3.0267193 -0.80950069
-0.77166331 -3.0089378 -0.80582064
-0.7901113 -3.0041463 -0.80582064
-0.80928391 -3.0020363 -0.80660921
-0.82434535 -2.984925 -0.80319202
-0.84001607 -2.9705276 -0.80056334
-0.85715276 -2.9616106 -0.79951191
-1.1194042 -3.779573 -1.0334598
-1.1411744 -3.7680166 -1.0321455
-1.1642731 -3.7609434 -1.0321455
-1.1835417 -3.7417712 -1.0287282
-1.2094474 -3.7436187 -1.0313569
-1.1597924 -3.5162435 -0.96826982
-1.0805885 -3.2100818 -0.88231373
-1.0946177 -3.1869678 -0.87758219
-1.1128746 -3.1765497 -0.87653071
-1.3227383 -3.7020321 -1.0305684
-1.1266562 -3.0937619 -0.85655314
-1.1372172 -3.0641799 -0.84998155
-1.162487 -3.0742891 -0.85497594
-1.4433901 -3.7467761 -1.0534374
-1.208236 -3.0804482 -0.86102182
-1.2235333 -3.0640173 -0.85839319
-1.2361293 -3.0412595 -0.85392451
-1.255136 -3.0345089 -0.85418737
-1.5213109 -3.6144881 -1.0279397
-1.5750004 -3.678694 -1.0497574
-1.5936885 -3.6601157 -1.0471287
-1.6215885 -3.6626179 -1.0508088
-1.6464089 -3.6578772 -1.0523859
-1.6680189 -3.6459517 -1.0518602
-1.6923938 -3.6400223 -1.0531745
-1.6998508 -3.5981679 -1.0437114
-1.7252386 -3.5946279 -1.0458144
-1.7383782 -3.5657644 -1.0402943
-1.7585111 -3.5515728 -1.0392429
-1.7854739 -3.5510583 -1.0423971
-1.8160082 -3.5572202 -1.0476544
-1.8240302 -3.519459 -1.0395057
-1.8451413 -3.5073471 -1.0392429
-1.8702648 -3.5027673 -1.0413457
-1.887583 -3.483592 -1.0389799
-1.9024111 -3.4601099 -1.0352999
-1.9212548 -3.4441595 -1.0339855
-1.942827 -3.4331455 -1.0342485
-1.9580888 -3.4111204 -1.0310941
-1.9838393 -3.4073782 -1.0337226
-1.984586 -3.361084 -1.0229453
-2.0145938 -3.3645687 -1.0279397
-2.0597479 -3.3925488 -1.04082
-2.0633209 -3.3519156 -1.0318826
-2.1180892 -3.3940232 -1.0494945
-2.1316497 -3.36955 -1.0458144
-2.1408217 -3.338542 -1.0400314
-2.1686306 -3.3366671 -1.0437114
-2.193311 -3.3297424 -1.0458144
-2.1997671 -3.2953618 -1.0389799
-2.2318437 -3.2993803 -1.044763
-2.2629607 -3.3015373 -1.0500202
-2.2914345 -3.2994745 -1.0539631
-2.3105259 -3.2837746 -1.0534374
-2.334553 -3.2750342 -1.0552775
-2.3336964 -3.2317123 -1.0455515
-2.3734272 -3.2445819 -1.0547518
-2.4105299 -3.2532091 -1.0626376
-2.4373984 -3.2476153 -1.065792
-2.4765549 -3.2579405 -1.0744665
-2.5006201 -3.2480338 -1.0763065
-2.4967635 -3.2022007 -1.065792
-2.5151684 -3.1853063 -1.0652663
-2.537077 -3.172827 -1.0663177
-2.5145879 -3.1054735 -1.0481801
-2.518908 -3.072084 -1.0418714
-2.5457256 -3.0662181 -1.0452887
-2.5613863 -3.0468485 -1.0439743
-2.572526 -3.0222604 -1.04082
-2.5796802 -2.9932666 -1.0360885
-2.6011708 -2.9810157 -1.0374027
-2.6162179 -2.9613845 -1.0360885
-2.6652243 -2.9797859 -1.0487058
-2.7184408 -3.0019858 -1.0629004
-2.7146342 -2.9610751 -1.0539631
-2.7347217 -2.9464836 -1.0547518
-2.8009939 -2.9809635 -1.0739408
-2.786638 -2.9294758 -1.0610604
-2.7576983 -2.8636873 -1.04266
-2.7543325 -2.8253016 -1.0345113
-2.7695825 -2.8062887 -1.0337226
-2.7956173 -2.7981126 -1.0371399
-2.8058705 -2.7741249 -1.0345113
-2.8166254 -2.7507908 -1.0321455
-2.844564 -2.7441714 -1.0363513
-3.48317 -3.3188703 -1.2702992
-2.8534291 -2.685919 -1.0271511
-3.3752098 -3.1379538 -1.215098
-3.4306514 -3.1504586 -1.2285041
-3.3083882 -3.001035 -1.1764572
-3.3763342 -3.0250907 -1.1945947
-2.9518209 -2.6124682 -1.0334598
-2.9881401 -2.6120811 -1.04082
-3.0004587 -2.5905454 -1.0395057
-3.0221722 -2.5770926 -1.0416086
-3.0423572 -2.5622284 -1.0431857
-3.0550535 -2.5410454 -1.0421343
-4.6597438 -3.8268454 -1.6022949
-4.6816382 -3.7969663 -1.6017692
-3.0651553 -2.4554374 -1.0295169
-3.2459195 -2.5676262 -1.0870838
-3.178715 -2.4829466 -1.0584317
-3.159503 -2.4368892 -1.046603
-3.1958933 -2.4338183 -1.0539631
-3.186084 -2.3956153 -1.0455515
-3.1921997 -2.3696971 -1.04266
-3.2238042 -2.362608 -1.048443
-3.2749882 -2.3693523 -1.0607976
-3.3224483 -2.3727543 -1.0718378
-3.3471982 -2.3595471 -1.075255
-3.3489389 -2.3301516 -1.0710492
-3.3289666 -2.2860827 -1.0597461
-3.3237588 -2.2526278 -1.0534374
-3.3856471 -2.2643607 -1.0692092
-3.4067259 -2.2483251 -1.0715749
-3.3719373 -2.1958032 -1.0558032
-3.3480005 -2.1510923 -1.0437114
-3.4173758 -2.1661341 -1.061849
-3.4469669 -2.1553507 -1.0671062
-3.4617696 -2.1351724 -1.067632
-3.4846988 -2.1199057 -1.0707864
-3.4736435 -2.084096 -1.0631633
-3.4863658 -2.0627427 -1.0631633
-3.5081258 -2.0466576 -1.0660548
-3.5105798 -2.0193236 -1.0629004
-3.520386 -1.9963179 -1.0621119
-3.5401497 -1.9789145 -1.0644777
-3.5649033 -1.9641356 -1.0684205
-3.5514469 -1.9284199 -1.0605347
-3.541091 -1.8947637 -1.0537002
-3.5398462 -1.8662544 -1.0497574
-3.5606506 -1.8493885 -1.0526488
-3.5745084 -1.8288236 -1.0534374
-3.6192706 -1.8237797 -1.063689
-3.6960869 -1.8341143 -1.0836667
-3.7436855 -1.8291806 -1.0947069
-3.7357078 -1.7969794 -1.0889239
-3.737942 -1.7698972 -1.0862952
-3.7679739 -1.7558887 -1.0920782
-3.7646427 -1.7263051 -1.0878724
-3.8112273 -1.7194309 -1.0986499
-3.9222536 -1.7406015 -1.1286162
-4.0053797 -1.7481302 -1.1501709
-5.4747071 -2.3490682 -1.5825802
-4.0452003 -1.7067177 -1.155691
-4.0573788 -1.6826034 -1.1562167
-4.1212416 -1.6795093 -1.1719885
-4.3607941 -1.7459395 -1.2392814
-4.3723226 -1.7195022 -1.2395443
-4.3854914 -1.693684 -1.2403328
-4.4147482 -1.6739219 -1.2458529
-4.4954734 -1.6730337 -1.2663562
-4.6280146 -1.6900697 -1.3018428
-4.6846251 -1.6782252 -1.3152487
-4.8222847 -1.6941934 -1.3520496
-4.9265571 -1.6969155 -1.3791244
-5.0200696 -1.6947197 -1.4030449
-5.2044311 -1.7214154 -1.4529889
-5.180932 -1.6784542 -1.4432629
-5.3603649 -1.7002738 -1.4916297
-5.3780684 -1.6696382 -1.4937326
-5.9606242 -1.8103423 -1.6567075
-6.0354414 -1.7926782 -1.6748451
-6.0435476 -1.7548051 -1.6740565
-6.1293888 -1.7390068 -1.6953484
-6.1957345 -1.7168133 -1.7111201
-6.2648306 -1.694626 -1.7276806
-6.3068304 -1.6645193 -1.7366179
-6.40663 -1.6488603 -1.7618527
-6.6000595 -1.6554964 -1.8133738
-6.8472314 -1.6728623 -1.8798782
-7.0028639 -1.6653937 -1.9206219
-7.0270514 -1.6256533 -1.9245648
-7.0576038 -1.5871594 -1.9303478
-7.084177 -1.5475285 -1.9350793
-7.1039219 -1.5062314 -1.9379708
-7.1281514 -1.465721 -1.9421766
-7.1247096 -1.419507 -1.9387594
-7.1342325 -1.3759465 -1.9390223
-7.1387467 -1.3314388 -1.9379708
-7.0983539 -1.2788941 -1.9245648
-7.1459928 -1.2422493 -1.935605
-7.1525288 -1.1982197 -1.9353422
-7.1864181 -1.1586057 -1.9427023
-7.1647873 -1.1100618 -1.9348165
-7.2029581 -1.0707552 -1.9434909
-7.1969748 -1.0247724 -1.9400737
-7.2059951 -0.98098326 -1.9408623
-7.2310147 -0.93923217 -1.9461195
-7.2165332 -0.89236248 -1.9405994
-7.2122898 -0.84694213 -1.9379708
-7.2183099 -0.8027789 -1.9382336
-7.2259784 -0.75877488 -1.9390223
-7.2506618 -0.71641189 -1.9445424
-7.2616463 -0.67253095 -1.9463824
-7.2339144 -0.62522507 -1.9377079
-7.2481937 -0.58167416 -1.9405994
-7.2458534 -0.53676236 -1.9390223
-7.2634497 -0.49327081 -1.9429651
-7.2432275 -0.44727039 -1.9366565
-7.2814798 -0.40479419 -1.9463824
-7.2308249 -0.35749635 -1.9319249
-7.2454133 -0.31366259 -1.9353422
-7.2375598 -0.26884305 -1.9327135
-7.2352157 -0.2243102 -1.9316621
-7.2316332 -0.1797924 -1.9303478
-7.2383885 -0.13552399 -1.9319249
-7.1927752 -0.090532131 -1.9193076
-7.2317877 -0.046639085 -1.9298221
-7.225184 -0.0022637576 -1.927982
-7.2376046 0.042144228 -1.9313992
-7.2159848 0.086295299 -1.9256163
-7.2288251 0.1308167 -1.9292964
-7.2085953 0.17469886 -1.9240391
-7.2016015 0.21874999 -1.9224619
-7.1991596 0.26289868 -1.922199
-7.1983747 0.30710822 -1.9224619
-7.1992459 0.35141245 -1.9232504
-7.2181482 0.39674792 -1.9290335
-7.1953545 0.43979082 -1.9235133
-7.1973338 0.48425704 -1.9248277
-6.9417834 -0.17652462 -1.9386846
-6.9465818 -0.13400173 -1.9397811
-6.9309258 -0.091159828 -1.9351209
-6.9371247 -0.048671566 -1.9367657
-6.90171 -0.0060718739 -1.926623
-6.8929625 0.03623135 -1.9241558
-6.908958 0.078710377 -1.928816
-6.9035373 0.12101746 -1.9274454
-6.910356 0.16355608 -1.9296384
-6.8948035 0.20552519 -1.9255265
-6.9030232 0.248172 -1.9282677
-6.8975272 0.29036191 -1.9271712
-6.913867 0.33355832 -1.9323797
-6.890564 0.37482679 -1.9263489
-6.9294114 0.41959649 -1.9381363
-6.9199896 0.46165892 -1.9362174
-6.9074349 0.50341207 -1.9334762
-6.8831248 0.54411972 -1.9274454
-6.8949881 0.58764935 -1.9318314
-6.8596482 0.62705797 -1.9227853
-6.8575859 0.66932285 -1.9233335
-6.861959 0.71228075 -1.9258006
-6.8622389 0.75489706 -1.9271712
-6.8622541 0.79754359 -1.9285419
-6.83814 0.83729804 -1.9230593
-6.8300118 0.87887228 -1.9222369
-6.8235378 0.92063534 -1.9219629
-6.8282351 0.96396464 -1.9249783
-6.8136292 1.0045818 -1.9225111
-6.8177929 1.0479771 -1.9255265
-6.8083854 1.089335 -1.9247041
-6.7797537 1.1274626 -1.9183992
-6.7802896 1.1703494 -1.9205922
-6.7710876 1.2115917 -1.9200439
-6.7559609 1.2517145 -1.917851
-6.7396526 1.2915162 -1.9153838
-6.7514124 1.336767 -1.9211404
-6.743083 1.3781677 -1.9211404
-6.742969 1.4213012 -1.9236076
-6.736001 1.4630567 -1.9241558
-6.7137575 1.5014229 -1.9203181
-6.7044187 1.5425894 -1.9203181
-6.6882763 1.5821487 -1.9183992
-6.6756387 1.6224761 -1.9175768
-6.6758218 1.6659673 -1.9205922
-6.6654739 1.706898 -1.9205922
-6.6502242 1.7465433 -1.9192215
-6.6338105 1.7858158 -1.9175768
-6.61902 1.825464 -1.9164803
-6.604918 1.8652593 -1.9156579
-6.5887289 1.9044162 -1.9142873
-6.5861421 1.9475346 -1.9170285
-6.5685449 1.9862399 -1.9153838
-6.555315 2.0262225 -1.9151096
-6.5290031 2.0620632 -1.9109977
-6.510736 2.1003144 -1.909353
-6.4812846 2.1348095 -1.9044187
-6.501792 2.1858747 -1.9145614
-6.4746118 2.2210479 -1.9104495
-6.4554152 2.2588282 -1.9088048
-6.4350934 2.2961335 -1.9068859
-6.4082308 2.3309736 -1.903048
-6.4226632 2.3809452 -1.9118202
-6.4142308 2.4226873 -1.9137391
-6.383986 2.4561291 -1.9090788
-6.3804359 2.4998143 -1.9126425
-6.3676572 2.5399857 -1.9134649
-6.3537345 2.5797324 -1.9140131
-6.3093433 2.6069195 -1.9052411
-6.2958884 2.6467018 -1.9060634
-6.2848358 2.6875513 -1.9077083
-6.2594075 2.7222288 -1.904967
-6.2592978 2.7679734 -1.9101753
-6.2430735 2.8067219 -1.9104495
-6.2108641 2.8381817 -1.9057894
-6.2186275 2.8879831 -1.9137391
-6.1790462 2.9158263 -1.9068859
-6.1584373 2.9524384 -1.9060634
-6.1203189 2.9804871 -1.8997586
-6.1398454 3.0367417 -1.9118202
-6.0935955 3.0605474 -1.903048
-6.0918369 3.1066163 -1.9085306
-6.0521631 3.1333263 -1.9019516
-6.0404854 3.1744287 -1.9044187
-6.0208936 3.2114327 -1.9044187
-6.023911 3.2606747 -1.9118202
-6.0029473 3.2971125 -1.911546
-5.9708428 3.3273306 -1.9077083
-5.9327331 3.3539665 -1.9019516
-5.9195499 3.3946111 -1.9044187
-5.8911276 3.4265177 -1.9019516
-5.8708205 3.463089 -1.9022257
-5.8552384 3.502502 -1.9041445
-5.8599505 3.5543213 -1.9129167
-5.810997 3.5735874 -1.9038705
-5.7881446 3.6086669 -1.9035963
-5.7618284 3.6415458 -1.9022257
-5.7393756 3.676831 -1.9022257
-5.7175136 3.7125015 -1.9024998
-5.6930199 3.7464566 -1.9019516
-5.6699247 3.7813177 -1.9019516
-5.6402416 3.811729 -1.8997586
-5.6215081 3.849525 -1.9014033
-5.6112151 3.8932645 -1.9060634
-5.5903678 3.9298329 -1.9071599
-5.5520487 3.95402 -1.9022257
-5.5276828 3.9880123 -1.9022257
-5.5069914 4.0246916 -1.9035963
-5.4814196 4.0578337 -1.9033222
-5.4594955 4.093698 -1.9044187
-5.4227862 4.1183963 -1.9003068
-5.4057994 4.1580415 -1.9033222
-5.3786669 4.1899505 -1.902774
-5.3460612 4.217514 -1.9003068
-5.3245907 4.253839 -1.9019516
-5.3028755 4.2900586 -1.9035963
-5.2675247 4.3152032 -1.9003068
-5.2342858 4.341917 -1.8978397
-5.2068095 4.3733339 -1.8975655
-5.2099152 4.4307423 -1.9088048
-5.1658683 4.4481945 -1.9024998
-5.1319532 4.4741206 -1.9000326
-5.1029615 4.5042529 -1.8994844
-5.0838332 4.5431685 -1.902774
-5.0473032 4.566535 -1.8994844
-5.013515 4.5922222 -1.8972914
-4.9845381 4.6222444 -1.8970172
-4.9497719 4.6468182 -1.8945501
-4.9204693 4.6764398 -1.894276
-4.8882174 4.7032094 -1.8929054
-4.8675342 4.7411661 -1.8961949
-4.8383517 4.7709436 -1.8961949
-4.8144317 4.8059764 -1.8983879
-4.7713227 4.8217554 -1.8929054
-4.7476974 4.8571305 -1.8953725
-4.7178054 4.8861704 -1.8953725
-4.6817617 4.9087634 -1.8929054
-4.6568298 4.942997 -1.8950984
-4.634275 4.9799256 -1.8983879
-4.5984244 5.0026031 -1.8961949
-4.5766935 5.0406919 -1.9000326
-4.549531 5.0729747 -1.9016775
-4.5036507 5.0842381 -1.8953725
-4.4837689 5.1248035 -1.9003068
-4.4352608 5.1325736 -1.8929054
-4.40306 5.1589599 -1.8926313
-4.3800001 5.1961732 -1.896469
-4.3338819 5.2059522 -1.8901641
-4.2994142 5.229475 -1.8890676
-4.2702765 5.25949 -1.8904382
-4.2289004 5.2743387 -1.8863263
-4.1946669 5.2979259 -1.8855039
-4.1780748 5.3440189 -1.8929054
-4.1463814 5.3710771 -1.8934536
-4.0976048 5.3757677 -1.8860523
-4.087676 5.4315438 -1.8970172
-4.0405049 5.4379973 -1.8904382
-4.0229902 5.4843984 -1.8981137
-3.9740324 5.4879503 -1.8907124
-3.9525886 5.5294423 -1.8967432
-3.9002881 5.5276613 -1.887697
-3.8684962 5.5546455 -1.8887935
-3.8152726 5.5505404 -1.879199
-3.7951815 5.5945373 -1.8863263
-3.7575724 5.6129241 -1.8846816
-3.7251818 5.6390839 -1.8857781
-3.6868348 5.6561956 -1.8838592
-3.6551809 5.6835642 -1.8855039
-3.6186926 5.7034488 -1.8846816
-3.5810776 5.7214694 -1.8833109
-3.5484302 5.7474265 -1.8846816
-3.515599 5.7731977 -1.8860523
-3.4875369 5.8070264 -1.8901641
-3.4390969 5.8068032 -1.8830369
-3.4072826 5.8344388 -1.8852298
-3.3781378 5.8669033 -1.8890676
-3.3453994 5.8933749 -1.8909864
-3.2913282 5.8819008 -1.8805697
-3.2523885 5.8969331 -1.8789248
-3.2161443 5.9167781 -1.8789248
-3.1788709 5.9347053 -1.8783766
-3.1509259 5.9702578 -1.8835851
-3.1058035 5.973268 -1.8783766
-3.0765474 6.006763 -1.8830369
-3.0379 6.0220933 -1.8819402
-3.0115898 6.062151 -1.8887935
-2.9743366 6.0805159 -1.8887935
-2.95116 6.1281099 -1.8981137
-2.9056752 6.1295919 -1.8929054
-2.8602836 6.1307473 -1.887697
-2.8133824 6.1280813 -1.881392
-2.7844386 6.1645093 -1.8874228
-2.7485142 6.1858726 -1.8887935
-2.7093513 6.1999769 -1.887971
-2.6761944 6.2279706 -1.8915347
-2.6300695 6.2256713 -1.8857781
-2.5925577 6.2434678 -1.8863263
-2.5512924 6.2521348 -1.8841333
-2.5128822 6.2676716 -1.8841333
-2.5036302 6.3572392 -1.9068859
-2.4645758 6.3724818 -1.9068859
-2.4291844 6.3973737 -1.9099013
-2.3882055 6.4076529 -1.9085306
-2.3438883 6.4086385 -1.9044187
-2.2967255 6.4011755 -1.8978397
-2.2596402 6.4214973 -1.8997586
-2.219255 6.4325142 -1.8989362
-2.1754305 6.4332561 -1.8950984
-2.1434789 6.469305 -1.9019516
-2.0966177 6.4603825 -1.8953725
-2.0586858 6.4786243 -1.8970172
-2.0234656 6.505827 -1.9014033
-1.9840686 6.5199604 -1.9019516
-1.9401842 6.5191073 -1.8981137
-1.9014908 6.5355062 -1.8994844
-1.8603017 6.5433507 -1.8983879
-1.8237206 6.5676146 -1.9022257
-1.7801163 6.5666151 -1.8986621
-1.7400368 6.5783434 -1.8989362
-1.694114 6.5674791 -1.8926313
-1.6530812 6.5749521 -1.8918089
-1.6168256 6.6017847 -1.8967432
-1.5760643 6.6106458 -1.896469
-1.5363419 6.623939 -1.8975655
-1.4948229 6.6294889 -1.896469
-1.4522644 6.6300812 -1.8940018
-1.4125561 6.6435709 -1.8953725
-1.3715709 6.6511712 -1.8950984
-1.3322424 6.667006 -1.8972914
-1.288934 6.6627808 -1.8937278
-1.2503276 6.6828527 -1.8972914
-1.2132344 6.7121649 -1.9035963
-1.1705388 6.7109561 -1.9011291
-1.1307745 6.7265477 -1.9035963
-1.0882506 6.7257648 -1.9014033
-1.0525793 6.7684255 -1.9118202
-1.0069112 6.7471728 -1.9038705
-0.9641307 6.7437043 -1.9011291
-0.92273396 6.7494931 -1.9011291
-0.88018227 6.7464452 -1.8986621
-0.83793998 6.7450385 -1.8967432
-0.79732674 6.7567387 -1.8986621
-0.75446349 6.7490792 -1.8950984
-0.71313876 6.7545376 -1.8953725
-0.67187059 6.7607002 -1.8959208
-0.63144648 6.776186 -1.8992103
-0.58927286 6.7732263 -1.8972914
-0.54832226 6.7843833 -1.8994844
-0.50525081 6.7684393 -1.8940018
-0.4647631 6.7867632 -1.8983879
-0.42287207 6.7856479 -1.8972914
-0.38133612 6.7900352 -1.8978397
-0.33995458 6.7980103 -1.8994844
-0.2981098 6.7970858 -1.8986621
-0.25618026 6.7930212 -1.8970172
-0.21415983 6.7838917 -1.8940018
-0.17267765 6.7908463 -1.8956467
-0.13102515 6.7927394 -1.8959208
-0.089432143 6.8001471 -1.8978397
-0.047766767 6.8092227 -1.9003068
-0.0059771454 6.8007321 -1.8978397
0.035801463 6.8102579 -1.9005809
0.077696741 6.8195262 -1.9033222
0.11945511 6.8141131 -1.9019516
0.16162665 6.8286347 -1.9063376
0.20280838 6.803483 -1.8994844
0.24517088 6.8194098 -1.9044187
0.28713053 6.8206596 -1.9052411
0.32800388 6.7985973 -1.8994844
0.36919132 6.7868538 -1.8967432
0.41018894 6.7739015 -1.8937278
0.45180908 6.7722168 -1.8940018
0.49391288 6.7769904 -1.8961949
0.53647089 6.7862954 -1.8997586
0.57891685 6.7924581 -1.9024998
0.61970878 6.779201 -1.8997586
0.66120017 6.7743139 -1.8994844
0.70334953 6.7758684 -1.9011291
0.73997241 6.7264962 -1.8882452
0.78555918 6.7590852 -1.8989362
0.83075577 6.7846837 -1.9077083
0.87003922 6.7613358 -1.9024998
0.91125256 6.7539639 -1.9019516
0.95200509 6.743484 -1.9005809
0.99013942 6.7156334 -1.894276
1.0326415 6.7179861 -1.8967432
1.0730835 6.7067757 -1.8953725
1.1134268 6.6953216 -1.8940018
1.1521982 6.675096 -1.8901641
1.1933035 6.6688476 -1.8904382
1.2350761 6.6661277 -1.8918089
1.2759553 6.6584239 -1.8918089
1.3179071 6.6561298 -1.8934536
1.3583385 6.6460338 -1.8929054
1.4008769 6.6460433 -1.8953725
1.4418339 6.6382623 -1.8956467
1.4812794 6.6236591 -1.8940018
1.5236182 6.6219435 -1.8961949
1.5657703 6.6190209 -1.8981137
1.6054461 6.6055512 -1.8970172
1.6515338 6.61797 -1.9035963
1.6887707 6.5946689 -1.8997586
1.7282261 6.580462 -1.8986621
1.7710698 6.5790205 -1.9014033
1.819329 6.5967693 -1.9099013
1.8435706 6.5281005 -1.8929054
1.8886642 6.5342197 -1.8981137
1.9254501 6.5114412 -1.8948243
1.9500607 6.448874 -1.8797473
1.9938527 6.4505696 -1.8838592
2.023839 6.4079514 -1.874813
2.0663667 6.4054804 -1.8778284
2.1053302 6.3917675 -1.8775543
2.1442034 6.3778176 -1.8772801
2.1826725 6.3627214 -1.8767319
2.2175438 6.3374085 -1.8731682
2.2612348 6.3372693 -1.8772801
2.3023779 6.3296018 -1.879199
2.3435118 6.3216677 -1.8811179
2.3730834 6.2828779 -1.8737165
2.397779 6.2322955 -1.8627514
2.4335191 6.2111974 -1.8608325
2.4787097 6.2140145 -1.866315
2.5167913 6.1986885 -1.866315
2.561388 6.1991277 -1.8712493
2.5997496 6.1841812 -1.8715235
2.6353776 6.1628075 -1.8698786
2.6712248 6.1421118 -1.8685081
2.708473 6.1247263 -1.8682339
2.7440312 6.1036062 -1.8668633
2.7838285 6.0919027 -1.8685081
2.81265 6.0563893 -1.8627514
2.8624794 6.0659795 -1.8712493
2.9008927 6.0509028 -1.8720717
2.9337559 6.024343 -1.8693304
2.956171 5.9769192 -1.8600101
2.9893363 5.9517922 -1.8578171
3.0319154 5.9453325 -1.8616549
3.0648015 5.919785 -1.8594619
3.1180654 5.9332185 -1.8698786
3.1381207 5.8834262 -1.8600101
3.1791968 5.873364 -1.8630255
3.2156382 5.854589 -1.8632996
3.2543092 5.8397889 -1.8649445
3.289607 5.8188734 -1.8646703
3.3276408 5.8027506 -1.8660409
3.36415 5.783886 -1.8665892
3.3995759 5.7631354 -1.8665892
3.4348741 5.7421675 -1.8665892
3.4720373 5.7242723 -1.8676857
3.5091105 5.7061377 -1.8687822
3.545074 5.686131 -1.8693304
3.5809243 5.6658974 -1.8698786
3.6202905 5.6511068 -1.8723458
3.654897 5.628787 -1.8723458
3.6782646 5.5893841 -1.8665892
3.7183602 5.5755105 -1.8696046
3.7584238 5.5613556 -1.87262
3.7962799 5.5437441 -1.8745389
3.8296762 5.519556 -1.8742647
3.8612595 5.4928064 -1.8731682
3.8948898 5.4690108 -1.8731682
3.9272485 5.4434495 -1.87262
3.9571705 5.4145908 -1.8709753
3.9983296 5.4010301 -1.874813
4.0244718 5.3671618 -1.8715235
4.064889 5.3523235 -1.8750871
4.0912046 5.3188958 -1.8720717
4.1255364 5.2959685 -1.872894
4.160337 5.2735753 -1.8739907
4.1890154 5.2434402 -1.8723458
4.2180853 5.2138996 -1.8709753
4.2640138 5.2050314 -1.8772801
4.2934155 5.1758089 -1.8761836
4.3238559 5.1478949 -1.8756354
4.3609681 5.1278605 -1.8781025
4.3917227 5.1002769 -1.8778284
4.4254622 5.0761337 -1.8789248
4.4514346 5.0431156 -1.8767319
4.4707608 5.002799 -1.8717976
4.5104055 4.9852571 -1.8756354
4.5344143 4.9503961 -1.872894
4.5764737 4.935174 -1.8778284
4.6106181 4.9112072 -1.8794731
4.6433158 4.885613 -1.8805697
4.6798735 4.8639607 -1.8833109
4.7116432 4.8372207 -1.8841333
4.7331328 4.8000021 -1.8808438
4.7658925 4.7742729 -1.8822144
4.8087683 4.7584696 -1.887697
4.8275599 4.7187901 -1.8835851
4.8488131 4.6817312 -1.8805697
4.8767529 4.6512275 -1.8802955
4.9163995 4.6317687 -1.8846816
4.9461346 4.6028256 -1.8852298
4.9601245 4.5593729 -1.8797473
4.984447 4.52562 -1.8783766
5.017849 4.5000877 -1.8805697
5.0453668 4.469214 -1.8805697
5.0835505 4.4476714 -1.8846816
5.110745 4.4163957 -1.8846816
5.1443305 4.3905725 -1.8871487
5.1682324 4.3564458 -1.8860523
5.1911707 4.3215752 -1.8846816
5.2146182 4.2871981 -1.8835851
5.2505312 4.2630019 -1.8871487
5.2660861 4.2222824 -1.8833109
5.2888784 4.1875029 -1.8822144
5.3182607 4.1579337 -1.8835851
5.3657484 4.1422672 -1.8915347
5.3711791 4.0941067 -1.8844074
5.3961987 4.0610728 -1.8844074
5.4102092 4.0198555 -1.8805697
5.4425268 3.9922719 -1.8833109
5.4552369 3.9503405 -1.879199
5.469203 3.9095225 -1.8756354
5.5190182 3.8941889 -1.8846816
5.5428085 3.8602514 -1.8846816
5.5988822 3.8485057 -1.8959208
5.6168199 3.8102996 -1.8940018
5.6368976 3.7736235 -1.8929054
5.6695743 3.7453268 -1.8961949
5.6924486 3.7104683 -1.8961949
5.7142997 3.6749501 -1.8959208
5.7391772 3.6413643 -1.8967432
5.7581515 3.6040397 -1.8956467
5.7768841 3.5666196 -1.8945501
5.8052306 3.5351079 -1.8967432
5.8053775 3.4865465 -1.8896159
5.8423824 3.4601719 -1.8948243
5.8626733 3.4237735 -1.8945501
5.8902378 3.3915758 -1.8967432
5.9268274 3.3643913 -1.9019516
5.9347711 3.3209167 -1.8978397
5.9508257 3.2821167 -1.896469
5.9700074 3.2450819 -1.8961949
5.988111 3.2074814 -1.8956467
6.0093803 3.1715765 -1.8961949
6.0184889 3.1293194 -1.8929054
6.0281615 3.0875089 -1.88989
6.0615888 3.057827 -1.8945501
6.0854044 3.0231435 -1.8961949
6.1012483 2.9844794 -1.8953725
6.141973 2.9578371 -1.9024998
6.1573992 2.918859 -1.9016775
6.183908 2.8850894 -1.9044187
6.1709056 2.833046 -1.8948243
6.2381277 2.8176966 -1.9104495
6.2219043 2.7645264 -1.9000326
6.2502055 2.7313044 -1.9035963
6.2686138 2.6936619 -1.9041445
6.2743936 2.650656 -1.9008551
6.292316 2.6128449 -1.9014033
6.3206949 2.5792744 -1.9052411
6.3364019 2.5404427 -1.9052411
6.3366594 2.4955239 -1.9005809
6.3536463 2.4572899 -1.9011291
6.3802919 2.4226971 -1.9046929
6.3959384 2.3838387 -1.904967
6.4095416 2.3442187 -1.9046929
6.4382877 2.3100436 -1.9090788
6.4487119 2.2692184 -1.9079823
6.4561505 2.2274113 -1.9060634
6.489738 2.1945338 -1.9120942
6.5085588 2.1564872 -1.9137391
6.515265 2.1144326 -1.9118202
6.5308657 2.0752897 -1.9126425
6.5407219 2.0343211 -1.9118202
6.5310006 1.9874289 -1.9052411
6.5421505 1.9470437 -1.904967
6.5659781 1.9103584 -1.9085306
6.5905266 1.8737171 -1.9123684
6.5972667 1.8319563 -1.9109977
6.6278749 1.7967268 -1.9167545
6.6322665 1.7543033 -1.9148356
6.6410432 1.7130949 -1.9142873
6.6374397 1.6687958 -1.9101753
6.6596975 1.6310126 -1.9137391
6.6723862 1.5907879 -1.9145614
6.6923265 1.5522077 -1.9175768
6.6989102 1.5104804 -1.9167545
6.7024159 1.4681133 -1.9151096
6.7282295 1.4305614 -1.9200439
6.7246366 1.3867252 -1.9164803
6.7537656 1.3495846 -1.9225111
6.7477565 1.3053781 -1.9183992
6.7424054 1.2614733 -1.9145614
6.7339306 1.21717 -1.9099013
6.7583251 1.1788039 -1.9148356
6.7692246 1.1379514 -1.9159321
6.7457008 1.0914775 -1.9071599
6.6325378 1.0314388 -1.87262
6.6149631 0.9871729 -1.8657668
6.0773005 0.86881644 -1.7092402
0 0 -0
6.6339202 0.86549473 -1.866315
6.7135448 0.83402562 -1.887697
6.7538733 0.79698843 -1.8978397
6.7701054 0.7568152 -1.9011291
6.7870545 0.71657377 -1.9046929
6.8008933 0.67586732 -1.9074341
6.8068271 0.63430369 -1.9079823
6.8125072 0.59269261 -1.9085306
6.8150573 0.55080318 -1.9082565
6.8307757 0.50990784 -1.9118202
6.8395324 0.46837991 -1.9134649
6.8278804 0.42550644 -1.909353
6.8370838 0.38398123 -1.9112719
6.8354692 0.34183007 -1.9101753
6.8345556 0.29975539 -1.909353
6.8372273 0.25785002 -1.9096271
6.8406034 0.21595353 -1.9101753
6.847568 0.17412333 -1.9118202
6.8350463 0.13184372 -1.9079823
6.8424578 0.0899911 -1.9099013
6.8399959 0.047984466 -1.9090788
6.8488169 0.006022254 -1.911546
6.8535333 -0.036026403 -1.9129167
6.8512602 -0.078056417 -1.9123684
6.8506522 -0.12009349 -1.9123684
6.8526707 -0.16219413 -1.9131907
6.8611588 -0.20452426 -1.9159321
6.8597751 -0.24661969 -1.9159321
6.8648586 -0.28898859 -1.917851
6.8533502 -0.33064225 -1.9151096
6.8396692 -0.37206122 -1.9118202
6.8151789 -0.41268602 -1.9055152
6.6378779 -0.44285464 -1.8556241
6.6427088 -0.48413432 -1.8578171
6.6329021 -0.52435398 -1.8558983
6.6439333 -0.56626701 -1.8600101
6.6211796 -0.60527295 -1.8545276
6.6221266 -0.64635521 -1.8558983
6.8820467 -0.71436471 -1.9315573
6.9348898 -0.76288491 -1.948005
6.9157491 -0.80375773 -1.943893
6.9135509 -0.84652728 -1.9447154
6.9091806 -0.88905478 -1.9449896
6.8931117 -0.93001813 -1.9419742
6.8891797 -0.97256476 -1.9425224
6.8564429 -1.0108916 -1.9348468
6.8605671 -1.0545495 -1.9378622
6.7210197 -1.0753617 -1.8994844
6.5900187 -1.0959214 -1.8635738
6.3576202 -1.0974177 -1.7983315
6.2731404 -1.1225212 -1.7758532
6.1885943 -1.1466297 -1.7533747
6.1228824 -1.1733623 -1.7363788
6.0419827 -1.1963444 -1.7149969
5.9893017 -1.224154 -1.7018389
5.961916 -1.2567164 -1.6960821
5.9813466 -1.2991923 -1.7040318
5.9835863 -1.3381767 -1.7070472
5.9724512 -1.3742194 -1.7062248
5.9470606 -1.4068559 -1.7012906
5.9775658 -1.4528568 -1.7128038
5.9498768 -1.4848511 -1.7073214
5.9406538 -1.5213308 -1.7073214
5.9079533 -1.5516477 -1.7004682
5.8881059 -1.5851197 -1.6974528
5.8773417 -1.620963 -1.6971786
5.8413711 -1.6496785 -1.6895031
5.8320627 -1.6857564 -1.6897773
5.7902532 -1.7122395 -1.6804569
5.7943668 -1.7521884 -1.6848429
5.7632923 -1.7814622 -1.6788121
5.7540874 -1.8173708 -1.6793604
5.7400818 -1.8517573 -1.678538
5.7158237 -1.8827317 -1.6747003
5.691402 -1.9134781 -1.6708624
5.6686378 -1.9446199 -1.667573
5.6865544 -1.9898453 -1.6766192
5.6334782 -2.0101588 -1.6642834
5.6336908 -2.049289 -1.6681212
5.6047792 -2.0778019 -1.6631869
5.6144161 -2.120647 -1.67004
5.6039915 -2.1560922 -1.6708624
5.5852838 -2.1883326 -1.6692177
5.5637116 -2.2193556 -1.6667506
5.5401874 -2.2494731 -1.6637352
5.5173922 -2.2797527 -1.6609938
5.4837956 -2.305366 -1.654963
5.4704313 -2.3393486 -1.6552372
5.4665575 -2.3774724 -1.6585268
5.4360347 -2.4039698 -1.6535925
5.4194274 -2.4364908 -1.6530442
5.4297423 -2.481288 -1.6609938
5.3987145 -2.5072672 -1.6560596
5.396275 -2.5465014 -1.6601715
5.4056973 -2.5916193 -1.6681212
5.3715363 -2.6158981 -1.6623645
5.3726254 -2.6573341 -1.667847
5.3510628 -2.6876605 -1.6662023
5.3284736 -2.7173853 -1.6642834
5.3091373 -2.7487028 -1.663461
5.2896175 -2.7798853 -1.6626387
5.2800984 -2.8163624 -1.6651058
5.259335 -2.8468764 -1.6640092
5.2535691 -2.8855746 -1.667847
5.2298837 -2.9144788 -1.6659281
5.2361813 -2.9602377 -1.6738778
5.2020679 -2.9832218 -1.6686695
5.1628819 -3.0029981 -1.6618162
5.1509852 -3.0385289 -1.6640092
5.1487513 -3.0799503 -1.6694918
5.1338673 -3.1139779 -1.6708624
5.1007371 -3.1368568 -1.6662023
5.0740485 -3.1635165 -1.6637352
5.0594201 -3.1976731 -1.6653799
5.0324159 -3.2239885 -1.6629127
5.0036664 -3.2490456 -1.6598973
4.9772096 -3.2754574 -1.6577044
4.9506173 -3.3016672 -1.6555114
4.8880334 -3.3034441 -1.6409826
4.858943 -3.3273981 -1.6379672
4.8692513 -3.3785281 -1.6486582
4.8602314 -3.4166367 -1.65277
4.8485761 -3.4530883 -1.6560596
4.8109183 -3.4709585 -1.6503029
4.7716718 -3.4873621 -1.643998
4.7517295 -3.5177193 -1.6445463
4.7369809 -3.552001 -1.6470134
4.7258196 -3.5891421 -1.6508511
4.7159052 -3.6274521 -1.6552372
4.6662455 -3.6350458 -1.6453686
4.6597099 -3.6761165 -1.6511253
4.6348114 -3.7028382 -1.6503029
4.6232195 -3.7402792 -1.6544148
4.5912552 -3.7612636 -1.6511253
4.5614281 -3.7838387 -1.6486582
4.5513806 -3.8228886 -1.6535925
4.5344319 -3.8563502 -1.6560596
4.4975662 -3.8728058 -1.6511253
4.4526954 -3.8820035 -1.6431756
4.4086032 -3.8914335 -1.6355001
4.368866 -3.9043138 -1.6294693
4.335556 -3.9226601 -1.6259056
4.315661 -3.9530859 -1.6275504
4.2870927 -3.9755688 -1.6259056
4.2878609 -4.0254936 -1.6357741
4.2798109 -4.067627 -1.6423532
4.2478414 -4.0871434 -1.639612
2.3425567 -2.2820323 -0.89151919
2.3278255 -2.2956877 -0.89124507
2.315057 -2.3112864 -0.89179331
4.1401706 -4.1840076 -1.6371448
4.1406384 -4.2361522 -1.6478357
4.1025434 -4.2490268 -1.6429015
4.0783858 -4.276207 -1.6437238
4.0751529 -4.3256493 -1.6533183
4.0609832 -4.3639479 -1.6585268
4.0438929 -4.3994031 -1.6626387
4.0271668 -4.4355245 -1.6670246
4.005012 -4.4658785 -1.6692177
3.9781723 -4.4910889 -1.6694918
3.9442077 -4.5081763 -1.6667506
3.9126987 -4.5279269 -1.6651058
3.8792231 -4.5452666 -1.6626387
3.8438225 -4.5601602 -1.6593491
3.8083854 -4.5747905 -1.6560596
3.7765787 -4.5936155 -1.6544148
3.7501404 -4.6189413 -1.6552372
3.7331593 -4.6561198 -1.6604456
3.714669 -4.6917553 -1.6651058
2.0099816 -2.5712314 -0.88960028
1.9888774 -2.5766652 -0.88713318
1.9712808 -2.5865257 -0.88631076
1.9484332 -2.5893521 -0.88302124
1.93595 -2.6058903 -0.88466603
1.9182177 -2.6153936 -0.8838436
1.7001899 -2.3482745 -0.78570616
1.6818341 -2.3531861 -0.78378725
1.6795623 -2.3807478 -0.78981805
3.4232743 -4.9154472 -1.6667506
3.3783395 -4.9149623 -1.6593491
3.3626964 -4.9570856 -1.6667506
3.2995799 -4.9288793 -1.6500288
3.2634432 -4.9402065 -1.6470134
3.2267671 -4.95047 -1.6437238
3.1994522 -4.975029 -1.6453686
3.1621673 -4.9840107 -1.6418049
3.1330571 -5.005765 -1.6426274
3.1027887 -5.025713 -1.6429015
3.0723934 -5.0454779 -1.6431756
3.0393963 -5.0609374 -1.6420791
3.0038748 -5.0720444 -1.639612
2.9746368 -5.0937023 -1.6407084
2.9399669 -5.1060247 -1.6387895
2.9133296 -5.1323309 -1.6415309
2.8874195 -5.1601806 -1.6448203
2.8547738 -5.1761165 -1.6442721
2.8234193 -5.1943803 -1.6445463
2.7887692 -5.2065206 -1.6429015
2.7554233 -5.2209826 -1.6420791
2.7220051 -5.2352314 -1.6412567
1.5336276 -2.9947534 -0.91838366
1.5165229 -3.0066829 -0.91920602
1.5275719 -3.0753574 -0.93812078
2.5834084 -5.2814512 -1.6352259
2.5392685 -5.2729435 -1.6275504
2.5249941 -5.3266597 -1.639612
2.4951096 -5.3481526 -1.6415309
2.4618456 -5.3624878 -1.6412567
2.4253323 -5.3696051 -1.6387895
2.3935111 -5.387022 -1.639612
2.3604119 -5.4016066 -1.639612
2.3203886 -5.4000845 -1.6346776
2.2894564 -5.4195356 -1.6363224
2.2517333 -5.4228234 -1.6330329
2.2202342 -5.44099 -1.6344036
2.1903865 -5.4634366 -1.6371448
2.1420195 -5.4391928 -1.6256315
2.1158907 -5.4710693 -1.6313882
2.0710135 -5.4542809 -1.622342
2.0375078 -5.4668856 -1.622342
2.0078897 -5.4901223 -1.6256315
1.9722162 -5.4969082 -1.6239867
1.9432398 -5.5225134 -1.6280986
1.9093177 -5.5343328 -1.6280986
1.87594 -5.5477662 -1.6286469
1.8430743 -5.5628238 -1.6297433
1.8103913 -5.5786014 -1.631114
1.775545 -5.5877714 -1.6305658
1.7429397 -5.6040707 -1.6322105
1.7068408 -5.6091394 -1.6305658
1.6740379 -5.6250372 -1.6322105
1.6357298 -5.6222758 -1.6283728
1.6012013 -5.6322064 -1.6283728
1.5655831 -5.6382189 -1.6272762
1.5329716 -5.6551442 -1.6294693
1.4999653 -5.6709518 -1.6313882
1.462738 -5.6707368 -1.6286469
1.4265083 -5.6740093 -1.6270021
1.3905222 -5.6779852 -1.6256315
1.3561028 -5.6882811 -1.6261797
1.3209573 -5.6955581 -1.6259056
1.2874662 -5.7101231 -1.6278245
1.2548753 -5.729188 -1.631114
0.79016876 -3.7171955 -1.0425632
0.77841985 -3.7756603 -1.0581884
0.7475096 -3.7417009 -1.0469493
0.71558398 -3.6999524 -1.033517
0.68419921 -3.6579547 -1.0200847
0.66909933 -3.7027771 -1.0318723
0.640912 -3.6755493 -1.0228261
0.62313175 -3.707864 -1.0310498
0.59714204 -3.6916816 -1.0252932
0.57521826 -3.7000275 -1.0266638
0.55648053 -3.7301195 -1.0343394
0.52582115 -3.6791995 -1.0187142
0.50258452 -3.6775925 -1.0173435
0.48361945 -3.7082615 -1.0252932
0.45801008 -3.6882548 -1.0187142
0.43762591 -3.7100968 -1.0241967
0.41560122 -3.7194023 -1.0261155
0.3947922 -3.74101 -1.0315981
0.37297228 -3.7548456 -1.0348877
0.35001522 -3.7580209 -1.0351617
0.3253651 -3.7418945 -1.0299534
0.30317441 -3.753406 -1.0326946
0.28013825 -3.7551956 -1.0326946
0.25709152 -3.7568438 -1.0326946
0.23433448 -3.7631497 -1.0340652
0.21096991 -3.7597158 -1.0326946
0.18760823 -3.7551765 -1.0310498
0.16393045 -3.7418456 -1.026938
0.14056854 -3.7322099 -1.0239226
0.11717906 -3.7176228 -1.0195365
0.094267935 -3.7144263 -1.01844
0.071530677 -3.7178192 -1.0192624
0.048425037 -3.6960711 -1.0129575
0.025623007 -3.6789887 -1.0080231
0.0030649132 -3.6963871 -1.0129575
-0.01969073 -3.7107615 -1.0170693
-0.042622656 -3.7249954 -1.0211813
-0.065881185 -3.7477407 -1.0277604
-0.089034542 -3.7539961 -1.0296792
-0.11263891 -3.7726045 -1.0351617
-0.13644047 -3.7901027 -1.0403702
-0.16001669 -3.796881 -1.0425632
-0.18169084 -3.7622073 -1.0329688
-0.20482408 -3.761982 -1.0332428
-0.22505781 -3.7136173 -1.0198107
-0.24758406 -3.7083282 -1.0187142
-0.2708222 -3.7134533 -1.020633
-0.29428402 -3.72035 -1.0231001
-0.31775901 -3.7261403 -1.0252932
-0.34096614 -3.727951 -1.0263897
-0.36206007 -3.707603 -1.0211813
-0.38787898 -3.7349648 -1.0296792
-0.40847674 -3.7114842 -1.0236484
-0.45188209 -3.8865881 -1.0746361
-0.45773003 -3.7367382 -1.0324205
-0.48114035 -3.7376747 -1.033517
-0.50367963 -3.7317929 -1.0326946
-0.52818054 -3.7400594 -1.0359842
-0.55644739 -3.7729018 -1.046401
-0.58192384 -3.7846251 -1.050787
-0.60650188 -3.7895298 -1.0532541
-0.62690383 -3.768661 -1.0483198
-0.64838088 -3.7552667 -1.0455786
-0.66971719 -3.7417507 -1.0428374
-0.689511 -3.7205501 -1.0379031
-0.71033657 -3.7058597 -1.0348877
-0.73380882 -3.7052047 -1.0359842
-0.76269031 -3.7307837 -1.0447562
-0.79052496 -3.7495594 -1.0516094
-0.81351691 -3.7446382 -1.0516094
-0.83438003 -3.730191 -1.0488682
-0.84755111 -3.6828263 -1.0365324
-0.87035388 -3.6784923 -1.0368066
-0.89177299 -3.6684101 -1.0354359
-0.91496348 -3.6656685 -1.0362582
-0.76809049 -2.998517 -0.84162807
-0.78354383 -2.9825857 -0.83833855
-0.8005802 -2.9730787 -0.83696789
-0.82034141 -2.9736729 -0.83861268
-0.83726549 -2.9639559 -0.83724201
-0.86264479 -2.9837079 -0.84464347
-1.1023263 -3.7272134 -1.0672346
-1.1301848 -3.7369492 -1.0721689
-1.1440067 -3.700542 -1.0633968
-1.1724828 -3.7117941 -1.0688794
-1.1866751 -3.6779873 -1.0609297
-1.2074156 -3.6651561 -1.0592849
-1.0684049 -3.1772788 -0.91482002
-1.0844482 -3.1606567 -0.91180462
-1.1435176 -3.2674115 -0.94607049
-1.2139536 -3.4016352 -0.98883432
-1.1217346 -3.0832219 -0.89453459
-1.1389606 -3.0717723 -0.89316392
-1.2012756 -3.1798849 -0.92825222
-1.1824398 -3.072823 -0.89782411
-1.2037274 -3.0717781 -0.89974302
-1.2257591 -3.0723739 -0.90221012
-1.4695836 -3.6190405 -1.0727172
-1.4811136 -3.5841789 -1.0647675
-1.4922713 -3.5493131 -1.0568178
-1.5023012 -3.5126779 -1.0483198
-1.5341805 -3.5272057 -1.0557213
-1.5538497 -3.5133281 -1.0543506
-1.5844463 -3.5239022 -1.0606556
-1.6064384 -3.5149884 -1.0609297
-1.6316209 -3.5129156 -1.0633968
-1.653145 -3.5028381 -1.0633968
-1.6741911 -3.4917614 -1.0631227
-1.6901116 -3.4701827 -1.0595591
-1.7075357 -3.4519887 -1.057092
-1.7239373 -3.4319928 -1.0540766
-1.733605 -3.3990748 -1.0469493
-1.7451447 -3.3704386 -1.0411925
-1.7666872 -3.3613698 -1.0417408
-1.7927094 -3.3606491 -1.0450304
-1.8050568 -3.334362 -1.040096
-1.8194641 -3.3122654 -1.0365324
-1.8453707 -3.31112 -1.039822
-1.8542949 -3.2796419 -1.0332428
-1.8734268 -3.2665339 -1.0326946
-1.9035875 -3.2724352 -1.0384513
-1.892363 -3.207679 -1.0209072
-1.9554492 -3.2686369 -1.0450304
-1.9216099 -3.1677697 -1.0154246
-1.9248915 -3.1297042 -1.0066526
-1.9664435 -3.1537433 -1.0187142
-2.0319941 -3.2147856 -1.0433856
-2.0532377 -3.2046864 -1.0442079
-2.0665784 -3.1823483 -1.0409185
-2.0934668 -3.1808555 -1.0447562
-2.1086764 -3.1615493 -1.0425632
-2.1377275 -3.1628942 -1.0474975
-2.168504 -3.1663816 -1.0532541
-2.1796691 -3.1411638 -1.0491422
-2.1883945 -3.1127815 -1.0439339
-2.2007592 -3.0898945 -1.0406443
-2.2163012 -3.0716531 -1.0389996
-2.2475896 -3.075079 -1.0450304
-2.2469623 -3.0349488 -1.03571
-2.2765031 -3.0357242 -1.0409185
-2.3131166 -3.0454414 -1.0494164
-2.3452442 -3.0487244 -1.0557213
-2.3845899 -3.0608313 -1.0653157
-2.3932009 -3.0333061 -1.0606556
-2.3853581 -2.9855034 -1.048594
-2.410285 -2.9790354 -1.0516094
-2.4486287 -2.9887412 -1.0606556
-2.4834976 -2.9936464 -1.0680571
-2.4987271 -2.9746695 -1.0666864
-2.5063417 -2.9468267 -1.0620263
-2.4942572 -2.8964107 -1.0488682
-2.4841776 -2.8491549 -1.0368066
-2.5035219 -2.8360217 -1.0376289
-2.5183132 -2.8177385 -1.0365324
-2.5807166 -2.8521554 -1.0557213
-2.6137574 -2.8532877 -1.0623003
-2.5972145 -2.8005257 -1.0480458
-2.5656435 -2.7326498 -1.0277604
-2.6028993 -2.7384667 -1.0362582
-2.6196532 -2.7224441 -1.0362582
-2.6436892 -2.7138972 -1.0392736
-2.6488132 -2.6859829 -1.0346135
-2.6740763 -2.6785281 -1.0381771
-2.6959295 -2.6674817 -1.0403702
-2.7218738 -2.6603014 -1.0442079
-4.1099758 -3.9682677 -1.5878019
-2.7431805 -2.6160789 -1.039822
-2.76968 -2.6090903 -1.0439339
-2.7778933 -2.5848396 -1.0409185
-2.7887454 -2.5631902 -1.0389996
-2.8065562 -2.5479701 -1.039822
-2.825001 -2.5332699 -1.0409185
-2.839052 -2.5146129 -1.0403702
-2.8515329 -2.4946122 -1.0392736
-2.866786 -2.4770687 -1.0392736
-2.8782737 -2.45631 -1.0379031
-2.8815267 -2.4286852 -1.033517
-2.8985918 -2.4128048 -1.0343394
-2.9140849 -2.3955848 -1.0346135
-2.942167 -2.388571 -1.0395478
-2.949265 -2.3644571 -1.0368066
-2.9524083 -2.3373611 -1.0326946
-2.9742706 -2.3251252 -1.0354359
-2.9732571 -2.2950773 -1.0299534
-3.0140514 -2.2971966 -1.0395478
-3.0388472 -2.2867563 -1.0433856
-3.063628 -2.2760975 -1.0472233
-3.1031246 -2.2760289 -1.0562695
-3.1551969 -2.284586 -1.0697018
-3.2458236 -2.3199944 -1.0965662
-3.169637 -2.2362685 -1.0650417
-3.13674 -2.1843483 -1.0488682
-3.1691036 -2.1781356 -1.0554472
-3.1656964 -2.147311 -1.0496905
-3.1716204 -2.1230309 -1.0472233
-3.1845875 -2.1035302 -1.0472233
-3.2771912 -2.1359444 -1.0743619
-3.225529 -2.0741765 -1.0524318
-3.2341352 -2.0517697 -1.0510612
-3.2784545 -2.0517874 -1.0617521
-3.3490796 -2.0675063 -1.0812151
-3.3953781 -2.0674272 -1.0924543
-3.4014044 -2.0425932 -1.0902613
-4.5681391 -2.7053947 -1.4726685
-3.3390195 -1.9497709 -1.061478
-3.3792553 -1.9455638 -1.0707983
-3.3902931 -1.9243176 -1.0705242
-3.3995192 -1.90207 -1.0697018
-3.401021 -1.8756011 -1.0664122
-3.4462619 -1.8730706 -1.0773773
-3.4797306 -1.8636969 -1.0845046
-3.491951 -1.8427596 -1.0847788
-3.5006325 -1.8199676 -1.0839564
-3.5622334 -1.8243227 -1.1001298
-3.6180074 -1.8249569 -1.1143845
-3.6420557 -1.8091416 -1.1184964
-3.6720927 -1.7960582 -1.1245272
-3.6856432 -1.7747447 -1.1253495
-3.6851668 -1.7467407 -1.1217859
-3.7324176 -1.7411755 -1.1332992
-3.8050826 -1.7467332 -1.1527623
-3.8376391 -1.733251 -1.1596155
-3.9545393 -1.7569267 -1.1927848
-3.9819882 -1.7399467 -1.1979933
-5.2896404 -2.2729225 -1.6004118
-4.0907407 -1.7280062 -1.2251319
-4.2051792 -1.7460297 -1.2572047
-4.2532101 -1.7354573 -1.268718
-4.2976971 -1.7229288 -1.2791349
-4.348453 -1.7123863 -1.2914705
-4.3696413 -1.6898358 -1.2947601
-4.3673415 -1.6582122 -1.2909223
-4.4152808 -1.6454921 -1.3024356
-4.5363832 -1.6590064 -1.3361533
-4.625227 -1.6594011 -1.3600024
-4.7360153 -1.6664293 -1.3904305
-4.8316059 -1.6668262 -1.4161984
-4.9610829 -1.6775122 -1.4521091
-5.2843976 -1.750805 -1.5461346
-5.2721734 -1.7109247 -1.5392815
-5.3586426 -1.7027208 -1.562034
-5.6453934 -1.7557948 -1.6445463
-5.7278223 -1.7429644 -1.6659281
-5.7992425 -1.7258953 -1.6840205
-5.8928285 -1.7144638 -1.708692
-6.0392151 -1.7169416 -1.7489886
-6.038517 -1.676765 -1.7456992
-6.0932441 -1.6517621 -1.7588573
-6.2222667 -1.6458284 -1.7939456
-6.400795 -1.6511064 -1.8435625
-6.5245891 -1.6404155 -1.8770061
-6.6681042 -1.6330719 -1.9162061
-6.7051272 -1.5985959 -1.9241558
-6.7513456 -1.5659002 -1.9348468
-6.7580123 -1.5238105 -1.9340245
-6.7850838 -1.4862261 -1.9392328
-6.7912536 -1.4439654 -1.9384105
-6.8018694 -1.4026566 -1.9389588
-6.810348 -1.3608947 -1.9389588
-6.7959099 -1.3146964 -1.9323797
-6.812356 -1.274565 -1.9348468
-6.8086925 -1.2306879 -1.9315573
-6.8293786 -1.1912016 -1.9353951
-6.8090563 -1.1446497 -1.9274454
-6.8358879 -1.1060755 -1.933202
-6.842546 -1.0641105 -1.933202
-6.8527508 -1.0226734 -1.9342985
-6.8722248 -0.98251277 -1.9381363
-6.8762183 -0.94006646 -1.9375881
-6.8847179 -0.89823049 -1.9384105
-6.8967805 -0.85680002 -1.9403293
-6.8999977 -0.81424057 -1.9397811
-6.9211111 -0.77370489 -1.9444413
-6.929554 -0.73162729 -1.9455378
-6.9367833 -0.68938005 -1.9463601
-6.9408827 -0.6468038 -1.9463601
-6.9408884 -0.6038695 -1.9452636
-6.9358363 -0.56057191 -1.9427965
-6.9314728 -0.51743066 -1.9406035
-6.9258823 -0.47429836 -1.9381363
-6.9085059 -0.4305357 -1.9323797
-6.9052567 -0.38781393 -1.9307349
-6.9219136 -0.34615809 -1.9348468
-6.9210248 -0.30355293 -1.9340245
-6.9304452 -0.26137099 -1.9362174
-6.9098105 -0.21814243 -1.9299126
-6.6081219 0.48526621 -1.9293681
-6.5859103 0.52427912 -1.9236678
-6.6045341 0.56656778 -1.9302232
-6.6009336 0.60708177 -1.9302232
-6.6085315 0.64869857 -1.9336435
-6.6063333 0.68943489 -1.9342134
-6.6057897 0.73037958 -1.9353535
-6.6068959 0.77156633 -1.9370637
-6.6001344 0.81185657 -1.9364936
-6.5684123 0.8488943 -1.9285131
-6.5830259 0.89188725 -1.9344984
-6.5736337 0.93172443 -1.9333584
-6.5516739 0.96965349 -1.9285131
-6.5399175 1.0089576 -1.926803
-6.5392814 1.0499796 -1.9285131
-6.528934 1.0894524 -1.9273731
-6.5268488 1.1303113 -1.9287981
-6.5103564 1.1686428 -1.9259479
-6.5115442 1.2101454 -1.9285131
-6.4898772 1.2473603 -1.9242377
-6.4952636 1.2897741 -1.928228
-6.4834714 1.3288335 -1.927088
-6.4592538 1.3652178 -1.9222426
-6.4760418 1.4103369 -1.9299382
-6.445755 1.4452195 -1.9233828
-6.3910022 1.4741781 -1.9094168
-6.4228716 1.5231034 -1.9219576
-6.4059553 1.5606683 -1.9196775
-6.4111357 1.6036693 -1.9242377
-6.3900347 1.6401155 -1.9208175
-6.3919005 1.6824672 -1.9245228
-6.3638744 1.7169086 -1.9191074
-6.3550673 1.7564353 -1.9196775
-6.346015 1.7959186 -1.9202476
-6.347765 1.8385587 -1.9242377
-6.3124709 1.870389 -1.9168273
-6.3008752 1.9090863 -1.9168273
-6.2798872 1.9448746 -1.9139771
-6.2714906 1.9845281 -1.9151171
-6.2464275 2.0188427 -1.9111269
-6.2375631 2.0583341 -1.912267
-6.2248163 2.0965683 -1.912267
-6.2172732 2.1365938 -1.9139771
-6.2248502 2.1819983 -1.9205326
-6.2140517 2.2211206 -1.9213876
-6.1768923 2.2506714 -1.9139771
-6.1171422 2.2715044 -1.8994411
-6.1138468 2.3130677 -1.9028614
-6.1540937 2.3715727 -1.9202476
-6.1385341 2.4089386 -1.9199625
-6.129868 2.449049 -1.9219576
-6.1058469 2.4830029 -1.9191074
-6.0913825 2.5207875 -1.9193925
-6.0431166 2.5443482 -1.9088467
-6.0221047 2.5791152 -1.9071367
-6.0246191 2.6240587 -1.9131221
-6.011034 2.6621406 -1.9139771
-5.976233 2.6907065 -1.9079916
-5.9700689 2.7321136 -1.9114119
-5.9384189 2.7618196 -1.9065666
-5.9248271 2.7998438 -1.9077066
-5.8954396 2.8303351 -1.9037164
-5.8814077 2.8681369 -1.9048564
-5.8705697 2.9075751 -1.9071367
-5.8372059 2.9357865 -1.9020063
-5.859201 2.9920433 -1.9154022
-5.8032928 3.0085208 -1.9028614
-5.8339171 3.0699706 -1.9193925
-5.8073616 3.1016436 -1.9168273
-5.7924342 3.139503 -1.9182523
-5.7705421 3.1735995 -1.9173973
-5.7459388 3.2061439 -1.9156872
-5.7178173 3.2366166 -1.912837
-5.6970191 3.2711623 -1.912552
-5.6735277 3.3041267 -1.9114119
-5.6465449 3.334976 -1.9091318
-5.6202202 3.366111 -1.9071367
-5.610929 3.4075005 -1.9111269
-5.5809379 3.4363346 -1.9079916
-5.5402355 3.458329 -1.9011512
-5.5342994 3.5019991 -1.9065666
-5.5344887 3.5498674 -1.9142621
-5.4925146 3.5706949 -1.9071367
-5.4873085 3.6154068 -1.9131221
-5.4538627 3.6415544 -1.9091318
-5.4330034 3.6760247 -1.9097018
-5.4166694 3.713629 -1.9119819
-5.3725281 3.7320266 -1.9042864
-5.3283663 3.7500226 -1.8965909
-5.3029156 3.7809765 -1.8957359
-5.3130236 3.8375828 -1.9079916
-5.2893767 3.8701108 -1.9079916
-5.2678404 3.9042056 -1.9088467
-5.2437859 3.9364548 -1.9088467
-5.2332659 3.979001 -1.9139771
-5.1973624 4.0022626 -1.9097018
-5.1742187 4.0352569 -1.9102719
-5.1320629 4.0532622 -1.9037164
-5.1048508 4.0828791 -1.9028614
-5.0908737 4.1231761 -1.9071367
-5.0588093 4.1488638 -1.9045714
-5.0317826 4.1786013 -1.9040014
-4.9906445 4.1964397 -1.898016
-4.9684501 4.2300901 -1.8994411
-4.9402237 4.2586184 -1.898586
-4.909668 4.2850685 -1.896876
-4.9041095 4.3335228 -1.9051415
-4.8852839 4.370564 -1.9082767
-4.865478 4.4068933 -1.9111269
-4.8348145 4.4334245 -1.9097018
-4.7997942 4.455832 -1.9065666
-4.7674751 4.4806032 -1.9045714
-4.7454472 4.515058 -1.9068516
-4.7100616 4.5367746 -1.9037164
-4.6883111 4.5716133 -1.9062816
