# .PCD v0.7 - Point Cloud Data file format
VERSION 0.7
FIELDS x y z
SIZE 4 4 4
TYPE F F F
COUNT 1 1 1
WIDTH 1538
HEIGHT 1
VIEWPOINT 0 0 0 1 0 0 0
POINTS 1538
DATA ascii
-6.7856612 3.1555889 -1.9062295
-6.7784219 3.2029533 -1.9097537
-6.7525339 3.2415533 -1.9079915
-6.7255578 3.279532 -1.9059777
-6.6975026 3.3168724 -1.9037122
-6.6796184 3.3592093 -1.9044673
-6.664053 3.4027719 -1.9059777
-6.620708 3.4320185 -1.8994327
-6.6269326 3.4869976 -1.9074881
-6.5806546 3.514374 -1.9001878
-6.5700288 3.5606802 -1.9034604
-6.5302477 3.5911336 -1.898174
-6.5013289 3.627363 -1.8961602
-6.4722114 3.6633725 -1.8941463
-6.4580045 3.7078347 -1.8966637
-6.4443321 3.7527473 -1.8994327
-6.3995171 3.7794237 -1.8928877
-6.3737159 3.8171277 -1.8921325
-6.3749919 3.8712327 -1.8996844
-6.3437009 3.90571 -1.8974189
-6.3114061 3.9394367 -1.8949015
-6.2862978 3.9775712 -1.8946499
-6.2666616 4.0192027 -1.8961602
-6.2443166 4.0591612 -1.8969154
-6.2192922 4.0973992 -1.8969154
-6.1892047 4.1322589 -1.8954051
-6.1693444 4.1739531 -1.8971671
-6.1348362 4.2057099 -1.8943981
-6.104146 4.2399611 -1.8928877
-6.0740576 4.2745509 -1.891629
-6.059536 4.3201666 -1.8954051
-6.0329137 4.3572659 -1.8954051
-5.994348 4.3856301 -1.891629
-5.9828773 4.4338522 -1.8966637
-5.9400783 4.4588599 -1.891629
-5.9164596 4.4981518 -1.8928877
-5.8711109 4.5207906 -1.8870978
-5.8547091 4.5656567 -1.8908738
-5.8501306 4.6200871 -1.8986775
-5.7989964 4.6377635 -1.8911256
-5.783217 4.6836119 -1.8954051
-5.7498794 4.7153268 -1.8938947
-5.7230725 4.7523737 -1.8946499
-5.6952863 4.7886457 -1.8951533
-5.6687441 4.8260107 -1.8961602
-5.6331611 4.8556476 -1.8941463
-5.6090946 4.8952112 -1.8961602
-5.5760517 4.9269729 -1.8951533
-5.5377808 4.9539967 -1.8923842
-5.5137353 4.9937291 -1.8946499
-5.4694371 5.0150404 -1.8898669
-5.4144449 5.0261207 -1.8813081
-5.3997245 5.074491 -1.8870978
-5.3776021 5.1161995 -1.8903704
-5.341229 5.1444001 -1.8886082
-5.3199573 5.1872106 -1.8923842
-5.267365 5.1993604 -1.8848323
-5.2476864 5.2438951 -1.8893634
-5.2126899 5.2732425 -1.8883566
-5.1836166 5.3085899 -1.8896152
-5.1549778 5.3444753 -1.8911256
-5.1140761 5.3675971 -1.8881048
-5.0724216 5.3897142 -1.8848323
-5.0451865 5.4271154 -1.8870978
-5.0078635 5.4536929 -1.8855875
-4.937243 5.4434595 -1.8712388
-4.93152 5.5046453 -1.8820633
-4.8970098 5.5340762 -1.8818115
-4.8744259 5.5771356 -1.8863426
-4.8356862 5.6018119 -1.8845805
-4.8081303 5.6394782 -1.8873496
-4.7715664 5.6666532 -1.8865944
-4.7317557 5.6898718 -1.8845805
-4.6899972 5.7105718 -1.8818115
-4.6536503 5.7377381 -1.8813081
-4.6195669 5.7676954 -1.8818115
-4.5930958 5.8073173 -1.8855875
-4.558568 5.836916 -1.886091
-4.5025721 5.8387213 -1.8775321
-4.467834 5.8677783 -1.8780355
-4.4404697 5.9066854 -1.8818115
-4.413373 5.9462538 -1.8858392
-4.3762321 5.9724412 -1.8855875
-4.3468781 6.0093746 -1.88886
-4.3082361 6.0335708 -1.8881048
-4.2755947 6.0662203 -1.8901186
-4.226685 6.0756574 -1.8848323
-4.2024741 6.120625 -1.8908738
-4.1632109 6.1438923 -1.8901186
-4.1092939 6.1451874 -1.8825667
-4.0837708 6.1888642 -1.8883566
-4.0240679 6.1805539 -1.8780355
-4.0253024 6.2661963 -1.8969154
-3.977452 6.2760634 -1.8923842
-3.9327109 6.2905035 -1.8893634
-3.9026759 6.3285189 -1.8936429
-3.8607533 6.3473854 -1.8921325
-3.8212359 6.3701248 -1.8918808
-3.7879913 6.4034472 -1.8949015
-3.7481413 6.4257331 -1.8946499
-3.7187765 6.466228 -1.8999362
-3.6823721 6.4948173 -1.9016984
-3.6457567 6.5232029 -1.9034604
-3.6033273 6.5412116 -1.9022018
-3.5571201 6.5521417 -1.8989292
-3.5255246 6.5900578 -1.9037122
-3.4778013 6.597868 -1.8996844
-3.4390364 6.6225185 -1.9006914
-3.3978958 6.6426339 -1.9004396
-3.3570733 6.6633577 -1.9004396
-3.3088117 6.6690931 -1.8961602
-3.2750509 6.7040524 -1.9004396
-3.2304981 6.7170444 -1.8984258
-3.1929495 6.7446122 -1.9006914
-3.159272 6.7807446 -1.9054743
-3.1115558 6.7868056 -1.9016984
-3.0802016 6.8287067 -1.9082433
-3.0319626 6.8333244 -1.9042156
-2.983783 6.8376079 -1.9001878
-2.9474971 6.8691273 -1.9039639
-2.9015315 6.8781667 -1.9014466
-2.8659463 6.9119325 -1.9059777
-2.8278644 6.9401422 -1.9089985
-2.7819898 6.9492769 -1.9067329
-2.7410684 6.9707193 -1.9079915
-2.6999886 6.9919209 -1.9092503
-2.646399 6.9803033 -1.9014466
-2.6102705 7.0145502 -1.9064811
-2.5648568 7.0240712 -1.9047191
-2.5226889 7.0424099 -1.9054743
-2.482959 7.0678 -1.9082433
-2.4382842 7.0792418 -1.9072363
-2.391705 7.0849004 -1.9047191
-2.3445404 7.0884161 -1.9016984
-2.3096538 7.1293683 -1.9089985
-2.2605972 7.126801 -1.9044673
-2.2139556 7.1312947 -1.90195
-2.1695945 7.1428933 -1.9014466
-2.1251743 7.1542158 -1.9009432
-2.0958135 7.217308 -1.9145366
-2.0520179 7.2318935 -1.91504
-1.9990743 7.2135715 -1.9067329
-1.9555334 7.2285047 -1.9074881
-1.9158372 7.2581463 -1.912271
-1.868853 7.2603927 -1.9097537
-1.8179091 7.2463784 -1.902957
-1.7835224 7.2987618 -1.9140332
-1.7257119 7.2549601 -1.8994327
-1.6888018 7.2984128 -1.9082433
-1.6435629 7.3067493 -1.9077399
-1.5922928 7.2873864 -1.8999362
-1.5523683 7.3197412 -1.9059777
-1.508206 7.3329201 -1.9069847
-1.4554265 7.3031225 -1.8966637
-1.4215903 7.3689313 -1.9117676
-1.3793669 7.3936887 -1.916047
-1.3338023 7.4010606 -1.9157952
-1.286375 7.3976636 -1.9127744
-1.2439996 7.4235525 -1.9175574
-1.1961139 7.4167142 -1.9137814
-1.1517695 7.4315643 -1.9157952
-1.1033006 7.4193463 -1.9107606
-1.0598035 7.4403481 -1.9145366
-1.0120401 7.4313684 -1.9105089
-0.97153807 7.4767866 -1.9208299
-0.92207712 7.453793 -1.913278
-0.87914842 7.4833398 -1.9195713
-0.83235836 7.4808984 -1.9175574
-0.78735131 7.4945273 -1.9198229
-0.73954099 7.4809189 -1.91504
-0.69380367 7.4872427 -1.9155436
-0.64751601 7.4875021 -1.9145366
-0.60264665 7.5048399 -1.9180609
-0.55529773 7.491024 -1.9135296
-0.50952023 7.4971867 -1.9142848
-0.4627918 7.4885807 -1.9112641
-0.4179104 7.5106053 -1.9162987
-0.3727282 7.531394 -1.9210817
-0.32495704 7.4977641 -1.9117676
-0.27923369 7.5073538 -1.9137814
-0.23295355 7.5021548 -1.9120193
-0.18754476 7.5285978 -1.9185643
-0.14114626 7.5189629 -1.9157952
-0.094959006 7.5158167 -1.9147884
-0.048682548 7.492063 -1.9084951
-0.0027144041 7.4999633 -1.9105089
0.043337781 7.5056453 -1.9120193
0.089218609 7.4907222 -1.9082433
0.13476123 7.4668107 -1.9022018
0.18073763 7.4726157 -1.9039639
0.22746392 7.5003867 -1.9115158
0.2729176 7.4833751 -1.9074881
0.31915882 7.489295 -1.909502
0.36458832 7.4765625 -1.9067329
0.40997964 7.465488 -1.9044673
0.45625085 7.4705596 -1.9064811
0.50253487 7.4743791 -1.9082433
0.54796255 7.4653635 -1.9067329
0.59406573 7.4657197 -1.9077399
0.64044178 7.4686837 -1.909502
0.68661088 7.4684687 -1.9105089
0.7319513 7.4592991 -1.9092503
0.77820879 7.4594803 -1.9105089
0.82555878 7.4689941 -1.9142848
0.86901647 7.4436011 -1.9089985
0.91609001 7.449656 -1.9120193
0.95992357 7.4294972 -1.9082433
1.0089979 7.4493618 -1.91504
1.0531943 7.4324899 -1.912271
1.0950975 7.4009957 -1.905726
1.1437331 7.4151797 -1.9112641
1.1862968 7.3898664 -1.9064811
1.2305033 7.3757663 -1.9047191
1.2755719 7.3671236 -1.9044673
1.3243409 7.3791623 -1.9097537
1.3681797 7.3632851 -1.9077399
1.4126039 7.3509498 -1.9067329
1.4576818 7.342144 -1.9067329
1.5009568 7.3245287 -1.9044673
1.5480715 7.3255968 -1.9072363
1.5981379 7.3396015 -1.9135296
1.6412377 7.3211579 -1.9112641
1.6869985 7.3147221 -1.912271
1.731849 7.3042331 -1.912271
1.7722833 7.2756033 -1.9074881
1.8145446 7.2552028 -1.9049708
1.8729777 7.2983036 -1.9195713
1.9014702 7.2249017 -1.902957
1.9424895 7.2009511 -1.8996844
1.9853485 7.1842327 -1.8984258
2.0301831 7.1747093 -1.899181
2.0717456 7.1537504 -1.8969154
2.1188996 7.1520391 -1.8999362
2.1627438 7.1389031 -1.8999362
2.2145209 7.1513844 -1.9069847
2.2554402 7.1284347 -1.9044673
2.3009224 7.119987 -1.9059777
2.3366833 7.0818386 -1.8994327
2.3850341 7.0820427 -1.9034604
2.4230981 7.0517154 -1.899181
2.4628003 7.0266681 -1.8964119
2.4977272 6.9886403 -1.8901186
2.5342679 6.9559054 -1.8853358
2.585995 6.9647217 -1.8921325
2.6279962 6.9469128 -1.891629
2.6663971 6.9198198 -1.8886082
2.7073922 6.899725 -1.8876014
2.7521901 6.8892741 -1.8893634
2.7867556 6.8534303 -1.8840771
2.8265352 6.8308363 -1.8825667
2.8661423 6.8080125 -1.8810563
2.8987191 6.7689457 -1.8750148
2.9374933 6.7448206 -1.8732526
2.9882271 6.7479081 -1.8792942
3.0303698 6.7312107 -1.8797977
3.0687962 6.7063293 -1.8780355
3.11356 6.6952715 -1.8803011
3.1421802 6.6497898 -1.8727492
3.2038627 6.6740093 -1.8853358
3.2320292 6.6281276 -1.8777838
3.2756441 6.6142426 -1.8795459
3.2913845 6.5447345 -1.8651972
3.3490832 6.5588942 -1.8752664
3.3848112 6.5296288 -1.8727492
3.4212077 6.5018849 -1.8707353
3.4423478 6.4457684 -1.8604143
3.479528 6.4202709 -1.8591557
3.5291152 6.4174571 -1.8646938
3.5835135 6.4227276 -1.8727492
3.6242852 6.4031453 -1.8735044
3.6317048 6.3253913 -1.8568901
3.6568129 6.2795706 -1.8498416
3.690846 6.2495146 -1.847576
3.727134 6.2234292 -1.8465691
3.7662547 6.2020969 -1.8470726
3.8088052 6.1862884 -1.8493382
3.837981 6.1488442 -1.8450587
3.8751199 6.124361 -1.8448069
3.925164 6.1200209 -1.8508486
3.9621143 6.0950098 -1.8505968
4.0180721 6.0988708 -1.8594074
4.0532689 6.0708818 -1.8584005
4.0644135 6.0074201 -1.8463174
4.0946317 5.9727893 -1.8432965
4.1262345 5.9403987 -1.841031
4.1681757 5.9228835 -1.8435483
4.2207313 5.9200501 -1.8508486
4.2501769 5.8846259 -1.8478278
4.2953472 5.870934 -1.8518554
4.344542 5.8623519 -1.8576453
4.3786879 5.833262 -1.8568901
4.4360685 5.8347917 -1.8662041
4.4676538 5.8020949 -1.864442
4.4948392 5.7638879 -1.8609178
4.5355191 5.7430353 -1.8631834
4.590014 5.7392845 -1.8712388
4.6044354 5.6854405 -1.86268
4.6539617 5.6750422 -1.8687215
4.6794219 5.6352105 -1.8649455
4.7176476 5.6108365 -1.8664559
4.751986 5.5817842 -1.8664559
4.8107877 5.5811119 -1.8762734
4.8430328 5.5493007 -1.8755182
4.8769917 5.5194798 -1.8755182
4.893991 5.4706969 -1.8689733
4.9352622 5.449173 -1.871994
4.9705667 5.4209285 -1.8727492
4.9918842 5.3775597 -1.8682179
5.0208101 5.342597 -1.8667076
5.0541639 5.3123903 -1.8669593
5.0873365 5.2819757 -1.8672111
5.1176238 5.2485824 -1.8664559
5.1517715 5.2191486 -1.8672111
5.1789103 5.1826472 -1.865449
5.2340131 5.1739068 -1.8740078
5.25389 5.130199 -1.8697284
5.2957177 5.1079435 -1.8735044
5.3045387 5.0539899 -1.865449
5.3453159 5.030633 -1.8689733
5.3697038 4.9918094 -1.8667076
5.410924 4.9685864 -1.8704836
5.4484773 4.9417944 -1.8730009
5.4909501 4.9192491 -1.8772804
5.5014629 4.8681474 -1.8704836
5.5501752 4.8508596 -1.8770286
5.5182996 4.763588 -1.8558831
5.5923467 4.7679424 -1.8712388
5.6251984 4.7366557 -1.8724974
5.6586204 4.7057643 -1.8740078
5.7030931 4.6838546 -1.8792942
5.7347317 4.6512117 -1.8803011
5.7442794 4.6008101 -1.8740078
5.7761965 4.5684795 -1.8752664
5.7942042 4.5252066 -1.871994
5.8402538 4.5037541 -1.8780355
5.8677783 4.467834 -1.8780355
5.9012704 4.436399 -1.8800493
5.9105072 4.3868384 -1.8742596
5.9513645 4.3607869 -1.8787907
5.9740891 4.3213515 -1.8775321
6.0170312 4.2964249 -1.8828185
6.0187588 4.2421389 -1.8750148
6.0502357 4.2089977 -1.8767769
6.0711608 4.1685081 -1.8752664
6.1142492 4.1431222 -1.8808045
6.1476007 4.110908 -1.8833219
6.1864409 4.0821719 -1.8876014
6.2073169 4.0414948 -1.8863426
6.2165279 3.9933925 -1.8815597
6.2613497 3.9681261 -1.887853
6.2839384 3.9286063 -1.8873496
6.2939224 3.8813381 -1.8830701
6.30439 3.8345988 -1.8790425
6.3336091 3.7993288 -1.8808045
6.3426423 3.7520175 -1.8765252
6.4131942 3.7408264 -1.8908738
6.4033084 3.6825867 -1.8810563
6.4586167 3.661845 -1.8908738
6.4564652 3.6084528 -1.8835737
6.4886565 3.574373 -1.8865944
6.5172706 3.5381863 -1.8886082
6.5362978 3.4967608 -1.887853
6.562767 3.4592969 -1.8893634
6.5941758 3.4243162 -1.8923842
6.6176476 3.385113 -1.8931395
6.6305151 3.3405247 -1.8908738
6.6560893 3.3023589 -1.8923842
6.6814442 3.2640049 -1.8938947
6.6987295 3.2216883 -1.8931395
6.7157469 3.1792827 -1.8923842
6.7430234 3.1416945 -1.8946499
6.7621737 3.100261 -1.8946499
6.7784228 3.0575168 -1.8938947
6.7997093 3.0170453 -1.8946499
6.8145456 2.9737179 -1.8936429
6.8308849 2.9310853 -1.8931395
6.8407159 2.8857307 -1.8908738
6.8341565 2.8336928 -1.8840771
6.8765097 2.8019326 -1.8911256
6.9097447 2.7661614 -1.8956567
6.9112763 2.7176905 -1.8913773
6.954906 2.6856928 -1.8989292
6.9513459 2.6354189 -1.8933911
6.9800835 2.5974426 -1.8969154
7.0177073 2.5625329 -1.902957
7.0205436 2.5148549 -1.8994327
7.0394945 2.4730136 -1.9004396
7.0581965 2.4310343 -1.9014466
7.0693121 2.3864419 -1.9004396
7.0884161 2.3445404 -1.9016984
7.1054306 2.3018975 -1.9024535
7.126801 2.2605972 -1.9044673
7.1202035 2.2105117 -1.8989292
7.1438193 2.1698756 -1.9016984
7.1746254 2.1312382 -1.9064811
7.176415 2.0839362 -1.9034604
7.1899977 2.0401275 -1.9037122
7.218235 2.0003669 -1.9079915
7.2200966 1.9532584 -1.9052225
7.2441106 1.9121315 -1.9084951
7.2500834 1.8661987 -1.9069847
7.2726617 1.8245044 -1.9100055
7.2714982 1.7768587 -1.9067329
7.2822642 1.7322081 -1.9067329
7.2927556 1.6874925 -1.9067329
7.3076935 1.6437753 -1.9079915
7.3299332 1.6015916 -1.9112641
7.3311019 1.5547782 -1.9089985
7.3386078 1.5093762 -1.9084951
7.3458328 1.4639405 -1.9079915
7.3641796 1.4206735 -1.9105089
7.3756123 1.3759936 -1.9112641
7.3724871 1.3286514 -1.9082433
7.4014773 1.2870384 -1.9137814
7.4206891 1.2435195 -1.9168022
7.392828 1.1922605 -1.9074881
6.2848754 0.97399008 -1.6139691
5.8590074 0.87118512 -1.5004382
5.8297505 0.83030361 -1.4913759
5.8117208 0.79138184 -1.4853343
5.8279839 0.757204 -1.488355
5.8046665 0.71798277 -1.4810549
5.8022346 0.68156165 -1.4792928
0 0 -0
0 0 -0
0 0 -0
0 0 -0
0 0 -0
0 0 -0
0 0 -0
0 0 -0
5.8078256 0.35883301 -1.4732512
5.7983227 0.32254428 -1.4702305
5.8011589 0.28700826 -1.4704821
0 0 -0
5.8139157 0.21615773 -1.4729995
5.8131976 0.18041997 -1.472496
5.8045206 0.14450595 -1.4699787
5.8149738 0.10906951 -1.472496
5.8184371 0.07342428 -1.4732512
5.7258716 0.037113052 -1.449085
5.784059 0.0020031349 -1.4641888
5.8188028 -0.03368656 -1.4732512
5.8136477 -0.069332048 -1.4719925
5.748281 -0.10383596 -1.4551265
0 -0 -0
0 -0 -0
0 -0 -0
0 -0 -0
0 -0 -0
0 -0 -0
0 -0 -0
5.8328242 -0.39225283 -1.4802997
5.8554029 -0.42987567 -1.4868447
5.8931746 -0.46901774 -1.4974174
5.8786144 -0.50417715 -1.4943967
5.9679289 -0.54873896 -1.5185629
5.8951011 -0.57854593 -1.5004382
7.5749898 -0.79025316 -1.9407167
7.5555692 -0.83512342 -1.9369407
7.5358834 -0.87978518 -1.9331647
7.4957628 -0.9217574 -1.9241024
7.4813275 -0.96661752 -1.9218369
7.4455252 -1.0084785 -1.9140332
7.4430304 -1.0546874 -1.91504
7.2956839 -1.0795207 -1.8780355
7.0995369 -1.0950648 -1.8281927
6.8585691 -1.1010362 -1.7665185
6.7753153 -1.1303623 -1.74638
6.6805191 -1.1567279 -1.7232206
6.6018515 -1.1848788 -1.7043408
6.5230932 -1.2121085 -1.6854609
6.5392933 -1.2566752 -1.6917542
6.601706 -1.3107185 -1.7103823
6.6049166 -1.3535321 -1.7134031
6.6106906 -1.3970343 -1.7171791
6.6048312 -1.438188 -1.7179343
6.5694399 -1.4727612 -1.7108858
6.5527353 -1.5113032 -1.708872
6.5395718 -1.5505886 -1.707865
6.5007849 -1.5835865 -1.7000613
6.4646568 -1.6168712 -1.6930128
6.4564891 -1.6569883 -1.6935163
6.4209299 -1.689924 -1.6867195
6.4141774 -1.7302983 -1.6877265
6.3623948 -1.7582819 -1.6766503
6.3254113 -1.789911 -1.6696018
6.3291836 -1.832996 -1.6736295
6.3029699 -1.8673987 -1.6696018
6.2774997 -1.9018296 -1.6658258
6.2573915 -1.9377358 -1.6635603
6.2426157 -1.9752182 -1.6628051
6.2091975 -2.0066414 -1.6570152
6.2032018 -2.0468247 -1.6587774
6.1859398 -2.0833042 -1.6575187
6.1620569 -2.1174479 -1.6544979
6.120635 -2.1452956 -1.6466942
6.1228495 -2.1883469 -1.6509737
6.0865731 -2.2175937 -1.6446804
6.0601497 -2.2501829 -1.6411562
6.0751953 -2.2982812 -1.6492115
6.0700102 -2.338994 -1.6517289
6.0537419 -2.3754878 -1.6512254
6.0228748 -2.4061265 -1.6466942
6.0187564 -2.4474108 -1.6497151
6.0322428 -2.4961348 -1.6577704
6.0061092 -2.5285952 -1.6547496
5.9459972 -2.5463536 -1.642163
5.9329233 -2.5839489 -1.6429182
5.9355407 -2.6285322 -1.6482047
5.9131227 -2.6621218 -1.6464425
5.8852363 -2.6931195 -1.64317
5.8747439 -2.7320361 -1.6449322
5.8692455 -2.773406 -1.6482047
5.8276877 -2.7976408 -1.6411562
5.8034525 -2.8299532 -1.6391423
5.7851119 -2.8650796 -1.6388905
5.7587767 -2.8961749 -1.6363733
5.7443457 -2.9332159 -1.6373801
5.7313952 -2.9710793 -1.6388905
5.713057 -3.0061905 -1.6388905
5.6987724 -3.043468 -1.6401492
5.6748853 -3.0756111 -1.6386389
5.6652355 -3.1155031 -1.6414078
5.6384058 -3.145962 -1.6391423
5.6072049 -3.173826 -1.6356181
5.5901427 -3.2096169 -1.6363733
5.5552893 -3.2350914 -1.6318421
5.5278344 -3.2646883 -1.6295764
5.5243049 -3.3084891 -1.6346111
5.5237546 -3.3543782 -1.6406527
5.5088377 -3.3917596 -1.6424148
5.4903855 -3.4270346 -1.64317
5.4725256 -3.462728 -1.644177
5.4495463 -3.4951968 -1.6436734
5.3995967 -3.5101089 -1.6348629
5.3803821 -3.5447712 -1.6356181
5.3722143 -3.5868528 -1.6398975
5.3340726 -3.6089032 -1.6348629
5.2998543 -3.6333568 -1.6310868
5.3060765 -3.6856821 -1.6401492
5.269115 -3.7081454 -1.6356181
5.2533555 -3.7454622 -1.6378837
5.2145834 -3.7662935 -1.632849
5.1999674 -3.8045044 -1.6356181
5.1687498 -3.8305771 -1.6331007
5.1141872 -3.8389816 -1.6230315
5.119813 -3.8925459 -1.6325973
5.0820289 -3.9132597 -1.6280661
5.0441842 -3.9336569 -1.6235349
5.0586896 -3.995122 -1.6363733
5.0189638 -4.013998 -1.6313386
5.0183077 -4.0642076 -1.639394
4.9753146 -4.0801954 -1.6333525
4.9635882 -4.1217747 -1.6378837
4.9559827 -4.1671 -1.6439252
4.9288468 -4.1961761 -1.6434218
4.9000745 -4.2238126 -1.6424148
4.8871908 -4.2652535 -1.646946
4.8507738 -4.2861891 -1.6434218
4.8251042 -4.3165178 -1.6436734
4.8035493 -4.3505902 -1.6454356
4.8067255 -4.4074512 -1.6560084
4.7817192 -4.4388371 -1.6567636
4.7621512 -4.4753838 -1.6595325
4.7353024 -4.5051866 -1.6597843
4.6859598 -4.5133452 -1.6519806
4.6457052 -4.5298524 -1.6474494
4.6054244 -4.5460353 -1.6429182
2.3202534 -2.3188882 -0.81295937
2.3046203 -2.3317049 -0.81245589
2.2868891 -2.3423398 -0.81119722
4.4985194 -4.6639576 -1.6451838
4.4724874 -4.6942749 -1.6461908
4.4256902 -4.7026014 -1.639394
4.3684163 -4.6991906 -1.6285696
4.4147811 -4.8078804 -1.6575187
4.3812962 -4.8305774 -1.6560084
4.3457613 -4.8508825 -1.6537427
4.2960324 -4.8549891 -1.645939
4.2585187 -4.8725138 -1.6429182
4.2070384 -4.8736448 -1.6343594
4.1858463 -4.9096766 -1.6378837
4.1512785 -4.9300861 -1.6361215
4.1246629 -4.9599299 -1.6376319
4.0953803 -4.9866405 -1.6381353
4.0592184 -5.0049109 -1.6358697
4.0260124 -5.0267024 -1.6348629
3.9944928 -5.0505519 -1.6346111
2.0040538 -2.5664051 -0.80666608
1.9859048 -2.5755877 -0.80565912
1.9671322 -2.5838749 -0.8044005
1.9489144 -2.592802 -0.80339354
1.9323918 -2.6039345 -0.80314183
1.8156955 -2.4783518 -0.75883704
1.7238746 -2.3835895 -0.72485334
1.7120289 -2.3980601 -0.72611195
1.6905913 -2.3990276 -0.72309119
3.6794832 -5.2891703 -1.6356181
3.6431251 -5.3060627 -1.6338559
3.6012692 -5.3146973 -1.6295764
3.5685911 -5.3366938 -1.6295764
3.5251172 -5.3423347 -1.6245419
3.4938552 -5.3662972 -1.6252971
3.4681861 -5.3990331 -1.6288213
3.4360292 -5.4218469 -1.6293248
3.4026966 -5.4428277 -1.6293248
3.3712683 -5.4668989 -1.6303316
3.3336368 -5.4808669 -1.6283178
3.3039269 -5.5078578 -1.6303316
3.2700694 -5.5280266 -1.6303316
3.2356007 -5.5471516 -1.63008
3.1957128 -5.5568333 -1.6270592
3.1572602 -5.5687604 -1.6247936
3.1211426 -5.5846491 -1.6237867
3.0816801 -5.5943704 -1.6210176
3.0505283 -5.6191278 -1.6227797
1.5914936 -2.9753447 -0.83737731
1.5759152 -2.9901905 -0.83888769
1.557092 -2.998945 -0.83863598
2.9130316 -5.6948838 -1.6235349
2.8806465 -5.7178364 -1.6250453
2.8343236 -5.7128634 -1.6185004
2.8000665 -5.7318864 -1.6190038
2.7593899 -5.7376213 -1.6157312
2.7245467 -5.7553191 -1.615983
2.6879551 -5.7692966 -1.6152278
2.6533115 -5.7874403 -1.6157312
2.6189444 -5.8062587 -1.6164864
2.5871942 -5.8310647 -1.6190038
2.5502055 -5.8441687 -1.6182486
2.5200233 -5.8730469 -1.6220245
2.4839396 -5.8883991 -1.6220245
2.4355283 -5.8740282 -1.6137174
2.4027271 -5.8969278 -1.615983
2.3621824 -5.9007783 -1.6129622
2.325577 -5.9142604 -1.6127105
2.2759943 -5.8941121 -1.6031446
2.2418447 -5.9133959 -1.604655
2.2014675 -5.9161563 -1.6016343
2.1717653 -5.9477339 -1.6066689
2.1287014 -5.9427261 -1.6016343
2.1053512 -5.9931116 -1.6119553
2.06318 -5.9903617 -1.6076758
2.0304096 -6.0148287 -1.6109483
1.9931612 -6.0262547 -1.6106967
1.9531641 -6.0291643 -1.6081793
1.916133 -6.0410352 -1.6081793
1.8793169 -6.0536032 -1.6084311
1.8387614 -6.0539083 -1.6054102
1.8002026 -6.0604382 -1.6041516
1.7635224 -6.0732288 -1.604655
1.7259604 -6.083004 -1.6044034
1.6883447 -6.0925474 -1.6041516
1.6532049 -6.1111999 -1.6064172
1.620617 -6.1399436 -1.6114519
1.5780865 -6.1310272 -1.6064172
1.5409087 -6.1424723 -1.6069206
1.5031902 -6.1518111 -1.6069206
1.4676552 -6.1703339 -1.6094379
1.4251842 -6.1594229 -1.6041516
1.3897008 -6.1784377 -1.6069206
1.354864 -6.2010307 -1.6106967
1.3204048 -6.2262683 -1.6152278
0.80593383 -3.9193738 -1.0004994
0.7869783 -3.9498715 -1.0072961
0.76694512 -3.9764819 -1.013086
0.75105333 -4.0267792 -1.025169
0.72942191 -4.0484557 -1.0297002
0.6916309 -3.9784834 -1.0100652
0.66720641 -3.9826524 -1.0100652
0.64229435 -3.9838049 -1.00931
0.61976564 -4.000104 -1.0125824
0.5982002 -4.0239339 -1.0178689
0.5711776 -4.0112405 -1.0135894
0.54446405 -3.9993267 -1.0095617
0.52240956 -4.0217867 -1.0145963
0.50212055 -4.0604539 -1.0239104
0.46917567 -3.9952145 -1.0060375
0.44754359 -4.0239882 -1.0128342
0.42122576 -4.0112586 -1.0088065
0.39660522 -4.0137677 -1.0088065
0.37330997 -4.0305805 -1.0125824
0.34782085 -4.0241175 -1.0103168
0.32304528 -4.0252113 -1.0100652
0.29948649 -4.0425601 -1.0140928
0.27375674 -4.0308037 -1.0105686
0.24919829 -4.0353055 -1.0113238
0.22454107 -4.038691 -1.0118272
0.19956435 -4.0361261 -1.0108204
0.17433387 -4.026639 -1.0080513
0.14937143 -4.0208631 -1.0062891
0.12409531 -4.0023575 -1.0012546
0.099462517 -4.0001411 -1.0004994
0.074679442 -3.9880967 -0.99722683
0.049925152 -3.9662225 -0.99143702
0.025657663 -3.9770997 -0.99420607
0.0012473362 -3.9607296 -0.98992664
-0.023077415 -3.9645338 -0.99093354
-0.047701258 -3.9894786 -0.9974786
-0.072492771 -4.0065284 -1.0020097
-0.097728804 -4.0330987 -1.0090582
-0.12300073 -4.0498352 -1.0135894
-0.14872827 -4.0731831 -1.0198827
-0.17437653 -4.0876646 -1.0239104
-0.1993605 -4.0845847 -1.023407
-0.22033697 -4.0088758 -1.0040236
-0.24734759 -4.0470543 -1.0143446
-0.27314827 -4.0599451 -1.0181205
-0.2977713 -4.0543318 -1.0171137
-0.3212617 -4.0350628 -1.0125824
-0.34700596 -4.0445867 -1.0156033
-0.37022266 -4.025034 -1.011072
-0.39283466 -4.0014968 -1.0055339
-0.41838369 -4.008637 -1.0080513
-0.44807351 -4.0521674 -1.0201344
-0.47236782 -4.0445356 -1.0188757
-0.49729383 -4.0425215 -1.0191275
-0.52332854 -4.0489926 -1.0216448
-0.54933149 -4.0543365 -1.0239104
-0.57446951 -4.0528059 -1.0244138
-0.60414094 -4.0817561 -1.0329727
-0.62784743 -4.0693636 -1.0307071
-0.65387821 -4.0721235 -1.0324693
-0.67980719 -4.0737624 -1.0339797
-0.70297486 -4.0590248 -1.0312107
-0.7288928 -4.0603504 -1.032721
-0.75290918 -4.051044 -1.0314623
-0.77519554 -4.0330424 -1.0279381
-0.79031807 -3.9797966 -1.0150998
-0.8110323 -3.9568584 -1.0103168
-0.83769643 -3.9631703 -1.0133376
-0.86837977 -3.9872708 -1.0211413
-0.89473373 -3.9903667 -1.023407
-0.92355025 -4.0036626 -1.0284415
-0.95010787 -4.0063958 -1.0307071
-0.97810781 -4.0145955 -1.0344831
-0.75058341 -3.0001495 -0.76412344
-0.76825631 -2.9926753 -0.76336825
-0.7870971 -2.9897768 -0.76387167
-0.80492318 -2.9830222 -0.76336825
-0.8224383 -2.9752285 -0.76261306
-0.83830738 -2.961745 -0.76034749
-0.86104035 -2.9723489 -0.76462692
-1.1566 -3.9033058 -1.0186241
-1.1816508 -3.8998404 -1.0196309
-1.2107096 -3.9091575 -1.0241622
-1.2378838 -3.9118052 -1.0269312
-1.2359757 -3.8240161 -1.0050305
-1.0838637 -3.284215 -0.85927796
-1.0894797 -3.2343943 -0.84744656
-1.0986136 -3.1965289 -0.83888769
-1.1143657 -3.1787677 -0.83586693
-1.3940543 -3.9000459 -1.0370004
-1.1281152 -3.0957432 -0.81673533
-1.1433841 -3.0787828 -0.81396627
-1.1660198 -3.0816665 -0.81673533
-1.4493343 -3.7608037 -1.0080513
-1.5391878 -3.9221177 -1.0556285
-1.2175199 -3.0470991 -0.81321108
-1.2336421 -3.0332954 -0.81144893
-1.2526008 -3.0265632 -0.8117007
-1.2718989 -3.0206044 -0.81220418
-1.6591547 -3.8739474 -1.0558803
-1.6801888 -3.8574829 -1.0541182
-1.7030426 -3.845331 -1.0536147
-1.7413032 -3.8674619 -1.0629288
-1.7654034 -3.8575847 -1.0631806
-1.7555799 -3.774719 -1.0425385
-1.7646518 -3.7341242 -1.0339797
-1.7871119 -3.7223537 -1.0337279
-1.912982 -3.9227064 -1.0948987
-1.8163369 -3.6671858 -1.0241622
-1.8383693 -3.6551073 -1.0239104
-1.8620822 -3.6463442 -1.0246656
-1.8764044 -3.6193838 -1.0201344
-1.9215586 -3.6514833 -1.0329727
-1.9471185 -3.6456001 -1.0347348
-1.9560791 -3.6089082 -1.0274346
-1.9823829 -3.6044703 -1.0297002
-2.0063481 -3.5956194 -1.0307071
-1.9978654 -3.5293362 -1.0145963
-2.056103 -3.5807998 -1.0337279
-2.1345248 -3.6651332 -1.0629288
-2.1205583 -3.5902991 -1.0443007
-2.1276319 -3.5523107 -1.0367486
-2.1750052 -3.5813785 -1.049587
-2.1857772 -3.5498343 -1.0440489
-2.1875339 -3.5043359 -1.0342314
-2.2079599 -3.4892118 -1.0337279
-2.2376869 -3.4886329 -1.0377556
-2.2775104 -3.503238 -1.0465662
-2.2781997 -3.4576776 -1.0367486
-2.3224785 -3.4782453 -1.0475732
-2.3247974 -3.435873 -1.0387626
-2.3398166 -3.4127629 -1.0359935
-2.3656816 -3.4054959 -1.038259
-2.4032409 -3.4146607 -1.0458111
-2.4336979 -3.4132473 -1.0500904
-2.4409969 -3.37942 -1.0440489
-2.4794004 -3.388593 -1.0518526
-2.5001457 -3.3733158 -1.0518526
-2.5004635 -3.3308206 -1.0430419
-2.5401819 -3.3408403 -1.0513492
-2.5771644 -3.3466628 -1.0583977
-2.6030066 -3.3376553 -1.0606632
-2.6504269 -3.3558002 -1.0719911
-2.6395378 -3.3001702 -1.0589011
-2.6560833 -3.2793994 -1.0573907
-2.6957922 -3.2869883 -1.0654461
-2.6213202 -3.1564627 -1.0269312
-2.6288056 -3.1262443 -1.0221483
-2.8562102 -3.3547225 -1.1057231
-2.8950639 -3.3583934 -1.1130234
-2.6922674 -3.0846188 -1.0246656
-2.8764656 -3.255163 -1.0896124
-2.9215484 -3.265584 -1.0994298
-2.9207423 -3.2246406 -1.0913744
-2.9633644 -3.2316263 -1.100185
-2.9910381 -3.2218945 -1.1032058
-3.0359347 -3.2302818 -1.1127716
-3.0823798 -3.239641 -1.1228409
-2.9336948 -3.045696 -1.0596563
-3.2293234 -3.3117526 -1.1628662
-3.3175671 -3.3607559 -1.1880393
-4.7041779 -4.7075214 -1.6907473
-2.8871145 -2.8537107 -1.0156033
-2.9004157 -2.8318849 -1.0140928
-3.4568577 -3.3340952 -1.2089331
-3.4394152 -3.2767696 -1.1953396
-3.2670648 -3.0745194 -1.1266168
-3.4573948 -3.2138877 -1.1875359
-3.4578037 -3.1749384 -1.1807392
-3.43206 -3.1126976 -1.16488
-3.4417241 -3.0831845 -1.1616075
-3.327224 -2.9439938 -1.115289
-3.6461654 -3.186573 -1.219254
-3.1411345 -2.7113118 -1.0390143
-3.1525567 -2.6875916 -1.0372522
-3.2644827 -2.7486165 -1.0697255
-3.277566 -2.72544 -1.0684669
-3.3144195 -2.7218633 -1.0752636
-3.335568 -2.7051332 -1.076774
-3.3589015 -2.6900611 -1.0790396
-3.3457415 -2.6459849 -1.0692221
-3.3176768 -2.5908535 -1.0546216
-3.2783341 -2.5278926 -1.036497
-3.3892589 -2.5804346 -1.0677117
-5.0039539 -3.7617478 -1.5880408
-3.4533079 -2.562876 -1.0782844
-3.3706093 -2.4695592 -1.0465662
-3.3668799 -2.4352169 -1.0405247
-3.3557682 -2.3959517 -1.0322175
-3.4083755 -2.4020805 -1.0443007
-3.4087505 -2.3711729 -1.0397695
-3.450361 -2.3688393 -1.0483284
-3.5433443 -2.4008315 -1.072998
-3.5049136 -2.3435359 -1.0563837
-3.470762 -2.2900021 -1.0412799
-3.4863698 -2.2697191 -1.0417833
-3.5303578 -2.2676396 -1.0510974
-3.5491099 -2.2490437 -1.0526078
-3.5390456 -2.2123449 -1.0453075
-3.5492587 -2.188556 -1.0443007
-3.5485647 -2.1581864 -1.0400212
-3.5775082 -2.1458321 -1.0448041
-3.5989368 -2.1287684 -1.0473214
-3.6102591 -2.1056705 -1.0468179
-3.6365342 -2.0911992 -1.0508456
-3.6560321 -2.0726655 -1.0528595
-3.6982481 -2.0667205 -1.0616701
-3.6828868 -2.0285783 -1.053363
-3.6501873 -1.981467 -1.0400212
-3.6076634 -1.9298121 -1.0239104
-3.62971 -1.9130554 -1.0269312
-3.6525455 -1.8965467 -1.0302037
-3.7071931 -1.8961388 -1.0427903
-3.7161651 -1.8720497 -1.0420351
-3.7743962 -1.8724421 -1.0556285
-3.8084228 -1.8602939 -1.0621736
-3.8345921 -1.8440224 -1.066453
-3.8580806 -1.8262571 -1.0699773
-3.8885128 -1.8115431 -1.0755154
-3.9136305 -1.7941036 -1.0795431
-3.9695566 -1.7903532 -1.0923814
-4.0052361 -1.7769544 -1.0994298
-4.0240469 -1.7558293 -1.1016954
-4.0685406 -1.7456088 -1.1112612
-4.0961165 -1.7277598 -1.1160442
-4.1236262 -1.7096379 -1.1208271
-4.2030487 -1.7124269 -1.1402104
-4.2943377 -1.7189811 -1.1628662
-4.3138113 -1.6961414 -1.1653835
-4.3909445 -1.6954427 -1.1840117
-4.4039798 -1.6694978 -1.1847669
-4.4359093 -1.6505458 -1.1908084
-4.5986767 -1.6790731 -1.2330993
-4.6070704 -1.6501716 -1.2325958
-4.8672915 -1.7097775 -1.3015703
-4.925272 -1.6962713 -1.3146603
-5.0016074 -1.6883091 -1.332785
-5.1212125 -1.6937594 -1.362741
-5.2926264 -1.71451 -1.4067941
-5.3445587 -1.6951725 -1.4181219
-5.4047699 -1.6778449 -1.4317155
-5.9585295 -1.8097855 -1.579482
-6.0687876 -1.8026834 -1.6064172
-6.3009291 -1.8296567 -1.6663293
-6.3576574 -1.8039076 -1.6786641
-6.3266382 -1.7532309 -1.6673362
-6.4297624 -1.7394038 -1.6922576
-6.5189161 -1.7206707 -1.7134031
-6.6127648 -1.7021147 -1.7358072
-6.7347894 -1.6895373 -1.7657633
-6.8305802 -1.6690917 -1.7886708
-7.0045171 -1.6661259 -1.8324721
-7.2955842 -1.6881471 -1.9074881
-7.3681221 -1.6573713 -1.9241024
-7.3980079 -1.6164696 -1.9293888
-7.421988 -1.5740584 -1.9331647
-7.4561529 -1.5335588 -1.9397098
-7.4540329 -1.4855094 -1.936689
-7.4468532 -1.436627 -1.9324095
-7.4859715 -1.3965882 -1.940465
-7.4610643 -1.3446194 -1.9316543
-7.4234076 -1.290853 -1.9195713
-7.4264159 -1.2444795 -1.9183125
-7.4711742 -1.2048999 -1.9281301
-7.4841652 -1.1599246 -1.9296405
-7.4844403 -1.1129839 -1.9278784
-7.5074167 -1.0693603 -1.9321579
-7.5349336 -1.0261496 -1.9376959
-7.5074978 -0.97553033 -1.9288853
-7.5363932 -0.93229967 -1.9349269
-7.4987187 -0.88095593 -1.9235989
-7.5607328 -0.84124529 -1.9384511
-7.5551648 -0.79372483 -1.9356821
-7.572413 -0.74859065 -1.9389546
-7.5286803 -0.69764566 -1.926368
-7.5482464 -0.65277237 -1.9303957
-7.5328159 -0.60489458 -1.925361
-7.5402465 -0.55894911 -1.926368
-7.5667076 -0.51424861 -1.9324095
-7.5726185 -0.46798974 -1.9331647
-7.5695496 -0.4211933 -1.9316543
-7.5603919 -0.37416485 -1.9286336
-7.5702806 -0.32810375 -1.9306474
-7.5528088 -0.28092676 -1.9256128
-7.5543904 -0.2345783 -1.9256128
-7.2182827 0.53018069 -1.9313992
-7.2177792 0.57469147 -1.9321878
-7.2285361 0.62020761 -1.9361308
-7.1928892 0.66162789 -1.9274563
-7.1829333 0.70518363 -1.9258791
-7.1698346 0.7483412 -1.9235133
-7.1708617 0.7929576 -1.9250906
-7.1706529 0.83750266 -1.9264048
-7.170167 0.88207495 -1.9277191
-7.1837568 0.92853034 -1.9329764
-7.1597586 0.97012722 -1.927982
-7.1422081 1.0124136 -1.9248277
-7.1263175 1.0548041 -1.922199
-7.1235251 1.0990996 -1.9232504
-7.0995002 1.1400318 -1.9185189
-7.1075978 1.1861155 -1.9227247
-7.0935316 1.2285509 -1.9208847
-7.0887089 1.2725649 -1.9216733
-7.0807672 1.3160363 -1.9216733
-7.0782433 1.3605521 -1.9232504
-7.0640841 1.4028292 -1.9216733
-7.0496726 1.4449838 -1.9200962
-7.0368977 1.4874139 -1.9190447
-7.0257535 1.5301526 -1.9185189
-7.0237637 1.5749229 -1.9206219
-7.0008063 1.614952 -1.9169418
-7.0039082 1.6609968 -1.9206219
-7.0001459 1.7055405 -1.9224619
-6.9661503 1.7426032 -1.9158903
-6.959065 1.786274 -1.9169418
-6.9330454 1.8250082 -1.9127359
-6.9114704 1.8647479 -1.9098445
-6.9026885 1.9078923 -1.9106331
-6.8954935 1.951525 -1.9119474
-6.884316 1.9940668 -1.9122102
-6.8691759 2.0354478 -1.9114217
-6.866714 2.0806372 -1.9143132
-6.8169541 2.1113076 -1.9037986
-6.8691788 2.1737745 -1.9224619
-6.8511214 2.2143974 -1.9211476
-6.8218303 2.2512507 -1.9166789
-6.7813735 2.2841308 -1.9090558
-6.7873034 2.3325996 -1.9148389
-6.7710419 2.3735631 -1.9143132
-6.7445402 2.410841 -1.9108959
-6.7432179 2.4571364 -1.9148389
-6.7162566 2.4940975 -1.9114217
-6.7143621 2.5403843 -1.9153646
-6.6923466 2.5791051 -1.9135245
-6.6701088 2.6176519 -1.9116845
-6.6404829 2.6531577 -1.9077415
-6.6339092 2.6978528 -1.9106331
-6.6323853 2.7447815 -1.9151018
-6.6029701 2.7801816 -1.9114217
-6.5671635 2.8126643 -1.9059016
-6.5577421 2.8563757 -1.9082673
-6.5427384 2.897732 -1.9090558
-6.5301132 2.9402003 -1.9106331
-6.4952817 2.9725816 -1.9056387
-6.4428039 2.996506 -1.8953871
-6.4304023 3.0388687 -1.897227
-6.4472933 3.0953946 -1.9080044
-6.4221091 3.1319349 -1.9061644
-6.4105515 3.1751366 -1.9085301
-6.402153 3.2200489 -1.9119474
-6.3668094 3.25137 -1.9072158
-6.3467393 3.2903748 -1.9072158
-6.3102093 3.3207159 -1.9022214
-6.2760992 3.3520973 -1.8980156
-6.2884917 3.4084797 -1.9082673
-6.2649231 3.4456058 -1.9074787
-6.2158623 3.4684625 -1.8988042
-6.2297249 3.5265055 -1.9098445
-6.197093 3.5584164 -1.9064273
-6.1751423 3.596374 -1.9064273
-6.1562819 3.6361594 -1.9074787
-6.1288891 3.6708899 -1.9059016
-6.1276889 3.721452 -1.9127359
-6.0932379 3.7518966 -1.9090558
-6.0750122 3.7922797 -1.9106331
-6.0394006 3.821743 -1.9066901
-5.9914761 3.8430965 -1.8988042
-5.9629292 3.876631 -1.897227
-5.9325862 3.9088981 -1.8951242
-5.9133039 3.9484417 -1.8967013
-5.8865681 3.9830282 -1.8959128
-5.8771358 4.0294409 -1.9009072
-5.8507161 4.0643253 -1.9003814
-5.8367128 4.1079245 -1.9040614
-5.8004003 4.1358166 -1.9003814
-5.7866449 4.1798058 -1.9043244
-5.7445393 4.2032661 -1.8988042
-5.7201905 4.239584 -1.89933
-5.6948404 4.2751818 -1.8995929
-5.6677337 4.3094602 -1.89933
-5.6396556 4.342978 -1.8988042
-5.6083374 4.3739395 -1.897227
-5.5753374 4.4034843 -1.8951242
-5.5730743 4.4575024 -1.9037986
-5.5343738 4.4825039 -1.8998557
-5.5060196 4.5157657 -1.8995929
-5.5026989 4.5698104 -1.9082673
-5.4531431 4.5854774 -1.9006443
-5.4293118 4.6226044 -1.9022214
-5.397923 4.6533108 -1.90117
-5.3452849 4.6654034 -1.8924955
-5.3129435 4.6949186 -1.8911812
-5.2782841 4.7222824 -1.8890783
-5.2592196 4.7636499 -1.8927584
-5.2462444 4.8108311 -1.8988042
-5.2166266 4.8429308 -1.8988042
-5.1910305 4.8788137 -1.9003814
-5.155406 4.905252 -1.8982785
-5.1224318 4.9341149 -1.897227
-5.0968947 4.9701686 -1.899067
-5.0594373 4.9945693 -1.8964385
-5.0273314 5.0241551 -1.8959128
-4.9957309 5.0542216 -1.8956499
-4.9679942 5.088232 -1.8969642
-4.9366798 5.1186194 -1.8969642
-4.9058452 5.1495123 -1.897227
-4.880106 5.185842 -1.8995929
-4.840313 5.2072067 -1.8964385
-4.7984848 5.2261462 -1.8924955
-4.7747521 5.2647829 -1.8959128
-4.73914 5.2903876 -1.8945985
-4.7117033 5.3251481 -1.8967013
-4.6522789 5.323441 -1.8856611
-4.6094427 5.340199 -1.8814553
-4.6135125 5.4117074 -1.8969642
-4.5709004 5.4288411 -1.8930212
-4.5344195 5.4530754 -1.8917069
-4.5039358 5.4845243 -1.8930212
-4.4866042 5.5322924 -1.9001186
-4.4296603 5.5310965 -1.8901298
-4.3956385 5.5581722 -1.8901298
-4.3525457 5.5736308 -1.8861868
-4.3276892 5.6124592 -1.8903927
-4.2762246 5.6166425 -1.8827696
-4.2584901 5.665144 -1.8903927
-4.2334218 5.7043395 -1.8948613
-4.196631 5.7278728 -1.8940727
-4.1376629 5.7206764 -1.8830324
-4.090713 5.7294655 -1.8775123
-4.056592 5.7560353 -1.878038
-4.0151381 5.7721038 -1.8751466
-4.0031219 5.8308387 -1.8864497
-3.9629405 5.8489008 -1.8843467
-3.9259055 5.8715024 -1.883821
-3.8961792 5.9051461 -1.8869754
-3.8798709 5.9596705 -1.8969642
-3.8468792 5.989048 -1.8988042
-3.8028302 6.0011282 -1.8951242
-3.7638912 6.0210762 -1.8940727
-3.7258632 6.0424151 -1.8935469
-3.6922262 6.0709338 -1.8953871
-3.6603637 6.1025772 -1.8982785
-3.6169574 6.1149554 -1.8951242
-3.5672197 6.1161957 -1.8885525
-3.5402026 6.1563711 -1.8943356
-3.5080695 6.1880507 -1.8974899
-3.453095 6.1791358 -1.8880268
-3.4216306 6.2120399 -1.8917069
-3.3903522 6.2456379 -1.8956499
-3.3615198 6.2841911 -1.90117
-3.3067076 6.2739682 -1.8917069
-3.2761495 6.3095541 -1.8964385
-3.2689962 6.3913903 -1.9153646
-3.1893623 6.3311858 -1.8909184
-3.1538839 6.3575516 -1.8930212
-3.1330183 6.4140649 -1.9043244
-3.0852435 6.4157763 -1.899067
-3.0379784 6.4180155 -1.8940727
-3.0095379 6.4601512 -1.90117
-2.9638138 6.4653387 -1.897227
-2.9113984 6.455256 -1.8888154
-2.8991137 6.5347385 -1.9072158
-2.8431489 6.5161443 -1.8964385
-2.8122396 6.5547485 -1.9027472
-2.7652206 6.5558777 -1.8980156
-2.7426717 6.6155052 -1.9106331
-2.6925671 6.6089764 -1.9037986
-2.6598492 6.645081 -1.9095817
-2.5950291 6.6002135 -1.8917069
-2.5680296 6.6511173 -1.9019586
-2.533324 6.6829896 -1.9066901
-2.4952972 6.7065468 -1.9090558
-2.4481461 6.7054167 -1.9043244
-2.4050052 6.7148619 -1.9027472
-2.3771815 6.7677274 -1.9137874
-2.3337269 6.7767124 -1.9122102
-2.2914848 6.7890759 -1.9116845
-2.2382789 6.7681966 -1.9016957
-2.2032454 6.8019977 -1.9074787
-2.1707964 6.84482 -1.9158903
-2.109031 6.7944269 -1.8977528
-2.0838344 6.861711 -1.9132617
-2.0342796 6.8493948 -1.9061644
-1.9992048 6.8858399 -1.9129988
-1.9508634 6.8766274 -1.906953
-1.9001358 6.8577833 -1.8982785
-1.8587768 6.8721075 -1.899067
-1.8190358 6.8927126 -1.9016957
-1.7661347 6.8626294 -1.8901298
-1.7336109 6.9117084 -1.9009072
-1.6920841 6.9259648 -1.9019586
-1.6450938 6.9174428 -1.8967013
-1.5987066 6.9104862 -1.8919698
-1.5545822 6.9126348 -1.8898669
-1.5156357 6.9380679 -1.8943356
-1.4710363 6.9377985 -1.8917069
-1.4296042 6.9523644 -1.8932841
-1.3904974 6.9789844 -1.8982785
-1.3500224 6.9997015 -1.9016957
-1.31235 7.0363083 -1.9095817
-1.2671002 7.0328336 -1.9064273
-1.2259049 7.0518832 -1.9095817
-1.1827716 7.0602241 -1.9098445
-1.1401956 7.0721111 -1.9111588
-1.0973707 7.082788 -1.9122102
-1.0574338 7.1132474 -1.9187818
-1.0136321 7.1186466 -1.9185189
-0.97019374 7.1266441 -1.9190447
-0.92321998 7.1075859 -1.9122102
-0.87900001 7.1083288 -1.9108959
-0.8373903 7.1308374 -1.9156275
-0.78850889 7.0898123 -1.90301
-0.745193 7.096436 -1.9035357
-0.70192021 7.1037555 -1.9043244
-0.65565449 7.0791063 -1.8964385
-0.6176787 7.1464396 -1.9137874
-0.57312411 7.1414394 -1.9114217
-0.53078789 7.1650276 -1.9169418
-0.48446625 7.1334953 -1.9074787
-0.44193235 7.1565566 -1.9129988
-0.39897346 7.1764741 -1.9177303
-0.3550269 7.1807146 -1.918256
-0.30950505 7.1490197 -1.9090558
-0.26670346 7.1797094 -1.9169418
-0.2227338 7.184104 -1.9177303
-0.17812461 7.1641154 -1.9119474
-0.13283798 7.0936885 -1.8924955
-0.090280391 7.1725154 -1.9137874
-0.04619009 7.1603918 -1.9103702
-0.0022535909 7.1586103 -1.9098445
0.041688178 7.1613841 -1.9106331
0.085652202 7.1629229 -1.9111588
0.12940773 7.1516514 -1.9082673
0.17314582 7.1449351 -1.9066901
0.21710084 7.1475959 -1.9077415
0.26049384 7.133595 -1.9043244
0.30558082 7.1627088 -1.9127359
0.35009098 7.1722627 -1.9158903
0.39340219 7.1574559 -1.9124731
0.43772522 7.1616488 -1.9143132
0.48172495 7.1597905 -1.9145761
0.52416009 7.1364932 -1.9090558
0.56632751 7.1129451 -1.9035357
0.61210954 7.1343298 -1.9103702
0.65383726 7.1083422 -1.9043244
0.69677997 7.0974751 -1.9024843
0.74272364 7.1160965 -1.908793
0.78520501 7.1008568 -1.9059016
0.8302173 7.1083632 -1.9093188
0.8729921 7.0964322 -1.9074787
0.91726154 7.096683 -1.9090558
0.96001047 7.0851846 -1.9074787
1.0022461 7.0705633 -1.905113
1.0473086 7.0757337 -1.9082673
1.0874646 7.0481968 -1.9024843
1.1308442 7.0423441 -1.9027472
1.1773722 7.0552573 -1.9082673
1.2156962 7.0193806 -1.9003814
1.2636918 7.0393281 -1.9080044
1.3040372 7.0162649 -1.9037986
1.3488864 7.0176063 -1.9064273
1.3883467 6.9912171 -1.9014329
1.4347078 6.9995794 -1.9061644
1.473436 6.9708219 -1.9006443
1.5178242 6.9691916 -1.9027472
1.557389 6.9456258 -1.8988042
1.6014965 6.9425197 -1.9006443
1.6391634 6.9119096 -1.8948613
1.6829145 6.9073462 -1.8964385
1.7226883 6.8865943 -1.8935469
1.7658713 6.8796325 -1.8945985
1.8087881 6.8714671 -1.8953871
1.8526769 6.8667593 -1.897227
1.8947756 6.8552623 -1.897227
1.9404836 6.8565035 -1.9009072
1.9801005 6.8361278 -1.8985413
2.0181692 6.8108988 -1.8948613
2.0590823 6.7956176 -1.8940727
2.0981703 6.7745609 -1.8917069
2.1429024 6.7716775 -1.8945985
2.1832247 6.7547293 -1.8935469
2.2206972 6.7292957 -1.8901298
2.2579401 6.7036572 -1.8867126
2.3062463 6.7106614 -1.8927584
2.3502526 6.7045784 -1.8951242
2.3864732 6.6764045 -1.8911812
2.4340034 6.6797647 -1.8964385
2.4601586 6.6249094 -1.8848726
2.5202315 6.6611233 -1.8998557
2.5551553 6.6302304 -1.8953871
2.5883844 6.5955672 -1.8898669
2.6338191 6.592104 -1.8935469
2.6614914 6.5445399 -1.8843467
2.697907 6.5191712 -1.8817182
2.733737 6.4927139 -1.8788266
2.7727642 6.4740438 -1.8783009
2.8147485 6.4622159 -1.8798782
2.8531744 6.4421768 -1.8790895
2.8886864 6.4157519 -1.8764609
2.9247854 6.3908882 -1.8743579
2.9602807 6.3649487 -1.8719922
3.0067024 6.3623657 -1.8767238
3.0494442 6.351625 -1.8790895
3.0705912 6.2963743 -1.8680493
3.1155927 6.2903829 -1.8719922
3.158468 6.2797666 -1.8746209
3.1969404 6.2602682 -1.8746209
3.2272966 6.2251177 -1.8698894
3.2613873 6.1975141 -1.8675236
3.2938969 6.1671743 -1.8643692
3.3353553 6.1536326 -1.8664721
3.3628182 6.1144543 -1.8606892
3.4007428 6.0945477 -1.860952
3.4437795 6.0836411 -1.8641063
3.480082 6.0607228 -1.8635806
3.5181758 6.0409226 -1.8641063
3.5546851 6.0183911 -1.8638434
3.5796449 5.976603 -1.8575348
3.6227617 5.9652457 -1.860952
3.6425972 5.9157953 -1.8522775
3.7013133 5.9293418 -1.8638434
3.7242079 5.885324 -1.8570091
3.7670231 5.8729181 -1.8604263
3.810878 5.8618259 -1.8643692
3.8473048 5.839138 -1.8646321
3.8852043 5.8186307 -1.8656836
3.9229968 5.7978783 -1.866735
3.9546781 5.7681284 -1.864895
3.9844904 5.7358313 -1.8622663
4.0251641 5.7191639 -1.864895
4.0741873 5.7139959 -1.8714665
4.1142569 5.6959276 -1.8738322
4.1377316 5.655005 -1.868575
4.1677551 5.6233091 -1.8664721
4.2097125 5.6076603 -1.8698894
4.2376161 5.573277 -1.8669978
4.2882195 5.568572 -1.8743579
4.3240876 5.5444374 -1.8751466
4.3634095 5.5246143 -1.8775123
4.4014449 5.5030107 -1.8793523
4.4302688 5.469903 -1.8772495
4.4741516 5.455297 -1.8817182
4.5050745 5.4247727 -1.8806667
4.511569 5.3652787 -1.8693635
4.5494094 5.3433719 -1.8714665
4.5758095 5.3080497 -1.8688378
4.6197147 5.2929554 -1.8735694
4.6514659 5.2637868 -1.8733065
4.6765985 5.2272387 -1.8704151
4.7176538 5.2084551 -1.8740951
4.7403927 5.169456 -1.8704151
4.7634873 5.1310811 -1.8669978
4.8008294 5.1080828 -1.8693635
4.8500414 5.0973992 -1.8764609
4.8885913 5.0751863 -1.8793523
4.9001026 5.0250659 -1.8717294
4.9410124 5.0052028 -1.8756723
4.9743595 4.97752 -1.8767238
5.0000033 4.9421573 -1.8748838
5.0364475 4.9174504 -1.8772495
5.0595798 4.8797579 -1.8746209
5.0866318 4.8459592 -1.8735694
5.1204867 4.818624 -1.8751466
5.1626787 4.7989364 -1.8798782
5.1692815 4.7462907 -1.8714665
5.1990218 4.7151313 -1.8717294
5.217793 4.6741309 -1.8680493
5.2557697 4.6503372 -1.8714665
5.2892909 4.6224442 -1.8733065
5.3226676 4.5943151 -1.8751466
5.3338675 4.5471754 -1.8691007
5.4059582 4.55164 -1.8848726
5.3929768 4.4844618 -1.8704151
5.4174085 4.4488382 -1.8693635
5.4738336 4.4392104 -1.8796153
5.5032282 4.4073491 -1.8804039
5.5445485 4.3848681 -1.8853983
5.5492935 4.3335471 -1.8777752
5.5887699 4.3094292 -1.8822439
5.611268 4.2721343 -1.8809296
5.6273484 4.2300892 -1.8775123
5.6477737 4.1914563 -1.8756723
5.6811695 4.1624246 -1.8783009
5.6980023 4.1212687 -1.8754095
5.771873 4.1209803 -1.8917069
5.7875853 4.0788193 -1.8885525
5.8148799 4.0448828 -1.8893412
5.8586812 4.0222301 -1.8956499
5.8592858 3.9699743 -1.887764
5.8923583 3.9398453 -1.8906555
5.9204488 3.9062724 -1.8919698
5.9507751 3.8740821 -1.8940727
5.9330282 3.8109095 -1.8806667
5.9856424 3.7930205 -1.8901298
5.9858928 3.7419055 -1.8827696
6.0161324 3.7096627 -1.8851354
6.059392 3.685209 -1.8917069
6.0794072 3.6464715 -1.8909184
6.1149554 3.6169574 -1.8951242
6.1453686 3.5842283 -1.8977528
6.1689186 3.547415 -1.8982785
6.164547 3.49475 -1.8901298
6.2246208 3.4785039 -1.9022214
6.2365503 3.4351258 -1.89933
6.269383 3.4032369 -1.90301
6.2807875 3.3597 -1.9001186
6.292748 3.3166015 -1.8974899
6.306129 3.2743716 -1.8953871
6.3175106 3.2312241 -1.8927584
6.3441119 3.1958714 -1.8948613
6.3592801 3.1547413 -1.8935469
6.3958578 3.1241286 -1.8988042
6.4131675 3.0839894 -1.8982785
6.4284811 3.0429304 -1.897227
6.4417834 3.0009849 -1.8956499
6.4399018 2.9521582 -1.8896041
6.4649315 2.9157603 -1.8917069
6.5223904 2.8936379 -1.9035357
6.5294099 2.8489344 -1.9003814
6.5627289 2.8156619 -1.905113
6.5558777 2.7652206 -1.8980156
6.6048093 2.7382395 -1.9074787
6.6143379 2.6947505 -1.9053758
6.6370187 2.6566236 -1.9072158
6.6433167 2.6119678 -1.9043244
6.6709199 2.5756719 -1.9077415
6.6793804 2.5319567 -1.9056387
6.7038341 2.4942882 -1.9082673
6.7090421 2.4494691 -1.9053758
6.7184954 2.406306 -1.9037986
6.7285819 2.3634388 -1.9024843
6.75208 2.3252485 -1.905113
6.760735 2.2819242 -1.9035357
6.7837701 2.2434263 -1.9061644
6.782721 2.197005 -1.9019586
6.8181477 2.1623421 -1.9082673
6.822072 2.1176074 -1.9056387
6.837707 2.0765486 -1.9064273
6.8595691 2.0372996 -1.9090558
6.8719406 1.9951718 -1.9090558
6.9072595 1.9595482 -1.9156275
6.9024158 1.9124947 -1.9108959
6.9130893 1.8698545 -1.9106331
6.900176 1.8210042 -1.9037986
6.9457936 1.7875229 -1.9135245
6.9276185 1.7375987 -1.9053758
6.966269 1.7019238 -1.9132617
6.9756417 1.6589246 -1.9129988
6.9772291 1.6141357 -1.9106331
6.9813538 1.5700246 -1.9090558
6.9974542 1.5285987 -1.9108959
7.0142531 1.4872341 -1.9129988
7.0090699 1.4412547 -1.9090558
7.0480618 1.4042488 -1.9174675
7.0527558 1.3602459 -1.916416
7.0543299 1.3157083 -1.9145761
7.0565729 1.2713734 -1.9129988
7.0271673 1.2216125 -1.9027472
7.0440469 1.1800641 -1.9053758
7.0559177 1.1375875 -1.9066901
6.4744673 1.0032215 -1.7445037
6.4671397 0.961492 -1.7408236
5.8720841 0.83633786 -1.575483
5.8704128 0.79938173 -1.573643
5.813971 0.75540245 -1.5568197
5.8012605 0.71758586 -1.5520881
5.8045959 0.68186408 -1.5518253
5.7885332 0.64399862 -1.5463052
5.784699 0.60766387 -1.5442023
5.7844777 0.57177931 -1.5431508
5.7734666 0.53494328 -1.5392079
5.7622209 0.49826398 -1.535265
5.7719021 0.4634375 -1.537105
5.7621284 0.42708841 -1.5336878
5.7646403 0.39172462 -1.5336878
0 0 -0
0 0 -0
0 0 -0
0 0 -0
0 0 -0
0 0 -0
0 0 -0
0 0 -0
0 0 -0
0 0 -0
0 0 -0
0 -0 -0
0 -0 -0
0 -0 -0
0 -0 -0
0 -0 -0
0 -0 -0
0 -0 -0
0 -0 -0
0 -0 -0
0 -0 -0
0 -0 -0
0 -0 -0
0 -0 -0
0 -0 -0
6.0236406 -0.55388677 -1.6075522
6.5741653 -0.6453191 -1.7592241
7.1967034 -0.75114995 -1.9308735
7.2226462 -0.79869235 -1.9392852
7.235817 -0.84512419 -1.9442796
7.1969795 -0.88537782 -1.9350793
7.2344699 -0.93509352 -1.9469081
7.2314644 -0.97985488 -1.9476967
7.2090764 -1.0219033 -1.943228
7.1730838 -1.0617338 -1.9350793
7.017684 -1.0827518 -1.8940727
6.7622781 -1.0858251 -1.8254656
6.6194029 -1.1045648 -1.7878761
6.5145836 -1.128185 -1.7608012
6.4258709 -1.1534619 -1.7381951
6.3570161 -1.1813989 -1.7211089
6.2539539 -1.2019727 -1.6945598
6.2123933 -1.2335526 -1.6850967
6.2765388 -1.2863834 -1.7050743
6.3072295 -1.3330584 -1.7158517
6.2631087 -1.3639257 -1.7058629
6.2866302 -1.4095124 -1.7148002
6.2675219 -1.4456726 -1.7119088
6.2472687 -1.4814287 -1.7087544
6.2296247 -1.5176764 -1.7063886
6.2220669 -1.5563407 -1.7069144
6.1806273 -1.5863283 -1.6979771
6.1595812 -1.6212728 -1.6948227
6.1374083 -1.6557676 -1.6914054
6.077847 -1.6797637 -1.6774738
6.0720677 -1.7183394 -1.6787881
6.0419493 -1.7499244 -1.673268
6.0384984 -1.7891582 -1.6753708
6.0329466 -1.8278557 -1.6769481
6.0280685 -1.866838 -1.6787881
5.9925847 -1.8962179 -1.6719537
5.9771652 -1.9317646 -1.6709021
5.967948 -1.9693109 -1.6716907
5.9219227 -1.9944918 -1.6619649
5.9132228 -2.0320454 -1.6630163
5.9097476 -2.0714834 -1.6656449
5.8978348 -2.1080308 -1.6659077
5.8775373 -2.1415358 -1.6638049
5.865191 -2.1778953 -1.6640677
5.7966738 -2.1930065 -1.6480331
5.8038139 -2.2365162 -1.654079
5.8124342 -2.2809012 -1.6606505
5.791162 -2.3136578 -1.6585476
5.7509394 -2.3386033 -1.6509246
5.7382646 -2.3745847 -1.6514503
5.714695 -2.4060037 -1.6488217
5.7157879 -2.4478631 -1.6535532
5.6918154 -2.4790342 -1.6509246
5.6976681 -2.5232923 -1.6572334
5.6970329 -2.5649414 -1.6617019
5.7039962 -2.6102924 -1.6685364
5.6826239 -2.6428001 -1.6669593
5.6532168 -2.6714325 -1.6630163
5.623673 -2.6998038 -1.6590734
5.6286802 -2.7448356 -1.6656449
5.6108675 -2.7788925 -1.665382
5.5919871 -2.8124006 -1.6648563
5.5402575 -2.8291016 -1.6543418
5.5030947 -2.8528256 -1.648296
5.4991465 -2.8937297 -1.6525018
5.4940519 -2.9342377 -1.6564447
5.4878187 -2.9743319 -1.6601248
5.4635482 -3.004693 -1.6582848
5.4382691 -3.0343978 -1.6561818
5.4145107 -3.0648568 -1.6546047
5.4073157 -3.1047499 -1.6582848
5.3889971 -3.1383557 -1.6585476
5.3804379 -3.1777437 -1.6619649
5.3591833 -3.2097056 -1.6614391
