# .PCD v0.7 - Point Cloud Data file format
VERSION 0.7
FIELDS x y z
SIZE 4 4 4
TYPE F F F
COUNT 1 1 1
WIDTH 1554
HEIGHT 1
VIEWPOINT 0 0 0 1 0 0 0
POINTS 1554
DATA ascii
-5.6164422 8.1815834 -1.9346603
-5.5798855 8.2361927 -1.9395375
-5.5216136 8.2588596 -1.9368063
-5.4800143 8.3065023 -1.9401228
-5.4150343 8.3185978 -1.9350505
-5.3744888 8.3681736 -1.9389523
-5.3261905 8.4059649 -1.9401228
-5.2745123 8.4384871 -1.9401228
-5.2030792 8.4389648 -1.9327093
-5.156805 8.47995 -1.9348553
-5.1147633 8.5282555 -1.9387572
-5.0733204 8.5780525 -1.9430492
-5.0156512 8.6005468 -1.9410982
-4.9676728 8.6396637 -1.9430492
-4.916018 8.6725426 -1.9436344
-4.8641462 8.7051115 -1.9442197
-4.8305092 8.7708788 -1.9524136
-4.775198 8.7977667 -1.9518282
-4.727138 8.8381453 -1.9543644
-4.6773911 8.8756609 -1.9563153
-4.6287165 8.9155102 -1.9588515
-4.5806222 8.9568434 -1.9617778
-4.522049 8.9777727 -1.9602171
-4.4716702 9.0150156 -1.9623631
-4.4080944 9.0255384 -1.9586564
-4.3658042 9.0798187 -1.9647042
-4.3045559 9.0949106 -1.962168
-4.2552938 9.1353779 -1.9652895
-4.1967092 9.1559658 -1.964119
-4.1545582 9.2128382 -1.970947
-4.1031194 9.2498131 -1.9734832
-4.0502071 9.2838049 -1.9754342
-3.9950995 9.3129883 -1.9764096
-3.9344518 9.3291931 -1.9746538
-3.8782613 9.3558769 -1.975239
-3.8244805 9.3885813 -1.97719
-3.7700803 9.4200659 -1.9789457
-3.7240469 9.4731455 -1.9853837
-3.6640851 9.4912424 -1.9844083
-3.6109915 9.5273027 -1.9873346
-3.5514393 9.5465221 -1.9867494
-3.4961584 9.5773478 -1.9887003
-3.4386492 9.602313 -1.9894806
-3.3832395 9.6334114 -1.9916266
-3.3160863 9.6308041 -1.9867494
-3.2581844 9.6546869 -1.9875298
-3.2075014 9.700572 -1.9929923
-3.1430862 9.7051401 -1.9898708
-3.0855517 9.7307882 -1.9912364
-3.0260773 9.750474 -1.9914316
-2.9673319 9.7726126 -1.9922119
-2.9064753 9.7878151 -1.9916266
-2.8490968 9.8148832 -1.9935776
-2.787215 9.826519 -1.992407
-2.7321029 9.8623409 -1.9963088
-2.6700015 9.8732376 -1.9951383
-2.6066191 9.8790026 -1.9929923
-2.5405791 9.8739138 -1.9887003
-2.4816153 9.8959761 -1.9900659
-2.425035 9.9281673 -1.9935776
-2.369287 9.9648066 -1.9980646
-2.3107502 9.9906235 -2.0004058
-2.2474701 9.9960022 -1.99865
-2.1863027 10.010562 -1.998845
-2.1282935 10.0401 -2.0021615
-2.0660565 10.050088 -2.0015762
-2.0041599 10.061614 -2.0013812
-1.9472104 10.098762 -2.0064535
-1.87371 10.048811 -1.9939678
-1.8167077 10.086181 -1.9992352
-1.7561284 10.104869 -2.0007958
-1.692798 10.107716 -1.9992352
-1.6294987 10.110166 -1.9976745
-1.5609828 10.078296 -1.9892856
-1.5091983 10.155595 -2.0029418
-1.4429895 10.137475 -1.9974793
-1.3843278 10.172379 -2.0027468
-1.3225161 10.185544 -2.0037222
-1.2604747 10.197361 -2.0045025
-1.191941 10.154249 -1.9943579
-1.1365415 10.223759 -2.0068438
-1.0738906 10.231515 -2.0070388
-1.014172 10.269145 -2.0132816
-0.94590569 10.218531 -2.0019665
-0.88664436 10.264206 -2.0099652
-0.82262981 10.256743 -2.0074289
-0.75881249 10.249861 -2.0050879
-0.69431514 10.230839 -2.0004058
-0.63285321 10.256443 -2.0046978
-0.56600052 10.189625 -1.9906512
-0.50269508 10.177232 -1.9875298
-0.44442335 10.277132 -2.0068438
-0.37754947 10.176754 -1.9863592
-0.31558272 10.194564 -1.9894806
-0.25348428 10.214937 -1.9931874
-0.19109307 10.231991 -1.9963088
-0.12852651 10.250623 -1.9998205
-0.065417744 10.217873 -1.9931874
-0.0027209718 10.219063 -1.9933825
0.060175721 10.251252 -1.9998205
0.12267096 10.217346 -1.9931874
0.18586241 10.243858 -1.99865
0.24897715 10.25331 -2.0007958
0.31119707 10.229042 -1.9963088
0.37395543 10.22694 -1.9963088
0.43619618 10.212694 -1.9939678
0.49961948 10.225499 -1.9970891
0.56165075 10.209511 -1.994553
0.62506443 10.218598 -1.9970891
0.68663085 10.197935 -1.9937726
0.75531143 10.276671 -2.0103552
0.81039745 10.172121 -1.9904561
0.87514919 10.194318 -1.9959186
0.9394837 10.208289 -1.9998205
0.99951136 10.175979 -1.994553
1.0646844 10.195992 -1.9998205
1.1277655 10.19414 -2.0007958
1.1904083 10.188004 -2.0009911
1.2493011 10.151304 -1.9951383
1.3084177 10.119131 -1.9902611
1.3652091 10.072037 -1.9824574
1.4269842 10.063471 -1.9824574
1.4859742 10.036092 -1.9787507
1.5493231 10.038416 -1.9810917
1.6090206 10.0171 -1.9787507
1.6709388 10.009941 -1.979336
1.7340025 10.009164 -1.9812869
1.7978133 10.01185 -1.9840181
1.8581347 9.9948454 -1.9828476
1.9170183 9.9707355 -1.9803114
1.9861916 9.9991875 -1.9885052
2.0435662 9.967597 -1.9846034
2.1044848 9.9539108 -1.9844083
2.1751292 9.9848919 -1.9933825
2.2174568 9.8871422 -1.9762145
2.2774196 9.8704834 -1.9756292
2.3381674 9.8572779 -1.9758244
2.4041822 9.8656149 -1.9805065
2.4668148 9.8592396 -1.9822624
2.5267756 9.8420181 -1.9818721
2.5841196 9.8149481 -1.979531
2.6407154 9.7856503 -1.9767998
2.6991405 9.7635918 -1.9756292
2.7702222 9.7864809 -1.9838231
2.8162944 9.7212553 -1.9738734
2.8836963 9.7301216 -1.979336
2.9365153 9.6897182 -1.9746538
2.9819798 9.6265497 -1.9652895
3.0682287 9.6940937 -1.9832377
3.1059237 9.6078949 -1.9691913
3.1626656 9.5821371 -1.9678257
3.2201481 9.5588331 -1.9670453
3.2710853 9.5166349 -1.9623631
3.3303905 9.4991617 -1.9629483
3.374742 9.4397612 -1.9547546
3.4480529 9.4612637 -1.9637288
3.4841797 9.3810883 -1.9512429
3.5625086 9.4145689 -1.9629483
3.6177382 9.3861265 -1.9615828
3.6562645 9.3153658 -1.9512429
3.7417493 9.3637924 -1.96646
3.7791743 9.2916002 -1.9559251
3.8248596 9.2410507 -1.9500724
3.9028113 9.2680244 -1.9609975
3.9356556 9.1880093 -1.9489019
3.9935255 9.167284 -1.9496822
4.0433426 9.1282606 -1.9465607
4.1041102 9.1140099 -1.9489019
4.1542392 9.0761719 -1.9461706
4.2206092 9.0736313 -1.9512429
4.2812347 9.0582027 -1.9535841
4.3095574 8.9751816 -1.9410982
4.3666973 8.9529772 -1.9420737
4.421114 8.9251356 -1.9418787
4.4687409 8.8838224 -1.9387572
4.5124583 8.8352737 -1.934075
4.5602636 8.7952299 -1.9313438
4.6164289 8.7714233 -1.9323192
4.6747842 8.7515821 -1.9342701
4.7269926 8.7201471 -1.9336848
4.7818279 8.6935568 -1.9342701
4.8307781 8.6563444 -1.9325143
4.8828349 8.6248341 -1.9321241
4.9302902 8.5853558 -1.9299781
4.9858384 8.5600271 -1.9311486
5.0297861 8.5149183 -1.9278321
5.0733685 8.469594 -1.9245156
5.1354265 8.4550686 -1.9284174
5.1764069 8.4058628 -1.9243205
5.2200947 8.3614645 -1.9213941
5.2608094 8.3127031 -1.9174924
5.3074789 8.2736626 -1.9159316
5.352798 8.2327194 -1.9139807
5.4123878 8.2136412 -1.9172972
5.446341 8.1558094 -1.9114445
5.4841866 8.1043692 -1.9071525
5.537694 8.0762281 -1.9085182
5.5737119 8.022768 -1.903836
5.6217046 7.9868131 -1.9034458
5.6649098 7.9441838 -1.901495
5.7238874 7.9235845 -1.9050065
5.7735562 7.8898969 -1.9053967
5.8277006 7.8622012 -1.9073477
5.8722987 7.8215895 -1.906177
5.9023676 7.7619915 -1.9003243
5.9462919 7.7209673 -1.8991538
6.0026045 7.6959352 -1.9020802
6.0393763 7.6458764 -1.8987637
6.0855641 7.6079097 -1.8985686
6.1185474 7.5536613 -1.8942766
6.1635365 7.5144596 -1.8938864
6.2063947 7.4727273 -1.892911
6.2483416 7.4300017 -1.8917404
6.3058963 7.4057093 -1.8954471
6.3403296 7.3542509 -1.8921306
6.3756595 7.3041267 -1.8892043
6.4184079 7.2626643 -1.8886189
6.4589257 7.21876 -1.8874484
6.4965119 7.1717248 -1.8854976
6.5357537 7.1266685 -1.8841319
6.5833635 7.090744 -1.8853024
6.6254039 7.0487866 -1.8849123
6.6563582 6.9952135 -1.8814006
6.6875858 6.9422321 -1.8780841
6.7184143 6.889132 -1.8747675
6.7791657 6.8666215 -1.880035
6.8225579 6.826283 -1.8804252
6.8475709 6.7677474 -1.875743
6.8805456 6.7173834 -1.8734019
6.9131603 6.6668701 -1.8710608
6.968142 6.6378541 -1.8749627
6.9944525 6.581533 -1.8710608
7.0131502 6.5184627 -1.8652081
7.0508471 6.4733186 -1.8646228
7.1042395 6.44245 -1.8683295
7.1429052 6.3980837 -1.8681345
7.1680703 6.3417888 -1.8644278
7.1942916 6.2867174 -1.8611113
7.2305031 6.2405334 -1.860526
7.2522354 6.182055 -1.856234
7.2780256 6.1273341 -1.8531126
7.3313241 6.0957279 -1.8572094
7.4140725 6.0879683 -1.8689148
7.4177656 6.0151849 -1.8603308
7.4430499 5.9603624 -1.8574045
7.4894838 5.9224882 -1.8599406
7.5280018 5.8782325 -1.860526
7.5608211 5.829536 -1.8597456
7.6081553 5.7919436 -1.862672
7.6788344 5.7716656 -1.871451
7.6833844 5.7016501 -1.8638425
7.6747055 5.6225243 -1.8531126
7.7893343 5.6333685 -1.8728167
7.7998042 5.5683746 -1.866964
7.8073654 5.5017705 -1.860526
7.8578868 5.4655204 -1.8646228
7.8888488 5.4155374 -1.8640376
7.9511628 5.3868308 -1.8710608
7.9905896 5.3423023 -1.8726215
8.0289497 5.2969522 -1.8739872
8.0892496 5.2657771 -1.8806202
8.0834436 5.1916671 -1.8716462
8.1076899 5.1372466 -1.8698903
8.1190968 5.0749278 -1.8652081
8.180975 5.0440559 -1.8724265
8.2209902 4.9993682 -1.8745725
8.235528 4.9392486 -1.8708657
8.2563934 4.883132 -1.8687197
8.2980623 4.8392959 -1.871451
8.3292999 4.7892666 -1.8718412
8.3465834 4.7312989 -1.86911
8.3557634 4.6689949 -1.8646228
8.4083109 4.6308823 -1.8700854
8.4176025 4.568912 -1.8657933
8.4991026 4.5458498 -1.877889
8.4964647 4.4776139 -1.8710608
8.5498943 4.438951 -1.8769135
8.6075344 4.4020329 -1.8837417
8.645771 4.3548694 -1.8862779
8.6591492 4.2952023 -1.8833516
8.672121 4.2355351 -1.8804252
8.6864548 4.1767206 -1.877889
8.7207842 4.1275373 -1.8798399
8.7397232 4.0710521 -1.8784742
8.7306557 4.0018239 -1.8710608
8.7720346 3.9558368 -1.8747675
8.8284187 3.9162514 -1.8817908
8.8576765 3.8643601 -1.8829614
8.8758125 3.8076184 -1.8817908
8.8953934 3.7515616 -1.8810104
8.9155273 3.6957834 -1.8804252
8.9425774 3.6428587 -1.8814006
8.952013 3.582819 -1.8786694
8.9628744 3.5235183 -1.8763282
9.0163507 3.4808161 -1.8831564
9.0357046 3.4247322 -1.8827662
9.0703373 3.3743536 -1.8856926
9.068759 3.3105664 -1.8810104
9.104599 3.2604787 -1.8843269
9.1383152 3.2094259 -1.8872533
9.1439247 3.1485057 -1.8843269
9.1751528 3.096416 -1.8868631
9.1660423 3.0308261 -1.8810104
9.2208576 2.9863083 -1.8886189
9.2520971 2.9338229 -1.8913503
9.2530632 2.8717668 -1.8878386
9.2714481 2.815222 -1.8880337
9.2998304 2.7616293 -1.8903748
9.2987032 2.6993217 -1.8866681
9.3452864 2.6507761 -1.892911
9.351923 2.5907674 -1.8909601
9.3610163 2.5315447 -1.8895944
9.3820629 2.4755597 -1.890765
9.3723793 2.4115942 -1.8856926
9.4136381 2.3607178 -1.8911551
9.4260406 2.3024471 -1.890765
9.4657545 2.2506893 -1.8960325
9.5233431 2.2027278 -1.9050065
9.4993601 2.1358657 -1.897398
9.505579 2.0760744 -1.8960325
9.5315714 2.0205562 -1.8987637
9.5658865 1.9665734 -1.9032507
9.6008587 1.9124368 -1.9079329
9.5604067 1.8434696 -1.897398
9.5725021 1.7849531 -1.8975931
9.6093369 1.730875 -1.9028605
9.6062479 1.6695311 -1.9001293
9.6163111 1.6105568 -1.9001293
9.6841106 1.5608791 -1.9118347
6.0539885 0.93814439 -1.1792705
5.9121685 0.87908316 -1.1496168
5.9038568 0.84085679 -1.1468855
5.8884964 0.80184054 -1.1427886
5.8826065 0.76430637 -1.1406426
5.8706379 0.72615349 -1.1373261
5.8593969 0.68829054 -1.1342047
5.8547368 0.65135074 -1.1324489
5.82936 0.61234635 -1.1265962
5.8456964 0.57781821 -1.1291324
5.8540149 0.54239029 -1.1301078
5.8328037 0.50435311 -1.1252306
5.8328557 0.46831927 -1.1246452
5.8209476 0.43143621 -1.1217189
5.8420777 0.39697108 -1.1254256
0 0 -0
0 0 -0
5.8229256 0.28811514 -1.1203532
0 0 -0
0 0 -0
0 0 -0
0 0 -0
0 0 -0
0 0 -0
0 0 -0
0 0 -0
0 -0 -0
0 -0 -0
0 -0 -0
0 -0 -0
0 -0 -0
0 -0 -0
0 -0 -0
0 -0 -0
0 -0 -0
0 -0 -0
0 -0 -0
0 -0 -0
0 -0 -0
0 -0 -0
0 -0 -0
0 -0 -0
6.1419387 -0.64088875 -1.189025
9.0370226 -0.9996224 -1.7692237
8.8582954 -1.0348873 -1.7346927
8.6736412 -1.0672778 -1.6989912
8.5385361 -1.1038619 -1.6732392
8.5607586 -1.160188 -1.6790919
8.7117615 -1.2351565 -1.7108917
8.7059584 -1.2888752 -1.7112819
8.703702 -1.343168 -1.7124524
8.7098217 -1.3988825 -1.7153788
8.6817274 -1.4490666 -1.7114769
8.6804037 -1.5036497 -1.7130377
8.6555681 -1.554108 -1.7099162
8.63237 -1.6046771 -1.7071849
8.5963573 -1.6526114 -1.7019175
8.5571966 -1.6995907 -1.6960648
8.3707848 -1.7159965 -1.6603633
8.3591385 -1.7671233 -1.6601682
8.3768864 -1.8246468 -1.6660209
8.3349094 -1.8691403 -1.659778
8.3137274 -1.918041 -1.6578271
8.2941675 -1.9672052 -1.6562663
8.2762232 -2.0166662 -1.6550958
7.3389049 -1.8359128 -1.465468
7.3341517 -1.8826169 -1.4668337
8.0442209 -2.1176987 -1.6152974
7.9581652 -2.1473331 -1.6002755
7.892848 -2.1817436 -1.5895455
7.8755379 -2.2290633 -1.5887651
8.106637 -2.348331 -1.6394886
8.0854931 -2.3960767 -1.638123
7.9439282 -2.407227 -1.6117858
7.8840404 -2.4419897 -1.6024214
7.8417921 -2.4817333 -1.5967638
7.7974877 -2.5204475 -1.590716
7.6989875 -2.5408759 -1.5733531
7.8635607 -2.648833 -1.6112006
7.7432814 -2.6613142 -1.5893505
7.7249551 -2.7081268 -1.5889602
7.7479033 -2.7696772 -1.5973492
7.7851291 -2.8369856 -1.6088594
7.8199797 -2.904171 -1.6199796
7.8460417 -2.9687653 -1.6293439
7.619031 -2.9364042 -1.5848633
7.7295942 -3.0336397 -1.6123711
7.8501749 -3.1367092 -1.6422199
7.8416824 -3.1892533 -1.6445609
7.8129039 -3.233557 -1.6426101
7.7965317 -3.2829583 -1.6433904
7.7672257 -3.3268723 -1.6414396
7.7313809 -3.3678076 -1.638123
7.6935339 -3.407634 -1.6344162
7.6715856 -3.4543738 -1.6342212
7.6547046 -3.5034223 -1.6351967
7.6437349 -3.5552897 -1.6375377
7.6067023 -3.5949974 -1.6342212
7.5641665 -3.6318369 -1.6297342
7.5311618 -3.6730206 -1.627393
7.5040889 -3.7169847 -1.6264175
7.4837689 -3.7642815 -1.6270028
7.4430628 -3.8012059 -1.623101
7.3873849 -3.8300965 -1.6158826
7.3767624 -3.882206 -1.6188091
7.3934603 -3.9491196 -1.6279783
7.4035773 -4.0131111 -1.6357819
7.4166236 -4.0792656 -1.6443659
7.3880286 -4.1227841 -1.6435856
7.3899026 -4.1835041 -1.6498284
7.3700471 -4.2321887 -1.6511941
7.3354659 -4.2723932 -1.6492431
7.3268452 -4.3277998 -1.65334
7.3077245 -4.377212 -1.6550958
7.2706699 -4.4158578 -1.6527548
7.233417 -4.4542141 -1.6504136
7.2134376 -4.5031891 -1.6521695
7.165782 -4.5347753 -1.6474873
7.1262655 -4.5712428 -1.6447561
7.0758834 -4.6004453 -1.6394886
7.0172229 -4.6238046 -1.6322703
7.0107403 -4.6814833 -1.6375377
6.9778223 -4.721663 -1.6365622
6.9260721 -4.748857 -1.6310997
6.9129114 -4.8024588 -1.6350015
6.8167515 -4.7979217 -1.6188091
6.7871833 -4.8396583 -1.6188091
6.7684898 -4.8892541 -1.6215403
6.7288651 -4.9237413 -1.6191993
6.7016783 -4.9672728 -1.6199796
6.6522512 -4.9941649 -1.6152974
6.6534886 -5.0592327 -1.6232961
6.578033 -5.065846 -1.6121759
6.5537848 -5.1115422 -1.6139318
6.5061369 -5.1388907 -1.6098349
6.4576344 -5.1652346 -1.6055429
6.4159131 -5.196734 -1.6030067
6.3831472 -5.2353816 -1.6028117
6.3607111 -5.2825966 -1.6053479
6.3469419 -5.3373094 -1.6102251
6.271513 -5.3399048 -1.5991049
6.255713 -5.3930173 -1.603592
6.2350645 -5.442266 -1.6069086
6.1897964 -5.4700279 -1.6037871
6.1553855 -5.5072508 -1.603592
6.1367407 -5.5587449 -1.6076889
6.1155272 -5.6082287 -1.6112006
6.0723767 -5.6376381 -1.6088594
6.0176625 -5.6559811 -1.6033969
5.9899487 -5.6995597 -1.6053479
5.918138 -5.7008185 -1.5952032
5.8851533 -5.739079 -1.5957884
5.86239 -5.7874861 -1.5993
5.8420281 -5.8386035 -1.603592
5.7923059 -5.8603864 -1.5996902
5.7254105 -5.8642325 -1.5909111
5.7233577 -5.934556 -1.6006657
5.6868362 -5.9695621 -1.6006657
5.7099109 -6.0679216 -1.6180286
2.2222433 -2.3897662 -0.60980189
2.210191 -2.4062469 -0.61058229
2.195385 -2.4197631 -0.61058229
5.4428124 -6.0761681 -1.5833026
5.4034781 -6.1072464 -1.5827173
5.3646126 -6.1388092 -1.5823271
5.3345332 -6.180521 -1.5846683
5.2774248 -6.1907425 -1.5788156
5.2399712 -6.2237577 -1.5790106
5.2173586 -6.2746482 -1.5838879
5.1675577 -6.2928982 -1.5803763
5.143054 -6.3420105 -1.5848633
5.0948491 -6.3619633 -1.581937
5.0253038 -6.3546357 -1.5721824
2.0331547 -2.602541 -0.61760551
1.9985855 -2.5908866 -0.61155772
1.9725525 -2.5898333 -0.6082412
1.9530894 -2.5971832 -0.60707062
1.9359478 -2.607543 -0.60668045
1.8689132 -2.5497422 -0.58951253
1.7635856 -2.4371734 -0.5590784
1.7525866 -2.4535367 -0.56044406
4.6674623 -6.6231232 -1.5723776
4.6340151 -6.6621056 -1.5749137
4.5847249 -6.6782842 -1.5719874
4.5156107 -6.664875 -1.5620377
4.5193224 -6.7593207 -1.5780351
4.4756031 -6.7836485 -1.5772548
4.4520841 -6.8389316 -1.5838879
4.4126873 -6.8702469 -1.5848633
4.3531289 -6.8698516 -1.5784254
4.3103747 -6.8956008 -1.5782303
4.2546024 -6.9002113 -1.5731579
4.2335825 -6.9613857 -1.5813518
4.1665797 -6.9468551 -1.5719874
1.7228106 -2.9114504 -0.63360292
1.7024438 -2.9177301 -0.63262749
1.6830426 -2.9255702 -0.63204223
4.010798 -7.0751743 -1.5784254
3.938133 -7.04742 -1.5665249
3.8943436 -7.0705924 -1.5663297
3.8172066 -7.0322866 -1.5522833
3.7892468 -7.0841179 -1.5587212
3.7530227 -7.1211185 -1.5618427
3.7051914 -7.136178 -1.5600868
3.6613348 -7.1587787 -1.5600868
3.6191049 -7.1846132 -1.5608672
3.5710313 -7.1987762 -1.5591114
3.5272236 -7.2214336 -1.5593065
3.487946 -7.2535477 -1.5616475
3.4299502 -7.2464433 -1.5554047
3.3812821 -7.2584615 -1.5534538
3.3354557 -7.2763968 -1.5528685
3.2935674 -7.3029847 -1.5542341
3.2455144 -7.3158836 -1.5526735
3.1938984 -7.3203769 -1.5493569
3.1554928 -7.3551602 -1.5526735
3.1095409 -7.3725758 -1.5522833
3.0679998 -7.4005775 -1.5542341
3.0225329 -7.4192634 -1.5542341
2.9674799 -7.4139938 -1.5491618
2.9240851 -7.4375391 -1.5503323
2.8706255 -7.4352107 -1.5460404
2.8246024 -7.4517674 -1.5458453
2.7798517 -7.4717164 -1.5464306
2.7336175 -7.4877114 -1.5462354
2.6859696 -7.4997263 -1.54526
2.6506228 -7.5466046 -1.551698
2.5991604 -7.5478883 -1.5485765
2.5477827 -7.5488253 -1.5454551
2.49526 -7.545691 -1.5415533
2.4558613 -7.5823212 -1.5460404
2.4098835 -7.5991173 -1.5464306
2.3664074 -7.6240654 -1.5485765
2.3235705 -7.6515808 -1.5513078
2.2774148 -7.6685147 -1.5518931
2.2297721 -7.6804605 -1.5515029
2.1809986 -7.6883359 -1.5503323
2.1136293 -7.6287918 -1.5353104
2.0662682 -7.6397233 -1.5349202
2.0233548 -7.6674318 -1.5380417
1.9850646 -7.7138982 -1.5450649
1.9348341 -7.7145166 -1.5427238
1.8781577 -7.6881313 -1.5349202
1.8393393 -7.7348166 -1.5421386
1.7847757 -7.7153783 -1.5358957
1.746218 -7.7654181 -1.5438944
1.7035573 -7.7989836 -1.5485765
1.6442879 -7.7555585 -1.5376514
1.5958803 -7.7616587 -1.5368711
1.5577999 -7.8194003 -1.5466256
1.5044098 -7.8008823 -1.5409681
1.4547194 -7.8003249 -1.5390171
1.4002277 -7.7724237 -1.5316037
1.3484828 -7.7576771 -1.5269215
1.3023143 -7.7745113 -1.5286773
1.2469445 -7.7349086 -1.519118
1.1792092 -7.6115661 -1.4927807
1.1179334 -7.5206733 -1.4730766
1.067209 -7.495348 -1.4666386
1.0171019 -7.4716277 -1.4605908
0.96947116 -7.4641113 -1.4578595
0.92401463 -7.4728394 -1.4584448
0.87665969 -7.4657049 -1.4559087
0.82639611 -7.4309769 -1.44791
0.7778191 -7.40762 -1.4422523
0.73138934 -7.4024925 -1.4403014
0.68685764 -7.4166074 -1.4422523
0.64226454 -7.4314308 -1.4443983
0.59665406 -7.4352317 -1.4443983
0.54950279 -7.4182124 -1.4403014
0.50278181 -7.4038305 -1.4367898
0.45860943 -7.4273338 -1.4408866
0.41253898 -7.4211946 -1.4391309
0.36762318 -7.4363208 -1.4416671
0.32287538 -7.4590139 -1.4457639
0.27739164 -7.4686956 -1.4473246
0.234341 -7.5604463 -1.465273
0.18809187 -7.567625 -1.4664435
0.14178167 -7.575501 -1.4678091
0.096429862 -7.6674342 -1.4859525
0.050115518 -7.7845926 -1.5091683
0.0023640415 -7.8818512 -1.5284822
-0.046103761 -7.8993711 -1.5319939
-0.093942568 -7.846962 -1.521654
-0.14305563 -7.8991914 -1.5321889
-0.19094738 -7.8746328 -1.5275068
-0.23908201 -7.8674312 -1.5263362
-0.28839374 -7.8942399 -1.5319939
-0.33523181 -7.8550858 -1.5245805
-0.38515052 -7.8881469 -1.5316037
-0.4329502 -7.8748631 -1.5294577
-0.48180124 -7.8808689 -1.5312135
-0.52962029 -7.8699355 -1.5296527
-0.57926738 -7.8851223 -1.5333595
-0.62990069 -7.9097724 -1.5390171
-0.6762383 -7.8803515 -1.5339447
-0.72322863 -7.8614044 -1.5310184
-0.77759469 -7.9192877 -1.5435042
-0.82627386 -7.9153428 -1.5436993
-0.87514979 -7.9130483 -1.5442846
-0.92243361 -7.8968139 -1.5421386
-0.96859187 -7.8725104 -1.5384319
-1.0196478 -7.8878179 -1.5427238
-1.0669726 -7.8736377 -1.5411631
-1.1167802 -7.8776245 -1.5433091
-1.1702708 -7.9055505 -1.5503323
-1.2211517 -7.9137297 -1.5534538
-1.2676629 -7.8934994 -1.5509176
-1.31074 -7.8536487 -1.5444796
-1.3573966 -7.836761 -1.5427238
-1.4111805 -7.8601403 -1.5491618
-1.4609972 -7.8600121 -1.5509176
-1.5134596 -7.8730512 -1.5554047
-1.5590625 -7.8501492 -1.5526735
-1.6060182 -7.8346705 -1.5515029
-1.6510158 -7.8102756 -1.5485765
-1.6832424 -7.7281265 -1.5339447
-0.67000347 -2.9910934 -0.57039368
-0.68944693 -2.9917042 -0.57136911
-0.70824367 -2.9893262 -0.57175928
-0.72378463 -2.9734898 -0.56941819
-0.74034882 -2.9623327 -0.56805259
-0.75558341 -2.9463348 -0.5657115
-0.77289808 -2.938798 -0.56512624
-0.78912616 -2.927372 -0.56376058
-0.80655044 -2.9205844 -0.56337041
-0.82445562 -2.9155805 -0.56337041
-2.2238319 -7.6770768 -1.5505275
-2.2798173 -7.6933775 -1.5567703
-1.071201 -3.5372179 -0.69583672
-2.3813133 -7.6882424 -1.5616475
-2.4192648 -7.6445003 -1.5555998
-2.4682374 -7.6360445 -1.5569655
-1.0743502 -3.2574735 -0.64296728
-1.0833547 -3.2182903 -0.63613909
-1.1030813 -3.2115824 -0.63613909
-1.1198452 -3.1964238 -0.63438326
-2.6930532 -7.5336504 -1.5520881
-2.7627437 -7.5814867 -1.5657445
-1.153897 -3.1090744 -0.62033677
-1.1771189 -3.1129427 -0.62267786
-1.2025485 -3.1221337 -0.62618947
-1.2557355 -3.2014253 -0.64472306
-2.9546876 -7.3948145 -1.5446748
-3.0465782 -7.4910131 -1.5692561
-3.092485 -7.4721785 -1.5692561
-3.1203802 -7.4105811 -1.5600868
-3.1661782 -7.3921967 -1.560282
-1.2841716 -2.9498334 -0.60063267
-1.3006579 -2.9383116 -0.59985232
-1.3162457 -2.9249101 -0.59868175
-1.3296766 -2.9069693 -0.59653574
-3.3955798 -7.3004885 -1.5622329
-3.4449222 -7.2892699 -1.5643789
-3.5074182 -7.3051267 -1.5725726
-3.5457249 -7.270246 -1.5696462
-3.6046374 -7.2773542 -1.5760843
-3.6496634 -7.2559757 -1.5762794
-3.6856387 -7.2168503 -1.5725726
-3.7217231 -7.1784282 -1.569061
-3.7643282 -7.152853 -1.5684757
-3.813693 -7.1400018 -1.5708169
-3.8607039 -7.1225023 -1.5721824
-3.9062252 -7.1021166 -1.5729629
-3.9459052 -7.0711637 -1.5714021
-3.9887354 -7.0459652 -1.571207
-4.0480146 -7.0494237 -1.5776449
-4.0931678 -7.0278425 -1.5784254
-4.1407032 -7.0101948 -1.5801811
-4.1801105 -6.9787664 -1.5788156
-4.2203064 -6.9487953 -1.5778401
-4.2690368 -6.9327903 -1.5801811
-4.3192873 -6.9189439 -1.5831075
-4.3784471 -6.9188294 -1.5893505
-4.4176397 -6.8868809 -1.5881798
-4.4539318 -6.8506007 -1.5860338
-4.4980412 -6.8264184 -1.5868143
-4.5425668 -6.8027682 -1.5877897
-4.5880704 -6.7804532 -1.5891553
-2.9049079 -4.2375221 -0.98261952
-4.698916 -6.7639108 -1.5989099
-4.7425885 -6.7381592 -1.5996902
-4.7929564 -6.7217078 -1.6028117
-3.0436411 -4.2142439 -0.99471509
-4.8959355 -6.6908765 -1.6098349
-4.9328089 -6.6551948 -1.6084692
-4.9623613 -6.609901 -1.6047626
-5.0420136 -6.6308503 -1.6176385
-5.0951738 -6.6161046 -1.6217355
-3.29322 -4.2230868 -1.0259296
-3.2935333 -4.1704783 -1.0177357
-3.311708 -4.1410012 -1.0153947
-3.3432286 -4.1282234 -1.0173455
-3.4107981 -4.1591935 -1.0306118
-3.3923831 -4.0853772 -1.0169554
-3.3593028 -3.9954336 -0.99900711
-3.4543445 -4.0576267 -1.0206621
-3.4599612 -4.0140719 -1.0148094
-3.47227 -3.9787292 -1.0111027
-3.5174041 -3.9808638 -1.0173455
-3.5666187 -3.9869785 -1.0247591
-3.5620391 -3.9330392 -1.016175
-3.5449994 -3.8662977 -1.0040795
-3.6220489 -3.9019675 -1.0196867
-3.655328 -3.8896737 -1.0224179
-3.7027922 -3.8920369 -1.0292461
-3.7048268 -3.846643 -1.0230032
-3.726305 -3.821732 -1.0224179
-3.7889659 -3.8385744 -1.0335381
-3.7084355 -3.7112095 -1.0042745
-3.7248583 -3.6821809 -1.0025188
-3.5494533 -3.4660683 -0.94750327
-3.5141687 -3.3897643 -0.93189603
-3.4553564 -3.2923813 -0.91004592
-3.4390602 -3.2368441 -0.9000963
-3.5378888 -3.2891212 -0.92155623
-3.5023668 -3.2162838 -0.90653425
-3.5227623 -3.1953919 -0.9067294
-3.4085951 -3.0539804 -0.87102783
-3.4089036 -3.0167632 -0.86615056
-3.4399064 -3.0067594 -0.86946714
-3.6988807 -3.1931944 -0.93267637
-3.7191505 -3.1710746 -0.93287146
-3.7768068 -3.1804049 -0.94282109
-4.1311283 -3.4355409 -1.0294412
-4.1862431 -3.4381323 -1.0382203
-4.1737385 -3.3852046 -1.0296363
-4.1201639 -3.3000731 -1.0107125
-4.2511272 -3.3623197 -1.0388055
-4.1387033 -3.2323651 -1.00525
-4.2493439 -3.2769661 -1.0280756
-4.2241049 -3.2163792 -1.0167603
-4.2390561 -3.1868649 -1.0155897
-4.3317852 -3.2151413 -1.0337331
-4.334024 -3.1757517 -1.0294412
-4.2405672 -3.0674965 -1.0017383
-4.2704854 -3.049396 -1.0044696
-4.2666655 -3.0073192 -0.99900711
-4.3011427 -2.9922817 -1.0029089
-4.397862 -3.0196674 -1.0218327
-4.4682789 -3.0278268 -1.0343184
-4.4680185 -2.9878173 -1.0298314
-4.4772615 -2.9544058 -1.0276854
-4.4599576 -2.9038744 -1.0192965
-4.479342 -2.8775139 -1.0196867
-4.4612865 -2.8274066 -1.0112978
-4.5093255 -2.8192103 -1.0185162
-4.4188347 -2.7251003 -0.99334949
-4.3742938 -2.6607416 -0.97910786
-4.5570893 -2.7337134 -1.0177357
-4.5687118 -2.7027049 -1.0165652
-4.4962435 -2.6227517 -0.99608076
-4.5836778 -2.6361718 -1.0124683
-4.5400362 -2.5741482 -0.99881202
-4.6388011 -2.592639 -1.0177357
-4.607368 -2.5381093 -1.0070058
-4.6219926 -2.5093236 -1.0068107
-4.6243291 -2.4739792 -1.0038843
-4.6741309 -2.4638445 -1.011688
-4.6874199 -2.4342146 -1.0112978
-4.683929 -2.3960314 -1.0072008
-4.7178144 -2.3769505 -1.0114928
-4.6980414 -2.3309646 -1.0038843
-4.6822901 -2.2874632 -0.99725127
-4.6732545 -2.2476425 -0.99217892
-4.7339454 -2.2411578 -1.0025188
-4.8560791 -2.2625799 -1.0263197
-4.8948364 -2.2441809 -1.0317823
-4.7323718 -2.1346965 -0.99334949
-4.8072453 -2.1330531 -1.0068107
-5.0324078 -2.1960475 -1.052852
-4.8537908 -2.0827909 -1.0112978
-4.9451056 -2.0861182 -1.0282706
-5.0520439 -2.0947852 -1.04856
-5.0520854 -2.0585682 -1.0458288
-5.0464091 -2.0202441 -1.041927
-5.0961361 -2.0039496 -1.0499257
-4.9710841 -1.9196748 -1.0206621
-5.3652258 -2.0340436 -1.1020148
-5.3527851 -1.9918544 -1.0967474
-5.0995555 -1.8621423 -1.0405613
-5.1090384 -1.8301558 -1.0401711
-5.1525612 -1.8101439 -1.0469993
-5.1913929 -1.7880703 -1.052852
-5.3853445 -1.8179433 -1.0912849
-5.4345784 -1.7974849 -1.0992836
-5.4809637 -1.7755841 -1.106697
-5.5422421 -1.7579228 -1.1172318
-5.5782161 -1.7317294 -1.1224992
-5.636601 -1.7119969 -1.1324489
-5.755127 -1.7094741 -1.1548842
-5.84934 -1.6984538 -1.1722473
-6.19274 -1.756968 -1.2411141
-6.2799664 -1.7401373 -1.2569165
-6.180696 -1.6718838 -1.2342861
-6.835722 -1.8040054 -1.3669474
-6.8742085 -1.7691126 -1.3726051
-7.1265788 -1.787468 -1.422158
-7.1602793 -1.7492892 -1.4268402
-7.2882462 -1.7332135 -1.4508363
-7.8663607 -1.8196787 -1.5667199
-7.8572822 -1.7668616 -1.562623
-8.2378502 -1.7993534 -1.6379279
-8.536582 -1.8097565 -1.696455
-8.7502365 -1.7989917 -1.737619
-8.8515301 -1.7632673 -1.7559576
-9.0355349 -1.742327 -1.7910738
-9.5117588 -1.7736338 -1.8853024
-9.7415791 -1.7546788 -1.929588
-9.7598925 -1.6962152 -1.9311486
-9.8117123 -1.643259 -1.9395375
-9.8496914 -1.5875472 -1.9451952
-9.8253231 -1.5218304 -1.938367
-9.86164 -1.4655484 -1.9438295
-9.8170414 -1.3974152 -1.9330995
-9.8400078 -1.3391348 -1.9360259
-9.8490124 -1.2788587 -1.936221
-9.8410997 -1.2164788 -1.9330995
-9.8639641 -1.1578997 -1.936221
-9.8650351 -1.0967044 -1.9350505
-9.8345118 -1.0322667 -1.927637
-9.850421 -0.97286665 -1.929588
-9.8718309 -0.91385198 -1.9327093
-9.8782291 -0.85334665 -1.9329045
-9.9038095 -0.79436326 -1.9370013
-9.8918695 -0.73235053 -1.9336848
-9.8951988 -0.67157507 -1.9334897
-9.9118595 -0.61163044 -1.9360259
-9.8889847 -0.54933524 -1.9307585
-9.8951082 -0.48879206 -1.9313438
-9.8724442 -0.42696878 -1.9262714
-9.9170237 -0.36794329 -1.9346603
-9.9083109 -0.30675408 -1.9325143
-9.9011822 -0.24573407 -1.9307585
-9.9015226 -0.18495873 -1.9305633
-9.8857994 -0.12399349 -1.9272468
-9.9108934 -0.063487232 -1.9321241
-9.8826532 -0.0026695966 -1.9264665
-9.8922911 0.058027957 -1.9284174
-9.8446751 0.11815429 -1.9190531
-9.8731833 0.17909496 -1.9249058
-9.8777809 0.23981582 -1.9260763
-9.9114161 0.30149791 -1.9330995
-9.8829155 0.36133689 -1.9278321
-9.8462162 0.4205018 -1.9210039
-9.8454103 0.48100507 -1.9213941
-9.8393354 0.54124439 -1.9208089
-9.8593245 0.60304701 -1.9254911
-9.8495674 0.66313535 -1.9243205
-9.295455 -0.23489276 -1.9233595
-9.2742214 -0.17742109 -1.9186089
-9.3338366 -0.12127744 -1.9310017
-9.3529949 -0.064132079 -1.934926
-9.3267946 -0.0067218053 -1.9293493
-9.3286171 0.050516967 -1.9297624
-9.3036718 0.10747384 -1.9245987
-9.3458815 0.16531764 -1.9336867
-9.3221941 0.22212468 -1.9289362
-9.2952271 0.27855948 -1.923566
-9.3324556 0.33699936 -1.9318279
-9.3204365 0.3938432 -1.9297624
-9.3070936 0.45050502 -1.9274904
-9.2787533 0.50621909 -1.9221202
-9.2696123 0.56278735 -1.9208809
-9.2816048 0.62069798 -1.9241856
-9.3068962 0.67977411 -1.930382
-9.2791414 0.73501408 -1.9254249
-9.3095531 0.79493129 -1.9328606
-9.2918329 0.85087931 -1.9301755
-9.2757254 0.90683013 -1.9279035
-9.2038097 0.95685077 -1.9138584
-9.2308321 1.0169477 -1.9208809
-9.2224741 1.0733418 -1.9204679
-9.245821 1.1335996 -1.9268707
-9.2289877 1.1890596 -1.9248053
-9.207943 1.2438321 -1.9219136
-9.1962624 1.2997601 -1.9210875
-9.1764984 1.3544489 -1.9186089
-9.1525421 1.408349 -1.9153042
-9.1147442 1.4598407 -1.9091078
-9.1615944 1.5250561 -1.9210875
-9.1318178 1.5777446 -1.91675
-9.120038 1.6334018 -1.9163369
-9.1146545 1.6902224 -1.9173696
-9.0320425 1.7322977 -1.9018787
-9.0653925 1.7964315 -1.9113798
-9.093502 1.8600594 -1.9198482
-9.0168161 1.9020909 -1.9058031
-9.0240974 1.9615369 -1.909934
-9.0004339 2.014307 -1.9074554
-9.0060215 2.0736654 -1.9113798
-9.0197878 2.135196 -1.9171631
-8.9694386 2.1814837 -1.9091078
-8.9919577 2.2454848 -1.9169565
-8.9514713 2.2938168 -1.9111732
-8.9552078 2.3534231 -1.9150976
-8.8829679 2.3928056 -1.9024984
-8.8652897 2.4464846 -1.9018787
-8.8585854 2.5032291 -1.9037377
-8.8806562 2.5684092 -1.9119995
-8.8572235 2.620631 -1.9103471
-8.8278656 2.6709623 -1.9074554
-8.7757893 2.7140949 -1.8996067
-8.7906923 2.7779136 -1.9066293
-8.7353048 2.8194792 -1.8981609
-8.6955376 2.8656762 -1.8932039
-8.7362156 2.938627 -1.9062161
-8.6948833 2.9842362 -1.9010526
-8.6690216 3.0349448 -1.8994001
-8.6788025 3.0982764 -1.9058031
-8.6623869 3.1524739 -1.9064227
-8.6199455 3.1970608 -1.9012591
-8.5946751 3.2478166 -1.9000198
-8.5700188 3.2987342 -1.8989871
-8.5578156 3.3544703 -1.900846
-8.5861454 3.4264982 -1.9119995
-8.5486412 3.4724898 -1.9082817
-8.4991426 3.5132918 -1.9018787
-8.4539747 3.5555141 -1.8965086
-8.4400959 3.6107831 -1.8983674
-8.4141932 3.6609414 -1.8975413
-8.3835182 3.7089386 -1.8956823
-8.364172 3.7619143 -1.8965086
-8.3106766 3.7993348 -1.889486
-8.3049545 3.8585012 -1.8936169
-8.2802382 3.9089692 -1.8934103
-8.2560978 3.959702 -1.8934103
-8.2633123 4.0257115 -1.900846
-8.2165308 4.0654917 -1.8956823
-8.1730709 4.1066065 -1.8913449
-8.1529484 4.1593461 -1.8925842
-8.1038151 4.1971445 -1.8870075
-8.1186142 4.268187 -1.896715
-8.0775967 4.310092 -1.8932039
-8.0630445 4.366096 -1.8960954
-8.0095196 4.4008827 -1.8896925
-7.9943299 4.456615 -1.8925842
-7.9668341 4.5055833 -1.8925842
-7.9084845 4.5368557 -1.8851485
-7.8931837 4.5926766 -1.8882467
-7.8741245 4.6464911 -1.8905187
-7.8580604 4.7022538 -1.8936169
-7.8064737 4.7366786 -1.8880402
-7.7872639 4.7906408 -1.8905187
-7.7510805 4.8341904 -1.8888663
-7.7436028 4.8957753 -1.894443
-7.6491594 4.9020214 -1.8783325
-7.6279635 4.9547257 -1.8806045
-7.6153984 5.0132723 -1.8851485
-7.5950756 5.0669637 -1.8878336
-7.5646529 5.1140184 -1.8880402
-7.5000348 5.1376686 -1.8795718
-7.4466662 5.168529 -1.8739951
-7.4628358 5.2478905 -1.8863878
-7.418541 5.2850676 -1.8832896
-7.4121556 5.3493819 -1.8901056
-7.3705044 5.3884096 -1.8878336
-7.3247213 5.4242167 -1.8845289
-7.267036 5.4508591 -1.8781259
-7.2576065 5.5136938 -1.8845289
-7.2073531 5.5455928 -1.8801914
-7.1801367 5.5951242 -1.8820503
-7.1594963 5.6499853 -1.8857682
-7.1315732 5.699306 -1.887627
-7.0683265 5.7201843 -1.8799849
-7.0224996 5.754765 -1.8770932
-6.9787736 5.7908735 -1.8748212
-6.9491034 5.8386207 -1.8764735
-6.9340153 5.8989005 -1.8822569
-6.9058447 5.9483595 -1.8845289
-6.8640542 5.9861197 -1.8830831
-6.822794 6.0242386 -1.8818438
-6.7929964 6.0725098 -1.8839092
-6.7657647 6.1232677 -1.8868009
-6.7540374 6.1884613 -1.8942366
-6.710917 6.2251291 -1.8927907
-6.6804399 6.2735567 -1.8950627
-6.6311831 6.304317 -1.8919646
-6.5923758 6.3448863 -1.8919646
-6.5596275 6.3913622 -1.8938234
-6.5140181 6.4253073 -1.8919646
-6.4841638 6.4748344 -1.8948562
-6.4174757 6.4873714 -1.8868009
-6.3953295 6.5448203 -1.892171
-6.3564095 6.5853457 -1.8925842
-6.3273616 6.6362619 -1.8960954
-6.265727 6.6528816 -1.8896925
-6.2647758 6.7341828 -1.9020853
-6.2147312 6.7631307 -1.8994001
-6.188242 6.8177991 -1.9041507
-6.1528239 6.862926 -1.9062161
-6.0917859 6.8793077 -1.9002264
-6.0739393 6.9445419 -1.9080751
-6.0222592 6.9713149 -1.9051834
-5.9901671 7.0207887 -1.9086947
-5.9400401 7.0491815 -1.9064227
-5.8904161 7.0779757 -1.9043573
-5.8524671 7.1207881 -1.9062161
-5.8123646 7.1611218 -1.9074554
-5.7554641 7.1806192 -1.903118
-5.7234416 7.2311425 -1.9072489
-5.6777592 7.2645826 -1.9068358
-5.6366644 7.3039317 -1.9080751
-5.5899634 7.3360453 -1.9074554
-5.5448451 7.3702064 -1.9074554
-5.5141039 7.4237266 -1.9126191
-5.4748139 7.4660997 -1.9148911
-5.3927522 7.4496217 -1.9018787
-5.385057 7.5359058 -1.9157172
-5.30826 7.5256319 -1.9045638
-5.2754016 7.5773325 -1.9095209
-5.233242 7.6160102 -1.9111732
-5.2034373 7.6730804 -1.9175762
-5.1736732 7.7308836 -1.9241856
-5.1078067 7.7347236 -1.9171631
-5.0586486 7.7634597 -1.9165435
-5.0193839 7.8075209 -1.9198482
-4.9682388 7.8332152 -1.9186089
-4.9185247 7.861064 -1.9179893
-4.90206 7.9427166 -1.9307951
-4.8598466 7.9835105 -1.9334803
-4.7981777 7.9922085 -1.9283166
-4.7664957 8.0509663 -1.9355457
-4.7105927 8.0690765 -1.9328606
-4.6409798 8.0630617 -1.9243922
-4.6218424 8.1449966 -1.9374046
-4.5627027 8.1569786 -1.9334803
-4.534771 8.225091 -1.9431878
-4.4692678 8.2252512 -1.9365784
-4.4048581 8.2266426 -1.930382
-4.3734741 8.2898607 -1.939057
-4.3184648 8.3087263 -1.937198
-4.2821178 8.3638077 -1.9440141
-4.2285151 8.3855562 -1.9429814
-4.1739359 8.4052105 -1.9415355
-4.1407666 8.4684582 -1.9504169
-4.0972161 8.5113382 -1.9545479
-4.0210304 8.48592 -1.9427748
-3.9870837 8.549449 -1.9518628
-3.9243469 8.5515203 -1.9466991
-3.8854926 8.6057587 -1.9537216
-3.8532691 8.6759357 -1.964462
-3.7807691 8.6554813 -1.9543413
-3.7229548 8.6677284 -1.9518628
-3.6742685 8.7012253 -1.9543413
-3.6166832 8.713666 -1.9520693
-3.5849538 8.7891445 -1.9642556
-3.5142128 8.7691984 -1.9547545
-3.4736016 8.8242826 -1.9623966
-3.4133933 8.829915 -1.9588853
-3.3674831 8.8726473 -1.9638424
-3.3129783 8.8931427 -1.9638424
-3.2496133 8.889411 -1.9584723
-3.2022748 8.9294443 -1.9630163
-3.1506712 8.9581556 -1.9650817
-3.0940506 8.9726944 -1.964049
-3.0423837 9.0017061 -1.966321
-2.9997056 9.0582857 -1.9747894
-2.93803 9.0579071 -1.9706584
-2.8749914 9.0524511 -1.9654948
-2.8188114 9.0680523 -1.9650817
-2.7676737 9.1001549 -1.9683864
-2.7031355 9.0878935 -1.9619836
-2.6593444 9.145647 -1.9710715
-2.5924792 9.1241455 -1.9628097
-2.5424645 9.1615658 -1.9675603
-2.4995086 9.2261009 -1.9783007
-2.4406004 9.2327509 -1.9764417
-2.3895218 9.2693434 -1.9811922
-2.3337936 9.2885752 -1.9822251
-2.2711728 9.279911 -1.9772679
-2.2150967 9.2974796 -1.9780941
-2.1573439 9.3080368 -1.9774745
-2.1021264 9.329689 -1.9793334
-2.0473518 9.3538818 -1.9818119
-1.9819871 9.3289423 -1.9737567
-1.928856 9.3610516 -1.9780941
-1.8688904 9.3602381 -1.975409
-1.8116076 9.372489 -1.9756155
-1.7569423 9.3988171 -1.9789202
-1.7001086 9.4142351 -1.9799531
-1.6396239 9.4090672 -1.9766483
-1.5782939 9.3977222 -1.9721043
-1.5270039 9.4468307 -1.9805727
-1.4581932 9.3864107 -1.9657013
-1.4109617 9.4648581 -1.9805727
-1.3529983 9.4743061 -1.9807792
-1.2909994 9.4543161 -1.9747894
-1.2338498 9.4688511 -1.9762352
-1.1746422 9.4675045 -1.9743763
-1.1089681 9.4104013 -1.9607443
-1.0540293 9.4423113 -1.9661144
-0.99833024 9.4700079 -1.9706584
-0.94001126 9.4740076 -1.9702454
-0.88612372 9.5253859 -1.9799531
-0.82672876 9.5199213 -1.977681
-0.77168453 9.5667505 -1.9865625
-0.70889699 9.5166645 -1.9749959
-0.65235907 9.5481682 -1.9807792
-0.59048015 9.4992571 -1.9696257
-0.53349674 9.5261469 -1.9745828
-0.47337765 9.4960155 -1.9675603
-0.41617125 9.5231791 -1.972724
-0.35648042 9.4923105 -1.9657013
-0.29869139 9.5089884 -1.9687996
-0.24011689 9.5018387 -1.9669406
-0.18169765 9.4972639 -1.9657013
-0.12394302 9.538312 -1.9741697
-0.065421462 9.5398712 -1.9743763
-0.0069339862 9.6046705 -1.9880083
0.052046601 9.6133375 -1.9898672
0.11091936 9.603054 -1.9878018
0.16908093 9.5591478 -1.9787138
0.22808056 9.5726032 -1.9818119
0.28575906 9.5358152 -1.9743763
0.34384114 9.5221491 -1.9718977
0.40255034 9.5267029 -1.9733435
0.46052486 9.5142803 -1.9712781
0.51884145 9.5102987 -1.9710715
0.57754129 9.5127954 -1.9723108
0.63987976 9.5686245 -1.9849101
0.69437695 9.5069437 -1.972724
0.75532281 9.5356674 -1.9797465
0.80799419 9.4626112 -1.9652883
0.865327 9.4496803 -1.9636359
0.9254815 9.4665899 -1.9683864
0.98375225 9.4626799 -1.9687996
1.043188 9.4691086 -1.9714847
1.1061317 9.5043201 -1.9803661
1.1591909 9.4546232 -1.9712781
1.222806 9.4910011 -1.9805727
1.2743407 9.4338684 -1.9700388
1.3346659 9.4433098 -1.9737567
1.3862994 9.3923531 -1.9646686
1.4482179 9.4117146 -1.9706584
1.5005255 9.3688364 -1.9634293
1.5536466 9.3333941 -1.9578526
1.610886 9.3236847 -1.9578526
1.6718587 9.3348141 -1.9623966
1.7276776 9.3166838 -1.9607443
1.7772566 9.2665091 -1.9522759
1.8394057 9.2823038 -1.9580592
1.9069121 9.322607 -1.9692127
1.9618576 9.3001995 -1.9669406
2.0178466 9.283206 -1.9659079
2.0790424 9.2897463 -1.9700388
2.1340284 9.2682333 -1.9681799
2.1924345 9.2616301 -1.9696257
2.2441354 9.227087 -1.9650817
2.2895699 9.1685266 -1.9553741
2.3428698 9.1429319 -1.9528955
2.3942013 9.110404 -1.9489712
2.4587078 9.1276636 -1.9559937
2.5128462 9.1058035 -1.9545479
2.5763857 9.1175194 -1.9605377
2.6292915 9.0911999 -1.9582657
2.6914084 9.0964756 -1.9630163
2.7369735 9.0460749 -1.9555806
2.782311 8.9963942 -1.9483515
2.8451238 9.0034103 -1.9537216
2.8900969 8.9541245 -1.9466991
2.9446778 8.9352932 -1.9464926
2.993834 8.9003639 -1.9427748
3.0553763 8.9021864 -1.9473188
3.1083252 8.8786545 -1.9462861
3.1660342 8.8686295 -1.9483515
3.224741 8.8609896 -1.9510366
3.2599988 8.7896624 -1.9394701
3.3204405 8.7868843 -1.9433944
3.3641016 8.7398634 -1.9374046
3.4248059 8.737277 -1.9415355
3.4642103 8.6806564 -1.9334803
3.5078356 8.6356678 -1.92811
3.5641208 8.6221199 -1.929969
3.6188543 8.604598 -1.9310017
3.6688895 8.5759335 -1.9295559
3.7272961 8.5667191 -1.932654
3.7782071 8.5401077 -1.9318279
3.8132811 8.4783936 -1.9229463
3.8566895 8.4361486 -1.9186089
3.9228079 8.4433832 -1.925838
3.9561646 8.3802223 -1.91675
4.0278182 8.3981371 -1.9266642
4.0582767 8.330164 -1.9165435
4.1097469 8.3059826 -1.91675
4.1685405 8.2963467 -1.9204679
4.2073631 8.2470798 -1.9148911
4.258337 8.2219772 -1.9150976
4.3055191 8.1896315 -1.9136518
4.3409505 8.1354351 -1.9070424
4.3903208 8.1077862 -1.9068358
4.4545918 8.1072788 -1.9132388
4.5023479 8.076375 -1.9124125
4.5344806 8.0179358 -1.904977
4.6171837 8.0485239 -1.9192286
4.6492605 7.9904413 -1.9119995
4.685771 7.9406967 -1.9068358
4.7288799 7.9025598 -1.9045638
4.7681446 7.8583379 -1.900846
4.8131971 7.8239331 -1.8996067
4.8460984 7.7701759 -1.8936169
4.9036179 7.7560081 -1.8975413
4.9400301 7.7084742 -1.8932039
5.0117502 7.7157631 -1.902705
5.0606132 7.6873183 -1.9033245
5.0859675 7.6235638 -1.8950627
5.1326489 7.5922136 -1.8950627
5.1597853 7.5323243 -1.8878336
5.2047901 7.4989147 -1.8874205
5.2810946 7.5100584 -1.898574
5.2918797 7.4281039 -1.8857682
5.346519 7.4081883 -1.8890729
5.3924518 7.3760333 -1.8892795
5.4445958 7.3522429 -1.891758
5.4901929 7.3194799 -1.8919646
5.5320415 7.2817593 -1.8909318
5.5545421 7.2189856 -1.8832896
5.6035438 7.1909418 -1.8849419
5.6384692 7.1449022 -1.8818438
5.6919765 7.1224008 -1.8851485
5.7288013 7.0789747 -1.8828765
5.7460833 7.0119038 -1.8742015
5.7833767 6.9697375 -1.8723427
5.8354735 6.9453578 -1.8754408
5.8646665 6.8937702 -1.8711034
5.9177103 6.8702588 -1.8746147
5.9603972 6.8345566 -1.8748212
5.9983358 6.7934546 -1.873582
6.0236049 6.7382846 -1.8684183
6.0589285 6.6946683 -1.8665594
6.0939431 6.6508727 -1.8647004
6.1366339 6.6155076 -1.8653201
6.1838078 6.5848622 -1.8673856
6.2200508 6.5425401 -1.8661463
6.2512579 6.4950867 -1.8634613
6.2780204 6.4432917 -1.8595369
6.3023219 6.3893237 -1.8549929
6.3407159 6.3498406 -1.8547863
6.3802543 6.3115034 -1.8549929
6.4363551 6.2893324 -1.8601565
6.4776402 6.2524395 -1.8609827
6.5265045 6.2227039 -1.8640809
6.5496063 6.1684527 -1.8597434
6.5851827 6.1261497 -1.8591237
6.6269708 6.089601 -1.860363
6.6540685 6.0396171 -1.8574713
6.6931872 6.0006342 -1.858091
6.7203579 5.9510198 -1.8554059
6.7390714 5.8942118 -1.8504488
6.8284187 5.8988056 -1.8653201
6.8987226 5.8860111 -1.8748212
6.9107666 5.8233938 -1.8682117
6.9223032 5.7608509 -1.8616023
6.9749055 5.7325578 -1.8663528
7.0023518 5.6834865 -1.8642874
7.03862 5.6416378 -1.8647004
7.1145315 5.6311359 -1.875854
7.13199 5.57412 -1.87131
7.1513414 5.5188956 -1.8673856
7.1835136 5.4737258 -1.8669724
7.2099276 5.4242511 -1.8651136
7.2603545 5.3927455 -1.8696576
7.3217111 5.368926 -1.8770932
7.337873 5.3118505 -1.8727558
7.336894 5.2428322 -1.8640809
7.4144979 5.2298636 -1.875854
7.4151325 5.162466 -1.8677987
7.4507012 5.1196413 -1.8688314
7.4738765 5.0683365 -1.866766
7.5406122 5.0463276 -1.875854
7.5518394 4.9870229 -1.8708968
7.5667214 4.9304423 -1.8669724
7.6881852 4.942657 -1.889899
7.6720991 4.8660407 -1.8783325
7.6951766 4.8147221 -1.8766801
7.6887722 4.7453165 -1.8677987
7.7352948 4.7087345 -1.8721361
7.7673969 4.6631975 -1.8729624
7.8135438 4.6259184 -1.8772998
7.8206568 4.5655551 -1.8721361
7.8663306 4.5277333 -1.8764735
7.8514166 4.455235 -1.8661463
7.9289856 4.4351597 -1.8783325
7.933773 4.3741412 -1.8729624
8.0034475 4.3487368 -1.8832896
8.0256681 4.2972374 -1.8822569
8.0588074 4.2515645 -1.8839092
8.0665112 4.1925602 -1.8795718
8.12605 4.1603775 -1.887627
8.1374464 4.1033893 -1.8843223
8.1677294 4.0559931 -1.8855616
8.1801567 3.9997826 -1.8826699
8.1833868 3.9393287 -1.8777128
8.2091722 3.8898802 -1.8781259
8.2914104 3.8667326 -1.891758
8.285634 3.8023164 -1.8849419
8.2909746 3.7433517 -1.8808111
8.3218346 3.6959834 -1.8826699
8.3362865 3.6413269 -1.8808111
8.3908367 3.6040103 -1.8882467
8.3884554 3.5421796 -1.8826699
8.4434681 3.5045218 -1.8903122
8.4657183 3.4530172 -1.8905187
8.4803886 3.3984594 -1.8890729
8.486515 3.340626 -1.8857682
8.4758244 3.2764947 -1.8787456
8.4811335 3.2188706 -1.8754408
8.532814 3.1787271 -1.8826699
8.5595093 3.1289985 -1.8843223
8.5674953 3.0724556 -1.8818438
8.6055698 3.0266466 -1.8861812
8.5971546 2.964536 -1.8801914
8.6411362 2.9205019 -1.8859746
8.6440325 2.862504 -1.8826699
8.7088985 2.8248093 -1.8932039
8.7624359 2.7828712 -1.9012591
8.7522507 2.7206297 -1.8952693
8.7678442 2.6665909 -1.8950627
8.7877922 2.6138582 -1.8958889
8.7764187 2.5519645 -1.889899
8.8154411 2.5047519 -1.8950627
8.7957611 2.440932 -1.8874205
8.8389044 2.394593 -1.8936169
8.8439713 2.3378124 -1.8915514
8.8733091 2.2874115 -1.8948562
8.8890753 2.2333996 -1.8952693
8.9026117 2.1788154 -1.8952693
8.9158125 2.1241488 -1.8952693
8.9372568 2.0713911 -1.8971282
8.9316626 2.0124271 -1.8932039
8.9543571 1.9598874 -1.8954757
8.9671707 1.905111 -1.8956823
8.9882746 1.8520285 -1.8977478
8.9821987 1.7933936 -1.89403
9.0208921 1.7436321 -1.9000198
9.0169945 1.6855507 -1.8969216
9.0454617 1.6334963 -1.900846
9.0379639 1.5749394 -1.8971282
9.0715799 1.5235062 -1.9022918
9.0150766 1.4571958 -1.8882467
0 0 -0
5.8677802 0.87457824 -1.2128421
0 0 -0
0 0 -0
0 0 -0
0 0 -0
0 0 -0
0 0 -0
0 0 -0
0 0 -0
0 0 -0
0 0 -0
0 0 -0
0 0 -0
0 0 -0
0 0 -0
0 0 -0
0 0 -0
0 0 -0
0 0 -0
0 0 -0
0 0 -0
0 0 -0
0 0 -0
0 0 -0
0 0 -0
0 -0 -0
0 -0 -0
0 -0 -0
0 -0 -0
0 -0 -0
0 -0 -0
0 -0 -0
0 -0 -0
0 -0 -0
0 -0 -0
5.8930092 -0.39423537 -1.2072654
5.8855996 -0.43003061 -1.2062327
5.889678 -0.46667641 -1.2076786
5.9081516 -0.50463647 -1.2122225
0 -0 -0
5.9492302 -0.58176345 -1.2223432
6.0584393 -0.62998772 -1.2463026
8.9779673 -0.98910105 -1.867179
8.677249 -1.0099105 -1.8045957
8.3795376 -1.0274252 -1.7426319
8.2546844 -1.0635734 -1.7174333
8.1491003 -1.1008475 -1.6963657
8.0540304 -1.1383721 -1.6775701
8.0972271 -1.1951963 -1.6883104
8.1845131 -1.2594362 -1.7085519
8.1689024 -1.3083943 -1.7068995
8.1481733 -1.356405 -1.7042145
8.1425896 -1.4068754 -1.7048341
8.1270618 -1.4556037 -1.7033882
8.1160536 -1.5050863 -1.7029752
8.0807209 -1.5498822 -1.6973984
8.0537825 -1.5960126 -1.6936806
8.0409622 -1.6448115 -1.693061
8.0326338 -1.6945229 -1.6934741
8.0020065 -1.7394148 -1.6891366
7.9634929 -1.7822857 -1.6831468
7.9524069 -1.8311151 -1.6831468
7.9162664 -1.8740166 -1.6777766
7.8732443 -1.9149256 -1.6709605
7.3060083 -1.8245444 -1.5501313
7.5591183 -1.9370903 -1.6077576
7.7760987 -2.0436084 -1.6577417
7.7086163 -2.076525 -1.645762
7.6957297 -2.1237853 -1.645762
7.663722 -2.1656449 -1.6416311
7.6390104 -2.2093661 -1.6391525
7.5905952 -2.2459271 -1.6315104
7.56637 -2.2893434 -1.6292384
7.5577888 -2.337461 -1.6304777
7.5293097 -2.379369 -1.6273794
7.52388 -2.4285281 -1.6294448
7.5134835 -2.4761791 -1.6304777
7.5037127 -2.5241058 -1.6317168
7.4843822 -2.5688298 -1.6308907
7.4675555 -2.6143816 -1.6306841
7.4550595 -2.661468 -1.6315104
7.4477835 -2.7105072 -1.6335758
7.4099116 -2.7483301 -1.6288253
7.4066381 -2.7989321 -1.6319234
7.429503 -2.8597889 -1.6410115
7.4500766 -2.9203172 -1.6496863
7.4647331 -2.9790292 -1.657122
7.4218378 -3.0148346 -1.6515453
7.4267097 -3.0700347 -1.6569154
7.4086342 -3.1159258 -1.657122
7.3596892 -3.1486268 -1.650306
7.3258758 -3.1874807 -1.6470013
7.2936525 -3.22683 -1.6441096
7.2344522 -3.2538648 -1.6350217
7.2045622 -3.2937188 -1.6327497
7.1877661 -3.3395121 -1.6335758
7.1689095 -3.384388 -1.6339889
7.1330104 -3.4211195 -1.6304777
7.0951719 -3.456681 -1.6265533
7.0650587 -3.4958124 -1.6244878
7.0399785 -3.5373399 -1.6236616
7.005939 -3.5742455 -1.62077
6.9838762 -3.6171658 -1.62077
6.9528894 -3.6553972 -1.6187046
6.932919 -3.6993723 -1.6193242
6.9049273 -3.7390471 -1.6180849
6.8801398 -3.7804022 -1.6176717
6.8542504 -3.8211176 -1.6170522
6.7863874 -3.8380585 -1.6063118
6.7737432 -3.8859556 -1.6089969
6.8005147 -3.9569674 -1.6213896
6.7297597 -3.9712732 -1.6100296
6.8790665 -4.1164832 -1.6527846
6.8511691 -4.1570926 -1.6521649
6.8330336 -4.2036662 -1.6540239
6.8062811 -4.2449961 -1.6538173
6.7792792 -4.2861557 -1.6536107
6.7577953 -4.3308392 -1.65485
6.7138629 -4.3610311 -1.6505126
6.6894293 -4.4037585 -1.6511322
6.6411195 -4.430604 -1.645762
6.596786 -4.4597626 -1.6414245
6.6080446 -4.5266957 -1.6513387
6.5624609 -4.554884 -1.6467947
6.5143795 -4.5809951 -1.6416311
6.4829607 -4.6186094 -1.6408049
6.4457717 -4.6520033 -1.6385329
6.3934093 -4.6741433 -1.6323365
6.401567 -4.7406507 -1.6420442
6.3371348 -4.7534227 -1.6327497
6.3499217 -4.8241773 -1.6439031
6.2752237 -4.8284445 -1.6319234
6.2377605 -4.8608441 -1.629858
6.1986003 -4.8917537 -1.6273794
6.144773 -4.9107604 -1.6209766
6.0939894 -4.9317536 -1.6153998
6.0621004 -4.9678125 -1.6149867
6.0292454 -5.0030408 -1.614367
5.994688 -5.0367947 -1.6133343
5.9651604 -5.0747504 -1.6137474
5.9502201 -5.1253042 -1.6182914
5.9134979 -5.1572161 -1.6168456
5.8714738 -5.1843376 -1.6139539
5.8380938 -5.2189622 -1.6135409
5.8030591 -5.2520599 -1.6127146
5.7613449 -5.2789755 -1.6100296
5.7309976 -5.3162231 -1.6106492
5.6897106 -5.3432508 -1.6081706
5.6738377 -5.3942404 -1.6131278
5.6434522 -5.4316669 -1.6139539
5.6163254 -5.4723372 -1.6158129
5.5526872 -5.4771514 -1.6069314
5.5162063 -5.5083537 -1.6061052
5.4850564 -5.544879 -1.6069314
5.4529819 -5.5805297 -1.6075511
5.4417419 -5.6378179 -1.6145736
2.2504268 -2.3606653 -0.64897227
2.2372413 -2.3758538 -0.64938539
2.225287 -2.3924019 -0.65021157
2.2105656 -2.4060111 -0.65021157
5.2136321 -5.7441316 -1.59805
5.1861267 -5.7847557 -1.6005285
5.1589675 -5.8259907 -1.6032135
5.1211901 -5.8553262 -1.6025939
5.0800486 -5.8807158 -1.6009415
5.0292625 -5.8946567 -1.596191
4.9841714 -5.9149303 -1.5932994
4.9459066 -5.9431453 -1.5926797
4.9031343 -5.9658222 -1.5906143
4.8781524 -6.0102286 -1.5945387
4.8338389 -6.0308857 -1.5920601
4.7985649 -6.0627337 -1.5926797
2.0039866 -2.5644825 -0.64752644
1.9762573 -2.561239 -0.64339554
1.9593185 -2.5717604 -0.64298242
1.9446782 -2.5852978 -0.64339554
1.9241109 -2.5908978 -0.64174318
1.7982386 -2.4527438 -0.60249949
1.7705321 -2.4462953 -0.59795547
1.7509373 -2.4507446 -0.59630311
4.4199557 -6.2663803 -1.5792543
4.3808637 -6.2925797 -1.5790477
4.357687 -6.3419209 -1.584831
4.3071585 -6.3515344 -1.5804936
