# .PCD v0.7 - Point Cloud Data file format
VERSION 0.7
FIELDS x y z
SIZE 4 4 4
TYPE F F F
COUNT 1 1 1
WIDTH 1505
HEIGHT 1
VIEWPOINT 0 0 0 1 0 0 0
POINTS 1505
DATA ascii
-2.444308 -3.7612882 -1.0163527
-2.4582403 -3.7323992 -1.0124563
-2.4740715 -3.7067199 -1.0094767
-2.5038574 -3.7019517 -1.0124563
-2.5424807 -3.7098045 -1.0191031
-2.5546486 -3.6789424 -1.0147482
-2.565974 -3.6472752 -1.0101643
-2.6063812 -3.6568284 -1.0174986
-2.6452925 -3.6636543 -1.0241455
-2.6912799 -3.6795683 -1.0335426
-2.7224972 -3.6747181 -1.0369807
-2.784133 -3.7101099 -1.0523372
-2.7603195 -3.6317322 -1.0342302
-2.7231834 -3.5375898 -1.0113102
-2.8130562 -3.6083333 -1.0374391
-2.8339374 -3.5894768 -1.0369807
-2.8480074 -3.5621364 -1.0340011
-2.8520503 -3.5226538 -1.0273542
-2.8248632 -3.4456167 -1.0092474
-2.9093623 -3.5046165 -1.0326259
-2.9182863 -3.4717956 -1.0280418
-2.9773829 -3.4983027 -1.0417939
-3.0203938 -3.5050404 -1.0495868
-3.0661583 -3.5143151 -1.0582963
-3.1082833 -3.5187817 -1.0656308
-3.1577148 -3.5308444 -1.0754863
-3.2446458 -3.5835638 -1.0984064
-3.6046164 -3.9324286 -1.2162154
-3.4148314 -3.6797633 -1.1421837
-3.3033936 -3.5161388 -1.0961144
-3.098186 -3.2573907 -1.0186447
-3.3699212 -3.4998794 -1.1041365
-3.3838594 -3.4714682 -1.1016152
-3.4146671 -3.4603405 -1.1048241
-3.4447777 -3.4482763 -1.1078036
-3.4748681 -3.4359725 -1.1107832
-3.5014558 -3.420028 -1.1126168
-3.4600358 -3.3383231 -1.092218
-3.5748668 -3.4070241 -1.1229309
-3.4497166 -3.2475686 -1.0757155
-3.465302 -3.222363 -1.0743403
-3.4864423 -3.2023568 -1.0747987
-3.4908884 -3.1671679 -1.0699855
-3.4116776 -3.0573332 -1.0388143
-3.4289153 -3.0350516 -1.0383559
-3.6541114 -3.1946402 -1.1029904
-3.7325788 -3.2230563 -1.1213264
-3.8863273 -3.3144283 -1.1628118
-3.8328927 -3.2284338 -1.1401209
-3.497205 -2.909143 -1.0312507
-3.6232872 -2.9766145 -1.0642556
-3.6104934 -2.9291801 -1.0548583
-3.5501604 -2.8442781 -1.0312507
-3.5652556 -2.8206291 -1.0305631
-3.6392543 -2.8430486 -1.0475239
-3.6797504 -2.8385026 -1.0544
-3.6916778 -2.8117418 -1.0527955
-3.6738548 -2.7627084 -1.0424815
-3.7376266 -2.7749321 -1.0562335
-3.7428074 -2.7433138 -1.0527955
-3.7319703 -2.7003233 -1.0447735
-3.676394 -2.6258841 -1.0239162
-3.7091422 -2.6150565 -1.0287294
-3.7514822 -2.6105983 -1.0362931
-3.7778602 -2.5946953 -1.0392727
-3.7977381 -2.5741971 -1.0404187
-3.8215518 -2.5562587 -1.0427107
-3.8517866 -2.5424151 -1.0468363
-3.8053286 -2.4783552 -1.029417
-3.8687756 -2.4860096 -1.0429399
-3.7885981 -2.4017606 -1.0163527
-3.8205936 -2.3893089 -1.0211658
-3.8558922 -2.3785992 -1.0268959
-3.8978541 -2.3715937 -1.0344595
-3.9340322 -2.3606558 -1.0404187
-3.9057224 -2.311188 -1.0287294
-3.9332809 -2.2950294 -1.0323967
-3.947289 -2.2708521 -1.0323967
-3.9501419 -2.2403457 -1.029417
-3.9774072 -2.2236671 -1.0330843
-3.9824519 -2.1945217 -1.0307922
-3.9872887 -2.1653986 -1.0285003
-3.9902022 -2.13538 -1.0257499
-4.0161443 -2.1176674 -1.0291879
-4.0178337 -2.0871508 -1.0262083
-4.0296984 -2.0620151 -1.025979
-4.0327134 -2.0324309 -1.0234579
-4.0494676 -2.0098124 -1.0246038
-4.0564766 -1.9823627 -1.0232286
-4.0966311 -1.9709419 -1.0305631
-4.1631875 -1.9716033 -1.0447735
-4.1937332 -1.9546583 -1.0495868
-4.2047629 -1.9284834 -1.0493575
-4.1890135 -1.8902338 -1.0422523
-4.1889677 -1.8593602 -1.0392727
-4.2404399 -1.8511502 -1.0495868
-4.2839174 -1.8389217 -1.057838
-4.2682176 -1.8012453 -1.050962
-4.3196473 -1.7918082 -1.061276
-4.3729234 -1.7825422 -1.0720483
-4.4190178 -1.7697936 -1.0809872
-4.5167489 -1.7768614 -1.1029904
-4.5475411 -1.7568324 -1.1080328
-4.6119304 -1.7492672 -1.1215557
-4.614367 -1.7178788 -1.1194929
-4.6293921 -1.6912037 -1.1206388
-4.6836638 -1.6785326 -1.1316404
-4.8490648 -1.7043213 -1.1703753
-5.0526834 -1.7411463 -1.2185074
-5.1213689 -1.7297379 -1.232947
-5.2473946 -1.7365156 -1.261597
-5.3070254 -1.7201961 -1.2737447
-5.3221192 -1.6890731 -1.2748907
-5.4532237 -1.6939312 -1.3046868
-5.7792253 -1.7564118 -1.3823857
-5.994225 -1.7816657 -1.4325806
-6.1050572 -1.7739195 -1.457105
-6.7450557 -1.9151214 -1.6111276
-6.8467245 -1.8986742 -1.6331309
-6.9850845 -1.8909725 -1.664073
-7.0191417 -1.8540446 -1.6695738
-7.0511231 -1.8162838 -1.6746162
-7.0838485 -1.7784373 -1.6798878
-7.2080879 -1.7626907 -1.7073919
-7.3153524 -1.7414269 -1.7307702
-7.4273653 -1.7200105 -1.7552947
-7.5697737 -1.7041268 -1.7871536
-7.8510933 -1.7169267 -1.8524756
-8.1242752 -1.7245169 -1.915735
-8.2128801 -1.6907324 -1.9345294
-8.188736 -1.6334507 -1.9262782
-8.2177181 -1.5868669 -1.9308622
-8.2397394 -1.5387375 -1.9338418
-8.2768049 -1.4931632 -1.9404886
-8.2973185 -1.4443533 -1.9432391
-8.2849054 -1.3898709 -1.9381967
-8.2529192 -1.3324913 -1.9285703
-8.2599773 -1.281678 -1.928341
-8.2561331 -1.2292508 -1.9255906
-8.2962837 -1.1832434 -1.9333835
-8.2956724 -1.1312635 -1.9315498
-8.3323793 -1.0842359 -1.938655
-8.341773 -1.0334482 -1.9393426
-8.3199234 -0.9789446 -1.9326959
-8.3470554 -0.93024898 -1.9377382
-8.3264694 -0.87626308 -1.9315498
-8.3326578 -0.82525229 -1.931779
-8.3404722 -0.7743786 -1.9324666
-8.3440971 -0.72310376 -1.9322374
-8.3396454 -0.67118853 -1.9301746
-8.3523426 -0.6206544 -1.9322374
-8.3326864 -0.56780446 -1.9267366
-8.3486433 -0.51744872 -1.9297162
-8.3215332 -0.46452942 -1.922611
-8.3358936 -0.41404071 -1.9253614
-8.3674507 -0.36415589 -1.9322374
-8.3607731 -0.3124797 -1.9301746
-8.372262 -0.26147741 -1.9324666
-7.921802 0.58058006 -1.9329679
-7.9180908 0.62917644 -1.9329679
-7.9063454 0.67708546 -1.9310392
-7.8972101 0.72514069 -1.9298339
-7.8848848 0.77282494 -1.9279053
-7.8693767 0.82008308 -1.9252535
-7.8941002 0.87165958 -1.9327267
-7.8577566 0.9164781 -1.9250124
-7.8702869 0.96692634 -1.9295928
-7.8661308 1.0154481 -1.9300749
-7.8712926 1.0652583 -1.9329679
-7.8156023 1.1065896 -1.920673
-7.8096251 1.1546664 -1.9209141
-7.8263721 1.2062631 -1.926941
-7.824573 1.2551852 -1.9283874
-7.8023648 1.3007762 -1.9247713
-7.7598109 1.3426644 -1.9160926
-7.7562022 1.3911097 -1.917298
-7.7971373 1.4478959 -1.9298339
-7.797637 1.4975427 -1.9322447
-7.7844939 1.5446038 -1.9312804
-7.7254314 1.5822067 -1.9187444
-7.7345681 1.6335931 -1.923566
-7.7300887 1.6822598 -1.9250124
-7.6798472 1.7207413 -1.9148872
-7.6956234 1.7739394 -1.9216373
-7.6222687 1.8063457 -1.9057264
-7.6129274 1.8535405 -1.9062085
-7.6513104 1.9126995 -1.9189855
-7.62815 1.9567157 -1.9160926
-7.6009836 1.9995316 -1.9122354
-7.6026268 2.0499246 -1.9158516
-7.6001954 2.0993788 -1.9185034
-7.5554204 2.1369879 -1.9103068
-7.5524201 2.1862769 -1.9129586
-7.5072255 2.2232022 -1.904762
-7.4627924 2.259937 -1.8968066
-7.5210962 2.3280802 -1.9156104
-7.5270257 2.3806264 -1.9209141
-7.4947309 2.4210956 -1.9163337
-7.4705181 2.4639957 -1.9139229
-7.4497404 2.5079288 -1.9124765
-7.4259515 2.5507536 -1.9103068
-7.4119921 2.5969124 -1.910789
-7.4059711 2.6459358 -1.9134408
-7.3677115 2.6833541 -1.907655
-7.3456492 2.7264841 -1.9062085
-7.3233356 2.7694442 -1.904762
-7.3116384 2.816421 -1.9062085
-7.2833781 2.856977 -1.9033157
-7.2494888 2.8951318 -1.8989763
-7.230689 2.9391937 -1.8987352
-7.2376275 2.993896 -1.9054853
-7.2316432 3.0435214 -1.9088603
-7.202127 3.0832517 -1.9059675
-7.1955295 3.1328106 -1.9093425
-7.174397 3.1761167 -1.9088603
-7.1353045 3.2113125 -1.9035567
-7.104876 3.2501872 -1.9006639
-7.1147194 3.3076358 -1.9088603
-7.0495396 3.330081 -1.8965656
-7.0648451 3.3904948 -1.9064496
-7.0264621 3.4252722 -1.9016281
-7.0366211 3.4838278 -1.9103068
-7.0003729 3.5195251 -1.9062085
-6.9708667 3.55844 -1.9040389
-6.9385624 3.5957854 -1.9011459
-6.9309688 3.6459749 -1.9052442
-6.9033308 3.6856906 -1.9037977
-6.8694935 3.7219675 -1.9006639
-6.8235664 3.7514203 -1.8941548
-6.7868595 3.7856519 -1.8902975
-6.7871518 3.8406105 -1.8970476
-6.7903905 3.8976476 -1.904762
-6.7403493 3.9240985 -1.8972888
-6.7570906 3.9895666 -1.9091015
-6.712502 4.0189843 -1.9033157
-6.6769319 4.0535469 -1.9001817
-6.6651564 4.102581 -1.9040389
-6.5937548 4.1146212 -1.8905387
-6.5806851 4.1627865 -1.8941548
-6.6007657 4.232429 -1.907655
-6.5860634 4.2802567 -1.9110301
-6.5013261 4.2821422 -1.8936726
-6.4902644 4.3321924 -1.8982531
-6.4667759 4.3741102 -1.8992174
-6.4478192 4.4191952 -1.9016281
-6.4118147 4.4525843 -1.8989763
-6.3867545 4.4935184 -1.8996994
-6.371706 4.5416369 -1.9035567
-6.3264108 4.5681458 -1.8982531
-6.2896461 4.600574 -1.8956013
-6.2628589 4.6402354 -1.8960834
-6.2164173 4.6651754 -1.8905387
-6.2123971 4.7220278 -1.8982531
-6.1879201 4.7636104 -1.8996994
-6.1669931 4.808054 -1.9023514
-6.1358519 4.8446007 -1.9018692
-6.0847893 4.8651853 -1.8951191
-6.0465264 4.89571 -1.8924673
-6.0208755 4.9364114 -1.8939137
-5.9904728 4.9732618 -1.8939137
-5.978415 5.0255399 -1.8999406
-5.9275146 5.0451412 -1.8934315
-5.8839498 5.0706444 -1.8893332
-5.8578444 5.1111193 -1.8910208
-5.8212824 5.142468 -1.8893332
-5.794682 5.1826196 -1.8910208
-5.7555799 5.2115622 -1.88861
-5.7292166 5.252027 -1.8905387
-5.6876364 5.2784982 -1.8874047
-5.6459475 5.304657 -1.8842707
-5.6386042 5.3632832 -1.8929495
-5.6209674 5.4125919 -1.8982531
-5.5744486 5.4341063 -1.8936726
-5.5230432 5.4504814 -1.8874047
-5.4963603 5.4911275 -1.8898154
-5.4441433 5.5061131 -1.8833064
-5.4088998 5.5380254 -1.8828243
-5.3815546 5.578095 -1.885235
-5.3559294 5.6201453 -1.888369
-5.3166881 5.6479554 -1.8866814
-5.2911835 5.6904235 -1.8900565
-5.2410712 5.7063403 -1.8845118
-5.2059593 5.7383914 -1.8845118
-5.171946 5.7716722 -1.8849939
-5.1383638 5.8054786 -1.8857172
-5.1058388 5.8405514 -1.8869225
-5.0540519 5.8534036 -1.8808956
-5.0274854 5.8953829 -1.8845118
-4.9987183 5.9350286 -1.8874047
-4.9882693 5.9969296 -1.8975298
-4.9624658 6.0409245 -1.9018692
-4.9130797 6.0561843 -1.8970476
-4.8606601 6.0672784 -1.8910208
-4.8179221 6.090138 -1.8888512
-4.7804632 6.1195855 -1.8888512
-4.7671223 6.1803131 -1.8987352
-4.7279348 6.2079029 -1.8982531
-4.7119145 6.2662754 -1.907414
-4.6808958 6.3052001 -1.9105479
-4.6432672 6.3353686 -1.9110301
-4.5980501 6.3550901 -1.9083782
-4.5437427 6.3618579 -1.9018692
-4.5113306 6.3991375 -1.904762
-4.4791861 6.4370551 -1.907896
-4.433013 6.4548163 -1.9050032
-4.3802581 6.4626126 -1.8992174
-4.3356671 6.4821072 -1.8970476
-4.2893982 6.4988675 -1.8941548
-4.2759161 6.5657306 -1.9062085
-4.2413187 6.6008258 -1.9088603
-4.2028151 6.6300049 -1.9098246
-4.1692572 6.6671891 -1.9131997
-4.1466074 6.7223845 -1.9218785
-4.1032643 6.7443843 -1.9209141
-4.0638013 6.7727637 -1.9218785
-4.0167332 6.7883825 -1.9192266
-3.9701149 6.8045177 -1.9168159
-3.9215152 6.8169713 -1.9134408
-3.8968441 6.8712988 -1.9221195
-3.8550828 6.8959274 -1.9223605
-3.8038011 6.9033003 -1.9177802
-3.7525742 6.9103041 -1.9131997
-3.7284138 6.9674301 -1.9228427
-3.6978102 7.0133567 -1.9293517
-3.6403956 7.0083523 -1.9216373
-3.6061635 7.0478382 -1.9264588
-3.5532451 7.0507641 -1.9211552
-3.5146599 7.0819969 -1.923807
-3.4766769 7.1147656 -1.926941
-3.4312737 7.1324658 -1.9259766
-3.3758187 7.1288242 -1.9192266
-3.3242264 7.1326885 -1.9146461
-3.2864649 7.1661849 -1.9182622
-3.2512107 7.2056785 -1.923566
-3.208117 7.2281532 -1.9242891
-3.1528378 7.2227955 -1.9175391
-3.1142001 7.255383 -1.9211552
-3.0775442 7.2931333 -1.9262178
-3.0401702 7.3298097 -1.9310392
-2.9793923 7.3096786 -1.920673
-2.9413376 7.3449411 -1.9252535
-2.9026067 7.379108 -1.9295928
-2.8506327 7.3795776 -1.9250124
-2.8018587 7.3878546 -1.9226016
-2.7689972 7.4385624 -1.9315214
-2.7113202 7.4225931 -1.9228427
-2.673579 7.4610181 -1.9286286
-2.6229241 7.4635472 -1.9250124
-2.5865598 7.5070291 -1.9322447
-2.5364139 7.5108047 -1.9291106
-2.4942422 7.5382051 -1.9322447
-2.4392686 7.5265927 -1.9252535
-2.3983216 7.5580697 -1.9295928
-2.3524766 7.5744967 -1.9300749
-2.3062379 7.5897174 -1.9303161
-2.2615592 7.6102376 -1.9320036
-2.2167153 7.6304951 -1.9336911
-2.1722379 7.6523561 -1.9358608
-2.1133218 7.6225185 -1.9247713
-2.0705657 7.6503315 -1.9286286
-2.0248234 7.6675839 -1.9298339
-1.9818501 7.6958418 -1.9339322
-1.9319947 7.6975026 -1.9312804
-1.8831149 7.7026124 -1.9295928
-1.8331226 7.702692 -1.9266999
-1.788669 7.7260866 -1.9298339
-1.7393124 7.728395 -1.9276642
-1.6904092 7.7322845 -1.9259766
-1.6493751 7.772892 -1.9336911
-1.6094698 7.8208904 -1.9433341
-1.5441934 7.7440052 -1.9213963
-1.5010593 7.7762051 -1.9271821
-1.4559865 7.7995796 -1.9307982
-1.4111995 7.8255591 -1.9351375
-1.360164 7.8168597 -1.9307982
-1.3155427 7.8451591 -1.9358608
-1.2621284 7.8205066 -1.9276642
-1.2166452 7.844408 -1.9317625
-1.1747694 7.8939633 -1.9423698
-1.1252162 7.8933368 -1.9404413
-1.0770243 7.9020152 -1.9409233
-1.0285182 7.9084754 -1.9409233
-0.97366023 7.8635893 -1.9281464
-0.92607105 7.8751988 -1.9295928
-0.88019991 7.9029174 -1.9351375
-0.82976598 7.8898311 -1.9305571
-0.78000307 7.8812523 -1.9271821
-0.7337783 7.9090829 -1.9329679
-0.6840651 7.8999 -1.9295928
-0.63534641 7.9010463 -1.9288696
-0.5872131 7.9096351 -1.9300749
-0.54005063 7.933423 -1.9351375
-0.49082345 7.9278698 -1.9329679
-0.44233134 7.933639 -1.9336911
-0.39426634 7.9488049 -1.936825
-0.3449401 7.9384699 -1.9336911
-0.2957916 7.9287987 -1.9307982
-0.24767742 7.9479251 -1.9351375
-0.19917068 7.9599676 -1.9377893
-0.15068911 7.9804463 -1.9426109
-0.10143796 7.9589009 -1.9370662
-0.052588601 7.9574327 -1.936584
-0.0037595003 7.9508119 -1.9348965
0.044766519 7.9060426 -1.923807
0.093531266 7.9269691 -1.9291106
0.1422562 7.9310975 -1.9303161
0.19124682 7.9436584 -1.9336911
0.2405442 7.9607668 -1.9382715
0.28814685 7.9251957 -1.9298339
0.33772069 7.94558 -1.9353787
0.38547412 7.9230018 -1.9303161
0.43535948 7.9437442 -1.9361018
0.48474434 7.9515791 -1.9387537
0.53124535 7.9145641 -1.9303161
0.57866096 7.895669 -1.9264588
0.62786716 7.9016442 -1.9288696
0.67998874 7.9401889 -1.9394768
0.72469634 7.8923779 -1.9286286
0.77244574 7.8810215 -1.926941
0.82320583 7.8993001 -1.9327267
0.86835325 7.8641968 -1.9252535
0.91580266 7.8519731 -1.923566
0.9636088 7.8433161 -1.9228427
1.0140798 7.8555431 -1.9274231
1.0629129 7.853982 -1.9286286
1.1113564 7.8492336 -1.9291106
1.1586449 7.8365064 -1.9276642
1.2047833 7.8167806 -1.9245303
1.2558007 7.8284059 -1.9293517
1.3039709 7.8215103 -1.9295928
1.3535944 7.8229246 -1.9320036
1.3991688 7.8010988 -1.9286286
1.4466546 7.7904582 -1.9281464
1.493696 7.7776227 -1.9271821
1.5408233 7.7654557 -1.9264588
1.583181 7.730185 -1.9199498
1.6353993 7.743114 -1.9257356
1.6849445 7.7424164 -1.9281464
1.7277482 7.7110982 -1.9228427
1.7763388 7.7060256 -1.9242891
1.8253802 7.7025356 -1.9262178
1.8687024 7.6751609 -1.9221195
1.9112865 7.6456618 -1.9175391
1.9588872 7.6366105 -1.9182622
2.0005198 7.6047378 -1.9131997
2.0418353 7.5726428 -1.9081371
2.0947251 7.5833573 -1.9141641
2.1393664 7.5638251 -1.9124765
2.184927 7.5477591 -1.9117533
2.2314737 7.535141 -1.9119943
2.2731638 7.5064464 -1.9081371
2.3197539 7.4942112 -1.9086193
2.3718426 7.4992671 -1.9136819
2.4163201 7.4799557 -1.9124765
2.4612584 7.4622235 -1.9117533
2.4958475 7.4138703 -1.9030745
2.5472841 7.4158554 -1.907655
2.6014071 7.4248142 -1.9141641
2.6416893 7.3940907 -1.9103068
2.6800315 7.358593 -1.9052442
2.7149973 7.3147159 -1.8980119
2.7749388 7.3378587 -1.9086193
2.8139782 7.3052988 -1.904521
2.8516591 7.2698264 -1.8996994
2.8890107 7.2341676 -1.894878
2.9505272 7.2585583 -1.9062085
2.997236 7.245698 -1.907655
3.025068 7.1878147 -1.8970476
3.0767562 7.1869607 -1.9018692
3.1049073 7.1314664 -1.8919851
3.1533227 7.1229291 -1.894878
3.198961 7.1078715 -1.8960834
3.2356482 7.0731068 -1.8919851
3.2736666 7.0416803 -1.8888512
3.330081 7.0495396 -1.8965656
3.3711734 7.0245996 -1.8953601
3.414212 7.0037823 -1.8953601
3.454107 6.976613 -1.8936726
3.5051348 6.9717612 -1.8982531
3.5323985 6.9198713 -1.8898154
3.5618382 6.8730803 -1.8828243
3.6048474 6.8528132 -1.8833064
3.6340256 6.8065958 -1.8765563
3.6812711 6.7944088 -1.8794492
3.7387929 6.8006058 -1.8876457
3.7577512 6.7368569 -1.8760742
3.8004513 6.716207 -1.8767973
3.8585038 6.7222185 -1.885235
3.9026084 6.7034488 -1.8866814
3.9481084 6.6868973 -1.8888512
3.9985387 6.6783652 -1.8934315
4.0228167 6.6263309 -1.8854761
4.0338864 6.5535908 -1.8714937
4.0529523 6.4949617 -1.8616097
4.0973988 6.4773521 -1.8637793
4.1459737 6.4659762 -1.8678776
4.1892729 6.4461112 -1.8695651
4.2180676 6.4040766 -1.8647436
4.2594385 6.3813028 -1.8657079
4.3197236 6.3863955 -1.8751098
4.355536 6.3549671 -1.8736634
4.3833737 6.3121815 -1.8688419
4.4164362 6.2772303 -1.8664311
4.4464183 6.2381601 -1.862815
4.4874525 6.2146935 -1.8640203
4.522635 6.183126 -1.862815
4.570313 6.1685143 -1.8669133
4.6069107 6.138803 -1.8664311
4.6462531 6.1127377 -1.8671544
4.6919627 6.0948787 -1.8705294
4.7179317 6.051434 -1.865949
4.7633953 6.0330338 -1.8693241
4.7742577 5.9711027 -1.8589578
4.8150816 5.9469752 -1.8606453
4.8600969 5.9278245 -1.8640203
4.912499 5.917304 -1.8702884
4.9549603 5.8944778 -1.8726991
4.9954386 5.8691368 -1.8743867
5.0098124 5.8133821 -1.8661901
5.0613422 5.8008122 -1.8722169
5.0872006 5.7587385 -1.8686008
5.1314993 5.7375417 -1.8719759
5.1600924 5.6987543 -1.8695651
5.1988974 5.671277 -1.8710116
5.2639713 5.6719885 -1.8821011
5.2587962 5.5971508 -1.8676366
5.2923717 5.564075 -1.8673954
5.3223729 5.5273032 -1.865949
5.3494124 5.4875932 -1.8635383
5.395937 5.4677892 -1.8681186
5.4225249 5.4277129 -1.8657079
5.4619389 5.4004788 -1.8678776
5.5137215 5.3851695 -1.8743867
5.552249 5.3566265 -1.8763152
5.585012 5.3224578 -1.8763152
5.610497 5.2814374 -1.8739045
5.6470628 5.2508774 -1.875351
5.6777453 5.2148156 -1.8748688
5.7297649 5.1981354 -1.8816189
5.7601066 5.1615853 -1.8811368
5.7742248 5.1107097 -1.875351
5.8178978 5.0860405 -1.8794492
5.8313637 5.0350275 -1.8736634
5.8843045 5.0180407 -1.8808956
5.9060755 4.97434 -1.8780028
5.9409633 4.9417305 -1.8794492
5.9719234 4.9058003 -1.8796903
5.989852 4.8592839 -1.875833
6.0187979 4.8218327 -1.875592
6.0543604 4.7896276 -1.8775206
6.0844002 4.7529855 -1.8777617
6.1073008 4.7108221 -1.875833
6.1499901 4.6838417 -1.8801724
6.1793895 4.6466012 -1.8804135
6.1937561 4.598187 -1.8760742
6.2304649 4.5664058 -1.878726
6.2851033 4.5474286 -1.8869225
6.314467 4.5099063 -1.8874047
6.3277411 4.4610128 -1.8830653
6.3502145 4.4187775 -1.8816189
6.3732076 4.3769836 -1.8804135
6.3975339 4.3361626 -1.8796903
6.4248261 4.2973661 -1.8799313
6.4454031 4.2541218 -1.8782438
6.473011 4.2155523 -1.878726
6.5175362 4.187819 -1.8842707
6.5381908 4.1446323 -1.8828243
6.5421028 4.0910611 -1.8765563
6.5885596 4.0640869 -1.8828243
6.6183476 4.0266094 -1.8842707
6.6570783 3.994411 -1.888369
6.7048512 3.9673233 -1.8951191
6.703918 3.9114397 -1.8878869
6.7454596 3.8803914 -1.8929495
6.7742081 3.8418009 -1.8943958
6.787487 3.7944815 -1.891503
6.8148923 3.7551041 -1.8927083
6.8241577 3.7058096 -1.8888512
6.851902 3.6666143 -1.8902975
6.8699784 3.6222403 -1.8890922
6.8826003 3.575099 -1.8864404
6.9303284 3.5460591 -1.8936726
6.9536896 3.5043421 -1.8941548
6.9672365 3.4577272 -1.8919851
6.9918094 3.4166157 -1.8929495
7.0178895 3.3761742 -1.8943958
7.0226836 3.3255756 -1.8900565
7.040318 3.281193 -1.8893332
7.0735517 3.2439992 -1.8929495
7.0915537 3.1997375 -1.8924673
7.1216989 3.1608875 -1.8953601
7.1436286 3.1182942 -1.8960834
7.1786814 3.0812912 -1.9004227
7.1706262 3.0258701 -1.8931905
7.1998158 2.9862752 -1.8960834
7.239574 2.9508302 -1.9018692
7.2368207 2.8980582 -1.8963245
7.2535634 2.8532443 -1.8960834
7.2519217 2.8013425 -1.8910208
7.2880311 2.7640171 -1.8960834
7.3230453 2.7260153 -1.9009049
7.3460155 2.6833606 -1.9025924
7.3842697 2.6460898 -1.9083782
7.4186802 2.6071637 -1.9131997
7.4281144 2.5593824 -1.9115121
7.4170122 2.5047553 -1.904521
7.4350057 2.4601123 -1.9052442
7.4647331 2.4192307 -1.9091015
7.4674106 2.3695683 -1.9059675
7.4641986 2.3182378 -1.901387
7.468996 2.2695744 -1.8989763
7.5097613 2.2317162 -1.9059675
7.5000129 2.1788299 -1.8999406
7.5375161 2.1396568 -1.9062085
7.5617261 2.096477 -1.9091015
7.5800686 2.0515602 -1.9105479
7.575623 2.0005531 -1.9062085
7.6140723 1.9608054 -1.9129586
7.633491 1.9159384 -1.9148872
7.649817 1.8702159 -1.9160926
7.6498184 1.8205476 -1.9131997
7.6532807 1.771825 -1.9112711
7.6801052 1.7284521 -1.9153694
7.7028918 1.683988 -1.9185034
7.6874461 1.6312568 -1.9119943
7.6982613 1.5842522 -1.9122354
7.7297282 1.5413487 -1.9177802
7.7075934 1.4878254 -1.9098246
7.7451987 1.4458431 -1.9170569
7.7491488 1.3974319 -1.9158516
7.7652268 1.3511875 -1.9177802
7.7628427 1.3017515 -1.9151284
7.7898464 1.2571849 -1.9199498
6.0394535 0.93697149 -1.4780592
5.8636575 0.87292296 -1.4324961
5.8112545 0.8287183 -1.4180316
5.8104601 0.79225999 -1.4165851
5.8036628 0.7550925 -1.4136922
5.7995181 0.71839559 -1.4115225
5.7922506 0.68143851 -1.4086297
5.78089 0.6441685 -1.4047724
5.7828031 0.60848272 -1.4042902
5.7709751 0.57146162 -1.4004331
5.7695408 0.53559321 -1.3992277
5.761116 0.49917892 -1.3963348
5.7718096 0.46444115 -1.3982633
5.7677755 0.42851529 -1.3965758
5.772233 0.39324835 -1.397058
5.7842236 0.35842147 -1.3994688
5.7882524 0.32303119 -1.3999509
5.7697697 0.28650236 -1.3948883
5.8131113 0.25289986 -1.4052546
5.7815795 0.21600118 -1.397058
5.7701855 0.18013088 -1.393924
5.7770033 0.14486711 -1.3953705
5.7719612 0.10930827 -1.393924
5.7909617 0.074122436 -1.3985045
5.8116875 0.03872009 -1.4035671
5.8215208 0.0030626913 -1.4059777
5.7767878 -0.032398231 -1.3948883
5.8007407 -0.068133123 -1.4009153
5.7526665 -0.10286475 -1.3891026
0 -0 -0
0 -0 -0
0 -0 -0
0 -0 -0
0 -0 -0
0 -0 -0
0 -0 -0
0 -0 -0
0 -0 -0
0 -0 -0
0 -0 -0
0 -0 -0
0 -0 -0
6.1705112 -0.64278972 -1.5009613
7.8613029 -0.86803323 -1.9245303
7.829802 -0.91321349 -1.9180212
7.8712502 -0.96704483 -1.9298339
7.8237805 -1.0099748 -1.9194677
7.6991448 -1.0419351 -1.8898154
7.5484715 -1.0687273 -1.8536541
7.2316761 -1.0691291 -1.7757869
7.1405735 -1.1004597 -1.7545723
7.0512791 -1.1310208 -1.7338399
6.9657102 -1.161167 -1.7140718
6.9115968 -1.1957712 -1.7022591
7.0092058 -1.2570193 -1.7287773
7.0547943 -1.3099338 -1.7422775
7.0266099 -1.3493497 -1.7372149
6.972506 -1.3833656 -1.7256433
6.9686403 -1.4270964 -1.7268487
6.9521561 -1.4682227 -1.72492
6.9392233 -1.5100267 -1.7239558
6.9288802 -1.5523641 -1.7237147
6.8861265 -1.5872149 -1.7152771
6.8517056 -1.6236153 -1.7090092
6.8218126 -1.6608018 -1.7039466
6.7634773 -1.6906176 -1.6916517
6.7482762 -1.7308793 -1.6904464
6.7394061 -1.7727474 -1.6909285
6.7171578 -1.8110328 -1.6880356
6.6666307 -1.8413557 -1.6779104
6.6383977 -1.8774697 -1.6735711
6.6286173 -1.9187068 -1.6740532
6.5981092 -1.9538288 -1.6692318
6.5739222 -1.9906188 -1.6660978
6.5439696 -2.0254631 -1.6615174
6.5138383 -2.0600147 -1.6569369
6.4973817 -2.0987504 -1.6559726
6.4714789 -2.1343203 -1.6525975
6.4573417 -2.1736784 -1.6523565
6.4191012 -2.2047429 -1.6458474
6.4164429 -2.2479408 -1.6487404
6.4134955 -2.2911887 -1.6516333
6.3993163 -2.3304982 -1.6516333
6.3685198 -2.3636386 -1.6472939
6.3475428 -2.4002666 -1.6456064
6.3308845 -2.4384713 -1.6451242
6.3248372 -2.4808164 -1.647535
6.3194098 -2.5235388 -1.6501868
6.3011098 -2.5611696 -1.6494635
6.2852759 -2.5997844 -1.6494635
6.2584724 -2.6337819 -1.6465707
6.2377334 -2.6702232 -1.6453654
6.2354679 -2.7146478 -1.6492225
6.2222433 -2.7544289 -1.6501868
6.2131901 -2.7961419 -1.6523565
6.1791487 -2.8265393 -1.6477761
6.1669693 -2.8668561 -1.6492225
6.1501398 -2.9050567 -1.6494635
6.1234498 -2.9385383 -1.6470529
6.0983257 -2.9726524 -1.6451242
6.068665 -3.0044155 -1.6419903
6.0405788 -3.036799 -1.6393385
6.021832 -3.073806 -1.6393385
6.0028577 -3.1106975 -1.6393385
5.9681988 -3.1393366 -1.634999
5.9548163 -3.1790981 -1.6366866
5.9343443 -3.2151139 -1.6364455
5.8889933 -3.2374353 -1.6292133
5.8834257 -3.2815478 -1.6333115
5.8513556 -3.3108928 -1.6299365
5.8486042 -3.3568821 -1.634999
5.8278966 -3.3927054 -1.634999
5.8094769 -3.4298813 -1.6357223
5.7933178 -3.4684551 -1.6371688
5.7868576 -3.5130048 -1.6415081
5.7693257 -3.5509903 -1.6427135
5.760601 -3.5945461 -1.6465707
5.7203946 -3.6184077 -1.6412671
5.7095213 -3.6607749 -1.6446421
5.6836967 -3.6936231 -1.6436778
5.6276994 -3.7065358 -1.6337937
5.6266427 -3.7555478 -1.6403028
5.6171579 -3.7992473 -1.6444011
5.5937405 -3.833642 -1.6444011
5.5350413 -3.8435302 -1.6337937
5.4994488 -3.8690417 -1.6301776
5.4598012 -3.8914442 -1.6253561
5.4334607 -3.923167 -1.6246328
5.4742951 -4.0039978 -1.6446421
5.4488444 -4.0369344 -1.6444011
5.4123292 -4.061552 -1.6407849
5.4120283 -4.1134815 -1.6484993
5.3951449 -4.1531253 -1.6511511
5.3825698 -4.1962972 -1.6552494
5.3544359 -4.2274408 -1.6545261
5.329154 -4.2608213 -1.6547673
5.3089428 -4.298327 -1.6566958
5.3057318 -4.3498998 -1.6641692
5.2602758 -4.3668723 -1.6581423
5.2259541 -4.3928204 -1.6557316
5.1989021 -4.4248037 -1.6557316
5.1481314 -4.4363427 -1.6480172
5.1237383 -4.4704003 -1.6489815
5.0845761 -4.4914727 -1.6451242
5.0417318 -4.5089974 -1.6400616
5.0636029 -4.5848026 -1.6566958
5.0139165 -4.5961084 -1.6494635
4.9970012 -4.6373515 -1.6533208
4.9507728 -4.651309 -1.6472939
4.9115934 -4.6715646 -1.6436778
4.8723516 -4.6915145 -1.6400616
4.8504219 -4.7280979 -1.6424724
4.8972936 -4.8327684 -1.6689907
4.851759 -4.8469481 -1.6634459
2.3153265 -2.3407352 -0.77773619
2.3009205 -2.3548977 -0.77773619
2.2844067 -2.3668759 -0.77701294
2.2685018 -2.3794429 -0.7765308
4.6322904 -4.9206977 -1.6386153
4.617208 -4.9653773 -1.6441599
4.58009 -4.9864659 -1.6417491
4.5370197 -5.0008159 -1.6371688
4.5088401 -5.0314517 -1.638133
4.4804554 -5.0619302 -1.6390973
4.4671936 -5.1097879 -1.6458474
4.4078541 -5.1047764 -1.6352402
4.3751893 -5.1302495 -1.634758
4.3467541 -5.1607103 -1.6359634
4.3199706 -5.193254 -1.637892
4.280633 -5.2106633 -1.634999
4.2467465 -5.2345691 -1.6342759
4.2096944 -5.254468 -1.6323472
4.1725583 -5.2741098 -1.6304187
2.0100162 -2.5719798 -0.77074498
1.9829369 -2.5696621 -0.76616454
1.9624292 -2.5756035 -0.76423597
1.9425066 -2.5821657 -0.76254845
1.9266261 -2.5940361 -0.76254845
1.9060844 -2.599546 -0.76061982
1.7132081 -2.3666322 -0.68564552
1.6980904 -2.3763099 -0.68540442
1.6829187 -2.3858912 -0.68516338
3.8318722 -5.5065045 -1.6263204
3.8018579 -5.5355134 -1.6280079
3.7504005 -5.5330272 -1.6202935
3.7190773 -5.5599685 -1.6214989
3.6795471 -5.5745831 -1.6190882
3.6357417 -5.5824156 -1.6147488
3.5904055 -5.587471 -1.6096863
3.5633266 -5.620873 -1.6130613
3.5390594 -5.65909 -1.6178827
3.4935722 -5.6633511 -1.6128201
3.468843 -5.7012644 -1.6176417
3.4487717 -5.7474098 -1.624874
3.3986185 -5.7434034 -1.6176417
3.3633137 -5.7641487 -1.6176417
3.3235278 -5.7771053 -1.615472
3.2846673 -5.7914796 -1.6137844
3.2424412 -5.799664 -1.6104094
3.2063258 -5.8186002 -1.6101683
1.6111257 -2.9654772 -0.79822755
1.6015973 -2.9915664 -0.80280799
1.5904515 -3.0150743 -0.80666518
3.0813487 -5.9317098 -1.6202935
3.0298681 -5.9211278 -1.6120969
2.9891133 -5.9309397 -1.6096863
2.9483526 -5.940475 -1.6072755
2.9186623 -5.9724064 -1.6111326
2.8823822 -5.9910769 -1.6113738
2.8451521 -6.0077729 -1.6111326
2.8057764 -6.0198393 -1.6096863
2.7683821 -6.0360594 -1.6094451
2.7352836 -6.0617795 -1.6118559
2.6822946 -6.042964 -1.6022129
2.6509871 -6.0726509 -1.605829
2.619416 -6.102181 -1.6094451
2.5902224 -6.1378112 -1.6147488
2.5432205 -6.1311765 -1.6087219
2.5070171 -6.1502609 -1.6096863
2.4652655 -6.1556168 -1.6070343
2.4153748 -6.1399188 -1.5988379
2.3738101 -6.1446648 -1.596186
2.3419106 -6.174542 -1.6002843
2.3046572 -6.1906147 -1.6007664
2.2682931 -6.209197 -1.6019719
2.2314606 -6.2266531 -1.6029361
2.191926 -6.2365651 -1.6019719
2.1596222 -6.2673321 -1.6065522
2.1155391 -6.2639136 -1.6022129
2.0749314 -6.2703261 -1.6005254
2.0418017 -6.2995586 -1.6048647
2.0086844 -6.329545 -1.6094451
1.9631917 -6.3204327 -1.6039004
1.9243734 -6.3323598 -1.6039004
1.8838246 -6.3384662 -1.6024539
1.8402966 -6.3340616 -1.5983557
1.803516 -6.3527036 -1.6002843
1.7629477 -6.3580384 -1.5988379
1.7241557 -6.3696728 -1.5990789
1.6875162 -6.3895159 -1.6014897
1.6470697 -6.3950505 -1.6002843
1.6016601 -6.3805618 -1.5940163
1.5698506 -6.4204378 -1.6017307
1.5293032 -6.4252286 -1.6005254
1.4870061 -6.4221992 -1.5973914
1.4467205 -6.4274154 -1.5964271
1.4084982 -6.4418602 -1.5978736
1.3679385 -6.4456339 -1.5966681
1.3289496 -6.456758 -1.5973914
1.293479 -6.4857302 -1.602695
1.2545779 -6.4983096 -1.6039004
1.2173507 -6.520196 -1.6075165
1.1628646 -6.4473124 -1.5872662
0.71185714 -4.0878201 -0.99060547
0.68499738 -4.0815821 -0.9879536
1.0497096 -6.5030751 -1.596186
0.62772548 -4.0436459 -0.97638202
0.6027596 -4.0464616 -0.97614098
0.58270848 -4.0837121 -0.98457855
0.90119052 -6.6105399 -1.6171595
0.85511106 -6.5735989 -1.6065522
0.81428361 -6.5748692 -1.605588
0.76996356 -6.5460062 -1.5971503
0.72892523 -6.5428905 -1.5952218
0.4326117 -4.1081843 -0.98602504
0.4089233 -4.126214 -0.98988223
0.60997975 -6.5725942 -1.5995611
0.56905454 -6.5694447 -1.5978736
0.52834624 -6.5679755 -1.5966681
0.48674512 -6.5536728 -1.5923288
0.44718108 -6.5662184 -1.5947396
0.40634465 -6.5601211 -1.5925698
0.36619264 -6.5644288 -1.593052
0.32772878 -6.6033864 -1.6022129
0.28581935 -6.573276 -1.5942574
0.24649021 -6.6020617 -1.6010075
0.20501328 -6.5724087 -1.5932931
0.16526112 -6.5968275 -1.5990789
0.12538062 -6.6297388 -1.6070343
0.084747851 -6.6342649 -1.6079987
0.043951359 -6.6210732 -1.6046237
0.0033396364 -6.6678023 -1.6161952
-0.037759326 -6.6997237 -1.6241508
-0.047719553 -4.0918012 -0.97638202
-0.072930753 -4.0972533 -0.9778285
-0.098257653 -4.1044903 -0.97975707
-0.20022352 -6.6327553 -1.6082398
-0.23996167 -6.6052155 -1.6017307
-0.27990702 -6.590044 -1.5983557
-0.31991178 -6.5794783 -1.596186
-0.36277944 -6.6229367 -1.6075165
-0.40506765 -6.6477094 -1.6142666
-0.27557918 -4.1139154 -0.98409641
-0.486828 -6.6451421 -1.6149899
-0.32550338 -4.1034517 -0.98240888
-0.5618673 -6.5632448 -1.596186
-0.60603887 -6.6021967 -1.6067933
-0.64777029 -6.6109099 -1.6099273
-0.68852335 -6.6087413 -1.6104094
-0.73034078 -6.6159678 -1.6133024
-0.48419955 -4.1561675 -0.99928415
-0.5104031 -4.1588974 -1.0007306
-0.85610032 -6.6331663 -1.6212578
-0.89926022 -6.6460614 -1.6258383
-0.93784362 -6.6250439 -1.621981
-0.97776604 -6.6143646 -1.6207757
-1.0177407 -6.604404 -1.6198114
-1.0582454 -6.5980349 -1.6198114
-0.69234186 -4.1561208 -1.0065165
-0.71269649 -4.1221499 -0.99904311
-1.1807146 -6.584125 -1.6214989
-1.2283623 -6.6158772 -1.6313829
-0.78332204 -4.0816474 -0.992293
-0.80570543 -4.0634375 -0.98891795
-0.83120763 -4.0612693 -0.98964113
-0.8601253 -4.0750833 -0.99446267
-0.88945019 -4.0896425 -0.99952525
-0.91877359 -4.1030478 -1.0043467
-0.94436836 -4.0992246 -1.0048289
-1.5465819 -6.5268602 -1.6260793
-0.73018831 -3.0020194 -0.72735149
-0.74788809 -2.994658 -0.72662824
-0.76624888 -2.9900126 -0.72662824
-1.699129 -6.4597216 -1.6190882
-0.80136645 -2.9747624 -0.72518182
-0.81495047 -2.9529514 -0.72084248
-0.83199698 -2.94416 -0.71987814
-0.85247636 -2.9473894 -0.72204781
-1.2154645 -4.1061816 -1.0236328
-1.2383852 -4.0912156 -1.0217041
-1.260594 -4.0742693 -1.0192934
-1.2855695 -4.0664577 -1.0192934
-1.0803779 -3.3464966 -0.83342451
-1.0914633 -3.3112342 -0.82595116
-1.0814019 -3.2143404 -0.80232584
-1.0992119 -3.2021377 -0.80087936
-1.1114552 -3.1742678 -0.79533464
-1.4689989 -4.1132555 -1.0448474
-1.1333796 -3.1138847 -0.78303981
-1.1433429 -3.0823071 -0.7765308
-1.1735669 -3.1051881 -0.78448629
-1.1964368 -3.1078904 -0.7871381
-1.5746269 -4.0156665 -1.0313472
-1.6035578 -4.0167441 -1.03424
-1.6300019 -4.0113244 -1.0354455
-1.2523082 -3.0291677 -0.77412003
-1.2674819 -3.0133765 -0.77195036
-1.287094 -3.008219 -0.77267361
-1.6791229 -3.8580029 -1.00507
-1.7463864 -3.946126 -1.0318292
-1.7944727 -3.9884329 -1.0462937
-1.8269887 -3.994997 -1.0511153
-1.842054 -3.9634717 -1.0455706
-1.8028961 -3.8178427 -1.0086861
-1.8325886 -3.8198318 -1.0123022
-1.8717316 -3.840791 -1.021222
-1.8840638 -3.806622 -1.0149541
-1.8908149 -3.7620432 -1.0057932
-1.9580005 -3.8368037 -1.0299007
-1.9725724 -3.8074853 -1.0250791
-2.0112641 -3.8245111 -1.0332757
-2.0100033 -3.7658708 -1.0202577
-2.0210485 -3.7312827 -1.0139897
-2.0382931 -3.7086067 -1.0110968
-2.0785072 -3.7273877 -1.0200166
-2.1462789 -3.7939548 -1.0426776
-2.1671016 -3.7765059 -1.0414723
-2.1853487 -3.7547512 -1.0390615
-2.2364788 -3.7889028 -1.0528028
-2.2611809 -3.7776065 -1.053526
-2.2510686 -3.7089128 -1.0376151
-2.2768369 -3.6999891 -1.0390615
-2.2923019 -3.6744232 -1.0356865
-2.3070204 -3.6479871 -1.0320704
-2.3435078 -3.6558194 -1.0385793
-2.3791199 -3.6617129 -1.0446062
-2.4266388 -3.6851356 -1.0559368
-2.4082468 -3.6088352 -1.0376151
-2.4548187 -3.6301615 -1.0484635
-2.4408269 -3.5622013 -1.0325525
-2.4908762 -3.5878079 -1.0448474
-2.5139608 -3.574044 -1.0453295
-2.5318995 -3.5530198 -1.0436419
-2.5718372 -3.5625932 -1.0513563
-2.5850523 -3.534997 -1.0477402
-2.5997593 -3.5097125 -1.0448474
-2.5810428 -3.4401402 -1.0282131
-2.6144381 -3.4404624 -1.0332757
-2.8131378 -3.6550372 -1.1055982
-2.8575945 -3.666023 -1.114518
-2.7086017 -3.43136 -1.0458117
-2.7508216 -3.4412026 -1.0542493
-2.7327921 -3.3759921 -1.0388205
-2.7842271 -3.3966811 -1.0508742
-2.7430134 -3.3048711 -1.0267667
-2.8581793 -3.4008842 -1.0634102
-2.836211 -3.3330336 -1.047017
-2.9174409 -3.3861363 -1.0701603
-2.9017873 -3.326494 -1.0564189
-2.9343538 -3.3224442 -1.0609994
-2.9676266 -3.3188426 -1.0658208
-3.021162 -3.3372562 -1.0781157
-3.1786692 -3.4681535 -1.1285003
-3.1615925 -3.407331 -1.114518
-3.0136197 -3.2082398 -1.053285
-3.1730638 -3.336637 -1.1036696
-3.2217548 -3.3464622 -1.1137948
-3.2727175 -3.357899 -1.1246432
-3.3212135 -3.3660722 -1.1345272
-3.3610134 -3.3648517 -1.1412773
-3.4140372 -3.3762314 -1.1526079
-3.4492714 -3.369458 -1.1576705
-3.4363508 -3.315891 -1.1460989
-3.4643614 -3.3021073 -1.1487507
-3.4697156 -3.2668209 -1.1436881
-3.4513104 -3.2097886 -1.1306701
-3.4923863 -3.2082429 -1.1379023
-3.4839694 -3.1613259 -1.1285003
-3.4172797 -3.0628293 -1.0998125
-3.4374623 -3.0430896 -1.1002946
-3.6080685 -3.1547787 -1.1504382
-3.8602479 -3.3336058 -1.226859
-3.9219885 -3.3451161 -1.2403592
-4.2668667 -3.5941508 -1.345709
-3.3709929 -2.8046641 -1.0491867
-3.3858886 -2.7820797 -1.0484635
-3.4066641 -2.7643085 -1.0496688
-3.3720508 -2.7020993 -1.0332757
-3.4920928 -2.7632325 -1.066062
-3.4959788 -2.7315986 -1.0619637
-3.4327445 -2.6484625 -1.0368918
-3.5794277 -2.7267058 -1.0776335
-3.5805757 -2.6930285 -1.0728121
-3.491823 -2.5929258 -1.0402669
-3.4653926 -2.5404775 -1.0272489
-3.4856336 -2.5225792 -1.0286953
-3.4955175 -2.4971967 -1.0270078
-3.5337794 -2.491915 -1.033999
-3.5585635 -2.4768357 -1.0368918
-3.5872955 -2.4642923 -1.0409901
-3.595921 -2.4378796 -1.0390615
-3.6487303 -2.4411237 -1.050392
-3.6741707 -2.4256377 -1.053526
-3.7150116 -2.4199922 -1.0612404
-3.7069266 -2.3824656 -1.0544903
-3.7042603 -2.3487661 -1.0494277
-3.7013206 -2.3151896 -1.0443652
-3.6791093 -2.2700222 -1.0337579
-3.747695 -2.2806892 -1.0496688
-3.7999029 -2.2806146 -1.0607584
-3.8238487 -2.263185 -1.0636512
-3.8074834 -2.2220771 -1.0549725
-3.8134744 -2.1943188 -1.0528028
-3.8640144 -2.1919384 -1.0634102
-3.7969081 -2.1232104 -1.040508
-3.8200655 -2.1054921 -1.0434009
-3.8482654 -2.0903473 -1.0477402
-3.8310676 -2.0506732 -1.0393026
-3.7886307 -1.9981668 -1.0238738
-3.7611995 -1.9543096 -1.0127844
-3.8500197 -1.9705275 -1.03424
-3.8473036 -1.9394444 -1.0301417
-3.879997 -1.9261527 -1.0359275
-3.9318562 -1.9219036 -1.047017
-3.9234581 -1.8880681 -1.0414723
-3.960408 -1.8760004 -1.0484635
-3.9841604 -1.8574022 -1.0518385
-4.0175376 -1.8430319 -1.0578654
-4.0376177 -1.8223362 -1.0602762
-4.0753369 -1.8093349 -1.0675083
-4.0997047 -1.7901169 -1.0711246
-4.1248813 -1.7710506 -1.0749817
-4.2286687 -1.7849345 -1.1000535
-4.2296796 -1.7548658 -1.0974017
-4.2772174 -1.7438934 -1.1072857
-4.3770366 -1.7533214 -1.1311523
-4.4066796 -1.7338891 -1.1362147
-4.5421753 -1.7550591 -1.1694832
-4.5628409 -1.73094 -1.172135
-4.6033926 -1.7140789 -1.1800904
-4.626586 -1.6904607 -1.1834655
-4.6697636 -1.6738217 -1.1921442
-4.7596083 -1.6731198 -1.2131177
-4.9276142 -1.6982387 -1.2545826
-5.1761017 -1.7483598 -1.3170211
-5.2797961 -1.7473449 -1.3413696
-5.3319654 -1.728374 -1.352218
-5.3480206 -1.6973855 -1.3536645
-6.0905676 -1.8918372 -1.5441138
-6.4335799 -1.9551142 -1.6301776
-6.1710057 -1.8340863 -1.5590605
-5.9454112 -1.7274522 -1.4978274
-6.5553074 -1.8609964 -1.6525975
-6.5796967 -1.8243668 -1.6559726
-6.5710931 -1.7786386 -1.65091
-6.6794744 -1.7640419 -1.6759819
-6.7982583 -1.750842 -1.7037054
-6.8747673 -1.7256242 -1.7205807
-6.9634767 -1.7025273 -1.74059
-7.0899253 -1.6873881 -1.7702422
-7.2618313 -1.6812605 -1.811466
-7.6034098 -1.7112032 -1.8958423
-7.7484031 -1.6939305 -1.9300749
-7.7899809 -1.6529987 -1.9380305
-7.7990265 -1.6049737 -1.9377893
-7.8353777 -1.5623996 -1.9445394
-7.8267112 -1.510801 -1.939959
-7.853961 -1.4661299 -1.9445394
-7.8656745 -1.4184276 -1.9452627
-7.8627558 -1.3681432 -1.9423698
-7.8499446 -1.3163445 -1.9370662
-7.8540416 -1.2675354 -1.9361018
-7.8482442 -1.2172396 -1.9327267
-7.8469257 -1.1677763 -1.9305571
-7.8837285 -1.1238481 -1.9380305
-7.8943224 -1.075977 -1.9389948
-7.9152122 -1.0293934 -1.9426109
-7.8828526 -0.97604257 -1.9329679
-7.9156818 -0.93082559 -1.939718
-7.9077406 -0.88073635 -1.936343
-7.8840399 -0.82915777 -1.9291106
-7.9063635 -0.78248459 -1.93345
-7.9148812 -0.7343154 -1.9344143
-7.9037676 -0.68439943 -1.9305571
-7.9145899 -0.63643348 -1.9322447
-7.9057636 -0.58692622 -1.9291106
-7.9305182 -0.53985333 -1.9344143
-7.9637098 -0.4930371 -1.9418876
-7.9694924 -0.44432509 -1.9426109
-7.9381423 -0.39373901 -1.9341732
-7.9316826 -0.34464616 -1.9320036
-7.9578938 -0.29687276 -1.9380305
-7.9130039 -0.24659427 -1.9264588
-7.9551163 -0.19905001 -1.936584
-7.9523067 -0.15016186 -1.9356197
-7.9530783 -0.10136459 -1.9356197
-7.9535508 -0.052563511 -1.9356197
-7.9440184 -0.003757277 -1.9332089
-7.9332166 0.044924363 -1.9305571
-7.9337621 0.09361241 -1.9307982
-7.9408011 0.14243166 -1.9327267
-7.9407477 0.19117633 -1.9329679
-7.9491258 0.24019076 -1.9353787
-7.922286 0.28804067 -1.9291106
-7.9155216 0.33643869 -1.9279053
-7.9133081 0.38500109 -1.9279053
-7.9107966 0.43354899 -1.9279053
-7.9157372 0.48255411 -1.9298339
-7.9165006 0.53137565 -1.9307982
-7.564395 -0.18843839 -1.9278784
-7.5654087 -0.14202058 -1.9278784
-7.5506544 -0.095400997 -1.9238507
-7.5491619 -0.049056575 -1.9233472
-7.5454497 -0.002733259 -1.9223403
-7.5791969 0.043758601 -1.9311509
-7.563302 0.090079255 -1.9271232
-7.5838952 0.13686819 -1.9326613
-7.5703349 0.18309596 -1.9293888
-7.5690689 0.22954322 -1.9293888
-7.5462403 0.27520698 -1.9238507
-7.5473104 0.32162812 -1.9246058
-7.5239286 0.36689559 -1.9190677
-7.5350647 0.41379687 -1.922592
-7.5236897 0.45949286 -1.9203265
-7.545835 0.50733536 -1.9268714
-7.5300322 0.55270582 -1.9235989
-7.5158868 0.59805495 -1.9208299
-7.5082188 0.64382976 -1.9198229
-7.4993081 0.68944448 -1.9185643
-7.4910841 0.73506856 -1.9175574
-7.4960585 0.78202283 -1.9200747
-7.503624 0.82938462 -1.9233472
-7.5147357 0.87731737 -1.9276266
-7.4755912 0.91927791 -1.9188161
-7.5024438 0.96934468 -1.927375
-7.4675837 1.0114651 -1.9198229
-7.4574037 1.0567234 -1.9188161
-7.4593959 1.1037357 -1.9210817
-7.4649177 1.1514021 -1.9243542
-7.4596233 1.197491 -1.9248576
-7.4378161 1.2408518 -1.9210817
-7.4157581 1.2839901 -1.9173057
-7.4134555 1.3304936 -1.9188161
-7.3908792 1.3733054 -1.91504
-7.3823137 1.4186292 -1.91504
-7.4038472 1.4699287 -1.9230955
-7.3757262 1.5114455 -1.9180609
-7.3577914 1.5548732 -1.9157952
-7.3396015 1.5981379 -1.9135296
-7.3353238 1.6444126 -1.91504
-7.3232093 1.6889554 -1.9145366
-7.2995248 1.7307328 -1.9110124
-7.2727823 1.7715963 -1.9067329
-7.2674084 1.8175964 -1.9082433
-7.2420573 1.8585464 -1.9044673
-7.2389407 1.9051642 -1.9067329
-7.2159019 1.9465216 -1.9037122
-7.2047553 1.9910187 -1.9039639
-7.2045093 2.0386136 -1.9072363
-7.1760612 2.0782056 -1.902957
-7.1659584 2.1230226 -1.9037122
-7.1759529 2.1739657 -1.9100055
-7.1458378 2.2128036 -1.9054743
-7.1099801 2.2496023 -1.8994327
-7.1015682 2.2949715 -1.9009432
-7.1287117 2.3521466 -1.912271
-7.0902977 2.3878136 -1.905726
-7.0544615 2.4240415 -1.8999362
-7.0476747 2.4701617 -1.9022018
-7.0433221 2.517267 -1.9052225
-7.0122848 2.5548053 -1.9009432
-6.9874039 2.5944154 -1.8984258
-6.9795003 2.640322 -1.9006914
-6.9685864 2.6851854 -1.9022018
-6.9636917 2.7324884 -1.9054743
-6.9431992 2.7737293 -1.9044673
-6.9233599 2.8151863 -1.9037122
-6.9157929 2.8616841 -1.9064811
-6.8856158 2.8988082 -1.902957
-6.8552442 2.9356699 -1.8994327
-6.8415384 2.9796095 -1.9006914
-6.8337464 3.0262341 -1.9037122
-6.8159318 3.0685055 -1.9039639
-6.7899351 3.1070483 -1.90195
-6.7663546 3.1466119 -1.9006914
-6.7556705 3.1922045 -1.9032087
-6.708909 3.220614 -1.8954051
-6.6994605 3.266808 -1.8984258
-6.6862278 3.3112893 -1.9004396
-6.6692429 3.353992 -1.9014466
-6.6571574 3.3992512 -1.9039639
-6.6404705 3.4422617 -1.9052225
-6.6217937 3.4842939 -1.9059777
-6.576386 3.5120947 -1.8989292
-6.5666251 3.5588357 -1.9024535
-6.531096 3.5915999 -1.8984258
-6.5199227 3.6377358 -1.9016984
-6.4738955 3.664326 -1.8946499
-6.4622011 3.7102439 -1.8979223
-6.4535317 3.7581041 -1.9022018
-6.4103508 3.785821 -1.8961602
-6.3870006 3.825083 -1.8961602
-6.3584466 3.861187 -1.8946499
-6.3296905 3.897085 -1.8931395
-6.3171535 3.9430234 -1.8966637
-6.2723942 3.9687748 -1.8903704
-6.2348895 3.9988277 -1.8863426
-6.2224073 4.0449204 -1.8901186
-6.1998954 4.0846214 -1.8908738
-6.1795454 4.1258106 -1.8923842
-6.1669393 4.1723261 -1.8964119
-6.1348362 4.2057099 -1.8943981
-6.1113 4.2449298 -1.8951533
-6.0835552 4.2812338 -1.8946499
-6.0666285 4.325223 -1.8976706
-6.047821 4.3680315 -1.9001878
-6.0060644 4.3942013 -1.8954051
-5.992208 4.4407663 -1.8996844
-5.9493666 4.4658313 -1.8946499
-5.9272461 4.5063515 -1.8964119
-5.9033179 4.5455875 -1.8976706
-5.8692102 4.5769634 -1.8956567
-5.8288631 4.6032934 -1.891629
-5.8042874 4.6419945 -1.8928877
-5.7914901 4.6903114 -1.898174
-5.7573633 4.7214637 -1.8964119
-5.7409425 4.767211 -1.9006914
-5.7041755 4.7961192 -1.898174
-5.6709552 4.8278923 -1.8969154
-5.6463566 4.8670206 -1.8986775
-5.6018028 4.8888483 -1.8936429
-5.5789528 4.9295359 -1.8961602
-5.5457153 4.9610939 -1.8951533
-5.502975 4.9839849 -1.8908738
-5.4765706 5.0215807 -1.8923842
-5.439981 5.0498228 -1.8903704
-5.4117146 5.0857577 -1.8913773
-5.3874192 5.1255379 -1.8938947
-5.3481998 5.1511135 -1.8911256
-5.3213434 5.1885614 -1.8928877
-5.2797632 5.2115974 -1.8893634
-5.2565866 5.2527881 -1.8926359
-5.2065663 5.2670484 -1.886091
-5.1829405 5.3078976 -1.8893634
-5.1207099 5.3089519 -1.8782873
-5.1247582 5.3788075 -1.8921325
-5.0883412 5.4066277 -1.8908738
-5.0517759 5.4342031 -1.8896152
-5.0157189 5.4622469 -1.8886082
-4.9678035 5.47715 -1.8830701
-4.9250617 5.4974375 -1.8795459
-4.902782 5.5405989 -1.8840771
-4.880795 5.5844226 -1.88886
-4.8211398 5.5849628 -1.8787907
-4.7943158 5.6232767 -1.8818115
-4.7528644 5.6444454 -1.8790425
-4.7286615 5.6861515 -1.8833219
-4.7004399 5.7232852 -1.886091
-4.6554794 5.7399931 -1.8820633
-4.6244073 5.7737379 -1.8838253
-4.5948973 5.8095946 -1.8863426
-4.5526104 5.829289 -1.8835737
-4.5368524 5.8831697 -1.8921325
-4.4613843 5.8593087 -1.8752664
-4.431746 5.895082 -1.8780355
-4.4110656 5.9431458 -1.8848323
-4.3762321 5.9724412 -1.8855875
-4.3275914 5.9827142 -1.8803011
-4.3132982 6.040659 -1.8903704
-4.283401 6.0772943 -1.8936429
-4.2432671 6.0994902 -1.8923842
-4.2106919 6.1325922 -1.8946499
-4.1659255 6.1478977 -1.8913773
-4.1227441 6.1652989 -1.88886
-4.0869694 6.1937108 -1.8898669
-4.0573382 6.2316475 -1.8938947
-4.0190248 6.2564254 -1.8938947
-3.9665718 6.2588973 -1.8870978
-3.9439988 6.3085566 -1.8949015
-3.8970873 6.319458 -1.8908738
-3.8562267 6.3399439 -1.8898669
-3.8297002 6.3842335 -1.8961602
-3.78602 6.400115 -1.8938947
-3.7452154 6.4207177 -1.8931395
-3.7134686 6.4569998 -1.8971671
-3.6795077 6.4897661 -1.9001878
-3.6415069 6.5155997 -1.9011948
-3.5967894 6.5293446 -1.8986775
-3.5589674 6.5555434 -1.8999362
-3.5214157 6.5823774 -1.9014466
-3.4908898 6.6226954 -1.9069847
-3.4336836 6.6122122 -1.8976706
-3.3904026 6.6279869 -1.8961602
-3.3535895 6.6564436 -1.8984258
-3.3118229 6.6751618 -1.8979223
-3.2763255 6.7066612 -1.9011948
-3.2401466 6.7371039 -1.9042156
-3.2041316 6.7682295 -1.9074881
-3.1510963 6.7631998 -1.9004396
-3.1063118 6.7753696 -1.8984258
-3.0575168 6.7784228 -1.8938947
-3.0264668 6.82094 -1.9006914
-2.9895899 6.8509126 -1.9039639
-2.9448254 6.8629022 -1.9022018
-2.9195895 6.9209676 -1.9135296
-2.8859658 6.960207 -1.9195713
-2.831882 6.9500008 -1.9117676
-2.7755146 6.9331045 -1.9022018
-2.7382348 6.9635139 -1.9059777
-2.7059162 7.0072684 -1.9135296
-2.658752 7.0128808 -1.9105089
-2.6268115 7.0589938 -1.9188161
-2.5612047 7.0140715 -1.90195
-2.5220361 7.0405874 -1.9049708
-2.4871297 7.07967 -1.9115158
-2.4395452 7.082902 -1.9082433
-2.3988256 7.1059899 -1.9105089
-2.3560908 7.1233315 -1.9112641
-2.3030908 7.1091132 -1.9034604
-2.2746451 7.1710801 -1.9165505
-2.2211304 7.1544013 -1.9082433
-2.1684692 7.1391892 -1.9004396
-2.1298602 7.1699867 -1.9052225
-2.0890651 7.1940732 -1.9082433
-2.0475259 7.2160664 -1.9107606
-2.0052786 7.2359548 -1.9127744
-1.9519944 7.215426 -1.9039639
-1.920284 7.2749896 -1.9168022
-1.8804353 7.3053799 -1.9218369
-1.8237978 7.269846 -1.9092503
-1.7699653 7.2432947 -1.899181
-1.7425126 7.3255739 -1.9183125
-1.7012407 7.3521566 -1.922592
-1.6284798 7.2397118 -1.8898669
-1.597872 7.3129144 -1.9067329
-1.5668284 7.3879056 -1.9241024
-1.5144467 7.3632545 -1.91504
-1.473779 7.3951874 -1.9210817
-1.4250745 7.3869863 -1.9165505
-1.3747509 7.3689528 -1.909502
-1.3338023 7.4010606 -1.9157952
-1.286375 7.3976636 -1.9127744
-1.2414396 7.4082808 -1.9135296
-1.2008923 7.4463329 -1.9215851
-1.1525109 7.4363465 -1.9170539
-1.1044399 7.4270048 -1.9127744
-1.059667 7.4393902 -1.9142848
-1.0166126 7.464931 -1.9193195
-0.96866864 7.4547129 -1.91504
-0.925762 7.4835677 -1.9210817
-0.87756681 7.4698834 -1.916047
-0.82957453 7.4558902 -1.9110124
-0.78492326 7.4714274 -1.9137814
-0.73668319 7.4520259 -1.9074881
-0.69192737 7.4670057 -1.9102572
-0.64467925 7.4547195 -1.9059777
-0.6012513 7.4874759 -1.9135296
-0.55443859 7.4794421 -1.9105089
-0.5096516 7.4991179 -1.9147884
-0.46344903 7.4992061 -1.9140332
-0.41753367 7.5038414 -1.9145366
-0.3707169 7.4907961 -1.9105089
-0.32483116 7.4948635 -1.9110124
-0.27905357 7.5025182 -1.9125228
-0.23262258 7.4915142 -1.9092503
-0.18703757 7.5082803 -1.913278
-0.1412009 7.5218658 -1.9165505
-0.095008112 7.5196872 -1.9157952
-0.048695225 7.493999 -1.9089985
-0.0027063808 7.4806075 -1.9054743
0.043271333 7.4940319 -1.9089985
0.088897303 7.4636259 -1.9011948
0.13547516 7.5064836 -1.9125228
0.18071428 7.4716482 -1.9037122
0.22664391 7.4733009 -1.9044673
0.27295282 7.4843426 -1.9077399
0.31734803 7.4467506 -1.8984258
0.36510628 7.487196 -1.909502
0.41188824 7.5002761 -1.9135296
0.45572034 7.4618659 -1.9042156
0.49747485 7.3990607 -1.8886082
0.5453431 7.4296508 -1.8974189
0.58792841 7.3885398 -1.8876014
0.63854116 7.446506 -1.9037122
0.68448567 7.4453387 -1.9044673
0.73214024 7.4612255 -1.9097537
0.77640212 7.4421539 -1.9059777
0.82343328 7.4497552 -1.9092503
0.87271821 7.4753232 -1.9173057
0.91856951 7.4698277 -1.9173057
0.96351844 7.4573321 -1.9155436
1.0082189 7.4436073 -1.9135296
1.0498011 7.408534 -1.9059777
1.0870259 7.3464251 -1.8913773
1.1460929 7.4304838 -1.9152918
1.1870635 7.3946443 -1.9077399
1.2292297 7.3681293 -1.9027052
1.275737 7.3680773 -1.9047191
1.3181882 7.3448691 -1.9006914
1.3646446 7.344255 -1.9027052
1.4093173 7.3338423 -1.9022018
1.4557977 7.3326511 -1.9042156
1.4997914 7.31884 -1.902957
1.5468712 7.3199158 -1.905726
1.5876392 7.2913733 -1.9006914
1.6355231 7.29566 -1.9044673
1.6785181 7.2779431 -1.9024535
1.7296168 7.294816 -1.9097537
1.7715963 7.2727823 -1.9067329
1.8185356 7.2711639 -1.9092503
1.8664837 7.2729926 -1.9127744
1.9054105 7.2398767 -1.9069847
1.9475297 7.2196393 -1.9047191
1.9905032 7.2028894 -1.9034604
2.0328176 7.1840215 -1.9016984
2.075783 7.1676946 -1.9006914
2.1169755 7.1455436 -1.898174
2.1630242 7.1398296 -1.9001878
2.2116587 7.1421394 -1.9044673
2.2519376 7.117362 -1.9014466
2.2919958 7.0923591 -1.8984258
2.3345609 7.0754051 -1.8976706
2.3847253 7.0811257 -1.9032087
2.4230981 7.0517154 -1.899181
2.4599197 7.0184479 -1.8941463
2.5084739 7.0187154 -1.8984258
2.5448678 6.9850044 -1.8933911
2.5853214 6.9629068 -1.891629
2.6197791 6.9251876 -1.8855875
2.6730077 6.9369783 -1.8933911
2.714108 6.9168429 -1.8923842
2.7500362 6.8838816 -1.887853
