# .PCD v0.7 - Point Cloud Data file format
VERSION 0.7
FIELDS x y z
SIZE 4 4 4
TYPE F F F
COUNT 1 1 1
WIDTH 1479
HEIGHT 1
VIEWPOINT 0 0 0 1 0 0 0
POINTS 1479
DATA ascii
11.617959 -11.31556 -1.3841658
11.487304 -11.326485 -1.3766553
11.381631 -11.360866 -1.3722016
11.334131 -11.453146 -1.3749961
11.265732 -11.524612 -1.3752581
11.201726 -11.600687 -1.3761314
11.148212 -11.687943 -1.378402
11.073554 -11.753226 -1.3780526
6.9583015 -7.476995 -0.85783017
10.92377 -11.883098 -1.3774413
10.844625 -11.943263 -1.3766553
10.721917 -11.954702 -1.370193
6.7390213 -7.60748 -0.85337633
6.6790957 -7.6336927 -0.85162973
6.5650382 -7.5968995 -0.8426348
10.250035 -12.008898 -1.3465266
10.166526 -12.06014 -1.3452168
10.094248 -12.12459 -1.3454787
10.029785 -12.19861 -1.346876
9.9541197 -12.259149 -1.3467886
9.8787117 -12.319996 -1.3467886
9.785615 -12.358511 -1.3443434
2.0099277 -2.5711629 -0.24853148
1.9941137 -2.5834472 -0.24853148
1.9758086 -2.5924652 -0.24818215
1.9556708 -2.5989683 -0.24757084
1.9396871 -2.6109192 -0.24757084
1.9265766 -2.6267877 -0.24800749
1.9273678 -2.661957 -0.25054005
1.9225852 -2.6899407 -0.25228664
9.0908642 -12.883046 -1.3446927
1.8820289 -2.7027047 -0.25115135
1.8862907 -2.7445755 -0.25438255
1.8677368 -2.7536247 -0.25412056
1.8557938 -2.7724831 -0.25490654
8.6848116 -13.14587 -1.3436447
8.594739 -13.184726 -1.3421602
8.4737988 -13.175214 -1.3356978
8.3549013 -13.16724 -1.3294973
8.2750092 -13.219946 -1.3296721
8.207345 -13.292509 -1.3319426
8.120966 -13.334961 -1.3311566
8.0307837 -13.370875 -1.3297594
7.9445291 -13.413043 -1.3290608
7.8666005 -13.469279 -1.3298467
7.7917604 -13.531107 -1.331244
7.719409 -13.59772 -1.3331653
7.6489649 -13.668301 -1.3355231
7.5553308 -13.697531 -1.3337766
7.4806581 -13.761136 -1.3355231
7.4045482 -13.822583 -1.337095
7.305644 -13.841327 -1.3344752
7.1998954 -13.846121 -1.3305453
7.1048098 -13.870533 -1.3286241
7.0173244 -13.909419 -1.3281875
6.9349484 -13.95846 -1.3287988
6.8399773 -13.981957 -1.3269649
6.7263908 -13.966224 -1.3213757
6.6290464 -13.982929 -1.3190179
6.5351205 -14.006189 -1.3173586
6.4357553 -14.017055 -1.314564
6.3422446 -14.039938 -1.3129921
6.2571912 -14.081321 -1.3132541
6.1846356 -14.151397 -1.3163106
6.1102748 -14.218366 -1.3191051
6.0248561 -14.260179 -1.3195418
5.9383903 -14.299638 -1.3198038
5.8527961 -14.34134 -1.3203278
5.7869353 -14.432459 -1.3255676
5.7026515 -14.478817 -1.3266155
5.6180162 -14.524685 -1.3276634
5.5432897 -14.597065 -1.331244
5.460927 -14.650406 -1.3330779
5.3640862 -14.664927 -1.3313313
5.2575154 -14.65162 -1.3270521
5.1777682 -14.712733 -1.3297594
5.0860953 -14.74046 -1.3294101
4.990128 -14.755348 -1.3279254
4.8951097 -14.77245 -1.3267028
4.8028374 -14.797471 -1.3262662
4.7089343 -14.817168 -1.3253928
4.6167455 -14.841977 -1.3250436
4.5087657 -14.814752 -1.3199785
4.3930526 -14.759072 -1.3123808
4.2804198 -14.710186 -1.3054818
4.1936216 -14.74863 -1.306617
4.1550326 -14.961253 -1.3236463
4.0681071 -15.004734 -1.3253056
3.9247494 -14.835841 -1.3077524
3.8577859 -14.953209 -1.3162233
3.7321911 -14.842311 -1.3040844
3.6424723 -14.870737 -1.3046085
3.5735738 -14.986801 -1.3130795
3.4819994 -15.010386 -1.3132541
3.3970647 -15.063538 -1.316136
3.3056386 -15.088964 -1.3165725
3.22066 -15.145015 -1.3198038
3.1349163 -15.199615 -1.3229476
3.0454996 -15.238101 -1.3246943
2.9502394 -15.247699 -1.3239083
2.8590083 -15.278243 -1.3250436
2.7678676 -15.310203 -1.3263535
2.6764424 -15.341618 -1.3276634
0.44814286 -2.6672974 -0.19953956
0.42842555 -2.6493461 -0.19770564
0.41353962 -2.660784 -0.1984916
0.4064725 -2.7253428 -0.20399337
0.38043344 -2.6626999 -0.19822961
0.38177228 -2.7942798 -0.2096698
0.25489694 -1.9559517 -0.1353523
0.24215344 -1.9515474 -0.13482831
0.22877277 -1.9411248 -0.13378036
0.21575066 -1.9325919 -0.13290706
0.20305121 -1.925954 -0.13220844
0.19103281 -1.9251812 -0.13203377
0.19105503 -2.0532773 -0.14321196
0.16817109 -1.9363122 -0.13281974
0.15692942 -1.9452511 -0.13351837
0.1467718 -1.9700193 -0.13561429
0.16737816 -2.4479296 -0.17753249
0.15061826 -2.4210718 -0.17508727
0.11048532 -1.9723872 -0.13561429
0.098231457 -1.9700432 -0.1353523
0.086141653 -1.9706088 -0.1353523
0.073710196 -1.962141 -0.13456634
0.060630113 -1.9296988 -0.13168445
0.048560128 -1.9210719 -0.13089849
0.03584674 -1.873526 -0.12670666
0.024192417 -1.8617575 -0.12565871
0.013212391 -1.9246287 -0.13116047
0.0023784922 -2.9646845 -0.22233258
-0.013787945 -2.5751424 -0.18818671
-0.029791685 -2.5929394 -0.18975864
-0.058961444 -3.3516805 -0.25630382
-0.079337753 -3.3432884 -0.25560516
-0.10331625 -3.4592402 -0.26582274
-0.12293183 -3.4137421 -0.26189291
-0.67897427 -16.141821 -1.3787513
-0.15920466 -3.2955585 -0.25167534
-0.16045085 -2.9453757 -0.22102265
-0.17864062 -2.9463243 -0.22119731
-0.20632237 -3.089299 -0.23386009
-1.1654816 -15.999139 -1.3687084
-1.2640207 -15.996652 -1.369145
-1.3618124 -15.984625 -1.3687958
-1.4573289 -15.948191 -1.3663505
-1.554094 -15.928041 -1.3653898
-0.30971444 -2.9815161 -0.22521447
-0.32245037 -2.9290588 -0.22076066
-1.7604594 -15.151625 -1.2996306
-1.8517008 -15.126695 -1.298408
-0.48534507 -3.7703662 -0.29568946
-0.49009708 -3.6310778 -0.28363797
-0.43316546 -3.0667367 -0.23394743
-0.4518292 -3.0630357 -0.23386009
-0.46985868 -3.0552826 -0.23342344
-0.49064195 -3.0651298 -0.23455873
-0.51434088 -3.0915425 -0.23717862
-0.4735066 -2.7417979 -0.20635127
-0.48418176 -2.7045193 -0.20329474
-0.49895304 -2.6917024 -0.20242144
-0.52595562 -2.7433798 -0.2073119
-3.1664405 -15.995113 -1.3918507
-3.2525597 -15.916822 -1.386611
-0.5568496 -2.6406305 -0.19901559
-0.5645864 -2.5982244 -0.1955224
-0.57421499 -2.5665181 -0.19298984
-0.59598148 -2.5891588 -0.19534774
-0.60635465 -2.5621865 -0.19325183
-0.62841523 -2.5845542 -0.19560973
-3.9190142 -15.706424 -1.3815458
-4.0064187 -15.64734 -1.378402
-0.63945162 -2.4338024 -0.18303426
-0.6854406 -2.5452669 -0.19351381
-4.2693954 -15.482593 -1.3703676
-0.925318 -3.2758214 -0.26084495
-0.9288072 -3.2126608 -0.25560516
-4.5415115 -15.360306 -1.3666124
-0.8047061 -2.6603553 -0.20608929
-0.86778069 -2.8066988 -0.21997468
-4.7976785 -15.192413 -1.3591021
-5.0320792 -15.600706 -1.3994484
-5.1604266 -15.668886 -1.408618
-5.2745633 -15.69075 -1.4135958
-5.3781738 -15.679764 -1.4156044
-5.4726372 -15.641768 -1.4151677
-5.5768781 -15.63135 -1.417351
-1.2005663 -3.2999833 -0.27027655
-5.8018613 -15.652342 -1.4258219
-5.8805485 -15.570783 -1.4215428
-1.1727657 -3.0476739 -0.24870613
-1.2027076 -3.0691748 -0.25141335
-1.3027039 -3.2653046 -0.27062586
-1.3583114 -3.3449371 -0.27892217
-1.2567152 -3.0409927 -0.25088936
-1.2568227 -2.9891434 -0.24669755
-1.2567335 -2.9383247 -0.24259306
-6.683567 -15.369454 -1.431673
-6.8115849 -15.404687 -1.4390087
-1.3996415 -3.1127708 -0.26163092
-1.4303064 -3.1294944 -0.26407614
-7.0062966 -15.087861 -1.4207568
-7.1017179 -15.050894 -1.4213681
-1.9303212 -4.0260992 -0.35385099
-7.308558 -15.009186 -1.4259093
-1.3980111 -2.8260825 -0.23883788
-1.3616782 -2.7106235 -0.22835833
-1.3579216 -2.6622813 -0.2244285
-1.3756053 -2.656553 -0.22469048
-1.3890995 -2.6427715 -0.22416651
-1.4104456 -2.6438673 -0.22512713
-1.9401524 -3.5839784 -0.3197051
-1.9611477 -3.57026 -0.31953046
-1.4743875 -2.6453044 -0.22792168
-1.5052971 -2.6622248 -0.23054157
-1.5206128 -2.6512098 -0.23036692
-8.6377935 -14.851965 -1.4686135
-8.736352 -14.811556 -1.4699234
-5.0477796 -8.4388714 -0.82447022
-8.9097061 -14.690455 -1.4686135
-9.000721 -14.637207 -1.4687881
-1.3657935 -2.1902001 -0.18871069
-1.3749492 -2.1750414 -0.18801205
-5.2392492 -8.1785603 -0.81390339
-5.2877059 -8.1437521 -0.81364137
-1.409276 -2.1410427 -0.18713875
-1.4063592 -2.1083198 -0.18460619
-9.7174063 -14.380028 -1.4838961
-9.8065834 -14.321775 -1.4840708
-9.8937073 -14.260515 -1.4839835
-5.5752788 -7.9313836 -0.81233144
-1.6697223 -2.3441446 -0.21473491
-1.6776636 -2.3249681 -0.21377429
-1.6489921 -2.2559154 -0.20739922
-1.7102169 -2.3098104 -0.2143856
-1.7088205 -2.2785501 -0.21211502
-1.6631262 -2.1894794 -0.2034694
-1.5848255 -2.0599961 -0.19028263
-1.6237577 -2.0840271 -0.1940378
-1.6667453 -2.1123495 -0.19831695
-10.967883 -13.729674 -1.502934
-10.977366 -13.569952 -1.4925418
-11.07431 -13.519295 -1.494463
-1.6169648 -1.9488941 -0.18443154
-1.6269705 -1.9366474 -0.18416955
-1.6381776 -1.9258692 -0.18408222
-1.6551635 -1.9218206 -0.18478085
-1.6754341 -1.9213907 -0.18591614
-1.6937838 -1.9185431 -0.18678944
-1.7048601 -1.9073713 -0.1867021
-1.7285608 -1.910172 -0.18827404
-1.7415946 -1.9009991 -0.1884487
-2.2767911 -2.4549465 -0.25595447
-2.2897661 -2.4387512 -0.25569251
-2.3300774 -2.4513741 -0.25892371
-3.4148872 -3.549058 -0.39419726
-2.3766651 -2.4397235 -0.26101962
-12.455324 -12.632228 -1.5176054
-3.4212244 -3.4270792 -0.38694891
-3.2503047 -3.2161236 -0.36328259
-3.4338162 -3.356286 -0.3833684
-3.3862681 -3.2694142 -0.37507206
-3.4004984 -3.2430742 -0.37437344
-12.955344 -12.206211 -1.5228451
-3.5187955 -3.2743986 -0.38380504
-2.5839736 -2.3749404 -0.27010188
-3.4775882 -3.1573057 -0.37419879
-3.5065362 -3.1445551 -0.37533405
-3.4288297 -3.0371041 -0.36398122
-2.6879604 -2.3514829 -0.27551633
-3.5005119 -3.0247622 -0.36799839
-3.403837 -2.9049208 -0.35472429
-13.563621 -11.434005 -1.5176054
-13.618212 -11.337817 -1.5158588
-3.3643949 -2.7658522 -0.34424472
-3.9906878 -3.2399879 -0.41306046
-3.7975483 -3.0446832 -0.38913214
-13.622135 -10.786221 -1.4856427
-13.718668 -10.726365 -1.4890486
-13.771609 -10.632246 -1.4876513
-3.3070569 -2.5205636 -0.32695347
-11.24665 -8.4645529 -1.1964071
-11.276787 -8.3793421 -1.1940491
-11.353692 -8.3288479 -1.1968437
-4.0666184 -2.9446635 -0.40258092
-14.178742 -10.136107 -1.4903585
-3.0646966 -2.1622138 -0.29123566
-3.0811756 -2.1456459 -0.29158497
-3.0688348 -2.1092052 -0.28887776
-3.1443701 -2.1328418 -0.29551479
-3.1731255 -2.1240385 -0.29717407
-3.1437094 -2.0765226 -0.29272026
-3.1647367 -2.0626342 -0.29359356
-3.2837381 -2.1116166 -0.3046844
-5.7030931 -3.6184669 -0.55453444
-3.4605486 -2.1657755 -0.3203164
-3.4152873 -2.1083879 -0.31429067
-15.137822 -9.2189684 -1.5162081
-3.5664368 -2.1417205 -0.32712811
-3.5512266 -2.1030431 -0.32424626
-3.5847087 -2.0932717 -0.32634217
-15.471732 -8.909318 -1.5275609
-15.559894 -8.8333988 -1.5309668
-15.635533 -8.7499218 -1.5331501
-3.8382399 -2.1167784 -0.34668994
-3.8922908 -2.11555 -0.35079443
-3.9385664 -2.1095035 -0.35411298
-3.9408641 -2.0797169 -0.35306501
-3.9358745 -2.0463049 -0.35131842
-3.9190979 -2.0071285 -0.34843653
-3.8948746 -1.9646457 -0.34485602
-7.6600375 -3.8055155 -0.71225172
-7.6671367 -3.7505627 -0.71067977
-7.7546253 -3.7345717 -0.71696752
-16.613125 -7.8760571 -1.5741949
-9.9799805 -4.6564121 -0.92786849
-5.7362304 -2.6334565 -0.51576006
-5.7568202 -2.6002607 -0.51619673
-5.7735767 -2.5652931 -0.51628405
-5.7974238 -2.5334094 -0.51707
-10.119949 -4.3488736 -0.92804319
-10.168467 -4.2960024 -0.93013906
-10.283874 -4.2705908 -0.93861008
-10.314496 -4.2092919 -0.93904668
-10.234723 -4.1036568 -0.9290911
-9.6377811 -3.7958081 -0.87049294
-10.461767 -4.0463958 -0.9457711
-10.445422 -3.9665656 -0.94192857
-10.361286 -3.8620353 -0.93179834
-10.39695 -3.8028357 -0.93293363
-10.511976 -3.771945 -0.9414919
-10.405247 -3.6617339 -0.92944044
-10.403035 -3.589371 -0.92716986
-7.7967525 -2.6365921 -0.68395692
-7.809001 -2.5874491 -0.68360758
-10.469236 -3.397892 -0.92734456
-10.495584 -3.3354006 -0.92786849
-10.511096 -3.2694585 -0.92743188
-10.522383 -3.2022915 -0.92664587
-10.392888 -3.0933292 -0.91302246
-10.924357 -3.1786988 -0.95983112
-10.911077 -3.102344 -0.95686191
-10.842562 -3.0110765 -0.94891495
-9.7099628 -2.6324332 -0.84438139
-11.062637 -2.9264607 -0.96559489
-11.073633 -2.8567843 -0.96498358
-11.100615 -2.7912135 -0.96585691
-11.162041 -2.733952 -0.96987402
-11.204769 -2.6716509 -0.97223192
-10.97835 -2.546566 -0.95039958
-11.426206 -2.5766892 -0.98926121
-11.434989 -2.5050385 -0.9886499
-11.292294 -2.4012556 -0.9745025
-11.295107 -2.3295071 -0.97345459
-11.515305 -2.301358 -0.99188113
-11.516495 -2.2281978 -0.99074584
-11.579887 -2.1668382 -0.99519962
-11.576301 -2.0927312 -0.99371505
-11.870571 -2.0708039 -1.0187787
-11.803481 -1.9845468 -1.0117049
-11.956059 -1.9348465 -1.024193
-13.141038 -2.0439882 -1.1282899
-13.445954 -2.007005 -1.1542269
-14.181846 -2.027992 -1.2183268
-15.179039 -2.0756583 -1.3054818
-15.854303 -2.0689969 -1.36408
-15.771796 -1.9598824 -1.3556963
-19.5795 -2.3112421 -1.6907799
-20.214048 -2.2604887 -1.7455356
-21.945354 -2.317884 -1.8969651
-22.237717 -2.210885 -1.9215049
-22.236977 -2.0731006 -1.9202822
-22.332642 -1.9438756 -1.9276179
-22.357058 -1.8078525 -1.9287531
-22.362762 -1.6702671 -1.9283165
-22.369608 -1.5328159 -1.9280546
-22.367655 -1.3948475 -1.9270939
-22.357891 -1.2565694 -1.925522
-22.362194 -1.1192108 -1.9252599
-22.357695 -0.98149717 -1.9242994
-22.34239 -0.84350485 -1.9224654
-22.328228 -0.70580029 -1.9208062
-19.441717 1.4333674 -1.9149221
-19.424622 1.5519981 -1.9141248
-19.397881 1.6697044 -1.9124305
-19.361509 1.7863179 -1.9098392
-19.338301 1.9039136 -1.9086431
-19.307451 2.0205665 -1.9067495
-19.2759 2.1369126 -1.9048558
-19.253531 2.2541051 -1.9039588
-19.247238 2.3731749 -1.9047561
-19.22146 2.4898224 -1.9036598
-19.207792 2.6079838 -1.9038591
-19.184532 2.7248118 -1.9031614
-19.152689 2.8402843 -1.9016664
-19.122118 2.9557726 -1.9003707
-19.072186 3.0679893 -1.8971814
-19.03043 3.1811817 -1.8948891
-18.988003 3.2939773 -1.8925967
-18.952745 3.4077814 -1.8911017
-18.894306 3.5170875 -1.8873144
-18.883118 3.6350241 -1.8884107
-18.857531 3.7502379 -1.8881117
-18.833189 3.8656747 -1.8880121
-18.809116 3.9811602 -1.8880121
-18.780445 4.0956478 -1.8876134
-18.746223 4.2088428 -1.8867164
-18.717138 4.3231163 -1.8864174
-18.687355 4.4371915 -1.8861184
-18.647211 4.5487051 -1.8848227
-18.608332 4.660377 -1.8837264
-18.573605 4.7729816 -1.8831284
-18.53146 4.8835602 -1.8818327
-18.487698 4.9935417 -1.8804374
-18.450956 5.1052938 -1.8798393
-18.415455 5.2173257 -1.8794407
-18.378317 5.3288364 -1.8789424
-18.346228 5.4417863 -1.879042
-18.320108 5.5565653 -1.8798393
-18.301826 5.6738806 -1.8815337
-18.285639 5.7920823 -1.883527
-18.284782 5.9155064 -1.8872147
-18.284988 6.0397615 -1.8911017
-18.275869 6.1613803 -1.8940917
-18.26877 6.2840858 -1.8973807
-18.265545 6.4085827 -1.9011681
-18.268038 6.5356226 -1.9056531
-18.259375 6.6591835 -1.9090418
-18.271332 6.7908573 -1.9147228
-18.268402 6.9176421 -1.9189088
-18.24975 7.0389156 -1.9215002
-18.234926 7.1620398 -1.9245899
-18.228516 7.2889414 -1.9286762
-18.214783 7.4134073 -1.9320649
-18.202045 7.5387406 -1.935653
-18.205877 7.6715379 -1.9411346
-18.193214 7.7980008 -1.944922
-18.186069 7.9273796 -1.949407
-18.172562 8.0545444 -1.953294
-18.162712 8.1838856 -1.9576794
-18.13839 8.3071928 -1.9605697
-18.10602 8.4271498 -1.9626627
-18.07106 8.5461712 -1.9645563
-18.041601 8.6680965 -1.9671477
-18.022053 8.7952204 -1.9709351
-18.06492 8.9538059 -1.9817988
-17.985645 9.0524025 -1.9791077
-17.95014 9.1730051 -1.9814001
-17.935911 9.3049688 -1.9861841
-17.912815 9.43293 -1.9900712
-17.905495 9.569869 -1.9958519
-17.884047 9.6999559 -2.0001376
-17.866905 9.8330183 -2.0050211
-17.829691 9.9555616 -2.0077121
-17.807226 10.086845 -2.0121973
-17.77347 10.212279 -2.0154862
-17.736263 10.336175 -2.0184762
-17.700775 10.461516 -2.0217652
-17.666122 10.587833 -2.0252535
-17.621231 10.708434 -2.0276456
-17.58823 10.836713 -2.0315328
-17.563601 10.970787 -2.036516
-17.512768 11.088996 -2.0385094
-17.487101 11.223656 -2.0435925
-17.458773 11.357332 -2.048476
-17.414509 11.481223 -2.0515656
-17.378481 11.611079 -2.0557518
-17.329979 11.733114 -2.0585425
-17.269966 11.847672 -2.0600374
-17.203482 11.957959 -2.0608349
-17.175341 12.095378 -2.066416
-17.12672 12.21903 -2.0696056
-17.084486 12.347787 -2.0736918
-17.062189 12.491768 -2.0803695
-16.998806 12.606301 -2.0820639
-16.936251 12.721722 -2.0839574
-16.846786 12.816966 -2.0825622
-16.748123 12.90491 -2.0800705
-16.640387 12.985394 -2.0764825
-16.539318 13.070594 -2.0737915
-16.439386 13.156287 -2.0712998
-16.349075 13.249392 -2.0701039
-16.234398 13.322314 -2.0658181
-16.146992 13.417224 -2.0651205
-16.00193 13.463514 -2.0569477
-15.900084 13.545315 -2.054456
-15.772973 13.604924 -2.0486753
-15.678706 13.692286 -2.0472801
-15.59067 13.784935 -2.0467818
-15.490967 13.867064 -2.0447884
-15.403377 13.959849 -2.0444894
-15.297636 14.035935 -2.0417984
-15.194459 14.11396 -2.039506
-15.087276 14.187839 -2.0367153
-14.978318 14.259562 -2.0337253
-14.869049 14.330482 -2.0307353
-14.758762 14.399905 -2.0276456
-14.653139 14.47341 -2.0252535
-14.547171 14.546161 -2.0228617
-14.441561 14.618865 -2.0205693
-14.334912 14.690109 -2.0181773
-14.232077 14.764894 -2.0163832
-14.12063 14.830322 -2.0133932
-14.008917 14.89494 -2.0104032
-13.898975 14.960934 -2.0077121
-13.786735 15.023939 -2.0047221
-13.690948 15.104564 -2.0042238
-13.589383 15.178648 -2.0029283
-13.487425 15.252055 -2.0016325
-13.386386 15.326282 -2.0005362
-13.282346 15.396828 -1.9990412
-13.173427 15.461374 -1.9968485
-13.069982 15.532016 -1.9955528
-12.950903 15.583604 -1.9918652
-12.841784 15.646623 -1.9897722
-12.728621 15.704252 -1.9870812
-12.610884 15.755644 -1.9836924
-12.499782 15.814772 -1.9814001
-12.384757 15.868423 -1.9785098
-12.281691 15.937021 -1.9776127
-12.175839 16.001785 -1.976317
-12.072644 16.06983 -1.9755198
-11.966702 16.134012 -1.9743237
-11.855136 16.190275 -1.9722308
-11.752074 16.257874 -1.9716327
-11.628981 16.297277 -1.967646
-11.52418 16.361816 -1.9668487
-11.41789 16.424049 -1.965852
-11.31521 16.491337 -1.965553
-11.198188 16.537386 -1.9627624
-11.087109 16.591721 -1.961068
-10.971402 16.63867 -1.9585763
-10.861506 16.693998 -1.957181
-10.741671 16.733534 -1.9539917
-10.627083 16.780634 -1.951799
-10.517592 16.835398 -1.950603
-10.412529 16.897074 -1.950304
-10.301937 16.949591 -1.9490083
-10.190069 16.999681 -1.9475133
-10.074431 17.043041 -1.9453206
-9.9486246 17.06843 -1.9411346
-9.7723227 17.004917 -1.9267825
-9.5353842 16.830803 -1.8998724
-9.4440603 16.910713 -1.9023641
-9.5176325 17.290878 -1.9392409
-9.4189491 17.362946 -1.9408356
-9.3141108 17.423923 -1.9412342
-9.2028513 17.472822 -1.9403373
-9.0872192 17.513062 -1.9385433
-8.9669113 17.543682 -1.9357526
-8.8412027 17.56282 -1.9317659
-8.7231092 17.596233 -1.9294735
-8.6101761 17.639589 -1.9283773
-8.4922991 17.672358 -1.9261845
-8.3773232 17.71064 -1.9246895
-8.2596769 17.742765 -1.9225966
-8.1423674 17.775019 -1.9206032
-8.0261993 17.809223 -1.9189088
-7.9171762 17.859045 -1.9190085
-7.7963128 17.881748 -1.9162178
-7.6872296 17.931078 -1.9164171
-7.5735846 17.969656 -1.9155202
-7.4589939 18.005676 -1.9144238
-7.3431211 18.038202 -1.9130285
-7.2282386 18.072756 -1.9119321
-7.1132088 18.106581 -1.9108359
-6.9944553 18.13039 -1.9087428
-6.8792014 18.162729 -1.9076464
-6.7652011 18.198069 -1.9069488
-6.6564808 18.24765 -1.9078459
-6.5457306 18.291897 -1.9082445
-6.4340296 18.333595 -1.9084438
-6.3204446 18.369905 -1.9081448
-6.2031593 18.395142 -1.9067495
-6.0873632 18.424353 -1.9058524
-5.9723611 18.455677 -1.9052545
-5.8551006 18.479645 -1.9039588
-5.7421908 18.517124 -1.9041581
-5.6241312 18.537725 -1.9026631
-5.5097141 18.569979 -1.9024638
-5.3964987 18.606302 -1.9027628
-5.2838583 18.644808 -1.9033607
-5.1690912 18.675919 -1.9032611
-5.0538816 18.705364 -1.9030617
-4.9397731 18.738909 -1.9033607
-4.8247004 18.768866 -1.9033607
-4.7092042 18.79715 -1.9032611
-4.5947218 18.829559 -1.9036598
-4.4788694 18.856428 -1.9035602
-4.3626366 18.881617 -1.9033607
-3.3010621 14.696488 -1.471005
-3.1752031 14.553142 -1.4542609
-3.0166113 14.245272 -1.4207728
-2.9307477 14.27131 -1.4215701
-2.8413787 14.280241 -1.4206731
-2.7646134 14.354077 -1.4264538
-2.6910548 14.449028 -1.4344271
-2.5560319 14.207708 -1.4082147
-2.4756105 14.26234 -1.4122014
-2.3762388 14.2066 -1.4050254
-2.2869694 14.208142 -1.4037297
-2.1257155 13.74302 -1.3551918
-2.0375545 13.730214 -1.3526005
-1.9434737 13.673498 -1.3456237
-1.8573958 13.669391 -1.3440291
-1.780646 13.735789 -1.3496104
-1.6958441 13.742507 -1.3492118
-1.6156555 13.788231 -1.3527998
-1.5283905 13.77415 -1.3504078
-1.4455024 13.799103 -1.3520025
-1.3628532 13.828507 -1.3540955
-1.3188465 14.279502 -1.3986467
-1.2388856 14.376547 -1.4076167
-1.3138541 16.426115 -1.6128312
-1.1570605 15.674738 -1.5365859
-1.0204743 15.083902 -1.4765863
-0.93375742 15.185223 -1.4861543
-0.84912932 15.345654 -1.5017024
-0.71025181 14.440232 -1.4104074
-0.62163484 14.444319 -1.4104074
-0.56165403 15.226435 -1.4884467
-0.46479979 15.118204 -1.477284
-0.37236905 15.134698 -1.4786793
-0.27814355 15.063079 -1.4713039
-0.19998603 16.229584 -1.5880141
-0.093768254 15.145953 -1.479377
-0.00083290442 15.135298 -1.4782807
0.091729201 15.085268 -1.4732974
0.18379965 15.044623 -1.4693106
0.27653 15.066094 -1.4716029
0.36618239 14.950715 -1.460241
0.45507079 14.855694 -1.4509718
0.54533553 14.828757 -1.4485799
0.63575715 14.812209 -1.4472842
0.73429984 14.964059 -1.462932
0.77731514 14.077042 -1.3744276
0.86227179 14.049165 -1.3721353
0.9452374 13.995957 -1.3673512
1.0330008 14.015694 -1.3699425
1.1219938 14.046782 -1.3737299
1.2018431 13.966273 -1.3663546
1.2887051 13.971517 -1.3676502
1.3795786 14.015828 -1.3729326
1.465863 14.010069 -1.3732315
1.5383072 13.879169 -1.3609725
1.6248283 13.881328 -1.3621686
1.709241 13.865171 -1.3615705
1.7919821 13.836661 -1.3597765
1.8871613 13.901324 -1.3674508
1.9687833 13.863871 -1.3648596
2.0535212 13.849561 -1.3646601
2.1407428 13.85145 -1.3661551
2.2307522 13.86949 -1.3693446
2.3171246 13.863392 -1.3701419
2.4067388 13.875383 -1.3728329
2.4920073 13.861334 -1.3729326
2.5740976 13.830132 -1.3713379
2.6634247 13.837526 -1.3737299
2.7645879 13.902899 -1.3821019
2.8454397 13.864231 -1.3799093
2.9288065 13.838723 -1.3791119
3.0266006 13.879793 -1.3851916
3.1182494 13.890086 -1.3881817
3.2457516 14.053924 -1.4070187
3.3162887 13.967914 -1.4002414
3.4189141 14.016902 -1.4074174
3.5005035 13.978287 -1.4056233
3.5889316 13.967145 -1.4067197
3.6943469 14.019909 -1.4144937
3.8010633 14.073824 -1.4224671
3.9130914 14.143256 -1.4321349
3.9805379 14.051009 -1.4250585
4.0664015 14.025365 -1.4249588
4.1654015 14.044031 -1.4295435
4.3078232 14.203881 -1.4489785
4.3406711 14.002312 -1.4306399
4.4310141 13.989642 -1.4321349
4.5357623 14.020885 -1.4383142
4.6260772 14.006018 -1.4397095
4.7077966 13.965112 -1.4384139
4.8264146 14.031934 -1.4485799
4.92626 14.041489 -1.4527659
5.0341144 14.071893 -1.4592443
5.2362947 14.358562 -1.493131
5.3069634 14.27953 -1.4881477
5.3983579 14.256933 -1.4892441
5.4789305 14.205902 -1.4873503
5.5987363 14.255368 -1.4963204
5.6824055 14.211508 -1.4953238
5.7608705 14.155177 -1.4930314
5.824007 14.062568 -1.486852
6.0183845 14.283304 -1.5147588
6.2850785 14.664047 -1.5603067
6.3013711 14.456468 -1.5418683
6.3826976 14.401156 -1.5400742
6.4460034 14.306386 -1.5339946
6.5303493 14.259327 -1.5331973
6.6227589 14.229815 -1.5343932
6.7303681 14.232085 -1.5391773
6.8654041 14.290071 -1.5502403
6.976089 14.295069 -1.5555227
7.0932798 14.311726 -1.5622003
7.7299113 15.358449 -1.6844919
7.339921 14.363591 -1.5779477
7.419209 14.301502 -1.5760541
7.5916743 14.41682 -1.5942931
7.8784075 14.741158 -1.6364523
7.7604284 14.308578 -1.5926985
7.8413606 14.248488 -1.5913031
8.3458614 14.947221 -1.6770169
8.261343 14.584928 -1.6412363
8.5851765 14.942028 -1.6883789
8.5704746 14.706821 -1.6672494
8.6402998 14.619695 -1.6632627
8.7451887 14.592007 -1.6662527
8.896574 14.640107 -1.6782129
8.8995848 14.444624 -1.6616681
9.2163191 14.755148 -1.704824
9.2923079 14.675623 -1.7021329
9.3751926 14.607445 -1.7008373
9.5037155 14.609695 -1.7080133
9.483633 14.384968 -1.6880798
9.5601091 14.309133 -1.6859869
10.081207 14.890382 -1.7634282
10.211226 14.884857 -1.7703053
10.310884 14.834177 -1.7718003
10.418327 14.794223 -1.7746906
10.507751 14.728398 -1.7744912
10.58102 14.640261 -1.7716008
10.661247 14.562217 -1.7700062
10.828049 14.601221 -1.7830626
10.948514 14.575874 -1.7882453
11.074497 14.556725 -1.794325
11.221306 14.563373 -1.8037933
11.314127 14.498953 -1.8043914
11.409048 14.437064 -1.8053881
11.486848 14.353581 -1.8036937
11.540871 14.241087 -1.7983117
11.650129 14.196925 -1.8018
11.778994 14.175681 -1.8083781
11.927895 14.176991 -1.8180457
12.081125 14.181547 -1.8283114
12.212759 14.159139 -1.8351885
12.372718 14.167871 -1.8463513
12.528626 14.169952 -1.8568163
12.679714 14.164721 -1.8664839
12.879988 14.211986 -1.8834274
13.037586 14.209666 -1.8938924
13.180739 14.189908 -1.9021648
13.310506 14.154429 -1.9084438
13.469148 14.148157 -1.9189088
13.702099 14.217123 -1.9400383
13.846058 14.191177 -1.948211
14.03147 14.205763 -1.9622641
14.245019 14.246042 -1.9802041
14.406493 14.231789 -1.9906691
14.586843 14.234154 -2.0037255
14.748416 14.216195 -2.014091
14.885093 14.172773 -2.020968
14.962352 14.072311 -2.0196722
15.072474 14.002586 -2.0229614
15.147844 13.900422 -2.0215659
15.172394 13.752422 -2.0133932
15.256492 13.659068 -2.0133932
15.310943 13.539494 -2.0095062
15.342019 13.400131 -2.0026293
15.387787 13.274547 -1.9978452
15.440166 13.155358 -1.9940578
15.485572 13.030904 -1.9894731
15.523911 12.901301 -1.9840912
15.572013 12.780557 -1.9801044
15.616899 12.657829 -1.9758188
15.667859 12.540628 -1.9724301
15.71875 12.423897 -1.969141
15.771152 12.30885 -1.966151
15.813278 12.18634 -1.9619651
15.856871 12.065586 -1.958078
15.897191 11.942964 -1.953892
15.949392 11.829784 -1.9513006
15.993579 11.711125 -1.9478123
16.03933 11.594118 -1.944623
16.088299 11.479881 -1.941932
16.130775 11.361469 -1.9385433
16.174856 11.244674 -1.9354535
16.218113 11.127766 -1.9323639
16.261368 11.011308 -1.9293739
16.30546 10.895844 -1.9265832
16.33795 10.773135 -1.9224969
16.365377 10.647725 -1.9179121
16.397745 10.526148 -1.9140252
16.435123 10.408301 -1.9108359
16.472517 10.290919 -1.9077461
16.515865 10.177648 -1.9054538
16.548243 10.05803 -1.9019655
16.575508 9.9358416 -1.8979788
16.599327 9.8121796 -1.8936931
16.636869 9.6971169 -1.8911017
16.662411 9.5755186 -1.8872147
16.697475 9.4598579 -1.8845237
16.729143 9.3426733 -1.8815337
16.765232 9.2283354 -1.8791417
16.797924 9.112483 -1.8764507
16.834215 8.9989223 -1.874258
16.860943 8.8806238 -1.8710686
16.893919 8.7660027 -1.8686767
16.912832 8.6445189 -1.8647896
16.927338 8.5213451 -1.8605039
16.949884 8.4027376 -1.8572149
16.968039 8.2824297 -1.8535272
16.994324 8.1665258 -1.8508363
17.000038 8.0412512 -1.8459525
17.012974 7.9199948 -1.8419659
17.039537 7.805512 -1.8395739
17.079853 7.6975422 -1.8387765
17.114029 7.5869522 -1.8373811
17.146576 7.4758358 -1.8358861
17.180235 7.3653893 -1.8345906
17.219604 7.2575164 -1.8339925
17.211412 7.1300192 -1.8283114
17.215208 7.0081477 -1.8240258
17.248646 6.8986912 -1.8230292
17.270275 6.7847223 -1.8208364
17.292086 6.6711063 -1.8187435
17.324318 6.5617075 -1.8178464
17.360523 6.453897 -1.8174478
17.412884 6.3520265 -1.8188431
17.472141 6.2524376 -1.8210357
17.51581 6.1470895 -1.8216338
17.561666 6.0424118 -1.8225307
17.605955 5.9370852 -1.8233281
17.649611 5.8314419 -1.8241254
17.687901 5.7239552 -1.8244245
17.722689 5.6153164 -1.8244245
17.756809 5.5064664 -1.8244245
17.787407 5.3965425 -1.8241254
17.831631 5.2906952 -1.8253214
17.871405 5.1833997 -1.8261188
17.921062 5.0787988 -1.8280125
17.965313 4.9724565 -1.8294078
18.009893 4.8660221 -1.8309028
18.037489 4.7549167 -1.8307035
18.057652 4.641922 -1.8298064
18.078072 4.5291009 -1.8290092
18.091988 4.4147892 -1.8276138
18.131321 4.3066845 -1.8289095
18.14868 4.193336 -1.8280125
18.182806 4.0838609 -1.8289095
18.22016 3.9749727 -1.8302052
18.246153 3.8635132 -1.8304045
18.273415 3.7522845 -1.8308032
18.30195 3.6412549 -1.8314011
18.337627 3.5315213 -1.8327965
18.361885 3.4194837 -1.8330954
18.392315 3.3085139 -1.8340921
18.420113 3.196959 -1.8348895
18.459991 3.0873208 -1.8369825
18.489393 2.9757328 -1.8380789
18.508287 2.86238 -1.8381785
18.513691 2.7470095 -1.8369825
18.518375 2.6316807 -1.8357865
8.6724863 1.1788459 -0.8389163
8.786128 1.1394167 -0.84968036
6.8504615 0.84594405 -0.6536352
6.7478018 0.79128122 -0.64277148
6.6971483 0.74372208 -0.63719016
6.6946583 0.70189005 -0.63649249
6.6899266 0.65992165 -0.6355955
6.682951 0.61785489 -0.63449913
6.6806684 0.57632536 -0.63390112
6.6682091 0.53405446 -0.63230646
6.6644144 0.4926168 -0.63160878
6.6643333 0.45151418 -0.63130981
6.6669779 0.4106141 -0.63130981
6.6544695 0.36887509 -0.6298148
6.6625705 0.32832989 -0.63041282
6.6525307 0.28693053 -0.62921679
6.6501884 0.24595955 -0.62881809
6.650578 0.20511964 -0.62871844
6.6527061 0.164333 -0.62881809
6.6545839 0.12352796 -0.62891781
6.6641712 0.08280357 -0.6298148
6.669529 0.041941844 -0.6303131
6.6776209 0.0010174223 -0.63111049
6.6894412 -0.040029231 -0.63230646
6.6980243 -0.081184208 -0.63320345
6.7063537 -0.12244602 -0.6341005
6.7174129 -0.16388641 -0.63529646
6.7302046 -0.20552821 -0.63669181
6.73876 -0.24718656 -0.63768846
6.7530222 -0.2892141 -0.63928318
6.7650342 -0.33132824 -0.64067852
6.7658544 -0.3729963 -0.6409775
6.8627529 -0.42060748 -0.65094423
8.7462749 -0.5902552 -0.84031165
16.432993 -1.2113646 -1.6127316
16.289368 -1.3013077 -1.5990772
16.253319 -1.3988419 -1.5962865
14.303437 -1.3193486 -1.4010386
16.125013 -1.5873616 -1.5852234
16.069447 -1.6815063 -1.5806388
16.01828 -1.7755773 -1.5765524
10.602268 -1.2407333 -1.0314732
10.597418 -1.3061296 -1.0317721
10.580323 -1.3699787 -1.0308751
10.569746 -1.4346046 -1.0306758
10.576507 -1.501672 -1.0322704
10.576936 -1.5680002 -1.0332671
13.841617 -2.1392221 -1.3651586
13.792864 -2.2184212 -1.3615705
13.823155 -2.310396 -1.3660555
15.764553 -2.7345831 -1.5648913
15.75629 -2.8328464 -1.5657884
14.696822 -2.7354825 -1.4596429
15.723272 -3.0265515 -1.5660874
13.380794 -2.660723 -1.3287801
15.730758 -3.2286782 -1.5707717
15.729147 -3.3290555 -1.5726655
15.709396 -3.4257171 -1.5727651
15.67546 -3.5192094 -1.5714694
15.738886 -3.6350365 -1.5802401
15.756945 -3.7411971 -1.5844262
15.761725 -3.8446496 -1.5873165
8.2199268 -2.057976 -0.81100953
8.2071447 -2.1083739 -0.81100953
15.618051 -4.1156058 -1.5800408
15.561765 -4.2030544 -1.5768514
7.6606088 -2.1189492 -0.7583853
15.413283 -4.3665762 -1.5668848
15.400535 -4.4652257 -1.5683798
8.015233 -2.3767641 -0.79964751
7.9709811 -2.416945 -0.79655784
7.946497 -2.4628615 -0.79556113
7.9587436 -2.5202892 -0.79845148
8.3786077 -2.709991 -0.84429836
15.044346 -4.9691195 -1.5492437
15.008859 -5.0597467 -1.5487453
7.7684159 -2.6714702 -0.78509611
14.92686 -5.236958 -1.546752
14.876645 -5.3220797 -1.5448583
14.815666 -5.4030313 -1.5418683
14.753323 -5.4830894 -1.5387785
14.697999 -5.5654049 -1.5364863
14.632938 -5.6436672 -1.5331973
14.584143 -5.72789 -1.5317023
14.526549 -5.8084011 -1.5293102
14.465754 -5.8872957 -1.5266192
14.401779 -5.9645214 -1.5236292
14.348406 -6.0458212 -1.5218352
14.303723 -6.1306109 -1.5210378
14.192868 -6.1864491 -1.5130645
14.150094 -6.2714024 -1.5125661
14.048753 -6.3298993 -1.5056891
13.995174 -6.4093513 -1.5040945
13.952878 -6.493844 -1.5037954
13.91187 -6.5789094 -1.5036957
13.859582 -6.658545 -1.5024002
13.805052 -6.7369137 -1.5009052
13.735819 -6.8077931 -1.4978154
13.678679 -6.8843408 -1.496121
13.626434 -6.9631605 -1.4950248
13.22487 -6.8605843 -1.4545599
13.022296 -6.8572125 -1.4364204
12.902754 -6.8957086 -1.4276497
12.745624 -6.9125962 -1.4145935
12.616671 -6.9431715 -1.4047264
12.453076 -6.9530206 -1.3908726
12.357368 -6.999382 -1.3847929
12.293483 -7.0631752 -1.382401
12.286879 -7.1600189 -1.3866866
12.260702 -7.2459078 -1.3887796
12.185287 -7.3025851 -1.3851916
12.194669 -7.4102898 -1.3915703
12.153206 -7.4875855 -1.3920686
12.180452 -7.6078801 -1.4007397
12.160442 -7.6995101 -1.403929
12.103759 -7.7680678 -1.4028327
12.052531 -7.8400183 -1.402434
12.075639 -7.9609289 -1.4110054
12.507236 -8.3560629 -1.468912
12.481269 -8.4499435 -1.4720017
12.426724 -8.5246792 -1.4717027
12.364381 -8.5939522 -1.4705067
12.27969 -8.6473112 -1.4666196
12.224779 -8.7213392 -1.4664203
12.164585 -8.791522 -1.4656229
12.08954 -8.8507128 -1.4630316
12.015024 -8.9099073 -1.4605399
11.945808 -8.9727049 -1.458746
11.862813 -9.0247469 -1.4552575
11.782783 -9.078537 -1.4521679
11.719796 -9.145155 -1.4512709
11.664243 -9.2175102 -1.4513706
11.611349 -9.292016 -1.4518689
11.547932 -9.3580751 -1.4510715
11.484911 -9.4243374 -1.4503739
11.423041 -9.4914503 -1.4498756
11.356975 -9.5549555 -1.4488789
11.293588 -9.6205883 -1.4482809
11.232084 -9.6877537 -1.4479818
11.163437 -9.7486362 -1.4467859
11.101174 -9.8149729 -1.4464868
11.394358 -10.199486 -1.4940281
11.260785 -10.205058 -1.48446
11.039598 -10.128649 -1.462932
10.938606 -10.160302 -1.4576496
10.897078 -10.246998 -1.4605399
10.825351 -10.305435 -1.4593439
10.738989 -10.349567 -1.4561546
10.642524 -10.383299 -1.4515699
10.556669 -10.426728 -1.4484802
10.484754 -10.483566 -1.4473839
10.399953 -10.527173 -1.4444935
10.303893 -10.55874 -1.4400085
10.223722 -10.606003 -1.4378158
10.125519 -10.633944 -1.4330318
6.9742198 -7.4144664 -0.98183894
9.9326372 -10.691057 -1.4239621
9.8675241 -10.752535 -1.4240618
9.8006935 -10.812141 -1.4239621
9.7308483 -10.868366 -1.4234638
6.7461371 -7.627892 -0.98223758
6.6730256 -7.639164 -0.97825092
6.5460887 -7.5872903 -0.96599185
9.5676641 -11.228875 -1.4399089
2.1033924 -2.4980993 -0.28935203
2.0880249 -2.5109584 -0.28935203
9.3915482 -11.44231 -1.4449918
9.2929707 -11.464934 -1.4405068
9.2622395 -11.571458 -1.4468856
6.3160639 -7.99018 -0.98243695
2.0149162 -2.5801022 -0.29014936
1.9917592 -2.5829587 -0.28895336
1.9680407 -2.5848367 -0.28765768
1.9467649 -2.5897038 -0.28676069
1.92906 -2.5992024 -0.28646168
1.9336483 -2.6390893 -0.28995004
1.9325732 -2.6718717 -0.29254138
1.920188 -2.6893494 -0.29323906
8.2905998 -11.770273 -1.4043278
8.2080002 -11.806215 -1.4025337
8.1421595 -11.866202 -1.4037297
1.8614196 -2.7471983 -0.29463437
1.8539253 -2.7726328 -0.29632872
1.8429027 -2.7930939 -0.29742506
7.8598905 -12.079963 -1.4058228
7.7426238 -12.060972 -1.3978493
7.6737967 -12.11666 -1.398846
7.6024685 -12.168581 -1.399444
7.5313144 -12.220929 -1.4001417
7.442234 -12.243952 -1.3974507
7.3618512 -12.280851 -1.396454
7.2823086 -12.318939 -1.3956567
7.2110929 -12.371128 -1.3965536
7.1414938 -12.426357 -1.3978493
7.0695267 -12.477735 -1.3987464
6.9899206 -12.515665 -1.3981483
6.9024396 -12.539141 -1.3959557
6.8263197 -12.583007 -1.396155
6.7466383 -12.620268 -1.3956567
6.6574841 -12.639417 -1.393165
6.5729313 -12.66678 -1.39167
6.5014248 -12.719276 -1.3930653
6.4214687 -12.755374 -1.3926667
6.3382215 -12.784728 -1.3915703
6.2618389 -12.827849 -1.3920686
6.1881819 -12.876792 -1.3932647
6.1137342 -12.924415 -1.394361
6.0242395 -12.940034 -1.391969
5.9414129 -12.969517 -1.3911717
5.8723497 -13.029315 -1.3937629
5.8108401 -13.106947 -1.3983476
5.735477 -13.154212 -1.3996433
5.6526961 -13.184585 -1.399145
5.5685997 -13.211685 -1.3983476
5.4908562 -13.253878 -1.3992447
5.4026766 -13.270731 -1.3974507
5.3067389 -13.267599 -1.3935636
5.2099519 -13.261013 -1.3893776
5.1095076 -13.243528 -1.3840953
5.0108838 -13.229034 -1.3792115
4.9216442 -13.23808 -1.3769193
4.8321419 -13.245594 -1.3745272
4.7460852 -13.261879 -1.3731319
4.6692343 -13.303895 -1.3745272
4.5862207 -13.32853 -1.3741286
4.4970403 -13.334734 -1.3718362
4.4092054 -13.344125 -1.3699425
4.3355145 -13.396489 -1.3726336
4.2541351 -13.425685 -1.3729326
4.1702032 -13.446783 -1.3724343
4.0821295 -13.454026 -1.3705405
3.9918599 -13.453065 -1.3678496
3.9075756 -13.471571 -1.3672515
3.8272831 -13.50391 -1.3681486
3.7454143 -13.530975 -1.3685472
3.6620598 -13.552741 -1.3684475
3.5833972 -13.592276 -1.3702415
3.499929 -13.614007 -1.3702415
3.4172962 -13.639087 -1.3706403
3.3316574 -13.652064 -1.3698429
3.2505858 -13.683867 -1.3710389
3.1708169 -13.721975 -1.3729326
3.0904846 -13.758648 -1.3747265
3.0070651 -13.782213 -1.3752249
2.9201756 -13.789697 -1.3741286
2.8323073 -13.791759 -1.3725339
2.7536464 -13.839131 -1.3756236
2.6726296 -13.876286 -1.3777165
2.5905318 -13.909053 -1.379411
2.511126 -13.957983 -1.3827996
2.4279857 -13.987834 -1.3842946
2.3421121 -14.002469 -1.3842946
2.2567828 -14.020506 -1.3846933
2.1682799 -14.018355 -1.3830986
0.42332533 -2.8463287 -0.25048187
1.9851747 -13.967068 -1.3753246
0.26264277 -1.9254817 -0.15689448
0.25056762 -1.9250835 -0.15669514
0.23960327 -1.9334974 -0.15739281
0.22704072 -1.9290017 -0.15679482
0.2141038 -1.9204688 -0.15579814
0.20324823 -1.930653 -0.15669514
0.19110562 -1.928893 -0.15639614
0.17954084 -1.9330018 -0.15669514
0.16861562 -1.9449719 -0.15779148
0.15691611 -1.9489454 -0.15809049
0.14458878 -1.9449099 -0.15759215
0.13345735 -1.9576735 -0.15878814
0.12918898 -2.0845857 -0.17144588
0.10969812 -1.9641315 -0.15928648
0.10511103 -2.1168225 -0.17453554
0.12530053 -2.8898466 -0.25197688
0.12897873 -3.472254 -0.31028211
0.086442694 -2.780771 -0.24091382
0.088310905 -3.5531533 -0.31825548
0.067349002 -3.5993915 -0.32284018
0.044994131 -3.577848 -0.32064751
0.016749552 -2.5492244 -0.21759173
0.0010841744 -3.6179316 -0.32463416
-0.021537824 -3.6865253 -0.3315112
-0.030310726 -2.5600452 -0.21868807
-0.060412675 -3.3407698 -0.29692674
-0.079663634 -3.2896056 -0.29184371
-0.10317605 -3.3974609 -0.30270743
-0.5309338 -14.43798 -1.4094107
-0.14768159 -3.4615498 -0.30928546
-0.70811892 -14.431371 -1.4095104
-0.80187428 -14.521137 -1.4189788
-0.89169168 -14.527862 -1.4201747
-0.98283005 -14.551899 -1.4231647
-0.28059295 -3.8185809 -0.34576359
-0.30409735 -3.8177793 -0.34586325
-0.32726091 -3.8128674 -0.34556428
-0.27207479 -2.9596841 -0.25995025
-0.29022995 -2.9579589 -0.25995025
-1.5308357 -14.630554 -1.4357228
-0.32519045 -2.9423072 -0.25875422
-0.34300649 -2.9382799 -0.25855491
-1.8155922 -14.72729 -1.4485799
-1.8914726 -14.604367 -1.4373175
-1.9873425 -14.638827 -1.4420018
-2.0816066 -14.657882 -1.4451911
-2.1716526 -14.645817 -1.4452909
-0.47449294 -3.0760806 -0.2740033
-0.49351659 -3.0740936 -0.27410296
-0.63414174 -3.7992015 -0.34805593
-0.66033351 -3.8119054 -0.34975028
-0.55723888 -3.1046402 -0.27818933
-0.5702672 -3.068882 -0.27490032
-0.53433549 -2.7809975 -0.24589719
-2.8946619 -14.55675 -1.4488789
-2.9839258 -14.538714 -1.4488789
-0.56399953 -2.6694531 -0.23553181
-0.57527864 -2.6426103 -0.2331398
-0.84723353 -3.7778251 -0.35004929
-0.60027277 -2.603359 -0.22985078
-0.61163676 -2.5802648 -0.22785744
-0.6392507 -2.6247964 -0.23284079
-0.65268439 -2.6102076 -0.23174445
-0.6748808 -2.6302459 -0.23423614
-0.72473812 -2.7540221 -0.24749185
-0.74629414 -2.766814 -0.24928586
-4.0203152 -14.530681 -1.4724003
-4.0887804 -14.432982 -1.4648256
-0.94675869 -3.2686553 -0.3031061
-0.81397039 -2.7476656 -0.24928586
-0.81810457 -2.7007241 -0.24490051
-4.4688644 -14.415727 -1.473995
-4.5638452 -14.408903 -1.4761877
-4.6564593 -14.393882 -1.4775831
-4.7428179 -14.359371 -1.476985
-4.8267031 -14.317742 -1.4756893
-4.9083138 -14.269979 -1.4737957
-4.9954505 -14.238655 -1.473696
-5.0887575 -14.224599 -1.47549
-1.1954007 -3.2805545 -0.31197646
-5.2899752 -14.233829 -1.483264
-1.1506348 -3.0413828 -0.28795668
-1.1671259 -3.0286953 -0.2873587
-1.1860516 -3.0224032 -0.28745836
-1.282167 -3.2090826 -0.30838844
-1.3085861 -3.2177434 -0.31018245
-1.2471951 -3.0138488 -0.28895336
-1.3073989 -3.1051664 -0.2997174
-5.9549723 -13.894014 -1.476387
-1.3593235 -3.1208127 -0.30320576
-1.382076 -3.1206 -0.30410275
-1.3950654 -3.0984538 -0.30260774
-6.3803453 -13.93185 -1.4971178
-6.473268 -13.908676 -1.4989117
-6.5810366 -13.916368 -1.5041941
-6.6706114 -13.884694 -1.5051907
-1.393434 -2.8574803 -0.28068098
-1.3866348 -2.7998445 -0.27519929
-1.367102 -2.7184045 -0.2670266
-1.4036809 -2.7489493 -0.27141196
-7.1066723 -13.699153 -1.5080811
-7.1822491 -13.639443 -1.5062871
-7.3145871 -13.686378 -1.5166525
-1.4806842 -2.7320404 -0.27350497
-1.5007783 -2.7290056 -0.27420264
-7.506567 -13.444305 -1.5045928
-7.6281557 -13.467252 -1.5125661
-7.7314677 -13.456428 -1.5167521
-7.8279185 -13.432805 -1.5195428
-4.9993868 -8.460103 -0.94655681
-8.0264444 -13.392914 -1.5262206
-8.1322432 -13.382526 -1.5308052
-8.2371721 -13.369648 -1.5351906
-8.3164158 -13.314634 -1.5346923
-5.1064229 -8.0657072 -0.91845065
-5.2375169 -8.1615009 -0.93360007
-5.2831554 -8.1225386 -0.93280274
-5.3493271 -8.1148891 -0.93579274
-5.6245694 -8.4194593 -0.97645688
-8.8449278 -13.064597 -1.5425659
-8.9356203 -13.025669 -1.5444596
-9.0477495 -13.017165 -1.5501406
-9.1263046 -12.959777 -1.5499413
-5.602777 -7.8541789 -0.9286167
-9.3715057 -12.966962 -1.5647917
-9.4538326 -12.91323 -1.5652901
-9.5251827 -12.844589 -1.5639944
-1.7394288 -2.3173492 -0.2524752
-1.7427698 -2.2923791 -0.25068119
-1.7112507 -2.2225313 -0.24320617
-1.7370994 -2.2276776 -0.24519952
-1.7414807 -2.2052674 -0.24370451
-1.7394351 -2.1751194 -0.24121283
-1.7333264 -2.1404424 -0.23812315
-10.179945 -12.405581 -1.5696754
-10.263504 -12.352067 -1.5708714
-1.6327713 -1.942202 -0.21639572
-1.6504654 -1.9389635 -0.21729273
-10.465078 -12.13318 -1.5671837
-10.539984 -12.069489 -1.5672834
-1.6852167 -1.9075099 -0.21719307
-1.6849426 -1.8837898 -0.21539906
-1.7024838 -1.8800509 -0.21629606
-1.7213876 -1.8776337 -0.2173924
-1.7613198 -1.8976538 -0.22157842
-10.968906 -11.664664 -1.5660874
-2.4980421 -2.6253479 -0.32523218
-2.405 -2.496779 -0.30948478
-3.2103922 -3.291692 -0.42280626
-3.4116404 -3.455271 -0.44862002
-3.4693646 -3.4708581 -0.4538027
-3.267606 -3.2292445 -0.4224076
-3.3087244 -3.2299807 -0.4253976
-3.4259157 -3.3035259 -0.43895233
-3.4245014 -3.2618599 -0.43596232
-11.152529 -10.489524 -1.4958221
-11.21741 -10.421573 -1.4959217
-3.1577041 -2.8989174 -0.39161044
-3.527113 -3.1982183 -0.43915164
-3.5533428 -3.1824892 -0.44004866
-3.4721715 -3.0716479 -0.4265936
-3.4662216 -3.028686 -0.42330459
-3.4244637 -2.9553685 -0.41533121
-3.3736072 -2.8755813 -0.40626153
-11.789875 -9.9213867 -1.5056891
-11.858948 -9.855854 -1.5067855
-3.3967371 -2.7890108 -0.40247416
-3.9417684 -3.1960063 -0.47054678
-10.929769 -8.7486897 -1.3645605
-10.99027 -8.6870136 -1.3654575
-11.038659 -8.6157417 -1.3648596
-11.212696 -8.6413765 -1.3802083
-3.942132 -3.0006895 -0.45848706
-3.972403 -2.9854085 -0.45998207
-11.26276 -8.3540993 -1.3668529
-11.391684 -8.3418512 -1.3765206
-11.453137 -8.2793741 -1.3778162
-11.578242 -8.2621098 -1.3869857
-11.592925 -8.1657028 -1.3826003
-11.633823 -8.0881691 -1.3815039
-11.675027 -8.0110044 -1.3805072
-3.1064336 -2.1046431 -0.33808923
-3.1118429 -2.0805676 -0.33719224
-3.1104283 -2.0521235 -0.33549789
-3.1579919 -2.0557888 -0.33968392
-3.1512868 -2.0240111 -0.33739156
-3.2351027 -2.0498841 -0.34586325
-3.2704053 -2.0442281 -0.34855428
-3.4260514 -2.112334 -0.36539802
-3.5358837 -2.150182 -0.37676007
-3.6019254 -2.1601603 -0.38293943
-3.6048331 -2.1319432 -0.38174343
-3.6006529 -2.0997641 -0.37975007
-3.7247624 -2.1415803 -0.39260712
-3.6460617 -2.0667002 -0.38204241
-14.033385 -7.8373966 -1.5722667
-3.9666615 -2.1844418 -0.41582957
-3.9738677 -2.1567407 -0.4151319
-3.9694755 -2.1229362 -0.41313854
-3.9392872 -2.0758219 -0.40825486
-14.349333 -7.4458523 -1.5815358
-8.7162161 -4.4556818 -0.94276941
-8.9904737 -4.5264807 -0.97047687
-7.65941 -3.7977884 -0.81858426
-7.6718383 -3.7454827 -0.81738824
-9.1153183 -4.3809123 -0.97526091
-9.1582184 -4.3325567 -0.97705489
-9.0826941 -4.2288351 -0.96579254
-9.1482754 -4.191256 -0.97017789
-5.787334 -2.609077 -0.59812063
-5.7995954 -2.5719047 -0.59772199
-5.8170915 -2.5370657 -0.59792131
-9.3306875 -4.0007648 -0.97914791
-9.2789545 -3.9113669 -0.97087556
-9.3211651 -3.8619738 -0.97286892
-9.3179598 -3.7938292 -0.96997857
-9.3382912 -3.7354755 -0.96967953
-9.5545988 -3.7541349 -0.99050999
-9.3732166 -3.6166601 -0.96858323
-9.4343138 -3.573879 -0.9727692
-9.4579306 -3.5166173 -0.97296858
-9.5597219 -3.4878387 -0.98153991
-9.3214312 -3.3362675 -0.95393217
-9.2177916 -3.2355237 -0.94077611
-9.2224169 -3.1737249 -0.93918139
-9.4868641 -3.199729 -0.96509486
-7.819838 -2.5843613 -0.78718913
-9.347435 -3.025486 -0.94635743
-9.3307257 -2.9569564 -0.94266975
-9.4256754 -2.9235156 -0.95074278
-9.4491501 -2.8673584 -0.95134079
-9.6468592 -2.862807 -0.97017789
-9.6126385 -2.7885971 -0.96479583
-9.6975393 -2.7488208 -0.97187221
-9.6451759 -2.6701601 -0.96469617
-9.7055655 -2.6228638 -0.9692809
-9.8436718 -2.5954664 -0.9819386
-9.7948437 -2.518424 -0.97526091
-9.8477554 -2.467705 -0.97914791
-9.8975115 -2.4157233 -0.98273593
-9.894722 -2.3508101 -0.98094195
-9.8449736 -2.2752726 -0.97436392
-9.8946705 -2.2228878 -0.9780516
-10.02284 -2.1871526 -0.98981231
-10.28138 -2.1775393 -1.0149283
-10.251661 -2.1056094 -1.010543
-10.303424 -2.0504308 -1.0145297
-10.514158 -2.025357 -1.0347621
-10.676055 -1.9886676 -1.0500112
-10.96716 -1.973312 -1.0784163
-11.032983 -1.9153366 -1.0838981
-11.060229 -1.8502285 -1.0854927
-12.043939 -1.9387947 -1.1841631
-13.1894 -2.0401311 -1.2990793
-13.509741 -2.0048554 -1.3302751
-14.531549 -2.0653582 -1.4324338
-15.374136 -2.0888901 -1.5163535
-16.731638 -2.1687584 -1.6521997
-17.516886 -2.1612859 -1.7301394
-18.126732 -2.1236572 -1.7903383
-19.637697 -2.1785161 -1.9413339
-19.643766 -2.0572555 -1.9406363
-19.716425 -1.9426327 -1.946716
-19.559536 -1.8060755 -1.9297726
-19.587101 -1.6874772 -1.9314669
-19.638746 -1.5705904 -1.935653
-19.618242 -1.4478644 -1.932663
-19.614845 -1.3266569 -1.9314669
-19.603746 -1.2051187 -1.9295732
-19.599842 -1.0842057 -1.9284769
-19.598175 -0.96353251 -1.9276795
-19.599743 -0.84309143 -1.9272809
-19.607529 -0.72292364 -1.9275799
-19.612591 -0.60263097 -1.9276795
-19.609951 -0.48213264 -1.9270816
-19.604582 -0.36165282 -1.9262842
-19.595488 -0.24122049 -1.9251878
-19.593613 -0.12096205 -1.9248888
-19.584036 -0.00073584798 -1.9238923
-19.578697 0.11939891 -1.9233938
-19.575605 0.23950483 -1.9231945
-19.572773 0.35959566 -1.9230949
-19.565224 0.47956294 -1.9225966
-19.554953 0.59939009 -1.9218988
-19.543945 0.71910918 -1.9212012
-19.528231 0.83854485 -1.9201049
-19.507811 0.95761937 -1.9186099
-19.484676 1.076365 -1.9169155
-19.452877 1.1943746 -1.9144238
-19.424335 1.3123029 -1.9123309
-17.421812 -0.44363254 -1.9199277
-17.429174 -0.33682206 -1.920486
-17.408058 -0.2295704 -1.9179182
-17.40914 -0.12275223 -1.9179182
-17.404596 -0.015924787 -1.9173599
-17.38648 0.090775132 -1.9153504
-17.370689 0.19728592 -1.9136758
-17.357229 0.30365846 -1.912336
-17.369942 0.41050652 -1.9140106
-17.331337 0.51601493 -1.9099915
-17.360617 0.62352455 -1.9136758
-17.359442 0.73016077 -1.9140106
-17.351658 0.83651912 -1.9136758
-17.310476 0.94103003 -1.9096566
-17.259739 1.0445271 -1.9046327
-17.267878 1.1514026 -1.9063073
-17.223816 1.2546642 -1.9021766
-17.14942 1.3550808 -1.8946966
-17.19128 1.464583 -1.9003903
-17.132488 1.565519 -1.8948082
-17.166079 1.6748574 -1.8997204
-17.151525 1.7797447 -1.8992739
-17.119539 1.8826703 -1.8969294
-17.069168 1.9832064 -1.8925754
-17.036949 2.085489 -1.8903425
-17.029747 2.1907473 -1.8910123
-17.043558 2.2989175 -1.8941383
-17.033068 2.404007 -1.8945849
-17.042574 2.5120969 -1.8973759
-17.022911 2.6160171 -1.8969294
-17.005558 2.7202616 -1.8968178
-16.96796 2.8211322 -1.8944733
-16.929766 2.9216442 -1.8921288
-16.925215 3.0279179 -1.8936918
-16.876026 3.1261017 -1.8902309
-16.847744 3.2279096 -1.8892261
-16.8013 3.3260148 -1.8862118
-16.76013 3.4248655 -1.8838673
-16.7388 3.5276392 -1.8838673
-16.711012 3.629015 -1.8831974
-16.69231 3.7323506 -1.883644
-16.667158 3.8342569 -1.8834207
-16.623976 3.9318783 -1.8811878
-16.591812 4.03193 -1.8802947
-16.534943 4.1257215 -1.8766105
-16.497763 4.2241426 -1.8752707
-16.450388 4.3197393 -1.8728147
-16.453321 4.4286017 -1.8762755
-16.396139 4.5212855 -1.8728147
-16.38339 4.6261253 -1.8746009
-16.353743 4.7262893 -1.8744893
-16.307281 4.8214736 -1.8724797
-16.250755 4.9133902 -1.8693538
-16.212706 5.010663 -1.8684605
-16.169336 5.1061583 -1.8670093
-16.133919 5.2040553 -1.8665627
-16.097908 5.3017097 -1.866116
-16.056597 5.3975353 -1.8651114
-16.037275 5.5007911 -1.866786
-16.00885 5.6010594 -1.8674558
-16.000387 5.7085314 -1.8705817
-15.991209 5.8161106 -1.8737078
-15.978516 5.9227557 -1.8764988
-15.97906 6.0347295 -1.8809645
-15.958426 6.1390834 -1.8829741
-15.934337 6.2423239 -1.8846487
-15.903118 6.3429227 -1.8855419
-15.88784 6.4501014 -1.8884445
-15.859903 6.5523987 -1.8898959
-15.849632 6.6622968 -1.8935801
-15.827643 6.7676268 -1.8959246
-15.814071 6.8769007 -1.8993856
-15.773395 6.9746079 -1.8996089
