# .PCD v0.7 - Point Cloud Data file format
VERSION 0.7
FIELDS x y z
SIZE 4 4 4
TYPE F F F
COUNT 1 1 1
WIDTH 1495
HEIGHT 1
VIEWPOINT 0 0 0 1 0 0 0
POINTS 1495
DATA ascii
-1.8698101 -3.5019162 -1.0410829
-1.8857435 -3.4801993 -1.0379285
-1.9126432 -3.4787071 -1.0410829
-1.9320711 -3.463536 -1.0400314
-1.9499584 -3.445739 -1.0381913
-1.9614528 -3.4169769 -1.0329341
-2.0056958 -3.4448931 -1.0455515
-1.9796779 -3.3527775 -1.0203167
-2.003684 -3.3463607 -1.0221567
-2.044719 -3.3678112 -1.0329341
-2.0744531 -3.3699884 -1.0376656
-2.1119566 -3.3842027 -1.0463401
-2.1141038 -3.3418324 -1.036877
-2.1408217 -3.338542 -1.0400314
-2.1654744 -3.3318141 -1.0421343
-2.1848154 -3.316853 -1.0416086
-2.2153084 -3.3186288 -1.046603
-2.2302213 -3.2969832 -1.0439743
-2.2635062 -3.3023331 -1.0502831
-2.2991428 -3.3105669 -1.0576432
-2.3316324 -3.3137536 -1.0634261
-2.3720911 -3.3276625 -1.0728892
-2.3184395 -3.2105973 -1.0384542
-2.3631697 -3.2305679 -1.0500202
-2.4294927 -3.2787859 -1.0713121
-2.4721611 -3.293906 -1.0815637
-2.4718819 -3.2517972 -1.0723635
-2.4929657 -3.2380974 -1.0728892
-2.481333 -3.1824222 -1.0589576
-2.5247386 -3.1974194 -1.0694721
-2.5238159 -3.1562529 -1.0605347
-2.534024 -3.1294627 -1.0565917
-2.5164602 -3.0691001 -1.04082
-2.5377107 -3.0565703 -1.0418714
-2.550828 -3.0342965 -1.0395057
-2.5656445 -3.0141807 -1.0379285
-2.5601473 -2.9706156 -1.0279397
-2.5846722 -2.9621189 -1.0305684
-2.6162179 -2.9613845 -1.0360885
-2.6542859 -2.9675636 -1.0442373
-2.6957664 -2.9769611 -1.0537002
-2.7309394 -2.9788504 -1.0605347
-2.7458832 -2.9585025 -1.0592204
-3.0818698 -3.2797163 -1.1856574
-2.75737 -2.898725 -1.0494945
-2.7409618 -2.8463175 -1.0360885
-2.7442269 -2.8149419 -1.0305684
-2.7614474 -2.7980506 -1.0305684
-2.8031209 -2.8056183 -1.0400314
-2.8244009 -2.7924347 -1.0416086
-2.8297439 -2.7635953 -1.0371399
-2.8459532 -2.7455106 -1.036877
-3.4356601 -3.2736232 -1.2524246
-2.8499153 -2.6826136 -1.0258368
-3.3964136 -3.1576571 -1.222984
-3.4235435 -3.1439342 -1.2258754
-3.2719338 -2.9679844 -1.1630512
-3.3849595 -3.0328145 -1.1977491
-2.9243586 -2.5881774 -1.023471
-2.9721549 -2.5981157 -1.035037
-2.9829271 -2.5754178 -1.0331969
-2.9876585 -2.5476792 -1.029254
-2.9847803 -2.5137668 -1.0226824
-2.986793 -2.4843035 -1.0179509
-4.6440835 -3.8139892 -1.5967748
-3.084507 -2.5021489 -1.0416086
-3.1246572 -2.5030744 -1.0502831
-3.1543374 -2.4952238 -1.0552775
-3.1513357 -2.4615731 -1.0489687
-3.1518614 -2.4309988 -1.0439743
-3.1682539 -2.4127824 -1.0445001
-3.1760569 -2.3880804 -1.0421343
-3.2100217 -2.3829191 -1.0487058
-3.2619452 -2.390543 -1.0613233
-3.3000081 -2.3874426 -1.0692092
-3.3381546 -2.3839643 -1.077095
-3.3337896 -2.3501008 -1.0707864
-3.3402255 -2.3240924 -1.0681577
-3.3114655 -2.2740717 -1.0539631
-3.3037877 -2.2391012 -1.0468658
-3.3487482 -2.2396975 -1.0571175
-3.3640385 -2.2201703 -1.0576432
-3.3452513 -2.1784363 -1.0471287
-3.3488123 -2.1516137 -1.0439743
-3.4369373 -2.1785254 -1.0681577
-3.4641495 -2.1660879 -1.0726264
-3.465055 -2.1371975 -1.0686834
-3.4484239 -2.0978522 -1.0592204
-3.4347515 -2.0607767 -1.0508088
-3.4456706 -2.0386806 -1.0502831
-3.5006239 -2.042284 -1.063689
-3.4896679 -2.0073028 -1.0563289
-3.5069551 -1.9887068 -1.057906
-3.5494151 -1.9840903 -1.0673691
-3.5598321 -1.9613434 -1.0668434
-3.5701036 -1.9385434 -1.0663177
-3.5555551 -1.9024979 -1.0581689
-3.546675 -1.8698523 -1.0518602
-3.5512307 -1.8444992 -1.0497574
-3.5977032 -1.8406823 -1.0605347
-3.6270263 -1.8276851 -1.0660548
-3.6969512 -1.8345429 -1.0839295
-3.7376163 -1.8262173 -1.0928668
-3.7304902 -1.7944714 -1.0873467
-3.7527683 -1.7769123 -1.0907639
-3.7837176 -1.7632201 -1.0968097
-3.7497315 -1.7194725 -1.0834037
-3.8191435 -1.7229997 -1.1010156
-3.9284277 -1.7433394 -1.1304562
-3.9956512 -1.7438874 -1.1472794
-5.4800272 -2.3513498 -1.5841575
-4.0354204 -1.7025946 -1.1527995
-4.0431175 -1.6766936 -1.1520109
-4.2097063 -1.715534 -1.198012
-4.3607941 -1.7459395 -1.2392814
-4.361547 -1.7152675 -1.2363899
-4.3575873 -1.6829153 -1.2321842
-4.4048238 -1.6701616 -1.2429615
-4.516273 -1.6807687 -1.2724022
-4.6769586 -1.7079301 -1.3160374
-4.7064261 -1.6860294 -1.3215575
-4.8286572 -1.6964307 -1.3538896
-4.8955383 -1.6862392 -1.370187
-5.0301261 -1.6981121 -1.4059365
-5.1833611 -1.7144513 -1.446943
-5.2286644 -1.6939067 -1.4569318
-5.37784 -1.7058127 -1.4966241
-5.358717 -1.6636348 -1.4882125
-5.8793783 -1.7856832 -1.6335757
-6.0132427 -1.7860891 -1.6685364
-6.051887 -1.7572249 -1.6764222
-6.0996852 -1.7305852 -1.6869369
-6.198524 -1.7175858 -1.7119088
-6.2713504 -1.6963882 -1.7295206
-6.3982577 -1.6886318 -1.7623785
-6.4570889 -1.6618375 -1.7760473
-6.6281362 -1.6625336 -1.8212597
-6.8144255 -1.6648532 -1.8706779
-6.9625001 -1.6558014 -1.9093188
-7.0223513 -1.6245668 -1.9232504
-7.0660758 -1.5890633 -1.9327135
-7.0860624 -1.5479401 -1.935605
-7.1114726 -1.5078312 -1.9400737
-7.1253161 -1.4651386 -1.941388
-7.1370111 -1.4219559 -1.9421766
-7.1607599 -1.3810583 -1.9463824
-7.1662536 -1.3365645 -1.9455938
-7.1021523 -1.2795777 -1.9256163
-7.1412396 -1.2414238 -1.9342908
-7.1354003 -1.195353 -1.9306107
-7.1578412 -1.1540031 -1.9348165
-7.1809964 -1.1125704 -1.9392852
-7.1600113 -1.064378 -1.9316621
-7.1702285 -1.0209683 -1.9327135
-7.1945224 -0.97942334 -1.9377079
-7.1755195 -0.93203288 -1.9308735
-7.1839762 -0.8883419 -1.9316621
-7.1892915 -0.84424514 -1.9316621
-7.1952953 -0.80022311 -1.9319249
-7.2211804 -0.75827187 -1.9377079
-7.2228169 -0.71366513 -1.9369193
-7.24051 -0.67057681 -1.9405994
-7.2243018 -0.62439579 -1.9350793
-7.2318439 -0.5803647 -1.9361308
-7.179461 -0.53185475 -1.9208847
-7.2364964 -0.49144468 -1.935605
-7.2335973 -0.44667727 -1.9340279
-7.225605 -0.40169692 -1.9311364
-7.2154064 -0.35673651 -1.9277191
-7.2184234 -0.31249848 -1.927982
-7.2250257 -0.26837948 -1.9292964
-7.2168927 -0.22374508 -1.9266677
-7.2489948 -0.18022126 -1.9350793
-7.2383885 -0.13552399 -1.9319249
-7.2496958 -0.091239378 -1.9348165
-7.2819581 -0.046954591 -1.9434909
-7.2483401 -0.0022672939 -1.9342908
-7.2433934 0.042178862 -1.9329764
-7.2429981 0.086622693 -1.9329764
-7.2423306 0.13106327 -1.9329764
-7.2220988 0.17502828 -1.9277191
-7.2054591 0.21886778 -1.9235133
-7.1702337 0.26183772 -1.9143132
-7.2157259 0.30785128 -1.9271934
-7.1992459 0.35141245 -1.9232504
-7.1988807 0.39568579 -1.9237761
-7.210763 0.4407351 -1.9277191
-7.2088857 0.48503613 -1.927982
-6.9552426 -0.17686766 -1.9425224
-6.9581199 -0.13422498 -1.9430707
-6.9357338 -0.091223344 -1.9364916
-6.9101977 -0.048481084 -1.9290901
-6.9074802 -0.0060772873 -1.9282677
-6.9246979 0.036396306 -1.933202
-6.9003034 0.078612283 -1.9263489
-6.9064217 0.12106787 -1.9282677
-6.9074717 0.16348799 -1.928816
-6.9197965 0.20626874 -1.9326538
-6.9030232 0.248172 -1.9282677
-6.9109793 0.29092741 -1.9310091
-6.9013791 0.33295661 -1.928816
-6.883842 0.3744615 -1.92443
-6.8775749 0.41646063 -1.9233335
-6.8768091 0.45878074 -1.9238818
-6.8661914 0.50040865 -1.9216887
-6.8668265 0.54283231 -1.9227853
-6.865283 0.58511937 -1.9233335
-6.8328323 0.62460822 -1.9151096
-6.788671 0.66260064 -1.9035963
-6.861959 0.71228075 -1.9258006
-6.8335609 0.75174397 -1.9189475
-6.850791 0.79621196 -1.9252523
-6.8333669 0.83671391 -1.9216887
-6.8281045 0.87862694 -1.9216887
-6.8197255 0.92012125 -1.9208664
-6.8139515 0.96194899 -1.9208664
-6.8155322 1.0048622 -1.9230593
-6.79498 1.0444719 -1.9189475
-6.7979393 1.0876642 -1.9216887
-6.7939839 1.1298282 -1.9225111
-6.8001909 1.1737834 -1.9263489
-6.7890739 1.2148092 -1.9252523
-6.7805467 1.2562681 -1.9249783
-6.7632656 1.2960397 -1.9222369
-6.7372618 1.333966 -1.9170285
-6.7402563 1.3775902 -1.9203181
-6.778728 1.4288365 -1.9340245
-6.7162652 1.4587713 -1.9183992
-6.7043724 1.4993246 -1.9175768
-6.7091045 1.5436673 -1.9216887
-6.6938915 1.5834767 -1.9200439
-6.6821804 1.6240656 -1.9194957
-6.6758218 1.6659673 -1.9205922
-6.652431 1.7035588 -1.9167545
-6.6474338 1.7458106 -1.9183992
-6.6365967 1.7865657 -1.9183992
-6.6236553 1.8267422 -1.917851
-6.6113963 1.8670884 -1.9175768
-6.6025872 1.908421 -1.9183992
-6.5704641 1.9428996 -1.9123684
-6.5538163 1.9817871 -1.9109977
-6.5139685 2.0134449 -1.902774
-6.5354228 2.0640903 -1.9129167
-6.5079904 2.0994289 -1.9085306
-6.5141683 2.1456387 -1.9142873
-6.5236697 2.1932287 -1.9211404
-6.4773407 2.2219839 -1.9112719
-6.4490614 2.2566051 -1.9068859
-6.4079204 2.2864394 -1.8986621
-6.4244986 2.33689 -1.9079823
-6.4118423 2.3769343 -1.9085306
-6.3791437 2.4094369 -1.903048
-6.3759079 2.4530218 -1.9066117
-6.3535728 2.4892912 -1.9044187
-6.337286 2.5278728 -1.9041445
-6.3243294 2.5677953 -1.904967
-6.3244534 2.6131618 -1.9099013
-6.3047543 2.6504283 -1.9088048
-6.2839513 2.6871731 -1.9074341
-6.2691088 2.7264471 -1.9079823
-6.2505026 2.7640846 -1.9074341
-6.2360563 2.8035679 -1.9082565
-6.2213607 2.8429778 -1.9090788
-6.2046714 2.8815026 -1.909353
-6.1912227 2.9215715 -1.9107237
-6.1688437 2.9574265 -1.909353
-6.1471229 2.9935381 -1.9082565
-6.1148462 3.024379 -1.9038705
-6.090158 3.0588212 -1.9019516
-6.0755587 3.0983162 -1.9033222
-6.0444765 3.1293476 -1.8994844
-6.0328231 3.1704028 -1.9019516
-6.0336218 3.2182209 -1.9085306
-6.0162992 3.2565551 -1.909353
-5.9945183 3.2924833 -1.9088048
-5.9817638 3.3334157 -1.9112719
-5.9536629 3.3657973 -1.9088048
-5.9345675 3.4032216 -1.909353
-5.901104 3.4323194 -1.9052411
-5.8815889 3.4694405 -1.9057894
-5.8585396 3.5044765 -1.9052411
-5.8393931 3.5418539 -1.9060634
-5.7987089 3.5660315 -1.8997586
-5.7832479 3.6056144 -1.9019516
-5.7577634 3.6389771 -1.9008551
-5.7507129 3.684093 -1.9060634
-5.7191267 3.7135489 -1.903048
-5.7034636 3.7533286 -1.9055152
-5.6723251 3.7829182 -1.902774
-5.6410384 3.8122675 -1.9000326
-5.6223016 3.8500683 -1.9016775
-5.607264 3.8905237 -1.9046929
-5.5777793 3.9209847 -1.902774
-5.5410814 3.9462104 -1.8983879
-5.5315828 3.9908254 -1.9035963
-5.4596262 3.9900799 -1.8868746
-5.4845114 4.0601225 -1.9044187
-5.4710374 4.1023517 -1.9085306
-5.431211 4.1247935 -1.9033222
-5.4096112 4.1609726 -1.9046929
-5.3695626 4.1828589 -1.8994844
-5.3505917 4.2210875 -1.9019516
-5.3298507 4.2580404 -1.9038705
-5.3028755 4.2900586 -1.9035963
-5.2786841 4.3243442 -1.9044187
-5.2572327 4.3609495 -1.9063376
-5.2370033 4.3986917 -1.9088048
-5.2055192 4.4270043 -1.9071599
-5.1731563 4.4544692 -1.9052411
-5.151526 4.4911828 -1.9074341
-5.1181035 4.5176167 -1.9052411
-5.0902877 4.5489354 -1.9052411
-5.0644193 4.5820189 -1.9060634
-5.0028768 4.5824795 -1.8931795
-4.9845381 4.6222444 -1.8970172
-4.9560828 4.6527419 -1.8970172
-4.9253492 4.681077 -1.8961949
-4.9103951 4.724545 -1.9016775
-4.8709793 4.7445211 -1.8975655
-4.8383517 4.7709436 -1.8961949
-4.7994571 4.7910299 -1.8923571
-4.7794404 4.829958 -1.8961949
-4.7564368 4.8660703 -1.8989362
-4.7158012 4.8840947 -1.8945501
-4.67977 4.9066753 -1.892083
-4.6574893 4.943697 -1.8953725
-4.6224813 4.9672542 -1.8934536
-4.5964718 5.0004792 -1.8953725
-4.5618238 5.0243168 -1.8937278
-4.5244884 5.045054 -1.8909864
-4.4883456 5.0669618 -1.8887935
-4.4603372 5.0980253 -1.8901641
-4.425828 5.1216593 -1.8887935
-4.3949432 5.1494508 -1.8890676
-4.3731818 5.1880851 -1.8934536
-4.3455734 5.2199941 -1.8953725
-4.3116298 5.2443314 -1.8945501
-4.2775512 5.2684488 -1.8937278
-4.2451444 5.2945962 -1.8937278
-4.2095923 5.3167744 -1.8923571
-4.1792593 5.3455343 -1.8934536
-4.1646004 5.3946748 -1.9019516
-4.1145129 5.3979473 -1.8940018
-4.091146 5.4361539 -1.8986621
-4.0456676 5.4449444 -1.8929054
-4.007062 5.462687 -1.8904382
-3.9819295 5.4988546 -1.8945501
-3.9430807 5.5161428 -1.892083
-3.9119325 5.5441618 -1.8934536
-3.8657479 5.5506997 -1.8874228
-3.8321614 5.5751076 -1.887697
-3.7908621 5.5881705 -1.8841333
-3.7597127 5.6161203 -1.8857781
-3.7235916 5.6366768 -1.8849556
-3.6957629 5.6698914 -1.8885193
-3.6567416 5.6859908 -1.8863263
-3.617147 5.7010126 -1.8838592
-3.5923035 5.7394028 -1.8893417
-3.5529776 5.7547908 -1.8871487
-3.5175998 5.7764831 -1.8871487
-3.4865465 5.8053775 -1.8896159
-3.4474289 5.8208694 -1.887697
-3.4164982 5.8502169 -1.8904382
-3.3819773 5.8735704 -1.8912606
-3.3392267 5.8825026 -1.8874228
-3.2786472 5.8592424 -1.8731682
-3.2561045 5.9036694 -1.8811179
-3.2207377 5.9252272 -1.8816662
-3.1965821 5.9677663 -1.8890676
-3.1473346 5.9634542 -1.881392
-3.1075783 5.9766808 -1.8794731
-3.0673399 5.9887886 -1.8772801
-3.0396328 6.0255275 -1.8830369
-3.0073106 6.0535388 -1.8860523
-2.9768722 6.0856986 -1.8904382
-2.9348845 6.0943193 -1.8874228
-2.8908434 6.098309 -1.8830369
-2.8594704 6.1290045 -1.8871487
-2.8085668 6.1175938 -1.8781025
-2.782063 6.1592507 -1.8857781
-2.7438276 6.1753268 -1.8855039
-2.6981821 6.1744223 -1.8800215
-2.6640429 6.199697 -1.8827627
-2.6285722 6.2221279 -1.8846816
-2.5914512 6.2408037 -1.8855039
-2.5672822 6.2913122 -1.8961949
-2.5096607 6.2596383 -1.8816662
-2.5001059 6.3482914 -1.9041445
-2.4593716 6.3590279 -1.902774
-2.4213314 6.3766956 -1.9035963
-2.3818231 6.3905315 -1.9033222
-2.3452098 6.412251 -1.9055152
-2.2869804 6.3740206 -1.8896159
-2.2644293 6.4351048 -1.9038705
-2.2245879 6.447969 -1.9035963
-2.1865227 6.4660521 -1.904967
-2.1353106 6.4446578 -1.8945501
-2.1052282 6.4869089 -1.9033222
-2.0534425 6.4621272 -1.892083
-2.0174665 6.4865432 -1.8956467
-1.9734275 6.4849997 -1.8915347
-1.9401842 6.5191073 -1.8981137
-1.9031031 6.5410466 -1.9011291
-1.8574082 6.5331755 -1.8953725
-1.8232058 6.5657616 -1.9016775
-1.7841431 6.5814657 -1.903048
-1.7456942 6.5997267 -1.9052411
-1.7006011 6.5926213 -1.9000326
-1.6547229 6.581481 -1.8937278
-1.6179698 6.6064553 -1.8981137
-1.5709333 6.5891304 -1.8901641
-1.5359071 6.6220655 -1.8970172
-1.4965155 6.6369939 -1.8986621
-1.4514412 6.6263237 -1.8929054
-1.4157569 6.6586213 -1.8997586
-1.372931 6.657764 -1.8970172
-1.3320539 6.6660628 -1.8970172
-1.2924056 6.6807199 -1.8989362
-1.2503276 6.6828527 -1.8972914
-1.2108389 6.698916 -1.8997586
-1.1693817 6.7043247 -1.8992103
-1.1301366 6.722754 -1.9024998
-1.0913239 6.7447515 -1.9068859
-1.0499183 6.7513204 -1.9068859
-1.0093253 6.7633424 -1.9085306
-0.96658164 6.7608404 -1.9060634
-0.92468876 6.7637854 -1.9052411
-0.88180035 6.758842 -1.9022257
-0.83936334 6.7564907 -1.9000326
-0.7987926 6.7691545 -1.9022257
-0.75542557 6.7576809 -1.8975655
-0.71505833 6.7727089 -1.9005809
-0.67291737 6.7712269 -1.8989362
-0.63144648 6.776186 -1.8992103
-0.59019035 6.7837653 -1.9003068
-0.54925263 6.795886 -1.902774
-0.50840324 6.8106365 -1.9060634
-0.46581528 6.8021145 -1.902774
-0.42442873 6.8106036 -1.9044187
-0.38273963 6.8150001 -1.904967
-0.33966607 6.7922473 -1.8978397
-0.29760346 6.7855568 -1.8953725
-0.25596249 6.7872548 -1.8953725
-0.21452466 6.7954264 -1.8972914
-0.1730942 6.8071899 -1.9003068
-0.13141583 6.8129315 -1.9016775
-0.089584582 6.811686 -1.9011291
-0.047562677 6.7803726 -1.892083
-0.0059717321 6.7949619 -1.8961949
0.035866447 6.8227596 -1.9041445
0.077435158 6.7964473 -1.8967432
0.11945511 6.8141131 -1.9019516
0.16096838 6.8007536 -1.8983879
0.20346613 6.825592 -1.9057894
0.24523987 6.821332 -1.904967
0.2862823 6.8004818 -1.8994844
0.32865191 6.8120456 -1.9033222
0.37060019 6.8127813 -1.9041445
0.41094387 6.7863808 -1.8972914
0.45308828 6.7914081 -1.8994844
0.49475104 6.7885003 -1.8994844
0.53745538 6.7987585 -1.9033222
0.57744783 6.7752099 -1.8975655
0.6190089 6.7715392 -1.8975655
0.65961295 6.7580423 -1.8948243
0.7015633 6.7586503 -1.8961949
0.74259996 6.7503948 -1.8950984
0.78467143 6.7514429 -1.8967432
0.82491446 6.7369552 -1.8940018
0.86623615 6.7317667 -1.8940018
0.90559721 6.712029 -1.88989
0.94810814 6.7158685 -1.8926313
0.99098068 6.7213416 -1.8959208
1.0304508 6.7037282 -1.8926313
1.075058 6.7191205 -1.8989362
1.1105881 6.6782455 -1.8890676
1.1518712 6.6732006 -1.8896159
1.1933035 6.6688476 -1.8904382
1.2354263 6.6680193 -1.8923571
1.2764982 6.6612577 -1.8926313
1.3197744 6.6655641 -1.8961949
1.3606486 6.6573405 -1.8961949
1.4024632 6.6535716 -1.8975655
1.4420379 6.6392021 -1.8959208
1.4806499 6.6208439 -1.8931795
1.5251273 6.6285038 -1.8981137
1.5651063 6.6162133 -1.8972914
1.6061273 6.6083546 -1.8978397
1.6496716 6.6105056 -1.9014033
1.6921099 6.6077118 -1.9035963
1.7328664 6.598135 -1.9038705
1.7735691 6.5883069 -1.9041445
1.8103821 6.564321 -1.9003068
1.8555908 6.5706739 -1.9055152
1.8878633 6.5314479 -1.8972914
1.9254501 6.5114412 -1.8948243
1.9355891 6.4010057 -1.8654927
1.9876059 6.4303555 -1.8778284
2.0151517 6.3804393 -1.8665892
2.0578058 6.3789377 -1.8698786
2.1038263 6.3872004 -1.8761836
2.1405265 6.3668785 -1.8739907
2.1826725 6.3627214 -1.8767319
2.2251656 6.3591943 -1.8797473
2.2625275 6.3408923 -1.8783766
2.2977762 6.3169489 -1.8753612
2.3381641 6.3072395 -1.8767319
2.3703654 6.2756805 -1.8715235
2.4081371 6.259223 -1.8709753
2.4461467 6.2434335 -1.8707011
2.481916 6.222054 -1.8687822
2.5182383 6.2022524 -1.8674116
2.5617552 6.2000165 -1.8715235
2.6012402 6.1877275 -1.87262
2.6312189 6.1530809 -1.8668633
2.6719918 6.1438756 -1.8690563
2.708473 6.1247263 -1.8682339
2.7448196 6.1053605 -1.8674116
2.7806311 6.0849047 -1.866315
2.8243954 6.0816846 -1.8707011
2.85181 6.043366 -1.864122
2.8838494 6.0153475 -1.8608325
2.9261777 6.0087795 -1.8643962
2.9600077 5.9846773 -1.8624773
2.989768 5.952652 -1.8580912
3.0253627 5.9324813 -1.857543
3.0732014 5.9360118 -1.8646703
3.1180654 5.9332185 -1.8698786
3.1503394 5.9063377 -1.8674116
3.1778235 5.8708267 -1.8622031
3.2239707 5.8697619 -1.8682339
3.2641389 5.8574305 -1.8707011
3.2929196 5.8247337 -1.8665892
3.3348162 5.8152652 -1.8701528
3.3689847 5.7921996 -1.8693304
3.4034846 5.769762 -1.8687822
3.4378357 5.7471194 -1.8682339
3.4820111 5.7407184 -1.8731682
3.5211997 5.7257986 -1.8753612
3.55881 5.7081656 -1.8767319
3.5901716 5.680531 -1.874813
3.6306648 5.6673031 -1.8778284
3.6664178 5.6465321 -1.8783766
3.6957092 5.6158953 -1.8756354
3.7284975 5.590713 -1.874813
3.7595005 5.5629492 -1.8731682
3.7903035 5.5350156 -1.8715235
3.829128 5.5187659 -1.8739907
3.8629184 5.4951668 -1.8739907
3.8954477 5.4697943 -1.8734423
3.9334373 5.4520288 -1.8756354
3.9594402 5.417697 -1.8720717
3.9948967 5.3963923 -1.8731682
4.0256257 5.3687005 -1.8720717
4.0707049 5.3599825 -1.8778284
4.100585 5.3310928 -1.8764577
4.1213999 5.2906575 -1.8709753
4.160337 5.2735753 -1.8739907
4.1980186 5.2547112 -1.8764577
4.2259479 5.2236199 -1.8745389
4.2670608 5.2087512 -1.8786508
4.2909594 5.1728477 -1.8750871
4.3232374 5.1471581 -1.8753612
4.3528695 5.1183367 -1.8745389
4.3873301 5.0951753 -1.8759094
4.4077682 5.0558357 -1.8712493
4.44698 5.0380683 -1.874813
4.4829354 5.0164242 -1.8770061
4.5349216 5.0123577 -1.8860523
4.5500031 4.9674168 -1.8794731
4.5771275 4.9358792 -1.8781025
4.6014037 4.901391 -1.8756354
4.6174793 4.8584251 -1.8698786
4.6492033 4.8320804 -1.8707011
4.6874876 4.8124189 -1.8742647
4.7176032 4.7842512 -1.8745389
4.748908 4.7572565 -1.8753612
4.7862115 4.736146 -1.8786508
4.8048663 4.6966052 -1.8745389
4.8384361 4.671711 -1.8764577
4.8670101 4.6419349 -1.8764577
4.896801 4.6133032 -1.8770061
4.9285355 4.5864458 -1.8783766
4.9629564 4.5619764 -1.8808438
4.9908547 4.5314384 -1.8808438
5.0171332 4.4994454 -1.8802955
5.0475264 4.471127 -1.881392
5.074142 4.4394388 -1.8811179
5.1027412 4.4094782 -1.8816662
5.1399417 4.3868265 -1.8855039
5.1645565 4.3533463 -1.8846816
5.1911707 4.3215752 -1.8846816
5.216104 4.2884197 -1.8841333
5.2326136 4.2484527 -1.8805697
5.2623348 4.2192745 -1.8819402
5.2911401 4.1892939 -1.8830369
5.3182607 4.1579337 -1.8835851
5.3436732 4.1252236 -1.8835851
5.3864751 4.1057673 -1.88989
5.4000406 4.0639644 -1.8857781
5.4387693 4.0410786 -1.8907124
5.4595857 4.0047865 -1.8893417
5.4848347 3.971776 -1.8896159
5.5098839 3.9386063 -1.88989
5.5378757 3.9074965 -1.8912606
5.5656934 3.8761914 -1.8926313
5.5869946 3.8403337 -1.8918089
5.6088619 3.8049004 -1.8912606
5.6161203 3.7597127 -1.8857781
5.645503 3.729423 -1.887971
5.6690855 3.6952379 -1.8882452
5.6956964 3.6629846 -1.8896159
5.7164412 3.6269369 -1.8890676
5.75 3.598937 -1.8929054
5.7629733 3.5580301 -1.88989
5.7961955 3.5296054 -1.8937278
5.8202171 3.4954598 -1.8945501
5.8490019 3.4640927 -1.8970172
5.8751297 3.4310489 -1.8986621
5.9069057 3.4011743 -1.9022257
5.9243183 3.362967 -1.9011291
5.9448414 3.3265526 -1.9011291
5.9676671 3.2914066 -1.9019516
5.9852157 3.2533498 -1.9011291
6.0109992 3.219743 -1.903048
6.0187354 3.1765146 -1.8992103
6.0415258 3.1412992 -1.9003068
6.0572629 3.1024163 -1.8992103
6.0710335 3.062592 -1.8975655
6.0957394 3.0282786 -1.8994844
6.0917459 2.9798307 -1.8923571
6.122045 2.9482386 -1.8961949
6.1391506 2.910207 -1.8959208
6.1682215 2.8777697 -1.8994844
6.1805191 2.8374603 -1.8978397
6.1960602 2.798692 -1.8972914
6.2342076 2.769994 -1.9038705
6.2502055 2.7313044 -1.9035963
6.2712646 2.6948011 -1.904967
6.2805948 2.6532762 -1.902774
6.3011975 2.6165335 -1.9041445
6.3278179 2.5821817 -1.9074341
6.3328319 2.539011 -1.9041445
6.362608 2.5057449 -1.9085306
6.3662033 2.4621472 -1.904967
6.4027677 2.4312332 -1.911546
6.4256749 2.3949239 -1.9140131
6.4131541 2.3455403 -1.9057894
6.4446239 2.3123176 -1.9109977
6.4523406 2.2704957 -1.9090788
6.4461508 2.2239606 -1.903048
6.4578533 2.1837497 -1.9024998
6.4884753 2.1498318 -1.9077083
6.4905677 2.1064157 -1.9044187
6.5143685 2.0700464 -1.9077083
6.5471497 2.0363207 -1.9137391
6.5613613 1.9966699 -1.9142873
6.5624285 1.9530799 -1.9109977
6.581676 1.9149266 -1.9131907
6.6025519 1.8771366 -1.9159321
6.614872 1.8368462 -1.9162061
6.6213775 1.7949651 -1.9148356
6.62111 1.7513516 -1.911546
6.6261444 1.7092507 -1.9099013
6.6439686 1.6704377 -1.9120942
6.655961 1.6300973 -1.9126425
6.6602254 1.5878878 -1.9109977
6.6745272 1.5480783 -1.9123684
6.7026629 1.5113268 -1.917851
6.698658 1.4672899 -1.9140131
6.7216449 1.4291611 -1.918125
6.7236948 1.3865309 -1.9162061
6.7320757 1.3452489 -1.9162061
6.7477565 1.3053781 -1.9183992
6.754694 1.2637732 -1.918125
6.7500186 1.2200789 -1.9145614
6.7687464 1.1806222 -1.917851
6.7673278 1.1376324 -1.9153838
6.723866 1.0879432 -1.9008551
6.6249356 1.0302562 -1.8704269
6.552187 0.97780073 -1.8476744
6.5675831 0.93894053 -1.8504157
6.5837021 0.90005839 -1.8534311
6.6224766 0.8640011 -1.8630255
6.738358 0.83710963 -1.8948243
6.7806149 0.80014569 -1.9055152
6.7892199 0.75895315 -1.9066117
6.7918363 0.71707892 -1.9060634
6.8047209 0.67624795 -1.9085306
6.807785 0.63439298 -1.9082565
6.8058009 0.59210879 -1.9066117
6.8035545 0.54987282 -1.904967
6.804882 0.50797337 -1.9044187
6.8136277 0.46660438 -1.9060634
6.8250008 0.42532682 -1.9085306
6.8303628 0.38360333 -1.909353
6.8373904 0.34192625 -1.9107237
6.8441634 0.30017737 -1.9120942
6.8410716 0.25799522 -1.9107237
6.8377194 0.21586232 -1.909353
6.845645 0.17407432 -1.9112719
6.855238 0.13223439 -1.9137391
6.86169 0.090245172 -1.9153838
6.8698077 0.048195358 -1.9175768
6.8757443 0.0060475152 -1.9192215
6.8669968 -0.036096387 -1.9167545
6.8666463 -0.078230806 -1.9167545
6.8650756 -0.12034548 -1.9164803
6.853632 -0.16221684 -1.9134649
6.8515463 -0.20423828 -1.9131907
6.8501644 -0.24627474 -1.9131907
6.8494849 -0.2883423 -1.9134649
6.8418236 -0.3300868 -1.9118202
6.8223844 -0.371122 -1.9068859
6.8295779 -0.41355708 -1.9096271
6.6541905 -0.44394195 -1.8602842
6.6734018 -0.48636943 -1.8665892
6.6405716 -0.52495986 -1.8580912
6.6401005 -0.56594056 -1.8589137
6.625968 -0.60571045 -1.8558983
6.6259556 -0.64672863 -1.8569947
6.8906555 -0.71525782 -1.9340245
6.9253306 -0.76183385 -1.9452636
6.9243464 -0.8047564 -1.9463601
6.9230967 -0.84769559 -1.9474567
6.911088 -0.88930017 -1.9455378
6.8950176 -0.9302752 -1.9425224
6.8806095 -0.97135532 -1.9400553
6.8764229 -1.0138361 -1.9406035
6.8472595 -1.0525047 -1.9340245
6.7751484 -1.0840191 -1.9151096
6.604249 -1.098287 -1.8676857
6.3955278 -1.1039586 -1.8092966
6.2693534 -1.1218438 -1.7747566
6.1971049 -1.148206 -1.7558419
6.103992 -1.1697435 -1.7308962
6.0174546 -1.1914893 -1.7078696
5.9732838 -1.2208812 -1.6971786
5.9336853 -1.2507676 -1.6878583
5.9926243 -1.301641 -1.7073214
6.0070491 -1.3434224 -1.7139004
5.9855719 -1.3772376 -1.7100626
5.9770088 -1.4139384 -1.7100626
5.9766312 -1.4526297 -1.7125298
5.9582744 -1.4869462 -1.7097884
5.9620814 -1.5268168 -1.7136263
5.9367881 -1.5592188 -1.7089661
5.9280376 -1.5958668 -1.7092402
5.8791962 -1.6214743 -1.6977268
5.8210096 -1.6439296 -1.6834723
5.8246717 -1.6836206 -1.6875842
5.7957869 -1.7138754 -1.6821016
5.8081751 -1.7563629 -1.6889548
5.7779937 -1.7860054 -1.6831982
5.7421656 -1.8136063 -1.6757967
5.7318444 -1.8491006 -1.6760708
5.7313523 -1.8878454 -1.6793604
5.7178373 -1.922364 -1.6788121
5.6731858 -1.9461799 -1.6689435
5.6547832 -1.9787303 -1.6670246
5.6561227 -2.0182371 -1.6711366
5.621038 -2.0446873 -1.6642834
5.6273227 -2.0861576 -1.67004
5.6378078 -2.1294806 -1.6771674
5.6048889 -2.1564374 -1.6711366
5.5799112 -2.1862278 -1.667573
5.5565658 -2.2165055 -1.6645576
5.5277123 -2.2444088 -1.6598973
5.5333915 -2.2863622 -1.6659281
5.4935479 -2.3094649 -1.6579784
5.4713159 -2.3397267 -1.6555114
5.471849 -2.3797734 -1.6601715
5.4360347 -2.4039698 -1.6535925
5.4299536 -2.4412222 -1.6563337
5.4131227 -2.4736946 -1.6557854
5.4065652 -2.5109124 -1.6585268
5.3988843 -2.5477324 -1.6609938
5.3831501 -2.5808113 -1.6609938
5.3698072 -2.6150563 -1.6618162
5.3760734 -2.6590393 -1.6689435
5.3493438 -2.6867971 -1.6656541
5.3344707 -2.7204432 -1.6662023
5.3116994 -2.7500291 -1.6642834
5.2989821 -2.784806 -1.6656541
5.2716126 -2.811837 -1.6623645
5.2711759 -2.8532848 -1.667847
5.2535691 -2.8855746 -1.667847
5.2240033 -2.9112022 -1.6640092
5.2361813 -2.9602377 -1.6738778
5.2404447 -3.0052261 -1.6812793
5.1753516 -3.0102501 -1.6659281
5.1741791 -3.0522087 -1.6716849
5.1355457 -3.072052 -1.6651058
5.1437349 -3.1199622 -1.674152
5.1097484 -3.1423976 -1.6692177
5.0634394 -3.1569028 -1.6601715
5.0447865 -3.1884258 -1.6604456
5.008122 -3.208427 -1.654689
4.9746289 -3.2301931 -1.6500288
4.9394507 -3.2506125 -1.6448203
4.9090109 -3.2739232 -1.6412567
4.8888302 -3.3039827 -1.6412567
4.8906837 -3.3491306 -1.6489323
4.8668809 -3.3768835 -1.6478357
4.8460693 -3.4066825 -1.6478357
4.8368254 -3.4447207 -1.6519477
4.7922001 -3.4574554 -1.6437238
4.76546 -3.4828229 -1.6418049
4.744 -3.5119977 -1.6418049
4.7100501 -3.53181 -1.637419
4.7036085 -3.5722756 -1.6429015
4.6907487 -3.6081047 -1.646191
4.6616931 -3.6315002 -1.6437238
4.6551795 -3.6725428 -1.6494806
4.6423254 -3.7088404 -1.6530442
4.6232195 -3.7402792 -1.6544148
4.6068783 -3.774061 -1.6568819
4.5769725 -3.7967317 -1.6544148
4.538125 -3.8117559 -1.6486582
4.5043941 -3.8308079 -1.6448203
4.4837193 -3.860884 -1.6459169
4.4483461 -3.878212 -1.6415309
4.4049978 -3.8882518 -1.6341294
4.3681488 -3.9036732 -1.6291951
4.343401 -3.9297569 -1.628921
4.3043137 -3.9426935 -1.6231643
4.2638211 -3.9539909 -1.6168594
4.292769 -4.0301008 -1.637693
4.2686572 -4.0570273 -1.6379672
4.2464557 -4.0858102 -1.6390637
2.3584025 -2.2974646 -0.89782411
2.3463156 -2.3139179 -0.89864647
2.3259475 -2.3221567 -0.89617932
4.1516705 -4.1956282 -1.6418049
4.1473613 -4.2430291 -1.6505771
4.118576 -4.2656298 -1.6494806
4.1062646 -4.3054342 -1.6552372
4.0890026 -4.3403478 -1.659075
4.0668802 -4.3702836 -1.6609938
4.0471473 -4.4029431 -1.6640092
4.0207019 -4.4284048 -1.6642834
4.0011592 -4.4615831 -1.667573
3.9756215 -4.4882092 -1.6683953
3.9467409 -4.5110712 -1.667847
3.9171007 -4.53302 -1.6670246
3.8792231 -4.5452666 -1.6626387
3.8388636 -4.5542779 -1.6571561
3.8065395 -4.5725737 -1.6552372
3.7692492 -4.5847015 -1.6511253
3.7374098 -4.6032634 -1.6494806
3.7439888 -4.6696248 -1.6653799
3.6943705 -4.6661215 -1.6557854
2.007612 -2.5682011 -0.88850379
1.9871143 -2.5743816 -0.88631076
1.9654504 -2.5788777 -0.88356948
1.9461198 -2.5862787 -0.88192475
1.9261988 -2.592768 -0.88000584
1.8914813 -2.5789497 -0.87095964
1.6922927 -2.3373702 -0.78186834
1.6768004 -2.3461452 -0.7813201
1.6302128 -2.3108163 -0.76542073
3.4320688 -4.9280734 -1.6711366
3.3816085 -4.9197173 -1.6609938
3.3616166 -4.9554944 -1.6662023
3.3113506 -4.9464602 -1.6560596
3.2841182 -4.9714994 -1.6577044
3.2362204 -4.9649711 -1.6486582
3.2025735 -4.9798818 -1.6470134
3.1657741 -4.9896946 -1.6437238
3.1340778 -5.0073953 -1.6431756
3.0987465 -5.0191669 -1.6407084
3.0703924 -5.0421925 -1.6420791
3.0423675 -5.0658836 -1.6437238
3.0112264 -5.084456 -1.6437238
2.976577 -5.097024 -1.6418049
2.9562845 -5.1343598 -1.6481099
2.9190273 -5.1423669 -1.6448203
2.8860104 -5.1576629 -1.643998
2.8515222 -5.1702218 -1.6423532
2.8220413 -5.1918454 -1.6437238
2.7792323 -5.1887183 -1.6371448
2.7433023 -5.1980195 -1.6346776
2.7064755 -5.205369 -1.6316622
1.5564272 -3.0392616 -0.93263823
1.5386157 -3.0504715 -0.93318647
1.5228648 -3.0658836 -0.93510538
2.5905931 -5.2961369 -1.6398861
2.554292 -5.3041348 -1.637419
2.5204623 -5.317101 -1.6365966
2.4808767 -5.3176508 -1.6319364
2.4510105 -5.338891 -1.6338553
2.4189975 -5.3555822 -1.6344036
2.3845286 -5.3668089 -1.633307
2.3534791 -5.385745 -1.6346776
2.326844 -5.4151049 -1.6393378
2.2917023 -5.4248509 -1.6379672
2.2428808 -5.4015083 -1.6264539
2.2111492 -5.4187303 -1.6275504
2.177501 -5.431303 -1.6272762
2.1420195 -5.4391928 -1.6256315
2.1096456 -5.4549246 -1.6264539
2.0843298 -5.4893432 -1.6330329
2.0385156 -5.4695888 -1.6231643
2.0144975 -5.5081859 -1.631114
1.9774135 -5.5113912 -1.6283728
1.9477097 -5.5352135 -1.6319364
1.9130821 -5.5452418 -1.6313882
1.8808699 -5.5623422 -1.6330329
1.8476121 -5.5765166 -1.6338553
1.8109852 -5.5804305 -1.6316622
1.7761276 -5.5896049 -1.631114
1.741797 -5.6003976 -1.631114
1.7071208 -5.6100597 -1.6308399
1.6737635 -5.6241155 -1.6319364
1.6373421 -5.6278162 -1.6300175
1.6001492 -5.6285062 -1.6272762
1.5660979 -5.6400719 -1.6278245
1.5264281 -5.6310115 -1.622342
1.4989814 -5.667233 -1.6302916
1.4634589 -5.6735306 -1.6294693
1.4309647 -5.6917295 -1.6322105
1.3950987 -5.6966667 -1.631114
1.3603414 -5.7060547 -1.6313882
1.323348 -5.705863 -1.628921
1.2891589 -5.717628 -1.6300175
1.2534344 -5.7226124 -1.6291951
0.78636765 -3.6993232 -1.0373548
0.78424841 -3.8039162 -1.0664122
0.75203365 -3.7643337 -1.0535283
0.70845824 -3.6631296 -1.0228261
0.69145274 -3.6967113 -1.031324
0.66242599 -3.6658695 -1.0211813
0.63810188 -3.6594439 -1.0181659
0.61691177 -3.6708772 -1.0203589
0.59499073 -3.6783907 -1.0214554
0.56960052 -3.6639173 -1.016247
0.55037445 -3.68922 -1.0225519
0.52364254 -3.6639674 -1.0143281
0.50362712 -3.685215 -1.0195365
0.48436627 -3.7139831 -1.026938
0.45955208 -3.7006614 -1.0222778
0.4362728 -3.6986361 -1.0209072
0.41474605 -3.7117565 -1.0239226
0.39216539 -3.7161441 -1.0244708
0.36973682 -3.7223084 -1.0255673
0.34680092 -3.7235494 -1.0252932
0.32469782 -3.7342298 -1.0277604
0.30092606 -3.7256076 -1.024745
0.27777392 -3.7235479 -1.0236484
0.25518447 -3.7290201 -1.024745
0.2330173 -3.7420335 -1.0280344
0.20994426 -3.7414725 -1.0274862
0.1873197 -3.7494137 -1.0294051
0.16397263 -3.7428064 -1.0272121
0.14053224 -3.7312489 -1.0236484
0.11717906 -3.7176228 -1.0195365
0.094365947 -3.7182717 -1.0195365
0.07193996 -3.7389727 -1.0252932
0.048691813 -3.716265 -1.0187142
0.025840703 -3.7097621 -1.0167953
0.0030928808 -3.7261996 -1.0214554
-0.019895675 -3.7501905 -1.0283086
-0.042982332 -3.7567291 -1.0302275
-0.066485971 -3.7823565 -1.0376289
-0.089897111 -3.7905302 -1.040096
-0.1129249 -3.782217 -1.0379031
-0.13619901 -3.7833753 -1.0384513
-0.15989551 -3.7939985 -1.0417408
-0.18150569 -3.7583649 -1.0318723
-0.20430228 -3.7523792 -1.0305016
-0.22627731 -3.7337761 -1.0255673
-0.24828763 -3.7188835 -1.0217296
-0.26970467 -3.698107 -1.016247
-0.29375389 -3.7136393 -1.0211813
-0.31890157 -3.7395554 -1.0291309
-0.34009126 -3.718374 -1.0236484
-0.36402074 -3.7277031 -1.026938
-0.38807747 -3.7368782 -1.0302275
-0.40879205 -3.7143519 -1.0244708
-0.44988471 -3.8693933 -1.0697018
-0.46158528 -3.7682393 -1.0414667
-0.4840847 -3.7605667 -1.040096
-0.50856382 -3.7680094 -1.0431114
-0.53019619 -3.7543433 -1.040096
-0.56009305 -3.7976387 -1.0535283
-0.58513701 -3.805537 -1.0568178
-0.60786879 -3.7980766 -1.0557213
-0.62863863 -3.7790964 -1.0513352
-0.65132433 -3.772325 -1.0505129
-0.67242658 -3.7568974 -1.0472233
-0.69301385 -3.7394624 -1.0433856
-0.71377444 -3.7238054 -1.040096
-0.73642308 -3.7184124 -1.039822
-0.76981342 -3.7656462 -1.054899
-0.80876809 -3.836134 -1.0768291
-0.81821042 -3.7662535 -1.0579144
-0.83228171 -3.7208056 -1.0461268
-0.84927577 -3.6903241 -1.0387254
-0.87168187 -3.6841075 -1.0384513
-0.89699554 -3.6899037 -1.0417408
-0.92241305 -3.6955276 -1.0450304
-0.77023715 -3.006902 -0.84409523
-0.78647459 -2.9937477 -0.84162807
-0.80507904 -2.9897943 -0.8419022
-0.82366455 -2.9857252 -0.84217632
-0.84196907 -2.9806151 -0.84217632
-0.86237782 -2.982784 -0.84436935
-1.1083245 -3.7475026 -1.0732654
-1.1368639 -3.7590425 -1.078748
-1.1502535 -3.7207561 -1.0694276
-1.1788535 -3.7319694 -1.0749102
-1.1937599 -3.6999538 -1.0675088
-1.213131 -3.6825113 -1.0644934
-1.0711626 -3.1854827 -0.91728711
-1.0900642 -3.177031 -0.91673887
-1.1257336 -3.2165778 -0.93071938
-1.2084603 -3.3862369 -0.98417413
-1.1187764 -3.075088 -0.89206743
-1.1352842 -3.0618532 -0.89014858
-1.1849674 -3.1367004 -0.91509414
-1.1796776 -3.0656426 -0.89563107
-1.2005705 -3.063719 -0.89727587
-1.2207716 -3.0598679 -0.89837235
-1.4514972 -3.574487 -1.0590109
-1.4653243 -3.545959 -1.0529801
-1.4784837 -3.5165102 -1.0466751
-1.5007889 -3.5091407 -1.0472233
-1.5276612 -3.512213 -1.0510612
-1.5515163 -3.5080507 -1.0527059
-1.5808977 -3.5160077 -1.0581884
-1.6052394 -3.5123644 -1.0601074
-1.6190653 -3.4858758 -1.054899
-1.6461688 -3.4880524 -1.0587367
-1.6604733 -3.4631433 -1.0540766
-1.6791656 -3.4477019 -1.0524318
-1.6938941 -3.4244032 -1.0483198
-1.717032 -3.4182422 -1.0496905
-1.7287997 -3.3896506 -1.0439339
-1.7526604 -3.3849576 -1.0458528
-1.772055 -3.3715856 -1.0450304
-1.7927094 -3.3606491 -1.0450304
-1.8174158 -3.3571978 -1.0474975
-1.8338147 -3.3383968 -1.0450304
-1.8556685 -3.329602 -1.0458528
-1.8500359 -3.2721071 -1.0307758
-1.8681649 -3.2573569 -1.0296792
-1.887633 -3.2450013 -1.0294051
-1.8918744 -3.2068508 -1.020633
-1.9569302 -3.2711129 -1.0458528
-1.9236046 -3.1710587 -1.0165211
-1.9470555 -3.1657498 -1.0187142
-1.9913719 -3.1937325 -1.0321463
-2.0345628 -3.2188504 -1.0447562
-2.0501254 -3.1998274 -1.0425632
-2.0602944 -3.1726689 -1.0376289
-2.0844803 -3.1671979 -1.040096
-2.1038744 -3.1543481 -1.040096
-2.1318047 -3.154129 -1.0444821
-2.1636143 -3.15924 -1.050787
-2.1846027 -3.1482751 -1.0516094
-2.2000079 -3.1293039 -1.0496905
-2.214705 -3.1094792 -1.0474975
-2.2303669 -3.0911517 -1.0458528
-2.2458875 -3.0727494 -1.0442079
-2.2555447 -3.0465434 -1.039822
-2.2891946 -3.0526521 -1.0469493
-2.3392885 -3.0799067 -1.0617521
-2.3634191 -3.072356 -1.0642192
-2.395818 -3.0752468 -1.0705242
-2.4128554 -3.0582232 -1.0697018
-2.3715532 -2.9682212 -1.042289
-2.4145186 -2.9842694 -1.0535283
-2.4528942 -2.9939489 -1.0625745
-2.4834976 -2.9936464 -1.0680571
-2.499964 -2.9761422 -1.0672346
-2.5063417 -2.9468267 -1.0620263
-2.5024145 -2.905885 -1.0524318
-2.497448 -2.8643785 -1.0425632
-2.5022492 -2.8345797 -1.0370806
-2.5336919 -2.8349493 -1.0431114
-2.601362 -2.8749771 -1.0644934
-2.6293459 -2.8703086 -1.0688794
-2.6011376 -2.8047569 -1.0496905
-2.5827565 -2.7508802 -1.0348877
-2.585675 -2.7203414 -1.0291309
-2.6189864 -2.721751 -1.0359842
-2.6477151 -2.7180309 -1.0409185
-2.6582661 -2.6955702 -1.0384513
-2.6645648 -2.668999 -1.0343394
-2.6911447 -2.6627464 -1.0384513
-2.690928 -2.6300492 -1.0318723
-4.1680865 -4.0243831 -1.6108286
-2.7292631 -2.6028035 -1.0343394
-2.7535813 -2.5939219 -1.0376289
-2.7701495 -2.5776327 -1.0379031
-2.7944093 -2.568397 -1.0411925
-2.8115399 -2.5524955 -1.0417408
-2.825001 -2.5332699 -1.0409185
-2.839052 -2.5146129 -1.0403702
-2.8500855 -2.4933457 -1.0387254
-2.8616927 -2.4726667 -1.0373548
-2.8592558 -2.4400766 -1.0307758
-2.8668213 -2.4162881 -1.0280344
-2.8815935 -2.3986521 -1.0280344
-2.8873432 -2.3735964 -1.024745
-2.9414206 -2.387965 -1.0392736
-2.9612694 -2.374083 -1.0411925
-2.9637175 -2.3463161 -1.0368066
-2.99018 -2.3375649 -1.0411925
-3.0082726 -2.3221121 -1.0425632
-3.016346 -2.2989457 -1.0403702
-3.0442259 -2.2908044 -1.0453044
-3.078294 -2.2869961 -1.0524318
-3.1093278 -2.2805798 -1.0584626
-3.2245173 -2.33479 -1.094099
-3.2606878 -2.330621 -1.1017747
-3.1916378 -2.2517943 -1.0727172
-3.1769857 -2.2123806 -1.0628486
-3.1627636 -2.1737773 -1.0532541
-3.141026 -2.130573 -1.0411925
-3.1564372 -2.1128652 -1.042015
-3.183785 -2.1029999 -1.0469493
-3.2361045 -2.1091595 -1.0603814
-3.2222936 -2.0720956 -1.0513352
-3.2471273 -2.060014 -1.0554472
-3.2409575 -2.0283148 -1.0491422
-3.3343508 -2.0584116 -1.0762808
-3.3920927 -2.0654263 -1.0913578
-3.3849161 -2.0326896 -1.0847788
-0 -0 -0
-3.3539672 -1.9585015 -1.0664122
-3.3759217 -1.943644 -1.0697018
-3.3810937 -1.9190948 -1.0675088
-3.3970015 -1.900661 -1.0688794
-3.4136522 -1.8825686 -1.0705242
-3.4758339 -1.889147 -1.0869718
-3.4644718 -1.8555225 -1.0795704
-3.4749413 -1.8337811 -1.0792962
-3.5091648 -1.8244046 -1.0866977
-3.5502505 -1.8181843 -1.0962921
-3.5965426 -1.8141271 -1.1075313
-3.6308596 -1.8035787 -1.1149328
-3.6591349 -1.7897187 -1.1204153
-3.6735132 -1.7689023 -1.1215118
-3.6912496 -1.7496247 -1.1237048
-3.7359037 -1.7428021 -1.1343957
-3.7841074 -1.737102 -1.1461833
-3.8525379 -1.7399818 -1.1642756
-4.0406642 -1.7951999 -1.2196493
-4.0242858 -1.7584336 -1.2111514
-5.2489972 -2.255455 -1.5878019
-4.1571803 -1.7560788 -1.2456914
-4.1634364 -1.7286935 -1.2443208
-4.269237 -1.7419984 -1.2736523
-4.3271532 -1.7347405 -1.2881811
-4.3439794 -1.710624 -1.2901
-4.3678474 -1.6891419 -1.2942119
-4.3916154 -1.6674311 -1.2983238
-4.4287972 -1.6505308 -1.3065475
-4.5508337 -1.6642925 -1.3405393
-4.6333737 -1.6623245 -1.3624694
-4.7559729 -1.6734533 -1.3964612
-4.8316059 -1.6668262 -1.4161984
-5.0102768 -1.6941504 -1.4669119
-5.1438155 -1.7042166 -1.503919
-5.2401586 -1.7005327 -1.529687
-5.3568096 -1.7021382 -1.5614858
-5.6747785 -1.7649361 -1.6533183
-5.7278223 -1.7429644 -1.6659281
-5.8103032 -1.7291878 -1.6873101
-5.8632798 -1.7058649 -1.6999199
-5.9550381 -1.6930044 -1.7240431
-6.0144248 -1.6700735 -1.7385719
-6.0709682 -1.6457219 -1.7522782
-6.1822896 -1.6352515 -1.782158
-6.3803086 -1.6458205 -1.8375317
-6.5852113 -1.6556611 -1.8948243
-6.6727748 -1.634216 -1.9175768
-6.7135468 -1.6006037 -1.926623
-6.7485352 -1.5652481 -1.9340245
-6.7664557 -1.5257148 -1.9364916
-6.7869625 -1.4866378 -1.9397811
-6.7997193 -1.445766 -1.9408776
-6.8037529 -1.4030451 -1.939507
-6.7962022 -1.3580672 -1.9348468
-6.8157372 -1.3185334 -1.9381363
-6.8142467 -1.2749188 -1.9353951
-6.8049068 -1.2300034 -1.9304608
-6.8170629 -1.1890526 -1.9318314
-6.820437 -1.1465635 -1.9307349
-6.8358879 -1.1060755 -1.933202
-6.842546 -1.0641105 -1.933202
-6.8042421 -1.0154313 -1.9203181
-6.856041 -0.98019797 -1.9334762
-6.8552566 -0.93719941 -1.9315573
-6.87995 -0.8976081 -1.9370399
-6.8948717 -0.85656279 -1.9397811
-6.8999977 -0.81424057 -1.9397811
-6.9077311 -0.77220833 -1.9406035
-6.906601 -0.72920257 -1.9389588
-6.916687 -0.68738168 -1.9406035
-6.915987 -0.64448231 -1.9392328
-6.8958592 -0.59994924 -1.9323797
-6.9310431 -0.56018424 -1.9414259
-6.9353089 -0.51771724 -1.9417
-6.9412336 -0.47535053 -1.9425224
-6.9286623 -0.43179303 -1.9381363
-6.9254203 -0.38894755 -1.9364916
-6.9055853 -0.34534058 -1.9301866
-6.9066133 -0.30292001 -1.9299126
-6.8958488 -0.26006424 -1.9263489
-6.8953924 -0.21768641 -1.9258006
-6.5909152 0.48399961 -1.9242377
-6.6117082 0.52633739 -1.9313632
-6.6150393 0.56747079 -1.9333584
-6.603797 0.60734564 -1.9310782
-6.6056695 0.64841717 -1.9327884
-6.6072865 0.68953454 -1.9344984
-6.5991206 0.72964108 -1.9333584
-6.5830951 0.76878262 -1.9299382
-6.5753999 0.8088097 -1.9290831
-6.5722146 0.84938639 -1.9296532
-6.5744777 0.89072758 -1.9319333
-6.5546532 0.92903084 -1.927658
-6.5469332 0.96895099 -1.927088
-6.5342336 1.0080798 -1.9250928
-6.5411744 1.0502838 -1.9290831
-6.5431156 1.0918213 -1.9316483
-6.5259042 1.1301476 -1.9285131
-6.5226207 1.1708466 -1.9296532
-6.5228524 1.212249 -1.9319333
-6.5077615 1.250801 -1.9296532
-6.4990239 1.2905215 -1.9293681
-6.4628143 1.3245958 -1.9208175
-6.4658179 1.3666065 -1.9242377
-6.4479456 1.4042131 -1.9213876
-6.4401436 1.4439603 -1.9216726
-6.414351 1.4795682 -1.9165423
-6.4256692 1.5237674 -1.9228127
-6.4199238 1.564074 -1.9239528
-6.431592 1.60879 -1.9305083
-6.4095306 1.6451232 -1.926803
-6.3807774 1.6795373 -1.9211025
-6.374979 1.7199066 -1.9225277
-6.3495245 1.7549022 -1.9179673
-6.3681493 1.8021867 -1.927088
-6.3155427 1.8292198 -1.9142621
-6.3170657 1.8717514 -1.9182523
-6.3036275 1.9099207 -1.9176823
-6.2853804 1.946577 -1.9156872
-6.2842841 1.9885788 -1.9191074
-6.2747002 2.0279858 -1.9199625
-6.2539468 2.0637436 -1.9173973
-6.2411661 2.1020784 -1.9173973
-6.2335892 2.142204 -1.9191074
-6.2094736 2.1766055 -1.9156872
-6.2014165 2.2166016 -1.9173973
-6.1714892 2.2487016 -1.912267
-6.1387062 2.2795162 -1.9062816
-6.1093645 2.3113711 -1.9014362
-6.1496224 2.3698487 -1.9188224
-6.1251512 2.4036839 -1.9156872
-6.1182976 2.4444239 -1.9182523
-6.0872021 2.4754169 -1.9131221
-6.0816407 2.5167542 -1.9162573
-6.0554833 2.5495577 -1.912837
-6.0564656 2.5938382 -1.9182523
-6.0298915 2.6263561 -1.9148321
-6.0127864 2.6629171 -1.9145471
-6.0007038 2.7017293 -1.9159722
-5.9500241 2.7229359 -1.9048564
-5.9618831 2.7727375 -1.9142621
-5.9230938 2.7990243 -1.9071367
-5.9170403 2.8407102 -1.9108418
-5.8848538 2.869818 -1.9059966
-5.8722873 2.9084263 -1.9077066
-5.8500495 2.9422491 -1.9062816
-5.8293257 2.9767807 -1.9054265
-5.8288193 3.02176 -1.9114119
-5.7991424 3.0516634 -1.9077066
-5.7963715 3.0957713 -1.9131221
-5.7713685 3.1280806 -1.9111269
-5.7478671 3.161124 -1.9097018
-5.7317104 3.1982014 -1.9108418
-5.7211537 3.2385061 -1.9139771
-5.6928635 3.268775 -1.9111269
-5.6851225 3.3108821 -1.9154022
-5.6506715 3.3374138 -1.9105569
-5.6202202 3.366111 -1.9071367
-5.6101098 3.4070027 -1.9108418
-5.5784898 3.4348264 -1.9071367
-5.5556827 3.4679754 -1.9065666
-5.5278201 3.4978976 -1.9042864
-5.5119004 3.5353732 -1.9062816
-5.4820685 3.5639012 -1.9034314
-5.455296 3.5943065 -1.9017212
-5.4411097 3.6330359 -1.9045714
-5.4353848 3.6776366 -1.9105569
-5.4245739 3.7190504 -1.9148321
-5.4103103 3.7582817 -1.9179673
-5.3714733 3.7803719 -1.912267
-5.3310084 3.8010144 -1.9059966
-5.2943773 3.8241098 -1.9011512
-5.2777748 3.8616188 -1.9037164
-5.249361 3.8905046 -1.9020063
-5.2338219 3.9289722 -1.9051415
-5.2080894 3.9598517 -1.9045714
-5.1897693 3.9964132 -1.9068516
-5.1613712 4.0252337 -1.9054265
-5.1365757 4.0568275 -1.9054265
-5.1041021 4.0822802 -1.9025763
-5.0797024 4.1141253 -1.9028614
-5.0632558 4.1525116 -1.9062816
-5.0384183 4.1841135 -1.9065666
-5.0163178 4.2180352 -1.9079916
-4.9713693 4.2325759 -1.9005812
-4.951838 4.2686338 -1.9031464
-4.9269972 4.3001981 -1.9037164
-4.9048276 4.3341579 -1.9054265
-4.813859 4.3066416 -1.8797748
-4.7951565 4.3431773 -1.88291
-4.8206873 4.4204655 -1.9040014
-4.7836399 4.4408298 -1.9000112
-4.7674751 4.4806032 -1.9045714
-4.748919 4.5183625 -1.9082767
-4.7079906 4.5347795 -1.9028614
-4.673902 4.5575581 -1.9002962
-4.6383471 4.5787425 -1.897161
-4.6115208 4.6084719 -1.8977309
-4.5925889 4.6462264 -1.9017212
-4.5566292 4.6667733 -1.898586
-4.5265779 4.693264 -1.898016
-4.5010009 4.724421 -1.8994411
-4.4660163 4.745666 -1.896876
-4.4426861 4.7792993 -1.8994411
-4.4204068 4.8142371 -1.9025763
-4.3894963 4.839849 -1.9020063
-4.3450098 4.8502684 -1.8954508
-4.3094516 4.8703756 -1.8928857
-4.2750721 4.8916731 -1.8908905
-4.2524915 4.9265208 -1.8943107
-4.2109914 4.9393897 -1.8891804
-4.1830735 4.9680681 -1.8903205
-4.1678295 5.0120692 -1.8974459
-4.1430798 5.0449567 -1.9002962
-4.1174793 5.0769844 -1.9028614
-4.0718727 5.0841947 -1.8960209
-4.034061 5.1008124 -1.8928857
-4.0009174 5.1232023 -1.8920306
-3.9565327 5.1309533 -1.8857602
-3.9284585 5.1597099 -1.8874702
-3.9053624 5.1952119 -1.8917456
-3.8922582 5.2444806 -1.9011512
-3.8532088 5.2589846 -1.8977309
-3.8135667 5.2724304 -1.8940257
-3.7649956 5.2731056 -1.8857602
-3.7242889 5.2843542 -1.8814849
-3.7104003 5.3338633 -1.8911755
-3.6591613 5.329659 -1.8814849
-3.633378 5.3623276 -1.8851901
-3.609462 5.398068 -1.8900355
-3.5778553 5.4225144 -1.8908905
-3.5434704 5.4427586 -1.8903205
-3.5006857 5.4498801 -1.8851901
-3.46718 5.4712577 -1.8851901
-3.4421787 5.5062475 -1.8900355
-3.4098372 5.5297127 -1.8908905
-3.3753455 5.5497117 -1.8906054
-3.3308785 5.5530543 -1.8846201
-3.3074756 5.5915394 -1.8908905
-3.271656 5.6092443 -1.8900355
-3.2300112 5.6167483 -1.8857602
-3.1945417 5.6347938 -1.8851901
-3.1482208 5.6333685 -1.8780646
-3.1177566 5.6601367 -1.8806298
-3.0879965 5.6884274 -1.8837651
-3.0530348 5.7072682 -1.8837651
-3.0291278 5.7470946 -1.8908905
-2.9717288 5.7230349 -1.8766396
-2.9505198 5.7684717 -1.8857602
-2.9331756 5.8224239 -1.8977309
-2.8867488 5.8188434 -1.8906054
-2.8463647 5.826972 -1.8874702
-2.8201084 5.8641968 -1.8940257
-2.7836633 5.8805237 -1.8937408
-2.7471242 5.8966246 -1.8934557
-2.7001107 5.889842 -1.8857602
-2.6627386 5.903677 -1.8849051
-2.6326811 5.9339237 -1.8894655
-2.5923901 5.9411798 -1.8866153
-2.5645759 5.9772363 -1.8931707
-2.523011 5.9813776 -1.8894655
-2.4822261 5.9870052 -1.8863302
-2.4458053 6.0030112 -1.8866153
-2.4085693 6.0170155 -1.8863302
-2.3712537 6.0307884 -1.8860452
-2.3390365 6.057744 -1.8900355
-2.2912948 6.0441957 -1.8811998
-2.2685316 6.0967727 -1.8934557
-2.2340372 6.1186814 -1.8960209
-2.1848216 6.0997858 -1.8857602
-2.1546557 6.1338782 -1.8923156
-2.1104274 6.1279502 -1.8863302
-2.0730934 6.1416926 -1.8866153
-2.0347681 6.1524773 -1.8860452
-1.9993408 6.1721416 -1.8883253
-1.9651966 6.1961718 -1.8920306
-1.9277086 6.2099442 -1.8926007
-1.885393 6.2078977 -1.8883253
-1.8494487 6.2267003 -1.8906054
-1.8138785 6.2471366 -1.8934557
-1.7742054 6.2535377 -1.8920306
-1.7355453 6.2633829 -1.8917456
-1.6885772 6.2424531 -1.8820549
-1.6575755 6.2805014 -1.8906054
-1.612323 6.2645612 -1.882625
-1.5684941 6.2529521 -1.8760695
-1.5305518 6.2643209 -1.8766396
-1.4951885 6.2866497 -1.8806298
-1.4574497 6.2994413 -1.8817699
-1.4179291 6.3045244 -1.8806298
-1.3796273 6.3149791 -1.8811998
-1.3440319 6.3383288 -1.8857602
-1.3051155 6.3464565 -1.8857602
-1.2753197 6.4004087 -1.8997262
-1.2287687 6.3704653 -1.8883253
-1.1968564 6.4165192 -1.9000112
-1.1572931 6.4227986 -1.8997262
-1.1168776 6.4241123 -1.898016
-1.0752239 6.4176092 -1.8940257
-1.035826 6.4240861 -1.8940257
-0.99594921 6.4274793 -1.8931707
-0.95987111 6.456224 -1.9000112
-0.91780901 6.4449105 -1.8948808
-0.88612425 6.5083575 -1.912267
-0.84543312 6.5079689 -1.9105569
-0.80043352 6.4721284 -1.898301
-0.76014799 6.472158 -1.896876
-0.72253722 6.4957533 -1.9025763
-0.68226659 6.4962516 -1.9014362
-0.64352268 6.5117621 -1.9048564
-0.60240799 6.50318 -1.9011512
-0.55944568 6.4714198 -1.8906054
-0.52278817 6.5129495 -1.9020063
-0.48097849 6.4911809 -1.8945957
-0.44379681 6.5332193 -1.9062816
-0.40452629 6.5492134 -1.9102719
-0.36385599 6.5429587 -1.9077066
-0.32346642 6.5402813 -1.9062816
-0.28233862 6.5191598 -1.8994411
-0.24254505 6.5265169 -1.9011512
-0.20261273 6.5317144 -1.9022913
-0.16255474 6.533793 -1.9025763
-0.12167834 6.4924994 -1.8900355
-0.082279451 6.5285864 -1.9005812
-0.042044442 6.5011721 -1.8923156
-0.0021556984 6.5176024 -1.897161
0.037761044 6.5050325 -1.8934557
0.078266881 6.5535593 -1.9079916
0.11805737 6.5299549 -1.9011512
0.15889363 6.5607295 -1.9105569
0.19838586 6.5347209 -1.9031464
0.23935679 6.5573277 -1.9102719
0.27905414 6.5432863 -1.9065666
0.31826001 6.5223031 -1.9008662
0.35626924 6.4838591 -1.8900355
0.39739528 6.5035558 -1.8965909
0.43400332 6.4522209 -1.8820549
0.47759619 6.5039248 -1.898301
0.5123108 6.4358988 -1.8789197
0.55458224 6.4651046 -1.8886104
0.59626383 6.4835329 -1.8951658
0.63106304 6.4291945 -1.8800598
0.67209452 6.4404545 -1.8846201
0.71571445 6.4733644 -1.8957359
0.7501874 6.4241056 -1.88234
0.79357523 6.4517269 -1.8920306
0.8279804 6.4068112 -1.8800598
0.87268811 6.4415026 -1.8920306
0.91246533 6.4379249 -1.8926007
0.9511075 6.4265156 -1.8908905
0.99096096 6.4234009 -1.8917456
1.0320289 6.4276094 -1.8948808
1.0686058 6.4041386 -1.8897505
1.1036239 6.3729057 -1.88234
1.1430455 6.3679008 -1.88291
1.1838498 6.3701911 -1.8857602
1.2272602 6.3853974 -1.8926007
1.2632407 6.3617644 -1.8877553
1.3043708 6.3642225 -1.8908905
1.3449833 6.3636012 -1.8931707
1.378697 6.3308787 -1.8857602
1.4156278 6.3138828 -1.883195
1.4601637 6.3302946 -1.8908905
1.4958795 6.3081594 -1.8869003
