# .PCD v0.7 - Point Cloud Data file format
VERSION 0.7
FIELDS x y z
SIZE 4 4 4
TYPE F F F
COUNT 1 1 1
WIDTH 1483
HEIGHT 1
VIEWPOINT 0 0 0 1 0 0 0
POINTS 1483
DATA ascii
1.8280602 -2.8049092 -0.33817855
7.2183208 -11.223285 -1.4611892
7.1312175 -11.238836 -1.4573934
7.0484138 -11.26048 -1.4544907
6.9744887 -11.295907 -1.4534858
6.9107332 -11.347825 -1.4547139
6.8266468 -11.366161 -1.4515879
6.7522187 -11.40014 -1.4505832
6.6821418 -11.441357 -1.4505832
6.6187563 -11.494198 -1.4521462
6.5500669 -11.538051 -1.4525927
6.4718676 -11.565016 -1.4509181
6.4036641 -11.60973 -1.4515879
6.3512931 -11.683726 -1.4560536
6.2574277 -11.681307 -1.4508065
6.1749654 -11.699268 -1.4482387
6.0897679 -11.711369 -1.445001
6.0214181 -11.75559 -1.4458942
5.9397736 -11.773685 -1.4435498
5.8691883 -11.813468 -1.4439963
5.8245416 -11.906387 -1.4511414
5.7664685 -11.973238 -1.4550489
5.7039623 -12.031741 -1.4579515
5.6241469 -12.053906 -1.4563886
5.5513234 -12.090898 -1.4567235
5.4835768 -12.139222 -1.4585098
5.3948641 -12.140857 -1.4546024
5.3031545 -12.134576 -1.4498017
5.1932836 -12.084717 -1.4397539
5.0923476 -12.053192 -1.4320506
5.0114341 -12.067692 -1.430041
4.9406734 -12.106495 -1.4310458
4.8555703 -12.109835 -1.4278082
4.7571378 -12.078376 -1.4204397
4.6675205 -12.067484 -1.4156392
4.5933876 -12.095897 -1.4156392
4.5138755 -12.109886 -1.4139645
4.4367547 -12.129889 -1.4130714
4.3642573 -12.162496 -1.4137412
4.2872381 -12.182484 -1.4129597
4.2052755 -12.187894 -1.4105035
4.1307316 -12.214409 -1.4106152
4.0550823 -12.237638 -1.4103919
3.9786899 -12.258508 -1.4099454
3.9015923 -12.277007 -1.4092755
3.8276644 -12.305461 -1.4098337
3.7497725 -12.32111 -1.4089406
3.6709824 -12.333409 -1.4077125
3.599402 -12.370014 -1.4093871
3.5264232 -12.402381 -1.4106152
3.4457362 -12.407508 -1.4087173
3.3698003 -12.429376 -1.408829
3.2998261 -12.473836 -1.41162
3.2396121 -12.557356 -1.4189883
3.1639547 -12.58278 -1.4196582
3.0843241 -12.592304 -1.4185418
3.005157 -12.603259 -1.4176487
2.9374254 -12.663087 -1.4224494
2.8640437 -12.70026 -1.4246821
2.7815959 -12.697209 -1.4223377
2.6972265 -12.683906 -1.4188768
2.6159358 -12.683672 -1.4169788
2.5322175 -12.67025 -1.4136295
2.4487624 -12.65628 -1.4102802
2.3666716 -12.647623 -1.4076009
2.2879617 -12.656039 -1.406931
2.2112875 -12.675714 -1.4076009
2.1349523 -12.697864 -1.4086057
2.0566819 -12.708762 -1.4083824
1.9762195 -12.705432 -1.4065961
1.888979 -12.655398 -1.3995626
0.41595131 -2.9110284 -0.29240516
0.39969769 -2.9253407 -0.29374489
1.6635602 -12.748133 -1.4063728
0.3636466 -2.9290392 -0.29363322
0.22332431 -1.8949766 -0.17640874
0.21169275 -1.8963113 -0.17640874
0.29651684 -2.8107171 -0.27956629
0.27838004 -2.8035836 -0.2785615
0.26347888 -2.8299754 -0.28135258
0.24766093 -2.8493588 -0.28336215
0.16159573 -2.0029449 -0.18779626
0.14619341 -1.9622773 -0.18310729
0.13415036 -1.9631374 -0.18310729
0.15377858 -2.4717357 -0.24026819
0.11384264 -2.0321043 -0.19069897
0.12442885 -2.4932868 -0.24250104
0.10816876 -2.472162 -0.24004489
0.09356045 -2.4876747 -0.24171953
0.11495572 -3.6473269 -0.37200618
0.092599295 -3.648957 -0.37211782
0.070765465 -3.6782699 -0.37535545
0.04798466 -3.6627362 -0.37356919
0.025242498 -3.6252003 -0.36932677
0.0030345707 -3.6640429 -0.37368083
-0.068585046 -13.117393 -1.4357347
-0.04188405 -3.6598296 -0.37323424
-0.22946368 -13.110597 -1.4351765
-0.086651899 -3.6530793 -0.37256441
-0.10702611 -3.5839405 -0.36486107
-0.13022669 -3.616982 -0.3686569
-0.55235511 -13.12981 -1.4384142
-0.63577753 -13.185729 -1.4451127
-0.72184795 -13.276839 -1.4558303
-0.22915381 -3.7813256 -0.38763613
-0.25017023 -3.7471273 -0.38395193
-0.27315748 -3.7455218 -0.38395193
-0.29691696 -3.7536819 -0.38506836
-0.31969053 -3.7488189 -0.38473341
-0.34467578 -3.7685585 -0.38718954
-1.301686 -13.340418 -1.4678878
-1.3764412 -13.263977 -1.4601845
-1.4561725 -13.240464 -1.4585098
-1.5336031 -13.198706 -1.4548256
-0.3589499 -2.9296184 -0.29363322
-0.38376454 -2.9805849 -0.29966193
-1.7886401 -13.25983 -1.4652083
-1.8756603 -13.28895 -1.4697857
-1.9568747 -13.275225 -1.4695624
-2.0518758 -13.351367 -1.4796102
-0.48725447 -3.0439498 -0.30837002
-0.50592262 -3.0409029 -0.30837002
-2.3045492 -13.353446 -1.4844108
-2.3754172 -13.277427 -1.4773773
-2.4564793 -13.260647 -1.477154
-2.5333116 -13.2219 -1.4744747
-0.55033863 -2.7782943 -0.28023615
-0.57274681 -2.8011532 -0.28325048
-0.58480096 -2.7732763 -0.28045943
-0.59379351 -2.7327335 -0.27621701
-0.60079306 -2.6853971 -0.27119312
-3.0505579 -13.260123 -1.4906628
-3.1277463 -13.223748 -1.4886532
-3.2144582 -13.227484 -1.4913327
-3.29989 -13.224867 -1.4933422
-3.3804812 -13.202444 -1.4931189
-0.73481226 -2.7969887 -0.2869347
-0.75118566 -2.7895486 -0.28659976
-3.6371863 -13.189716 -1.4991477
-3.7072475 -13.128896 -1.494682
-0.79743898 -2.7580647 -0.28459021
-0.80110556 -2.7083302 -0.27934301
-0.9632228 -3.184685 -0.33583406
-4.0365458 -13.060546 -1.4978079
-4.1318684 -13.083861 -1.5035017
-4.2392201 -13.142436 -1.5134379
-4.3281732 -13.141663 -1.5164522
-4.4125271 -13.126162 -1.5177919
-4.5271583 -13.19848 -1.529626
-4.5988688 -13.144189 -1.5265
-4.6644077 -13.073605 -1.521476
-1.1789703 -3.2406013 -0.34945443
-1.1463363 -3.0916722 -0.33248478
-1.1575612 -3.0641274 -0.33002865
-1.1738431 -3.0504746 -0.32924715
-5.1100006 -13.043735 -1.5358779
-1.3282541 -3.3293693 -0.36474943
-1.2507256 -3.0799146 -0.33549914
-1.2384868 -2.9968684 -0.32634446
-5.4239502 -12.903407 -1.5345383
-1.316581 -3.0783005 -0.33817855
-1.3386145 -3.0774548 -0.33907169
-5.622766 -12.71595 -1.5240439
-5.6900911 -12.657643 -1.5211412
-5.7688885 -12.625203 -1.521476
-5.838295 -12.572443 -1.5193548
-5.9166002 -12.53908 -1.5196898
-1.3354322 -2.7850432 -0.30903989
-1.3577161 -2.7875183 -0.31037959
-1.3624601 -2.7541933 -0.3072536
-1.3815638 -2.7502217 -0.30781183
-6.3151517 -12.384445 -1.5238205
-6.3750334 -12.314574 -1.5199131
-1.4564509 -2.7709498 -0.31372887
-1.461735 -2.7400398 -0.31093779
-6.6115036 -12.215245 -1.5224808
-6.7322521 -12.258068 -1.5331985
-6.846518 -12.286844 -1.5422416
-6.9178681 -12.237683 -1.5413485
-6.9819522 -12.17604 -1.5388923
-4.9342952 -8.4837646 -1.0646355
-7.1358933 -12.098003 -1.5400087
-7.2227435 -12.075312 -1.5427998
-7.3003073 -12.036714 -1.5435812
-7.3761077 -11.99508 -1.5440278
-7.4695458 -11.981641 -1.5482702
-5.1604004 -8.1653471 -1.0472193
-5.2184448 -8.1460819 -1.0488939
-5.2683301 -8.1139088 -1.0488939
-5.3300343 -8.0996933 -1.05135
-5.6321378 -8.4455061 -1.1024822
-8.0167723 -11.863267 -1.5705987
-8.0961504 -11.823693 -1.5719384
-8.1776094 -11.786858 -1.5737247
-8.2583504 -11.748653 -1.5753994
-8.3181782 -11.680761 -1.5730549
-8.4210882 -11.673022 -1.5790836
-1.7188671 -2.3515372 -0.28927919
-1.7297161 -2.3361537 -0.28860933
-8.684597 -11.582829 -1.5884615
-8.6996136 -11.45572 -1.5780787
-8.7800398 -11.415516 -1.5799767
-1.7199663 -2.2075458 -0.27644032
-1.6405463 -2.0791361 -0.25958231
-1.6476908 -2.0620427 -0.25857753
-8.4800663 -10.482705 -1.4768192
-8.6525373 -10.562703 -1.4960216
-1.646668 -1.9847065 -0.25176734
-1.6735141 -1.9920679 -0.25433511
-8.8403463 -10.395593 -1.4951285
-1.6887565 -1.9608382 -0.25277212
-1.7040211 -1.9541848 -0.25333035
-1.7179524 -1.9459275 -0.25366527
-9.0663185 -10.145868 -1.4906628
-2.3963721 -2.6483788 -0.36329809
-2.4246583 -2.6468163 -0.36530763
-1.7124888 -1.8463415 -0.24495716
-2.4957232 -2.6581619 -0.37167126
-2.5277312 -2.6593666 -0.37423903
-9.5197363 -9.8948059 -1.504618
-9.5955248 -9.8518696 -1.5070742
-9.6348629 -9.7715778 -1.5037249
-3.2310784 -3.2365763 -0.47583359
-9.8359842 -9.7336941 -1.5166755
-3.2854755 -3.2112703 -0.47817808
-3.0849426 -2.9784369 -0.44379222
-3.3375788 -3.1830571 -0.48018765
-10.039351 -9.4587088 -1.5116515
-10.098655 -9.398284 -1.5118748
-3.1629605 -2.9072123 -0.44468537
-3.5279863 -3.2030699 -0.49738058
-3.5705068 -3.2019317 -0.5008415
-3.5804162 -3.1713965 -0.49939013
-3.4307909 -3.0014741 -0.47415897
-3.4220757 -2.9569743 -0.47013983
-3.3948047 -2.8972108 -0.46344128
-10.627419 -8.9587011 -1.5235972
-3.4293387 -2.8546975 -0.46332964
-3.8712652 -3.1826262 -0.52506787
-3.9231212 -3.1851227 -0.52975684
-10.68747 -8.5696135 -1.5010456
-10.698561 -8.4711781 -1.4951285
-10.701018 -8.3668098 -1.488095
-3.9371798 -3.0393007 -0.52082545
-10.748356 -8.1932917 -1.4803917
-10.803985 -8.1313705 -1.4811732
-10.856865 -8.067296 -1.4816197
-10.910968 -8.004055 -1.4822896
-10.969533 -7.9439502 -1.4836293
-11.082742 -7.9227281 -1.4925607
-11.167684 -7.8803606 -1.4975846
-11.286769 -7.8611026 -1.5072975
-11.428966 -7.856441 -1.5201364
-11.531231 -7.8229895 -1.5275048
-11.693795 -7.8289371 -1.5430231
-11.811259 -7.8030529 -1.5524011
-3.0937784 -2.016376 -0.37691844
-3.1177933 -2.0048811 -0.37848145
-3.1392663 -1.9915699 -0.37970951
-3.1851201 -1.9933615 -0.38417521
-3.4061403 -2.10274 -0.41175088
-12.22711 -7.4462476 -1.5703754
-3.436799 -2.0638533 -0.41242072
-12.404778 -7.3472996 -1.5817629
-7.6013503 -4.439291 -0.95098352
-7.6577258 -4.4094276 -0.95477939
-7.7313037 -4.3888516 -0.9608081
-7.8309307 -4.3820972 -0.97018605
-7.988193 -4.4059629 -0.9869324
-7.8666549 -4.2761769 -0.96795321
-7.8419385 -4.2006097 -0.96147794
-7.9782982 -4.2108636 -0.97554487
-7.9643106 -4.1411982 -0.97052097
-7.9152761 -4.0541945 -0.96114302
-7.9062891 -3.9885409 -0.9569006
-7.6636281 -3.8072996 -0.92340785
-7.6886301 -3.7610781 -0.92363119
-8.2308426 -3.9639421 -0.98838377
-8.2226839 -3.8980379 -0.98436463
-8.1644993 -3.8092723 -0.97420514
-8.2446136 -3.7852285 -0.9812386
-5.7681642 -2.6053855 -0.67310566
-5.7804098 -2.5683296 -0.6726591
-8.0806932 -3.5313458 -0.95276982
-8.3432417 -3.5852871 -0.98224342
-8.1920748 -3.4609258 -0.96114302
-8.694973 -3.6106999 -1.0197552
-8.4814272 -3.461149 -0.99117482
-8.3816757 -3.3605909 -0.97654963
-8.2523518 -3.2500992 -0.95846361
-8.1776028 -3.1628339 -0.94707608
-8.5043564 -3.2293813 -0.98402971
-8.5240116 -3.1771388 -0.98402971
-8.5396128 -3.1234109 -0.98358309
-8.3341351 -2.9903955 -0.95678896
-8.5716743 -3.0164022 -0.98291326
-8.5862637 -2.9624541 -0.9824667
-8.5995731 -2.9081218 -0.9819085
-7.8126206 -2.5886486 -0.88667756
-7.869946 -2.554162 -0.89158982
-8.6923685 -2.7622826 -0.98670912
-8.7376213 -2.7177508 -0.99005836
-8.7598362 -2.6658227 -0.99072826
-8.7579317 -2.6066363 -0.98860705
-8.7918901 -2.5581255 -0.99072826
-8.8122005 -2.5054903 -0.99128646
-8.9174137 -2.4763713 -1.0017809
-8.776104 -2.3792181 -0.98358309
-8.8193588 -2.3329492 -0.9869324
-9.0346146 -2.3306801 -1.0102656
-9.0400715 -2.2730196 -1.0092609
-9.0499868 -2.2165623 -1.0088143
-9.0769501 -2.1642179 -1.0103773
-9.2091274 -2.1361063 -1.0241092
-9.1406317 -2.0611939 -1.0147313
-9.3802557 -2.0548384 -1.0408556
-9.3304787 -1.984013 -1.0337106
-9.3843269 -1.9353576 -1.0385112
-9.5129623 -1.9011142 -1.0519083
-9.6961622 -1.8759371 -1.0715573
-10.119695 -1.893554 -1.1186703
-10.356038 -1.8720925 -1.1443481
-11.078053 -1.932523 -1.2254004
-11.436619 -1.9228528 -1.2649219
-12.019133 -1.9450558 -1.3298978
-13.241569 -2.0596282 -1.4675528
-13.619579 -2.0329263 -1.5090837
-14.567331 -2.0831273 -1.6152557
-15.375381 -2.1025124 -1.7054627
-15.773279 -2.0584214 -1.7491149
-16.715563 -2.0771837 -1.8543936
-17.46619 -2.0617347 -1.9379021
-17.456785 -1.9520953 -1.935446
-17.415068 -1.8393083 -1.9294174
-17.425037 -1.7323184 -1.9293057
-17.416538 -1.6236148 -1.9271845
-17.464783 -1.5200797 -1.9315386
-17.45298 -1.4112068 -1.9291941
-17.442482 -1.3026842 -1.9270729
-17.447172 -1.1954308 -1.9267379
-17.447237 -1.0879214 -1.9259564
-17.430763 -0.97956365 -1.9233886
-17.463243 -0.87393373 -1.9264029
-17.464306 -0.76659042 -1.9259564
-17.433924 -0.65810424 -1.9220489
-17.413797 -0.55036533 -1.9193695
-15.576445 1.148163 -1.9128002
-15.552291 1.2423722 -1.910693
-15.533501 1.3368391 -1.9093297
-15.521053 1.4317608 -1.9088339
-15.507038 1.5264828 -1.9082141
-15.487511 1.6205701 -1.9069747
-15.449661 1.7125062 -1.9035041
-15.42605 1.8057704 -1.9018928
-15.401877 1.8988096 -1.9002814
-15.383048 1.9923853 -1.8994138
-15.36365 2.0858014 -1.8985462
-15.346634 2.1794734 -1.8980504
-15.3261 2.2725782 -1.8971827
-15.306965 2.3658164 -1.8965631
-15.285302 2.45859 -1.8956953
-15.272865 2.5528235 -1.8960673
-15.255937 2.6463184 -1.8959433
-15.236482 2.7393503 -1.8955715
-15.221337 2.8331513 -1.8958193
-15.194898 2.9248056 -1.8947037
-15.177638 3.0181782 -1.8948277
-15.158834 3.1112497 -1.8948277
-15.131692 3.2025597 -1.8938361
-15.098184 3.2923849 -1.8921009
-15.052526 3.3793104 -1.8888782
-15.023772 3.4698205 -1.8878866
-14.979994 3.5566654 -1.8850359
-14.943429 3.6449857 -1.8831767
-14.929445 3.7387784 -1.8842921
-14.886042 3.8251257 -1.8816893
-14.865169 3.9171515 -1.8820611
-14.831275 4.0057006 -1.8808216
-14.804504 4.0960989 -1.8805737
-14.775273 4.1857786 -1.880078
-14.7455 4.2752533 -1.8795822
-14.716136 4.3648028 -1.8792104
-14.674833 4.4506965 -1.877351
-14.665256 4.5462394 -1.8797061
-14.666409 4.6454287 -1.8835485
-14.603642 4.7243347 -1.8790864
-14.571552 4.8129182 -1.8787146
-14.522942 4.895896 -1.8762356
-14.486059 4.982655 -1.8753679
-14.446787 5.0684891 -1.8742524
-14.411677 5.1557002 -1.8737566
-14.369517 5.2402911 -1.8723931
-14.332442 5.3266335 -1.8717735
-14.29021 5.4109607 -1.8705339
-14.265072 5.5017562 -1.8716495
-14.232892 5.5899072 -1.8718973
-14.20201 5.678607 -1.8723931
-14.180686 5.7712541 -1.8742524
-14.154175 5.8619537 -1.8754919
-14.131656 5.9544725 -1.877351
-14.121303 6.0524087 -1.8809456
-14.113007 6.1516314 -1.8849119
-14.09586 6.2473607 -1.8877627
-14.080783 6.3443336 -1.8909854
-14.057828 6.4380507 -1.8932164
-14.043249 6.535912 -1.8966869
-13.999293 6.6202598 -1.8961911
-13.981663 6.7172074 -1.8994138
-13.9491 6.8072233 -1.9006532
-13.920405 6.8992958 -1.9025126
-13.888446 6.989934 -1.9039999
-13.883289 7.094439 -1.9093297
-13.851828 7.1858897 -1.9110649
-13.841716 7.2887812 -1.9158989
-13.811609 7.3815274 -1.9180059
-13.786119 7.4770174 -1.9208568
-13.757366 7.5710363 -1.9233358
-13.732311 7.6674027 -1.9264344
-13.697094 7.7583656 -1.9281697
-13.66988 7.8541293 -1.9311445
-13.639434 7.9483514 -1.9337474
-13.622868 8.0510788 -1.9384574
-13.594488 8.1472692 -1.9415561
-13.562048 8.241353 -1.944159
-13.532345 8.3374271 -1.9472576
-13.510387 8.4387035 -1.9515959
-13.478474 8.5341845 -1.9545707
-13.453412 8.6344147 -1.9586608
-13.413486 8.7254591 -1.960644
-13.386206 8.825078 -1.9646103
-13.345004 8.9158688 -1.9665935
-13.305657 9.0081558 -1.9689486
-13.262407 9.0980482 -1.9708078
-13.224257 9.1917143 -1.9735346
-13.177345 9.279541 -1.975022
-13.142776 9.376359 -1.9784925
-13.076954 9.4510117 -1.9772531
-13.066754 9.566246 -1.98469
-13.023751 9.6580639 -1.9871689
-12.976938 9.7473307 -1.9891521
-12.9311 9.8375874 -1.9913831
-12.881498 9.9252262 -1.9931184
-12.829742 10.011405 -1.9946058
-12.787535 10.10532 -1.9977045
-12.73691 10.192894 -1.9995637
-12.691087 10.284599 -2.0022905
-12.652287 10.382421 -2.0062568
-12.598266 10.468104 -2.0078683
-12.522408 10.535625 -2.0060089
-12.501336 10.649588 -2.0131979
-12.456794 10.744242 -2.0166686
-12.41156 10.83875 -2.020139
-12.361918 10.929821 -2.0229897
-12.310885 11.020027 -2.0257168
-12.250389 11.102022 -2.0269561
-12.189348 11.183689 -2.0281956
-12.113955 11.252192 -2.0270801
-12.077211 11.356902 -2.0326579
-12.015924 11.439004 -2.0341451
-11.964084 11.530421 -2.0373678
-11.903763 11.61401 -2.039227
-11.843571 11.697989 -2.0412102
-11.77157 11.770439 -2.0412102
-11.715862 11.85939 -2.0441849
-11.651883 11.940287 -2.0457962
-11.576333 12.009413 -2.0454245
-11.522269 12.10106 -2.0490189
-11.457998 12.182374 -2.050878
-11.393839 12.264082 -2.0528612
-11.33112 12.347654 -2.0552163
-11.263139 12.425772 -2.0567036
-11.207201 12.517566 -2.0605459
-11.144644 12.60245 -2.063273
-11.074286 12.678817 -2.0646362
-11.002115 12.753291 -2.0657518
-10.923656 12.820559 -2.0657518
-10.846701 12.889622 -2.0661237
-10.752188 12.937616 -2.063149
-10.659382 12.987239 -2.0605459
-10.566373 13.03621 -2.0579431
-10.478745 13.091502 -2.0564559
-10.392683 13.148545 -2.0553403
-10.30082 13.197985 -2.0531092
-10.20935 13.247579 -2.051002
-10.118258 13.297338 -2.0490189
-10.025749 13.344891 -2.0467877
-9.9359941 13.395795 -2.0451765
-9.8506804 13.452506 -2.0445569
-9.7760897 13.523954 -2.0462921
-9.6935005 13.584493 -2.046416
-9.5842543 13.607206 -2.0408382
-9.4581051 13.60465 -2.0315423
-9.4092541 13.713159 -2.039227
-9.3266039 13.7731 -2.0395989
-9.2452259 13.835017 -2.0403426
-9.1552458 13.884028 -2.039227
-9.0769167 13.950756 -2.0408382
-8.9697065 13.972785 -2.0358803
-8.9066286 14.063608 -2.0412102
-8.7933578 14.075072 -2.0348887
-8.6771593 14.080609 -2.0278237
-8.575139 14.108147 -2.0241053
-8.4787188 14.144325 -2.0217505
-8.3852081 14.184978 -2.020139
-8.2890196 14.220731 -2.0179079
-8.2080336 14.282508 -2.0195193
-8.1041031 14.304111 -2.015429
-8.0219879 14.363964 -2.0169163
-7.9375286 14.41987 -2.0179079
-7.8370728 14.446496 -2.0148094
-7.7393961 14.477684 -2.0124543
-7.6494923 14.523144 -2.0122063
-7.5643487 14.577734 -2.0133219
-7.4589548 14.592948 -2.0089836
-7.3701658 14.640213 -2.0092316
-7.2638912 14.652265 -2.0046456
-7.1673217 14.683183 -2.0027864
-7.0586138 14.688425 -1.9974566
-6.9675059 14.729665 -1.9972087
-6.8749018 14.767642 -1.9965889
-6.7754827 14.790602 -1.993986
-6.6943855 14.853609 -1.9969608
-6.6079445 14.905292 -1.9984481
-6.5131907 14.93828 -1.9974566
-6.4214087 14.977962 -1.9974566
-6.3367062 15.034455 -1.9998115
-6.2462354 15.077638 -2.0004313
-6.1506109 15.108328 -1.9994397
-6.0515285 15.130119 -1.9973326
-5.9531364 15.153112 -1.9954734
-5.8586183 15.185652 -1.9949776
-5.7706017 15.235233 -1.9968368
-5.6856542 15.293607 -1.9999355
-5.5886474 15.319816 -1.9988199
-5.4881907 15.336067 -1.996465
-5.3913584 15.361962 -1.9954734
-5.2944155 15.387248 -1.9944818
-5.1983166 15.414742 -1.993862
-5.1036353 15.446348 -1.993862
-5.0078459 15.474541 -1.9934902
-4.9098053 15.495518 -1.9922508
-4.8114018 15.514926 -1.9908873
-4.714385 15.538459 -1.9901437
-4.6181078 15.56424 -1.9897718
-4.5239019 15.597048 -1.9903915
-4.4254103 15.614965 -1.9891521
-4.3255458 15.62748 -1.9872929
-4.2241421 15.63361 -1.98469
-4.1296539 15.664991 -1.9854336
-4.0346923 15.69484 -1.9860533
-3.9378326 15.717377 -1.9858055
-3.8392017 15.732567 -1.98469
-3.4936252 14.707357 -1.8500825
-3.3999667 14.714014 -1.8482233
-3.2976627 14.681349 -1.8414062
-3.1491585 14.433725 -1.8071966
-3.0482061 14.394529 -1.7997597
-2.9288979 14.262299 -1.7805479
-2.8424923 14.285841 -1.7812915
-2.746341 14.259166 -1.7757138
-2.6375487 14.161612 -1.761212
-2.5216281 14.016386 -1.7407606
-2.4391398 14.052126 -1.7433635
-2.3283286 13.920021 -1.7247713
-2.2565854 14.019279 -1.7355547
-2.1832564 14.115234 -1.7459663
-2.1025746 14.168609 -1.7510482
-1.9507062 13.724415 -1.6934124
-1.8599155 13.687946 -1.6873391
-1.7750005 13.692212 -1.6864713
-1.6935036 13.723527 -1.6890743
-1.6098427 13.738587 -1.689694
-1.5396203 13.875432 -1.7056834
-1.4509411 13.851064 -1.7014691
-1.3702039 13.903156 -1.7069228
-1.2901583 13.968611 -1.7141118
-1.2964325 15.044975 -1.8480994
-1.1988769 14.987364 -1.8399189
-1.1082801 15.01324 -1.8422738
-1.0163404 15.022728 -1.8426456
-0.9237178 15.021749 -1.841778
-0.83109069 15.019207 -1.8407865
-0.71054566 14.446216 -1.7685249
-0.62193453 14.451295 -1.7686489
-0.55215925 14.968497 -1.8328538
-0.45546767 14.813904 -1.8131461
-0.36534128 14.848163 -1.8171124
-0.27448317 14.864015 -1.8188477
-0.18311611 14.85252 -1.8172364
-0.091694169 14.806727 -1.8114108
-0.00083969848 14.82388 -1.8135179
0.085241981 14.031775 -1.7146076
0.18271899 14.956723 -1.8302509
0.27437857 14.949368 -1.8295072
0.36612538 14.948395 -1.8296312
0.45793149 14.948843 -1.830003
0.54990304 14.952693 -1.8308706
0.64198172 14.956968 -1.8318622
0.73184413 14.914095 -1.8270283
0.77375549 14.012672 -1.7148554
0.85381669 13.91159 -1.7028325
0.93815637 13.891239 -1.7009733
1.0568894 14.339446 -1.7578653
1.1569554 14.484029 -1.7768294
1.2039086 13.990252 -1.715847
1.2905495 13.991494 -1.7169626
1.373165 13.950725 -1.7128723
1.459566 13.949932 -1.7138638
1.5495094 13.980163 -1.7188218
1.6361845 13.978276 -1.7198133
1.7122036 13.889188 -1.7098975
1.7942057 13.853819 -1.7067988
1.8849206 13.88483 -1.7121286
1.9788753 13.934896 -1.7199373
2.0665252 13.937214 -1.7217965
2.1512454 13.919369 -1.7211767
2.2511168 13.996037 -1.7325799
2.3256598 13.914432 -1.7240276
2.4137077 13.915542 -1.7260108
2.522058 14.028407 -1.7422479
2.5895591 13.913164 -1.7296052
2.673754 13.891167 -1.7288616
2.766489 13.912456 -1.7336955
2.8595855 13.933126 -1.7385294
2.9419408 13.900757 -1.7366703
3.0290823 13.89117 -1.7377858
3.1346986 13.96333 -1.7494369
3.2263479 13.969937 -1.7527835
3.3413551 14.073453 -1.7686489
3.4812748 14.27248 -1.796909
3.5803576 14.297052 -1.8028585
3.6771553 14.310373 -1.8074445
3.761605 14.275067 -1.8058332
3.8514535 14.26034 -1.8069487
3.9341166 14.219225 -1.8047177
3.9993763 14.117488 -1.7946779
4.1105232 14.177501 -1.8057092
4.195744 14.146304 -1.8049655
4.2847695 14.12789 -1.8059571
4.3560939 14.05205 -1.7995118
4.4503255 14.050597 -1.8028585
4.5279007 13.996591 -1.7993879
4.6270823 14.00906 -1.8047177
4.7177091 13.994509 -1.8065768
4.8193073 14.011275 -1.8126503
4.9038734 13.977695 -1.8121545
5.0086026 14.000596 -1.8192196
5.1015553 13.989177 -1.8218224
5.1862578 13.954821 -1.8214506
5.2700281 13.918096 -1.8208308
5.3606858 13.899384 -1.8226901
5.4680018 13.922568 -1.8302509
5.5680652 13.925609 -1.8352088
5.6650038 13.919673 -1.8390512
5.7734714 13.940573 -1.846612
5.868535 13.927745 -1.8497107
5.9730411 13.936163 -1.8557842
6.0802503 13.949279 -1.8626013
6.1777911 13.938923 -1.8663198
6.2782869 13.934227 -1.8709058
6.3810239 13.933331 -1.8761116
6.4844041 13.932599 -1.8814414
6.5897117 13.934709 -1.8872669
6.6935697 13.932471 -1.8925967
6.7980828 13.930374 -1.8980504
6.9081101 13.938187 -1.9049915
7.0167036 13.941626 -1.9114368
7.1278567 13.948673 -1.9185017
7.2352462 13.946953 -1.9244512
7.3419576 13.942682 -1.9301529
7.4573078 13.953377 -1.9380856
7.5612364 13.941374 -1.9429195
7.6763029 13.948613 -1.9506043
7.7922254 13.955831 -1.958413
7.9021659 13.950924 -1.9646103
8.0098667 13.94089 -1.970188
8.1292334 13.949777 -1.9786165
8.2434549 13.948324 -1.9856815
8.3783703 13.980038 -1.9977045
8.4985228 13.985179 -2.0060089
8.6107225 13.975853 -2.0123303
8.7325907 13.980824 -2.0208826
8.8585587 13.990691 -2.0303028
8.9865828 14.002043 -2.0400946
9.1107492 14.005692 -2.0488949
9.2314739 14.002544 -2.0568275
9.3431301 13.984415 -2.0626531
9.4460077 13.952294 -2.0664954
9.5522108 13.924346 -2.0710816
9.6306725 13.855696 -2.0695941
9.6760826 13.740365 -2.0610418
9.7250519 13.631462 -2.0534811
9.7974653 13.556254 -2.051126
9.8734255 13.486276 -2.0496385
9.9435768 13.408702 -2.0470357
10.00838 13.32443 -2.0434413
10.068317 13.23434 -2.0389791
10.122076 13.136944 -2.0334015
10.176241 13.040952 -2.0280716
10.238223 12.955689 -2.0244772
10.306364 12.87868 -2.0222461
10.376445 12.804407 -2.0205109
10.439708 12.722088 -2.0175362
10.502986 12.640239 -2.0146854
10.566292 12.558852 -2.0119584
10.631569 12.480186 -2.0097275
10.691742 12.395934 -2.0066288
10.748671 12.308424 -2.0030341
10.814789 12.231833 -2.0012989
10.881034 12.155633 -1.9996877
10.95075 12.083493 -1.9988199
11.01261 12.002913 -1.9965889
11.050258 11.896585 -1.9900197
11.099932 11.803981 -1.9858055
11.151624 11.714091 -1.982087
11.208829 11.630443 -1.9794841
11.267507 11.548664 -1.9772531
11.324906 11.465898 -1.9748981
11.376802 11.377952 -1.9716754
11.425929 11.287708 -1.9680809
11.472958 11.195905 -1.9642385
11.515718 11.100508 -1.9597764
11.575706 11.022114 -1.958413
11.635168 10.943401 -1.9570496
11.689737 10.860322 -1.9549425
11.738606 10.77229 -1.9519677
11.789043 10.686068 -1.9493648
11.840343 10.600955 -1.9470098
11.886581 10.511672 -1.9439111
11.943382 10.432013 -1.9426717
11.968846 10.325479 -1.9363502
12.014604 10.237044 -1.9334995
12.059728 10.148438 -1.9306487
12.108796 10.063469 -1.9285415
12.140401 9.9644308 -1.9237076
12.175873 9.8691339 -1.9196173
12.229227 9.7886581 -1.9185017
12.282052 9.7079 -1.9173863
12.334347 9.6268616 -1.9162707
12.376678 9.5382795 -1.9136678
12.406541 9.4405279 -1.9092057
12.439639 9.3457499 -1.9053633
12.466462 9.2467852 -1.9006532
12.510955 9.1613255 -1.8987941
12.557281 9.0774117 -1.8973067
12.60305 8.9932747 -1.8958193
12.640957 8.9037762 -1.8932164
12.663575 8.803957 -1.8883824
12.695265 8.7109327 -1.8850359
12.733685 8.622858 -1.8828048
12.766552 8.531333 -1.87983
12.801262 8.4413681 -1.8772272
12.832022 8.3491354 -1.8741285
12.871319 8.2627382 -1.8723931
12.906685 8.1740503 -1.8701621
12.936399 8.0820856 -1.8671874
12.966315 7.9905853 -1.8643366
12.996446 7.8995376 -1.8616097
13.031054 7.8114824 -1.8596265
13.074468 7.7288537 -1.8590068
13.108785 7.6409903 -1.8571476
13.139075 7.5510197 -1.8547926
13.141991 7.4458036 -1.8485951
13.162305 7.3509965 -1.8450007
13.198469 7.2653112 -1.8437612
13.236693 7.1808786 -1.8428936
13.275255 7.0967178 -1.8421499
13.311525 7.0114298 -1.8411583
13.308495 6.9058576 -1.834713
13.342665 6.8200045 -1.8335975
13.376284 6.7339916 -1.832482
13.423574 6.6548743 -1.8333496
13.436511 6.5588918 -1.8295072
13.472925 6.4746046 -1.8290114
13.533031 6.4015718 -1.8318622
13.559461 6.312552 -1.830127
13.587112 6.2242756 -1.8286396
13.650379 6.152204 -1.8321102
13.684242 6.0667224 -1.8316144
13.731215 5.9870052 -1.8329778
13.772253 5.9045939 -1.8335975
13.819197 5.8246017 -1.8350849
13.861093 5.7423573 -1.8359525
13.89239 5.6557026 -1.8354567
13.936966 5.5744071 -1.8368201
13.977372 5.4913259 -1.8376877
14.014507 5.4068871 -1.8381835
14.052059 5.3225513 -1.8388033
14.082593 5.2355375 -1.8385555
14.119114 5.1507301 -1.8391751
14.148583 5.0633311 -1.8389273
14.184067 4.9780645 -1.839547
14.218098 4.89223 -1.8400428
14.247849 4.8048973 -1.8400428
14.262929 4.7127151 -1.8381835
14.295354 4.6263328 -1.8386793
14.322525 4.5382314 -1.8385555
14.357684 4.4526153 -1.839547
14.391381 4.3664503 -1.8404146
14.423611 4.2797575 -1.8411583
14.463895 4.1953206 -1.8430176
14.495092 4.1081157 -1.8437612
14.52959 4.0217447 -1.8450007
14.555909 3.9330347 -1.8452486
14.573051 3.841877 -1.844381
14.593467 3.7516451 -1.8440092
14.61525 3.6617897 -1.8438852
14.630694 3.5703969 -1.8430176
14.669704 3.484684 -1.8452486
14.696611 3.3959467 -1.8459923
14.730726 3.3087497 -1.8477275
14.729422 3.2136495 -1.8450007
14.753717 3.1242385 -1.8456204
14.79205 3.0376432 -1.8480994
14.821115 2.9489529 -1.8494629
14.837956 2.8577693 -1.8493389
14.86009 2.7675793 -1.8499587
14.893394 2.679333 -1.8520657
14.913465 2.588577 -1.8525615
14.930046 2.4971845 -1.8526855
14.945087 2.4055285 -1.8526855
14.956624 2.3133271 -1.8523136
14.994094 2.2250051 -1.8552884
15.016306 2.1342173 -1.8564039
7.0174799 0.95410591 -0.84647673
6.4652371 0.83874506 -0.77619833
6.4643531 0.79833066 -0.77545464
6.4297075 0.75403506 -0.77049673
6.432241 0.71435022 -0.77024883
6.4118304 0.67228687 -0.7671501
6.4059596 0.63195956 -0.76591063
6.3948956 0.59127378 -0.76405144
6.4023576 0.55236477 -0.76454723
6.3898001 0.51180547 -0.76256406
6.4007368 0.47317258 -0.76355565
6.4054999 0.43402329 -0.76380354
6.4060616 0.39459005 -0.76355565
6.4024172 0.3549473 -0.76281196
6.3846531 0.31468275 -0.760333
6.3606877 0.27439412 -0.75711036
6.3652267 0.23547001 -0.75748217
6.3675432 0.1964397 -0.75760615
6.3785486 0.15760879 -0.75884563
6.3694744 0.11828536 -0.75760615
6.3730569 0.079237238 -0.75797796
6.3813615 0.040179938 -0.75896955
6.3894262 0.0010237098 -0.75996113
6.3922892 -0.038199421 -0.760333
6.403841 -0.077567436 -0.76182038
6.4181261 -0.1171335 -0.76367956
6.4361343 -0.15697527 -0.7660346
6.44596 -0.19679876 -0.767398
6.4634719 -0.23704107 -0.76975304
6.4747834 -0.2772499 -0.77136433
6.4798985 -0.31731418 -0.772232
6.4827833 -0.35734209 -0.77285171
6.4834399 -0.39729556 -0.77322358
6.48385 -0.43727055 -0.77359539
6.5354729 -0.48106253 -0.78041255
13.590843 -1.0855376 -1.6649045
13.527575 -1.164055 -1.6578394
13.496463 -1.2448474 -1.6548647
13.328594 -1.3118769 -1.6347852
13.246277 -1.3858844 -1.625489
13.20202 -1.4631977 -1.6210269
10.579113 -1.2380209 -1.2923172
10.571318 -1.3029099 -1.2923172
10.56214 -1.3676221 -1.2921933
10.555516 -1.4326717 -1.2924411
10.561263 -1.499506 -1.2943003
10.571494 -1.5671929 -1.2967793
12.952464 -2.0017281 -1.5989642
12.910547 -2.0764356 -1.5952457
12.873096 -2.1515224 -1.5921471
12.846942 -2.2282641 -1.5905358
12.834981 -2.3074009 -1.5907836
12.823508 -2.3866563 -1.5911555
12.817392 -2.4669836 -1.592271
12.819531 -2.5490682 -1.5945021
12.833781 -2.6338663 -1.5983444
12.825145 -2.7142074 -1.599336
12.796616 -2.7903121 -1.5978487
12.775381 -2.8679085 -1.5973529
12.761411 -2.9471362 -1.5978487
12.709297 -3.0173578 -1.5935105
8.2416506 -2.009758 -1.0214912
12.794518 -3.2039576 -1.6093758
12.814982 -3.2927783 -1.6145816
12.822363 -3.3786821 -1.6181761
7.5844254 -2.0478487 -0.94315606
12.678564 -3.5077221 -1.6050377
12.603339 -3.5703001 -1.5980966
12.456349 -3.6113582 -1.5818594
8.0141954 -2.3764563 -1.0059977
7.9757242 -2.4183841 -1.0028989
7.944623 -2.4622805 -1.0007918
7.9331493 -2.5121803 -1.0012876
8.4717674 -2.7401361 -1.0740451
12.576917 -4.1539316 -1.6163169
12.524864 -4.222146 -1.6128464
12.442423 -4.2795482 -1.6054095
12.404695 -4.3518701 -1.6039221
7.7222595 -2.7620234 -0.98628992
12.312136 -4.4898257 -1.5988402
12.263892 -4.5576806 -1.5961134
12.230128 -4.6307359 -1.5953697
12.192226 -4.7021198 -1.5941303
12.147445 -4.7706738 -1.5920231
12.112415 -4.8429084 -1.5912794
12.067767 -4.9111514 -1.5892962
11.997069 -4.9683962 -1.5838425
11.933439 -5.0280423 -1.5793804
11.899627 -5.0999966 -1.5790086
11.857195 -5.1681566 -1.5775212
11.811653 -5.2347817 -1.575662
11.75579 -5.2965579 -1.5724393
11.704123 -5.3599124 -1.5698365
11.660221 -5.4266019 -1.5683491
11.615043 -5.4925299 -1.5667378
11.566813 -5.5568185 -1.5647546
11.515556 -5.6194167 -1.5623996
11.464856 -5.6820359 -1.5601685
11.412049 -5.7433529 -1.5576895
11.355389 -5.8024297 -1.5547148
11.294909 -5.8591995 -1.5512443
11.250844 -5.924232 -1.5501287
11.205531 -5.9884763 -1.5488893
11.153748 -6.0490761 -1.5467821
11.104251 -6.1107016 -1.5450469
11.051819 -6.170496 -1.5429398
11.01116 -6.2367253 -1.542568
10.952036 -6.2923055 -1.5395932
10.881501 -6.3408995 -1.5350071
10.839827 -6.406033 -1.5346353
10.776484 -6.4581399 -1.5311648
10.701041 -6.5024962 -1.5259589
10.655027 -6.5643902 -1.5250913
10.598559 -6.6196556 -1.5227363
10.561095 -6.686686 -1.5232321
10.517363 -6.749754 -1.5228602
10.467431 -6.8087487 -1.5216208
10.438711 -6.881587 -1.5236039
10.372364 -6.9295206 -1.5200094
10.321433 -6.9874701 -1.51877
10.276729 -7.0495467 -1.518522
10.234909 -7.1136036 -1.51877
10.187012 -7.1734133 -1.5181502
10.134727 -7.230021 -1.5169107
10.073286 -7.2798629 -1.5143079
10.009213 -7.3274651 -1.5113331
9.9425459 -7.3727822 -1.5079864
9.8899794 -7.4282861 -1.506871
9.8363171 -7.482821 -1.5056314
9.7705688 -7.5278926 -1.5025327
9.7140255 -7.5797653 -1.5009215
9.6533213 -7.6281514 -1.4986904
9.6125317 -7.6922002 -1.4996819
9.5636101 -7.7497869 -1.4994341
9.515111 -7.807693 -1.4993101
9.4548149 -7.855782 -1.497327
9.4026384 -7.9104533 -1.4967072
9.3539238 -7.967998 -1.4967072
9.3048573 -8.0252428 -1.4967072
9.2539454 -8.0808792 -1.4964594
9.2004709 -8.134222 -1.4958396
9.151865 -8.1918459 -1.4960874
9.0661383 -8.2158594 -1.4901379
8.9958153 -8.2532196 -1.4867914
8.9450054 -8.3082609 -1.4867914
8.8981953 -8.3670692 -1.4875351
8.8488445 -8.423563 -1.4879069
8.7948484 -8.4756336 -1.4875351
8.7426777 -8.529438 -1.4875351
8.6915894 -8.5843163 -1.487783
8.6155996 -8.6143303 -1.4836926
8.5430555 -8.6472654 -1.4802221
8.5016165 -8.7115955 -1.4823292
8.4266567 -8.7414484 -1.4784869
6.9934988 -7.3441358 -1.228608
8.3207903 -8.8463669 -1.4788587
8.2636518 -8.8943472 -1.4783629
8.2089224 -8.9448853 -1.4783629
8.1485519 -8.9892035 -1.4773713
8.0800047 -9.0242462 -1.4748924
6.7361898 -7.6166415 -1.2319546
6.6658301 -7.6309247 -1.2274925
2.1423197 -2.4818728 -0.37138459
2.1219029 -2.4889283 -0.37039301
2.1129797 -2.5094941 -0.37163249
2.1108596 -2.5384386 -0.37423539
7.6151948 -9.2777205 -1.4611342
7.5356326 -9.2965193 -1.4566721
2.0352566 -2.541225 -0.36853379
2.0116272 -2.5435445 -0.36692247
1.986215 -2.5433233 -0.3649393
1.9566419 -2.5373843 -0.3620885
1.9230113 -2.5256507 -0.35837007
1.8997303 -2.5270886 -0.35675874
1.8705937 -2.520366 -0.35390794
1.85568 -2.5325971 -0.35403189
1.8424304 -2.5471525 -0.35452768
1.8233087 -2.5535629 -0.35378399
6.9223337 -9.8273945 -1.4633652
6.8602047 -9.86724 -1.4629934
6.7894268 -9.8944187 -1.4607624
6.7280316 -9.93507 -1.4606384
6.6647396 -9.9728651 -1.4601426
1.8591706 -2.8177683 -0.38353148
1.8315651 -2.8133192 -0.38117647
1.8271321 -2.8445463 -0.38415122
1.8611367 -2.9370239 -0.39617416
6.4829068 -10.376277 -1.4901379
6.4191175 -10.41586 -1.4901379
6.3648772 -10.471163 -1.492493
6.31071 -10.527042 -1.494972
6.2475133 -10.568129 -1.4953438
6.1950417 -10.627696 -1.4984425
6.112412 -10.635395 -1.4941043
6.0445938 -10.668384 -1.4934846
5.9877281 -10.720866 -1.4957156
5.9203978 -10.754796 -1.4953438
5.8339529 -10.753414 -1.4900141
5.7622485 -10.778506 -1.4885267
5.7020149 -10.825074 -1.4901379
5.6345725 -10.858095 -1.4898901
5.5682936 -10.893348 -1.4900141
5.4995642 -10.923764 -1.4895183
5.4253826 -10.943078 -1.4875351
5.3481255 -10.955651 -1.4846842
5.2816615 -10.990049 -1.4849322
5.2166739 -11.027632 -1.4856758
5.158123 -11.079225 -1.4884027
5.1032677 -11.139535 -1.4923691
5.0282984 -11.156163 -1.4903859
4.9444709 -11.152334 -1.4856758
4.8668284 -11.161542 -1.482825
4.791996 -11.176601 -1.4808419
4.7160063 -11.18842 -1.4784869
4.6434693 -11.207979 -1.4772474
4.5708704 -11.227069 -1.4760079
4.4875274 -11.218971 -1.471174
4.4037309 -11.208427 -1.4660921
4.3323746 -11.228757 -1.4652245
4.2633948 -11.255128 -1.4652245
4.1925259 -11.276425 -1.4646047
4.118156 -11.287954 -1.4627455
4.0488167 -11.31301 -1.4627455
3.9819536 -11.345131 -1.4637371
3.906456 -11.352461 -1.461506
3.8395784 -11.384679 -1.4626216
3.7687173 -11.405197 -1.4622498
3.6980543 -11.426219 -1.4620018
3.6275752 -11.447749 -1.4618778
3.5472741 -11.437567 -1.4576637
3.4738593 -11.448672 -1.4563003
3.4091902 -11.488798 -1.4587792
3.3422246 -11.52189 -1.4603904
3.2738991 -11.550773 -1.461506
3.2085207 -11.590727 -1.4641089
3.1391523 -11.616901 -1.4649765
3.0728707 -11.655135 -1.4674555
3.0015454 -11.674731 -1.4675795
2.924068 -11.669827 -1.4646047
2.8512323 -11.682729 -1.463985
2.7902699 -11.745379 -1.4698105
2.7210522 -11.774848 -1.4714218
2.6478825 -11.78745 -1.470926
2.5685284 -11.771482 -1.4668357
2.4913197 -11.763721 -1.463861
2.4135051 -11.75157 -1.4603904
2.3372884 -11.74572 -1.4577876
2.2619851 -11.743276 -1.4556805
2.186255 -11.737423 -1.4532015
2.1117356 -11.736944 -1.4514662
2.0422237 -11.764346 -1.4533255
1.9698371 -11.775677 -1.4532015
1.8988066 -11.795379 -1.4541931
1.8303373 -11.832305 -1.4574157
0.41241878 -2.7727916 -0.31201357
0.39428109 -2.7674105 -0.31102198
0.37862834 -2.7796104 -0.31226146
0.35531905 -2.7336621 -0.30618802
0.34108928 -2.7564721 -0.30879092
0.22342512 -1.8981233 -0.20058446
0.31445459 -2.8255424 -0.31697148
0.28884768 -2.748467 -0.30705565
0.27217245 -2.7521627 -0.30730355
1.1062509 -11.975632 -1.4641089
0.67526954 -7.8299417 -0.94352794
0.24391721 -3.0376205 -0.34250474
0.57563049 -7.7901378 -0.93757844
0.25853872 -3.8086491 -0.43868828
0.19337676 -3.1297433 -0.3535361
0.17674254 -3.1774373 -0.35936165
0.18293937 -3.7017601 -0.42480612
0.15792273 -3.6492786 -0.41811293
0.13512668 -3.639271 -0.41674951
0.11148608 -3.5973833 -0.41141975
0.089581162 -3.6049435 -0.41228738
0.065179564 -3.4814103 -0.3967939
0.043172572 -3.4291573 -0.39022467
0.021948839 -3.3995895 -0.38650623
0.001089023 -3.3956912 -0.38601044
-0.019905433 -3.421433 -0.38923308
-0.040739994 -3.4083476 -0.38762176
-0.22266452 -12.143652 -1.4789827
-0.29814732 -12.181737 -1.4839406
-0.37361848 -12.203482 -1.4869153
-0.44911185 -12.217817 -1.4890225
-0.52500838 -12.236642 -1.4917493
-0.60173726 -12.266887 -1.4959636
-0.67819953 -12.28476 -1.4986904
-0.75192118 -12.253627 -1.4953438
-0.25169781 -3.7394927 -0.43001193
-0.273981 -3.7289715 -0.4288964
-0.29606548 -3.7173288 -0.42765692
-1.0642506 -12.368902 -1.5125725
-1.1329182 -12.284081 -1.5027807
-1.2082707 -12.276898 -1.5027807
-1.2815107 -12.249516 -1.5003017
-1.3575233 -12.249311 -1.5012933
-1.432889 -12.242723 -1.5015411
-1.5095613 -12.246503 -1.5031525
-0.37710682 -2.9189487 -0.32949021
-0.39434221 -2.9116635 -0.32887048
-1.7555233 -12.363022 -1.5216208
-1.8125633 -12.225398 -1.5056314
-1.8893625 -12.225814 -1.5071188
-1.9578793 -12.173824 -1.5020369
-0.50589317 -3.0322788 -0.34585133
-0.52499837 -3.0320506 -0.34622318
-2.1932216 -12.20018 -1.5102175
-2.2674942 -12.183567 -1.5098457
-2.34446 -12.181117 -1.5113331
-2.4199321 -12.170395 -1.5118289
-2.4991531 -12.177673 -1.5146797
-0.59082061 -2.7961323 -0.3188307
-0.60796624 -2.7924545 -0.3188307
-0.62334955 -2.7809262 -0.31783912
-0.86533415 -3.750638 -0.44265461
-0.88420397 -3.72788 -0.44042355
-2.9626215 -12.146844 -1.5236039
-3.0269701 -12.08801 -1.518398
-3.1020718 -12.073053 -1.5188938
-0.74804819 -2.8424544 -0.32899442
-0.76443988 -2.8339791 -0.32849863
-0.79240155 -2.8674889 -0.33345655
-3.3914733 -11.972285 -1.516167
-0.79657441 -2.7508109 -0.31957439
-0.85718453 -2.8933237 -0.3387863
-0.98755562 -3.2592854 -0.38724992
-0.99695569 -3.2190449 -0.38278779
-3.7727089 -11.911808 -1.5226123
-3.845422 -11.88749 -1.5224884
-3.9077063 -11.831636 -1.5182742
-3.9868884 -11.827183 -1.520877
-1.1078202 -3.2235427 -0.38762176
-4.1599832 -11.857889 -1.5315366
-4.2303233 -11.825601 -1.530669
-1.1669674 -3.2026052 -0.38762176
-4.3730488 -11.767218 -1.5299252
-1.1583828 -3.0618403 -0.37076485
-1.1885766 -3.0843003 -0.37473118
-4.5809221 -11.664412 -1.5271984
-1.2536032 -3.1376615 -0.38390332
-1.2283117 -3.0205424 -0.36915353
-1.2730252 -3.0762043 -0.37770593
-1.2833983 -3.0482185 -0.37497908
-1.3087242 -3.0557904 -0.37708619
-5.0495844 -11.585224 -1.5404608
-5.1241941 -11.562186 -1.5415764
-5.1930037 -11.526004 -1.5409566
-5.2590823 -11.484 -1.5395932
-5.3281918 -11.448815 -1.5392213
-5.3991885 -11.417701 -1.5394692
-1.3424582 -2.7964349 -0.34932187
-1.3635088 -2.7961705 -0.3504374
-1.3876916 -2.8019764 -0.35242057
-1.4008427 -2.7854319 -0.35130504
-1.4359711 -2.8121271 -0.35626295
-1.4413168 -2.7803628 -0.35304031
-5.8049321 -11.024329 -1.5181502
-5.8719988 -10.987628 -1.5180262
-5.9326835 -10.93918 -1.516291
-5.970027 -10.848676 -1.5086062
-6.0369649 -10.812706 -1.5087302
-6.1129789 -10.792727 -1.5112091
-4.8980846 -8.5258503 -1.1900603
-6.2179794 -10.670605 -1.5045159
-6.2757621 -10.619438 -1.5026567
-6.3244786 -10.553495 -1.4986904
-6.3793225 -10.49838 -1.4963354
-6.4389343 -10.451436 -1.4952198
-4.9378242 -7.9063807 -1.126227
-5.1943531 -8.2045584 -1.1748146
-5.2285166 -8.14748 -1.1710962
-5.2800336 -8.1177406 -1.171468
-5.3526855 -8.1199827 -1.1766739
-5.6527004 -8.4615574 -1.2329462
-6.9312782 -10.238447 -1.5062512
-6.9973378 -10.200634 -1.5069948
-7.0609288 -10.159137 -1.5072428
-7.1179886 -10.108319 -1.5061272
-7.1764202 -10.059608 -1.5053836
-5.6562972 -7.8271699 -1.1681215
-1.7050133 -2.3305347 -0.32254913
-1.7198722 -2.3208261 -0.32267308
-1.7334841 -2.3094358 -0.32254913
-1.7458193 -2.296387 -0.32217729
-1.7586654 -2.2840595 -0.3219294
-1.7665421 -2.265403 -0.32068992
-7.7185998 -9.7677593 -1.5169107
-7.7337441 -9.6644363 -1.5079864
-7.8103929 -9.6383858 -1.511457
-7.8781991 -9.6010199 -1.5131923
-7.9496455 -9.5677624 -1.5156713
-8.0165081 -9.5286741 -1.5172826
-8.0728931 -9.4770403 -1.5169107
-8.1250582 -9.4205656 -1.5157952
-1.7185208 -1.9693829 -0.28833953
-8.2716026 -9.3558302 -1.5217447
-8.322896 -9.2982464 -1.5206292
-8.3744612 -9.2411213 -1.5196376
-8.4310064 -9.1895628 -1.5196376
-8.4933119 -9.1442013 -1.5207531
-8.5567379 -9.0998659 -1.5221165
-8.6302032 -9.065876 -1.5253391
-8.6925535 -9.0198956 -1.5265787
-8.7470427 -8.9656792 -1.5264547
-8.810955 -8.9210167 -1.528066
-8.8788595 -8.8801174 -1.530421
-3.4535079 -3.4128709 -0.56833774
-3.3025088 -3.2239163 -0.53834236
-3.3429477 -3.2235613 -0.54193687
-3.3978794 -3.2365148 -0.54801029
-3.3128595 -3.1170361 -0.53003788
-3.1574383 -2.9345691 -0.50029039
-3.1819654 -2.9211781 -0.50140589
-3.546133 -3.2154565 -0.55978537
-3.5598814 -3.1883426 -0.55879378
-3.6120861 -3.1953604 -0.56424749
-3.4769142 -3.0380242 -0.53859025
-3.443644 -2.9719129 -0.53003788
-3.3900566 -2.8895948 -0.5182628
-3.4031675 -2.8649063 -0.51751912
-3.7755637 -3.1388645 -0.5751549
-3.8929365 -3.196213 -0.59102023
-9.9672127 -8.0791788 -1.5645066
-10.028218 -8.0271702 -1.566366
-3.8818204 -3.0692573 -0.57998884
-10.133792 -7.9096084 -1.5676054
-10.188421 -7.8521252 -1.568597
-10.245096 -7.7960711 -1.5699604
-10.340343 -7.7688198 -1.5773972
-10.393395 -7.7093639 -1.578265
-10.442105 -7.6466188 -1.5785128
-10.49124 -7.584147 -1.5788846
-10.543232 -7.5236654 -1.5797523
-10.607046 -7.4714012 -1.5824791
-10.668986 -7.4175043 -1.5849581
-10.714298 -7.3519011 -1.5849581
-10.785501 -7.303823 -1.5889244
-10.835888 -7.2413659 -1.589792
-10.896686 -7.1856656 -1.592271
-10.968851 -7.1370673 -1.5964853
-5.707191 -3.6644986 -0.80904448
-5.7304068 -3.6299417 -0.80916846
-6.9804544 -4.3617082 -0.99000835
-6.9242954 -4.2677832 -0.97786146
-6.9367838 -4.2169709 -0.9758783
-6.9608259 -4.1733079 -0.9756304
-6.9461527 -4.1067891 -0.96980488
-7.0732417 -4.1235476 -0.98455465
-7.0416255 -4.047441 -0.97637409
-7.108634 -4.0281234 -0.98244756
-7.0647726 -3.9462116 -0.97265565
-7.0575576 -3.8855648 -0.96819353
-7.1711073 -3.8909168 -0.98096019
-7.1904707 -3.8445039 -0.98034042
-7.3991795 -3.8978703 -1.0064934
-7.2036366 -3.7386115 -0.9756304
-7.1787267 -3.6699564 -0.96893722
-7.4368782 -3.7445087 -1.0019073
-7.3103509 -3.6247725 -0.98108411
-7.2941089 -3.5611346 -0.97575438
-7.2845182 -3.501271 -0.97141618
-7.2547336 -3.4323266 -0.96435118
-7.3026462 -3.4003096 -0.96806961
-7.3450246 -3.3653541 -0.97104436
-7.3592029 -3.3173687 -0.9701767
-5.7691946 -2.5584297 -0.75016928
-5.8266268 -2.5412226 -0.75587088
-7.5403185 -3.2333422 -0.98666179
-7.5398989 -3.1785376 -0.98393494
-7.5326738 -3.121202 -0.98034042
-7.7456083 -3.1538546 -1.0064934
-7.3133507 -2.9257364 -0.945759
-7.7689505 -3.0527623 -1.0045103
-7.6042261 -2.9343297 -0.97996861
-7.6582785 -2.9013209 -0.98480254
-7.6843076 -2.8573873 -0.9859181
-7.6625423 -2.7959037 -0.98071229
-7.6403131 -2.7347951 -0.97550648
-7.6251149 -2.6766934 -0.97129226
-7.6048007 -2.6172676 -0.96645826
-7.720387 -2.6041601 -0.97959673
-7.6203284 -2.5184569 -0.96435118
-7.7300482 -2.5021975 -0.97674596
-7.8880959 -2.4999678 -0.99546206
-7.950676 -2.4662127 -1.0016595
-7.8650045 -2.3868511 -0.98852098
-7.9251652 -2.3520927 -0.99447048
-7.8708301 -2.2835233 -0.98554623
-7.9362478 -2.2497928 -0.99223942
-7.9049544 -2.1886165 -0.9864139
-7.885664 -2.1312735 -0.98219967
-8.0367641 -2.1192627 -1.0000482
-8.0496168 -2.06991 -1.0000482
-8.1189566 -2.0347035 -1.0073611
-8.150569 -1.9895518 -1.00984
-8.1664848 -1.9404204 -1.0103358
-8.2652521 -1.9103748 -1.0214912
-8.3019915 -1.8652763 -1.0247138
-8.3695107 -1.826565 -1.0319028
-8.621314 -1.8261385 -1.0626419
-9.280694 -1.906293 -1.1453151
-9.3253059 -1.8558931 -1.1495292
-9.8539219 -1.8982491 -1.2153456
-10.266326 -1.9123914 -1.2662882
-10.664611 -1.9189072 -1.3153715
-11.052592 -1.9187387 -1.3630915
-11.791336 -1.9724549 -1.4551847
-12.476265 -2.0083468 -1.5403368
-12.63741 -1.9547989 -1.5591769
-13.723966 -2.0366278 -1.6948998
-14.165524 -2.0133653 -1.749065
-14.810834 -2.0123971 -1.8288875
-15.601298 -2.0223229 -1.9269302
-15.665609 -1.9329937 -1.9334995
-15.648594 -1.8334882 -1.9299049
-15.734505 -1.7457464 -1.939325
-15.671889 -1.6415244 -1.9301529
-15.689567 -1.5461105 -1.9311445
-15.693817 -1.4493562 -1.9305247
-15.704392 -1.3532037 -1.9307727
-15.715367 -1.257055 -1.9311445
-15.716847 -1.1601658 -1.9304007
-15.72466 -1.0637741 -1.9305247
-15.721977 -0.96672195 -1.9294091
-15.740493 -0.87094724 -1.9310205
-15.742568 -0.774203 -1.9306487
-15.742064 -0.67738092 -1.9300289
-15.729067 -0.58015615 -1.9279218
-15.722413 -0.4833293 -1.9266824
-15.710202 -0.38648432 -1.9248232
-15.67557 -0.28940606 -1.9202371
-15.689949 -0.19337516 -1.9218484
-15.69481 -0.097124062 -1.9223442
-15.692133 -0.00082075613 -1.9219723
-15.667036 0.095311619 -1.9188737
-15.686993 0.19169712 -1.9214765
-15.690482 0.28803852 -1.9220963
-15.675523 0.38399124 -1.9204849
-15.668904 0.48004538 -1.9199891
-15.660707 0.57599622 -1.9193695
-15.648946 0.6717366 -1.9183779
-15.642548 0.76764667 -1.9181299
-15.640515 0.86377746 -1.9185017
-15.63294 0.95960784 -1.9182539
-15.616858 1.0548422 -1.9170144
-14.242883 -0.36012542 -1.9107809
-14.238881 -0.27261201 -1.9099677
-14.23236 -0.18513541 -1.9088833
-14.244126 -0.097879007 -1.9103743
-14.264275 -0.010491975 -1.9130852
-14.255154 0.076984264 -1.9118652
-14.266301 0.16458762 -1.9134918
-14.271957 0.25224325 -1.9144406
-14.257264 0.33950332 -1.9126786
-14.241048 0.42656296 -1.9107809
-14.232222 0.51372212 -1.9099677
-14.229792 0.60108149 -1.9101032
-14.197137 0.68699461 -1.9061725
-14.18375 0.77360833 -1.9049526
-14.16588 0.85984361 -1.9031906
-14.172201 0.9475404 -1.9048171
-14.159203 1.0339767 -1.9038683
-14.152592 1.1208364 -1.9038683
-14.147423 1.2078226 -1.9041394
-14.158491 1.2963226 -1.9067147
-14.142383 1.3824022 -1.9056304
-14.129692 1.4687425 -1.9050882
-14.109581 1.5542201 -1.9035972
-14.029905 1.6326365 -1.8939737
-14.06486 1.724236 -1.9002086
-14.017658 1.8058212 -1.8951936
-14.006313 1.8917979 -1.8951936
-13.970898 1.9743767 -1.8919405
-13.926175 2.0552907 -1.8874676
-13.947576 2.1459737 -1.8922116
-13.936102 2.2318273 -1.8924826
-13.889894 2.3119283 -1.8880098
-13.893996 2.4003158 -1.8905851
-13.85365 2.4809823 -1.887061
-13.841088 2.5664818 -1.8874676
-13.81243 2.6489353 -1.8857056
-13.779395 2.7303636 -1.8834014
-13.771119 2.8166475 -1.8846213
-13.74776 2.8998656 -1.883808
-13.677427 2.9728038 -1.8764887
-13.675365 3.060349 -1.8787929
-13.648605 3.1424236 -1.8777086
-13.665705 3.234782 -1.8828591
-13.634047 3.315763 -1.8812326
-13.615367 3.3998375 -1.8815037
-13.574095 3.478152 -1.8786573
-13.580287 3.5686772 -1.882588
-13.560047 3.6524525 -1.8828591
-13.506819 3.7271538 -1.8785218
-13.480834 3.8091519 -1.8781152
-13.453401 3.890696 -1.877573
-13.415024 3.9689555 -1.8755399
-13.387573 4.050333 -1.8751333
-13.377614 4.1370845 -1.8773019
-13.368982 4.2244635 -1.8797417
-13.328667 4.3018498 -1.8777086
-13.328368 4.3922338 -1.8815037
-13.294594 4.4717216 -1.8805549
-13.252849 4.548388 -1.8785218
-13.22095 4.6283107 -1.8779796
-13.187636 4.7076807 -1.8773019
-13.150124 4.7854605 -1.8760821
-13.106578 4.8608909 -1.8740489
-13.044993 4.9293132 -1.8694404
-12.991386 5.0003667 -1.8660519
-12.992745 5.0926399 -1.8707958
-12.978738 5.1792426 -1.8733711
-12.907242 5.2427492 -1.8675429
-12.901384 5.3328233 -1.8714736
-12.830974 5.3961377 -1.8659164
-12.797623 5.4747653 -1.8659164
-12.733808 5.540144 -1.8614434
-12.712259 5.6237841 -1.863341
-12.716369 5.7191529 -1.8691694
-12.681037 5.7970715 -1.8691694
-12.604794 5.8559875 -1.8630699
-12.641198 5.9674759 -1.8740489
-12.615958 6.050498 -1.875811
-12.586612 6.1316991 -1.8770308
-12.550528 6.2096925 -1.8773019
-12.531666 6.2963696 -1.8802838
-12.493679 6.3735938 -1.8804194
-12.455216 6.4505892 -1.8805549
-12.458374 6.5494809 -1.8871965
-12.450295 6.6430569 -1.8922116
-12.458091 6.7457423 -1.899802
-12.412124 6.8196716 -1.8991243
-12.373507 6.8976321 -1.8996664
-12.336987 6.9768386 -1.9006152
-12.306837 7.0598001 -1.9026484
-12.275277 7.1421561 -1.904546
-12.243169 7.22439 -1.9064436
-12.216465 7.3100595 -1.90929
-12.192557 7.3977284 -1.9126786
-12.146092 7.4718823 -1.9125431
-12.115149 7.5557055 -1.9149828
-12.074423 7.6336064 -1.9159316
-12.047378 7.7203794 -1.9191846
-11.977345 7.7795844 -1.915525
-11.930212 7.8534746 -1.9156605
-11.89169 7.9331269 -1.917287
-11.898606 8.0436735 -1.9265039
-11.884175 8.1406059 -1.9323323
-11.877955 8.2438774 -1.9396515
-11.838495 8.3245821 -1.9415492
-11.782351 8.3936157 -1.9407359
-11.766782 8.4918432 -1.9468353
-11.725654 8.5720682 -1.9487329
-11.683983 8.6521091 -1.9506305
-11.634638 8.7266102 -1.9513083
-11.596652 8.8098202 -1.9540191
-11.532954 8.8735609 -1.9523926
-11.519711 8.9764338 -1.9595762
