# .PCD v0.7 - Point Cloud Data file format
VERSION 0.7
FIELDS x y z
SIZE 4 4 4
TYPE F F F
COUNT 1 1 1
WIDTH 1537
HEIGHT 1
VIEWPOINT 0 0 0 1 0 0 0
POINTS 1537
DATA ascii
0.50292408 7.4801726 -1.9097537
0.54775017 7.4624677 -1.9059777
0.59153408 7.4338827 -1.8994327
0.63829327 7.4436131 -1.902957
0.68076658 7.4048619 -1.8938947
0.73176241 7.4573727 -1.9087468
0.77891135 7.4662185 -1.912271
0.82523996 7.4661083 -1.9135296
0.87193298 7.4685946 -1.9155436
0.91915983 7.4746304 -1.9185643
0.96203089 7.4458141 -1.9125228
1.0027652 7.4033275 -1.902957
1.051837 7.4229074 -1.9097537
1.0943896 7.3962088 -1.9044673
1.1404886 7.3941369 -1.905726
1.1838433 7.3745775 -1.9024535
1.2274784 7.3576283 -1.8999362
1.2732612 7.3537726 -1.9009432
1.3192136 7.3505845 -1.9022018
1.3646446 7.344255 -1.9027052
1.4104128 7.3395448 -1.9037122
1.4588122 7.3478398 -1.9082433
1.4995972 7.3178921 -1.9027052
1.5472714 7.3218093 -1.9062295
1.592168 7.3121777 -1.9062295
1.6342531 7.2899938 -1.902957
1.6839542 7.3015194 -1.9087468
1.7204643 7.2562065 -1.8994327
1.7734283 7.2803049 -1.9087468
1.815014 7.2570806 -1.9054743
1.8635974 7.2617435 -1.9097537
1.9093509 7.2548518 -1.9110124
1.9475297 7.2196393 -1.9047191
1.9956579 7.2215462 -1.9084951
2.0357156 7.1942654 -1.9044673
2.0749755 7.164906 -1.8999362
2.1210985 7.1594629 -1.90195
2.1652687 7.1472392 -1.9022018
2.2047892 7.1199517 -1.8984258
2.2440562 7.0924482 -1.8946499
2.2869375 7.0767035 -1.8941463
2.3306193 7.063457 -1.8943981
2.3732984 7.0471892 -1.8938947
2.4180667 7.0370708 -1.8951533
2.4599197 7.0184479 -1.8941463
2.5013094 6.9986653 -1.8928877
2.5425491 6.9786391 -1.891629
2.5873423 6.9683509 -1.8931395
2.6269691 6.9441972 -1.8908738
2.6483047 6.872859 -1.8755182
2.7038577 6.8907156 -1.885084
2.7403436 6.8596153 -1.8810563
2.7863913 6.8525333 -1.8838253
2.8183954 6.811162 -1.8770286
2.8702724 6.8178244 -1.8838253
2.9090044 6.7929668 -1.8818115
2.9479258 6.7687783 -1.8800493
2.995672 6.7647219 -1.8840771
3.0331507 6.7373881 -1.8815597
3.0736279 6.7168903 -1.8810563
3.1160083 6.7005372 -1.8818115
3.1516888 6.6699157 -1.878539
3.1929741 6.6513243 -1.8787907
3.2362707 6.636827 -1.8803011
3.2739263 6.6107736 -1.878539
3.3187754 6.5992069 -1.8810563
3.366246 6.5925107 -1.885084
3.3848112 6.5296288 -1.8727492
3.4130967 6.4864683 -1.8662041
3.4674201 6.4927225 -1.8742596
3.4928997 6.4449468 -1.8664559
3.5253847 6.4106727 -1.86268
3.572669 6.4032884 -1.8669593
3.6109383 6.3795619 -1.8664559
3.6273682 6.3178372 -1.8546245
3.6650915 6.2937884 -1.8541211
3.6864171 6.2420144 -1.8453104
3.7485137 6.2591324 -1.8573935
3.7783096 6.221951 -1.8531141
3.8209817 6.206068 -1.8553797
3.8528407 6.1726537 -1.8523589
3.8984044 6.1611648 -1.8561349
3.9282985 6.1249089 -1.8523589
3.9758275 6.1161075 -1.8571419
4.0212665 6.1037202 -1.8609178
4.0758376 6.1046882 -1.8689733
4.055737 5.9945946 -1.8422897
4.0929904 5.9703946 -1.8425413
4.1361718 5.9547067 -1.8455622
4.1676188 5.922092 -1.8432965
4.2364612 5.9421158 -1.857897
4.2666087 5.9073787 -1.8551279
4.3164892 5.8998346 -1.8611696
4.3670135 5.8926778 -1.8674628
4.391469 5.8502908 -1.8624282
4.4278688 5.8240056 -1.86268
4.4623399 5.7951932 -1.8621764
4.4811516 5.7463341 -1.8551279
4.5439157 5.7536688 -1.8667076
4.5803432 5.7271914 -1.8672111
4.622098 5.7072525 -1.8699801
4.6570296 5.6787844 -1.8699801
4.6862226 5.6434011 -1.8677145
4.7114196 5.6034288 -1.8639386
4.7576323 5.5884166 -1.8687215
4.7886734 5.5554538 -1.8674628
4.8112168 5.5128407 -1.8629316
4.8545642 5.4940953 -1.8667076
4.8843126 5.4598765 -1.8651972
4.9255176 5.4384127 -1.8682179
4.9535623 5.4023809 -1.8662041
5.00176 5.3881993 -1.871994
5.0281 5.3503551 -1.8694767
5.0434914 5.3011713 -1.8629316
5.0698819 5.2638512 -1.860666
5.1324868 5.2638273 -1.871994
5.1585698 5.2260365 -1.8697284
5.1720695 5.1758013 -1.8629316
5.2099247 5.1500921 -1.8651972
5.2545824 5.1308751 -1.8699801
5.2894487 5.1018968 -1.8712388
5.3290615 5.0773568 -1.8742596
5.3410878 5.0266528 -1.8674628
5.3810444 5.0023527 -1.8707353
5.4173393 4.9744782 -1.8727492
5.4305568 4.9255385 -1.8667076
5.4794178 4.908916 -1.8732526
5.4884171 4.8566027 -1.8659524
5.4977107 4.8050008 -1.8589039
5.5454044 4.7869883 -1.8651972
5.5960288 4.7710819 -1.8724974
5.6259384 4.7372789 -1.8727492
5.6340656 4.6853418 -1.8657007
5.6589694 4.6476126 -1.864442
5.7196994 4.6390181 -1.8752664
5.7533436 4.6080709 -1.8770286
5.7830281 4.5738831 -1.8775321
5.8147974 4.5412917 -1.8787907
5.8578801 4.5173478 -1.8838253
5.8662386 4.4666615 -1.8775321
5.8997235 4.4352355 -1.8795459
5.9050674 4.3828006 -1.8724974
5.9404354 4.352778 -1.8752664
5.9842825 4.3287258 -1.8808045
5.9808021 4.2705531 -1.8712388
6.0068932 4.2337751 -1.8712388
6.0661244 4.2200522 -1.8818115
6.0950952 4.1849432 -1.8828185
6.1078401 4.1387787 -1.8787907
6.1476007 4.110908 -1.8833219
6.1719012 4.0725765 -1.8830701
6.1983962 4.035686 -1.8835737
6.2181563 3.9944386 -1.8820633
6.2392788 3.9541371 -1.8810563
6.2683473 3.9188578 -1.8825667
6.3054547 3.8884506 -1.8865944
6.3110046 3.8386226 -1.8810563
6.3493776 3.8087888 -1.8855875
6.3651319 3.7653229 -1.8833219
6.3755765 3.7188811 -1.8795459
6.4259596 3.6956151 -1.887853
6.4114718 3.635112 -1.8767769
6.4843431 3.6240354 -1.8918808
6.4928951 3.5767078 -1.887853
6.5138683 3.536339 -1.8876014
6.5482445 3.5031528 -1.8913773
6.5576305 3.456589 -1.887853
6.5915995 3.4229782 -1.891629
6.610755 3.3815868 -1.8911256
6.6426153 3.3466218 -1.8943981
6.6517544 3.3002081 -1.8911256
6.6579661 3.2525339 -1.8870978
6.6176195 3.1826739 -1.8697284
6.7236195 3.1830099 -1.8946499
6.7324967 3.1367893 -1.891629
6.755136 3.097034 -1.8926359
6.7828336 3.0595067 -1.8951533
6.7997093 3.0170453 -1.8946499
6.8145456 2.9737179 -1.8936429
6.82377 2.9280319 -1.8911256
6.8567662 2.8925025 -1.8954051
6.8690214 2.8481512 -1.8938947
6.8863683 2.8059502 -1.8938947
6.9070492 2.7650824 -1.8949015
6.9256868 2.7233579 -1.8954051
6.9377527 2.6790679 -1.8941463
6.9567752 2.6374776 -1.8949015
6.9728274 2.5947421 -1.8949015
7.0049806 2.5578847 -1.8994327
7.0205436 2.5148549 -1.8994327
7.0312772 2.4701262 -1.898174
7.049046 2.4278822 -1.8989292
7.059226 2.3830364 -1.8976706
7.0829034 2.3427165 -1.9001878
7.101748 2.3007042 -1.9014466
7.119421 2.258256 -1.9024535
7.1488557 2.2194085 -1.9067329
7.1521535 2.1724076 -1.9039639
7.1699867 2.1298602 -1.9052225
7.1773443 2.0842061 -1.9037122
7.1853423 2.0388064 -1.9024535
7.2191677 2.0006254 -1.9082433
7.2126231 1.9512361 -1.9032087
7.2394319 1.9108963 -1.9072363
7.2547693 1.8674052 -1.9082433
7.2689071 1.8235623 -1.9089985
7.2592769 1.7738715 -1.9034604
7.2606091 1.727056 -1.9009432
7.2625837 1.6805092 -1.8986775
7.2831445 1.638252 -1.9014466
7.2977867 1.5945659 -1.9027052
7.3083801 1.5499582 -1.902957
7.334816 1.5085961 -1.9074881
7.3240032 1.4595889 -1.9022018
7.3432741 1.4166392 -1.9049708
7.3813205 1.3770589 -1.9127744
7.3686771 1.3279647 -1.9072363
7.363338 1.2804043 -1.9037122
7.3853731 1.2375996 -1.9074881
7.392828 1.1922605 -1.9074881
6.3049588 0.97710383 -1.6192555
5.8704948 0.87289393 -1.503459
5.8297505 0.83030361 -1.4913759
5.8232279 0.79294956 -1.488355
5.8164673 0.75570685 -1.4853343
5.7979436 0.71715069 -1.4792928
5.8022346 0.68156165 -1.4792928
0 0 -0
0 0 -0
0 0 -0
0 0 -0
0 0 -0
0 0 -0
0 0 -0
0 0 -0
5.7962341 0.35811606 -1.4702305
5.7954235 0.32238284 -1.4694753
5.7953596 0.28672093 -1.4689717
5.7206254 0.24784133 -1.449085
5.8148828 0.21619375 -1.4732512
5.8160996 0.18051024 -1.4732512
5.8151627 0.14477162 -1.4727477
5.8120713 0.10901486 -1.4717408
5.8174691 0.073412001 -1.4729995
5.7258716 0.037113052 -1.449085
5.7956729 0.0020079489 -1.4672097
5.8188028 -0.03368656 -1.4732512
5.8136477 -0.069332048 -1.4719925
5.7202196 -0.10333098 -1.4478263
0 -0 -0
0 -0 -0
0 -0 -0
0 -0 -0
0 -0 -0
0 -0 -0
0 -0 -0
5.8347554 -0.39238259 -1.4808031
5.8418899 -0.42888454 -1.4833205
5.8815975 -0.46809715 -1.4943967
5.9017568 -0.50616038 -1.5004382
5.9794941 -0.54980153 -1.5215837
5.9066591 -0.57967943 -1.503459
7.5393744 -0.78653944 -1.9314026
7.5449877 -0.83395439 -1.9341717
7.5301161 -0.87911212 -1.9316543
7.4967237 -0.92187548 -1.9243542
7.4765286 -0.9659977 -1.9205781
7.4723787 -1.0121143 -1.9210817
7.4324899 -1.0531943 -1.912271
7.2870674 -1.0782462 -1.87577
6.9790187 -1.0764822 -1.7964745
6.880547 -1.1045631 -1.7723082
6.758132 -1.1274966 -1.7418487
6.6805191 -1.1567279 -1.7232206
6.587563 -1.1823152 -1.7005647
6.5621052 -1.2193552 -1.6957819
6.5564008 -1.2599617 -1.6962854
6.6615109 -1.3225887 -1.7262414
6.6845574 -1.3698478 -1.7345486
6.6722388 -1.4100375 -1.7335416
6.6322551 -1.4441578 -1.7252345
6.593049 -1.4780525 -1.7171791
6.5499058 -1.5106509 -1.7081168
6.5376883 -1.5501422 -1.7073616
6.4998446 -1.5833575 -1.6998096
6.4440012 -1.6117064 -1.6874747
6.4480519 -1.6548235 -1.6912507
6.435905 -1.6938643 -1.6907473
6.4160461 -1.7308023 -1.6882299
6.3773203 -1.7624058 -1.680678
6.3533487 -1.7978147 -1.6771537
6.3338313 -1.8343418 -1.6748881
6.3048258 -1.8679485 -1.6701052
6.2802782 -1.9026713 -1.666581
6.2518444 -1.9360183 -1.6620499
6.2380023 -1.9737587 -1.6615463
6.205514 -2.005451 -1.6560084
6.1783867 -2.0386384 -1.6519806
6.1758504 -2.0799072 -1.6547496
6.1565652 -2.115561 -1.6529875
6.1270285 -2.147536 -1.6484563
6.109179 -2.1834621 -1.6471977
6.1111255 -2.2265375 -1.6514771
6.0782957 -2.2569194 -1.6461908
6.0697641 -2.296227 -1.6477011
6.048336 -2.3306437 -1.6456873
6.0330205 -2.3673582 -1.6454356
5.9995074 -2.3967927 -1.6401492
5.9963427 -2.4382985 -1.6434218
6.0036259 -2.4842951 -1.6497151
5.9855933 -2.5199594 -1.6489599
5.9709082 -2.5570199 -1.6492115
5.9604301 -2.5959268 -1.6507219
5.9284611 -2.6253977 -1.6461908
5.9201827 -2.6652999 -1.6484563
5.882596 -2.6919115 -1.6424148
5.8633351 -2.7267315 -1.6416596
5.8438687 -2.7614167 -1.6409044
5.8276877 -2.7976408 -1.6411562
5.83042 -2.8431013 -1.646946
5.8024578 -2.8736689 -1.6439252
5.7743402 -2.9040008 -1.6409044
5.7572751 -2.939817 -1.6411562
5.7374096 -2.9741969 -1.6406527
5.7027788 -3.0007832 -1.6358697
5.6859665 -3.0366299 -1.6363733
5.6663761 -3.0710001 -1.6361215
5.6533628 -3.1089747 -1.6378837
5.6265736 -3.1393611 -1.6356181
5.617312 -3.1795461 -1.6386389
5.6086082 -3.2202172 -1.6419114
5.5920892 -3.2565184 -1.6429182
5.554502 -3.2804353 -1.6376319
5.5218143 -3.3069973 -1.6338559
5.5204453 -3.3523691 -1.6396458
5.5063648 -3.3902376 -1.6416596
5.4780703 -3.4193485 -1.639394
5.4520793 -3.4497924 -1.6378837
5.4365115 -3.4868379 -1.6396458
5.4142032 -3.5196025 -1.639394
5.4046283 -3.5607431 -1.64317
5.382678 -3.5938385 -1.64317
5.3436918 -3.6154103 -1.6378837
5.3269954 -3.6519608 -1.6396458
5.3132305 -3.6906507 -1.6424148
5.2865276 -3.7203979 -1.6411562
5.260448 -3.7505183 -1.6401492
5.2310596 -3.7781923 -1.6381353
5.1820021 -3.7913618 -1.6298282
5.1671948 -3.8294249 -1.6325973
5.1350861 -3.8546674 -1.6298282
5.1059446 -3.8820033 -1.6280661
5.0613241 -3.8973188 -1.6212693
5.025104 -3.9187794 -1.6172416
5.0655251 -4.0005198 -1.6386389
5.0401273 -4.0309219 -1.6383871
4.9949918 -4.0453272 -1.6315904
4.9610958 -4.0685358 -1.6285696
4.9539084 -4.1137376 -1.6346111
4.9559827 -4.1671 -1.6439252
4.9303207 -4.1974311 -1.6439252
4.9022737 -4.2257085 -1.64317
4.9017749 -4.2779799 -1.6519806
4.8855872 -4.316947 -1.6555048
4.8424163 -4.3320031 -1.6497151
4.818614 -4.3642325 -1.6507219
4.7810445 -4.3839064 -1.646946
4.7689514 -4.4269857 -1.6522323
4.7353506 -4.4501996 -1.6499667
4.6974373 -4.4691658 -1.6461908
4.6748066 -4.502604 -1.6479529
4.64224 -4.526474 -1.6461908
4.5861378 -4.527 -1.6358697
2.3216226 -2.3202562 -0.81346279
2.3066616 -2.3337696 -0.81321108
2.2895937 -2.3451095 -0.81220418
4.5462251 -4.7134118 -1.6630567
4.4577999 -4.6788607 -1.6406527
4.4170671 -4.69344 -1.6361215
4.38555 -4.7176189 -1.6351146
4.4088898 -4.801465 -1.6552531
4.3760943 -4.8248429 -1.6539944
4.3108873 -4.8119593 -1.6401492
4.2998805 -4.8593378 -1.6474494
4.2655249 -4.8805289 -1.6456873
4.2064056 -4.8729119 -1.6341077
4.1940093 -4.9192505 -1.6411562
4.1593823 -4.9397097 -1.639394
4.1184745 -4.9524889 -1.6351146
4.0929232 -4.9836493 -1.6371285
4.0549507 -4.9996495 -1.6341077
4.0187516 -5.0176382 -1.6318421
3.9896896 -5.0444794 -1.6325973
2.005841 -2.5686932 -0.80742127
1.9829495 -2.5717561 -0.8044005
1.9600962 -2.5746353 -0.80137968
1.9401906 -2.5811989 -0.79961759
1.9214319 -2.5891695 -0.79835892
1.8751897 -2.5595372 -0.78501713
1.7289799 -2.3906467 -0.72711891
1.710904 -2.3964849 -0.72560853
1.6900337 -2.3982365 -0.72283947
3.6905377 -5.305059 -1.6406527
3.6486037 -5.3140407 -1.6363733
3.6142998 -5.3339248 -1.6356181
3.5750473 -5.3463478 -1.6325973
3.5443077 -5.3714142 -1.6336042
3.503361 -5.3808951 -1.6298282
3.4666166 -5.3965907 -1.6280661
3.4267032 -5.4071331 -1.6247936
3.4021835 -5.4420071 -1.629073
3.3621235 -5.4520717 -1.6258005
3.3230741 -5.4635038 -1.6230315
3.2889903 -5.4829607 -1.6227797
3.2503576 -5.494709 -1.6202624
3.2170694 -5.5153856 -1.6205142
3.1841321 -5.5366988 -1.6210176
3.1524863 -5.5603418 -1.6222763
3.1187816 -5.5804248 -1.622528
3.0667357 -5.567245 -1.6129622
3.0315945 -5.5842566 -1.6124587
1.6019946 -2.9949713 -0.84316713
1.5867471 -3.0107374 -0.84492928
1.5682436 -3.0204167 -0.84492928
2.9288998 -5.7259011 -1.6325973
2.8675816 -5.6919079 -1.6174934
2.8463686 -5.7371378 -1.6255488
2.7962427 -5.7240601 -1.6167382
2.7581315 -5.7350049 -1.614976
2.7270317 -5.7605677 -1.6174934
2.6916342 -5.7771916 -1.6174934
2.6529083 -5.786561 -1.6154795
2.6129749 -5.793026 -1.6127105
2.5765953 -5.8071804 -1.6122071
2.5502055 -5.8441687 -1.6182486
2.503993 -5.8356938 -1.6114519
2.4711485 -5.8580818 -1.6134657
2.438494 -5.8811798 -1.6157312
2.3928657 -5.8727293 -1.6091863
2.3542681 -5.881012 -1.6074241
2.3064497 -5.8656254 -1.5991169
2.268672 -5.8751531 -1.5978583
2.2439034 -5.9188256 -1.6061654
2.2075438 -5.9324822 -1.6061654
2.1681135 -5.9377341 -1.6038998
2.1365356 -5.964592 -1.6076758
2.0989349 -5.9748502 -1.6069206
2.0679083 -6.004087 -1.6114519
2.0285521 -6.0093269 -1.6094379
1.9910334 -6.0198231 -1.6089345
1.9555507 -6.03653 -1.6101931
1.9140844 -6.0345778 -1.6064172
1.8796039 -6.0545273 -1.6086828
1.8393241 -6.0557604 -1.6059138
1.8015808 -6.0650768 -1.6054102
1.7619028 -6.0676522 -1.6031446
1.7254319 -6.0811419 -1.6038998
1.6873107 -6.0888166 -1.6031446
1.6524465 -6.1083975 -1.605662
1.6141938 -6.1156144 -1.6049068
1.5725367 -6.1094708 -1.6006274
1.5338423 -6.1143112 -1.5993687
1.4979053 -6.1301885 -1.6011308
1.4604869 -6.1402054 -1.6013826
1.423002 -6.1499944 -1.6016343
1.3880012 -6.1708841 -1.6049068
1.3536242 -6.1953578 -1.6091863
1.3181956 -6.2158546 -1.6124587
0.80690897 -3.9241135 -1.001758
1.2484403 -6.264782 -1.6212693
0.76859546 -3.9850345 -1.0153515
0.75229615 -4.0334387 -1.0269312
0.72049361 -3.9989283 -1.0166101
0.68881142 -3.9622743 -1.0057857
0.6676864 -3.9855158 -1.0108204
0.64244848 -3.9847605 -1.0095617
0.61843115 -3.9914966 -1.0103168
0.59748822 -4.0191474 -1.0166101
0.57240635 -4.0198636 -1.015855
0.54420274 -3.9974089 -1.0090582
0.52328283 -4.0285048 -1.0163585
0.50247717 -4.0633354 -1.0246656
0.73036528 -6.2174649 -1.5880408
0.44433147 -3.9951324 -1.0052823
0.42071992 -4.0064464 -1.0075479
0.3954621 -4.0022106 -1.0057857
0.37277389 -4.0247984 -1.011072
0.34790429 -4.0250816 -1.0105686
0.32374293 -4.0338936 -1.0123308
0.29869893 -4.0319433 -1.0113238
0.27290303 -4.0182514 -1.0072961
0.24824235 -4.0198503 -1.0072961
0.22330324 -4.0164661 -1.0060375
0.19875024 -4.0196939 -1.0065409
0.17357865 -4.0092349 -1.0035201
0.14821871 -3.9899151 -0.9982338
0.12328293 -3.9762394 -0.99445778
0.098593041 -3.9653111 -0.99143702
0.074023701 -3.9532623 -0.98816448
0.049593661 -3.940094 -0.98464024
0.025587929 -3.966454 -0.99143702
0.0012477373 -3.9616973 -0.99017835
-0.023060804 -3.9616306 -0.99017835
-0.047632407 -3.9836721 -0.99596816
-0.072231583 -3.9920137 -0.9982338
-0.097542003 -4.0253582 -1.0070443
-0.12241501 -4.030488 -1.0085548
-0.1482704 -4.0606103 -1.0166101
-0.17351228 -4.0673594 -1.0186241
-0.19917217 -4.080718 -1.0224
-0.22213955 -4.0417318 -1.0125824
-0.2498233 -4.0876265 -1.0249174
-0.27451059 -4.0802231 -1.023407
-0.3010987 -4.0996962 -1.028945
-0.32463723 -4.0775118 -1.0236586
-0.3446922 -4.0175872 -1.0085548
-0.36898294 -4.0115418 -1.0075479
-0.39113438 -3.9841597 -1.0010028
-0.41627595 -3.9884226 -1.0027649
-0.44647941 -4.0377383 -1.0163585
-0.47393829 -4.0579934 -1.0224
-0.49752995 -4.0444427 -1.0196309
-0.52084929 -4.0297961 -1.0166101
-0.549721 -4.0572138 -1.0246656
-0.5790844 -4.0853858 -1.0329727
-0.60654831 -4.0980315 -1.0372522
-0.62607765 -4.0578856 -1.0276864
-0.65357149 -4.0702124 -1.0319659
-0.67678225 -4.055625 -1.0291967
-0.70330501 -4.0609322 -1.0317141
-0.72496188 -4.0384412 -1.0269312
-0.74972767 -4.033917 -1.0269312
-0.76734436 -3.9921744 -1.0171137
-0.78428882 -3.9494197 -1.0070443
-0.80811876 -3.9426367 -1.0065409
-0.83429563 -3.947073 -1.0090582
-0.86364508 -3.9655209 -1.0153515
-0.89367545 -3.9856448 -1.0221483
-0.92224556 -3.9980044 -1.0269312
-0.94854528 -3.999804 -1.028945
-0.9767338 -4.0089536 -1.0329727
-0.75058341 -3.0001495 -0.76412344
-0.76897788 -2.9954875 -0.76412344
-0.78685081 -2.9888408 -0.76361996
-0.80542719 -2.9848912 -0.76387167
-0.82140738 -2.9714973 -0.7616061
-0.84015155 -2.9682636 -0.76210958
-0.86184782 -2.9751377 -0.76538211
-1.1714427 -3.9534147 -1.0322175
-1.1962395 -3.948005 -1.032721
-1.2258798 -3.9581561 -1.0375038
-1.2498517 -3.9496369 -1.0372522
-1.251151 -3.8709829 -1.0178689
-1.0938693 -3.3145444 -0.86758512
-1.0845385 -3.2197192 -0.8434189
-1.0954691 -3.187376 -0.83637041
-1.1076443 -3.1595876 -0.83058053
-1.3891693 -3.8863754 -1.0332245
-1.138384 -3.1239328 -0.82453901
-1.1393422 -3.0678952 -0.81094551
-1.1780032 -3.1133487 -0.82554591
-1.2364004 -3.2081115 -0.85399157
-1.547671 -3.9437404 -1.0616701
-1.2221867 -3.0587831 -0.81648362
-1.2318196 -3.0288129 -0.81019032
-1.2559308 -3.0346117 -0.81396627
-1.2722743 -3.0214963 -0.81245589
-1.6526787 -3.8588231 -1.0516008
-1.6782569 -3.8530462 -1.0528595
-1.7022589 -3.8435612 -1.0531112
-1.7285912 -3.8392215 -1.0548733
-1.7811068 -3.8919067 -1.072998
-1.7568041 -3.7773516 -1.0432937
-1.7729203 -3.7516251 -1.0390143
-1.7921373 -3.7328236 -1.0367486
-1.8616621 -3.8174472 -1.0644392
-1.8369509 -3.7088158 -1.0362452
-1.8505429 -3.6793172 -1.0309589
-1.8700035 -3.6618595 -1.0291967
-1.9004533 -3.6657827 -1.0337279
-1.9179536 -3.6446314 -1.0309589
-1.9398247 -3.6319406 -1.0307071
-1.9579235 -3.6123116 -1.0284415
-1.9819167 -3.6036222 -1.0294485
-2.0016332 -3.5871677 -1.0281898
-2.005969 -3.5436547 -1.0188757
-2.0686307 -3.602622 -1.040273
-2.1189415 -3.6383698 -1.0548733
-2.1279397 -3.6027994 -1.0480766
-2.1614416 -3.608772 -1.0538664
-2.180028 -3.5896509 -1.0521044
-2.1954169 -3.5654931 -1.0488318
-2.1829221 -3.4969468 -1.0319659
-2.2001984 -3.4769437 -1.0299519
-2.2324624 -3.4804864 -1.0352383
-2.2748733 -3.4991806 -1.0453075
-2.2861855 -3.4698007 -1.0405247
-2.310657 -3.460537 -1.0420351
-2.3313046 -3.4454925 -1.0417833
-2.352402 -3.431123 -1.0417833
-2.3645775 -3.4039061 -1.0377556
-2.4060256 -3.4186182 -1.0470697
-2.4421246 -3.4250681 -1.0538664
-2.4330642 -3.3684356 -1.0405247
-2.4794004 -3.388593 -1.0518526
-2.5012982 -3.374871 -1.052356
-2.4865205 -3.3122439 -1.0370004
-2.5425246 -3.3439221 -1.052356
-2.5954671 -3.3704348 -1.0662013
-2.6119332 -3.3491035 -1.0644392
-2.6792161 -3.3922582 -1.0840743
-2.6419556 -3.3031936 -1.059908
-2.6536472 -3.276391 -1.0563837
-2.6921103 -3.2824979 -1.0639358
-2.620702 -3.1557181 -1.0266794
-2.660568 -3.1640241 -1.0349866
-2.8637381 -3.3635659 -1.1087439
-2.9058051 -3.370856 -1.1173028
-2.7158113 -3.111599 -1.0339797
-2.8886404 -3.2689433 -1.0943953
-2.9215484 -3.265584 -1.0994298
-2.9369833 -3.2425747 -1.0976677
-2.9561701 -3.2237792 -1.097416
-2.9890628 -3.2197666 -1.1024506
-3.0385857 -3.233103 -1.1137786
-3.1023912 -3.2606771 -1.1303928
-2.887373 -2.9975965 -1.0422868
-3.2387819 -3.321454 -1.1663904
-3.1761606 -3.2174847 -1.1356792
-4.6467175 -4.6500134 -1.6696018
-2.8891792 -2.855752 -1.0163585
-2.9170334 -2.8481131 -1.0201344
-3.4505887 -3.328048 -1.2066675
-3.4429185 -3.2801077 -1.1965982
-3.3227386 -3.1269212 -1.1465037
-3.4524333 -3.209275 -1.1857737
-3.4756241 -3.191304 -1.1870325
-3.4585824 -3.1367559 -1.1741941
-3.3963139 -3.0424979 -1.1457485
-3.1242952 -2.764406 -1.0448041
-3.7758682 -3.2999458 -1.2640623
-3.136739 -2.7075171 -1.0375038
-3.1577117 -2.691987 -1.0390143
-3.3111196 -2.7878911 -1.0855846
-3.2850068 -2.7316287 -1.0709842
-3.3368554 -2.7402916 -1.0828155
-3.3460906 -2.7136688 -1.0802983
-3.3792958 -2.7063975 -1.0858363
-3.3373921 -2.6393805 -1.066453
-3.271914 -2.5551093 -1.0395178
-3.2990255 -2.5438507 -1.0432937
-3.3769395 -2.5710533 -1.063684
-3.3725393 -2.5351627 -1.0571389
-3.4564164 -2.5651834 -1.0792913
-3.4002733 -2.4912975 -1.0561321
-3.3833466 -2.4471292 -1.0458111
-3.3856966 -2.4173243 -1.0417833
-3.4091666 -2.4026382 -1.0445523
-3.4206669 -2.3794637 -1.0435455
-3.4663172 -2.379796 -1.053363
-3.5353327 -2.3954022 -1.0704807
-3.5025003 -2.341922 -1.0556285
-3.4441059 -2.2724109 -1.0329727
-3.4871809 -2.2702472 -1.0420351
-3.5010452 -2.2488074 -1.0420351
-3.4788108 -2.2044864 -1.0309589
-3.5103247 -2.1943872 -1.036497
-3.5344317 -2.1794114 -1.0397695
-3.5278938 -2.145612 -1.0337279
-3.580828 -2.1478238 -1.0458111
-3.6097651 -2.1351748 -1.050594
-3.6395173 -2.1227388 -1.0556285
-3.6566684 -2.1027799 -1.0568873
-3.6602414 -2.0750523 -1.0541182
-3.6855764 -2.0596373 -1.0578941
-3.6727149 -2.022974 -1.0503422
-3.6637955 -1.9888557 -1.0440489
-3.6332633 -1.9435091 -1.0314623
-3.6125877 -1.9040289 -1.0218965
-3.6259203 -1.8827188 -1.0224
-3.6804838 -1.8824744 -1.0349866
-3.7083864 -1.8681302 -1.0397695
-3.7978034 -1.884057 -1.0624253
-3.802336 -1.8573198 -1.0604115
-3.8258708 -1.8398273 -1.0639358
-3.8388371 -1.8171458 -1.0644392
-3.8727226 -1.8041852 -1.0709842
-3.9224277 -1.7981375 -1.0820603
-3.9669099 -1.7891593 -1.0916262
-4.0096593 -1.7789172 -1.1006885
-4.0373521 -1.7616363 -1.1054714
-4.0836596 -1.7520972 -1.1155406
-4.1014667 -1.7300171 -1.1175545
-4.0950193 -1.6977745 -1.1127716
-4.2523417 -1.732515 -1.1540556
-4.3392606 -1.7369678 -1.1754528
-4.3453336 -1.7085388 -1.1741941
-4.4415016 -1.7149688 -1.1981087
-4.4492259 -1.6866546 -1.1973535
-4.4041634 -1.6387308 -1.1819978
-4.5886769 -1.675421 -1.2303302
-4.7045569 -1.6850985 -1.2595311
-4.851769 -1.7043235 -1.2972908
-4.8840957 -1.6820866 -1.3033324
-5.0071087 -1.6901667 -1.3342954
-5.1184559 -1.6928476 -1.3619858
-5.2594824 -1.7037705 -1.3977318
-5.282752 -1.6755642 -1.401256
-5.4389677 -1.6884638 -1.4410295
-5.9520473 -1.8078161 -1.5777198
-6.0511608 -1.7974463 -1.6016343
-6.2860589 -1.8253378 -1.6623015
-6.3604507 -1.8047004 -1.6794194
-6.2846694 -1.7415979 -1.6560084
-6.4428415 -1.7429428 -1.6957819
-6.5207872 -1.7211648 -1.7139065
-6.6174512 -1.7033212 -1.7370659
-6.685977 -1.677289 -1.7526733
-6.8033166 -1.662428 -1.7813706
-6.9875698 -1.6620938 -1.8279409
-7.2559834 -1.6789817 -1.8969154
-7.3350754 -1.649936 -1.9152918
-7.3838253 -1.6133701 -1.9256128
-7.3973727 -1.5688367 -1.9266198
-7.4324541 -1.5286833 -1.9334165
-7.4606767 -1.4868338 -1.9384511
-7.4630075 -1.4397444 -1.936689
-7.4859715 -1.3965882 -1.940465
-7.4353485 -1.3399836 -1.9248576
-7.4453373 -1.2946676 -1.925361
-7.4350061 -1.2459195 -1.9205781
-7.4788179 -1.206133 -1.930144
-7.4344335 -1.1522144 -1.9165505
-7.4365773 -1.1058638 -1.9152918
-7.4863381 -1.0663567 -1.9266198
-7.4975348 -1.0210545 -1.9278784
-7.4988604 -0.97440755 -1.9266198
-7.519105 -0.93016005 -1.9303957
-7.519865 -0.88344133 -1.929137
-7.5145636 -0.83610588 -1.926368
-7.505115 -0.78846413 -1.922592
-7.5387044 -0.74525654 -1.930144
-7.4843521 -0.69353563 -1.9147884
-7.4836454 -0.64718229 -1.9135296
-7.5193105 -0.60380936 -1.9218369
-7.491024 -0.55529773 -1.9135296
-7.5493274 -0.51306653 -1.9278784
-7.5475035 -0.46643633 -1.9266198
-7.5550551 -0.42038605 -1.9278784
-7.5478263 -0.37354231 -1.925361
-7.5509429 -0.32726464 -1.9256128
-7.5644145 -0.28135902 -1.9286336
-7.5737371 -0.23518007 -1.9306474
-7.1980758 0.52869326 -1.9258791
-7.2004671 0.57331026 -1.9274563
-7.2016201 0.61789387 -1.9287705
-7.2236338 0.66446084 -1.9358679
-7.2069383 0.70754421 -1.9324507
-7.246603 0.75636625 -1.9445424
-7.2245641 0.79890478 -1.9398109
-7.1831107 0.83895969 -1.9298221
-7.1893187 0.88443416 -1.9329764
-7.1636629 0.92592984 -1.9274563
-7.151154 0.96895993 -1.9256163
-7.1336107 1.0111935 -1.9224619
-7.1597219 1.0597539 -1.9313992
-7.1158972 1.0979214 -1.9211476
-7.0995002 1.1400318 -1.9185189
-7.0914197 1.183413 -1.918256
-7.0954328 1.2288805 -1.9214104
-7.0896583 1.2727355 -1.9219362
-7.0750756 1.3149776 -1.9200962
-7.0858231 1.3620102 -1.9253534
-7.0602989 1.4020768 -1.9206219
-7.0430565 1.4436266 -1.918256
-7.0350099 1.4870145 -1.9185189
-7.0295243 1.5309744 -1.9195704
-7.040709 1.5787255 -1.9253534
-7.008327 1.6166881 -1.9190447
-6.9804392 1.655427 -1.9140503
-6.985148 1.7018838 -1.918256
-6.9764462 1.7451804 -1.9187818
-6.9749513 1.7903545 -1.9214104
-6.9694328 1.8345928 -1.9229876
-6.94873 1.8748071 -1.920359
-6.9380255 1.9176656 -1.9206219
-6.9131317 1.95652 -1.9169418
-6.9102635 2.0015872 -1.9195704
-6.8876767 2.0409331 -1.9166789
-6.8584042 2.0781178 -1.9119474
-6.810503 2.1093085 -1.9019586
-6.8848162 2.1787255 -1.9269305
-6.8465314 2.212913 -1.9198333
-6.8044229 2.2455032 -1.9116845
-6.7886877 2.2865958 -1.9111588
-6.7699676 2.3266387 -1.9098445
-6.7610269 2.3700507 -1.9114217
-6.7436318 2.410516 -1.9106331
-6.7169304 2.4475527 -1.9072158
-6.6981683 2.4873769 -1.9061644
-6.6872916 2.5301371 -1.9074787
-6.6815438 2.57494 -1.9103702
-6.6745992 2.6194148 -1.9129988
-6.6530256 2.6581714 -1.9114217
-6.6419525 2.7011254 -1.9129988
-6.6297107 2.743674 -1.9143132
-6.605638 2.7813053 -1.9122102
-6.5866742 2.8210242 -1.9116845
-6.5595112 2.8571465 -1.908793
-6.5515599 2.9016404 -1.9116845
-6.5353918 2.9425781 -1.9122102
-6.4987907 2.9741883 -1.9066901
-6.4672976 3.0079029 -1.9027472
-6.4670372 3.0561888 -1.9082673
-6.4464235 3.0949769 -1.9077415
-6.3934937 3.1179738 -1.8974899
-6.3889384 3.1644273 -1.9019586
-6.3745732 3.2061715 -1.9035357
-6.3487659 3.242152 -1.9016957
-6.3544478 3.2943728 -1.9095817
-6.3196006 3.32566 -1.905113
-6.319499 3.3752863 -1.9114217
-6.2952771 3.412159 -1.9103702
-6.2733765 3.4502566 -1.9101074
-6.2369237 3.4802194 -1.9053758
-6.2322435 3.5279317 -1.9106331
-6.2004395 3.5603387 -1.9074787
-6.1634712 3.5895741 -1.9027472
-6.1346846 3.6233985 -1.9006443
-6.1115084 3.660476 -1.9003814
-6.0881085 3.6974058 -1.9001186
-6.0735221 3.7397523 -1.9027472
-6.0259099 3.7616167 -1.8948613
-6.0190201 3.8088415 -1.9001186
-5.9922881 3.8436177 -1.899067
-5.9944739 3.897146 -1.9074787
-5.9511147 3.9211106 -1.90117
-5.9413843 3.9671986 -1.9059016
-5.9145331 4.0019569 -1.905113
-5.878727 4.0305324 -1.9014329
-5.8673549 4.0758877 -1.9059016
-5.8248792 4.0995927 -1.9001186
-5.8082552 4.1414194 -1.90301
-5.7819524 4.176415 -1.9027472
-5.7741246 4.2249207 -1.908793
-5.7418919 4.2556739 -1.9066901
-5.713357 4.2890868 -1.9059016
-5.6700373 4.3112125 -1.9001186
-5.6434774 4.345922 -1.9001186
-5.6265945 4.3881831 -1.9035357
-5.6025915 4.4250174 -1.9045873
-5.5723209 4.4568996 -1.9035357
-5.5313754 4.4800739 -1.8988042
-5.512733 4.5212731 -1.9019586
-5.4804344 4.5513144 -1.9003814
-5.4620032 4.5929303 -1.9037986
-5.4116831 4.6075902 -1.8959128
-5.397923 4.6533108 -1.90117
-5.3569136 4.6755567 -1.8967013
-5.3136663 4.6955576 -1.8914441
-5.3041668 4.7454462 -1.8985413
-5.2563596 4.7610588 -1.8917069
-5.2092719 4.7769165 -1.8851354
-5.1678448 4.7976284 -1.8806667
-5.172051 4.86097 -1.8932841
-5.1456218 4.8959394 -1.8945985
-5.1307693 4.9421482 -1.9003814
-5.0982761 4.9715161 -1.8995929
-5.0594373 4.9945693 -1.8964385
-5.0095906 5.0064197 -1.8890783
-4.9835243 5.0418682 -1.8909184
-4.9356461 5.05509 -1.8843467
-4.9011874 5.0818067 -1.8830324
-4.9005222 5.1439228 -1.8951242
-4.8602729 5.1647596 -1.8917069
-4.8370295 5.2036724 -1.8951242
-4.7945704 5.2218814 -1.8909184
-4.7566066 5.2447686 -1.8885525
-4.7346344 5.285356 -1.8927584
-4.7072287 5.3200893 -1.8948613
-4.6662445 5.3394265 -1.8914441
-4.6308732 5.3650355 -1.8903927
-4.600996 5.3970208 -1.8917069
-4.582705 5.4428663 -1.8980156
-4.5430546 5.4634628 -1.8953871
-4.5076089 5.4889984 -1.8945985
-4.4853888 5.5307937 -1.8995929
-4.4139824 5.5115137 -1.8832953
-4.3806796 5.5392504 -1.8835582
-4.3596706 5.582757 -1.8893412
-4.3082514 5.5872416 -1.8817182
-4.2896643 5.6343012 -1.8888154
-4.2596493 5.6666865 -1.8909184
-4.2328472 5.7035646 -1.8945985
-4.1835184 5.70997 -1.8880268
-4.1500998 5.7378778 -1.8888154
-4.0951972 5.7357478 -1.8796153
-4.0649271 5.7678661 -1.881981
-4.0393744 5.8069582 -1.8867126
-4.0009379 5.8276567 -1.8853983
-3.9559066 5.8385158 -1.8809296
-3.9323392 5.8811283 -1.8869754
-3.8945856 5.9027295 -1.8861868
-3.860399 5.92975 -1.8872383
-3.8187289 5.9452066 -1.8846097
-3.8141892 6.0190597 -1.9009072
-3.7684929 6.0284405 -1.8964385
-3.7375073 6.061306 -1.8995929
-3.6947322 6.0750561 -1.8967013
-3.6568906 6.0967846 -1.8964385
-3.6194127 6.1191082 -1.8964385
-3.5745089 6.1286983 -1.8924955
-3.5209692 6.1229119 -1.883821
-3.476198 6.1318097 -1.8798782
-3.4653289 6.201036 -1.8948613
-3.4118581 6.1942906 -1.8861868
-3.3797686 6.2261333 -1.8896041
-3.3642495 6.2892962 -1.9027472
-3.3296432 6.3175025 -1.905113
-3.269038 6.2958527 -1.8922327
-3.2299066 6.3149333 -1.8919698
-3.1928337 6.3380799 -1.8930212
-3.1581702 6.3661952 -1.8956499
-3.113122 6.3733158 -1.8919698
-3.0885873 6.4227328 -1.90117
-3.0441682 6.4310975 -1.8980156
-3.0095379 6.4601512 -1.90117
-2.9698427 6.4784956 -1.90117
-2.9173465 6.4684496 -1.8927584
-2.8815131 6.4950485 -1.8953871
-2.8304205 6.4869595 -1.887764
-2.8034933 6.5343537 -1.8967013
-2.766345 6.5585446 -1.8988042
-2.739717 6.6083746 -1.9085301
-2.7005727 6.6286354 -1.9095817
-2.6508894 6.6226859 -1.90301
-2.6225548 6.6702561 -1.9122102
-2.5836616 6.6916232 -1.9137874
-2.5370843 6.692914 -1.9095817
-2.5047135 6.7318678 -1.916416
-2.4554226 6.7253571 -1.9101074
-2.4121592 6.7348461 -1.9085301
-2.3730268 6.7558928 -1.9103702
-2.3330989 6.7748876 -1.9116845
-2.2859337 6.7726197 -1.906953
-2.24494 6.7883506 -1.9074787
-2.2148347 6.8377972 -1.9177303
-2.1632168 6.8209071 -1.9090558
-2.1287565 6.8580108 -1.9158903
-2.0843947 6.8635578 -1.9137874
-2.0403197 6.8697433 -1.9119474
-1.9871058 6.844142 -1.90117
-1.9537584 6.886838 -1.9098445
-1.9153268 6.9126439 -1.9137874
-1.8648192 6.8944612 -1.9053758
-1.8229725 6.9076395 -1.9059016
-1.7788715 6.9121542 -1.9040614
-1.7359567 6.9210672 -1.9035357
-1.6918553 6.9250274 -1.9016957
-1.651563 6.944665 -1.9043244
-1.6126146 6.9706488 -1.908793
-1.5731977 6.9954743 -1.9129988
-1.5253065 6.9823723 -1.9066901
-1.4772354 6.9670587 -1.8998557
-1.4346528 6.9769368 -1.9001186
-1.3933231 6.9931784 -1.9022214
-1.3529434 7.0148597 -1.9059016
-1.3134105 7.0419993 -1.9111588
-1.2723989 7.0622702 -1.9145761
-1.2255747 7.0499821 -1.9090558
-1.1800641 7.0440469 -1.9053758
-1.1382012 7.0597277 -1.9077415
-1.0944194 7.0637183 -1.906953
-1.0524738 7.0798445 -1.9095817
-1.0087411 7.0842586 -1.9090558
-0.96538401 7.0912709 -1.9093188
-0.92334408 7.1085424 -1.9124731
-0.87320566 7.0614085 -1.8980156
-0.83323246 7.0953813 -1.9059016
-0.78712451 7.0773458 -1.8995929
-0.74056512 7.0522957 -1.8914441
-0.70362514 7.1210384 -1.9090558
-0.65645391 7.0877533 -1.8988042
-0.61295187 7.0916476 -1.8988042
-0.57150656 7.1212425 -1.9059016
-0.52772957 7.1236529 -1.9056387
-0.48524886 7.1450467 -1.9106331
-0.43967852 7.1199627 -1.90301
-0.39705101 7.1417933 -1.9082673
-0.35445702 7.1691504 -1.9151018
-0.3107523 7.177938 -1.9169418
-0.26638252 7.171032 -1.9145761
-0.22127637 7.1368494 -1.9048501
-0.17814843 7.1650801 -1.9122102
-0.13391238 7.1515684 -1.9082673
-0.090028659 7.1522555 -1.9082673
-0.046153687 7.1546025 -1.908793
-0.0022532961 7.1566811 -1.9093188
0.041751679 7.1719971 -1.9135245
0.085558668 7.1552048 -1.9090558
0.12988326 7.1776972 -1.9153646
0.17354584 7.1613326 -1.9111588
0.21783707 7.1717057 -1.9143132
0.26059994 7.1364875 -1.905113
0.30508548 7.1511412 -1.9095817
0.34914708 7.1529894 -1.9106331
0.392818 7.1468587 -1.9095817
0.43589568 7.1317949 -1.9061644
0.478219 7.1078076 -1.9003814
0.5221768 7.1095505 -1.9016957
0.56732506 7.1254482 -1.906953
0.60930002 7.1016459 -1.9014329
0.65118134 7.0795193 -1.8964385
0.69904608 7.1205201 -1.908793
0.74071735 7.0969048 -1.9035357
0.78488642 7.09798 -1.905113
0.82876027 7.0959053 -1.9059016
0.8729921 7.0964322 -1.9074787
0.91726154 7.096683 -1.9090558
0.96014017 7.0861406 -1.9077415
1.0022461 7.0705633 -1.905113
1.0474499 7.0766878 -1.9085301
1.0929139 7.083477 -1.9122102
1.1311505 7.0442491 -1.9032729
1.173557 7.0324178 -1.9019586
1.2173443 7.0288873 -1.90301
1.2577196 7.0060916 -1.8988042
1.2959201 6.972631 -1.8917069
1.3441473 6.9929719 -1.8995929
1.3875943 6.987432 -1.9003814
1.4337384 6.994854 -1.9048501
1.4750335 6.9783735 -1.9027472
1.5157695 6.9597645 -1.9001186
1.5523189 6.9230313 -1.8924955
1.588475 6.8861132 -1.8848726
1.6445104 6.9344397 -1.90117
1.6829145 6.9073462 -1.8964385
1.7266712 6.9025054 -1.8980156
1.7721121 6.9039297 -1.9014329
1.8159151 6.8985243 -1.90301
1.8471442 6.8462667 -1.8914441
1.879087 6.7985373 -1.8811924
1.9354886 6.8388653 -1.8959128
1.9766089 6.8240809 -1.8951242
2.0181692 6.8108988 -1.8948613
2.059922 6.7983875 -1.8948613
2.0887456 6.7441483 -1.8830324
2.1423199 6.7698379 -1.8940727
2.1731308 6.7235165 -1.8846097
2.2206972 6.7292957 -1.8901298
2.2610214 6.7128 -1.8893412
2.3093834 6.7197857 -1.8953871
2.3480172 6.6982055 -1.8932841
2.3858235 6.6745872 -1.8906555
2.4287159 6.6652613 -1.8922327
2.4615028 6.6285272 -1.885924
2.5048609 6.6205177 -1.8880268
2.5586262 6.6392326 -1.8980156
2.5905001 6.600956 -1.8914441
2.6169875 6.5499964 -1.8811924
2.6593099 6.5391774 -1.8827696
2.6864653 6.4915366 -1.8735694
2.7105148 6.4375858 -1.8625292
2.7533841 6.4288149 -1.864895
2.8054981 6.4409876 -1.8735694
2.840667 6.413949 -1.8706779
2.8819501 6.4007969 -1.8719922
2.9223754 6.3856249 -1.8727808
2.9676073 6.3806949 -1.8767238
3.012476 6.3745775 -1.8804039
3.0247982 6.3003116 -1.8635806
3.0642452 6.2833676 -1.8641063
3.0993147 6.2575312 -1.8620034
3.1441569 6.2513247 -1.8659464
3.1793823 6.2259002 -1.8641063
3.2250755 6.2208352 -1.868575
3.2663314 6.2069054 -1.8704151
3.2938969 6.1671743 -1.8643692
3.3169591 6.1197057 -1.8559576
3.3670042 6.1220622 -1.8630549
3.4073267 6.1063418 -1.8646321
3.4404514 6.077764 -1.8622663
3.4959412 6.0883312 -1.8722551
3.5366325 6.0726018 -1.8740951
3.5316172 5.9793496 -1.8514889
3.573694 5.9666715 -1.8543804
3.6167502 5.9553509 -1.8577976
3.6577775 5.9404402 -1.8601635
3.7069347 5.938344 -1.866735
3.7355611 5.9032588 -1.862792
3.7816124 5.8956552 -1.8677864
3.8213985 5.8780026 -1.8696265
3.8526146 5.8471942 -1.8672607
3.8803811 5.81141 -1.8633177
3.9094763 5.7779031 -1.8601635
3.9595895 5.7752895 -1.8672607
3.9877939 5.7405849 -1.8638434
4.0229425 5.7160082 -1.8638434
4.0629816 5.6982861 -1.8662093
4.0910883 5.6638641 -1.8630549
4.1360216 5.652669 -1.8677864
4.1712027 5.6279597 -1.8680493
4.2108712 5.6092033 -1.8704151
4.2399526 5.5763488 -1.8680493
4.2793875 5.557107 -1.8704151
4.3139982 5.5315051 -1.8706779
4.3418765 5.4973602 -1.8680493
4.3845673 5.4819164 -1.8719922
4.4144769 5.4504118 -1.8704151
4.4521208 5.4284439 -1.8722551
4.4773302 5.391376 -1.8688378
4.5072217 5.3601103 -1.8675236
4.5356464 5.3272119 -1.8656836
4.5858908 5.3197403 -1.8730437
4.6203494 5.2936821 -1.8738322
4.6329346 5.2428231 -1.8656836
4.680459 5.2315521 -1.8719922
4.7118235 5.2020202 -1.8717294
4.7345228 5.1630569 -1.8680493
4.7661138 5.1339092 -1.8680493
4.8008294 5.1080828 -1.8693635
4.8407292 5.087615 -1.8727808
4.8792191 5.0654597 -1.8756723
4.8987551 5.0236845 -1.8712037
4.9396567 5.0038295 -1.8751466
4.9634452 4.9666028 -1.8725179
5.0000033 4.9421573 -1.8748838
5.0474949 4.9282331 -1.8814553
5.0630527 4.8831062 -1.8759352
5.0978103 4.856606 -1.8777752
5.1057291 4.8047409 -1.8696265
5.1457157 4.7831736 -1.8735694
5.2005572 4.7749977 -1.8830324
5.2111735 4.7261481 -1.8761981
5.255887 4.7082443 -1.881981
5.2904587 4.6810203 -1.8840839
5.3089089 4.6395836 -1.8804039
5.3270502 4.5980968 -1.8767238
5.3558979 4.5659499 -1.8769866
5.3852892 4.5342436 -1.8775123
5.4174614 4.5048151 -1.8790895
5.4412718 4.4684286 -1.8777752
5.4978166 4.4586539 -1.8880268
5.5077477 4.4109674 -1.881981
5.5339522 4.3764911 -1.8817182
5.5607018 4.342453 -1.8817182
5.5910625 4.3111963 -1.8830324
5.628159 4.2849898 -1.8867126
5.6296625 4.2318277 -1.8783009
5.6415749 4.1868577 -1.8735694
5.6656022 4.1510224 -1.8730437
5.7324047 4.1461425 -1.8869754
5.7624488 4.1142545 -1.8885525
5.7686553 4.0654826 -1.8822439
5.800621 4.0349679 -1.8846097
5.8395891 4.0091271 -1.8893412
5.8736649 3.9797134 -1.8924955
5.8883476 3.9371645 -1.8893412
5.9051461 3.8961792 -1.8869754
5.9135766 3.8498735 -1.881981
5.975246 3.838017 -1.8943356
5.9840121 3.7919879 -1.8896041
6.0161672 3.7608235 -1.8924955
6.0029907 3.7015624 -1.8809296
6.0198193 3.6611507 -1.8790895
6.0446529 3.6256332 -1.8798782
6.0950232 3.6051719 -1.8888154
6.1170292 3.5677056 -1.8888154
6.1563711 3.5402026 -1.8943356
6.1746202 3.5004585 -1.8932841
6.1841898 3.4559183 -1.8896041
6.2238727 3.4281456 -1.8953871
6.2507262 3.3931131 -1.897227
6.2926993 3.3660693 -1.9037986
6.2953086 3.3179505 -1.8982785
6.318974 3.2810388 -1.89933
6.3484373 3.2470357 -1.9022214
6.3587618 3.203248 -1.89933
6.354094 3.1521695 -1.8919698
6.3672466 3.1101587 -1.8901298
6.4044719 3.0798094 -1.8956499
6.4153991 3.0367405 -1.8932841
6.4627752 3.0107598 -1.9019586
6.462707 2.9626081 -1.8964385
6.4957166 2.9296389 -1.9009072
6.4950485 2.8815131 -1.8953871
6.520566 2.8450773 -1.8977528
6.5574088 2.8133802 -1.9035357
6.5576558 2.7659702 -1.8985413
6.5851998 2.7301135 -1.9016957
6.6027212 2.6900198 -1.9019586
6.6361227 2.6562653 -1.906953
6.637929 2.6098506 -1.9027472
6.6538177 2.5690718 -1.9027472
6.6730647 2.5295639 -1.9037986
6.7065468 2.4952972 -1.9090558
6.7244506 2.4550917 -1.9098445
6.7166786 2.4056556 -1.9032729
6.7367749 2.3663151 -1.9048501
6.7666769 2.3302727 -1.9093188
6.7470217 2.2772982 -1.8995929
6.7965956 2.2476652 -1.9098445
6.8368793 2.2145376 -1.9174675
6.8264251 2.1649659 -1.9106331
6.8358946 2.1218956 -1.9095817
6.8487859 2.0799112 -1.9095817
6.8688183 2.0400453 -1.9116845
6.8691607 1.9943652 -1.9082673
6.897049 1.9566532 -1.9127359
6.9042754 1.9130095 -1.9114217
6.9196091 1.8716168 -1.9124731
6.9104385 1.8237107 -1.9066901
6.9355149 1.7848794 -1.9106331
6.9351053 1.7394754 -1.9074787
6.9606452 1.7005509 -1.9116845
6.9869061 1.6616014 -1.9161532
6.9856896 1.6160916 -1.9129988
7.0058289 1.5755247 -1.9158903
7.0059381 1.5304505 -1.9132617
7.0076456 1.4858342 -1.9111588
6.9930034 1.4379538 -1.9045873
7.0206203 1.3987859 -1.9098445
7.043282 1.3584204 -1.9137874
7.0628667 1.317299 -1.9169418
7.0774632 1.2751337 -1.9187818
7.0842037 1.2315181 -1.9185189
7.0773525 1.1856382 -1.9145761
7.1187863 1.1477131 -1.9240391
6.5154667 1.009567 -1.7558068
6.5119948 0.9681527 -1.7531782
5.9064717 0.84122872 -1.584946
5.8713689 0.79951173 -1.5739058
5.8474598 0.75974685 -1.5660199
5.8213692 0.72006917 -1.5576082
5.8007631 0.6814146 -1.5507739
5.8019581 0.64548951 -1.5499853
5.7923756 0.60846871 -1.5463052
5.7671947 0.57007438 -1.5384194
5.7705841 0.53467685 -1.5384194
5.7727952 0.4991762 -1.5381564
5.768055 0.46312937 -1.5360535
5.7630906 0.42715955 -1.5339507
5.7502012 0.39074633 -1.5297449
0 0 -0
0 0 -0
0 0 -0
0 0 -0
0 0 -0
0 0 -0
0 0 -0
0 0 -0
0 0 -0
0 0 -0
0 0 -0
0 -0 -0
0 -0 -0
0 -0 -0
0 -0 -0
0 -0 -0
0 -0 -0
0 -0 -0
0 -0 -0
0 -0 -0
0 -0 -0
0 -0 -0
0 -0 -0
0 -0 -0
0 -0 -0
6.0476599 -0.55610001 -1.6141238
6.4714236 -0.63521576 -1.7310977
7.1458445 -0.74583334 -1.9169418
7.2159333 -0.79794896 -1.937445
7.225276 -0.84389132 -1.941388
7.2027249 -0.88608557 -1.9366565
7.2229877 -0.93360752 -1.9437538
7.1903529 -0.97427768 -1.9363936
7.1966581 -1.0201409 -1.9398109
7.1053205 -1.0516927 -1.916416
7.0186372 -1.082899 -1.8943356
6.7394156 -1.0821501 -1.8191568
6.6260643 -1.1056776 -1.7897161
6.5193367 -1.129009 -1.7621156
6.4135256 -1.1512437 -1.7347778
6.3475304 -1.1796342 -1.7184803
6.2785878 -1.2067119 -1.7013942
6.2095547 -1.2329884 -1.6843082
6.294497 -1.2900673 -1.7100687
6.300622 -1.3316605 -1.7140117
6.280077 -1.3676243 -1.7105944
6.2856889 -1.409301 -1.7145374
6.2985454 -1.4528344 -1.7205832
6.2913899 -1.4918997 -1.7211089
6.2240005 -1.5163051 -1.7048115
6.2145791 -1.5544664 -1.7048115
6.2021208 -1.591849 -1.7040229
6.1614475 -1.6217644 -1.6953484
6.123436 -1.6519953 -1.6874626
6.080637 -1.6805353 -1.6782624
6.0572143 -1.7141333 -1.6745822
6.057703 -1.7544904 -1.6777366
6.0588489 -1.7951921 -1.6811538
6.0587997 -1.835694 -1.6843082
6.0253038 -1.8659812 -1.6779995
6.0063825 -1.9005866 -1.6758965
5.9762468 -1.9314677 -1.6706393
5.956954 -1.9656808 -1.6685364
5.9237514 -1.995108 -1.6624906
5.9159603 -2.0329866 -1.6638049
5.8897176 -2.0644581 -1.6598619
5.8796649 -2.1015327 -1.6606505
5.8838825 -2.1438489 -1.6656449
5.8326316 -2.1657982 -1.6546047
5.832768 -2.2066693 -1.6585476
5.8218188 -2.2434583 -1.6593362
5.8178225 -2.2830169 -1.6622277
5.7795153 -2.3090022 -1.6551304
5.7625575 -2.3433304 -1.6543418
5.7391562 -2.3749537 -1.6517131
5.7235866 -2.4097493 -1.6514503
5.7104664 -2.4455831 -1.651976
5.7006602 -2.4828885 -1.6535532
5.7197208 -2.5330637 -1.6638049
5.7137475 -2.5724704 -1.6666963
5.693469 -2.6054726 -1.665382
5.6651282 -2.6346598 -1.6617019
5.6619396 -2.6755564 -1.6656449
5.6497645 -2.7123358 -1.6669593
5.6434212 -2.7520278 -1.6701136
5.6030869 -2.7750373 -1.6630163
5.5730257 -2.8028598 -1.6590734
5.5385389 -2.8282235 -1.6538161
5.5159421 -2.859489 -1.652239
5.4965854 -2.8923814 -1.6517131
5.4949031 -2.9346924 -1.6567075
5.4827299 -2.9715726 -1.6585476
5.4559402 -3.0005071 -1.655919
5.425632 -3.0273438 -1.652239
5.41535 -3.0653322 -1.6548675
5.4073157 -3.1047499 -1.6582848
5.3856626 -3.1364131 -1.6574962
5.3671474 -3.1698906 -1.6577591
5.3517342 -3.2052426 -1.6590734
5.3204226 -3.2310064 -1.6553932
5.3103552 -3.2696633 -1.6585476
5.2746439 -3.2924755 -1.6535532
5.2624946 -3.3299387 -1.6561818
5.2184143 -3.3470557 -1.6485589
5.1694698 -3.3606014 -1.6393586
5.1535859 -3.3954432 -1.6409358
5.1591311 -3.4446862 -1.6496103
5.1259127 -3.4681647 -1.6456673
5.1013532 -3.4973686 -1.6446159
5.060782 -3.5153902 -1.6383072
5.0272832 -3.5380447 -1.6343642
5.0243311 -3.5822713 -1.6406729
5.0186791 -3.6248991 -1.646193
5.015028 -3.6693017 -1.6525018
5.00172 -3.7068999 -1.6556561
4.9835095 -3.7409964 -1.6572334
4.9666052 -3.7761772 -1.6593362
4.9265261 -3.7936268 -1.6535532
4.8780522 -3.8041992 -1.6448787
4.8591609 -3.8376477 -1.6464559
4.8536029 -3.8818572 -1.6527647
4.8117008 -3.8969879 -1.6464559
4.7638297 -3.9068556 -1.6380444
4.7004337 -3.903336 -1.6241126
4.6690116 -3.9258931 -1.6214839
4.6301441 -3.9419558 -1.6162267
4.6752839 -4.0301504 -1.6411986
4.6431994 -4.0524158 -1.6385701
4.6218615 -4.0840249 -1.6398844
4.5880876 -4.1045856 -1.63673
4.5899858 -4.1572781 -1.6467187
4.5636797 -4.1847115 -1.6464559
4.5449867 -4.2192006 -1.6490846
4.5119834 -4.2403998 -1.6464559
4.5033517 -4.2846346 -1.6530275
4.4929571 -4.3275833 -1.6590734
4.4787507 -4.367197 -1.6638049
2.3504415 -2.319433 -0.85918176
2.333436 -2.3310828 -0.85813034
2.3184109 -2.3446703 -0.85786748
4.3136163 -4.4177971 -1.6417243
4.3145542 -4.4733543 -1.6527647
4.3089828 -4.5228 -1.6614391
4.2652841 -4.5322886 -1.6551304
4.2222886 -4.5421181 -1.6490846
4.1943388 -4.5679402 -1.6490846
4.2161317 -4.6486297 -1.669325
4.1701503 -4.655005 -1.6622277
4.135756 -4.6740007 -1.6598619
4.1025558 -4.6942034 -1.6580219
4.0686326 -4.7134438 -1.655919
4.0296221 -4.7265701 -1.6517131
3.9850118 -4.7327523 -1.6451416
3.9423285 -4.7407918 -1.6393586
3.9462237 -4.805162 -1.6535532
3.9342864 -4.8510199 -1.6611762
3.8857539 -4.8517199 -1.6530275
3.8948052 -4.9246678 -1.6701136
2.0293508 -2.5976684 -0.85760462
1.9998257 -2.5924957 -0.85155874
1.9733628 -2.5908978 -0.84682721
1.9452564 -2.5867593 -0.8413071
1.932797 -2.6032958 -0.8428843
1.9133663 -2.610436 -0.8413071
1.7051054 -2.3562913 -0.75193375
1.7113541 -2.3957663 -0.76165968
1.6527231 -2.3439107 -0.74089348
3.5210443 -5.061552 -1.6393586
3.4855533 -5.0766973 -1.6372558
3.4418931 -5.0796151 -1.6312099
3.4170942 -5.1102643 -1.6343642
3.3830178 -5.1271081 -1.63305
3.3535998 -5.1510038 -1.6341014
3.3297503 -5.1836624 -1.6380444
3.3030443 -5.2121463 -1.6406729
3.2623088 -5.2184057 -1.6362042
3.2195964 -5.2210765 -1.6306841
3.1945169 -5.2522755 -1.6343642
3.1627254 -5.2726054 -1.6346271
3.1263855 -5.2852678 -1.6325243
3.0963266 -5.3085194 -1.6338385
3.0574448 -5.3165436 -1.6304213
3.0342796 -5.3519921 -1.6356785
3.0009127 -5.3696671 -1.6354157
2.9665124 -5.3854437 -1.6346271
2.921448 -5.3814955 -1.6277927
2.8942871 -5.4103808 -1.6312099
1.5721376 -2.9815834 -0.87784505
1.5547024 -2.9928863 -0.87837076
1.5376267 -3.0049467 -0.87915933
2.7393754 -5.4375553 -1.6183296
2.7376785 -5.5182261 -1.6377815
2.7088478 -5.5453248 -1.6409358
2.6622314 -5.5357537 -1.63305
2.610883 -5.5153551 -1.6220096
2.573734 -5.5242739 -1.6199068
2.5466218 -5.5548735 -1.6243755
2.5061455 -5.5563211 -1.6201696
2.4806101 -5.5909982 -1.6259526
2.4393148 -5.5901947 -1.6212211
2.4068696 -5.6094904 -1.6225355
2.3716555 -5.622375 -1.6220096
2.3326802 -5.6261253 -1.6188554
2.2904735 -5.6215672 -1.6133353
2.2519946 -5.6256618 -1.6104437
2.2304909 -5.6725993 -1.6201696
2.1949477 -5.6843781 -1.6196439
2.1518233 -5.6760855 -1.6133353
2.1199818 -5.6973205 -1.615701
2.0869684 -5.7156596 -1.6172781
2.056736 -5.7419834 -1.6212211
2.0237024 -5.7608676 -1.6230612
1.9851762 -5.7640533 -1.6204325
1.9553226 -5.7925816 -1.625164
1.9170181 -5.7962251 -1.6227983
1.8930064 -5.843678 -1.63305
1.8504095 -5.8340292 -1.627004
1.807145 -5.8213143 -1.6201696
1.7708316 -5.8304467 -1.6196439
1.7341996 -5.8384275 -1.6188554
1.6972677 -5.845252 -1.6178039
1.6603172 -5.8518434 -1.6167524
1.6246372 -5.8628502 -1.6170152
1.5919058 -5.8848171 -1.6204325
1.5579817 -5.9028702 -1.6227983
1.5176476 -5.8964334 -1.6183296
1.4807355 -5.9028268 -1.6175411
1.4408273 -5.8968048 -1.6133353
1.4079641 -5.9196148 -1.6172781
1.3707464 -5.9243822 -1.6162267
1.3326769 -5.9251504 -1.6141238
1.292592 -5.9162488 -1.6093923
1.2486674 -5.8882012 -1.5994035
1.2109611 -5.8881912 -1.5973005
1.1753742 -5.8983493 -1.5980892
0.7446388 -3.8581114 -1.0300426
0.71830064 -3.8483801 -1.0260997
0.68954617 -3.824228 -1.0182137
0.66804928 -3.8397942 -1.0213681
0.64734286 -3.8609498 -1.0260997
0.62394714 -3.8667543 -1.0266254
0.60139 -3.8781378 -1.0287282
0.58254296 -3.9151578 -1.0379285
0.55946004 -3.9253449 -1.0397686
0.53185421 -3.9028909 -1.0326712
0.50591046 -3.8907719 -1.0284654
0.47836182 -3.8641183 -1.0203167
0.45441827 -3.8650644 -1.019791
0.42909676 -3.8533957 -1.015848
0.40675256 -3.8684306 -1.0192652
0.38603961 -3.9015789 -1.0276768
0.36067152 -3.8885024 -1.023471
0.33655655 -3.8877585 -1.0226824
0.31231025 -3.8849416 -1.0213681
0.28796893 -3.8800495 -1.0195282
0.26298204 -3.8644159 -1.0147966
0.23914684 -3.8640308 -1.0142708
0.21602051 -3.8760223 -1.0171623
0.19280349 -3.8888388 -1.0203167
0.16889682 -3.8889847 -1.0200539
0.14481732 -3.8841629 -1.0184766
0.12044644 -3.8676195 -1.0137451
0.09635552 -3.8538177 -1.0098022
0.072438523 -3.8398664 -1.0058593
0.048924133 -3.8440976 -1.0069107
0.025487959 -3.8684459 -1.0134822
0.0017521732 -3.8752832 -1.0153223
-0.02210697 -3.8887284 -1.0190023
-0.046060883 -3.8962376 -1.0211053
-0.069808371 -3.8871996 -1.0187395
-0.094011426 -3.9011662 -1.0226824
-0.1171811 -3.875442 -1.015848
-0.14208986 -3.905504 -1.0242596
-0.16650499 -3.9151621 -1.0271511
-0.18934497 -3.8899748 -1.0205796
-0.21289121 -3.8829596 -1.0190023
-0.23789293 -3.9008408 -1.0242596
-0.25896686 -3.8569512 -1.0126936
-0.28503603 -3.8880053 -1.021631
-0.30842662 -3.8804126 -1.0200539
-0.33297426 -3.8870986 -1.0224196
-0.36036 -3.9234128 -1.0329341
-0.38357702 -3.9124861 -1.0305684
-0.40727541 -3.9071801 -1.0297798
-0.43272853 -3.9180331 -1.0334598
-0.44947568 -3.8530145 -1.0163738
-0.48207381 -3.9229612 -1.0363513
-0.50526875 -3.9132316 -1.0345113
-0.52978915 -3.913882 -1.0355628
-0.55501443 -3.9191549 -1.0379285
-0.57848573 -3.9118578 -1.036877
-0.60512859 -3.9253983 -1.0416086
-0.63165301 -3.9368532 -1.0458144
-0.65373057 -3.9205317 -1.0423971
