# .PCD v0.7 - Point Cloud Data file format
VERSION 0.7
FIELDS x y z
SIZE 4 4 4
TYPE F F F
COUNT 1 1 1
WIDTH 1539
HEIGHT 1
VIEWPOINT 0 0 0 1 0 0 0
POINTS 1539
DATA ascii
5.8696647 0.72603327 -1.1371311
5.8623195 0.68863326 -1.1347899
5.859611 0.65189201 -1.1334243
5.8361883 0.61306226 -1.1279618
5.8291035 0.57618141 -1.1258157
5.8315525 0.5403136 -1.1256207
5.8161922 0.50292003 -1.121914
5.8181911 0.46714476 -1.1217189
5.830729 0.43215922 -1.1236699
5.8391418 0.39677221 -1.1248404
0 0 -0
0 0 -0
5.8278232 0.28835651 -1.1213287
0 0 -0
0 0 -0
0 0 -0
0 0 -0
0 0 -0
0 0 -0
0 0 -0
0 0 -0
0 -0 -0
0 -0 -0
0 -0 -0
0 -0 -0
0 -0 -0
0 -0 -0
0 -0 -0
0 -0 -0
0 -0 -0
0 -0 -0
0 -0 -0
0 -0 -0
0 -0 -0
0 -0 -0
0 -0 -0
0 -0 -0
6.1751046 -0.64435583 -1.1956581
9.0301991 -0.99886674 -1.767858
8.8690109 -1.0361406 -1.7368387
8.6960297 -1.0700357 -1.7034782
8.5492353 -1.1052465 -1.6753852
8.5899153 -1.1641433 -1.6849446
8.7049637 -1.2341919 -1.7095261
8.7059584 -1.2888752 -1.7112819
8.7211494 -1.3458627 -1.7159641
8.7175694 -1.4001278 -1.7169394
8.7010746 -1.4522986 -1.7153788
8.6717062 -1.502142 -1.7112819
8.6507416 -1.5532408 -1.7089407
8.6207991 -1.6025246 -1.7048439
8.5934677 -1.6520555 -1.7013322
8.5216036 -1.6925164 -1.6888465
8.4169016 -1.725457 -1.6697276
8.3831272 -1.772198 -1.6650455
8.3625126 -1.8215138 -1.6630945
8.341608 -1.8706435 -1.6611437
8.3118162 -1.9175998 -1.657437
8.2989388 -1.9683375 -1.6572418
8.2705059 -2.0152724 -1.6539253
7.3379536 -1.8356746 -1.465273
7.3199024 -1.8789569 -1.4639074
8.0404272 -2.1166995 -1.6145171
7.9666872 -2.1496339 -1.6020312
7.9240432 -2.1903713 -1.5959835
7.9057355 -2.2376149 -1.595008
8.1396074 -2.3578868 -1.6463168
8.1033592 -2.4013739 -1.6418297
7.9777179 -2.4174714 -1.6188091
7.8980927 -2.4463444 -1.6053479
7.8604927 -2.4876547 -1.6006657
7.8002872 -2.5213528 -1.5913013
7.675704 -2.5331881 -1.5684757
7.855196 -2.646014 -1.6094447
7.7516284 -2.6641846 -1.5911062
7.7073703 -2.7019594 -1.5852535
7.7368212 -2.7657139 -1.595008
7.7537994 -2.8255637 -1.6022264
7.8071084 -2.8993888 -1.6172483
7.8487935 -2.9698069 -1.6299292
7.5934076 -2.9265249 -1.5794008
7.7980642 -3.0605233 -1.6270028
7.8538179 -3.1381652 -1.6430002
7.8380485 -3.1877749 -1.6437806
7.8038421 -3.2298052 -1.6406592
7.7820697 -3.2768664 -1.640269
7.757309 -3.322623 -1.6392936
7.7259865 -3.3654568 -1.6369524
7.6989141 -3.410018 -1.6355869
7.6680088 -3.4527626 -1.6334409
7.6431117 -3.4981143 -1.6326605
7.6330638 -3.5503247 -1.6351967
7.611136 -3.5970933 -1.6351967
7.5632825 -3.6314123 -1.629539
7.5417395 -3.6781814 -1.6297342
7.531332 -3.7304838 -1.6324654
7.490778 -3.7678082 -1.6285635
7.4710116 -3.8154845 -1.6293439
7.3978324 -3.8355153 -1.6182238
7.4097414 -3.8995678 -1.6262225
7.3735642 -3.9384887 -1.6234912
7.3647785 -3.9920731 -1.6270028
7.4252167 -4.0839934 -1.6463168
7.4317045 -4.1471648 -1.6535351
7.4103851 -4.1951032 -1.6545106
7.4049163 -4.2522182 -1.6591928
7.3558044 -4.2842431 -1.6539253
7.3251567 -4.3268018 -1.6529498
7.3085656 -4.3777161 -1.655291
7.2706699 -4.4158578 -1.6527548
7.2417679 -4.4593582 -1.6523646
7.2234206 -4.5094233 -1.6545106
7.1483793 -4.5237589 -1.6433904
7.1130581 -4.562768 -1.6416346
7.0610838 -4.5908203 -1.635977
7.0139475 -4.6216455 -1.6314899
6.9732237 -4.6564236 -1.6285635
7.0078745 -4.7420044 -1.6437806
6.9438663 -4.7610612 -1.6353917
6.9282146 -4.8130927 -1.6387082
6.8351965 -4.8109078 -1.6232961
6.7839894 -4.8373799 -1.6180286
6.7398705 -4.8685751 -1.6145171
6.7130365 -4.9121556 -1.6152974
6.6890726 -4.9579268 -1.6168581
6.654604 -4.9959321 -1.6158826
6.6261663 -5.0384512 -1.616468
6.6215434 -5.0993638 -1.623101
6.5321331 -5.0946498 -1.6084692
6.5061369 -5.1388907 -1.6098349
6.4637609 -5.1701365 -1.6071036
6.4387746 -5.2152567 -1.6088594
6.3998289 -5.2490673 -1.6071036
6.3878698 -5.3051591 -1.6123711
6.3281779 -5.3215261 -1.6053479
6.2954063 -5.3602548 -1.6053479
6.2705684 -5.405827 -1.6074938
6.2254596 -5.4338803 -1.6043724
6.1868567 -5.4674296 -1.6030067
6.1838884 -5.5327597 -1.6112006
6.1062145 -5.5310864 -1.5994951
6.1061316 -5.5996099 -1.6086644
6.0270996 -5.5955911 -1.5965687
6.0055146 -5.6445599 -1.6000804
5.973609 -5.6840076 -1.6008607
5.9216695 -5.7042212 -1.5961785
5.9048119 -5.7582545 -1.6012509
5.8630877 -5.7881751 -1.5994951
5.8219128 -5.8184943 -1.5979344
5.7861018 -5.8541074 -1.5979344
5.7397966 -5.8789721 -1.595008
5.7077003 -5.9183164 -1.5961785
5.6415172 -5.9219766 -1.5875946
5.6803417 -6.0364895 -1.6094447
2.2295873 -2.3976696 -0.61194789
2.2115173 -2.407692 -0.61097246
2.1967025 -2.4212162 -0.61097246
5.4493556 -6.0834746 -1.5852535
5.4106259 -6.1153274 -1.5848633
5.3749371 -6.1506271 -1.5854486
5.3332515 -6.1790361 -1.5842781
5.2965097 -6.2131367 -1.5846683
5.2690239 -6.258275 -1.5879848
5.222374 -6.2806821 -1.5854486
5.1482658 -6.2693982 -1.5743284
5.1134067 -6.3054409 -1.5754989
5.0519409 -6.3083687 -1.5682807
5.0204377 -6.3484807 -1.5706217
2.019877 -2.5855327 -0.61331356
1.9908015 -2.5807884 -0.60902154
1.9725525 -2.5898333 -0.6082412
1.9513217 -2.594831 -0.60648537
1.934779 -2.6059675 -0.60629028
1.875288 -2.5584459 -0.59165853
1.764735 -2.4387629 -0.55946863
1.738912 -2.4343774 -0.55576187
4.6798892 -6.6407623 -1.5766696
4.6256161 -6.6500273 -1.5719874
4.5897198 -6.6855621 -1.5737432
4.517261 -6.6673112 -1.562623
4.532403 -6.7788906 -1.5827173
4.5015235 -6.822948 -1.5866191
4.4515491 -6.8381095 -1.5836928
4.4063282 -6.8603435 -1.5825223
4.3709736 -6.8980222 -1.5850585
4.3244081 -6.9180579 -1.5834976
4.2684975 -6.9227538 -1.5784254
4.2346015 -6.9630618 -1.5817419
4.1670842 -6.9476962 -1.5721824
1.7302983 -2.924114 -0.63652927
1.7024438 -2.9177301 -0.63262749
1.6825538 -2.9247198 -0.63184708
1.6665106 -2.9384019 -0.63262749
3.9099123 -6.9969015 -1.5550145
3.8815713 -7.0473948 -1.5610623
3.8434017 -7.0805616 -1.5632083
3.7975714 -7.0996866 -1.5622329
3.7388508 -7.0942192 -1.5557948
3.6947994 -7.1161561 -1.5555998
3.6524053 -7.1413131 -1.556185
3.6041071 -7.1548295 -1.5542341
3.5631883 -7.18296 -1.5555998
3.5207686 -7.2082133 -1.5563802
3.4764736 -7.2296805 -1.5563802
3.4291112 -7.2446699 -1.5550145
3.3829381 -7.2620177 -1.5542341
3.3325958 -7.2701554 -1.5515029
3.2855058 -7.2851024 -1.5503323
3.2455144 -7.3158836 -1.5526735
3.2052689 -7.3464479 -1.5550145
3.1690223 -7.3867092 -1.5595016
3.1148753 -7.3852286 -1.5550145
3.0612414 -7.3842683 -1.5507225
3.0132854 -7.3965545 -1.5493569
2.9707589 -7.4221892 -1.5509176
2.9287486 -7.4494061 -1.5528685
2.8738036 -7.4434457 -1.5477961
2.8308573 -7.4682765 -1.5493569
2.7846377 -7.4845862 -1.5491618
2.7336175 -7.4877114 -1.5462354
2.6753917 -7.4701777 -1.5390171
2.6483486 -7.5401268 -1.5503323
2.6001182 -7.5506706 -1.5491618
2.544961 -7.5404611 -1.5436993
2.493721 -7.5410352 -1.5405779
2.4477053 -7.5571275 -1.5407729
2.4072163 -7.590703 -1.5446748
2.35798 -7.5968995 -1.5429189
2.3167341 -7.6290565 -1.5466256
2.2656929 -7.6290245 -1.5436993
2.2207527 -7.6493764 -1.5450649
2.1662846 -7.6364384 -1.5396024
2.1280246 -7.6807785 -1.5460404
2.0841832 -7.7059999 -1.5485765
2.0368609 -7.7186432 -1.5485765
1.981156 -7.6987 -1.5419434
1.9303035 -7.6964407 -1.5390171
1.8790883 -7.6919427 -1.5357006
1.8411533 -7.7424502 -1.5436993
1.779474 -7.6924443 -1.5312135
1.72966 -7.6917348 -1.5288724
1.686406 -7.7204094 -1.5325792
1.6463207 -7.7651534 -1.5396024
1.5964724 -7.7645407 -1.5374564
1.5620127 -7.8405623 -1.5509176
1.4865938 -7.7084279 -1.5222393
1.4457359 -7.7521152 -1.5292625
1.3969264 -7.7540832 -1.527897
1.3640906 -7.8475451 -1.5450649
0.4480097 -2.6699016 -0.49918568
1.2524029 -7.7687993 -1.525946
1.1949602 -7.7133369 -1.5132651
1.1153404 -7.5032105 -1.4695649
1.0701091 -7.515739 -1.4707355
1.020009 -7.4930086 -1.4648827
0.97060674 -7.4728646 -1.4596153
0.92293274 -7.4640789 -1.456689
0.87540317 -7.4549899 -1.4537627
0.8282364 -7.4475484 -1.4512265
0.78272808 -7.4544411 -1.4516166
0.73485553 -7.4376307 -1.4473246
0.68703824 -7.4185605 -1.4426425
0.64125299 -7.4197049 -1.4420573
0.59524465 -7.417634 -1.4408866
0.54863518 -7.4064751 -1.4379603
0.50218511 -7.3950238 -1.4350339
0.45770505 -7.4126501 -1.4379603
0.41297323 -7.4290285 -1.4406916
0.36743009 -7.4324026 -1.4408866
0.32363608 -7.4766517 -1.4492756
0.27695665 -7.456934 -1.4449836
0.2339177 -7.5467219 -1.4625417
0.18823719 -7.5735078 -1.4676141
0.1418909 -7.5813847 -1.4689797
0.096332379 -7.6595883 -1.4843918
0.049998332 -7.7659578 -1.5054616
0.0023682353 -7.9093132 -1.5339447
-0.045968793 -7.8768134 -1.5275068
-0.094263487 -7.8734412 -1.5269215
-0.14253643 -7.8707533 -1.5265313
-0.19068426 -7.8638477 -1.5253608
-0.23953106 -7.8821359 -1.5292625
-0.28803423 -7.8844385 -1.530043
-0.33695233 -7.8952613 -1.5325792
-0.3853904 -7.8930449 -1.5325792
-0.43278825 -7.8719254 -1.5288724
-0.4821012 -7.8857636 -1.5321889
-0.53087425 -7.8885283 -1.5333595
-0.58279544 -7.9330511 -1.5429189
-0.62873065 -7.8951073 -1.5360907
-0.67716229 -7.8911009 -1.5360907
-0.72340858 -7.8633575 -1.5314085
-0.77865052 -7.9300246 -1.5456501
-0.82892513 -7.9407053 -1.5487716
-0.87784868 -7.9374189 -1.5491618
-0.92072457 -7.8822017 -1.5392122
-0.97518694 -7.9260488 -1.5491618
-1.0170044 -7.8673916 -1.5386269
-1.0656542 -7.8639188 -1.5392122
-1.1163667 -7.874711 -1.5427238
-1.1661017 -7.8774152 -1.5446748
-1.2150135 -7.8739886 -1.5454551
-1.264394 -7.8731637 -1.5468208
-1.3142951 -7.8749313 -1.5487716
-1.3659406 -7.8860459 -1.5526735
-1.4181187 -7.8987536 -1.5569655
-1.4559747 -7.8330131 -1.5454551
-1.5103096 -7.856678 -1.5520881
-1.5604008 -7.856883 -1.5540391
-1.6052297 -7.8308272 -1.5507225
-1.6526396 -7.8179517 -1.5501373
-1.6878376 -7.7492085 -1.5382367
-0.67086244 -2.9949214 -0.57117403
-0.68834388 -2.9869261 -0.57039368
-0.70597893 -2.9797835 -0.56980836
-0.72239065 -2.9677725 -0.56824768
-0.73939615 -2.9585271 -0.56727219
-0.75509542 -2.9444349 -0.56532133
-0.77289808 -2.938798 -0.56512624
-0.7893818 -2.928319 -0.56395566
-0.80628902 -2.9196391 -0.56317532
-0.82258499 -2.9089746 -0.5620048
-2.2279274 -7.6912074 -1.5534538
-2.2800963 -7.6943178 -1.5569655
-1.0754694 -3.5512969 -0.69876307
-2.3888614 -7.7125998 -1.5667199
-2.4234095 -7.6575904 -1.558331
-2.4682374 -7.6360445 -1.5569655
-1.0635873 -3.2248769 -0.63613909
-1.0774035 -3.2006311 -0.6324324
-1.0954274 -3.1893227 -0.63145691
-1.1140022 -3.1797647 -0.63087165
-2.7247596 -7.6223068 -1.5708169
-2.7593844 -7.5722723 -1.5637935
-1.1552634 -3.1127517 -0.62111712
-1.1698273 -3.0936801 -0.618581
-1.1951388 -3.102916 -0.6220926
-1.2474912 -3.1804276 -0.64023602
-2.9830828 -7.4658508 -1.5598918
-3.0365984 -7.4664841 -1.5639887
-3.0714741 -7.421432 -1.558331
-3.1146688 -7.3970227 -1.5571605
-3.1518855 -7.3588405 -1.5530636
-1.2967094 -2.9786055 -0.60687554
-1.3113855 -2.9625225 -0.60511976
-1.3267188 -2.9481606 -0.6037541
-1.3219191 -2.8900259 -0.59282905
-3.3918562 -7.2924852 -1.560477
-3.4411495 -7.2812896 -1.562623
-3.4887342 -7.2662268 -1.5639887
-3.5440047 -7.2667203 -1.5688659
-3.5972347 -7.262414 -1.5727677
-3.6315889 -7.2200541 -1.5682807
-3.6874235 -7.2203441 -1.5733531
-3.7244322 -7.1836519 -1.5702316
-3.7670696 -7.1580606 -1.5696462
-3.8164663 -7.1451921 -1.5719874
-3.8826768 -7.1630254 -1.5813518
-3.920409 -7.1278958 -1.5788156
-3.9525979 -7.0831532 -1.5741334
-3.9776196 -7.0263362 -1.5667199
-4.0519228 -7.0562272 -1.5792058
-4.0931678 -7.0278425 -1.5784254
-4.134716 -7.000062 -1.5778401
-4.182631 -6.9829731 -1.5797909
-4.2310004 -6.9663978 -1.581937
-4.2808676 -6.9519968 -1.5846683
-4.3224044 -6.9239354 -1.5842781
-4.3522172 -6.8773942 -1.5795959
-4.4255848 -6.8992624 -1.5911062
-4.458744 -6.8580003 -1.5877897
-4.5023594 -6.8329697 -1.588375
-4.5491037 -6.8125553 -1.5901308
-4.5935678 -6.7885756 -1.5911062
-2.9232142 -4.2642136 -0.98905748
-4.724102 -6.8001542 -1.6076889
-4.7578335 -6.7598119 -1.6049576
-4.7912478 -6.7193127 -1.6022264
-3.0338759 -4.2007294 -0.99139857
-3.0648077 -4.189158 -0.99315441
-4.9304724 -6.6520429 -1.6076889
-4.9753184 -6.6271548 -1.6090546
-5.0455761 -6.6355338 -1.6188091
-5.0909843 -6.6106658 -1.6203698
-3.3089056 -4.2431922 -1.0310019
-3.2795486 -4.1527781 -1.0132487
-3.3104825 -4.1394696 -1.0150045
-3.3450809 -4.1305099 -1.0179309
-3.4182632 -4.1682925 -1.0329528
-3.3779683 -4.0680256 -1.0124683
-3.4300137 -4.0794964 -1.0208572
-3.4473491 -4.0494132 -1.0185162
-3.438184 -3.9888184 -1.0081763
-3.4593689 -3.963953 -1.0072008
-3.5258486 -3.9904168 -1.0198817
-3.586895 -4.0096345 -1.0308068
-3.5804784 -3.9533901 -1.0216376
-3.5522923 -3.8742483 -1.0062255
-3.5906804 -3.8681896 -1.0105175
-3.6291275 -3.8618054 -1.0148094
-3.6919734 -3.8806701 -1.0261246
-3.7048268 -3.846643 -1.0230032
-3.7317839 -3.8273487 -1.0239787
-3.775872 -3.8253148 -1.0298314
-3.7112091 -3.713984 -1.005055
-3.7227652 -3.6801128 -1.0019335
-3.5705094 -3.4866202 -0.95335597
-3.4986353 -3.3747878 -0.92760402
-3.4489641 -3.2862935 -0.90829009
-3.4412034 -3.2388601 -0.90068156
-3.5005279 -3.2544041 -0.91141152
-3.5110376 -3.2242422 -0.90887535
-3.5111363 -3.1848516 -0.9036079
-3.4458578 -3.0873494 -0.88097745
-3.4022918 -3.010915 -0.86439478
-3.456156 -3.0209556 -0.87375909
-3.6884849 -3.1842241 -0.92994511
-3.7273619 -3.1780725 -0.93501747
-3.8113236 -3.2094574 -0.95179522
-4.0994506 -3.4092085 -1.0212474
-4.168808 -3.4238191 -1.0337331
-4.2004037 -3.4068224 -1.0364645
-4.1385393 -3.3147843 -1.0153947
-4.2480493 -3.3598866 -1.0380251
-4.1533923 -3.2438321 -1.0089567
-4.2516742 -3.2787623 -1.0286608
-4.2631273 -3.246079 -1.0265149
-4.2335672 -3.1827404 -1.0142242
-4.3239083 -3.2092974 -1.0317823
-4.3490577 -3.1867628 -1.0331479
-4.2286453 -3.0588768 -0.99881202
-4.2625022 -3.0436983 -1.0025188
-4.2843051 -3.0197463 -1.0032991
-4.2697382 -2.9704442 -0.99530035
-4.3994794 -3.0207775 -1.0222229
-4.4528499 -3.0173764 -1.0306118
-4.4468179 -2.9736469 -1.0247591
-4.4371433 -2.9279456 -1.0181259
-4.4229655 -2.8798008 -1.0105175
-4.4636612 -2.8674455 -1.01598
-4.4811711 -2.840003 -1.01598
-4.5617256 -2.8519545 -1.0308068
-4.3653998 -2.6921635 -0.98086369
-4.363399 -2.6541181 -0.97657174
-4.5444717 -2.7261479 -1.0148094
-4.5408516 -2.6862319 -1.0101272
-4.4784498 -2.6123779 -0.99198383
-4.510551 -2.5941365 -0.99569058
-4.5315032 -2.5693128 -0.9968611
-4.6088324 -2.5758982 -1.0109076
-4.6185369 -2.5442591 -1.009542
-4.631475 -2.5144689 -1.0089567
-4.6113553 -2.4670422 -1.000958
-4.6559086 -2.4542441 -1.0075911
-4.6743622 -2.4274371 -1.0083715
-4.6909151 -2.3996031 -1.0087616
-4.7248225 -2.3804793 -1.0130537
-4.7657003 -2.3645153 -1.0189064
-4.7087302 -2.3003728 -1.003104
-4.709497 -2.2650635 -1.0001776
-4.746357 -2.2470305 -1.00525
-4.7796159 -2.2269735 -1.009542
-4.8948364 -2.2441809 -1.0317823
-4.7234306 -2.1306658 -0.99139857
-4.8072453 -2.1330531 -1.0068107
-5.0800552 -2.2168281 -1.0631918
-4.8835368 -2.0955474 -1.0177357
-4.9803519 -2.1009781 -1.0358791
-5.0611048 -2.0985398 -1.0505109
-5.0321012 -2.0504305 -1.0415368
-5.0227332 -2.0107718 -1.0368546
-5.1107411 -2.0096893 -1.0530471
-4.9774895 -1.9221466 -1.0220277
-5.2074742 -1.9742737 -1.0684593
-5.3307223 -1.9836497 -1.0920652
-5.0884991 -1.8581077 -1.0382203
-5.1053448 -1.8288336 -1.0393908
-5.1247988 -1.8003973 -1.0411466
-5.1960297 -1.7896663 -1.0538275
-5.417871 -1.828916 -1.0981129
-5.4634471 -1.8070266 -1.1053313
-5.5052242 -1.7834381 -1.1117693
-5.5646806 -1.765035 -1.121914
-5.594141 -1.7366697 -1.1258157
-5.6581864 -1.7185484 -1.1369359
-5.72786 -1.7013805 -1.1492267
-5.8691206 -1.7041934 -1.1763442
-6.2729454 -1.7797078 -1.2576969
-6.2894187 -1.7427547 -1.2588674
-6.1778555 -1.671116 -1.2337008
-6.8252897 -1.8012542 -1.3648014
-6.900805 -1.7759527 -1.3780676
-7.0809135 -1.7760221 -1.4127936
-7.1459875 -1.7458 -1.4239138
-7.2729788 -1.7295854 -1.4477148
-7.8482046 -1.8154814 -1.5630132
-7.8314457 -1.7610556 -1.5573556
-8.3221731 -1.8177596 -1.6550958
-8.5279465 -1.807927 -1.6946992
-8.7415905 -1.7972151 -1.7358632
-8.8236351 -1.757714 -1.7502999
-9.0634642 -1.7477089 -1.7967315
-9.5021162 -1.7718371 -1.8833516
-9.7174473 -1.750335 -1.9247106
-9.752162 -1.6948725 -1.929588
-9.788496 -1.6393735 -1.9348553
-9.8487225 -1.5873913 -1.9450001
-9.9241858 -1.5371313 -1.9582663
-9.8655205 -1.4661247 -1.9446099
-9.8102436 -1.3964485 -1.931734
-9.8205709 -1.3364919 -1.9321241
-9.8353958 -1.2770921 -1.9334897
-9.8274717 -1.2147959 -1.9303683
-9.8444824 -1.1556151 -1.9323192
-9.8474884 -1.0947558 -1.9315388
-9.8540201 -1.0343121 -1.9315388
-9.8474922 -0.97257781 -1.9290026
-9.8835497 -0.91493547 -1.9350505
-9.8860464 -0.85402107 -1.9344652
-9.8783913 -0.7923274 -1.931929
-9.8869791 -0.73198903 -1.9327093
-9.8932419 -0.67144251 -1.9330995
-9.8658495 -0.60879672 -1.9268566
-9.9085703 -0.55042094 -1.9346603
-9.8755159 -0.48782656 -1.927442
-9.9145784 -0.42878607 -1.9346603
-9.910162 -0.36768955 -1.9332947
-9.911252 -0.30684477 -1.9330995
-9.8894157 -0.24544343 -1.9284174
-9.8701429 -0.18437624 -1.9243205
-9.8799152 -0.12392038 -1.9260763
-9.8628359 -0.063185014 -1.9225646
-9.8777494 -0.0026688476 -1.9254911
-9.8864069 0.057992745 -1.9272468
-9.9594183 0.11954495 -1.9418787
-9.9143696 0.1798469 -1.9330995
-9.8993521 0.24034205 -1.9303683
-9.8859272 0.30071959 -1.9280272
-9.8946772 0.36176828 -1.9301732
-9.892271 0.42247409 -1.9301732
-9.8796968 0.4826842 -1.9282223
-9.8775282 0.5433498 -1.9284174
-9.8358297 0.6016072 -1.9208089
-9.8544598 0.66346538 -1.9252959
-9.3101263 -0.23526415 -1.9264576
-9.3534603 -0.1789404 -1.9353391
-9.2937241 -0.12075453 -1.9225333
-9.332448 -0.063990317 -1.9305886
-9.3023338 -0.0067031272 -1.9241856
-9.2845879 0.050280426 -1.9204679
-9.2841043 0.10724864 -1.9204679
-9.2832718 0.16421282 -1.9204679
-9.2820892 0.22117081 -1.9204679
-9.2864256 0.27829608 -1.9217072
-9.261076 0.33442485 -1.91675
-9.2744904 0.39190373 -1.9200548
-9.3139353 0.45083588 -1.9289362
-9.2631207 0.50536692 -1.9188155
-9.3086777 0.56515747 -1.9291427
-9.2415781 0.61802298 -1.9157172
-9.234684 0.67450285 -1.9150976
-9.2313471 0.73123038 -1.9153042
-9.2510595 0.78993917 -1.9204679
-9.2294741 0.84517157 -1.9169565
-9.2786465 0.90711564 -1.9285231
-9.2417641 0.96079499 -1.9219136
-9.2347221 1.0173762 -1.9217072
-9.2516308 1.0767338 -1.9266642
-9.2186289 1.1302668 -1.9210875
-9.1969633 1.1849351 -1.9179893
-9.1478252 1.235714 -1.9091078
-9.1245699 1.2896305 -1.9058031
-9.1881142 1.3561628 -1.9210875
-9.1409369 1.4065639 -1.9128256
-9.1524229 1.4658737 -1.9171631
-9.2252951 1.5356572 -1.9347194
-9.1106062 1.5740808 -1.9122061
-9.0786238 1.6259863 -1.9074554
-9.0896416 1.685585 -1.9119995
-9.0666361 1.7389309 -1.9093144
-9.0557947 1.79453 -1.9093144
-9.0589924 1.8530021 -1.9124125
-9.0235176 1.9035043 -1.9072489
-9.0040197 1.9571735 -1.9055965
-9.0061636 2.015589 -1.9086947
-9.0050678 2.0734458 -1.9111732
-8.9493303 2.1185203 -1.9018787
-8.9760933 2.1831021 -1.9105537
-8.9454422 2.233871 -1.9068358
-8.9543142 2.2945452 -1.9117929
-8.9324961 2.3474555 -1.9101405
-8.9084768 2.3996756 -1.9080751
-8.861517 2.4454436 -1.9010526
-8.8595266 2.5034952 -1.9039441
-8.8590374 2.5621579 -1.9072489
-8.7934227 2.601757 -1.896302
-8.8334846 2.672662 -1.9086947
-8.7627029 2.710048 -1.896715
-8.7543058 2.766417 -1.898574
-8.7213373 2.8149719 -1.8950627
-8.7243452 2.8751686 -1.8996067
-8.6954107 2.9249032 -1.8971282
-8.7282 2.9956696 -1.9084882
-8.6884146 3.0417333 -1.9037377
-8.6677446 3.0943294 -1.9033245
-8.6099777 3.1334035 -1.8946496
-8.6098547 3.1933186 -1.8989871
-8.592844 3.2471249 -1.8996067
-8.5672798 3.2976799 -1.8983674
-8.5623703 3.3562553 -1.9018787
-8.5061741 3.3945878 -1.8938234
-8.4906244 3.448926 -1.8950627
-8.4584513 3.4964736 -1.8925842
-8.435936 3.5479286 -1.8923776
-8.4382963 3.6100135 -1.8979543
-8.4438009 3.6738219 -1.9043573
-8.3870974 3.7105219 -1.8965086
-8.3632793 3.761513 -1.896302
-8.344491 3.8147922 -1.8973347
-8.3510971 3.8799367 -1.9043573
-8.2943954 3.9156516 -1.896715
-8.2658024 3.9643559 -1.8956823
-8.2553959 4.0218554 -1.8989871
-8.2340708 4.0741692 -1.8998133
-8.191431 4.1158309 -1.8956823
-8.1886835 4.1775746 -1.9010526
-8.1098967 4.200294 -1.8884532
-8.1246767 4.2713742 -1.8981609
-8.0870924 4.3151584 -1.8954757
-8.0621843 4.3656301 -1.8958889
-8.0232401 4.408421 -1.8929973
-7.991766 4.4551859 -1.8919646
-7.9847198 4.515697 -1.8969216
-7.9577103 4.5650926 -1.8971282
-7.9287038 4.6133418 -1.8969216
-7.8977199 4.6604133 -1.896302
-7.8555412 4.700747 -1.8929973
-7.8265505 4.7488589 -1.8929973
-7.8055983 4.801919 -1.8950627
-7.756062 4.837297 -1.8901056
-7.7204456 4.8811364 -1.8886598
-7.6837597 4.9241929 -1.8870075
-7.6558623 4.972846 -1.887627
-7.6153984 5.0132723 -1.8851485
-7.6015873 5.0713072 -1.889486
-7.5468192 5.1019635 -1.8834962
-7.5549264 5.1752667 -1.8936169
-7.4418435 5.1651816 -1.8727558
-7.4292197 5.2242537 -1.8777128
-7.418541 5.2850676 -1.8832896
-7.3788319 5.3253345 -1.8814307
-7.334959 5.3624258 -1.8785391
-7.3262939 5.4253812 -1.8849419
-7.2881703 5.4667101 -1.8837026
-7.2529316 5.5101428 -1.8832896
-7.2135572 5.5503659 -1.8818438
-7.163157 5.5818939 -1.8775064
-7.1671772 5.6560464 -1.8878336
-7.14151 5.7072463 -1.8903122
-7.0804958 5.730032 -1.8832896
-7.0452037 5.7733693 -1.8832896
-6.9983516 5.8071175 -1.8801914
-6.9408627 5.8316975 -1.8742015
-6.9101663 5.8786139 -1.8756474
-6.8858275 5.9311194 -1.8789521
-6.8434057 5.9681139 -1.8772998
-6.8015232 6.0054588 -1.875854
-6.8010206 6.0796824 -1.8861812
-6.7556081 6.1140761 -1.8839092
-6.7215729 6.1587176 -1.8849419
-6.6972871 6.2124867 -1.8888663
-6.6526227 6.2474356 -1.8870075
-6.616291 6.2901602 -1.887627
-6.595901 6.348279 -1.8929973
-6.551218 6.3831687 -1.8913449
-6.5112314 6.4225588 -1.8911383
-6.4800096 6.4706864 -1.8936169
-6.4264216 6.4964137 -1.889486
-6.3898587 6.5392222 -1.8905187
-6.3740778 6.6036487 -1.8979543
-6.3199344 6.6284728 -1.8938234
-6.296586 6.6856446 -1.8991936
-6.2514467 6.7198563 -1.8979543
-6.2087722 6.7566466 -1.8975413
-6.1612787 6.788096 -1.8956823
-6.1417198 6.8505416 -1.902705
-6.116436 6.9071422 -1.9080751
-6.0507488 6.9180298 -1.9006394
-6.0158625 6.9639106 -1.903118
-5.9692087 6.9962263 -1.9018787
-5.9507589 7.0619006 -1.909934
-5.8966751 7.0854959 -1.9064227
-5.8313432 7.0950885 -1.8991936
-5.8049645 7.1520061 -1.904977
-5.7548518 7.1798558 -1.9029114
-5.6967216 7.1973867 -1.8981609
-5.6675158 7.2514777 -1.9033245
-5.6241107 7.2876654 -1.9037377
-5.5840325 7.3282633 -1.90539
-5.5371976 7.3600426 -1.9047704
-5.5135207 7.4229412 -1.9124125
-5.439518 7.4179702 -1.9022918
-5.400785 7.4607172 -1.9047704
-5.3736787 7.5199852 -1.9115864
-5.3285642 7.5544147 -1.9119995
-5.2871423 7.5941949 -1.9138584
-5.2482038 7.6377826 -1.91675
-5.202888 7.6722703 -1.9173696
-5.1421089 7.683722 -1.9122061
-5.1245222 7.7600336 -1.923566
-5.0565119 7.760181 -1.9157172
-5.0336709 7.829742 -1.9254249
-4.9776726 7.8480873 -1.9223268
-4.9263096 7.8735051 -1.9210875
-4.8671141 7.8860998 -1.91675
-4.811511 7.9041147 -1.9138584
-4.7881045 7.9754314 -1.9241856
-4.7360873 7.999609 -1.9229463
-4.7105927 8.0690765 -1.9328606
-4.634634 8.0520382 -1.9217072
-4.6092868 8.1228714 -1.9320344
-4.5569701 8.1467314 -1.9310017
-4.5210705 8.2002439 -1.937198
-4.4912252 8.2656565 -1.9462861
-4.4339571 8.280983 -1.9433944
-4.3807797 8.3037071 -1.9423617
-4.3324542 8.335639 -1.943601
-4.295496 8.3899345 -1.9502105
-4.2439356 8.4161339 -1.9502105
-4.1882982 8.4341288 -1.9483515
-4.1472144 8.4816427 -1.9535152
-4.0866051 8.4892979 -1.9493842
-4.02983 8.504487 -1.9471122
-3.9887381 8.5529957 -1.9526889
-3.9329176 8.5701952 -1.9510366
-3.8923378 8.6209183 -1.957233
-3.8485029 8.665205 -1.9619836
-3.7725437 8.636652 -1.9500039
-3.7287476 8.6812134 -1.9549609
-3.6708424 8.6931133 -1.9524825
-3.6151826 8.7100515 -1.9512432
-3.5720186 8.7574368 -1.9570265
-3.5145769 8.7701073 -1.9549609
-3.4725263 8.8215513 -1.961777
-3.4186857 8.8436041 -1.9619836
-3.3664415 8.8699036 -1.9632229
-3.3112702 8.8885584 -1.9628097
-3.2563326 8.9077902 -1.9626032
-3.2075601 8.9441805 -1.966321
-3.16171 8.9895372 -1.9721043
-3.1020257 8.9958181 -1.9692127
-3.04865 9.0202446 -1.970452
-2.96802 8.9626169 -1.9535152
-2.9214244 9.0067196 -1.9592985
-2.8826928 9.0766964 -1.970865
-2.8278162 9.0970163 -1.9714847
-2.777355 9.1319818 -1.975409
-2.7173638 9.1357222 -1.9725174
-2.6516941 9.1193409 -1.9652883
-2.6026428 9.1599102 -1.9706584
-2.5435112 9.1653366 -1.9683864
-2.4862022 9.1769934 -1.9675603
-2.4320974 9.2005892 -1.9694191
-2.3887892 9.2665014 -1.9805727
-2.341186 9.3179922 -1.9886279
-2.2728012 9.2865639 -1.9787138
-2.1985402 9.2279987 -1.9630163
-2.1582277 9.3118496 -1.9783007
-2.0984695 9.3134623 -1.9758221
-2.0385635 9.3137379 -1.973137
-1.9909357 9.3710527 -1.9828446
-1.9253011 9.3438025 -1.9743763
-1.8744472 9.3880625 -1.9813988
-1.8138363 9.384017 -1.9780941
-1.7574817 9.4017019 -1.9795399
-1.694891 9.3853493 -1.9737567
-1.6397918 9.4100304 -1.9768548
-1.5761868 9.3851786 -1.9694191
-1.5195078 9.4004679 -1.9706584
-1.4664564 9.4395866 -1.9770614
-1.4093744 9.4542131 -1.9783007
-1.3496776 9.4510593 -1.9758221
-1.2936478 9.4737053 -1.9789202
-1.2372644 9.4950476 -1.9818119
-1.1775345 9.4908085 -1.9793334
-1.1193924 9.498827 -1.9795399
-1.0565269 9.4646759 -1.970865
-1.0055135 9.5381203 -1.9851166
-0.94455367 9.5197687 -1.9799531
-0.88693976 9.5341539 -1.9818119
-0.83079392 9.5667095 -1.9875952
-0.76743424 9.5140867 -1.975409
-0.71035147 9.5361795 -1.9791268
-0.65089089 9.5266924 -1.9762352
-0.59260619 9.5334368 -1.9768548
-0.53530353 9.5583849 -1.9813988
-0.47674179 9.5634441 -1.9818119
-0.41766781 9.5573921 -1.9799531
-0.35942125 9.5705299 -1.9822251
-0.29961422 9.5383272 -1.9749959
-0.24108249 9.5399857 -1.9749959
-0.18199776 9.5129156 -1.9690061
-0.12393028 9.5373344 -1.9739631
-0.065347202 9.529109 -1.9721043
-0.0069003659 9.5606403 -1.9787138
0.051620826 9.5340853 -1.973137
0.1104014 9.5580482 -1.9783007
0.16932261 9.5728436 -1.9816054
0.22819689 9.5774937 -1.9828446
0.28748578 9.5935173 -1.9865625
0.34542814 9.5661497 -1.9811922
0.40222019 9.5188818 -1.9716911
0.46284077 9.5621681 -1.9813988
0.51990664 9.5298386 -1.9752024
0.57712656 9.5059595 -1.970865
0.63537788 9.5012627 -1.9706584
0.6960153 9.5293884 -1.9774745
0.74868196 9.4517841 -1.9619836
0.81007421 9.4869833 -1.970452
0.87495875 9.5549116 -1.9859428
0.92652828 9.4773016 -1.9706584
0.98597717 9.4840899 -1.9733435
1.0474721 9.5080109 -1.9797465
1.1019481 9.4683609 -1.972724
1.1599051 9.4604502 -1.9725174
1.2150568 9.4308348 -1.9677668
1.2670083 9.3795681 -1.9584723
1.3394569 9.4772186 -1.9809858
1.3895844 9.4146156 -1.9694191
1.4476228 9.4078465 -1.9698323
1.5000614 9.3659382 -1.9628097
1.5510767 9.3179512 -1.9545479
1.6052237 9.290904 -1.9508301
1.6685821 9.316515 -1.9584723
1.7250023 9.3022528 -1.957646
1.7870224 9.3174381 -1.9632229
1.8506246 9.3389311 -1.9702454
1.8982865 9.2804289 -1.9601246
1.9509542 9.2485008 -1.9557872
2.0109897 9.2516546 -1.9590919
2.0726328 9.2611017 -1.9638424
2.1327114 9.2625122 -1.9669406
2.1949134 9.2721033 -1.9718977
2.2420547 9.2185307 -1.9632229
2.2950213 9.1903601 -1.9601246
2.3426268 9.141984 -1.9526889
2.401412 9.1378469 -1.9549609
2.45311 9.1068792 -1.9514498
2.5003545 9.0605307 -1.9446337
2.5718634 9.1015129 -1.9570265
2.6189632 9.0554829 -1.9504169
2.6858573 9.0777102 -1.9588853
2.7281909 9.0170431 -1.9491777
2.7863576 9.0094814 -1.9512432
2.8401124 8.9875498 -1.9502105
2.9027181 8.9932327 -1.9553741
2.9731553 9.0217171 -1.9657013
3.0050626 8.9337502 -1.9502105
3.0350506 8.8429575 -1.9340999
3.1044462 8.8675728 -1.9438075
3.1512327 8.8271627 -1.939057
3.2050014 8.8067417 -1.9388504
3.2518339 8.7676449 -1.934513
3.3204405 8.7868843 -1.9433944
3.3549643 8.7161217 -1.9320344
3.4148088 8.7117701 -1.9357523
3.4692869 8.6933794 -1.9363718
3.5262449 8.6809931 -1.9384373
3.5813129 8.6637144 -1.9394701
3.6188543 8.604598 -1.9310017
3.6715832 8.5822306 -1.9310017
3.7081704 8.5227556 -1.9225333
3.7623744 8.5043163 -1.923566
3.8289318 8.513195 -1.9310017
3.8900447 8.5091181 -1.9355457
3.926518 8.4513693 -1.9276969
3.954494 8.3766832 -1.9159238
4.0176644 8.3769636 -1.9217072
4.0347099 8.2817841 -1.9051834
4.1006355 8.2875662 -1.9124125
4.1329613 8.2255287 -1.9037377
4.1962481 8.2252903 -1.9097275
4.2578874 8.2211084 -1.9148911
4.3109822 8.2000246 -1.9161304
4.3639789 8.1785984 -1.9173696
4.4238629 8.1697359 -1.9217072
4.4593029 8.1158543 -1.9153042
4.4880562 8.0507355 -1.9062161
4.5643406 8.0707407 -1.9177828
4.5879736 7.9976001 -1.9068358
4.6384358 7.9718356 -1.9074554
4.6678715 7.9103599 -1.8994001
4.7288799 7.9025598 -1.9045638
4.7767725 7.8725586 -1.9043573
4.8172979 7.8306003 -1.9012591
4.8652554 7.8008943 -1.9012591
4.8973441 7.7460837 -1.8950627
4.9822617 7.7743788 -1.9097275
5.0080199 7.7100191 -1.9012591
5.0364046 7.6505408 -1.89403
5.0854244 7.6227498 -1.8948562
5.1310053 7.5897818 -1.894443
5.1841135 7.5678425 -1.8969216
5.2187362 7.5190105 -1.8925842
5.2698388 7.494051 -1.894443
5.3259406 7.4759192 -1.8981609
5.3820176 7.4573803 -1.9018787
5.4016905 7.3886714 -1.8925842
5.4434314 7.3506703 -1.8913449
5.4807997 7.3069563 -1.8886598
5.5154696 7.259944 -1.8851485
5.5658784 7.2337198 -1.8872139
5.6059489 7.1940293 -1.8857682
5.6481671 7.1571922 -1.8851485
5.6846466 7.1132283 -1.8826699
5.7152605 7.0622416 -1.8783325
5.7808108 7.0542855 -1.8857682
5.8296094 7.0254593 -1.887627
5.8323269 6.9416118 -1.8744081
5.8659344 6.8952608 -1.8715165
5.8845072 6.831708 -1.8638743
5.9674711 6.8426685 -1.8770932
5.9996309 6.7949219 -1.8739951
6.0255613 6.7404733 -1.869038
6.0766544 6.7142563 -1.8721361
6.0926213 6.6494298 -1.8642874
6.1459489 6.6255507 -1.8682117
6.1771102 6.5777292 -1.8653201
6.2187023 6.541122 -1.8657333
6.253293 6.4972014 -1.8640809
6.2718754 6.4369845 -1.8576779
6.3229342 6.4102221 -1.8611892
6.3538513 6.3629961 -1.8587106
6.3906875 6.3218255 -1.858091
6.4335561 6.2865968 -1.8593303
6.4698968 6.2449646 -1.8587106
6.5180068 6.214601 -1.8616023
6.5417714 6.1610732 -1.8574713
6.5644088 6.106822 -1.8531339
6.5837455 6.0498772 -1.8479702
6.6366811 6.0238338 -1.8525143
6.675703 5.9849582 -1.8531339
6.7247529 5.9549117 -1.8566452
6.7663202 5.918047 -1.858091
6.8106494 5.8834543 -1.860363
6.8309913 5.828217 -1.8560256
6.8733573 5.7918677 -1.8578845
6.9087663 5.7495847 -1.8578845
6.9431591 5.7064638 -1.8576779
7.0038714 5.6847196 -1.8647004
7.0073195 5.6165471 -1.8562322
7.0677338 5.5940924 -1.8632547
7.0973001 5.5470052 -1.8620154
7.1590867 5.5248737 -1.869451
7.1547194 5.4517827 -1.8593303
7.2372923 5.4448404 -1.8723427
7.2532854 5.3874946 -1.8677987
7.309876 5.3602467 -1.8739951
7.3188519 5.29808 -1.8677987
7.3647556 5.2627439 -1.87131
7.3769202 5.2033553 -1.8661463
7.4046936 5.1551981 -1.8651136
7.4192519 5.0980296 -1.8607761
7.4925013 5.0809679 -1.8715165
7.5650058 5.062654 -1.8820503
7.5934782 5.014523 -1.8814307
7.562623 4.9277716 -1.8659397
7.6108232 4.8929167 -1.8704838
7.6324396 4.8408842 -1.8684183
7.7200599 4.8302922 -1.8828765
7.7512178 4.7838597 -1.8832896
7.7495027 4.7173839 -1.8756474
7.7741075 4.6672268 -1.8746147
7.7621865 4.59551 -1.8647004
7.8113623 4.5601287 -1.8698641
7.8332596 4.5086961 -1.8684183
7.8905606 4.4774494 -1.8756474
7.8990993 4.4184403 -1.8711034
7.9097819 4.3609128 -1.867179
7.9639015 4.3272471 -1.8737885
7.9963412 4.2815332 -1.8752344
8.0103464 4.2259955 -1.8723427
8.036994 4.177217 -1.8725492
8.0694408 4.1313915 -1.8742015
8.0893965 4.0791574 -1.8729624
8.1221609 4.0333619 -1.8748212
8.1801567 3.9997826 -1.8826699
8.1463604 3.9215026 -1.869038
8.2339296 3.9016125 -1.8839092
8.2763357 3.8597016 -1.8882467
8.2785206 3.7990513 -1.8832896
8.2668972 3.7324798 -1.8752344
8.3361416 3.7023385 -1.8859746
8.3524256 3.6483774 -1.8845289
8.3440886 3.5839288 -1.8775064
8.3821459 3.539515 -1.8812242
8.4317207 3.4996452 -1.887627
8.4557533 3.448952 -1.8882467
8.4685822 3.3937275 -1.8863878
8.4783211 3.3374002 -1.8839092
8.4940767 3.2835512 -1.8828765
8.5424213 3.2421348 -1.8892795
8.5493183 3.184876 -1.8863878
8.5539961 3.1269827 -1.8830831
8.6080189 3.0869901 -1.8909318
8.6609497 3.0461271 -1.898574
8.6545029 2.984314 -1.8929973
8.646698 2.9223819 -1.8872139
8.663538 2.868964 -1.8870075
8.6828394 2.8163555 -1.8874205
8.71208 2.7668762 -1.8901056
8.7335644 2.7148201 -1.8911383
8.7528667 2.6620352 -1.891758
8.7802896 2.6116264 -1.8942366
8.7923908 2.5566094 -1.8934103
8.8295593 2.5087638 -1.8981609
8.8363008 2.4521842 -1.896302
8.8908453 2.4086671 -1.904977
8.8827543 2.3480663 -1.9000198
8.8685713 2.28619 -1.8938234
8.8568115 2.225292 -1.8882467
8.9016609 2.1785827 -1.8950627
8.9262829 2.1266437 -1.8975413
8.9801493 2.0813344 -1.9064227
8.9440718 2.0152235 -1.8958889
8.9667826 1.9626075 -1.8981609
8.9853554 1.9089751 -1.8996067
8.9873161 1.8518311 -1.8975413
9.0234566 1.8016331 -1.9029114
9.0285769 1.7451179 -1.9016721
9.0362301 1.6891472 -1.9010526
9.076273 1.6390618 -1.9074554
9.065917 1.5798118 -1.903118
9.0657902 1.5225337 -1.9010526
9.0643377 1.4651605 -1.8987806
0 0 -0
5.8822961 0.87674278 -1.2159404
0 0 -0
0 0 -0
0 0 -0
0 0 -0
0 0 -0
0 0 -0
0 0 -0
0 0 -0
0 0 -0
0 0 -0
0 0 -0
0 0 -0
0 0 -0
0 0 -0
0 0 -0
0 0 -0
0 0 -0
0 0 -0
0 0 -0
0 0 -0
0 0 -0
0 0 -0
0 0 -0
0 0 -0
0 -0 -0
0 -0 -0
0 -0 -0
0 -0 -0
0 -0 -0
0 -0 -0
0 -0 -0
0 -0 -0
0 -0 -0
0 -0 -0
5.8861752 -0.39377868 -1.2058196
5.8875513 -0.4301731 -1.2066457
5.9072351 -0.46806636 -1.2113963
5.9110761 -0.50488609 -1.2128421
0 -0 -0
5.9511776 -0.58195376 -1.2227564
6.087635 -0.63302177 -1.2524989
8.9721317 -0.9884584 -1.8659397
8.6179638 -1.0030133 -1.7919964
8.3911915 -1.0288535 -1.7451105
8.3022356 -1.0696977 -1.7275541
8.1568575 -1.101895 -1.6980181
8.0114021 -1.1323491 -1.6684821
8.0749645 -1.1919112 -1.6835599
8.1787109 -1.2585437 -1.7073126
8.1824284 -1.31056 -1.7097912
8.1607208 -1.3584931 -1.7068995
8.1483746 -1.4078746 -1.7060734
8.150177 -1.4597425 -1.7083454
8.1045094 -1.502946 -1.7004967
8.0787992 -1.5495137 -1.6969854
8.0566616 -1.5965831 -1.6943003
8.0697203 -1.6506927 -1.6992574
8.0364628 -1.6953305 -1.6943003
8.0173044 -1.7427393 -1.6924413
8.0093241 -1.7925407 -1.693061
7.9733839 -1.8359442 -1.6876907
7.9295959 -1.8771715 -1.6806682
7.8865547 -1.9181621 -1.6738522
7.2889209 -1.8202782 -1.5464135
7.6918139 -1.9710873 -1.636674
7.7685285 -2.0416191 -1.6560893
7.7237325 -2.0805962 -1.6490667
7.6853547 -2.1209226 -1.64349
7.6317086 -2.1566 -1.6346085
7.6126924 -2.201756 -1.6333692
7.5887189 -2.2453718 -1.6310973
7.5560679 -2.286227 -1.6269664
7.5521803 -2.3357267 -1.6292384
7.5311756 -2.3799584 -1.6277925
7.5006013 -2.4210155 -1.6242813
7.5106955 -2.4752605 -1.629858
7.4990759 -2.5225463 -1.6306841
7.4834566 -2.5685122 -1.6306841
7.4527798 -2.6092093 -1.6273794
7.4320221 -2.653245 -1.6263467
7.4229579 -2.7014737 -1.6279991
7.4255075 -2.7541134 -1.6323365
7.415791 -2.8023903 -1.6339889
7.435895 -2.8622489 -1.6424572
7.4673853 -2.9271007 -1.6536107
7.4729118 -2.9822927 -1.658981
7.4490333 -3.0258803 -1.6577417
7.4303265 -3.0715299 -1.6577417
7.4086342 -3.1159258 -1.657122
7.365087 -3.1509356 -1.6515453
7.3240814 -3.1867001 -1.6465882
7.30618 -3.2323713 -1.6470013
7.2701464 -3.269917 -1.6432835
7.1903243 -3.2872105 -1.6294448
7.1655822 -3.3292065 -1.6284121
7.1689095 -3.384388 -1.6339889
7.1268349 -3.4181578 -1.6290318
7.0951719 -3.456681 -1.6265533
7.0747056 -3.5005851 -1.6267598
7.040853 -3.5377793 -1.6238681
7.0190129 -3.5809145 -1.6238681
6.9830074 -3.6167159 -1.6205634
6.9355679 -3.646292 -1.6145736
6.9147906 -3.6897004 -1.6149867
6.9057875 -3.7395129 -1.6182914
6.8895726 -3.7855847 -1.6199437
6.8576689 -3.8230233 -1.6178783
6.8315272 -3.8635843 -1.6172587
6.8059945 -3.9044554 -1.6168456
6.7717605 -3.9402382 -1.614367
6.7617817 -3.9901674 -1.6178783
6.8908215 -4.1235166 -1.6556762
6.8662267 -4.1662278 -1.6558827
6.8413672 -4.2087922 -1.6560893
6.8046207 -4.2439604 -1.6534042
6.8131876 -4.3075919 -1.6620791
6.7841573 -4.3477321 -1.6614594
6.743403 -4.3802171 -1.6579483
6.688612 -4.4032202 -1.6509256
6.6443753 -4.4327755 -1.6465882
6.6170516 -4.4734612 -1.6465882
6.6007795 -4.5217195 -1.6494799
6.5632644 -4.5554414 -1.6470013
6.5223832 -4.5866227 -1.6436965
6.4845543 -4.6197448 -1.6412179
6.4457717 -4.6520033 -1.6385329
6.3507552 -4.6429629 -1.621183
6.3811221 -4.725512 -1.636674
6.3504415 -4.7634029 -1.6362609
6.2922664 -4.7803798 -1.6286187
6.2791009 -4.8314276 -1.6329561
6.2377605 -4.8608441 -1.629858
6.1855426 -4.8814497 -1.6238681
6.1638823 -4.9260306 -1.6261401
6.1441894 -4.9723754 -1.6290318
6.099184 -4.998199 -1.6251074
6.0601182 -5.0286565 -1.6228354
6.0388875 -5.0739279 -1.6255205
6.0009336 -5.1051807 -1.6236616
5.9657888 -5.1387129 -1.6226289
5.9061236 -5.1507854 -1.6147802
5.8729405 -5.1856327 -1.614367
5.8322577 -5.2137461 -1.6118885
5.8175683 -5.2651906 -1.6168456
5.7808237 -5.2968216 -1.6156063
5.7396059 -5.3242078 -1.6131278
5.7218075 -5.3733902 -1.6174653
5.6986575 -5.4178352 -1.6203569
5.656847 -5.4445577 -1.6178783
5.6030097 -5.4593644 -1.6118885
5.5568671 -5.4812737 -1.6081706
5.5141292 -5.5062795 -1.6054856
5.4891849 -5.5490522 -1.6081706
5.4776006 -5.6057215 -1.6149867
5.4383445 -5.6342983 -1.6135409
2.2700078 -2.3812008 -0.65496212
2.2372413 -2.3758538 -0.64938539
2.225287 -2.3924019 -0.65021157
2.2231448 -2.419699 -0.65413594
5.1991639 -5.7281933 -1.593506
5.1887393 -5.7876697 -1.6013547
5.1583185 -5.8252583 -1.6030071
5.1134596 -5.846489 -1.6001154
5.0813279 -5.8821969 -1.6013547
5.0394239 -5.9065657 -1.5994958
5.0018263 -5.9358797 -1.5990827
4.9609284 -5.961194 -1.5976368
4.913075 -5.9779158 -1.593919
4.8800025 -6.0125074 -1.5951583
4.8356748 -6.0331759 -1.5926797
4.8009939 -6.0658026 -1.593506
2.0088072 -2.5706494 -0.6491788
1.9852245 -2.5728574 -0.64649373
1.964656 -2.5787644 -0.64484137
1.9482077 -2.5899889 -0.64463484
1.9340296 -2.6042504 -0.64525443
1.7930311 -2.4456427 -0.60064059
1.7653681 -2.4391625 -0.59609658
1.7458173 -2.4435804 -0.59444422
4.4656401 -6.3311419 -1.5959845
4.3981953 -6.317472 -1.5854506
4.3648906 -6.3524036 -1.5875161
4.314847 -6.3628712 -1.5833852
4.2610302 -6.3672724 -1.5778085
4.2202635 -6.3908482 -1.5771888
4.174026 -6.4059663 -1.5745038
4.1240582 -6.4149971 -1.5703728
4.0762334 -6.4269614 -1.5670681
4.0465827 -6.4676108 -1.5709925
3.9970579 -6.4764991 -1.5670681
3.9867537 -6.5493755 -1.5790477
3.9721789 -6.6164961 -1.5895816
3.9065812 -6.5986481 -1.5792543
3.8699656 -6.6292539 -1.5809066
1.6833881 -2.9251652 -0.67293161
1.6702372 -2.9439487 -0.67499703
1.6535751 -2.9567034 -0.67561668
3.6971335 -6.7059517 -1.5769823
3.6456392 -6.7095971 -1.5724382
3.5942397 -6.7128639 -1.5678942
3.5954456 -6.8152704 -1.587103
3.5540113 -6.8380718 -1.5873096
3.5102031 -6.8562665 -1.5864834
3.4614589 -6.8645711 -1.5833852
3.4144864 -6.8760414 -1.5811132
3.3683629 -6.8889523 -1.5792543
3.333245 -6.9244776 -1.5827656
3.2768672 -6.9156218 -1.5759495
3.2149339 -6.8939219 -1.5662419
3.1721649 -6.9126291 -1.5660354
3.1417699 -6.958715 -1.5722318
3.0886862 -6.9546127 -1.5668615
3.0396881 -6.9590878 -1.5635568
3.0150814 -7.0198607 -1.5732645
2.9540606 -6.9958653 -1.5635568
2.8900723 -6.963254 -1.5519903
2.8461835 -6.978138 -1.5513706
2.7996728 -6.9863887 -1.5493052
2.758903 -7.0088978 -1.5505444
2.714081 -7.0211315 -1.5495117
2.6706021 -7.0367379 -1.5493052
2.6225927 -7.0401554 -1.5464135
2.5847213 -7.0708179 -1.5497183
2.5386443 -7.0791764 -1.5480659
2.4938607 -7.0909281 -1.5472397
2.4640217 -7.1458707 -1.5561211
2.4119828 -7.1367555 -1.550751
2.3623023 -7.1337729 -1.5468266
2.336601 -7.2039747 -1.5592194
2.277544 -7.1715503 -1.548892
2.2404687 -7.2078137 -1.5538491
2.1910751 -7.2045755 -1.5501313
2.1554761 -7.2469568 -1.5565343
2.106324 -7.2440743 -1.553023
2.0642428 -7.2653327 -1.5548819
2.0243349 -7.2948322 -1.5585997
1.9797925 -7.3080602 -1.5588063
1.9359142 -7.323854 -1.5596324
1.8938707 -7.3469644 -1.562111
1.8463703 -7.3489571 -1.5600455
1.8010106 -7.3591976 -1.559839
1.7449349 -7.3244243 -1.5499247
1.701507 -7.3416653 -1.5513706
1.663741 -7.3844199 -1.5583931
1.6083559 -7.3486114 -1.548479
1.5748279 -7.4128942 -1.5602521
1.5231911 -7.3927107 -1.5538491
1.4772267 -7.3990388 -1.5532296
1.4290134 -7.3935542 -1.5501313
1.3834406 -7.4012213 -1.5499247
1.3416539 -7.4297905 -1.5542623
1.2935202 -7.4234242 -1.551164
1.2445426 -7.4109583 -1.5468266
1.1799936 -7.3006163 -1.521628
1.1345747 -7.3038516 -1.5208018
1.090315 -7.3145471 -1.521628
1.046105 -7.325942 -1.5226607
1.002326 -7.3409481 -1.5245197
0.95536685 -7.3324065 -1.5214214
0.90746576 -7.314827 -1.5164644
0.86336762 -7.3270593 -1.5179102
0.81698173 -7.3195777 -1.5152251
0.77113068 -7.3156953 -1.5133662
0.72845083 -7.3426833 -1.5181167
0.68320191 -7.3450661 -1.5177037
0.63735831 -7.3403473 -1.5158447
0.59191328 -7.3392434 -1.514812
0.54701483 -7.3446889 -1.5152251
0.50153792 -7.3420501 -1.5139859
0.45647854 -7.3449888 -1.5139859
0.4115662 -7.3505826 -1.5146054
0.36616358 -7.347106 -1.5133662
0.32146052 -7.3580117 -1.5152251
0.2759757 -7.3510461 -1.5133662
0.23138827 -7.3692265 -1.5168774
0.18582056 -7.3568139 -1.5139859
0.14063899 -7.3558588 -1.5135727
0.09561643 -7.3653884 -1.5154316
0.050536219 -7.3824697 -1.518943
0.0053179734 -7.4883118 -1.5412499
-0.04069262 -7.4999447 -1.5437285
-0.086721912 -7.5005322 -1.5439349
-0.13267362 -7.4959455 -1.5431088
-0.17885152 -7.5028157 -1.5447612
-0.22640641 -7.552433 -1.5555015
-0.27097967 -7.5020118 -1.5451742
-0.31820276 -7.5285573 -1.551164
-0.36495829 -7.5381904 -1.5536426
-0.40832889 -7.4830518 -1.5424892
-0.45548066 -7.5009151 -1.5468266
-0.50162733 -7.4999318 -1.5472397
-0.54799277 -7.5015917 -1.5482724
-0.59439743 -7.502965 -1.5493052
-0.6405068 -7.5001516 -1.5495117
-0.68606889 -7.4912086 -1.548479
-0.73125988 -7.4790673 -1.5468266
-0.78239572 -7.5250459 -1.557567
-0.82930356 -7.5269113 -1.5590128
-0.87490684 -7.5168219 -1.5579801
-0.92172688 -7.517139 -1.5592194
-0.97083354 -7.5346322 -1.5641764
-1.0161303 -7.5217457 -1.5627307
-1.0585679 -7.4892116 -1.5571539
-1.1007873 -7.4574084 -1.5517837
-1.1496484 -7.4708219 -1.5561211
-1.1950028 -7.4607286 -1.5555015
-1.249432 -7.5053749 -1.566655
-1.297459 -7.5091372 -1.5691335
-1.3381639 -7.4711781 -1.5627307
-1.3825541 -7.4551301 -1.5610783
-1.4295616 -7.4532328 -1.5625241
-1.4769783 -7.4529591 -1.564383
-1.5277779 -7.4686799 -1.5697532
-1.5753933 -7.4677811 -1.5716121
-1.6236786 -7.4694476 -1.5740906
-1.6690524 -7.4574347 -1.5736775
-0.69606823 -3.0218711 -0.61509877
-0.71256882 -3.0089741 -0.61323988
-0.7293998 -2.99789 -0.61179405
-0.73640406 -2.9477921 -0.60187984
-1.8860946 -7.3600755 -1.564383
-0.77500898 -2.9479964 -0.60394531
-0.7920652 -2.9394064 -0.60311913
-0.8080042 -2.9269454 -0.60146677
-0.82834262 -2.9304068 -0.60332566
-2.1011913 -7.2649188 -1.5569474
-2.1532226 -7.2772222 -1.5625241
-2.2001007 -7.2713652 -1.5641764
-1.0907828 -3.5261414 -0.73964584
-2.2865129 -7.2354226 -1.5623175
-2.3266585 -7.2082205 -1.5594258
-2.3723745 -7.1984549 -1.5604587
-1.0831068 -3.2191656 -0.67747557
-1.0990278 -3.2013535 -0.67499703
-1.1144478 -3.1825445 -0.67231196
-2.5848293 -7.2403517 -1.5833852
-2.6158237 -7.1875768 -1.5751233
-1.1571898 -3.119292 -0.66281086
-1.1752702 -3.1093872 -0.66219121
-1.2108444 -3.145035 -0.67189884
-1.2419013 -3.1676083 -0.67871487
-2.8415973 -7.1203122 -1.5788412
-2.8745558 -7.0764537 -1.5728514
-2.9212859 -7.0668206 -1.5747102
-2.9589028 -7.035234 -1.5716121
-1.2769132 -2.9840882 -0.64566755
-1.2897346 -2.9636362 -0.64277589
-1.3106656 -2.9619303 -0.64422172
-1.3276111 -2.9511554 -0.64360207
-3.1814501 -6.9589572 -1.575743
-3.2277997 -6.9472914 -1.5776019
-3.2716196 -6.9300094 -1.5782216
-3.3187337 -6.9195094 -1.5804936
-3.3696983 -6.9166083 -1.5846244
-3.4055662 -6.882647 -1.5815263
-3.442023 -6.8502555 -1.5788412
-3.4804337 -6.8220339 -1.5771888
-3.5235772 -6.8031569 -1.5778085
-3.556149 -6.7640872 -1.5736775
-3.6091001 -6.763721 -1.5788412
-3.6500676 -6.7405882 -1.5786346
-3.6998386 -6.7335005 -1.5823525
-3.7520418 -6.7303286 -1.587103
-3.8019369 -6.7225103 -1.5908208
-3.86064 -6.7296095 -1.5982565
-3.9038277 -6.7091775 -1.5990827
-3.9459152 -6.6867828 -1.5994958
-3.9532111 -6.6061912 -1.5856572
-4.0535588 -6.6805196 -1.6100296
-4.0785813 -6.6296864 -1.6036267
-2.6084018 -4.181931 -1.0009263
-2.6517889 -4.1939669 -1.0079488
-2.6626916 -4.1545501 -1.0021654
-2.7121155 -4.1750588 -1.0114601
-2.7317646 -4.1493487 -1.0091881
-2.7256808 -4.0852995 -0.99720842
-2.8460402 -4.2095442 -1.0331473
-2.7805848 -4.0588088 -0.99906731
-2.8762851 -4.1437564 -1.0252986
-2.9297955 -4.1660495 -1.0356259
-2.9235125 -4.1033669 -1.0240593
-2.9480627 -4.0845575 -1.0238528
-2.9903922 -4.0900884 -1.0300492
-3.0131032 -4.0685177 -1.029223
-3.0315526 -4.0413427 -1.026951
-3.0491905 -4.0133157 -1.0244725
-3.0809178 -4.0038366 -1.026951
-3.1757879 -4.0751586 -1.0511168
-3.2298257 -4.0924644 -1.061031
-3.1986821 -4.0022473 -1.0420288
-3.1616311 -3.9064848 -1.0213742
-3.1136055 -3.7992213 -0.99741495
-3.1968362 -3.8523326 -1.0172434
-3.2386653 -3.8543699 -1.0232332
-3.2666922 -3.8396423 -1.0246789
-3.3055148 -3.8373189 -1.029636
-3.351505 -3.8427746 -1.0368651
-3.3944478 -3.8441422 -1.0430615
-3.414711 -3.8195944 -1.0420288
-3.4439919 -3.8050995 -1.0438877
-3.4553773 -3.77091 -1.04017
-3.4378622 -3.705878 -1.0275706
-3.4766107 -3.7018325 -1.0325277
-3.4898214 -3.6705027 -1.029636
-3.5482364 -3.6863852 -1.040583
-3.5782995 -3.6722531 -1.042855
-3.5767171 -3.6258464 -1.0356259
-3.5988977 -3.6038318 -1.0356259
-3.6341584 -3.5947561 -1.0395503
-3.652648 -3.5689704 -1.0385176
-3.4928567 -3.3711684 -0.98522872
-3.4702811 -3.3084853 -0.97262943
-3.4449327 -3.244195 -0.95941055
-3.5063219 -3.2616515 -0.97139019
-3.4960113 -3.2122691 -0.96271527
-3.5018907 -3.1782625 -0.9587909
-3.4062243 -3.053514 -0.92615664
-3.3802145 -2.9929862 -0.91355735
-3.5885205 -3.1383889 -0.96684617
-3.6676817 -3.168123 -0.98357636
-3.682586 -3.1417482 -0.98233712
-3.9531848 -3.3309479 -1.0517365
-3.9103773 -3.2540519 -1.0343866
-3.9574814 -3.2523634 -1.0418223
-3.9887578 -3.2372692 -1.0449204
-3.9917507 -3.1992705 -1.0403764
-3.9951954 -3.1619647 -1.036039
-3.9998746 -3.1259425 -1.0321146
-3.9593379 -3.0553093 -1.0162106
-3.9927967 -3.0422256 -1.0201349
-3.9934058 -3.0041389 -1.0153844
-4.0392542 -3.0000002 -1.0226135
-3.9431796 -2.891259 -0.9926644
-3.9782817 -2.8796327 -0.99720842
-4.0285139 -2.8784928 -1.0056767
-4.0301099 -2.8424401 -1.0015459
-4.0049171 -2.7880268 -0.99059892
-4.230803 -2.9069252 -1.0440943
-4.2347937 -2.8715744 -1.040583
-4.1311779 -2.7644486 -1.0098077
-4.1358156 -2.7309601 -1.0067095
-4.1344604 -2.6937795 -1.0021654
-4.1756015 -2.6842349 -1.0083618
-4.1647272 -2.6412683 -1.0015459
-4.2256451 -2.6436908 -1.0126994
-4.1876674 -2.5843086 -0.99927384
-4.2402182 -2.5809519 -1.0083618
-4.333149 -2.6012225 -1.027364
-4.3237705 -2.5596306 -1.0211678
-4.2768674 -2.4965463 -1.0058833
-4.339592 -2.4975922 -1.0174499
-4.3335614 -2.4588451 -1.0122862
-4.3417358 -2.4283869 -1.0106338
-4.3599815 -2.4035907 -1.0114601
-4.3918414 -2.3861365 -1.0155909
-4.4538403 -2.3845479 -1.026951
-4.4346385 -2.3393676 -1.0188957
-4.42026 -2.2972212 -1.0120797
-4.4786882 -2.2927985 -1.0226135
-4.4926724 -2.2652748 -1.0226135
-4.550303 -2.2594264 -1.0329407
-4.5632019 -2.2310338 -1.0327343
-4.486002 -2.1592765 -1.0114601
-4.5495644 -2.1555939 -1.0232332
-4.5041809 -2.1003416 -1.0096011
-4.5027556 -2.0661347 -1.0062964
-4.6651607 -2.1061151 -1.0409961
-4.5957298 -2.0409095 -1.0219939
-4.6350646 -2.0244229 -1.0281903
-4.760673 -2.0446038 -1.0542151
-4.8136897 -2.0324841 -1.0635096
-4.8342032 -2.0062854 -1.0653685
-4.8726954 -1.9873031 -1.0713583
-4.7821703 -1.916235 -1.0480187
-4.7820024 -1.8821965 -1.0453335
-4.8354411 -1.8690495 -1.0548346
-4.8907266 -1.8560115 -1.0647489
-4.8176713 -1.7945399 -1.0457467
-4.8267536 -1.7642735 -1.0453335
-4.8384089 -1.7349542 -1.0455401
-4.8831143 -1.7172464 -1.0531822
-4.9647822 -1.7118151 -1.0690863
-5.1299872 -1.733644 -1.1035794
-5.3950243 -1.7864242 -1.1601729
-5.5091906 -1.7868007 -1.1830995
-5.5536213 -1.7636267 -1.1905352
-5.5447173 -1.723417 -1.1861978
-5.5879507 -1.6993288 -1.1934268
-5.8233485 -1.7319677 -1.2429978
-5.9249988 -1.7227072 -1.2630328
-6.2281618 -1.7695001 -1.3272685
-6.2473874 -1.7336067 -1.3291274
-7.4941034 -2.0302031 -1.5994958
-6.7742662 -1.7906104 -1.4396293
-6.7993374 -1.7526749 -1.4427276
-7.2123108 -1.8120313 -1.5303029
-7.425724 -1.8172952 -1.5742972
-7.5185885 -1.7912027 -1.5920601
-7.5847211 -1.7578514 -1.6040398
-7.8378072 -1.7659161 -1.6565024
-8.1868486 -1.7918637 -1.7296196
-8.3010521 -1.763561 -1.7519265
