# .PCD v0.7 - Point Cloud Data file format
VERSION 0.7
FIELDS x y z
SIZE 4 4 4
TYPE F F F
COUNT 1 1 1
WIDTH 1596
HEIGHT 1
VIEWPOINT 0 0 0 1 0 0 0
POINTS 1596
DATA ascii
0 0 -0
0 0 -0
0 -0 -0
0 -0 -0
0 -0 -0
0 -0 -0
0 -0 -0
0 -0 -0
0 -0 -0
0 -0 -0
0 -0 -0
0 -0 -0
0 -0 -0
5.5202131 -0.40142697 -1.9431649
5.5073237 -0.43447724 -1.9394515
0 -0 -0
5.5015774 -0.50202787 -1.9394515
5.4993305 -0.53586668 -1.9397891
5.4959388 -0.56959981 -1.9397891
5.4839191 -0.60238719 -1.9367508
0 -0 -0
0 -0 -0
0 -0 -0
5.4730816 -0.73754174 -1.9387763
5.4870949 -0.77373731 -1.945528
5.4990067 -0.80985838 -1.9516046
5.4985857 -0.84429836 -1.9532925
5.4960904 -0.87846661 -1.9543053
5.4933825 -0.91263604 -1.9553181
5.4848962 -0.94584596 -1.9543053
5.4762096 -0.97898608 -1.9532925
5.459918 -1.0106852 -1.9495791
5.4425197 -1.0420443 -1.945528
5.4221721 -1.0726802 -1.9404641
5.3942761 -1.1015996 -1.9326997
5.3496504 -1.1267264 -1.9188585
5.2276492 -1.134583 -1.87666
5.1572022 -1.152478 -1.8533665
5.0812306 -1.1682866 -1.8280474
4.9823599 -1.1777949 -1.7942885
4.9164977 -1.1941302 -1.7726829
4.8825912 -1.2176714 -1.7628928
4.8175764 -1.2329097 -1.7416247
4.7580237 -1.2488298 -1.7223822
4.7230015 -1.2706668 -1.7122546
4.6969666 -1.2946217 -1.7055029
4.6807814 -1.3211169 -1.7024646
4.686152 -1.3537302 -1.7075284
4.7084498 -1.3915265 -1.7190064
4.6854057 -1.4160349 -1.7136049
4.6847234 -1.4472573 -1.7166432
4.6820388 -1.4779578 -1.7190064
4.6701941 -1.5057921 -1.7179936
4.6572905 -1.5332425 -1.7166432
4.6522565 -1.563289 -1.7183312
4.6497002 -1.5942471 -1.7210319
4.6256137 -1.6177762 -1.7156305
4.6085072 -1.643599 -1.7129297
4.5965662 -1.6712022 -1.7122546
4.5906391 -1.7010096 -1.7139425
4.5818768 -1.72981 -1.7146177
4.5579977 -1.7528245 -1.7095538
4.5541687 -1.7835042 -1.7122546
4.5475116 -1.8131572 -1.7139425
4.5336838 -1.8399644 -1.7129297
4.5214386 -1.8673887 -1.7125922
4.4951425 -1.8888987 -1.7068532
4.4670219 -1.9094167 -1.700439
4.4500422 -1.9345387 -1.6984135
4.4363666 -1.9610462 -1.6977383
4.4336948 -1.9924738 -1.7014518
4.4162483 -2.0172946 -1.6994263
4.3858571 -2.0360324 -1.6923369
4.373282 -2.0629053 -1.6923369
4.3401685 -2.0799391 -1.6842347
4.3197074 -2.1028233 -1.6811965
4.3134737 -2.1326258 -1.6838971
4.3137674 -2.1658092 -1.6892986
4.2785921 -2.181124 -1.6805214
4.2559323 -2.2025776 -1.6768079
4.2306705 -2.2225223 -1.6720816
4.2169538 -2.2484393 -1.6720816
4.2188087 -2.2827816 -1.6784958
4.2170992 -2.3154192 -1.6835597
4.2135034 -2.3472054 -1.6879482
4.1973829 -2.3720887 -1.687273
4.2007155 -2.4080961 -1.6947
4.1679573 -2.4234183 -1.687273
4.1384139 -2.4403417 -1.6811965
4.1346731 -2.472451 -1.6859227
4.125864 -2.5016782 -1.6886234
4.1128421 -2.5284255 -1.6896362
4.0852671 -2.5461466 -1.6845723
4.0663843 -2.5691547 -1.6832221
4.0481653 -2.5925345 -1.6822093
4.0408673 -2.6229615 -1.6859227
4.0207648 -2.6451201 -1.6842347
3.9934936 -2.662432 -1.6795086
3.9848824 -2.6921544 -1.6828845
3.969842 -2.7176178 -1.6835597
3.9499984 -2.7397795 -1.6822093
3.9192495 -2.7542238 -1.6761327
3.8953745 -2.7733073 -1.6730944
3.8805749 -2.7988083 -1.6741072
3.8671293 -2.8253427 -1.6757951
3.8497205 -2.8490176 -1.6757951
3.8306603 -2.8714564 -1.6751199
3.8167181 -2.8977525 -1.6768079
3.7973733 -2.9199696 -1.6761327
3.7838416 -2.9466846 -1.6781582
3.7701247 -2.9733434 -1.6801838
3.7554874 -2.9993572 -1.6818717
3.7399409 -3.0247114 -1.6832221
3.7154846 -3.0428317 -1.6805214
3.697469 -3.0661728 -1.6808589
3.6857948 -3.0948546 -1.6842347
3.6681702 -3.1186314 -1.6849099
3.6511059 -3.1429222 -1.6859227
3.6324623 -3.1658843 -1.6862603
3.6207328 -3.1949632 -1.6899738
2.4293952 -2.1705525 -1.1265391
2.415333 -2.1847868 -1.1262015
2.4018819 -2.1995659 -1.1262015
3.5129292 -3.256623 -1.6761327
3.4949403 -3.2800491 -1.6771455
3.4747484 -3.3014319 -1.6771455
3.4646027 -3.3324776 -1.6822093
3.4481363 -3.3576128 -1.6842347
3.4288104 -3.3800287 -1.6849099
3.3886826 -3.3817229 -1.6751199
3.3811138 -3.4158306 -1.6818717
3.3410053 -3.4169958 -1.6720816
3.3199763 -3.4374316 -1.6720816
3.2981722 -3.4570568 -1.671744
3.2659223 -3.4655843 -1.666005
3.2619145 -3.5041595 -1.6751199
3.2352548 -3.5185654 -1.6724192
3.2167687 -3.5418341 -1.6741072
3.1981192 -3.5650082 -1.6757951
3.17556 -3.5838599 -1.6754575
3.1584699 -3.6089437 -1.6781582
3.1399603 -3.6325281 -1.6801838
3.121891 -3.6567371 -1.6825469
3.1030359 -3.6801412 -1.6845723
3.0822039 -3.7012815 -1.6855851
3.0504658 -3.7092195 -1.6805214
3.0169661 -3.7147157 -1.6744447
2.9793916 -3.7148015 -1.666005
2.9565418 -3.7330127 -1.666005
2.0062582 -2.5655515 -1.1262015
1.9876016 -2.5740886 -1.1245136
1.9677744 -2.5809963 -1.1221505
1.9473711 -2.5870061 -1.1194497
1.9308993 -2.5981507 -1.1191121
1.9115795 -2.6053965 -1.1170866
1.6868042 -2.3289406 -0.98947835
1.6325097 -2.2833552 -0.96483439
1.6135828 -2.2864084 -0.9617961
1.6000614 -2.2970383 -0.96213371
2.7017746 -3.9293427 -1.6683681
2.6696846 -3.9341638 -1.6633043
2.6454947 -3.9504707 -1.6633043
2.6191292 -3.9634876 -1.6619539
2.596303 -3.9818492 -1.6629667
2.5702939 -3.9953301 -1.6619539
2.5406859 -4.0030789 -1.658578
2.5100806 -4.0090194 -1.6545271
2.4809823 -4.017138 -1.6514888
2.4484508 -4.019424 -1.6460873
2.4218025 -4.0311446 -1.644737
2.4018209 -4.0540266 -1.6481129
2.3868732 -4.0857549 -1.6552022
2.364578 -4.105217 -1.6572278
2.3430634 -4.1261964 -1.6599284
2.3167815 -4.1388531 -1.6592532
2.2904329 -4.1513424 -1.658578
2.2595208 -4.155395 -1.6545271
2.2353153 -4.17167 -1.6555398
2.2131927 -4.1919661 -1.6582404
2.1891673 -4.208807 -1.6595908
2.1624427 -4.2204852 -1.6589156
2.137778 -4.2361951 -1.6599284
2.1130021 -4.251761 -1.6609412
2.0843911 -4.2595735 -1.6589156
2.0594413 -4.274827 -1.6599284
2.0275252 -4.275476 -1.6552022
1.9996605 -4.2844248 -1.6538519
1.4354067 -3.1256292 -1.1916937
1.4134874 -3.1283734 -1.1893306
1.3950303 -3.1387079 -1.1900057
1.3757453 -3.1472085 -1.1900057
1.8929515 -4.4034147 -1.6771455
1.8636979 -4.4097447 -1.6751199
1.8358828 -4.4193587 -1.6744447
1.8069524 -4.4261832 -1.6727568
1.773451 -4.4214621 -1.6666802
1.7493941 -4.4401422 -1.6697185
1.7224567 -4.4516706 -1.6700561
1.6820697 -4.4278393 -1.6568902
1.6624351 -4.4583616 -1.6646546
1.6386065 -4.4782014 -1.6683681
1.6098256 -4.4846277 -1.6670178
1.5850921 -4.5024118 -1.6700561
1.5571287 -4.5111632 -1.6697185
1.5300229 -4.5224161 -1.6703937
1.5043188 -4.5379729 -1.6727568
1.475283 -4.5435371 -1.6714064
1.4468061 -4.5507097 -1.6707313
1.4194157 -4.5612988 -1.6714064
1.3911271 -4.5690217 -1.6710688
1.3636034 -4.5792761 -1.671744
1.3425856 -4.611958 -1.6808589
1.3106551 -4.6074343 -1.6761327
1.2788308 -4.6026926 -1.6714064
1.2505652 -4.6104527 -1.6714064
1.2215296 -4.6153097 -1.6703937
1.1915404 -4.6163378 -1.6680305
1.1650305 -4.6308646 -1.6707313
0.73002911 -2.9795277 -1.0583463
0.71850723 -3.0123339 -1.0688115
0.69873303 -3.0111845 -1.0667861
0.67962182 -3.0126605 -1.0657732
0.65749449 -3.0002239 -1.0596967
0.63593745 -2.989471 -1.0542953
0.61529851 -2.9822545 -1.0502442
0.59865016 -2.9942808 -1.0532825
0.5786553 -2.9895806 -1.0502442
0.56186062 -3.0014017 -1.0532825
0.54242796 -2.9992354 -1.051257
0.52223325 -2.9923072 -1.0475435
0.50636321 -3.0103071 -1.0529449
0.48592541 -3.0012782 -1.0485562
0.46634185 -2.9967625 -1.0458555
0.44808444 -3.0004985 -1.0461931
0.42606249 -2.9780331 -1.0370783
0.40829247 -2.9843216 -1.0384287
0.38838741 -2.974637 -1.03404
0.37012807 -2.9769642 -1.03404
0.35174426 -2.9782445 -1.0337024
0.33325389 -2.9784758 -1.0330272
0.31576443 -2.9879532 -1.0357279
0.29733145 -2.9888976 -1.0353904
0.28029966 -3.004724 -1.0404541
0.26136693 -3.0007608 -1.0384287
0.24355808 -3.0098138 -1.0411294
0.22635084 -3.0281477 -1.0472059
0.20834699 -3.0379312 -1.0502442
0.19070169 -3.0551231 -1.0559832
0.17205822 -3.0581155 -1.0566584
0.15347967 -3.0628741 -1.0580088
0.13455895 -3.0609369 -1.056996
0.11552501 -3.0551207 -1.0546329
0.096208468 -3.0378964 -1.0482187
0.07751818 -3.0365477 -1.0475435
0.058535725 -3.0190849 -1.0411294
0.039883882 -3.0099752 -1.0377535
0.021305105 -2.9951029 -1.0323521
0.0029166243 -2.9857643 -1.0289762
-0.015408465 -2.9866674 -1.0293137
-0.033628982 -2.9771042 -1.0259379
-0.051944353 -2.9796653 -1.0269506
-0.070446789 -2.9887009 -1.0303265
-0.089089885 -2.9985619 -1.03404
-0.10752064 -2.9988995 -1.0343776
-0.12658882 -3.0141714 -1.0401165
-0.1448102 -3.0076966 -1.0380911
-0.16316055 -3.0048716 -1.0374159
-0.18102826 -2.9944181 -1.03404
-0.19702555 -2.9575605 -1.0212116
-0.2154419 -2.9600513 -1.022562
-0.2333785 -2.9558585 -1.0215492
-0.2514312 -2.9534328 -1.0212116
-0.2689501 -2.9452727 -1.0188485
-0.28729054 -2.9463775 -1.0198612
-0.30371532 -2.9286425 -1.0141222
-0.32096043 -2.9201741 -1.0117592
-0.34169194 -2.9424603 -1.0205364
-0.36156708 -2.9552579 -1.0259379
-0.38437009 -2.9893951 -1.0391037
-0.40119773 -2.975786 -1.0350528
-0.42601746 -3.0198724 -1.0519321
-0.44344237 -3.0097513 -1.0492314
-0.46033081 -2.9967394 -1.0455179
-0.47841281 -2.9919994 -1.0448428
-0.49691656 -2.9899364 -1.0451804
-0.51381409 -2.9784825 -1.042142
-0.53141767 -2.9715672 -1.0407917
-0.55186731 -2.980283 -1.0451804
-0.57085139 -2.9805388 -1.0465307
-0.59442455 -3.0037589 -1.0563208
-0.61227924 -2.9972882 -1.055308
-0.62871945 -2.9842639 -1.0519321
-0.65001237 -2.9941485 -1.056996
-0.66631973 -2.9809172 -1.0536201
-0.68544114 -2.980442 -1.0549704
-0.70414883 -2.9780123 -1.0556456
-0.72884899 -3.0001626 -1.0654356
-0 -0 -0
-0.78100848 -3.0511794 -1.0877165
-0.77582639 -2.9552824 -1.0539577
-0.79198927 -2.9431944 -1.051257
-0.81053358 -2.9400945 -1.0519321
-0.83622664 -2.9622433 -1.0620598
-0.86300528 -2.9868999 -1.0732002
-0.88425004 -2.9914782 -1.0769137
-1.2181159 -4.0303311 -1.4681784
-1.2522665 -4.05336 -1.4796563
-1.2816464 -4.0599623 -1.4850577
-1.2900733 -4.0009556 -1.4658152
-0.99354756 -3.0174873 -1.0975065
-1.0393213 -3.0925326 -1.1282271
-1.0259236 -2.9917111 -1.0924428
-1.0464358 -2.9915798 -1.0948058
-1.0685656 -2.9957421 -1.0988569
-1.0824252 -2.9767437 -1.0941306
-1.0977269 -2.9621019 -1.0910923
-1.1142194 -2.9509075 -1.0894045
-1.1316293 -2.9422579 -1.0887293
-1.1517204 -2.9405181 -1.0907547
-1.1512685 -2.8870535 -1.0728626
-1.1611756 -2.8607459 -1.0654356
-1.1751144 -2.8448668 -1.0620598
-1.1896313 -2.8306603 -1.0593591
-1.1984699 -2.8033996 -1.0515946
-1.2130222 -2.7899501 -1.0492314
-1.2278353 -2.7772889 -1.0472059
-1.2471679 -2.7748544 -1.0492314
-1.2618245 -2.7620122 -1.0472059
-1.2728039 -2.7414107 -1.042142
-1.2883965 -2.7309952 -1.0411294
-1.9432797 -4.0549426 -1.5708052
-1.3201653 -2.7115934 -1.0397789
-1.3346928 -2.6992228 -1.0380911
-1.3554527 -2.6993952 -1.041467
-1.387378 -2.7212188 -1.0536201
-1.4101049 -2.724359 -1.0583463
-1.446491 -2.7531557 -1.0735378
-1.4540581 -2.7267849 -1.0664485
-1.4752407 -2.7260909 -1.0698243
-1.5009991 -2.7334905 -1.0765761
-1.5113311 -2.7127161 -1.0718498
-1.5335041 -2.7132261 -1.0759009
-1.5290601 -2.6670156 -1.0607095
-1.5406651 -2.6494453 -1.0573336
-1.5540245 -2.635077 -1.055308
-1.5658165 -2.6182208 -1.0522697
-1.58478 -2.6133935 -1.0542953
-1.6106436 -2.6196587 -1.0610471
-1.6207135 -2.6001401 -1.056996
-1.6371399 -2.5909424 -1.0573336
-1.657575 -2.5879829 -1.0603719
-1.6764979 -2.5825009 -1.0623974
-1.6912777 -2.5705926 -1.0617222
-1.7059747 -2.5586004 -1.0610471
-1.7226956 -2.5496445 -1.0617222
-1.7345859 -2.5335889 -1.0593591
-1.7484897 -2.5205774 -1.0583463
-1.7742046 -2.524435 -1.0647604
-1.7831105 -2.5042989 -1.0607095
-1.8044993 -2.5017092 -1.064423
-1.8031584 -2.467787 -1.0542953
-1.8126677 -2.4491098 -1.0509194
-1.8299191 -2.4409544 -1.0522697
-1.8380325 -2.4206831 -1.0482187
-1.8511298 -2.4071209 -1.0472059
-1.8681779 -2.3986881 -1.0485562
-1.8799466 -2.3834844 -1.0468683
-1.8980602 -2.3763177 -1.0488938
-1.9072785 -2.3580391 -1.0458555
-1.9276747 -2.353575 -1.0492314
-1.9474869 -2.3482242 -1.0522697
-1.955201 -2.3283002 -1.0485562
-1.9615251 -2.306936 -1.0441676
-1.9676608 -2.2855823 -1.0397789
-1.9816478 -2.2734659 -1.0397789
-1.9986739 -2.2647932 -1.041467
-2.0081434 -2.2475729 -1.0391037
-2.0187397 -2.2317181 -1.0374159
-2.043201 -2.2310917 -1.0431548
-2.0645306 -2.2267973 -1.0472059
-2.0665615 -2.2017322 -1.0411294
-2.0813286 -2.1903753 -1.0418046
-2.0953817 -2.1782417 -1.042142
-2.1106777 -2.1673672 -1.0431548
-2.1107216 -2.1409674 -1.0364031
-2.1251483 -2.1293087 -1.0370783
-2.132153 -2.1102686 -1.03404
-2.1464074 -2.0984626 -1.0347152
-2.1585658 -2.084599 -1.0343776
-2.176764 -2.0765135 -1.0370783
-2.1942592 -2.0676374 -1.0394413
-2.2227502 -2.0688872 -1.0472059
-2.2485669 -2.0673161 -1.0536201
-2.2681768 -2.0598094 -1.056996
-2.2877791 -2.0521395 -1.0603719
-2.3003278 -2.0380633 -1.0603719
-2.3191643 -2.0294902 -1.0634102
-2.3208923 -2.0059876 -1.0583463
-2.3302939 -1.9892641 -1.056996
-2.3482125 -1.9797829 -1.0596967
-2.3639324 -1.9683495 -1.0613846
-2.3752384 -1.9532096 -1.0610471
-2.4017909 -1.9504684 -1.0677987
-2.4239929 -1.9439405 -1.072525
-2.4380887 -1.930784 -1.0735378
-2.455821 -1.9204273 -1.0762385
-2.4720283 -1.9087747 -1.078264
-2.4821968 -1.8924292 -1.0775888
-2.487746 -1.8726336 -1.0748881
-2.4961677 -1.8550875 -1.0735378
-2.5211627 -1.849761 -1.0796144
-2.5164578 -1.8226593 -1.072525
-2.5076873 -1.7929474 -1.0637478
-2.5217175 -1.7796983 -1.065098
-2.5441744 -1.7722638 -1.0701619
-2.5697372 -1.7667539 -1.0765761
-2.577414 -1.7488385 -1.0752257
-2.5896604 -1.7340386 -1.0759009
-2.6018219 -1.7191541 -1.0765761
-2.6217828 -1.7093276 -1.0806271
-2.6306386 -1.6921897 -1.079952
-2.6481245 -1.6805569 -1.0829903
-2.6671617 -1.6697721 -1.0867038
-2.6965768 -1.6652477 -1.0948058
-2.7051363 -1.6476909 -1.0941306
-2.7160022 -1.6315464 -1.0944682
-2.7445874 -1.6258873 -1.1022328
-2.7959609 -1.6332352 -1.1194497
-2.7969577 -1.61088 -1.1157364
-2.824796 -1.6039151 -1.1231632
-2.8600454 -1.6008074 -1.1336285
-2.9299757 -1.6164284 -1.1582724
-2.9753959 -1.6177583 -1.1727887
-3.02426 -1.6203694 -1.1886554
-3.0874169 -1.6299134 -1.210261
-3.1449573 -1.6357014 -1.2295035
-3.1976571 -1.6382678 -1.2467206
-3.2572279 -1.6436415 -1.2666383
-3.2815809 -1.6307473 -1.2723773
-3.3591619 -1.6436858 -1.2993842
-3.629514 -1.7484875 -1.4030238
-4.1810737 -1.9827476 -1.6177299
-4.0191631 -1.8758279 -1.548862
-3.8150473 -1.7521119 -1.4637897
-3.753675 -1.6961052 -1.4354323
-3.7622912 -1.6722764 -1.4347571
-3.7966299 -1.6597193 -1.4442096
-3.8551679 -1.6572146 -1.4631145
-3.9294224 -1.6606505 -1.488096
-4.0377622 -1.6773226 -1.5262436
-4.0566926 -1.6560743 -1.5296195
-4.2537293 -1.7061567 -1.6018633
-4.2781301 -1.6855462 -1.6072646
-4.3744206 -1.6925592 -1.6403483
-4.3644857 -1.6579963 -1.6325837
-4.4680629 -1.6660534 -1.6683681
-4.5489173 -1.6644888 -1.6953752
-4.6042266 -1.6527689 -1.7125922
-4.6711035 -1.6444967 -1.7341979
-4.7140269 -1.6271709 -1.7466886
-4.7756367 -1.6157163 -1.7662687
-4.830133 -1.6011963 -1.7831482
-4.9464025 -1.606131 -1.8233211
-5.0494552 -1.6054187 -1.8584303
-5.1149335 -1.5917511 -1.8793608
-5.1921387 -1.5809048 -1.9046799
-5.2405324 -1.5605716 -1.9191961
-5.2753143 -1.5357558 -1.9286486
-5.2873545 -1.504131 -1.9296614
-5.3128085 -1.4761972 -1.935738
-5.3253999 -1.4445566 -1.9370884
-5.3359833 -1.4123352 -1.9377635
-5.3491058 -1.3807443 -1.9394515
-5.3647799 -1.3497347 -1.9421521
-5.3738747 -1.3170156 -1.9424897
-5.3846016 -1.284673 -1.9435025
-5.3859644 -1.2501192 -1.9411393
-5.3806787 -1.2141464 -1.9364132
-5.3898664 -1.1815116 -1.9370884
-5.3979349 -1.1486137 -1.9374259
-5.411334 -1.1168033 -1.9397891
-5.4199309 -1.0839483 -1.9404641
-5.4246316 -1.0503138 -1.9397891
-5.4356003 -1.0178757 -1.9414769
-5.4408174 -0.98433667 -1.9411393
-5.4513907 -0.95174372 -1.9428273
-5.4469175 -0.91655779 -1.9391139
-5.4691639 -0.88582909 -1.9451904
-0 -0 -0
-0 -0 -0
-0 -0 -0
-0 -0 -0
-0 -0 -0
-0 -0 -0
-0 -0 -0
-0 -0 -0
-0 -0 -0
-0 -0 -0
-0 -0 -0
-0 -0 -0
-0 -0 -0
-0 -0 -0
-0 -0 -0
-0 -0 -0
-0 -0 -0
-0 -0 -0
-0 -0 -0
-0 -0 -0
-5.549881 -0.17609707 -1.9495791
-0 0 -0
-0 0 -0
-0 0 -0
-0 0 -0
-0 0 -0
-0 0 -0
-0 0 -0
-0 0 -0
-0 0 -0
-0 0 -0
-0 0 -0
-0 0 -0
-0 0 -0
-0 0 -0
-0 0 -0
-0 0 -0
-0 0 -0
-0 0 -0
-0 0 -0
-0 0 -0
-0 0 -0
-0 0 -0
-5.2170911 1.0996032 -1.9365804
-5.2139106 1.1323906 -1.9379721
-5.1949706 1.1616989 -1.9334491
-5.1786084 1.1914488 -1.9299699
-5.1712003 1.2232018 -1.9299699
-5.1663308 1.2555734 -1.9310137
-5.1558003 1.2865682 -1.9299699
-5.1432686 1.3170155 -1.9282304
-5.1341839 1.3483109 -1.9278824
-5.1194773 1.3780811 -1.925447
-5.1018877 1.4069734 -1.9219679
-5.0886478 1.4369766 -1.9202282
-5.0815363 1.4686939 -1.9209241
-5.0751257 1.500644 -1.9219679
-5.0703092 1.5331138 -1.9237075
-5.0608068 1.5641959 -1.9237075
-5.0529017 1.5957839 -1.9244033
-5.0519366 1.6296381 -1.9278824
-5.0400615 1.6600186 -1.9271866
-5.0280037 1.6903147 -1.9264908
-5.013104 1.7196121 -1.9247512
-4.998034 1.7487905 -1.9230115
-4.9739656 1.7746962 -1.9177928
-4.9585776 1.8035792 -1.9160533
-4.9465389 1.8336445 -1.9157053
-4.9395795 1.8656186 -1.9174449
-4.9306641 1.8969026 -1.9184886
-4.9302793 1.9315692 -1.9230115
-4.9279127 1.9656074 -1.9268386
-4.9157591 1.9958074 -1.9268386
-4.9086189 2.0280817 -1.9289262
-4.8943539 2.057435 -1.9282304
-4.8687086 2.0818956 -1.9230115
-4.8601408 2.1136007 -1.9247512
-4.8427939 2.1414855 -1.9230115
-4.8184476 2.1661601 -1.9184886
-4.8076234 2.1968544 -1.9195324
-4.7940536 2.2263119 -1.9195324
-4.7752161 2.2532842 -1.9174449
-4.7587643 2.2813256 -1.9164011
-4.7320347 2.3043222 -1.9111824
-4.7102442 2.3295717 -1.9080511
-4.6958613 2.3584294 -1.9080511
-4.6671052 2.3799548 -1.9021366
-4.6715612 2.4184644 -1.9101386
-4.6715703 2.4549365 -1.9164011
-4.6539378 2.4822304 -1.9153574
-4.6501613 2.5169902 -1.9202282
-4.6280565 2.5418634 -1.9174449
-4.6221991 2.5756915 -1.9216199
-4.6038599 2.6026194 -1.9205762
-4.5812984 2.6270869 -1.9177928
-4.5610409 2.6527901 -1.9160533
-4.5446777 2.6807261 -1.9160533
-4.5225124 2.7051911 -1.9136178
-4.5098362 2.7353218 -1.9153574
-4.4977584 2.7658896 -1.9174449
-4.483089 2.794924 -1.9184886
-4.4611011 2.8193729 -1.9164011
-4.4460855 2.8482101 -1.9174449
-4.4198775 2.8698192 -1.9136178
-4.4014025 2.8963695 -1.9132699
-4.3788681 2.9201996 -1.9111824
-4.360868 2.9470129 -1.9111824
-4.3442502 2.9747748 -1.9118782
-4.327456 3.0024438 -1.9125741
-4.3012829 3.0235469 -1.9090949
-4.2963939 3.0596745 -1.9153574
-4.2570138 3.0711644 -1.9059637
-4.239603 3.0983338 -1.9066595
-4.2182517 3.1226153 -1.9056157
-4.2020125 3.1506896 -1.9070073
-4.1773753 3.1724432 -1.904572
-4.1652613 3.2037327 -1.9080511
-4.1558776 3.2372983 -1.912922
-4.1374078 3.2638988 -1.9136178
-4.1231618 3.2939067 -1.9164011
-4.1028733 3.3191438 -1.9164011
-4.0788045 3.3412848 -1.9146615
-4.0560617 3.3644528 -1.9136178
-4.0389304 3.3922927 -1.9153574
-4.0158973 3.4151888 -1.9143137
-3.9906046 3.436094 -1.9122262
-3.9694459 3.4605153 -1.9122262
-3.9502461 3.4866679 -1.9132699
-3.9287779 3.5108407 -1.9132699
-3.9057717 3.5336227 -1.9125741
-3.8867812 3.560055 -1.9139657
-3.8655512 3.5844746 -1.9143137
-3.8462181 3.610693 -1.9157053
-3.8212731 3.6316409 -1.9143137
-3.7995934 3.6556697 -1.9146615
-3.7737339 3.6756432 -1.912922
-3.7471049 3.6947789 -1.9108344
-3.7230368 3.7163761 -1.9101386
-3.6915925 3.7304852 -1.9056157
-3.6712539 3.7557485 -1.9070073
-3.6481402 3.7782042 -1.9070073
-3.6313579 3.8073032 -1.9104866
-3.6098566 3.8315609 -1.9115303
-3.5881944 3.8556976 -1.9125741
-3.5600286 3.8728094 -1.9101386
-3.5380886 3.896663 -1.9111824
-3.5084803 3.9120162 -1.9080511
-3.4844105 3.9334702 -1.9080511
-3.4571238 3.9512475 -1.9063115
-3.4358785 3.9759331 -1.9080511
-3.411418 3.9969404 -1.9080511
-3.3904533 4.022099 -1.9101386
-3.3657105 4.0428267 -1.9101386
-3.3444123 4.0677481 -1.9122262
-3.3075743 4.0736332 -1.9052678
-3.2872071 4.0997043 -1.9080511
-3.2602446 4.1175914 -1.9070073
-3.2337635 4.1360412 -1.9063115
-3.2060332 4.1528363 -1.9049199
-3.1793554 4.1709385 -1.904224
-3.1514487 4.1873713 -1.9028324
-3.124578 4.2051239 -1.9021366
-3.0992715 4.2249727 -1.9024844
-3.0743887 4.245429 -1.9031802
-3.0499165 4.2665019 -1.904224
-3.0296242 4.2935629 -1.9080511
-3.0064361 4.3166881 -1.9101386
-2.979893 4.3350539 -1.9101386
-2.9532373 4.3532567 -1.9101386
-2.9181285 4.3588285 -1.904572
-2.890295 4.3750873 -1.9038761
-2.8598132 4.3872409 -1.9014407
-2.8323328 4.4039168 -1.9010928
-2.8037512 4.418838 -1.900049
-2.7760878 4.4351635 -1.8997011
-2.7493141 4.4529114 -1.900049
-2.725352 4.4753032 -1.9024844
-2.6968756 4.4903336 -1.9017886
-2.6692727 4.5067968 -1.9017886
-2.6429873 4.5255194 -1.9028324
-2.618443 4.547339 -1.9052678
-2.5904918 4.5633202 -1.9052678
-2.5656464 4.5848565 -1.9077032
-2.536108 4.5980496 -1.9066595
-2.5065045 4.611053 -1.9056157
-2.4750669 4.6205602 -1.9031802
-2.4440446 4.6306849 -1.9010928
-2.4142883 4.6430984 -1.900049
-2.3878894 4.6619973 -1.9017886
-2.3592389 4.6765614 -1.9017886
-2.3330014 4.6959877 -1.9038761
-2.3029079 4.7076874 -1.9028324
-2.2756052 4.7251081 -1.904224
-2.2461684 4.7381349 -1.9038761
-2.2170534 4.7518277 -1.9038761
-2.187855 4.7653422 -1.9038761
-2.1585741 4.7786765 -1.9038761
-2.126929 4.7866907 -1.9017886
-2.0967681 4.7979326 -1.9010928
-2.0669191 4.8098464 -1.9007449
-2.0318975 4.8094831 -1.8955261
-2.0077393 4.8348484 -1.9007449
-1.9769732 4.8444724 -1.8997011
-1.9472109 4.8565116 -1.8997011
-1.9173752 4.8683681 -1.8997011
-1.8891574 4.8844137 -1.9014407
-1.8581537 4.8932838 -1.9003969
-1.8310393 4.9125004 -1.9035282
-1.7966783 4.9121957 -1.8990053
-1.7655545 4.9204798 -1.8979615
-1.7359518 4.9329891 -1.8986573
-1.7071788 4.9479795 -1.9003969
-1.6743853 4.9512563 -1.8976136
-1.646331 4.9685569 -1.9003969
-1.6143674 4.9741058 -1.8986573
-1.5829651 4.9812374 -1.8976136
-1.5507016 4.9854846 -1.8955261
-1.5184455 4.9895239 -1.8934386
-1.4872673 4.9969497 -1.8927428
-1.4571021 5.007782 -1.8934386
-1.4260912 5.0157266 -1.8930907
-1.3962911 5.0279961 -1.8944824
-1.3656588 5.0373735 -1.8948302
-1.3325683 5.0375009 -1.891699
-1.3018676 5.0464902 -1.8920469
-1.2697364 5.0498371 -1.8903073
-1.2380588 5.054801 -1.8892636
-1.207237 5.0632143 -1.8896115
-1.1763586 5.0714397 -1.8899595
-1.1454247 5.0794768 -1.8903073
-1.1148374 5.0891571 -1.8913511
-1.0837847 5.0968189 -1.891699
-1.0536257 5.1088824 -1.8937865
-1.0209738 5.1088152 -1.8913511
-0.99049681 5.119586 -1.8930907
-0.95940942 5.1274104 -1.8937865
-0.92926276 5.1405816 -1.8965698
-0.89866865 5.1517286 -1.8986573
-0.86610991 5.151598 -1.8965698
-0.83373618 5.1521878 -1.8948302
-0.80210727 5.1572065 -1.8948302
-0.77058637 5.1629586 -1.8951782
-0.73809755 5.1620207 -1.8930907
-0.70641005 5.1664524 -1.8930907
-0.6749382 5.1725492 -1.8937865
-0.64341813 5.1784539 -1.8944824
-0.61141229 5.1804423 -1.8937865
-0.57888639 5.1775742 -1.8913511
-0.54730302 5.1828933 -1.8920469
-0.51576865 5.1889524 -1.8930907
-0.4839201 5.1920195 -1.8930907
-0.45253977 5.2004952 -1.8951782
-0.42092296 5.206912 -1.8965698
-0.38896602 5.2093968 -1.8965698
-0.35737762 5.2172976 -1.8986573
-0.32530004 5.2184563 -1.8983095
-0.29311693 5.217546 -1.8972657
-0.26119041 5.2211189 -1.8979615
-0.2292311 5.2244968 -1.8986573
-0.1970996 5.2239313 -1.8979615
-0.16501305 5.2241049 -1.8976136
-0.13305001 5.2287683 -1.8990053
-0.10100016 5.2313609 -1.8997011
-0.06875357 5.2206326 -1.8955261
-0.036712687 5.2200189 -1.8951782
-0.0046774922 5.2126455 -1.8923949
0.027296551 5.210701 -1.891699
0.059235685 5.207623 -1.8906553
0.091187946 5.2071614 -1.8906553
0.12315915 5.2074413 -1.8910031
0.15513721 5.2075248 -1.8913511
0.18749355 5.2177176 -1.8955261
0.21962421 5.2192793 -1.8965698
0.25255233 5.2365618 -1.9035282
0.28416738 5.2255526 -1.900049
0.31622544 5.2237105 -1.900049
0.34833416 5.2226071 -1.9003969
0.38003123 5.2156963 -1.8986573
0.41158256 5.2076588 -1.8965698
0.44304958 5.1994305 -1.8944824
0.47434559 5.1900787 -1.8920469
0.50572604 5.1824055 -1.8903073
0.53751516 5.1792045 -1.8903073
0.56846243 5.168354 -1.887524
0.60124838 5.1740808 -1.8910031
0.63161498 5.1591277 -1.8868282
0.66230017 5.1477165 -1.8840448
0.69538003 5.1547046 -1.8882198
0.72778308 5.1559105 -1.8903073
0.75913161 5.1494932 -1.8896115
0.79185498 5.1521511 -1.8923949
0.82434297 5.1527495 -1.8944824
0.85671401 5.1522188 -1.896222
0.88703406 5.1394744 -1.8934386
0.91805661 5.1311665 -1.8923949
0.94712985 5.1125312 -1.887524
0.97936511 5.1112275 -1.8892636
1.0108908 5.1060414 -1.8896115
1.0435174 5.1061721 -1.8920469
1.0754092 5.1024251 -1.8930907
1.1078919 5.1012273 -1.8951782
1.1404004 5.0998225 -1.8972657
1.1720916 5.0945563 -1.8979615
1.2026812 5.0845318 -1.8969178
1.2323054 5.0706797 -1.8944824
1.2652128 5.0702996 -1.8972657
1.2956015 5.0597167 -1.896222
1.3247163 5.0444179 -1.8934386
1.356375 5.0389104 -1.8944824
1.3872676 5.0304928 -1.8944824
1.4178531 5.0209842 -1.8941344
1.4475925 5.0085874 -1.8927428
1.4769672 4.9951158 -1.8910031
1.511662 4.9994192 -1.896222
1.5414783 4.9873629 -1.8951782
1.5748765 4.9867501 -1.8986573
1.6045809 4.9743161 -1.8976136
1.6353661 4.9652677 -1.8979615
1.6675951 4.9604712 -1.900049
1.6983051 4.9510322 -1.9003969
1.7283423 4.9396338 -1.900049
1.7573577 4.9254041 -1.8986573
1.7872257 4.9136477 -1.8983095
1.8176677 4.9034677 -1.8986573
1.845732 4.8869605 -1.8965698
1.8770303 4.8790431 -1.8979615
1.9076166 4.8691797 -1.8986573
1.9398901 4.8634782 -1.9010928
1.9686368 4.8488779 -1.900049
1.9990681 4.8384404 -1.9007449
2.0276282 4.8234906 -1.8997011
2.0582929 4.8135443 -1.9007449
2.0892856 4.8042626 -1.9021366
2.1141727 4.7810645 -1.8979615
2.1396229 4.7594523 -1.8944824
2.1711252 4.7513499 -1.8965698
2.1990528 4.7353878 -1.8955261
2.2276669 4.7209578 -1.8951782
2.2642961 4.7232614 -1.9017886
2.2932348 4.7092791 -1.9017886
2.3212557 4.6934385 -1.9010928
2.3533781 4.6858091 -1.9038761
2.385494 4.6779613 -1.9066595
2.4119964 4.6590738 -1.9049199
2.4405386 4.6441865 -1.9049199
2.4548645 4.6026564 -1.8937865
2.4897563 4.5998731 -1.8990053
2.5165794 4.5820446 -1.8979615
2.5414512 4.5607848 -1.8955261
2.5624645 4.5328646 -1.8903073
2.5860302 4.5097375 -1.887176
2.6103523 4.4881124 -1.8847407
2.6297412 4.4582853 -1.878826
2.6541586 4.4372387 -1.8767385
2.6900897 4.4352965 -1.8830011
2.7226574 4.4274907 -1.8868282
2.7517574 4.4138832 -1.8882198
2.781795 4.40167 -1.8903073
2.8107743 4.3876758 -1.891699
2.8417294 4.376636 -1.8944824
2.8705926 4.3622494 -1.895874
2.8967845 4.3437738 -1.8955261
2.9223328 4.3243647 -1.8948302
2.9477518 4.3048053 -1.8941344
2.9762485 4.2897177 -1.8955261
3.0068281 4.2775102 -1.8983095
3.035738 4.2627978 -1.900049
3.0645802 4.2478914 -1.9017886
3.0839469 4.2199259 -1.8976136
3.1075501 4.1979098 -1.896222
3.1287487 4.1727638 -1.8934386
3.1520247 4.1505013 -1.8920469
3.1774323 4.131083 -1.8920469
3.2021441 4.1107693 -1.891699
3.2255647 4.0888362 -1.8906553
3.2541044 4.0733614 -1.8927428
3.2813962 4.0562329 -1.8941344
3.3091943 4.0396481 -1.895874
3.3363137 4.0221529 -1.8972657
3.3627396 4.0037594 -1.8983095
3.387243 3.9830506 -1.8983095
3.4085593 3.9586403 -1.8965698
3.4340174 3.9390643 -1.8972657
3.4581223 3.9179194 -1.8972657
3.4808474 3.8952293 -1.8965698
3.5027952 3.8717127 -1.8955261
3.5264857 3.850147 -1.8955261
3.5519562 3.8304982 -1.8965698
3.5811691 3.8147824 -1.8997011
3.6096768 3.7981722 -1.9024844
3.6296632 3.7725749 -1.9007449
3.654706 3.7522471 -1.9017886
3.6855612 3.7377608 -1.9059637
3.6971641 3.7037988 -1.900049
3.7144883 3.6757693 -1.8972657
3.7349608 3.6509428 -1.896222
3.7566175 3.6273057 -1.895874
3.781518 3.606775 -1.8972657
3.8035774 3.5835042 -1.8972657
3.8213751 3.556267 -1.8951782
3.8458855 3.53529 -1.8965698
3.8661168 3.5103652 -1.895874
3.887583 3.4865773 -1.895874
3.9117107 3.4651439 -1.8972657
3.9336047 3.441694 -1.8976136
3.9581959 3.4205573 -1.8993531
3.980536 3.3974228 -1.900049
4.0063257 3.3771634 -1.9024844
4.0284138 3.3537169 -1.9031802
4.0503645 3.3301263 -1.9038761
4.0721774 3.3063927 -1.904572
4.0953145 3.2836893 -1.9059637
4.1197968 3.2619901 -1.9080511
4.1360412 3.2337635 -1.9063115
4.1617432 3.2129064 -1.9090949
4.1806331 3.1867418 -1.908747
4.1873713 3.1514487 -1.9028324
4.2036185 3.1234601 -1.9014407
4.2234607 3.0981627 -1.9017886
4.2492261 3.0771372 -1.9049199
4.2680273 3.0510066 -1.9049199
4.2927966 3.0290837 -1.9077032
4.319766 3.0085788 -1.9115303
4.3365993 2.9809546 -1.9108344
4.3555846 2.9548159 -1.9111824
4.3775287 2.9306419 -1.912922
4.4016871 2.9078593 -1.9157053
4.4108062 2.8751667 -1.9118782
4.4338851 2.8515971 -1.9143137
4.448132 2.8223293 -1.912922
4.464571 2.7944856 -1.9125741
4.4561028 2.7512836 -1.9014407
4.4873157 2.7326636 -1.9077032
4.5168595 2.7127991 -1.9132699
4.5527821 2.6964951 -1.9216199
4.5587158 2.662365 -1.917097
4.5611525 2.6263931 -1.9111824
4.5665817 2.5923424 -1.9066595
4.5979486 2.5729687 -1.9132699
4.6152916 2.5456131 -1.9139657
4.6332955 2.518589 -1.9150095
4.6428766 2.4870145 -1.9125741
4.6655121 2.4624164 -1.9157053
4.6755419 2.431149 -1.9136178
4.6928749 2.4036963 -1.9146615
4.7033496 2.3727458 -1.912922
4.7186599 2.3442588 -1.9132699
4.7346396 2.3160851 -1.9139657
4.7496061 2.2873969 -1.9143137
4.7635522 2.2582109 -1.9143137
4.775619 2.2281473 -1.9136178
4.7960176 2.2019305 -1.9164011
4.8120017 2.1736186 -1.9174449
4.8295326 2.1459544 -1.9191844
4.8357353 2.1132786 -1.9164011
4.8468885 2.0828273 -1.9157053
4.8604407 2.0534129 -1.9160533
4.8755465 2.0246291 -1.917097
4.8896141 1.9953834 -1.9177928
4.9026356 1.9656924 -1.9181408
4.9172215 1.9366034 -1.9191844
4.9298863 1.9067335 -1.9195324
4.941493 1.8764484 -1.9195324
4.9555497 1.8470744 -1.9205762
4.9694314 1.8175985 -1.9216199
4.9787254 1.7864395 -1.9209241
4.9984374 1.7589672 -1.9244033
5.0064769 1.7273475 -1.9233595
5.0249753 1.6992971 -1.9264908
5.0379772 1.6693165 -1.9275346
5.049017 1.6386619 -1.9278824
5.0643382 1.6093533 -1.9299699
5.0714316 1.577414 -1.9289262
5.0747361 1.5443573 -1.9264908
5.0769277 1.5110523 -1.9237075
5.0825028 1.4788254 -1.9223157
5.0869718 1.4463309 -1.9205762
5.0975571 1.415592 -1.921272
5.1088619 1.3850226 -1.9223157
5.1208897 1.3546075 -1.9237075
5.1291051 1.3231608 -1.9237075
5.1480384 1.2944052 -1.9278824
5.1567945 1.2630159 -1.9282304
5.1662712 1.2317851 -1.9289262
5.1691656 1.1990041 -1.9271866
5.1727667 1.16644 -1.925795
5.1779947 1.1342777 -1.9250991
5.1885252 1.103264 -1.9264908
5.2007065 1.072542 -1.9285783
5.219142 1.0429966 -1.9331012
5.2272844 1.0113087 -1.933797
5.2444501 0.98128235 -1.9379721
5.2568307 0.95025057 -1.9404075
5.2570205 0.91701192 -1.9383199
5.2597747 0.88427246 -1.9372762
5.2836118 0.85497367 -1.9442346
5.2748618 0.82037973 -1.9390157
5.2760873 0.7874456 -1.9376241
5.2873163 0.75598478 -1.9400595
5.2890687 0.72314781 -1.9390157
5.2906175 0.69031781 -1.9379721
5.2817278 0.65622669 -1.9331012
5.2996211 0.62545151 -1.9383199
5.3042908 0.5930258 -1.9386679
5.3124914 0.56095934 -1.9404075
5.3167667 0.52844447 -1.9407554
5.3245764 0.49624547 -1.942495
5.3275213 0.46356514 -1.942495
5.334003 0.43116871 -1.9438866
5.3356133 0.39836216 -1.9435388
5.3407636 0.36580753 -1.9445825
5.3429074 0.33303034 -1.9445825
5.342042 0.30008346 -1.9435388
0 0 -0
5.3425126 0.23438314 -1.942495
5.3382287 0.20138682 -1.9404075
5.342175 0.16871646 -1.9414512
5.3337374 0.1356979 -1.9379721
5.3354073 0.10298603 -1.9383199
5.3415632 0.070319489 -1.9404075
0 0 -0
0 0 -0
0 -0 -0
0 -0 -0
0 -0 -0
0 -0 -0
5.3677692 -0.15994652 -1.950845
0 -0 -0
0 -0 -0
5.3517423 -0.2581327 -1.9463221
5.3425689 -0.29055661 -1.9435388
5.3360062 -0.32304823 -1.9417992
0 -0 -0
5.3372502 -0.38891494 -1.9438866
5.3254175 -0.42091566 -1.9404075
5.3339443 -0.45454153 -1.9445825
0 -0 -0
5.3158345 -0.5187766 -1.9400595
5.3134837 -0.55148119 -1.9404075
5.3239784 -0.58561432 -1.9456263
0 -0 -0
5.316391 -0.65090358 -1.9456263
5.3048582 -0.68255341 -1.9428428
5.2949958 -0.71433729 -1.9407554
5.2923698 -0.7470758 -1.9414512
5.2737741 -0.77748108 -1.9362324
5.3504462 -0.82237667 -1.9668492
0 -0 -0
0 -0 -0
5.3103828 -0.91657048 -1.9578034
5.294508 -0.94731861 -1.9539763
5.28583 -0.97927427 -1.9529325
5.2640696 -1.0086863 -1.9470179
5.26054 -1.0415139 -1.9480617
5.240273 -1.0709536 -1.9428428
5.2161736 -1.0994097 -1.9362324
5.1974201 -1.1288055 -1.9317095
5.1528859 -1.1522784 -1.9174449
5.0662346 -1.1655691 -1.887176
4.9613709 -1.1735204 -1.8499489
4.8748236 -1.1846615 -1.8196801
4.8065209 -1.1993293 -1.7963696
4.7173362 -1.2078503 -1.765057
4.6681266 -1.2258095 -1.7490528
4.6206865 -1.2436984 -1.7337444
4.5840487 -1.2640449 -1.7226111
4.5509453 -1.2850089 -1.7128694
4.5294657 -1.3090011 -1.7076505
4.510561 -1.3335763 -1.7034756
4.5363922 -1.3715461 -1.7166965
4.549387 -1.4060042 -1.7250465
4.5674925 -1.4423683 -1.735484
4.5496345 -1.4674865 -1.7320049
4.5307498 -1.4921466 -1.7281778
4.5161772 -1.5181251 -1.7260902
4.5023437 -1.5442853 -1.7243507
4.4954381 -1.5728116 -1.7253944
4.4865856 -1.6006807 -1.7257423
4.4749174 -1.6275384 -1.7250465
4.4701209 -1.6569216 -1.727134
4.4730248 -1.6892903 -1.7323527
4.452951 -1.7129995 -1.7285256
4.4266453 -1.7341307 -1.7222631
4.4263701 -1.7654299 -1.7264382
4.3998199 -1.7862047 -1.7201756
4.3775139 -1.8085114 -1.7156527
4.3602853 -1.8327928 -1.7132173
4.3325806 -1.8525054 -1.7066069
4.311676 -1.8749399 -1.7027798
4.2958035 -1.8994639 -1.7010401
4.2917628 -1.929248 -1.7041714
4.2730236 -1.9524268 -1.7013881
4.2465096 -1.9718927 -1.6954734
4.2300911 -1.9959104 -1.6937339
4.2186103 -2.0222337 -1.6940818
4.2069654 -2.048491 -1.6944298
4.1749907 -2.0647025 -1.6864276
4.1454892 -2.0818617 -1.6794692
4.1526794 -2.1174848 -1.6878192
4.1354465 -2.1407692 -1.6860797
4.1023173 -2.1556325 -1.6777297
4.1080375 -2.1909151 -1.6857318
4.0870972 -2.2120621 -1.6826005
4.0594792 -2.2294228 -1.6766859
4.0555496 -2.259768 -1.6808609
4.0252872 -2.2753787 -1.6739026
4.0096235 -2.2991014 -1.6732067
4.0051646 -2.3293192 -1.6773818
4.0125966 -2.3667159 -1.6867756
4.0173068 -2.4028468 -1.6951256
4.0056934 -2.4293966 -1.6965172
3.9978981 -2.4583509 -1.6996485
3.9723976 -2.4763851 -1.6951256
3.9492037 -2.4957023 -1.6916463
3.9275014 -2.5158401 -1.688863
3.9104183 -2.5388699 -1.6881672
3.9049461 -2.5695181 -1.6926901
3.8992448 -2.6001942 -1.6972131
3.8777802 -2.6203949 -1.6947776
3.8484805 -2.6351316 -1.688863
3.8299286 -2.6570919 -1.6878192
3.8112524 -2.6789238 -1.6867756
3.8008513 -2.7066109 -1.6895589
3.7735295 -2.7221999 -1.684688
3.7378352 -2.7314692 -1.6759901
3.7225115 -2.7554686 -1.6766859
3.7092841 -2.7810707 -1.6784256
3.6884174 -2.8009422 -1.6766859
3.6823068 -2.8320973 -1.6819047
3.6818683 -2.867893 -1.6899068
3.6678815 -2.8933346 -1.6916463
3.65958 -2.9233952 -1.6961693
3.6437597 -2.9475644 -1.6972131
3.6263304 -2.9704607 -1.697561
3.6094787 -2.9938531 -1.6982569
3.5967829 -3.0207689 -1.7010401
3.5760379 -3.0409589 -1.6999964
3.5544703 -3.0603964 -1.6986047
3.5137222 -3.0630453 -1.6878192
2.4857068 -2.1934288 -1.1882095
2.4631152 -2.2005162 -1.1836866
2.4655538 -2.2300582 -1.1916888
3.4444051 -3.1546876 -1.6912985
3.432544 -3.1827767 -1.6951256
3.4074831 -3.1986439 -1.6923422
3.3884718 -3.2201376 -1.6926901
3.3713515 -3.2434688 -1.6940818
3.3473577 -3.2601683 -1.6919943
3.3099375 -3.2635274 -1.6829485
3.2871971 -3.2811255 -1.6815568
3.2670026 -3.3012335 -1.6815568
3.242754 -3.317194 -1.6794692
3.2067132 -3.3208387 -1.6711192
3.191452 -3.3458807 -1.6739026
3.1785748 -3.3735905 -1.6780776
3.1603692 -3.395776 -1.6794692
3.1470854 -3.423388 -1.6836443
3.1386223 -3.4565184 -1.6906027
3.1123478 -3.4701269 -1.6878192
3.0854034 -3.4828415 -1.684688
3.0707641 -3.5094705 -1.6885151
3.0479469 -3.5268271 -1.6878192
3.0378106 -3.5590141 -1.6944298
3.0153115 -3.5768697 -1.6940818
2.9939072 -3.5960248 -1.6944298
2.9586906 -3.5983925 -1.6867756
2.9501438 -3.6332216 -1.6947776
2.9201732 -3.6417449 -1.6902547
2.8925364 -3.6529777 -1.6871234
2.0104759 -2.5707264 -1.1690742
1.9849275 -2.5703962 -1.1631595
1.9657093 -2.5780528 -1.161072
1.9459085 -2.584821 -1.1586366
1.9283348 -2.5944543 -1.1575929
1.9140422 -2.6085057 -1.1586366
1.8980007 -2.6202011 -1.1586366
1.6153615 -2.2587831 -0.98850489
1.6171416 -2.2908702 -0.99859446
1.5875211 -2.2784359 -0.98850489
2.6040082 -3.7879722 -1.663813
2.5854521 -3.8108625 -1.6669443
2.5531569 -3.8134089 -1.6610296
2.5374591 -3.8407383 -1.6662484
2.5102625 -3.8507369 -1.663813
2.47949 -3.8550262 -1.6589421
2.4567935 -3.8717511 -1.6596379
2.4305046 -3.8827786 -1.6578984
2.4061422 -3.896821 -1.6575505
2.3821864 -3.9115117 -1.6575505
2.3552458 -3.9212317 -1.655463
2.3297086 -3.9331892 -1.6544192
2.3064764 -3.9490294 -1.655115
2.2817345 -3.9622948 -1.6547672
2.25229 -3.9672511 -1.6509401
2.2315662 -3.9875422 -1.6537234
2.19891 -3.9863811 -1.6474608
2.1753039 -4.0014458 -1.6481566
2.143188 -4.0006671 -1.6422421
2.1181626 -4.0129128 -1.6418941
2.0947969 -4.0283298 -1.6429379
2.0734577 -4.0477839 -1.6457212
2.0595562 -4.0821953 -1.6547672
2.0340526 -4.0939159 -1.6544192
2.0080712 -4.1046352 -1.6537234
1.9824411 -4.1160345 -1.6533754
1.9595568 -4.1332045 -1.655463
1.9282159 -4.1324048 -1.6502442
1.9016507 -4.141602 -1.6492004
1.8808315 -4.1634464 -1.6533754
1.3895134 -3.1261394 -1.2275243
1.3691798 -3.1320291 -1.2264805
1.353266 -3.1481242 -1.2296118
1.3339239 -3.1563685 -1.2296118
1.7518741 -4.2183151 -1.6530275
1.726312 -4.2298532 -1.6533754
1.702418 -4.2455878 -1.655463
1.6763355 -4.2559538 -1.655463
1.6583019 -4.2871466 -1.663813
1.6339611 -4.3025002 -1.6659005
1.6075306 -4.3124452 -1.6659005
1.5871549 -4.3389583 -1.6725109
1.5620838 -4.3530273 -1.6742505
1.5393879 -4.3740282 -1.6787734
1.5070199 -4.3674374 -1.6725109
1.4798933 -4.3757138 -1.672163
1.4521326 -4.3820419 -1.6711192
1.4257959 -4.392653 -1.671815
1.3982488 -4.3995318 -1.6711192
1.3687232 -4.399971 -1.6679879
1.3447 -4.4181533 -1.671815
1.3154274 -4.4191318 -1.6690317
1.2875022 -4.4244194 -1.6679879
1.2603302 -4.4322357 -1.6679879
1.2331108 -4.4398856 -1.6679879
1.2082961 -4.4564176 -1.6714672
1.1814084 -4.4655604 -1.672163
1.152348 -4.4663706 -1.6697276
1.1258349 -4.476994 -1.6711192
1.0978978 -4.4819965 -1.6704234
0.69411701 -2.9090493 -1.0678301
0.67223322 -2.8959002 -1.0612197
0.65280336 -2.8926537 -1.0584363
0.63383961 -2.8911097 -1.0563488
0.61472464 -2.888525 -1.0539134
0.5958544 -2.8867331 -1.0518259
0.57813054 -2.8903346 -1.0518259
0.55896187 -2.8864636 -1.0490426
0.54192924 -2.8935254 -1.0504342
0.52133304 -2.8811116 -1.0445197
0.50509316 -2.8925688 -1.0476508
0.48562762 -2.8854432 -1.0438237
0.46297827 -2.8578265 -1.0323426
0.44111791 -2.8328209 -1.0219049
0.42552423 -2.8475289 -1.0264279
0.41069409 -2.8686485 -1.0333862
0.39257744 -2.867399 -1.0319946
0.37570262 -2.8753319 -1.0340821
0.35505265 -2.8533926 -1.0250362
0.33479583 -2.8322403 -1.0163382
0.32312939 -2.8854871 -1.0354737
0.29981819 -2.8342707 -1.0156424
0.2839947 -2.851917 -1.0215571
0.26796591 -2.8694756 -1.0274717
0.24946232 -2.8607914 -1.0236446
0.23228082 -2.8669407 -1.0253842
0.21586846 -2.8842061 -1.0312988
0.19989154 -2.9107306 -1.0406926
0.18167913 -2.9062881 -1.038605
0.16326688 -2.8970513 -1.0347779
0.14646718 -2.9176624 -1.0420842
0.12864375 -2.9203794 -1.04278
0.11107364 -2.9304824 -1.0462592
0.093061052 -2.9301717 -1.0459113
0.075671151 -2.9541183 -1.0546092
0.057597272 -2.957339 -1.055653
0.039802324 -2.9848228 -1.0657426
0.021474272 -2.9831357 -1.0650468
0.0031436952 -2.9447727 -1.0507821
-0.014884203 -2.9372365 -1.0479988
-0.032808628 -2.9286528 -1.0448675
-0.050595038 -2.9180853 -1.0410404
-0.068230629 -2.9064727 -1.0368655
-0.086119376 -2.9078736 -1.0375613
-0.104265 -2.9157226 -1.0406926
-0.12254979 -2.9243948 -1.0441717
-0.13999218 -2.9132872 -1.0403446
-0.15888742 -2.9310961 -1.047303
-0.17772214 -2.9441028 -1.0525217
-0.1951575 -2.9336026 -1.0490426
-0.21329074 -2.9342201 -1.0497384
-0.2322537 -2.9450057 -1.0542613
-0.24928208 -2.9313817 -1.0497384
-0.26683632 -2.9251289 -1.0479988
-0.28450575 -2.9206374 -1.046955
-0.30213013 -2.9160392 -1.0459113
-0.32032505 -2.9169261 -1.046955
-0.33886749 -2.9204931 -1.0490426
-0.35917771 -2.9379003 -1.0563488
-0.3775571 -2.9384308 -1.0573926
-0.39859292 -2.9583566 -1.0657426
-0.41647509 -2.9539988 -1.0650468
-0.43377101 -2.945823 -1.0629592
-0.45240858 -2.9468124 -1.064351
-0.4694432 -2.937501 -1.0619155
-0.4868426 -2.930866 -1.0605239
-0.50609416 -2.9352143 -1.0633072
-0.52161491 -2.918211 -1.0580884
-0.54053682 -2.9204865 -1.0601759
-0.55862302 -2.9180355 -1.0605239
-0.58417302 -2.9531775 -1.0751363
-0.59965152 -2.9366786 -1.0702655
-0.6180464 -2.9347785 -1.0709614
-0.64022493 -2.9501696 -1.0782676
-0.65708607 -2.9406965 -1.0761801
-0.6736446 -2.9302139 -1.0737447
-0.68858731 -2.9132533 -1.0688739
-0.70423377 -2.8998637 -1.0653946
-0.71133602 -2.8527377 -1.0490426
-0.73068881 -2.8555846 -1.0518259
-0.742715 -2.8301928 -1.0438237
-1.0634645 -3.951709 -1.4766333
-0.82079226 -2.9781148 -1.1043614
-0.84465969 -2.9928706 -1.1120156
-0.86222619 -2.9849298 -1.1109719
-0.88424957 -2.9921689 -1.1158427
-1.2219263 -4.0419583 -1.5249939
-1.2566779 -4.066628 -1.5375189
-1.2906476 -4.0874467 -1.5486523
-1.3252079 -4.1088929 -1.5601336
-0.9908787 -3.0099378 -1.1339345
-0.98003256 -2.9167197 -1.0998385
-0.96838522 -2.8246379 -1.0660905
-0.98600847 -2.8195276 -1.0664384
-1.0067579 -2.8231368 -1.0702655
-1.0195723 -2.8045726 -1.0653946
-1.0318707 -2.7850788 -1.0601759
-1.0489402 -2.7786949 -1.0601759
-1.0659702 -2.7722063 -1.0601759
-1.0860397 -2.7734692 -1.0633072
-1.1065122 -2.7754605 -1.0667863
-1.1263442 -2.7755675 -1.0695697
-1.1415627 -2.7642722 -1.0678301
-1.1606834 -2.7624006 -1.0699176
-1.1776114 -2.7552269 -1.0699176
-1.1941209 -2.7470896 -1.0695697
-1.2056434 -2.7277081 -1.0646988
-1.2208192 -2.7168391 -1.0633072
-1.2308393 -2.6948023 -1.0573926
-1.2445856 -2.6812477 -1.0549572
-1.2602135 -2.671865 -1.0542613
-1.2753676 -2.6615462 -1.0532175
-1.2908533 -2.6519852 -1.0525217
-1.3158332 -2.6616604 -1.059828
-1.3355076 -2.660238 -1.0626113
-1.359049 -2.6661904 -1.0685259
-1.3650339 -2.6378217 -1.0601759
-1.3986458 -2.6625888 -1.0740926
-1.4295225 -2.681252 -1.0855739
-1.4606805 -2.6996353 -1.0970552
-2.1016474 -3.8269544 -1.5782253
-1.5000906 -2.6929712 -1.101926
-1.4976625 -2.6502583 -1.0876614
-1.5036318 -2.6231287 -1.0800072
-1.5031952 -2.5854921 -1.0678301
-1.5128367 -2.5657239 -1.0633072
-1.5304769 -2.5596108 -1.0646988
-1.5422627 -2.5437598 -1.0619155
-1.5612808 -2.5398383 -1.064351
-1.5788202 -2.5333924 -1.0657426
-1.5993454 -2.5315814 -1.0692217
-1.6158607 -2.523299 -1.0699176
-1.638463 -2.5243437 -1.0747885
-1.649797 -2.5079782 -1.0720052
-1.6615123 -2.4923489 -1.0695697
-1.6709975 -2.4735639 -1.0657426
-1.6866734 -2.4640377 -1.0660905
-1.6932071 -2.4413195 -1.0605239
-1.7216378 -2.4500558 -1.0692217
-1.7328306 -2.4341011 -1.0667863
-1.7373083 -2.4089792 -1.0601759
-1.765337 -2.4164374 -1.0685259
-1.7845945 -2.4115872 -1.0713092
-1.8066717 -2.4103415 -1.0758322
-1.8270991 -2.4066756 -1.0793114
-1.8275381 -2.3768442 -1.0706134
-1.8426641 -2.3663254 -1.0709614
-1.8519214 -2.348351 -1.0678301
-1.8621986 -2.3318172 -1.0653946
-1.864675 -2.3057721 -1.0584363
-1.8740338 -2.2884862 -1.055653
-1.8856455 -2.2740583 -1.0542613
-1.8977541 -2.2602923 -1.0532175
-1.9097646 -2.2464631 -1.0521739
-1.9204533 -2.2311511 -1.0504342
-1.9415021 -2.2278039 -1.0546092
-1.9669256 -2.2292016 -1.0612197
-1.9755678 -2.2114992 -1.0584363
-1.9784049 -2.1875193 -1.0525217
-2.0000241 -2.1843247 -1.0570446
-2.0082881 -2.1665132 -1.0542613
-2.0080657 -2.1397986 -1.046955
-2.0140514 -2.1199632 -1.0431279
-2.0276716 -2.1082408 -1.0434759
-2.0431864 -2.0984454 -1.0448675
-2.0553653 -2.0852017 -1.0445197
-2.0747461 -2.0791848 -1.0479988
-2.085465 -2.0644374 -1.046955
-2.0980928 -2.0516024 -1.046955
-2.108618 -2.0367367 -1.0459113
-2.1190398 -2.0218194 -1.0448675
-2.1389134 -2.0158494 -1.0486946
-2.1581066 -2.0090728 -1.0521739
-2.1786776 -2.0034049 -1.0563488
-2.1971774 -1.9956697 -1.0594801
-2.2177584 -1.9896601 -1.0636551
-2.2629149 -2.0052257 -1.0800072
-2.2645903 -1.9820451 -1.0747885
-2.2795472 -1.9705638 -1.0761801
-2.2858896 -1.9516718 -1.0733968
-2.3021235 -1.9412338 -1.0754843
-2.3103881 -1.9240732 -1.0737447
-2.3243234 -1.9116465 -1.0747885
-2.3352814 -1.8967578 -1.0744405
-2.3673596 -1.89881 -1.0841823
-2.3899932 -1.8929757 -1.089401
-2.3986084 -1.8759662 -1.0880094
-2.4115584 -1.8623587 -1.0887052
-2.4139915 -1.8407084 -1.0845301
-2.4364784 -1.8343158 -1.0897489
-2.43414 -1.8092694 -1.0834864
-2.4504881 -1.7981803 -1.0859218
-2.4447675 -1.7710168 -1.0782676
-2.4677932 -1.7647034 -1.0838343
-2.4755101 -1.7473667 -1.0824426
-2.4677186 -1.7192889 -1.0740926
-2.4782217 -1.7041149 -1.0740926
-2.4971666 -1.6946645 -1.0779197
-2.5012846 -1.6751392 -1.0751363
-2.5224688 -1.6669924 -1.0800072
-2.5522876 -1.6642781 -1.0887052
-2.5853219 -1.663288 -1.0987948
-2.6160641 -1.6604483 -1.1078407
-2.6484575 -1.658288 -1.1175823
-2.7048571 -1.6705627 -1.1377615
-2.7222641 -1.6583217 -1.1408927
-2.7468567 -1.6502725 -1.1471553
-2.7512836 -1.6300439 -1.1447198
-2.7620432 -1.6136043 -1.1450678
-2.7889559 -1.606447 -1.152374
-2.8183303 -1.6004078 -1.160724
-2.8919199 -1.618781 -1.1878617
-3.0077112 -1.6593933 -1.232743
-2.9947703 -1.6283752 -1.2230014
-3.0493376 -1.6338643 -1.2417889
-3.0974498 -1.6352447 -1.2577931
-3.147356 -1.6369601 -1.2744931
-3.1940601 -1.636415 -1.2898015
-3.260129 -1.6450658 -1.313112
-3.2970321 -1.6383731 -1.3242453
-3.393775 -1.6605258 -1.3600808
-3.6387439 -1.7527077 -1.456802
-3.7985442 -1.8009971 -1.5180355
-3.9097867 -1.8244087 -1.5590898
-3.6848748 -1.6920803 -1.4627166
-3.7379119 -1.6887261 -1.4801124
-3.8895817 -1.728542 -1.5375189
-3.8382554 -1.6776263 -1.5124688
-3.9139464 -1.6821605 -1.5389105
-3.984653 -1.68364 -1.5632647
-4.1351871 -1.7173755 -1.6196275
-4.2116232 -1.7188772 -1.6460692
-4.2386255 -1.6996284 -1.6526796
-4.2882318 -1.6890398 -1.6683359
-4.3369918 -1.6775681 -1.6836443
-4.3682404 -1.6589084 -1.6919943
-4.4389577 -1.654654 -1.7160006
-4.487771 -1.6415472 -1.7313089
-4.5330591 -1.6266375 -1.7452257
-4.5579901 -1.6040798 -1.7511402
-4.643084 -1.6020572 -1.7807133
-4.7274342 -1.5987495 -1.8099383
-4.8154755 -1.5956448 -1.8405551
-4.8733325 -1.5816855 -1.8593427
-4.9517498 -1.5736017 -1.8861324
-5.0132384 -1.5593275 -1.9063115
-5.0585909 -1.5394477 -1.9202282
-5.0940018 -1.51613 -1.9303179
-5.1239142 -1.490865 -1.9383199
-5.125751 -1.4573475 -1.9355366
-5.1463404 -1.4291277 -1.9400595
-5.1559176 -1.3977685 -1.9404075
-5.1653037 -1.3663456 -1.9407554
-5.1744976 -1.3348602 -1.9411033
-5.1898651 -1.3049123 -1.9438866
-5.1968637 -1.2728205 -1.9435388
-5.2036638 -1.2406919 -1.9431908
-5.1764722 -1.2006972 -1.9299699
-5.202034 -1.173033 -1.9369283
-5.2146287 -1.1422943 -1.9390157
-5.2288761 -1.1118348 -1.9417992
-5.2438641 -1.0814326 -1.9449304
-5.2412071 -1.0474012 -1.9414512
-5.2484555 -1.0153999 -1.9417992
-5.2545872 -0.98317689 -1.9417992
-5.255908 -0.95008397 -1.9400595
-5.2579441 -0.91717285 -1.9386679
-5.2542272 -0.88334107 -1.9351887
-5.2567716 -0.85063642 -1.934145
-5.2609658 -0.81822157 -1.933797
-5.2519779 -0.78385264 -1.9285783
-5.252048 -0.75094986 -1.9268386
-0 -0 -0
-0 -0 -0
-0 -0 -0
-0 -0 -0
-0 -0 -0
-0 -0 -0
-0 -0 -0
-0 -0 -0
-0 -0 -0
-0 -0 -0
-0 -0 -0
-0 -0 -0
-0 -0 -0
-0 -0 -0
-0 -0 -0
-0 -0 -0
-0 -0 -0
-0 -0 -0
-0 -0 -0
-0 -0 -0
-0 -0 -0
-0 -0 -0
-5.3551493 -0.0047738696 -1.9452783
-0 0 -0
-0 0 -0
-0 0 -0
-0 0 -0
-0 0 -0
-0 0 -0
-0 0 -0
-0 0 -0
-0 0 -0
-0 0 -0
-0 0 -0
-0 -0 -0
-5.2076812 -0.10126346 -1.954055
-0 -0 -0
-0 -0 -0
-0 -0 -0
-0 0 -0
-0 0 -0
-0 0 -0
-0 0 -0
-0 0 -0
-0 0 -0
-0 0 -0
-0 0 -0
-0 0 -0
-0 0 -0
-0 0 -0
-0 0 -0
-0 0 -0
-0 0 -0
-0 0 -0
-0 0 -0
-0 0 -0
-0 0 -0
-0.22359996 0.026342627 -0.044054341
-0 0 -0
-0 0 -0
-0 0 -0
-0 0 -0
-0 0 -0
-0 0 -0
-0 0 -0
-0 0 -0
-0 0 -0
-0 0 -0
-0 0 -0
-0 0 -0
-0 0 -0
-0 0 -0
-5.0511546 1.0638814 -1.936161
-5.0372314 1.0932708 -1.933298
-5.0331626 1.1247689 -1.9343716
-5.0134258 1.1527022 -1.9293613
-5.0080757 1.1838719 -1.9300771
-4.9934583 1.212816 -1.927214
-4.9804864 1.2420772 -1.9250668
-4.9646297 1.2705306 -1.9218459
-4.954031 1.3002582 -1.9207722
-4.9405489 1.3291759 -1.918625
-4.9350009 1.3602097 -1.9196986
-4.9247646 1.3899575 -1.9189829
-4.9116578 1.4188538 -1.9171934
-4.9153962 1.4526684 -1.9222038
-4.9135413 1.484962 -1.9250668
-4.9034452 1.5148073 -1.9247088
-4.9020724 1.5473949 -1.9279298
-4.8924856 1.5774443 -1.9279298
-4.8827143 1.6074344 -1.9279298
-4.8683338 1.6358771 -1.9261404
-4.8564377 1.6651123 -1.9254247
-4.841722 1.6933385 -1.9236352
-4.827723 1.7217605 -1.9222038
-4.8161898 1.7510314 -1.9218459
-4.807106 1.7811987 -1.9225616
