# .PCD v0.7 - Point Cloud Data file format
VERSION 0.7
FIELDS x y z
SIZE 4 4 4
TYPE F F F
COUNT 1 1 1
WIDTH 1523
HEIGHT 1
VIEWPOINT 0 0 0 1 0 0 0
POINTS 1523
DATA ascii
5.1791806 -2.5649915 -1.6776961
5.1753321 -2.6027536 -1.6816864
5.1763358 -2.6431816 -1.6873868
5.1727839 -2.6815128 -1.6916621
5.1502957 -2.7100763 -1.689667
5.129343 -2.7393682 -1.6882418
5.0863166 -2.7566261 -1.6794063
5.0634279 -2.7845488 -1.6774111
5.0554533 -2.8207042 -1.6805463
5.0430551 -2.8545048 -1.6822565
5.0204582 -2.88253 -1.6805463
4.9877691 -2.9045951 -1.675416
4.9566493 -2.9273434 -1.6708556
4.9468164 -2.9626281 -1.6737058
4.9334602 -2.9959116 -1.675416
4.9133525 -3.025121 -1.6748459
4.8881941 -3.0511501 -1.6725658
4.8572321 -3.073396 -1.6682905
4.840703 -3.1046944 -1.6691456
4.7886167 -3.1129119 -1.6574597
4.789434 -3.1554234 -1.6645852
4.7404909 -3.1650524 -1.6540395
4.7138376 -3.1892445 -1.6514744
4.713151 -3.2311194 -1.6583148
4.7058306 -3.2687297 -1.6628752
4.6864696 -3.2980945 -1.6631601
4.6684856 -3.3284578 -1.6640152
4.6518593 -3.3598473 -1.6654403
4.6017642 -3.3668141 -1.6546096
4.5756292 -3.3909905 -1.6526145
4.5654669 -3.4270604 -1.6566046
4.5413013 -3.452688 -1.6554646
4.5374951 -3.4939418 -1.6620201
4.5008569 -3.5099256 -1.6563196
4.4792356 -3.5374763 -1.6563196
4.4716663 -3.5762713 -1.6617351
4.463789 -3.6151066 -1.6671504
4.4392996 -3.6406038 -1.6662953
4.3873858 -3.6432743 -1.6548946
4.3700833 -3.6744452 -1.6568897
4.340158 -3.6949754 -1.6540395
4.3174043 -3.7215364 -1.6540395
4.2735486 -3.7296755 -1.645774
4.2663832 -3.7697937 -1.6520444
4.2331724 -3.7869515 -1.6480541
4.207015 -3.8102801 -1.646914
4.1920323 -3.8437974 -1.6503342
4.1479998 -3.8505313 -1.6420687
4.1284857 -3.8798499 -1.6437788
4.1143217 -3.9143603 -1.6477691
2.3639369 -2.2761633 -0.93493593
2.3512983 -2.2919638 -0.93550599
2.337873 -2.3070214 -0.93579096
3.96889 -3.966037 -1.6275327
3.9350481 -3.9807696 -1.6235424
3.8944802 -3.9883771 -1.616702
3.8958809 -4.0391097 -1.6278177
3.8782957 -4.0705733 -1.630953
3.8657248 -4.1075583 -1.6363683
3.8541505 -4.145946 -1.6423538
3.857806 -4.2012935 -1.6551796
3.8319547 -4.2248855 -1.6551796
3.8206666 -4.2647419 -1.6617351
3.7925215 -4.2859507 -1.66088
3.776242 -4.3206902 -1.6654403
3.7565477 -4.3517623 -1.6685755
3.730397 -4.3754597 -1.6688606
3.7016277 -4.3960667 -1.6680055
3.668457 -4.4113255 -1.6651553
3.6437533 -4.4367151 -1.6662953
3.6152542 -4.4575 -1.6657254
3.5968213 -4.4908228 -1.6700006
3.5656316 -4.5082965 -1.6682905
1.9996301 -2.5595968 -0.92496026
1.9821315 -2.5695407 -0.92410517
1.9657472 -2.5808916 -0.9238202
1.9498742 -2.5929046 -0.9238202
1.9356411 -2.6071296 -0.92467523
1.9207402 -2.6205039 -0.92524529
1.7344546 -2.3968832 -0.83888441
1.7074645 -2.3903162 -0.832614
1.6789645 -2.3811584 -0.82548851
3.2780917 -4.7121639 -1.6660104
3.2523711 -4.7369308 -1.6677204
3.202281 -4.7258468 -1.6566046
3.1710927 -4.742219 -1.6554646
3.1329637 -4.7479849 -1.6506193
3.1351414 -4.8153214 -1.6677204
3.091553 -4.8126903 -1.6600249
3.0788915 -4.8582902 -1.6694306
3.0535953 -4.8844061 -1.6719958
3.0235674 -4.9030509 -1.6719958
2.9934261 -4.9215107 -1.6719958
2.9616933 -4.9373193 -1.6711407
2.9323182 -4.9570489 -1.6717107
2.8883295 -4.9517622 -1.6637301
2.8512039 -4.9577575 -1.6597399
2.8084431 -4.9534769 -1.6523294
2.7779961 -4.9706159 -1.6523294
2.7418969 -4.9774919 -1.6489092
2.7131326 -4.997592 -1.6500492
2.6792531 -5.0082283 -1.6480541
2.645792 -5.0194855 -1.6463439
2.619359 -5.0441327 -1.6491942
2.585305 -5.0541358 -1.647199
1.5377275 -3.0511985 -0.97512364
1.5194026 -3.0614352 -0.97540867
1.5010099 -3.0715618 -0.9756937
2.4251945 -5.0426288 -1.6229724
2.4315135 -5.13626 -1.6489092
2.3950968 -5.1406555 -1.645489
2.3627107 -5.153512 -1.6449189
2.3298631 -5.1652908 -1.6440638
2.2969599 -5.1768603 -1.6432087
2.2682173 -5.197886 -1.645489
2.2291031 -5.1949677 -1.6400735
2.201654 -5.2191463 -1.6434938
2.1611488 -5.2121906 -1.6369383
2.1132205 -5.1862926 -1.6243975
2.0927517 -5.2276392 -1.6335181
2.0560784 -5.2287846 -1.6298128
2.0222311 -5.2368307 -1.6283878
2.0039845 -5.2858906 -1.6400735
1.9691744 -5.2917981 -1.6380785
1.9415963 -5.3172879 -1.6423538
1.906672 -5.3227839 -1.6403586
1.8781039 -5.3461404 -1.6440638
1.8424575 -5.3494062 -1.6414987
1.8123571 -5.3687849 -1.6440638
1.785096 -5.3970962 -1.6494793
1.7543082 -5.4152431 -1.6517594
1.710332 -5.3920979 -1.6412137
1.6772145 -5.4024906 -1.6412137
1.6420852 -5.4062595 -1.6392186
1.6099731 -5.419909 -1.6403586
1.5750842 -5.4241624 -1.6386485
1.5417725 -5.4337249 -1.6386485
1.509426 -5.4467778 -1.6397885
1.4717247 -5.4402065 -1.6349432
1.4334278 -5.4305978 -1.6292429
1.4067641 -5.4652839 -1.6372234
1.3725042 -5.4710231 -1.6363683
1.3393635 -5.481204 -1.6369383
1.3059279 -5.4902515 -1.6372234
1.2732952 -5.502831 -1.6386485
1.2420284 -5.5217624 -1.6420687
1.2128255 -5.5508184 -1.6486242
0.74029219 -3.4886336 -1.0195867
0.72080147 -3.5024993 -1.0224369
0.69873554 -3.5040359 -1.0215818
0.67250639 -3.4837861 -1.0141712
0.65550739 -3.5114043 -1.0212967
0.62715721 -3.4776258 -1.009896
0.61433589 -3.5305166 -1.024717
0.58918071 -3.5134215 -1.0184466
0.57462269 -3.5605016 -1.0315574
0.5545243 -3.5753272 -1.0349777
0.53694052 -3.6080544 -1.0438132
0.51789612 -3.6331074 -1.0503687
0.4949483 -3.6314678 -1.0489436
0.4642714 -3.5697985 -1.0295624
0.43648487 -3.5250154 -1.0153114
0.41562903 -3.5342913 -1.0173064
0.39583954 -3.5539229 -1.0224369
0.37922293 -3.6058562 -1.0372578
0.3563379 -3.6004841 -1.0349777
0.3347685 -3.6083295 -1.0366879
0.31459913 -3.633235 -1.0435283
0.29222357 -3.6341414 -1.0432433
0.26808226 -3.6110125 -1.0358328
0.24462461 -3.5934627 -1.0301324
0.22262986 -3.5958529 -1.0304173
0.19997835 -3.5866234 -1.0272821
0.17796749 -3.5877831 -1.0272821
0.15669337 -3.6060448 -1.0324125
0.13445787 -3.6040649 -1.0315574
0.11287308 -3.6220672 -1.0366879
0.090741053 -3.6265244 -1.0378278
0.068345092 -3.6193461 -1.0355477
0.046064463 -3.6139467 -1.0338376
0.023804445 -3.6007423 -1.0298474
0.0017164063 -3.6410785 -1.0418181
-0.020699419 -3.653481 -1.0455234
-0.04319768 -3.6599944 -1.0475185
-0.0660391 -3.6807444 -1.0537889
-0.090258867 -3.7473464 -1.0737402
-0.11366004 -3.7601352 -1.0777305
-0.13412972 -3.688484 -1.0566392
-0.1574565 -3.7038715 -1.0614845
-0.17732 -3.6444359 -1.0440983
-0.19809571 -3.6145673 -1.0355477
-0.21986014 -3.6065865 -1.0335525
-0.23901857 -3.5611775 -1.0204417
-0.26065394 -3.556776 -1.0195867
-0.28338778 -3.5665758 -1.0230069
-0.30723676 -3.5876896 -1.0298474
-0.33003619 -3.5943272 -1.0324125
-0.35217819 -3.5931885 -1.0326976
-0.37591311 -3.6071665 -1.0375428
-0.39814469 -3.6057446 -1.0378278
-0.422934 -3.6260827 -1.0446683
-0.44904247 -3.6548133 -1.0540739
-0.47207463 -3.6567421 -1.0554991
-0.49244145 -3.6385796 -1.0509387
-0.52539772 -3.7104616 -1.0734553
-0.53255934 -3.6019211 -1.0418181
-0.54455459 -3.5332227 -1.0221518
-0.57124388 -3.5610452 -1.0315574
-0.60019004 -3.6000171 -1.0443833
-0.61146212 -3.5339339 -1.0255721
-0.64652634 -3.604645 -1.0480886
-0.67213798 -3.6194572 -1.0537889
-0.69125545 -3.5992637 -1.0489436
-0.70902944 -3.5733314 -1.0423882
-0.72997856 -3.5642188 -1.0409631
-0.75084257 -3.5549836 -1.039538
-0.76855886 -3.531579 -1.0338376
-0.79588026 -3.5520489 -1.0415331
-0.81852263 -3.5508344 -1.0426732
-0.84494269 -3.5653303 -1.0486586
-0.86407864 -3.5489037 -1.0452384
-0.91935545 -3.6774306 -1.0862812
-0.94881779 -3.6986437 -1.0945467
-0.79130965 -3.0086961 -0.88420248
-0.80775714 -2.9963808 -0.88192236
-0.8215282 -2.9747391 -0.87679201
-0.84838408 -3.0000768 -0.88619763
-0.85663682 -2.9598305 -0.87536687
-1.0758651 -3.6327257 -1.0857111
-1.098691 -3.6278903 -1.0862812
-1.1246191 -3.6329832 -1.0899864
-1.1520976 -3.6424627 -1.0951167
-1.1794397 -3.6508293 -1.0999621
-1.1792786 -3.5752594 -1.0785856
-1.07477 -3.1928167 -0.96087265
-1.0902888 -3.1743784 -0.95716745
-1.1049873 -3.1540611 -0.95289212
-1.1062438 -3.0966794 -0.93693107
-1.1232541 -3.0844302 -0.93522096
-1.1398218 -3.0711904 -0.93322581
-1.1593235 -3.0659316 -0.93379587
-1.1829414 -3.0712812 -0.9377861
-1.1993121 -3.0577195 -0.93579096
-1.3471993 -3.3733904 -1.039253
-1.3906305 -3.420995 -1.0572091
-1.4167286 -3.4247966 -1.0611994
-1.4384602 -3.4178059 -1.0617695
-1.461292 -3.4133205 -1.0631946
-1.4810596 -3.4016538 -1.0623395
-1.5123879 -3.4161637 -1.0700351
-1.5297775 -3.3989539 -1.0674698
-1.5553926 -3.3999617 -1.0708901
-1.5822905 -3.4033897 -1.0751654
-1.5847076 -3.3546219 -1.0623395
-1.6251812 -3.3863084 -1.0760205
-1.6244938 -3.3323381 -1.0614845
-1.6355475 -3.3034124 -1.055214
-1.6445844 -3.2710526 -1.0478035
-1.6572109 -3.2463892 -1.0429583
-1.6801884 -3.2421157 -1.0449533
-1.7054082 -3.2419233 -1.0483736
-1.7202994 -3.2220986 -1.0452384
-1.7299857 -3.1929448 -1.038968
-1.7694131 -3.2183812 -1.0512238
-1.7989386 -3.2250395 -1.0572091
-1.8186932 -3.2139409 -1.0572091
-1.822624 -3.175293 -1.0478035
-1.8493108 -3.1764729 -1.0520788
-1.86194 -3.1535127 -1.0480886
-1.8743575 -3.1305175 -1.0440983
-1.8820838 -3.1001163 -1.0375428
-1.8975514 -3.0827968 -1.0355477
-1.92557 -3.0857301 -1.040678
-1.9254982 -3.043891 -1.0301324
-1.962774 -3.0610611 -1.040393
-2.0139196 -3.0987794 -1.0580642
-2.0772057 -3.1535904 -1.0820059
-2.0629752 -3.0905707 -1.0640496
-2.0996301 -3.104049 -1.0734553
-2.1294796 -3.1069169 -1.0791557
-2.0702844 -2.9812329 -1.0383979
-2.0946076 -2.9770951 -1.0415331
-2.1445618 -3.008667 -1.0577792
-2.1775782 -3.0156517 -1.0651897
-2.1949086 -3.0006866 -1.0646197
-2.2155626 -2.9902425 -1.0657598
-2.2045138 -2.9375021 -1.0512238
-2.1981246 -2.8918777 -1.039253
-2.2368858 -2.9056721 -1.0495137
-2.2228343 -2.8510823 -1.0341226
-2.2248366 -2.8178349 -1.0267122
-2.2486715 -2.8123634 -1.0298474
-2.2682993 -2.8014917 -1.0309874
-2.2811904 -2.7823339 -1.0289923
-2.3221071 -2.7970388 -1.0401081
-2.3157792 -2.7548642 -1.0292773
-2.3469338 -2.7573864 -1.0358328
-2.3669384 -2.7465637 -1.0372578
-2.3932025 -2.7428193 -1.0415331
-2.422049 -2.7417283 -1.0469484
-2.4273202 -2.7139587 -1.0418181
-2.4921968 -2.7522876 -1.0631946
-2.4740486 -2.6988008 -1.0478035
-2.5166521 -2.7116642 -1.0592043
-2.545718 -2.7094398 -1.0646197
-2.5543649 -2.685437 -1.0611994
-2.5468514 -2.6448646 -1.0509387
-2.5516539 -2.617523 -1.0460935
-2.5737281 -2.6079552 -1.0486586
-2.559864 -2.5622873 -1.0361178
-2.6028106 -2.5734806 -1.0475185
-2.6062052 -2.5454102 -1.0423882
-2.611424 -2.5193915 -1.0381129
-2.6532097 -2.5284405 -1.0489436
-2.6826367 -2.5252485 -1.054644
-2.698081 -2.5087407 -1.054644
-2.7134235 -2.4921384 -1.054644
-2.7265337 -2.4735107 -1.0537889
-2.7388031 -2.4541767 -1.0526489
-2.7631438 -2.4455812 -1.0563542
-2.7889252 -2.4380403 -1.0606294
-2.8103635 -2.4265177 -1.0631946
-2.8215518 -2.4061193 -1.0617695
-2.8201292 -2.3751819 -1.0554991
-2.8280158 -2.3523188 -1.0529339
-2.8253565 -2.3209336 -1.0463785
-2.8522019 -2.3138156 -1.0512238
-2.8678422 -2.2974694 -1.0517938
-2.8803813 -2.2786405 -1.0512238
-2.8829753 -2.2520766 -1.0469484
-2.8937027 -2.2320039 -1.0458084
-2.8966653 -2.2060792 -1.0418181
-2.9109132 -2.1888399 -1.0421032
-3.0012696 -2.2280486 -1.070605
-3.1517572 -2.3098392 -1.1210535
-3.0268316 -2.1899273 -1.0700351
-3.1759641 -2.2682042 -1.1196284
-3.2109787 -2.2635794 -1.1273239
-3.0186236 -2.1004615 -1.0526489
-3.0733409 -2.1106465 -1.0677549
-3.0751233 -2.0842237 -1.0637646
-3.0846663 -2.0631852 -1.0626246
-3.0988679 -2.0452747 -1.0631946
-3.0872579 -2.0105371 -1.054644
-3.143091 -2.0195222 -1.0700351
-3.1627109 -2.0048149 -1.0726002
-3.1725142 -1.9838473 -1.0717452
-3.1797314 -1.961326 -1.0700351
-3.1589444 -1.9218611 -1.0586343
-3.1616344 -1.8970201 -1.0554991
-3.1443369 -1.8605101 -1.0455234
-3.1821916 -1.8566308 -1.054644
-3.1835515 -1.8313379 -1.0512238
-3.2664461 -1.8524116 -1.0757354
-3.2216847 -1.8010147 -1.0566392
-3.2712991 -1.8024793 -1.0697501
-3.2789276 -1.7805444 -1.06861
-3.3244472 -1.7789227 -1.0802958
-3.373461 -1.7785957 -1.0931216
-3.4498188 -1.7918637 -1.1150681
-3.488059 -1.7846251 -1.1241887
-3.5271952 -1.7774153 -1.1335944
-3.5311649 -1.7523327 -1.1313142
-3.5633838 -1.7411467 -1.1384397
-3.584367 -1.7242326 -1.1418599
-3.6771903 -1.7411524 -1.1689367
-3.7269063 -1.7367651 -1.1817626
-3.7749629 -1.731034 -1.1940185
-3.8327 -1.7291112 -1.2094095
-3.9299843 -1.7440298 -1.2376264
-5.1258407 -2.2367964 -1.6221174
-4.0603261 -1.7425168 -1.2729688
-4.1433668 -1.7481048 -1.2963403
-4.1920915 -1.7384273 -1.3085961
-4.2816882 -1.7448463 -1.3339629
-4.3056626 -1.7238823 -1.3382381
-4.3509512 -1.7111037 -1.3493539
-4.403398 -1.7005943 -1.3627498
-4.4764938 -1.6973163 -1.3827012
-4.5200648 -1.682179 -1.3932469
-4.6356535 -1.6928571 -1.4265941
-4.6342216 -1.6601818 -1.4228889
-4.8704224 -1.7110932 -1.4941437
-4.8627033 -1.6749375 -1.4884434
-5.1090298 -1.7247299 -1.5625483
-5.2642221 -1.7411778 -1.6078664
-5.2501845 -1.7008735 -1.6001709
-5.459713 -1.7317638 -1.6623051
-5.5370665 -1.7189635 -1.6831114
-5.5805287 -1.6949782 -1.6933721
-5.6477957 -1.6776154 -1.7110434
-5.7307067 -1.6640311 -1.7335598
-5.8127384 -1.6492302 -1.7557914
-5.9077344 -1.6370658 -1.7820132
-6.0601664 -1.6393039 -1.8259062
-6.1952333 -1.6350874 -1.8643837
-6.3731737 -1.6402562 -1.9159722
-6.4416933 -1.6158019 -1.9339285
-6.4617295 -1.5787467 -1.9370637
-6.4703622 -1.538847 -1.9367787
-6.4899554 -1.5014914 -1.9399139
-6.5102687 -1.4641634 -1.9433341
-6.5191298 -1.4241896 -1.9433341
-6.5493131 -1.3887314 -1.9498895
-6.5511384 -1.347169 -1.9478943
-6.5686822 -1.3088181 -1.9507446
-6.4890571 -1.2516214 -1.9242377
-6.5277104 -1.2175763 -1.9336435
-6.4954376 -1.1703682 -1.9216726
-6.5516043 -1.1390196 -1.9364936
-6.5764322 -1.1018044 -1.941909
-6.5849614 -1.0617362 -1.942479
-6.5799851 -1.0195525 -1.9390588
-6.5889616 -0.97958159 -1.9399139
-6.6100316 -0.9412936 -1.9444741
-6.6232815 -0.90175062 -1.9467543
-6.6229863 -0.86035407 -1.9450442
-6.6243353 -0.81923008 -1.9439042
-6.6320934 -0.77890342 -1.9447591
-6.64818 -0.73946452 -1.9481794
-6.6411524 -0.6974588 -1.9447591
-6.6500764 -0.65716678 -1.9461843
-6.6492114 -0.6159091 -1.9447591
-6.65764 -0.57551062 -1.9461843
-6.6591353 -0.53449625 -1.9456142
-6.6584659 -0.49334386 -1.9444741
-6.6680617 -0.45293254 -1.9464693
-6.6649752 -0.41165602 -1.9447591
-6.660676 -0.37038139 -1.942764
-6.6589942 -0.32931656 -1.9416239
-0 -0 -0
-6.6510396 -0.24715054 -1.9382037
-0 -0 -0
-6.676569 -0.16608152 -1.9450442
-6.6582952 -0.12475594 -1.9393438
-0 -0 -0
-6.6861629 -0.043207798 -1.9473244
-6.6671319 -0.0021785339 -1.9416239
-6.6181359 0.038437773 -1.927088
-6.6446118 0.079370424 -1.9350685
-6.5721231 0.11882723 -1.9136921
-6.612474 0.160156 -1.9259479
-6.6171155 0.2009019 -1.927658
-6.6301265 0.24202698 -1.9319333
-6.6285167 0.28270411 -1.9319333
-6.626657 0.32337061 -1.9319333
-6.6331615 0.36449975 -1.9344984
-6.6260166 0.40490004 -1.9330734
-6.6176696 0.44516191 -1.9313632
-0 -0 -0
-0 -0 -0
-0 -0 -0
-0 -0 -0
-0 -0 -0
-0 0 -0
-0 0 -0
-6.4248967 0.11377387 -1.9480784
-6.432673 0.15339859 -1.9507397
-6.4297009 0.1928087 -1.9501483
-0 0 -0
-6.4153976 0.27121302 -1.9465998
-6.4059792 0.3102029 -1.9442341
-6.4020476 0.34939942 -1.9436427
-6.3912015 0.38815442 -1.9409814
-0 0 -0
-6.363091 0.46488592 -1.9338844
-6.3515482 0.50324184 -1.931223
-6.3702326 0.5440731 -1.9380243
-6.3372841 0.58045065 -1.9288573
-0 0 -0
-0 0 -0
-6.3787003 0.70285678 -1.945417
-0 0 -0
-0 0 -0
-0 0 -0
-0 0 -0
-0 0 -0
-6.3182664 0.93270046 -1.9359543
-6.3105359 0.97116053 -1.9353629
-6.2969122 1.0086547 -1.9329972
-6.2792969 1.0453911 -1.9294487
-6.2624097 1.0821118 -1.926196
-6.2330842 1.1164759 -1.919099
-6.2289338 1.1552229 -1.9199861
-6.2226667 1.193601 -1.9202818
-6.2170997 1.2321315 -1.9208733
-6.2112942 1.2706385 -1.9214647
-6.2015114 1.3083321 -1.9208733
-6.1971011 1.3471706 -1.9220561
-6.1812606 1.3835013 -1.9196904
-6.1810336 1.4233315 -1.9223518
-6.1470847 1.4552903 -1.9143677
-6.1584606 1.4979465 -1.9208733
-6.1537871 1.536863 -1.9223518
-6.1442413 1.5745929 -1.9223518
-6.1224532 1.6091077 -1.9185076
-6.1124649 1.6466441 -1.9185076
-6.1022463 1.6841185 -1.9185076
-6.0816855 1.7186725 -1.9152548
-6.0728607 1.7564874 -1.9158462
-6.0656328 1.7948006 -1.917029
-6.0572491 1.8328147 -1.9179162
-6.0449767 1.8696645 -1.9176204
-6.02246 1.903267 -1.9140719
-6.0097594 1.9398909 -1.9137763
-6.0040941 1.9788224 -1.9158462
-5.9900284 2.0150163 -1.9152548
-5.9802628 2.0526628 -1.9161419
-5.967555 2.0893185 -1.9161419
-5.9510241 2.1246107 -1.9149591
-5.9432621 2.1630454 -1.9167334
-5.9298778 2.199472 -1.9167334
-5.9118023 2.2341273 -1.9152548
-5.8926339 2.2683008 -1.9134805
-5.8634849 2.2984886 -1.9084535
-5.834188 2.3284044 -1.9034264
-5.8844008 2.3903999 -1.9250132
-5.8563805 2.4209876 -1.9205775
-5.8282065 2.4513214 -1.9161419
-5.8183255 2.4892907 -1.9179162
-5.7871742 2.518085 -1.9125934
-5.7410378 2.5400212 -1.9022436
-5.7540951 2.5881293 -1.912002
-5.7276807 2.6186211 -1.9084535
-5.7115054 2.6537163 -1.9084535
-5.6977067 2.6899347 -1.9093406
-5.6845398 2.7264969 -1.9105234
-5.6702795 2.7625804 -1.9114106
-5.649797 2.7956262 -1.9102278
-5.6385121 2.8332419 -1.9122977
-5.6176181 2.8660495 -1.9111149
-5.6067128 2.9039791 -1.9134805
-5.5862517 2.9369929 -1.9125934
-5.5681257 2.9712143 -1.9125934
-5.5338287 2.9966819 -1.9069749
-5.5278959 3.0374801 -1.9114106
-5.5083199 3.0708764 -1.9111149
-5.4843845 3.1017957 -1.9093406
-5.4594483 3.1320615 -1.9072707
-5.4450822 3.1683836 -1.9090449
-5.4304752 3.2046471 -1.9108192
-5.4082503 3.2364359 -1.909932
-5.3719559 3.2596493 -1.9040179
-5.3673134 3.3020592 -1.9096364
-5.3420877 3.3318975 -1.9078621
-5.3255806 3.3671653 -1.9093406
-5.3072324 3.4013252 -1.9102278
-5.2854614 3.4333055 -1.909932
-5.2579122 3.4614701 -1.9075664
-5.2365742 3.4936669 -1.9075664
-5.2182045 3.5278721 -1.9087492
-5.1964593 3.559824 -1.9087492
-5.1745191 3.5916417 -1.9087492
-5.1523838 3.6233244 -1.9087492
-5.1277204 3.6532078 -1.9078621
-5.1129546 3.6901922 -1.9108192
-5.0855885 3.7181129 -1.9090449
-5.0573049 3.7452681 -1.9069749
-5.0372858 3.7785213 -1.9081578
-5.0102029 3.8064692 -1.9066793
-4.9852386 3.8359745 -1.9060879
-4.9601002 3.8653169 -1.9054965
-4.9392896 3.8980458 -1.9066793
-4.9018455 3.9175451 -1.9013565
-4.8903399 3.9577639 -1.9063835
-4.8615303 3.9840634 -1.9046093
-4.8391986 4.0156479 -1.9054965
-4.8188562 4.0489521 -1.9072707
-4.7953768 4.0796819 -1.9078621
-4.7717018 4.1102757 -1.9084535
-4.7413521 4.1350818 -1.9063835
-4.7151742 4.1634641 -1.9060879
-4.6817045 4.1853147 -1.902835
-4.6665602 4.223577 -1.9072707
-4.6426702 4.2540669 -1.9081578
-4.612278 4.2785759 -1.9063835
-4.5810637 4.3022184 -1.9043136
-4.56358 4.3388028 -1.9081578
-4.5306768 4.3607612 -1.9054965
-4.504519 4.3891454 -1.9057921
-4.4584589 4.3979192 -1.8975123
-4.4273343 4.4211431 -1.895738
-4.4041543 4.4523001 -1.8975123
-4.3767524 4.4792399 -1.8975123
-4.3511763 4.5080724 -1.8983995
-4.3287072 4.5402169 -1.9007651
-4.3001127 4.5659966 -1.9004694
-4.2687616 4.5887985 -1.8989909
-4.2424641 4.6170149 -1.899878
-4.2121286 4.6408372 -1.8989909
-4.1899509 4.6737075 -1.901948
-4.1561279 4.6936073 -1.8995823
-4.129766 4.7218966 -1.9007651
-4.1100831 4.7579908 -1.9052007
-4.0684099 4.7685862 -1.8992865
-4.0316868 4.7846942 -1.895738
-4.0004191 4.8071394 -1.894851
-3.9708476 4.8315949 -1.894851
-3.9417288 4.8566103 -1.8951466
-3.9058802 4.873251 -1.8921895
-3.8853915 4.9091096 -1.8969209
-3.8546083 4.9321051 -1.8966252
-3.8301094 4.9632258 -1.8995823
-3.7955306 4.9813151 -1.8975123
-3.7752323 5.0182505 -1.902835
-3.7455091 5.0428538 -1.9034264
-3.6958537 5.0403199 -1.8936681
-3.6536534 5.0474267 -1.887754
-3.6309457 5.0814085 -1.8921895
-3.5914388 5.0918827 -1.887754
-3.5644946 5.1200953 -1.8901196
-3.5351753 5.1450195 -1.8913025
-3.501931 5.1642423 -1.8904153
-3.4659274 5.1792812 -1.8880496
-3.4335561 5.1996531 -1.887754
-3.4031518 5.2230244 -1.8886411
-3.3746562 5.2494321 -1.8907111
-3.3413594 5.2684264 -1.8901196
-3.3064363 5.2847805 -1.8886411
-3.2734454 5.3041558 -1.8883454
-3.2477927 5.3355651 -1.8924853
-3.2145014 5.3545737 -1.8921895
-3.1859663 5.3815947 -1.894851
-3.1490321 5.3944421 -1.8924853
-3.1182561 5.4178023 -1.8939638
-3.082597 5.4326797 -1.8924853
-3.0468726 5.4473233 -1.8910067
-3.0064723 5.4533677 -1.886571
-2.9775157 5.4801059 -1.8895282
-2.9474421 5.5050097 -1.8918939
-2.9060302 5.5086284 -1.8868668
-2.8734968 5.5288982 -1.887754
-2.8386474 5.5447249 -1.8871626
-2.8080134 5.568862 -1.8895282
-2.7725158 5.5834203 -1.8886411
-2.741142 5.6063337 -1.8907111
-2.7013037 5.6118584 -1.8868668
-2.6692736 5.6335073 -1.8886411
-2.6298113 5.6393905 -1.8850926
-2.5939639 5.6528158 -1.8842055
-2.5533328 5.6555662 -1.8797698
-2.5135417 5.6597772 -1.8759257
-2.4737952 5.6637135 -1.8720814
-2.4374886 5.6752748 -1.8708986
-2.4070797 5.7006845 -1.8744471
-2.3694918 5.7091708 -1.8723772
-2.3318908 5.7174106 -1.8703072
-2.2996085 5.7387047 -1.8726728
-2.265403 5.7553735 -1.87356
-2.240036 5.7950048 -1.8821355
-2.2125726 5.8300748 -1.8892325
-2.1850963 5.8659201 -1.8966252
-2.1441422 5.8657594 -1.8921895
-2.1042402 5.8680148 -1.8886411
-2.0666101 5.8763099 -1.8871626
-2.0373666 5.9087477 -1.8936681
-1.9974022 5.9102778 -1.8901196
-1.9511883 5.8924966 -1.8803612
-1.9179437 5.9134445 -1.8833183
-1.8842261 5.9332957 -1.8859797
-1.8477846 5.9447455 -1.8859797
-1.8098836 5.9514017 -1.8845011
-1.7716981 5.9569011 -1.8827269
-1.7340468 5.9639907 -1.8815441
-1.6966364 5.9717617 -1.880657
-1.6553637 5.9654908 -1.8753341
-1.6179794 5.9727697 -1.8744471
-1.5756848 5.9613438 -1.8676457
-1.5388385 5.9699745 -1.8673501
-1.4998503 5.9700394 -1.864393
-1.4636447 5.9809856 -1.8649844
-1.4275829 5.9926419 -1.8658715
-1.3929431 6.0105944 -1.8688287
-1.3562466 6.0199599 -1.8691243
-1.3211219 6.0365672 -1.8717858
-1.2854474 6.0511007 -1.8738557
-1.2477158 6.0560675 -1.8729686
-1.2124038 6.0729771 -1.8759257
-1.1765685 6.0878053 -1.8782912
-1.1420014 6.1099339 -1.8830227
-1.103641 6.1121259 -1.8815441
-1.066609 6.1216059 -1.8824311
-1.0310849 6.1402822 -1.8862754
-0.9935419 6.1474361 -1.886571
-0.95228279 6.1307621 -1.8794742
-0.91788769 6.1582208 -1.8862754
-0.8787334 6.1542802 -1.8833183
-0.84134275 6.1623955 -1.8842055
-0.80376208 6.1693363 -1.8847969
-0.76542199 6.1703601 -1.8836141
-0.7266522 6.1673508 -1.8812484
-0.68890244 6.1726427 -1.8815441
-0.65071428 6.1739035 -1.880657
-0.61366886 6.1863356 -1.8833183
-0.57543314 6.1871309 -1.8824311
-0.5370453 6.1857867 -1.8809526
-0.49992526 6.1994395 -1.8842055
-0.4617348 6.2004852 -1.8836141
-0.42342001 6.1993895 -1.8824311
-0.38519537 6.1990104 -1.8815441
-0.34795356 6.2155638 -1.8859797
-0.30999944 6.2213984 -1.8871626
-0.27169457 6.2203202 -1.8862754
-0.2334864 6.2209153 -1.8859797
-0.19588178 6.2403722 -1.8915981
-0.1577571 6.2481418 -1.8936681
-0.11917819 6.2365756 -1.8898239
-0.080423407 6.1999369 -1.8782912
-0.04253139 6.2222843 -1.8850926
-0.0043477211 6.2176518 -1.8836141
0.033798024 6.2166061 -1.8833183
0.072007723 6.222013 -1.8850926
0.10976257 6.197576 -1.8776999
0.1488557 6.2416711 -1.8915981
0.18572238 6.1928978 -1.8768127
0.22323573 6.1782765 -1.8726728
0.26150334 6.18538 -1.8753341
0.29903588 6.1750717 -1.8726728
0.33629578 6.1616745 -1.8691243
0.37322903 6.1451921 -1.8646888
0.41143781 6.1504116 -1.8670543
0.44889009 6.14396 -1.8658715
0.48642948 6.1391854 -1.8652802
0.52376473 6.132278 -1.8640972
0.56199133 6.1356077 -1.8661673
0.6002785 6.1386995 -1.8682373
0.6384272 6.1396513 -1.8697157
0.67776048 6.1508112 -1.8744471
0.71504682 6.1427412 -1.8732642
0.75388664 6.1477199 -1.8762213
0.79098397 6.1382413 -1.8747427
0.82697076 6.1209655 -1.8708986
0.86665106 6.1309099 -1.8756299
0.90578717 6.1358724 -1.8788826
0.9432739 6.1292548 -1.878587
0.98086452 6.1233516 -1.878587
1.0223387 6.1407762 -1.8859797
1.0583726 6.1249738 -1.8830227
1.0955981 6.1164842 -1.8824311
1.132585 6.1068287 -1.8815441
1.1680557 6.0894442 -1.8782912
1.2048409 6.0793514 -1.8774042
1.2403978 6.0634208 -1.8747427
1.2785646 6.0603695 -1.8762213
1.3141034 6.0449424 -1.8738557
1.3497095 6.0302396 -1.8717858
1.3871136 6.0237064 -1.8723772
1.4240482 6.0150819 -1.8723772
1.4618322 6.0099435 -1.87356
1.4982182 5.9990072 -1.8729686
1.5361845 5.9943285 -1.8744471
1.5743928 5.9903331 -1.8762213
1.6103739 5.9777927 -1.8753341
1.6470226 5.9677992 -1.8753341
1.6823107 5.9529848 -1.8738557
1.7201326 5.9471383 -1.8753341
1.7557782 5.9337239 -1.8744471
1.7921538 5.9228387 -1.8744471
1.8284619 5.9117308 -1.8744471
1.8612475 5.8894696 -1.8708986
1.89911 5.8833933 -1.8726728
1.9363699 5.8752589 -1.8738557
1.974515 5.8696051 -1.8759257
2.0135937 5.8664145 -1.8788826
2.0476577 5.8485394 -1.8771085
2.0844686 5.8385639 -1.8779956
2.1186209 5.8211756 -1.8765171
2.1536348 5.8062749 -1.8759257
2.1922598 5.8009939 -1.878587
2.2271264 5.7856503 -1.8779956
2.2632818 5.7736545 -1.878587
2.2997277 5.7623205 -1.8794742
2.3371983 5.7534113 -1.8812484
2.3706319 5.7345481 -1.8797698
2.4046628 5.7172527 -1.8788826
2.4408252 5.7050252 -1.8797698
2.4746413 5.6873131 -1.8788826
2.5106509 5.674643 -1.8797698
2.546598 5.6617446 -1.880657
2.579304 5.6416683 -1.8791784
2.6158845 5.6300678 -1.880657
2.6503806 5.6139107 -1.880657
2.6818857 5.5915132 -1.878587
2.7178173 5.5783877 -1.8797698
2.7519946 5.5616064 -1.8797698
2.7839239 5.5403476 -1.8782912
2.8174324 5.5223107 -1.8779956
2.8538992 5.5100088 -1.8797698
2.8836539 5.4847836 -1.8771085
2.9145555 5.4619298 -1.8753341
2.9452856 5.4389033 -1.87356
2.9799826 5.4232407 -1.8744471
3.0090168 5.3973441 -1.8717858
3.0481906 5.3895898 -1.8756299
3.0745487 5.3591838 -1.87149
3.1121781 5.348475 -1.8744471
3.1429954 5.3259873 -1.8732642
3.1731634 5.3025031 -1.8717858
3.2056391 5.2829332 -1.8717858
3.2445009 5.2737422 -1.8756299
3.2778099 5.2553558 -1.8762213
3.3059108 5.2286854 -1.8738557
3.3415389 5.213932 -1.8759257
3.3755493 5.1965356 -1.8771085
3.4057956 5.1733317 -1.8762213
3.4369442 5.1515422 -1.8759257
3.4567192 5.1129451 -1.8694201
3.4939647 5.1003084 -1.8726728
3.5339084 5.0913305 -1.8774042
3.5628839 5.0664253 -1.8762213
3.5966749 5.0483584 -1.8776999
3.6275833 5.026195 -1.8776999
3.6639926 5.0115538 -1.880657
3.6963794 4.9912806 -1.8815441
3.7252164 4.9662137 -1.880657
3.7538848 4.9409804 -1.8797698
3.7823839 4.9155827 -1.8788826
3.8112998 4.8907747 -1.8782912
3.8382785 4.8635473 -1.8768127
3.8710301 4.843636 -1.8782912
3.8988745 4.817565 -1.8774042
3.9313884 4.7972455 -1.8788826
3.9662397 4.7796493 -1.8815441
3.9936488 4.7530289 -1.880657
4.0338788 4.7415318 -1.8859797
4.0628967 4.7166915 -1.8859797
4.0779486 4.6758337 -1.8794742
4.1065621 4.6507235 -1.8794742
4.0980968 4.5841298 -1.862323
4.1735802 4.6113124 -1.8842055
4.18889 4.5715299 -1.8782912
4.2285547 4.5583482 -1.8836141
4.2531753 4.5288348 -1.8821355
4.2835159 4.5054216 -1.8833183
4.3163795 4.4845605 -1.885684
4.3438148 4.4579911 -1.885684
4.3777947 4.4380555 -1.8886411
4.403594 4.4097581 -1.8880496
4.4237781 4.3759365 -1.8850926
4.4464455 4.3447046 -1.8833183
4.4750824 4.3193302 -1.8842055
4.4994268 4.2898126 -1.8833183
4.5214915 4.258194 -1.8815441
4.5559273 4.2381787 -1.8850926
4.5923967 4.2198405 -1.8895282
4.6090078 4.1832356 -1.885684
4.6417012 4.1612539 -1.8886411
4.6549892 4.1219277 -1.8836141
4.6816316 4.0945454 -1.8842055
4.7023296 4.0619955 -1.8824311
4.7184448 4.0256252 -1.8788826
4.7386742 3.9929039 -1.8771085
4.7902517 3.9863636 -1.8880496
4.8160973 3.9581094 -1.8886411
4.8440018 3.931494 -1.8901196
4.874742 3.9070752 -1.892781
4.8948784 3.8741262 -1.8913025
4.9245787 3.8487253 -1.8936681
4.9390264 3.8114324 -1.8901196
4.9630799 3.7816343 -1.8904153
4.9907699 3.7545562 -1.8921895
5.0252166 3.7324073 -1.8966252
5.0557265 3.7071524 -1.8995823
5.0752831 3.6738203 -1.8983995
5.0930662 3.6392772 -1.8966252
5.1160812 3.6085088 -1.8969209
5.1365585 3.5759575 -1.8963295
5.1560416 3.5427499 -1.8954424
5.1761012 3.509974 -1.894851
5.1999221 3.4797418 -1.895738
5.2179871 3.4456644 -1.8945552
5.2374306 3.4125395 -1.8939638
5.2582707 3.3803389 -1.8939638
5.2748799 3.3454528 -1.8924853
5.2993569 3.3155575 -1.8939638
5.3269172 3.2874944 -1.8966252
5.351068 3.257231 -1.8981037
5.3750486 3.226795 -1.8995823
5.3939247 3.1932666 -1.8992865
5.4076419 3.1567385 -1.8972166
5.4310489 3.1258814 -1.8986951
5.4409876 3.0873117 -1.8954424
5.4656644 3.0571332 -1.8975123
5.4818101 3.022155 -1.8966252
5.5019293 2.9893746 -1.8972166
5.5184841 2.9546573 -1.8966252
5.5415788 2.9234157 -1.8983995
5.5712786 2.8955264 -1.9025394
5.5931921 2.8634641 -1.9040179
5.5927444 2.8200576 -1.897808
5.6073761 2.7844133 -1.8969209
5.632937 2.7541513 -1.899878
5.6617804 2.7253377 -1.9040179
5.688755 2.6954556 -1.9075664
5.7008581 2.6584804 -1.9060879
5.7283497 2.6286306 -1.909932
5.7469826 2.5946121 -1.9108192
5.7636681 2.5596881 -1.9111149
5.7757635 2.5227451 -1.909932
5.7893786 2.4865041 -1.9093406
5.8010068 2.4494476 -1.9081578
5.8079863 2.410511 -1.9054965
5.8138227 2.3712204 -1.9025394
5.8371296 2.3390567 -1.9054965
5.8567052 2.3052964 -1.9072707
5.868958 2.2686279 -1.9066793
5.885447 2.2335911 -1.9075664
5.8990412 2.1974366 -1.9075664
5.9213853 2.1644795 -1.9105234
5.9246635 2.1245582 -1.9072707
5.9375882 2.0881653 -1.9072707
5.948483 2.0510707 -1.9066793
5.9618611 2.0148387 -1.9069749
5.9750185 1.9785198 -1.9072707
6.0024934 1.9468317 -1.9122977
6.0097737 1.9085186 -1.9108192
6.0222831 1.8718909 -1.9111149
6.0363975 1.8357376 -1.912002
6.0438852 1.7975749 -1.9108192
6.0639739 1.7631241 -1.9137763
6.06457 1.7230107 -1.9105234
6.0952787 1.6913874 -1.917029
6.1073861 1.6544553 -1.9176204
6.1118813 1.615485 -1.9158462
6.1170535 1.5767602 -1.9143677
6.1405106 1.5426893 -1.9188033
6.1498604 1.5049828 -1.9188033
6.1422524 1.4632338 -1.9134805
6.1501846 1.4253024 -1.9131849
6.1541548 1.3864887 -1.9117063
6.1588135 1.3478842 -1.9105234
6.1847219 1.3138418 -1.9161419
6.202023 1.2777965 -1.919099
6.2013159 1.2380339 -1.9164376
6.2228642 1.20268 -1.9208733
6.2263703 1.1637722 -1.9196904
6.242795 1.1272441 -1.9226475
6.2599459 1.0907222 -1.9259002
6.2665205 1.0522914 -1.9259002
6.2756886 1.0142783 -1.9267874
6.2808499 0.97560567 -1.9264917
6.2829385 0.93648517 -1.9253088
6.2857294 0.89751089 -1.9244218
6.2901716 0.85879618 -1.924126
6.2905865 0.81956685 -1.9226475
6.3002367 0.78154141 -1.924126
6.3087082 0.74331653 -1.9253088
6.3150492 0.70480508 -1.9259002
6.318305 0.66594321 -1.9256046
6.3146672 0.62640744 -1.9232389
6.3183918 0.58764958 -1.9232389
6.3180718 0.5485388 -1.9220561
6.3146534 0.50922364 -1.9199861
6.3329015 0.47160408 -1.9247174
6.3442535 0.43332365 -1.9273788
6.3448858 0.39426926 -1.9267874
6.354816 0.35575801 -1.9291531
6.3568792 0.31675887 -1.9291531
6.34057 0.27695465 -1.9235346
6.3526506 0.23843922 -1.9267874
6.3396721 0.19900513 -1.9223518
6.3522334 0.16039196 -1.9259002
6.3540535 0.12143067 -1.926196
6.3508577 0.082390845 -1.9250132
6.3722596 0.04356616 -1.9315187
6.3695412 0.0044637006 -1.9306316
6.378046 -0.034665342 -1.933293
6.3891759 -0.07393156 -1.9368415
6.3981533 -0.11330196 -1.9397986
6.3868322 -0.1523083 -1.9365457
6.3991456 -0.19189434 -1.9406856
6.3902106 -0.23087968 -1.93832
6.3858104 -0.26996407 -1.9374329
6.3878503 -0.30932614 -1.9386157
6.3820167 -0.34830746 -1.9374329
6.3740382 -0.38711309 -1.9356587
6.3763084 -0.42653468 -1.9371371
6.3773823 -0.46592912 -1.93832
6.3839264 -0.50580513 -1.9412771
6.3768954 -0.54464173 -1.9400942
6.4248037 -0.58846128 -1.9560626
6.4182196 -0.62759334 -1.9551754
6.414248 -0.66696298 -1.9551754
6.4157324 -0.70693493 -1.9569496
6.4217114 -0.74750209 -1.9602025
6.3989882 -0.78468287 -1.954584
6.3902636 -0.82344347 -1.9534011
6.3879309 -0.86302137 -1.9542882
6.3692727 -0.90032971 -1.9501483
6.3711886 -0.94050944 -1.9525141
6.3558564 -0.97813219 -1.9495569
6.3308697 -1.014092 -1.9436427
6.2877779 -1.0468024 -1.9321102
6.3038282 -1.0892661 -1.9392072
6.0741696 -1.0880214 -1.8691243
6.0204153 -1.1165645 -1.8543389
5.9158797 -1.1347748 -1.8235853
5.8329034 -1.1560149 -1.7996329
5.7152629 -1.1691984 -1.7647394
5.6509638 -1.1922194 -1.7467012
5.5651288 -1.2098297 -1.7218617
5.5025992 -1.231647 -1.704415
5.4744582 -1.2606725 -1.6979094
5.4350133 -1.2867589 -1.6878552
5.5198388 -1.3426547 -1.7174261
5.5050087 -1.3748786 -1.7153561
5.4909167 -1.4072083 -1.7135819
5.4831028 -1.4411163 -1.7138776
5.4215794 -1.4605725 -1.6970222
5.456717 -1.5060072 -1.7112162
5.4528894 -1.541019 -1.7129905
5.4323192 -1.5712639 -1.709442
5.3914309 -1.5953528 -1.6993879
5.3760543 -1.6267443 -1.6976137
5.3531942 -1.6557496 -1.6934737
5.3329144 -1.6853992 -1.690221
5.3224726 -1.7180896 -1.690221
5.2973137 -1.745932 -1.6854897
5.288312 -1.7790118 -1.6860811
5.2628398 -1.8064656 -1.6813498
5.266984 -1.8440892 -1.6863768
5.2447739 -1.8725184 -1.6828283
5.2233109 -1.9010713 -1.6795754
5.2007995 -1.9290993 -1.6760269
5.1861839 -1.9599617 -1.6751399
5.174952 -1.9920896 -1.6754355
5.1501794 -2.018925 -1.6712956
5.1350331 -2.0494258 -1.6704085
5.10466 -2.0737057 -1.6644944
5.1033168 -2.1097319 -1.6683385
5.0937982 -2.1424868 -1.6695215
5.0805559 -2.1737013 -1.6695215
5.0425954 -2.1941638 -1.6612415
5.0168071 -2.2196529 -1.6571016
5.0396848 -2.2668495 -1.6695215
5.015255 -2.292964 -1.6659729
5.0244827 -2.3345606 -1.673957
4.9962416 -2.3588219 -1.6692257
4.9765062 -2.3869555 -1.6674515
4.9591899 -2.4161906 -1.6665643
4.9536896 -2.4512339 -1.6698171
4.9530668 -2.4888735 -1.6748441
4.9147263 -2.5074978 -1.66686
4.8729515 -2.5239887 -1.657693
4.8717475 -2.5613976 -1.6627201
4.843297 -2.5844967 -1.6582845
4.8592696 -2.6314497 -1.6695215
4.8070307 -2.6414368 -1.656806
4.8282804 -2.6918125 -1.6701128
4.7983685 -2.7138641 -1.6653814
4.7435093 -2.7213907 -1.6517789
4.7407584 -2.7586117 -1.656806
4.7369065 -2.7954156 -1.6615373
4.7147465 -2.8214853 -1.659763
4.7144966 -2.8607669 -1.6659729
4.6992955 -2.8911421 -1.66686
4.697679 -2.930032 -1.6727742
4.6553884 -2.9434876 -1.663903
4.6380444 -2.9725125 -1.6641986
4.6028938 -2.9899881 -1.6579888
4.5844612 -3.0181746 -1.6579888
4.5626769 -3.0441272 -1.656806
4.5589495 -3.0822306 -1.6624244
4.5304942 -3.1036677 -1.6588759
4.5097957 -3.1303186 -1.6582845
4.4928474 -3.1595798 -1.6591716
4.4523687 -3.1721232 -1.6511875
4.4250746 -3.1937926 -1.6482304
4.3915133 -3.2107368 -1.6429076
4.396297 -3.2558131 -1.6523703
4.3433752 -3.2580807 -1.6396549
4.3172169 -3.2800469 -1.6372892
4.3098807 -3.3163779 -1.6423162
4.3188386 -3.3656588 -1.6538489
4.2876072 -3.3838108 -1.649709
4.2861671 -3.4255605 -1.6573974
4.2754641 -3.4602082 -1.6615373
4.2364182 -3.4718456 -1.6544403
4.2334151 -3.5130241 -1.661833
4.1964202 -3.5260296 -1.6556231
4.174706 -3.551712 -1.6556231
4.1586251 -3.582248 -1.6579888
4.1365666 -3.6076972 -1.6579888
4.1165004 -3.6349075 -1.6588759
4.0969687 -3.6626441 -1.6600587
4.0687513 -3.6825857 -1.657693
4.0425572 -3.7042551 -1.6562146
4.021153 -3.7302895 -1.656806
4.0093307 -3.7653551 -1.6615373
2.3930304 -2.2754252 -0.98111308
2.3762703 -2.287416 -0.97993022
2.3628745 -2.3026202 -0.98022592
3.900074 -3.8471863 -1.654736
3.8811266 -3.8757691 -1.656806
3.8566003 -3.8988314 -1.6565102
3.816581 -3.9060245 -1.6494132
3.7819269 -3.9183722 -1.6446819
3.7499022 -3.9332078 -1.6411334
3.7145634 -3.9443212 -1.6361064
3.6896408 -3.9663396 -1.6358107
3.6574776 -3.9804637 -1.6322622
3.6310589 -4.0007086 -1.6313751
3.6102691 -4.0271807 -1.6331493
3.625391 -4.0943112 -1.6517789
3.5945401 -4.1100082 -1.6491176
3.5555146 -4.1160831 -1.642612
3.532052 -4.1400023 -1.6434991
3.5078142 -4.1630573 -1.6440905
3.4907596 -4.1947818 -1.6482304
3.4740539 -4.2271914 -1.6526661
3.4582858 -4.2610369 -1.657693
3.4380503 -4.2896299 -1.6606501
3.4134436 -4.312892 -1.6615373
2.0038407 -2.5642955 -0.96632767
1.9869014 -2.5750301 -0.96573627
1.9670109 -2.5818543 -0.96366626
1.9522805 -2.5954018 -0.96425772
1.9385972 -2.6103992 -0.96544051
1.9078555 -2.6022165 -0.95775211
1.6941053 -2.340728 -0.85336721
1.6808218 -2.3526332 -0.85395861
1.6597468 -2.3535349 -0.8504101
3.1354539 -4.5038986 -1.657693
3.1099236 -4.5262022 -1.6588759
3.0954976 -4.5649643 -1.6662686
3.0631788 -4.5775208 -1.663903
3.029243 -4.5874615 -1.6606501
2.9942577 -4.5955577 -1.656806
2.9613538 -4.6066122 -1.6541445
2.9227986 -4.608562 -1.6482304
2.8904123 -4.6199307 -1.6458647
2.8961294 -4.6928563 -1.6659729
2.8657899 -4.7080903 -1.6650858
2.8353724 -4.7231288 -1.6641986
2.8048782 -4.7379718 -1.6633115
2.771419 -4.7476683 -1.6606501
2.7350872 -4.7521653 -1.6562146
2.698333 -4.7555647 -1.6514832
2.6667707 -4.7678638 -1.6500046
2.6360817 -4.7816272 -1.6491176
2.6053243 -4.7951937 -1.6482304
2.5686371 -4.7976155 -1.6434991
2.574368 -4.8800321 -1.66686
2.5448167 -4.8965836 -1.6671557
2.5077579 -4.8985014 -1.6624244
2.4733524 -4.9052672 -1.6594673
1.5283685 -3.0783024 -1.0228078
1.5073533 -3.0833316 -1.0213294
1.4875772 -3.090801 -1.0207379
1.4734936 -3.1102295 -1.0242864
2.3075879 -4.9485273 -1.6491176
2.2751884 -4.9582524 -1.647639
2.2478673 -4.9790845 -1.6500046
2.213784 -4.9849262 -1.6473433
2.1843026 -5.0010419 -1.6482304
2.1547067 -5.0169835 -1.6491176
2.1108749 -4.9993095 -1.6387677
2.0874848 -5.0298133 -1.6446819
2.0547791 -5.0381045 -1.6432034
2.0280917 -5.0612578 -1.6467519
1.9997978 -5.080718 -1.6491176
1.9644517 -5.0822005 -1.6455691
1.936282 -5.1021967 -1.6482304
1.8969346 -5.0924973 -1.6411334
1.8712282 -5.1192932 -1.6461605
1.8313963 -5.1072993 -1.6384721
1.7997071 -5.1175394 -1.6381763
1.7741902 -5.1456442 -1.6437948
1.7401365 -5.1491938 -1.6414292
1.7091095 -5.1615882 -1.6420206
1.6759325 -5.1674342 -1.640542
1.6456403 -5.1821728 -1.6420206
1.6152301 -5.1967335 -1.6434991
1.580811 -5.1983213 -1.6408377
1.5491574 -5.2088389 -1.6411334
1.5185013 -5.2228327 -1.642612
1.4793754 -5.2072415 -1.6346278
1.4532727 -5.2373915 -1.6414292
1.4193605 -5.2397561 -1.6393592
1.3835207 -5.2345133 -1.6349236
1.3551923 -5.2577043 -1.6396549
1.3261656 -5.2788911 -1.6437948
1.2937499 -5.2869291 -1.6437948
1.2608428 -5.2929091 -1.6432034
1.2287738 -5.3024073 -1.6437948
1.1989459 -5.3219619 -1.647639
0.74624342 -3.410604 -1.0396632
0.72649366 -3.4207251 -1.0414375
0.70606929 -3.4279253 -1.0423247
0.68296474 -3.4218886 -1.0390718
0.66032362 -3.4175735 -1.0364105
0.63670778 -3.4074757 -1.0319748
0.61833501 -3.4254193 -1.0364105
0.59320456 -3.4056215 -1.0290178
0.57229686 -3.4091973 -1.0290178
0.55182505 -3.4154739 -1.0299048
0.53261793 -3.4301229 -1.0334533
0.51296997 -3.4427748 -1.0364105
0.49089023 -3.4392376 -1.0343405
0.46887323 -3.4355595 -1.0322706
0.4463025 -3.4270046 -1.028722
0.42585471 -3.4344187 -1.0302006
0.40499717 -3.4388645 -1.030792
0.38516128 -3.4526772 -1.0343405
0.36697453 -3.4834757 -1.0432117
0.34615958 -3.4913654 -1.044986
0.32552716 -3.5019844 -1.0476474
0.30659655 -3.5334182 -1.0568143
0.28475645 -3.5333285 -1.0562229
0.262716 -3.5302463 -1.0547444
0.24078923 -3.5279796 -1.0535616
0.21723962 -3.4988806 -1.0440989
0.19373551 -3.4639039 -1.0328619
0.17124009 -3.4402211 -1.0251735
0.14966886 -3.4307091 -1.0219208
0.12868738 -3.4334722 -1.0225122
0.10809809 -3.4494739 -1.0272435
0.087075517 -3.4558022 -1.0290178
0.065796219 -3.452451 -1.0278349
0.044698305 -3.459476 -1.0299048
0.023338702 -3.4405801 -1.0239908
0.0022651902 -3.4903328 -1.0393676
-0.019033095 -3.4683101 -1.0325663
-0.040346868 -3.4709935 -1.0334533
-0.061677434 -3.4725909 -1.0340447
-0.082915545 -3.4692822 -1.0331577
-0.10437255 -3.4744372 -1.0349319
-0.12596478 -3.4813685 -1.0372976
-0.14663877 -3.4643049 -1.0322706
-0.16766186 -3.458569 -1.030792
-0.18908808 -3.4612906 -1.0319748
-0.20823999 -3.4257383 -1.0213294
-0.22944711 -3.4272556 -1.0222164
-0.24935928 -3.4105394 -1.0174851
-0.27246761 -3.4365618 -1.0260607
-0.2905432 -3.3996079 -1.0151194
-0.31505436 -3.437716 -1.0275393
-0.33335462 -3.4071956 -1.0186679
-0.35800663 -3.4411922 -1.0299048
-0.38005576 -3.4474766 -1.0325663
-0.39921486 -3.428 -1.0272435
-0.41640615 -3.3941958 -1.0174851
-0.43710268 -3.3906293 -1.0171894
-0.45457515 -3.3632698 -1.009501
-0.47386676 -3.3509583 -1.006544
-0.49455839 -3.3489327 -1.0068396
-0.51291907 -3.3316724 -1.0024041
-0.53395635 -3.3322356 -1.0035869
-0.55988115 -3.3618777 -1.0139366
-0.58765298 -3.3997982 -1.0269479
-0.61708957 -3.4440849 -1.0420289
-0.64378285 -3.4702902 -1.0514916
-0.66758257 -3.4794095 -1.0556315
-0.68780535 -3.4696252 -1.0538572
-0.70697629 -3.4550447 -1.0506045
-0.73328823 -3.4749444 -1.0582929
-0.75520492 -3.4731801 -1.05918
-0.77399862 -3.457294 -1.0556315
-0.79348314 -3.4450324 -1.0532658
-0.81438655 -3.4391692 -1.0529702
-0.83344209 -3.4257534 -1.0503087
-0.85652912 -3.4289165 -1.0529702
-0.87067682 -3.39676 -1.0443946
-0.790999 -3.008852 -0.92197144
-0.80522287 -2.988261 -0.91694438
-0.82659227 -2.9943142 -0.92049289
-0.84365088 -2.9845896 -0.91901439
-0.86062127 -2.9747684 -0.91753584
-0.9379335 -3.1691277 -0.98200017
-1.0267889 -3.3928163 -1.0562229
-1.0902013 -3.524261 -1.1008748
-1.1331027 -3.5849113 -1.1227572
-1.1433425 -3.5415268 -1.1109289
-1.07626 -3.2649789 -1.0231036
-1.0685618 -3.1759186 -0.99619418
-1.0824474 -3.1530383 -0.99087143
-1.0941991 -3.1246979 -0.98377442
-1.105644 -3.0963328 -0.97667742
-1.1187422 -3.0733318 -0.97135472
-1.1362501 -3.0628269 -0.97017187
-1.1644759 -3.0808187 -0.97845167
-1.1885043 -3.0869884 -0.98288733
-1.3384906 -3.4140553 -1.0940735
-1.3686185 -3.4288468 -1.1017619
-1.3939455 -3.4310052 -1.1053104
-1.4142417 -3.4206219 -1.104719
-1.4277974 -3.3942683 -1.0988048
-1.4591171 -3.4100358 -1.1070846
-1.483824 -3.4097784 -1.1100417
-1.4834633 -3.3525605 -1.0937778
-1.4973456 -3.328584 -1.0887508
-1.5090041 -3.30022 -1.0822452
-1.5256033 -3.2831016 -1.0795839
-1.540826 -3.2633123 -1.0760354
-1.5405799 -3.2115903 -1.0615456
-1.5686238 -3.2192531 -1.0674598
-1.6031735 -3.2395353 -1.0778096
-1.6195899 -3.2228086 -1.075444
-1.6441091 -3.2221708 -1.0786967
-1.6559417 -3.196753 -1.0733739
-1.6768589 -3.189069 -1.0742611
-1.685603 -3.1584921 -1.0671641
-1.6762968 -3.0951669 -1.0485345
-1.6837573 -3.0638921 -1.0411417
-1.7025254 -3.053503 -1.0411417
-1.7216995 -3.0438306 -1.0414375
-1.7384423 -3.0298946 -1.0402547
-1.7661281 -3.0348589 -1.0458732
-1.8036488 -3.056052 -1.0574057
-1.8061805 -3.0178759 -1.0476474
-1.8132671 -2.987952 -1.0408461
-1.8325677 -2.9783971 -1.0414375
-1.8295777 -2.9330523 -1.0290178
-1.8761256 -2.9669888 -1.0455774
-1.8994495 -2.9634643 -1.0485345
-1.9228004 -2.9597652 -1.0514916
-1.9314708 -2.9335487 -1.0461688
-1.9223983 -2.8811131 -1.0310878
-1.9769542 -2.9238713 -1.0514916
-1.9943178 -2.9108977 -1.0511959
-2.0088732 -2.8938973 -1.0494217
-2.0282404 -2.8838608 -1.0503087
-2.0348122 -2.8558004 -1.0443946
-2.0349677 -2.8192475 -1.0352277
-2.0375702 -2.7866571 -1.0275393
-2.0529251 -2.7717991 -1.0266521
-2.0859427 -2.7805486 -1.0349319
-2.1041203 -2.7692184 -1.0355233
-2.1216547 -2.7570128 -1.0358191
-2.1350088 -2.7394214 -1.0340447
-2.145268 -2.7180204 -1.030792
-2.1529601 -2.6936121 -1.0263563
-2.1748552 -2.6870346 -1.0290178
-2.1949344 -2.6780727 -1.030792
-2.2198653 -2.6748469 -1.0349319
-2.2602007 -2.6897008 -1.0464646
-2.2723291 -2.6706886 -1.0443946
-2.2917905 -2.6603146 -1.0458732
-2.322511 -2.6627619 -1.0526744
-2.3204706 -2.6276939 -1.0440989
-2.3422797 -2.6198163 -1.0467602
-2.3929238 -2.6436434 -1.0627285
-2.3936121 -2.6120064 -1.0556315
-2.4076452 -2.5951691 -1.0547444
-2.4333322 -2.5907929 -1.05918
-2.4551067 -2.5820448 -1.0618414
-2.4589803 -2.5545423 -1.0565186
-2.4379442 -2.5017736 -1.0402547
-2.4673359 -2.5010502 -1.0464646
-2.4650865 -2.4682879 -1.0387762
-2.4679613 -2.4410226 -1.0334533
-2.5027058 -2.4451959 -1.0420289
-2.5162876 -2.4284666 -1.0414375
-2.5263016 -2.4083667 -1.0393676
-2.5479853 -2.39937 -1.0423247
-2.5724511 -2.3928003 -1.0464646
-2.5976353 -2.386667 -1.0509001
-2.6115232 -2.3700414 -1.0506045
-2.6466427 -2.3724663 -1.05918
-2.680459 -2.3732822 -1.0671641
-2.6877806 -2.3505013 -1.0642071
-2.6833577 -2.3177278 -1.0565186
-2.6997087 -2.3030796 -1.0574057
-2.7079453 -2.2815464 -1.0550401
-2.7248306 -2.2673321 -1.0562229
-2.7357397 -2.2481439 -1.0550401
-2.7442906 -2.2271011 -1.0529702
-2.757159 -2.2096229 -1.0526744
-2.7684178 -2.1908851 -1.0517873
-2.7667561 -2.1620913 -1.0458732
-2.7739203 -2.1404047 -1.0435075
-2.7839622 -2.1210279 -1.0423247
-2.7946341 -2.1021829 -1.0414375
-2.8120813 -2.0884137 -1.0432117
-2.825613 -2.0716846 -1.0435075
-2.8560686 -2.0671926 -1.0503087
-2.8741393 -2.0535171 -1.0523787
-2.8741958 -2.0270326 -1.0476474
-2.872468 -1.9995333 -1.0423247
-2.9382191 -2.0186608 -1.0624328
-2.9513407 -2.0011303 -1.0627285
-2.9707086 -1.9877657 -1.0653899
-2.9589357 -1.9537067 -1.0565186
-2.9892757 -1.9475099 -1.0633199
-2.9754562 -1.9125993 -1.0538572
-2.9822955 -1.8912362 -1.052083
-3.0035615 -1.8789823 -1.0556315
-3.0150342 -1.8605174 -1.0556315
-3.0655596 -1.8658266 -1.0698255
-3.0597515 -1.8366551 -1.0636156
-3.0668533 -1.8154128 -1.062137
-3.0845344 -1.8004138 -1.0645027
-3.0847609 -1.7752581 -1.0606586
-3.1030729 -1.7605404 -1.0633199
-3.1088147 -1.7386688 -1.0615456
-3.1545591 -1.7389337 -1.0739654
-3.1609728 -1.7172643 -1.0724869
-3.21861 -1.7230903 -1.0890465
-3.2637625 -1.7215859 -1.1011705
-3.3056259 -1.7178292 -1.1121117
-3.3297088 -1.7044801 -1.1168431
-3.3580165 -1.6930505 -1.123053
-3.4299428 -1.7030081 -1.1443439
-3.5493147 -1.7352266 -1.1818988
-3.5796916 -1.7229465 -1.1887001
-3.6221364 -1.7160859 -1.1996413
-3.6109543 -1.6837339 -1.1922486
-3.7019603 -1.6986035 -1.2197495
-3.8002472 -1.7155633 -1.249616
-4.0001493 -1.7763624 -1.3137846
-3.9033003 -1.7047468 -1.2774125
-4.1173186 -1.7682383 -1.3460168
-4.1606512 -1.7566926 -1.356958
-4.2260537 -1.7538375 -1.3752919
-4.2482338 -1.7325646 -1.3791361
-4.2782927 -1.7142838 -1.3856417
-4.3349519 -1.7061973 -1.4010185
-4.3916717 -1.6974794 -1.4163953
-4.4216528 -1.6779588 -1.4229009
-4.4873657 -1.6714747 -1.4412348
-4.5406027 -1.6596544 -1.4554287
-4.6379218 -1.663046 -1.4841125
-4.9012628 -1.7236303 -1.5672064
-4.8693018 -1.6788861 -1.5533081
-5.0496469 -1.7064869 -1.6089013
-5.1951408 -1.7202224 -1.6529617
-5.2782907 -1.7118952 -1.6766183
-5.3487854 -1.6985629 -1.6961352
-5.4174886 -1.683862 -1.7150605
-5.4606199 -1.6605972 -1.725706
-5.5375466 -1.6469445 -1.7472926
-5.6200128 -1.6340102 -1.7706536
-5.7181468 -1.6245643 -1.7990415
-5.8347831 -1.6190844 -1.8333436
-5.9534073 -1.6127329 -1.8682373
-6.1211171 -1.6179267 -1.9188033
-6.16608 -1.5894008 -1.9300402
-6.1655254 -1.5489755 -1.9267874
-6.2027502 -1.5179293 -1.9356587
-6.2007961 -1.4771842 -1.9321102
-6.214396 -1.4401877 -1.9335887
-6.221252 -1.4016097 -1.9329972
-6.2334676 -1.3642277 -1.9341801
-6.2445245 -1.3265498 -1.9350672
-6.2375765 -1.2851239 -1.9303359
-6.2565861 -1.2490716 -1.9338844
-6.2669458 -1.2112024 -1.9347715
-6.2733207 -1.1725508 -1.9344758
-6.2418547 -1.1270744 -1.9223518
-6.2571225 -1.0902301 -1.9250132
-6.2721729 -1.0532409 -1.9276745
-6.2983212 -1.0179377 -1.9338844
-6.3129439 -0.98059291 -1.9365457
-6.3160076 -0.94141632 -1.9356587
-6.3538184 -0.90723735 -1.9457127
-6.3649445 -0.86900967 -1.947487
-6.3720512 -0.83018571 -1.9480784
-6.3855572 -0.79213083 -1.9507397
-6.4073739 -0.75494802 -1.9560626
-6.3938475 -0.71360457 -1.9504441
-0 -0 -0
-6.4429994 -0.63914597 -1.9631594
-6.3878274 -0.59411186 -1.9448256
-0 -0 -0
-0 -0 -0
-0 -0 -0
-0 -0 -0
-0 -0 -0
-0 -0 -0
-0 -0 -0
-0 -0 -0
-0 -0 -0
-0 -0 -0
-0 0 -0
-0 0 -0
-0 0 -0
-0 0 -0
-0 0 -0
-0 0 -0
-0 0 -0
-0 0 -0
-0 0 -0
-0 0 -0
-0 0 -0
-0 0 -0
-0 0 -0
-0 0 -0
-0 0 -0
-0 0 -0
-6.0344529 1.0417042 -1.9319234
-6.0129571 1.0760258 -1.9270163
-6.0090489 1.1134211 -1.9279364
-5.994626 1.1488364 -1.9254829
-6.0070705 1.1894833 -1.9319234
-5.9921989 1.2247933 -1.9294698
-5.9743266 1.2593762 -1.9260962
-5.9832282 1.2996501 -1.9316167
-5.9704971 1.3352984 -1.9300833
-5.963119 1.3721212 -1.9303899
-5.9342113 1.4038599 -1.9236426
-5.923636 1.4397951 -1.9230293
-5.9193072 1.477268 -1.9245628
-5.8926134 1.5090705 -1.9187356
-5.8675938 1.5410851 -1.9135219
-5.8865175 1.5847348 -1.9230293
-5.8757653 1.6205707 -1.9227226
-5.8730388 1.6586641 -1.9251761
-5.8600078 1.6938758 -1.9242561
-5.85498 1.7314206 -1.9260962
-5.8387799 1.7656595 -1.9242561
-5.827836 1.8014524 -1.9242561
-5.8021522 1.832588 -1.919349
-5.7971387 1.8702016 -1.9214958
-5.7719946 1.9012676 -1.9168955
-5.7701435 1.9399866 -1.9202691
-5.7428269 1.9701016 -1.9150553
-5.7333255 2.0062454 -1.9159753
-5.7227006 2.0420268 -1.9165888
-5.7064853 2.0757999 -1.915362
-5.6704388 2.1021686 -1.907388
-5.6627755 2.1389413 -1.9092282
-5.6557627 2.1760406 -1.911375
-5.6759777 2.2239039 -1.9230293
