# .PCD v0.7 - Point Cloud Data file format
VERSION 0.7
FIELDS x y z
SIZE 4 4 4
TYPE F F F
COUNT 1 1 1
WIDTH 1500
HEIGHT 1
VIEWPOINT 0 0 0 1 0 0 0
POINTS 1500
DATA ascii
-3.8328922 -2.9577186 -0.26826659
-18.260748 -13.915182 -1.4112649
-3.0945337 -2.3278275 -0.20712784
-11.277382 -8.3767338 -0.84911597
-3.0118048 -2.2082295 -0.19843872
-3.0196388 -2.1856112 -0.19799796
-3.0386765 -2.171104 -0.19843872
-3.0837464 -2.1748543 -0.20089434
-3.1035852 -2.160454 -0.20139806
-3.1069129 -2.1345873 -0.20064248
-3.0993025 -2.1014788 -0.19906837
-19.627075 -13.1356 -1.4528216
-19.764767 -13.052874 -1.4571662
-19.822744 -12.917187 -1.4555291
-3.6720943 -2.3605042 -0.2382324
-5.7142119 -3.6241269 -0.38972551
-5.7338033 -3.5874088 -0.38953659
-3.6843479 -2.2736418 -0.23596568
-3.7110162 -2.2587769 -0.23691015
-3.7342179 -2.2416151 -0.23760276
-3.7582073 -2.224762 -0.23835833
-3.7795444 -2.2061889 -0.23892502
-3.8172286 -2.1968977 -0.24068803
-3.861016 -2.1906748 -0.2428918
-3.8526103 -2.1547616 -0.24131767
-3.8701289 -2.1334913 -0.24163251
-3.8577168 -2.0958853 -0.23980653
-3.8643456 -2.0688775 -0.23936577
-3.8990343 -2.0567703 -0.24093989
-3.8947561 -2.0240619 -0.23974356
-3.9337521 -2.0137718 -0.24163251
-4.3497066 -2.1931748 -0.27015552
-4.3997297 -2.1846452 -0.27273706
-7.6281042 -3.72982 -0.49852851
-4.4351997 -2.1348186 -0.27336672
-4.4076309 -2.0883317 -0.27053329
-5.7544622 -2.6834817 -0.36340624
-5.758121 -2.6422944 -0.36252475
-22.423244 -10.124781 -1.5150307
-22.494068 -9.9910545 -1.5156604
-5.8606548 -2.5598304 -0.36630261
-5.8001413 -2.4911273 -0.36107656
-5.7950907 -2.4469492 -0.35969132
-22.738937 -9.4386921 -1.5161011
-22.778866 -9.2918282 -1.5149049
-9.5817261 -3.839869 -0.61406875
-9.6283226 -3.7901444 -0.61564285
-22.813856 -8.8198652 -1.5059638
-22.821825 -8.6623611 -1.5028785
-22.890446 -8.5280895 -1.5039489
-22.966713 -8.3963861 -1.505586
-23.222593 -8.3287592 -1.5193124
-13.434914 -4.7254028 -0.86133116
-14.118432 -4.8686962 -0.90502864
-7.7973747 -2.635289 -0.48209471
-7.7849755 -2.5779822 -0.48020577
-7.8167858 -2.5354013 -0.48127618
-14.460046 -4.5926542 -0.92001426
-14.487 -4.5035462 -0.91995132
-14.530593 -4.419508 -0.9210217
-14.533523 -4.3231525 -0.9194476
-14.564567 -4.2352886 -0.91976237
-14.737161 -4.187583 -0.92939597
-9.7109766 -2.6949587 -0.59864241
-9.6965046 -2.6269703 -0.59662753
-9.7124414 -2.5674241 -0.59662753
-12.946158 -3.337523 -0.80629998
-13.249026 -3.3290493 -0.82468569
-13.089865 -3.2037928 -0.81303722
-13.091802 -3.1192505 -0.81190383
-13.177779 -3.0544133 -0.81624842
-13.353995 -3.0090427 -0.82644868
-11.507173 -2.5187523 -0.70599723
-15.216419 -3.2330735 -0.94425565
-15.210556 -3.1344087 -0.94261861
-15.066061 -3.0083792 -0.93210346
-15.084236 -2.915879 -0.93210346
-15.259788 -2.8528004 -0.94224077
-15.209238 -2.7468736 -0.93789625
-15.214008 -2.6514432 -0.93714064
-15.54199 -2.6104541 -0.95710045
-15.461164 -2.4994302 -0.95092994
-15.491987 -2.4069672 -0.95193738
-15.459084 -2.3047993 -0.94891506
-15.338569 -2.1907067 -0.94035184
-15.65035 -2.1373405 -0.95936722
-15.913549 -2.0739083 -0.97529727
-16.3885 -2.0336311 -1.0047017
-16.648457 -1.9622461 -1.020443
-26.913935 -3.0051022 -1.6713721
-27.276268 -2.8762264 -1.6932209
-27.377819 -2.7171876 -1.6985729
-0 -0 -0
-30.6196 -2.6599562 -1.9018859
-0 -0 -0
-30.823111 -2.2969136 -1.9128418
-30.832642 -2.107471 -1.9125899
-30.973488 -1.9262385 -1.9207124
-30.904011 -1.731629 -1.9156122
-30.911064 -1.5418237 -1.9154233
-30.932905 -1.352695 -1.9162419
-31.07127 -1.1677808 -1.9244902
-30.900291 -0.97152412 -1.9132825
-25.581131 1.8908588 -1.9003361
-25.541216 2.0455558 -1.898227
-25.498379 2.1996627 -1.8959671
-25.475466 2.3552499 -1.8952892
-25.44565 2.510051 -1.8941593
-25.410927 2.6641591 -1.8927281
-25.395092 2.8201375 -1.8928034
-25.394146 2.9778807 -1.894084
-25.374407 3.133518 -1.8940086
-25.338881 3.2871003 -1.8928034
-25.319221 3.4426491 -1.8928788
-25.268993 3.5938671 -1.8906943
-25.194189 3.7410822 -1.8867019
-25.107695 3.8858368 -1.8818811
-25.081409 4.0395045 -1.8817304
-25.036482 4.190032 -1.8802239
-24.993599 4.340673 -1.8789433
-24.942942 4.4897084 -1.8771355
-24.923746 4.6443152 -1.8778135
-24.888905 4.7960248 -1.8773614
-24.859009 4.9486499 -1.8773614
-24.834038 5.102293 -1.8778135
-24.846159 5.2638779 -1.8812032
-24.855284 5.4253778 -1.8844422
-24.864334 5.5874066 -1.8877566
-24.960739 5.7701917 -1.8979256
-24.968519 5.9336162 -1.9013153
-25.097288 6.1271567 -1.9141963
-25.083401 6.2870975 -1.9160794
-25.06077 6.4451108 -1.9173599
-25.06896 6.6114759 -1.9211264
-25.065462 6.7753215 -1.924064
-25.054171 6.9375091 -1.9264746
-25.071568 7.1082463 -1.9312202
-25.068661 7.2738991 -1.9344592
-25.100986 7.4505672 -1.9405607
-25.091057 7.6154504 -1.943423
-25.205759 7.8194976 -1.9562286
-25.16396 7.976119 -1.9567559
-25.235025 8.1693811 -1.9663224
-25.22987 8.3390903 -1.969938
-25.303888 8.5361385 -1.9799565
-25.287807 8.7038975 -1.9828943
-25.222635 8.8549328 -1.9819903
-25.327423 9.0666685 -1.9947959
-25.386532 9.2639542 -2.0040612
-25.325474 9.4181585 -2.0037599
-25.32502 9.5952826 -2.00843
-25.298227 9.7630606 -2.0110664
-25.280537 9.9348822 -2.0145316
-25.256132 10.104631 -2.0175447
-25.356194 10.325606 -2.0308022
-25.353157 10.506192 -2.0357738
-25.368153 10.695264 -2.0423272
-25.374447 10.88177 -2.0482781
-25.393116 11.074735 -2.0553586
-25.381201 11.255401 -2.060029
-25.39802 11.449861 -2.0671849
-25.355387 11.618362 -2.0695202
-25.364975 11.811609 -2.0762994
-25.320866 11.980673 -2.0787101
-25.261257 12.142725 -2.0799153
-25.186275 12.297497 -2.0799153
-25.098732 12.446046 -2.0789361
-24.955097 12.566176 -2.0732865
-24.847336 12.703627 -2.0707254
-24.642361 12.790154 -2.0599537
-24.53607 12.926705 -2.0576186
-24.400894 13.047388 -2.0528729
-24.272175 13.170705 -2.0487299
-24.150723 13.297263 -2.045265
-24.006001 13.410182 -2.0398414
-23.925869 13.558703 -2.0400674
-23.786896 13.673448 -2.0352464
-23.6724 13.801564 -2.0326099
-23.558945 13.929806 -2.0301242
-23.457636 14.064868 -2.0287683
-23.324884 14.180562 -2.0247006
-23.209423 14.306146 -2.0222149
-23.097528 14.43349 -2.0201058
-22.971468 14.551462 -2.0167913
-22.861612 14.679207 -2.0149834
-22.735176 14.795817 -2.0117445
-22.610666 14.913077 -2.0087314
-22.470655 15.019392 -2.0043623
-22.348354 15.136854 -2.0016506
-22.217236 15.247739 -1.9981856
-22.04385 15.32855 -1.9908789
-21.936338 15.454331 -1.9896737
-21.807823 15.564887 -1.9865854
-21.682011 15.676785 -1.9837983
-21.555647 15.787726 -1.9810112
-21.436749 15.903649 -1.9789773
-21.294918 16.001936 -1.9748343
-21.169355 16.111763 -1.9722732
-21.017973 16.201172 -1.9673016
-20.90638 16.320625 -1.9661717
-20.764387 16.415819 -1.9621794
-20.650816 16.532948 -1.9609742
-20.523424 16.638622 -1.9584885
-20.40399 16.750319 -1.9568312
-20.279356 16.857351 -1.954722
-20.155706 16.964769 -1.9527636
-20.02467 17.065485 -1.9501271
-19.8841 17.157413 -1.9465868
-19.757423 17.260727 -1.9444777
-19.622013 17.355864 -1.9415399
-19.495094 17.457973 -1.9395061
-19.377266 17.567888 -1.9384515
-19.256618 17.67499 -1.937171
-19.12151 17.768377 -1.9344592
-18.998325 17.872387 -1.933028
-18.879641 17.98037 -1.932124
-18.748859 18.076494 -1.9300148
-18.620466 18.174479 -1.928207
-18.509308 18.289091 -1.9282824
-18.387575 18.393148 -1.9273031
-18.257557 18.488598 -1.9254953
-18.135414 18.591709 -1.9245913
-18.005083 18.686121 -1.9228588
-17.866028 18.770964 -1.9202224
-17.734806 18.863525 -1.9184899
-17.601086 18.95299 -1.9165314
-17.451435 19.024624 -1.9128404
-17.328348 19.124695 -1.9121624
-17.181416 19.197964 -1.908848
-17.040844 19.277624 -1.906287
-16.900597 19.357033 -1.9038012
-16.763273 19.439222 -1.901692
-16.628164 19.523495 -1.8998842
-16.492653 19.60684 -1.8980763
-16.364391 19.698463 -1.8971725
-16.232464 19.785397 -1.8958919
-16.095064 19.865255 -1.8940086
-15.957297 19.944172 -1.8921255
-15.821023 20.024496 -1.8904684
-15.684363 20.103897 -1.8888111
-15.552195 20.188696 -1.8877566
-15.414746 20.266281 -1.8860993
-15.272141 20.336561 -1.8838396
-12.477717 16.829203 -1.5452455
-14.984328 20.471748 -1.879094
-14.835659 20.531784 -1.8761562
-14.707084 20.619179 -1.875855
-14.580864 20.709848 -1.8759302
-14.450102 20.79401 -1.8754783
-14.319421 20.878172 -1.8751017
-14.190486 20.964815 -1.8750263
-14.056597 21.044029 -1.8743484
-13.914039 21.1099 -1.8725406
-13.778269 21.185682 -1.871712
-13.63994 21.257236 -1.870582
-11.465599 18.111847 -1.5819297
-11.411289 18.273205 -1.590065
-11.420272 18.539858 -1.6075408
-11.451259 18.848206 -1.6286323
-11.455824 19.119133 -1.6463342
-11.435174 19.353041 -1.6607215
-12.712604 21.81986 -1.8702807
-12.573017 21.887941 -1.8694521
-9.6015539 16.95451 -1.4345151
-12.291808 22.019686 -1.8676443
-12.139163 22.06324 -1.8649325
-11.988824 22.110134 -1.8625973
-11.262757 21.078619 -1.7679869
-11.236324 21.343216 -1.7847095
-11.406294 21.992455 -1.8341238
-10.518133 20.587936 -1.7090814
-10.616586 21.099255 -1.7468954
-10.444868 21.079117 -1.7397394
-10.711431 21.954773 -1.8079854
-10.734082 22.348171 -1.8354797
-10.578856 22.375751 -1.832316
-9.2964239 19.979273 -1.6272764
-10.230422 22.344311 -1.8190585
-9.9440708 22.075716 -1.7916396
-9.7878294 22.089819 -1.7877979
-9.8313437 22.560829 -1.821695
-9.7822618 22.82971 -1.8388695
-9.6640606 22.941683 -1.8431631
-9.5131941 22.976595 -1.8412046
-9.3795481 23.053007 -1.8427111
-9.2560549 23.155497 -1.8464022
-9.1127081 23.20907 -1.8461761
-8.9697695 23.263617 -1.8461008
-8.8356819 23.341532 -1.847984
-8.7006292 23.41774 -1.8497919
-8.5523367 23.458508 -1.8488126
-8.4169664 23.534954 -1.8507711
-8.2809801 23.610622 -1.8527296
-8.0656004 23.45636 -1.8363837
-7.8836327 23.39296 -1.8274198
-7.7227545 23.388813 -1.8232768
-7.5563955 23.365547 -1.8177027
-7.3740611 23.288837 -1.8079854
-7.2035785 23.245066 -1.8009801
-7.0310187 23.190536 -1.7932214
-6.8769717 23.194044 -1.790133
-6.7262001 23.207071 -1.7878733
-6.5736265 23.212406 -1.7850862
-6.4252272 23.231161 -1.7834289
-6.2651515 23.205647 -1.7783821
-6.1127424 23.206045 -1.7754443
-5.9694934 23.240217 -1.7752182
-5.8294449 23.287048 -1.7760469
-5.6836147 23.310755 -1.775143
-5.5377131 23.333546 -1.7742391
-5.3906245 23.350569 -1.7729585
-5.2435355 23.366665 -1.771678
-5.093905 23.370144 -1.7694935
-4.9450479 23.375595 -1.767535
-4.7939119 23.368378 -1.7646725
-4.6389694 23.339649 -1.7602283
-4.4894576 23.33536 -1.7577425
-2.7262113 14.652073 -1.0884638
-2.6258545 14.61062 -1.0840195
-2.4872847 14.344476 -1.0624007
-2.386246 14.281768 -1.0564499
-2.2889187 14.236084 -1.051855
-2.1974161 14.223253 -1.0498211
-2.1083488 14.224631 -1.0489173
-2.0276115 14.283702 -1.0524576
-1.901069 14.009321 -1.0306128
-1.8130267 14.0049 -1.0294076
-1.7780012 14.429448 -1.0608943
-1.6678926 14.25587 -1.0468835
-1.5825831 14.285657 -1.0483899
-1.4986289 14.330802 -1.0511017
-1.41379 14.371484 -1.0535122
-1.3466157 14.608268 -1.0708374
-1.268223 14.747397 -1.0807805
-1.1834177 14.82647 -1.0862041
-1.0919828 14.827485 -1.085752
-1.0162716 15.060744 -1.1029266
-0.93115556 15.186131 -1.1119658
-0.83795768 15.19156 -1.1119658
-0.70861733 14.458404 -1.0561486
-0.62103963 14.489378 -1.0581825
-0.5488795 14.950305 -1.0927575
-0.46072209 15.071001 -1.1016461
-0.35299432 14.447515 -1.0543407
-0.26468441 14.468351 -1.0557719
-0.17743248 14.596333 -1.0653385
-0.086825334 14.42165 -1.052081
0.0016576558 14.380031 -1.0489173
0.094444402 15.098686 -1.1032279
0.17852046 14.410833 -1.0513277
0.26868403 14.503183 -1.0584084
0.3564848 14.453413 -1.0547928
0.4548901 14.765905 -1.078596
0.53802997 14.561548 -1.06338
0.63356155 14.70143 -1.0742271
0.72886479 14.800845 -1.0820611
0.8207168 14.815011 -1.0834923
0.93025249 15.112258 -1.1063915
1.0218829 15.090348 -1.1051863
1.1087929 15.007221 -1.0993862
1.2023679 15.019021 -1.1008174
1.2904701 14.964668 -1.097277
1.3676643 14.798594 -1.0853001
1.4571679 14.777023 -1.0843209
1.5488508 14.777721 -1.0850741
1.6412576 14.783796 -1.0862794
1.7249675 14.714025 -1.0817597
1.8029928 14.6042 -1.0742271
1.9125876 14.747126 -1.085978
2.0012913 14.722268 -1.0849988
2.0894809 14.694903 -1.0838689
2.1734545 14.640379 -1.0807052
2.2745345 14.699689 -1.0862794
2.3534265 14.615559 -1.0809312
2.4575498 14.687389 -1.0875599
2.5583758 14.733927 -1.0923055
2.6520905 14.736598 -1.0937366
2.7519636 14.771022 -1.0976537
2.8508489 14.796941 -1.1009681
2.9458716 14.800685 -1.1026253
2.9892604 14.551818 -1.0848482
3.0880013 14.578075 -1.0883132
3.2069573 14.694268 -1.0987836
3.2854698 14.622751 -1.0947913
3.3724358 14.590658 -1.0938873
3.4623601 14.571631 -1.094038
3.5431893 14.515239 -1.0913262
3.6278217 14.475815 -1.0899704
3.7481234 14.57593 -1.0995369
3.8161254 14.471666 -1.0932094
3.9092741 14.464342 -1.0944899
4.0038071 14.461225 -1.0961472
4.0668931 14.346209 -1.0890664
4.1553988 14.3229 -1.0892171
4.3027997 14.497877 -1.1050357
4.4165854 14.553261 -1.1115139
4.4845238 14.457316 -1.1060903
4.5695319 14.418121 -1.1051863
4.6748075 14.441989 -1.1093293
4.7749143 14.448063 -1.1121165
4.8545499 14.392037 -1.1100073
4.9930749 14.508122 -1.1216829
5.0813408 14.475331 -1.1215323
5.1885505 14.495514 -1.1256753
5.2647462 14.428746 -1.1228882
5.3389282 14.357852 -1.1197997
5.4410596 14.362121 -1.1228129
5.5527787 14.389862 -1.1277844
5.6643133 14.414916 -1.1326053
5.7985902 14.494687 -1.1419458
5.9002066 14.490234 -1.1445069
5.9943509 14.466655 -1.1455616
6.0764174 14.413982 -1.144281
6.2162356 14.496478 -1.1541488
6.2317123 14.289887 -1.1402887
6.3439364 14.306985 -1.1448836
6.479146 14.373239 -1.1536216
6.5854955 14.373098 -1.1569359
6.6769309 14.339652 -1.1575385
6.7763076 14.322749 -1.1595724
6.8722715 14.297976 -1.1610036
6.9918137 14.320951 -1.1665024
7.1114526 14.342099 -1.1719259
7.2845368 14.467408 -1.1862381
7.3581891 14.393141 -1.1837522
7.4527969 14.360111 -1.1848068
7.550065 14.331755 -1.1863134
7.6646643 14.33528 -1.190607
7.7691259 14.318656 -1.1932434
7.8808866 14.31439 -1.1970098
7.9958048 14.314513 -1.201228
8.1277361 14.343259 -1.2080075
8.2911329 14.42452 -1.2194571
8.3131838 14.259667 -1.209514
8.5233507 14.416104 -1.227743
8.6049795 14.352417 -1.2267638
8.6887379 14.292532 -1.2261612
8.7867365 14.255926 -1.2276678
8.9009962 14.244869 -1.2315094
9.045867 14.280959 -1.2396448
9.2065992 14.339298 -1.2498891
9.3357496 14.346053 -1.255614
9.4367771 14.308477 -1.2574219
9.5570898 14.299216 -1.2618661
9.642971 14.237829 -1.2616402
10.875087 15.846506 -1.4144782
13.868814 19.944811 -1.7977411
13.99725 19.868305 -1.7985696
10.593135 14.842587 -1.3401307
14.285001 19.757259 -1.8043698
14.414799 19.681303 -1.8054997
14.536478 19.594088 -1.8056504
14.649842 19.495756 -1.8048217
14.765566 19.400738 -1.8043698
14.875196 19.297928 -1.8032398
0 0 -0
11.862179 15.005003 -1.4075482
0 0 -0
0 0 -0
0 0 -0
12.121666 14.58285 -1.3951192
15.7267 18.684898 -1.8075335
15.840405 18.58729 -1.8074582
15.950899 18.48597 -1.8070816
16.051561 18.373482 -1.8056504
16.171265 18.282862 -1.806479
16.274492 18.173635 -1.8054997
16.387037 18.074913 -1.8056504
16.494263 17.97035 -1.8052737
16.575706 17.838127 -1.80211
16.691679 17.743347 -1.8028632
16.096695 16.901934 -1.725804
16.3323 16.939951 -1.7401913
16.426182 16.82943 -1.7391368
16.51582 16.714848 -1.7377056
16.247114 16.242384 -1.6980836
16.343632 16.139585 -1.6977824
16.395243 15.993047 -1.6928108
16.294872 15.701194 -1.6720206
16.427021 15.635286 -1.675787
16.650518 15.654405 -1.6890445
16.807638 15.60894 -1.6953719
17.06403 15.653129 -1.7118684
17.202614 15.586963 -1.7162374
17.318737 15.499735 -1.7183466
17.433687 15.411008 -1.7203804
17.557966 15.329978 -1.7233934
17.695499 15.259724 -1.7277625
17.811573 15.170255 -1.7300222
17.938662 15.089562 -1.7334119
18.145967 15.074782 -1.7447109
18.327553 15.03652 -1.7534488
18.579081 15.053087 -1.7689662
18.707689 14.968082 -1.7725066
18.828131 14.875884 -1.7752936
18.931633 14.76989 -1.7764989
19.063772 14.685699 -1.7804912
19.150347 14.566035 -1.7801899
19.335049 14.520107 -1.789229
19.659285 14.575788 -1.8113751
19.898823 14.565016 -1.8254613
0 0 -0
0 0 -0
0 0 -0
0 0 -0
21.292641 14.603658 -1.9130664
21.592424 14.615255 -1.9322747
21.797787 14.560027 -1.9428204
22.134829 14.589526 -1.9652678
22.419544 14.58064 -1.9828943
22.598389 14.500418 -1.9909543
22.702103 14.371083 -1.9923102
22.703581 14.177646 -1.9846268
22.815619 14.053761 -1.9868866
22.802563 13.853447 -1.9781487
22.817848 13.671762 -1.9720472
22.849796 13.501064 -1.9675276
22.840014 13.306899 -1.9594676
22.865894 13.13472 -1.9546467
22.867964 12.94995 -1.9478674
22.903456 12.785091 -1.944101
22.955263 12.629899 -1.9418412
22.986742 12.464096 -1.9379241
22.998585 12.288516 -1.9324254
23.080612 12.150884 -1.933028
23.018412 11.93834 -1.9214276
22.982006 11.741082 -1.9121624
23.03758 11.59178 -1.9108065
23.037685 11.415234 -1.9048557
23.03739 11.239561 -1.8989803
22.997158 11.04576 -1.8898658
23.044666 10.895069 -1.8882085
23.022482 10.712243 -1.8808265
23.065111 10.560402 -1.8789433
23.074923 10.394108 -1.8744237
23.09815 10.234555 -1.8711094
23.115721 10.073118 -1.8674183
23.136763 9.9138145 -1.8641039
23.138344 9.746891 -1.859283
23.128614 9.5761271 -1.8536335
23.118587 9.4062271 -1.8480593
23.124941 9.2438421 -1.8439163
23.082836 9.0631504 -1.8359317
23.099865 8.9066401 -1.8328433
23.100922 8.7446146 -1.8285497
23.133579 8.5950661 -1.8268925
23.142786 8.4372501 -1.8234274
23.151869 8.2799816 -1.8200377
23.126959 8.1113701 -1.8140116
23.129145 7.9531031 -1.8102453
23.100023 7.7849259 -1.8040684
23.090542 7.6242838 -1.7995489
23.082808 7.4649725 -1.7952552
23.070187 7.3048401 -1.7906603
23.078381 7.1519318 -1.7877979
23.09511 7.0020914 -1.7856888
23.108002 6.8514647 -1.7833536
23.162058 6.7131557 -1.7843329
23.20569 6.5717249 -1.7845588
23.241732 6.4281507 -1.7842575
23.285551 6.2867203 -1.7846341
23.33333 6.1462641 -1.7853874
23.375433 6.0042176 -1.7857641
23.411833 5.8606758 -1.7857641
23.457041 5.7192745 -1.7865174
23.498484 5.576849 -1.7870446
23.537119 5.433681 -1.7874212
23.572935 5.2898126 -1.7876472
23.62541 5.1495309 -1.789229
23.671194 5.007566 -1.790359
23.724918 4.8670363 -1.7921668
23.780743 4.7266188 -1.7942007
23.83182 4.5849457 -1.7959331
23.87911 4.4422765 -1.7974397
23.931437 4.3002577 -1.7993982
23.96032 4.1538467 -1.7996242
23.989288 4.0074077 -1.7999254
24.035086 3.8636177 -1.8015827
24.068195 3.7175901 -1.802336
24.07477 3.5675025 -1.8011308
24.119902 3.4230769 -1.8029386
24.171083 3.2791696 -1.8052737
24.196682 3.1315646 -1.8057257
24.201586 2.9813313 -1.804671
24.224375 2.8333561 -1.8050478
7.2280006 0.80130649 -0.51198781
7.0592232 0.73880577 -0.49880558
7.0507226 0.69420922 -0.49782634
7.0111594 0.64690983 -0.49451196
7.0100293 0.60345119 -0.49413532
7.0036602 0.55963451 -0.49338207
6.9801111 0.51467496 -0.49134824
6.9721942 0.47109851 -0.49051964
6.9659958 0.42776048 -0.4898417
6.9714761 0.38517442 -0.49006769
6.9757004 0.34248847 -0.49021834
6.975678 0.29959467 -0.49006769
6.9743953 0.25667757 -0.4898417
6.9818192 0.21406101 -0.49029365
6.99297 0.17146009 -0.49104694
6.9839206 0.12836722 -0.49029365
6.9985356 0.085680842 -0.49134824
7.0089011 0.04279625 -0.49210149
7.0030489 -0.00020918887 -0.49164954
7.0059071 -0.043198027 -0.49187553
7.0234575 -0.086408436 -0.49323142
7.0616779 -0.13022539 -0.49616915
7.0547647 -0.17340457 -0.4957172
7.0685182 -0.21715029 -0.49684709
7.1108975 -0.26214135 -0.50016147
7.1649442 -0.30817673 -0.50437975
7.1559467 -0.35179031 -0.50385249
21.177074 -1.1736616 -1.5648305
21.118715 -1.300451 -1.5609889
21.078503 -1.4278502 -1.5585784
19.407631 -1.4342552 -1.4327073
20.047529 -1.6053234 -1.4818957
21.023811 -1.8134509 -1.5566952
19.965752 -1.8456142 -1.4773008
19.886572 -1.9614276 -1.4721786
19.879122 -2.0839324 -1.4725552
20.943243 -2.3255517 -1.5544355
10.605982 -1.243042 -0.76930416
10.589248 -1.3069953 -0.76862621
10.575096 -1.3711752 -0.76817423
10.555614 -1.4345586 -0.76734567
10.559447 -1.5011256 -0.76832491
10.534257 -1.5635448 -0.76711965
13.85617 -2.1439459 -1.0217996
13.842753 -2.2289255 -1.0217996
21.28158 -3.5614455 -1.5926261
14.445088 -2.508199 -1.0701594
21.176409 -3.8115568 -1.5880312
13.516268 -2.5180919 -1.0012354
20.902838 -4.0277305 -1.570706
20.87871 -4.1561065 -1.5707814
20.764908 -4.2660728 -1.5640019
20.629086 -4.3702512 -1.5555654
20.566811 -4.4890895 -1.5528536
20.483423 -4.6027365 -1.5485599
20.405249 -4.7168775 -1.5447183
20.343908 -4.8343835 -1.5422325
20.280926 -4.9510779 -1.5396714
20.212442 -5.0659695 -1.5367336
20.144281 -5.1804557 -1.5338712
8.2237844 -2.1680613 -0.60509169
19.965605 -5.3965583 -1.5249827
7.7910237 -2.1565039 -0.57330382
7.7824416 -2.2056282 -0.57368046
19.687639 -5.7122869 -1.5111978
8.006197 -2.3756008 -0.59349138
7.9781117 -2.4206262 -0.59243679
7.9631085 -2.4695332 -0.59243679
8.1559744 -2.5843399 -0.60893339
19.301085 -6.2480879 -1.4951532
7.8481364 -2.5931554 -0.5870133
7.8235736 -2.6383927 -0.58633536
19.010265 -6.5429025 -1.4813684
18.800407 -6.5999613 -1.4678096
18.480734 -6.6153674 -1.4454376
18.24683 -6.6582131 -1.4299202
18.178528 -6.7599673 -1.4277358
18.099409 -6.8572478 -1.4247227
18.056063 -6.9678154 -1.4246473
18.041739 -7.0897818 -1.4269825
18.024746 -7.2110929 -1.4291669
18.015253 -7.3358474 -1.4320294
18.002142 -7.4596114 -1.4346658
18.001055 -7.5889134 -1.4383569
18.004555 -7.7208409 -1.4424998
17.983347 -7.842731 -1.4446843
17.93124 -7.9513097 -1.444383
17.882114 -8.0611839 -1.444383
17.834129 -8.171586 -1.4445336
17.781845 -8.2800179 -1.444383
17.719889 -8.383852 -1.4434791
17.654633 -8.48594 -1.4423492
17.57535 -8.5809813 -1.4400893
17.500927 -8.6780272 -1.4382815
17.436665 -8.7798653 -1.4373776
17.358492 -8.8744326 -1.4353437
17.269197 -8.9628582 -1.4324061
17.19976 -9.0612135 -1.4312007
17.127132 -9.1576443 -1.4297696
12.959326 -7.0314445 -1.0764115
17.01259 -9.3666506 -1.4296943
16.957409 -9.4723206 -1.4299202
16.898968 -9.5761909 -1.4299202
12.47597 -7.1709361 -1.0496705
12.602297 -7.3468032 -1.0645852
12.601613 -7.4503837 -1.0685022
17.023178 -10.206485 -1.4620094
16.952564 -10.306083 -1.4613315
16.855055 -10.388977 -1.4583185
12.318577 -7.697154 -1.0599149
16.683338 -10.567817 -1.4544767
16.624054 -10.673757 -1.4550041
16.559919 -10.776647 -1.4551547
16.381111 -10.80393 -1.4449856
16.253166 -10.863233 -1.4394114
16.049982 -10.870482 -1.4269825
15.918855 -10.924745 -1.4211069
15.844153 -11.017091 -1.4204291
15.752617 -11.097445 -1.4182446
15.634719 -11.158554 -1.4136497
15.512627 -11.215714 -1.4086781
15.403295 -11.281224 -1.4049118
15.265716 -11.325021 -1.3985089
15.169633 -11.398707 -1.3960232
15.050212 -11.454127 -1.3913529
14.957535 -11.529211 -1.3892437
14.844068 -11.587636 -1.3851761
14.744529 -11.656235 -1.3824643
14.627583 -11.710339 -1.3780954
14.545385 -11.791707 -1.3771161
14.458116 -11.868711 -1.375685
14.374283 -11.948277 -1.3746303
14.286967 -12.024693 -1.3732744
14.173453 -12.078495 -1.3693575
14.019807 -12.09683 -1.3614482
13.913029 -12.154415 -1.3582091
13.805326 -12.210485 -1.3548948
13.691518 -12.260369 -1.3509778
13.596825 -12.326734 -1.3490193
13.457025 -12.351265 -1.3424658
13.350307 -12.405093 -1.3393021
13.279023 -12.491558 -1.3398293
13.19996 -12.570739 -1.3396034
13.104633 -12.634192 -1.3377203
12.973348 -12.662123 -1.3320707
12.824483 -12.671397 -1.324538
12.700668 -12.704008 -1.3196418
12.586748 -12.745512 -1.3158001
12.495773 -12.809654 -1.3144442
12.414172 -12.883213 -1.3141429
12.339701 -12.964198 -1.3146702
12.274264 -13.054927 -1.3162521
12.206143 -13.143147 -1.317608
6.9042511 -7.5256038 -0.73412651
11.957571 -13.196617 -1.3078908
11.874378 -13.26751 -1.3076649
6.7493706 -7.6342297 -0.73239404
6.6794481 -7.6492081 -0.72975755
6.590713 -7.6417165 -0.72493666
11.525805 -13.532151 -1.305405
11.429078 -13.586592 -1.3038231
11.321922 -13.628083 -1.3010361
11.204569 -13.656437 -1.2970438
6.4486132 -7.9580593 -0.73638636
10.952667 -13.688568 -1.28695
10.83509 -13.713262 -1.2828823
2.0114138 -2.5765369 -0.20955065
1.9882647 -2.5793505 -0.20864673
1.9724007 -2.5915017 -0.20864673
1.9558636 -2.6027579 -0.2085714
1.9374812 -2.6115057 -0.2082701
1.9284879 -2.6330006 -0.20917402
1.9245592 -2.6617577 -0.21075588
1.926719 -2.6994953 -0.21316634
1.9227471 -2.7292049 -0.21482353
1.9099479 -2.7466834 -0.21535082
1.886855 -2.749305 -0.21452223
9.7181158 -14.356746 -1.2722613
9.6187649 -14.399521 -1.2707547
9.5236454 -14.448277 -1.2698507
9.431551 -14.501426 -1.2693988
9.3477793 -14.567417 -1.2701521
9.2715521 -14.645563 -1.2720352
9.1836271 -14.70556 -1.2723366
9.0906076 -14.757388 -1.2719599
8.9952278 -14.805219 -1.271282
8.8985777 -14.850724 -1.2704533
8.8012018 -14.894743 -1.2695495
8.7026157 -14.936403 -1.2684948
8.6008711 -14.972227 -1.2669884
8.5054026 -15.018645 -1.266461
8.4087152 -15.062715 -1.2657831
8.320941 -15.122763 -1.2665364
8.2308445 -15.178794 -1.2669884
8.1464815 -15.245722 -1.2684195
8.0537109 -15.297186 -1.2685702
7.959239 -15.345429 -1.2684948
7.853591 -15.371777 -1.2666117
7.7277522 -15.357322 -1.2613388
7.5904355 -15.31778 -1.2540321
7.4770679 -15.324632 -1.2507178
7.3803072 -15.364829 -1.2502658
7.3562083 -15.558573 -1.2626947
6.9034948 -14.835834 -1.1987423
7.1099377 -15.527993 -1.2527516
7.0178018 -15.5786 -1.2533542
6.9200616 -15.616809 -1.2529776
6.8225155 -15.655318 -1.2526762
6.7573504 -15.769296 -1.2586271
6.7514238 -16.026421 -1.2763289
6.6045208 -15.950535 -1.2667624
6.50352 -15.983371 -1.2661598
6.4034748 -16.018345 -1.2657831
6.2198 -15.840137 -1.2481567
6.1354027 -15.911497 -1.2508684
6.0630698 -16.015991 -1.256292
5.9889908 -16.118324 -1.2615649
5.8930511 -16.1632 -1.2622428
5.8008156 -16.218773 -1.2638246
5.7127395 -16.286995 -1.266461
5.6383085 -16.396236 -1.2724118
5.5410995 -16.440918 -1.2732404
5.4516821 -16.509644 -1.2760276
5.2944427 -16.370104 -1.2623181
5.1954026 -16.407034 -1.2626947
5.1037817 -16.46813 -1.2650299
5.0107388 -16.525856 -1.267139
4.9055595 -16.543863 -1.2661598
4.7986827 -16.555454 -1.2647285
4.6619658 -16.460817 -1.2550114
4.7171469 -17.054235 -1.2993035
4.4980755 -16.659267 -1.2661598
3.9284992 -14.912281 -1.1275585
4.2489042 -16.540331 -1.2526762
4.1490293 -16.572861 -1.2532035
4.0680442 -16.68326 -1.2598323
3.9418893 -16.607975 -1.2520736
3.8378921 -16.623104 -1.2513957
3.7364774 -16.64926 -1.2516217
3.6353106 -16.676744 -1.2519983
3.5325029 -16.696785 -1.2518476
3.4398036 -16.76601 -1.2555387
3.3277304 -16.740833 -1.2519983
3.2251363 -16.761915 -1.2520736
3.1278784 -16.811781 -1.2544087
3.0246644 -16.830656 -1.2544087
0.47692046 -2.7449408 -0.17309248
0.45924759 -2.7428977 -0.17271584
0.43180853 -2.6797006 -0.16766895
0.41353205 -2.6704741 -0.16676503
0.39640793 -2.6680291 -0.16638839
0.38059002 -2.6743603 -0.16668969
0.36417329 -2.6766453 -0.16668969
0.35042956 -2.6995966 -0.16827156
0.33239612 -2.6898198 -0.16736764
0.22869278 -1.9460278 -0.11064656
0.21597989 -1.9404566 -0.11011927
0.20261857 -1.9278607 -0.10906469
0.1902979 -1.9241058 -0.10868806
0.17839678 -1.9242443 -0.10861273
0.16650112 -1.9243091 -0.10853741
0.15461138 -1.9243006 -0.10846208
0.14316699 -1.9301853 -0.10883871
0.13158913 -1.9350071 -0.10914002
0.11989652 -1.938764 -0.109366
0.10876603 -1.9534023 -0.11042058
0.09575475 -1.9331175 -0.10883871
0.083763696 -1.9306799 -0.10861273
0.071915686 -1.9311576 -0.10861273
0.059244394 -1.9046516 -0.10657891
0.046221387 -1.8501519 -0.10243594
0.035086103 -1.8623645 -0.10333986
0.023778597 -1.8725157 -0.10409313
0.01228861 -1.8726263 -0.10409313
0.00078230025 -1.9534364 -0.11019459
-0.01535223 -2.6085246 -0.1596843
-0.04161432 -3.4309735 -0.22182892
-0.062201839 -3.4057288 -0.21994576
-0.41331813 -16.750164 -1.2283458
-0.51599509 -16.744324 -1.2281197
-0.1255807 -3.42294 -0.22137696
-0.14705423 -3.4330635 -0.22220555
-0.16875495 -3.445044 -0.22318481
-0.19259663 -3.4927294 -0.22687581
-1.0299331 -16.729572 -1.2287977
-1.1342506 -16.74781 -1.2306808
-1.2378745 -16.752468 -1.2315848
-1.3470145 -16.824076 -1.2376109
-0.35846835 -4.1666951 -0.27855
-0.28336826 -3.0761764 -0.19599183
-0.29557851 -3.0069008 -0.1908696
-0.31121439 -2.9782541 -0.18883578
-0.34302551 -3.0981891 -0.19810098
-0.44080099 -3.7674952 -0.24917255
-0.45535159 -3.6954448 -0.24389967
-0.48738572 -3.7647686 -0.24939853
-0.52942604 -3.9010239 -0.2600196
-0.55363321 -3.8996763 -0.26017028
-0.48862088 -3.2974992 -0.2144469
-0.41334432 -2.6775661 -0.16729231
-0.44578439 -2.7744105 -0.17490032
-2.7785933 -16.605162 -1.2344471
-0.54209131 -3.1273234 -0.2023946
-0.5609166 -3.1219757 -0.20224395
-3.1140995 -16.71393 -1.2469515
-3.2135761 -16.678843 -1.2457461
-3.3684316 -16.922859 -1.2660844
-3.4681904 -16.882338 -1.2645779
-0.55636883 -2.6311598 -0.16578577
-0.56909972 -2.6121089 -0.16458055
-0.87332338 -3.8908331 -0.26386127
-3.9436831 -17.061253 -1.2854434
-4.0485253 -17.037703 -1.2855188
-4.1078115 -16.82752 -1.2711313
-4.2308688 -16.88131 -1.2773081
-0.68746388 -2.6772728 -0.1714353
-0.71379727 -2.7106071 -0.17437303
-0.61642975 -2.2845573 -0.14137989
-0.9019025 -3.2609372 -0.21821323
-0.93604004 -3.3052273 -0.22213022
-0.93351382 -3.2208946 -0.21595342
-4.9750915 -16.762461 -1.2834849
-0.79831153 -2.6338351 -0.17053136
-0.87267017 -2.816504 -0.18537074
-1.0243307 -3.2350364 -0.2189665
-5.5124364 -17.029016 -1.3147455
-5.6193247 -17.002445 -1.3153481
-1.4056712 -4.1699128 -0.29504657
-1.4156514 -4.115952 -0.29143089
-1.4445137 -4.117538 -0.29225948
-1.2028743 -3.3631873 -0.23245001
-1.2214365 -3.3501229 -0.23199804
-1.5235355 -4.0995975 -0.29301277
-1.5479548 -4.0883074 -0.29286209
-1.1863086 -3.0768297 -0.21173513
-1.1960464 -3.0462914 -0.20985197
-1.3436301 -3.3610721 -0.23606569
-1.3758876 -3.3813932 -0.23840082
-1.3557594 -3.2743208 -0.23034085
-7.0918508 -16.822208 -1.3417126
-1.2834252 -2.9953394 -0.20879738
-1.2989894 -2.9810102 -0.2082701
-1.4498563 -3.2719665 -0.23297729
-1.8186916 -4.0365977 -0.2970804
-1.8587961 -4.0589032 -0.29986748
-1.4496369 -3.1154618 -0.22220555
-1.8871393 -3.9907203 -0.29610115
-1.9094301 -3.9745724 -0.29572451
-1.8191447 -3.7280202 -0.27598891
-1.4206581 -2.8672276 -0.20435311
-1.4418124 -2.8655815 -0.20495571
-0.90326107 -1.7690892 -0.11268038
-0.9242059 -1.7829843 -0.11433757
-1.9047554 -3.6175325 -0.2714693
-1.9273865 -3.6066563 -0.27154461
-1.9195163 -3.5395477 -0.26679903
-1.9469703 -3.5381849 -0.26770294
-1.4682039 -2.630408 -0.19019167
-1.4725162 -2.6005292 -0.18838382
-1.4720446 -2.5629172 -0.18589804
-1.4802084 -2.5409153 -0.18476814
-1.4835901 -2.5111854 -0.18296029
-1.5384569 -2.5678847 -0.18876046
-1.4832116 -2.4416687 -0.17844068
-1.4803745 -2.4036615 -0.17587957
-1.4956236 -2.3953786 -0.17595489
-5.0771632 -8.0164137 -0.67943925
-1.3837399 -2.1570113 -0.15621927
-1.3670324 -2.1025147 -0.1520763
-1.4485396 -2.1981351 -0.16149215
-1.4293047 -2.1402946 -0.15704787
-1.4468843 -2.1380889 -0.15765049
-10.724987 -15.627818 -1.3944412
-1.4935086 -2.1496441 -0.16036224
-1.5078191 -2.1420701 -0.16051291
-1.4994992 -2.1027484 -0.15772581
-1.5059459 -2.0846195 -0.15689722
-1.4868897 -2.0319002 -0.15282957
-1.6104379 -2.1724899 -0.16691568
-1.6105583 -2.1450303 -0.1652585
-1.5953041 -2.0978153 -0.16171813
-1.6008403 -2.0785103 -0.16081421
-1.6123365 -2.0670767 -0.16066356
-1.6188049 -2.0493226 -0.15991029
-12.406494 -15.497052 -1.4622355
-1.6275034 -2.0091646 -0.15795179
-1.658783 -2.0222611 -0.16021159
-1.6520364 -1.9890412 -0.15795179
-1.669347 -1.98497 -0.1585544
-1.6724397 -1.964065 -0.15749983
-1.6818535 -1.9507463 -0.15719852
-1.697728 -1.9448955 -0.15765049
-1.7116117 -1.9366825 -0.15787646
-2.1552105 -2.4082277 -0.20676357
-2.2617085 -2.4961622 -0.21708333
-2.2729363 -2.4778299 -0.21663137
-2.2880971 -2.4638369 -0.21663137
-2.3059051 -2.452656 -0.21693268
-2.3264127 -2.4442375 -0.21753529
-2.3489799 -2.437813 -0.2183639
-3.1920707 -3.2717776 -0.30792746
-3.1903579 -3.2301424 -0.30559233
-3.401942 -3.4022548 -0.32608122
-3.2730391 -3.2334862 -0.31018725
-3.4834116 -3.3992417 -0.33029953
-2.5024638 -2.4126608 -0.22521862
-2.5345564 -2.413759 -0.22702648
-2.5609436 -2.4090898 -0.2282317
-2.58883 -2.4055443 -0.22958758
-3.0922203 -2.8378425 -0.27967989
-2.6055923 -2.3622127 -0.22830702
-2.605176 -2.3328812 -0.22680049
-2.6396139 -2.3346827 -0.22883432
-2.8214018 -2.4646838 -0.24563219
-2.7247043 -2.3509526 -0.23448382
-2.7140255 -2.3128545 -0.23199804
-3.4287095 -2.8853786 -0.30114806
-15.430634 -12.819243 -1.478054
-15.525191 -12.737602 -1.479636
-3.4091823 -2.7634027 -0.29414266
-15.706028 -12.566682 -1.4821217
-4.0711432 -3.2177267 -0.35463008
-3.8219206 -2.9829273 -0.3288683
-16.100573 -12.40324 -1.4979403
-16.177168 -12.304819 -1.4980156
-16.27549 -12.222691 -1.5002002
-3.1449997 -2.3329849 -0.25843775
-3.1367247 -2.2971539 -0.25632861
-16.338482 -11.805998 -1.4853607
-16.423605 -11.714788 -1.4865659
-3.0129552 -2.1225033 -0.24103726
-3.0185521 -2.0988553 -0.24035932
-3.05111 -2.0938294 -0.24216716
-3.1456547 -2.1304004 -0.24962452
-3.2009573 -2.1393044 -0.25346619
-3.3622262 -2.2172973 -0.26687434
-3.5053401 -2.2808852 -0.27855
-3.642642 -2.3384893 -0.28962305
-5.7245593 -3.6248426 -0.47447503
-5.8008256 -3.6234496 -0.47929594
-17.329977 -10.675094 -1.5002002
-3.6299036 -2.2064552 -0.28352156
-3.5937612 -2.1544175 -0.27915263
-3.7356908 -2.2084086 -0.29045165
-3.7284923 -2.1733987 -0.28864381
-17.708076 -10.172248 -1.5053223
-17.793587 -10.076668 -1.5073562
-3.9724824 -2.2186096 -0.30634561
-3.9414635 -2.1696804 -0.30250394
-3.9389231 -2.1369004 -0.30114806
-3.8772027 -2.072751 -0.29474527
-3.9013188 -2.0549603 -0.29572451
-3.8501194 -1.9979315 -0.290301
-3.9075942 -1.9974045 -0.29414266
-3.9224489 -1.9747348 -0.29436862
-16.993999 -8.4209127 -1.3953452
-7.6683345 -3.7421188 -0.60720086
-7.6911516 -3.6949964 -0.60720086
-17.30028 -8.1795559 -1.4082261
-5.745986 -2.6745429 -0.44140655
-5.7550349 -2.6359153 -0.44080395
-19.308123 -8.6975603 -1.5623448
-5.8316212 -2.5848851 -0.44449496
-5.827261 -2.5402915 -0.44283777
-5.8069916 -2.4891734 -0.43990001
-19.581923 -8.2489643 -1.5677683
-11.357707 -4.7031655 -0.89125824
-11.390969 -4.6352663 -0.89163488
-9.646946 -3.8569515 -0.74745935
-9.6398001 -3.7856612 -0.7449736
-11.510646 -4.4387994 -0.89457262
-11.638386 -4.406209 -0.90270793
-11.958713 -4.4437494 -0.92636055
-12.031659 -4.387022 -0.93005157
-12.038633 -4.3060641 -0.92846966
-12.064829 -4.2321153 -0.92846966
-12.187696 -4.1914001 -0.93622833
-11.58857 -3.9060705 -0.88643736
-7.7859282 -2.5716555 -0.58204168
-7.8044071 -2.5247538 -0.5822677
-12.496984 -3.9575489 -0.95287555
-12.566751 -3.8949602 -0.95649123
-11.624683 -3.5250349 -0.88026053
-11.690071 -3.4666777 -0.88372558
-12.938008 -3.7504127 -0.98021919
-12.949264 -3.667696 -0.97931528
-9.6913233 -2.6811116 -0.72222489
-9.7133684 -2.6231554 -0.72267687
-12.777367 -3.3662488 -0.96078491
-12.984184 -3.335655 -0.97532296
-13.21625 -3.3089426 -0.9918195
-13.069674 -3.1871674 -0.9788633
-13.018157 -3.0901079 -0.97336447
-13.135006 -3.0328217 -0.98097247
-13.12126 -2.9449661 -0.97848666
-11.5276 -2.5132334 -0.85389614
-13.430549 -2.8417053 -0.99965352
-13.446755 -2.7590432 -0.99957818
-13.465387 -2.6768723 -0.99972886
-13.4796 -2.5938232 -0.99957818
-13.611923 -2.5327621 -1.0085421
-13.464288 -2.4199259 -0.99603784
-13.645909 -2.3662131 -1.0088434
-13.621814 -2.2760332 -1.0059056
-13.65226 -2.1950979 -1.0071862
-13.738397 -2.1225486 -1.0127604
-13.993815 -2.074157 -1.0312908
-14.486093 -2.056325 -1.0678996
-14.490533 -1.9663291 -1.067297
-15.996579 -2.0706956 -1.1811157
-16.418713 -2.0229568 -1.2123011
-17.034967 -1.9928097 -1.2582505
-22.775461 -2.522397 -1.6936394
-22.911503 -2.3952451 -1.7028292
-23.894329 -2.3498204 -1.7763482
-25.809809 -2.3782957 -1.920599
-25.805038 -2.2182629 -1.9191679
-25.82214 -2.0602014 -1.9194691
-25.827333 -1.9012089 -1.9189419
-25.839508 -1.7427666 -1.9190172
-25.842749 -1.583759 -1.9184899
-25.853971 -1.4252707 -1.9186405
-25.861233 -1.2665582 -1.9185653
-25.866526 -1.1077675 -1.9184146
-25.864864 -0.9487406 -1.917812
-25.860231 -0.78971499 -1.9170587
-25.860603 -0.63092762 -1.9167573
-25.859999 -0.47216544 -1.9164561
-25.850445 -0.31333807 -1.9155521
-25.845898 -0.1546813 -1.9151002
-25.852343 0.0039102393 -1.9155521
-25.855822 0.16256242 -1.9158535
-25.833399 0.3209466 -1.9142716
-25.835928 0.47954407 -1.9146482
-25.832499 0.63806134 -1.9146482
-25.820124 0.79630828 -1.9140456
-25.797812 0.9540953 -1.912765
-25.782505 1.1119826 -1.9120871
-25.747311 1.2687848 -1.9099779
-25.688265 1.4239265 -1.9061363
-25.660133 1.5803543 -1.904705
-25.6022 1.7345347 -1.9010894
-22.257448 -0.56687993 -1.9142565
-22.254532 -0.43018451 -1.9137325
-22.250776 -0.29354623 -1.9132085
-22.240204 -0.15692794 -1.9121605
-22.231783 -0.020453241 -1.9113746
-22.213558 0.1158656 -1.9098027
-22.196491 0.2519826 -1.9084054
-22.147715 0.38735509 -1.9043009
-22.165834 0.52373737 -1.9061348
-22.174152 0.66009003 -1.9071828
-22.175659 0.79635006 -1.9077067
-22.176327 0.93265337 -1.9082307
-22.179142 1.0691388 -1.9090167
-22.145308 1.2037479 -1.9066588
-22.114634 1.3382227 -1.9046502
-22.082151 1.4723003 -1.9025543
-22.04985 1.606102 -1.9005457
-22.021704 1.7399551 -1.8989738
-22.002672 1.8743687 -1.8982751
-21.969925 2.007436 -1.8964412
-21.939346 2.1404624 -1.8948693
-21.910938 2.2734976 -1.8935593
-21.884693 2.4065912 -1.8925114
-21.852692 2.5388737 -1.8910267
-21.834724 2.6726694 -1.8908521
-21.810011 2.805578 -1.8901535
-21.786461 2.93855 -1.8896295
-21.763088 3.0714779 -1.8891928
-21.736935 3.2039392 -1.8885815
-21.710958 3.3363464 -1.8880576
-21.694996 3.4702861 -1.8884943
-21.675261 3.6036656 -1.8886689
-21.641943 3.7347314 -1.8877083
-21.617638 3.8672781 -1.8876209
-21.55628 3.9929547 -1.8843024
-21.514742 4.1219602 -1.8828177
-21.47341 4.2507997 -1.8814205
-21.435211 4.380085 -1.8803725
-21.391359 4.5080347 -1.878888
-21.355509 4.6375136 -1.8781893
-21.314985 4.7658529 -1.8771414
-21.274662 4.894093 -1.8761808
-21.193821 5.0126181 -1.8716396
-21.148146 5.1390381 -1.8703296
-21.168409 5.2817259 -1.8750454
-21.137531 5.4120078 -1.8752202
-21.046116 5.5264239 -1.8699803
-21.261917 5.7227693 -1.892686
-21.238886 5.8565645 -1.8938214
-21.205427 5.9875855 -1.8940833
-21.191257 6.1242242 -1.8961792
-21.176208 6.2609143 -1.8982751
-21.191746 6.4071631 -1.903253
-21.192009 6.5494261 -1.9069208
-21.202721 6.6955323 -1.9116366
-21.201057 6.838347 -1.9153044
-21.204117 6.9832621 -1.9194962
-21.228855 7.1360888 -1.925784
-21.224247 7.2797861 -1.9294518
-21.21303 7.421721 -1.9325957
-21.198992 7.5631227 -1.9355649
-21.187761 7.7059927 -1.9388834
-21.184916 7.8524718 -1.9430752
-21.168953 7.9946299 -1.9461317
-21.169708 8.1436825 -1.9508475
-21.179632 8.2970419 -1.956524
-21.165335 8.4416027 -1.9600172
-21.158369 8.5896721 -1.9642963
-21.159586 8.7417765 -1.9694488
-21.138611 8.8853407 -1.9725926
-21.131323 9.0352421 -1.9771338
-21.122078 9.1849909 -1.9815875
-21.111788 9.3349657 -1.9860414
-21.099543 9.4847498 -1.9904078
-21.071754 9.6281118 -1.9933771
-21.082756 9.7899485 -2.0001888
-21.093464 9.9527063 -2.0070879
-21.077812 10.103907 -2.0115416
-21.042288 10.246131 -2.0141616
-21.004919 10.387856 -2.0166941
-20.980844 10.536663 -2.0206239
-20.960171 10.687826 -2.0249903
-20.954355 10.847375 -2.0309289
-20.950897 11.009107 -2.0372167
-20.921627 11.158077 -2.041059
-20.904459 11.314215 -2.0462115
-20.901003 11.478713 -2.0528486
-20.88413 11.636806 -2.0582631
-20.847893 11.784827 -2.0618434
-20.820992 11.938787 -2.0664721
-20.824848 12.111391 -2.0743315
-20.782747 12.258173 -2.0776501
-20.743904 12.40745 -2.0814054
-20.648643 12.523134 -2.079484
-20.561232 12.643334 -2.0784361
-20.448605 12.747651 -2.0748556
-20.347265 12.858514 -2.0724976
-20.230236 12.958941 -2.068568
-20.113577 13.058959 -2.0647254
-20.004776 13.16351 -2.0617561
-19.887161 13.261692 -2.0579138
-19.779827 13.366178 -2.0552065
-19.667028 13.466469 -2.0519753
-19.547197 13.561337 -2.0480454
-19.415533 13.647223 -2.0428929
-19.264891 13.718716 -2.035732
-19.160961 13.822678 -2.0336361
-19.038788 13.912951 -2.029619
-18.897013 13.988021 -2.0235057
-18.808437 14.101915 -2.0232439
-18.702515 14.202597 -2.021148
-18.625282 14.324981 -2.0222831
-18.529177 14.432873 -2.02141
-18.441833 14.547527 -2.0215845
-18.309416 14.626215 -2.0167813
-18.202286 14.724501 -2.0148602
-18.079229 14.809399 -2.0111923
-17.945848 14.885074 -2.0063891
-17.832054 14.976328 -2.0038567
-17.723888 15.07191 -2.0020227
-17.603899 15.156979 -1.9988788
-17.49029 15.247035 -1.996521
-17.377735 15.337587 -1.9943377
-17.260269 15.423349 -1.9916304
-17.143147 15.508918 -1.9890106
-17.019747 15.588246 -1.985692
-16.891638 15.662582 -1.9818496
-16.777784 15.74957 -1.9797536
-16.657 15.829575 -1.9768717
-16.529408 15.902474 -1.9732039
-16.422243 15.994562 -1.9720687
-16.320955 16.092228 -1.9717194
-16.20569 16.175882 -1.9697107
-16.094921 16.263685 -1.9683135
-15.978809 16.345753 -1.9663049
-15.866449 16.431307 -1.9648203
-15.711699 16.472126 -1.9580086
-15.596668 16.55372 -1.956262
-15.48598 16.639629 -1.9551268
-15.355273 16.703535 -1.9514588
-15.211642 16.752451 -1.9461317
-15.097258 16.832865 -1.9446472
-14.970569 16.899086 -1.9415907
-14.850852 16.972633 -1.9394947
-14.745128 17.06193 -1.9393201
-14.633045 17.143747 -1.9383594
-14.519231 17.22331 -1.9372241
-14.406266 17.303654 -1.9362636
-14.27831 17.365561 -1.9332943
-14.168348 17.448977 -1.9328576
-14.032972 17.500612 -1.9289278
-13.916051 17.574673 -1.9276179
-13.820838 17.676208 -1.9294518
-13.70664 17.753582 -1.9286659
-13.597448 17.837351 -1.9286659
-13.488343 17.921244 -1.9287531
-12.486866 16.804296 -1.7977587
-13.247961 18.05891 -1.9258713
-13.113531 18.107586 -1.9223781
-12.987695 18.167448 -1.9201949
-12.871382 18.240286 -1.9194962
-12.750679 18.306658 -1.9181863
-12.633032 18.377163 -1.9174004
-12.508288 18.437019 -1.9155664
-12.386613 18.501005 -1.9142565
-12.267368 18.568348 -1.9133831
-12.148308 18.635759 -1.9125972
-12.03481 18.711624 -1.9127718
-11.484237 18.098759 -1.8415109
-11.348125 18.129198 -1.8374064
-11.216785 18.166277 -1.8340878
-11.529489 18.931572 -1.9056108
-11.428498 19.027578 -1.9082307
-11.314578 19.102488 -1.9087547
-11.188613 19.156929 -1.9072701
-11.065886 19.216587 -1.9063967
-9.624259 16.952906 -1.6713928
-10.79956 19.297909 -1.9010696
-10.6617 19.328918 -1.8975765
-10.531956 19.373844 -1.8955679
-10.404414 19.422297 -1.893996
-10.282256 19.480486 -1.893472
-10.158396 19.535255 -1.892686
-10.035159 19.591011 -1.8920747
-9.9102745 19.643324 -1.8912015
-9.7802505 19.685028 -1.8893675
-9.6478987 19.721401 -1.887097
-9.5167665 19.759586 -1.8850883
-9.3825417 19.790604 -1.8824685
-9.2520866 19.828844 -1.8806345
-9.1194372 19.861702 -1.878364
-8.989604 19.900036 -1.8767047
-8.8572168 19.932062 -1.8745215
-8.7231798 19.959562 -1.8719889
-8.5907116 19.98983 -1.8698057
-8.4589777 20.021059 -1.8677971
-8.3298578 20.057867 -1.8663999
-8.2006054 20.093843 -1.8650025
-8.0730791 20.133612 -1.8640419
-7.9428182 20.166084 -1.86247
-7.8135409 20.200504 -1.86116
-7.6827259 20.230373 -1.8595008
-7.5511427 20.25753 -1.8576669
-7.4178047 20.279158 -1.8553963
-7.2848225 20.30085 -1.8532131
-7.1459007 20.30476 -1.8494579
-7.0195537 20.343517 -1.8490212
-6.8882127 20.367331 -1.8472747
-6.761858 20.405432 -1.8469254
-6.6334496 20.437061 -1.8460521
-6.5064168 20.472631 -1.8456154
-6.378901 20.506462 -1.8450915
-6.2529554 20.545216 -1.8450915
-6.1247854 20.576513 -1.8444802
-5.998693 20.614664 -1.8445674
-5.8688211 20.639584 -1.8435194
-5.7364702 20.65505 -1.8416855
-5.6038899 20.668707 -1.8397644
-5.4736514 20.690184 -1.838629
-5.3448534 20.716627 -1.8380177
-5.2178807 20.749998 -1.8381051
-5.0923595 20.789366 -1.8388036
-4.9674754 20.831848 -1.8398516
-4.8397851 20.862906 -1.839939
-4.7132158 20.899012 -1.8405503
-4.5851064 20.928511 -1.8406376
-4.4570198 20.9582 -1.8408122
-3.0626669 14.84936 -1.2915963
-2.9523597 14.772141 -1.283038
-2.8300569 14.626646 -1.268454
-2.7232132 14.552672 -1.2603323
-2.6297917 14.546561 -1.2583238
-2.5308974 14.507467 -1.2534333
-2.422009 14.404838 -1.2429538
-2.3350096 14.428278 -1.2437397
-2.2519481 14.47777 -1.2468836
-2.1268866 14.248941 -1.2254004
-2.0000651 13.986589 -1.2010355
-1.9074576 13.949248 -1.1966691
-1.8146104 13.905373 -1.1917785
-1.7399442 14.002252 -1.1993762
-1.6590178 14.055204 -1.2031314
-1.5721918 14.060169 -1.2026948
-1.4819138 14.031905 -1.1993762
-1.4096864 14.180507 -1.2116897
-1.3051697 14.001424 -1.1951845
-1.2733208 14.630427 -1.2498528
-1.1905131 14.724351 -1.2574505
-1.1350993 15.199275 -1.2985827
-1.0450866 15.253658 -1.3027745
-0.95023185 15.239899 -1.3010279
-0.86089748 15.320038 -1.3075776
-0.72040325 14.396759 -1.2260991
-0.63161576 14.390956 -1.2252258
-0.57251817 15.168041 -1.2930809
-0.47991043 15.186203 -1.2943909
-0.38550228 15.141061 -1.290199
-0.29430631 15.231785 -1.2979714
-0.19048408 14.449379 -1.229243
-0.101856 14.455256 -1.2296796
-0.013250817 14.554232 -1.2383252
0.078398116 15.005301 -1.2778856
0.16594008 14.605096 -1.2428664
0.25880632 14.79006 -1.259197
0.34536621 14.610923 -1.2436523
0.45284399 15.207964 -1.2962248
0.53167802 14.801705 -1.2608563
0.62161094 14.777264 -1.2590224
0.71179134 14.763221 -1.2581491
0.76755434 14.117981 -1.2019088
0.85326391 14.09809 -1.2005988
0.9392221 14.084638 -1.1999003
1.0236726 14.051784 -1.1975423
1.1077554 14.018425 -1.1951845
1.1905376 13.973645 -1.1918659
1.2763464 13.96707 -1.1919533
1.3654077 13.993676 -1.1950098
1.4476478 13.950355 -1.1919533
1.5309319 13.920415 -1.1901194
1.6149379 13.898886 -1.1890714
1.7033358 13.914423 -1.191342
1.7857581 13.880985 -1.1893333
1.8706304 13.867792 -1.1891587
1.9584703 13.875781 -1.1909053
2.049093 13.900953 -1.1942238
2.1352568 13.894027 -1.1947478
2.2225139 13.893451 -1.195883
2.3145819 13.920825 -1.1995509
2.4019876 13.918141 -1.2005988
2.4890966 13.912948 -1.2014722
2.6575091 14.346033 -1.2414691
2.6592674 13.879398 -1.2012975
2.7455404 13.868683 -1.2018214
2.8367674 13.881832 -1.2045287
2.9264102 13.88561 -1.20645
3.0329053 13.965715 -1.2152703
3.1263649 13.981841 -1.2184141
3.2268357 14.026469 -1.2241778
3.3236153 14.05197 -1.2282823
3.411891 14.040024 -1.2290683
3.4977336 14.017858 -1.228981
3.6244464 14.155366 -1.2433904
3.7109809 14.131897 -1.2433031
3.7986584 14.112709 -1.2436523
3.8854456 14.090096 -1.2437397
3.9674966 14.05065 -1.2423425
4.0555711 14.032741 -1.2429538
4.1415982 14.007592 -1.2429538
4.2390003 14.020058 -1.246447
4.3337698 14.022337 -1.2490668
4.4539232 14.103776 -1.2590224
4.5177503 14.006022 -1.25256
4.6082788 13.992231 -1.2538699
4.7137251 14.022237 -1.2592844
4.8109865 14.026031 -1.2623409
4.9594603 14.174903 -1.2789335
5.0262594 14.08791 -1.2736938
5.1473346 14.152296 -1.2826014
5.2434225 14.145666 -1.2849593
5.3459573 14.155164 -1.2888892
5.4423676 14.147199 -1.291247
5.5715818 14.222062 -1.3014646
5.6605873 14.192235 -1.3019012
5.7389445 14.136005 -1.2998927
5.8210092 14.089478 -1.2988447
5.9501967 14.155433 -1.3085383
6.0302835 14.103085 -1.3070537
6.1163073 14.064904 -1.3069663
6.2290802 14.087243 -1.3127301
6.3754387 14.182323 -1.3255676
6.4424682 14.099444 -1.3213757
6.530118 14.062359 -1.3216377
6.6655893 14.126534 -1.3317679
6.783576 14.150947 -1.338143
6.8663521 14.100996 -1.337357
7.0004363 14.155039 -1.3467886
7.0884995 14.114489 -1.3470507
7.2541604 14.226037 -1.3623333
7.333528 14.166219 -1.3608487
7.4258728 14.131536 -1.3618966
7.515255 14.090981 -1.3624207
7.6134281 14.066504 -1.3646039
7.7504249 14.112081 -1.3738608
7.8577185 14.101679 -1.377616
8.0024309 14.156399 -1.3880082
8.0990524 14.124314 -1.3897548
8.2065992 14.110521 -1.3934226
8.2960615 14.065049 -1.3939466
8.4706678 14.161784 -1.4090546
8.6524534 14.26627 -1.4251233
8.7053881 14.156904 -1.4193596
8.8410997 14.181842 -1.4274812
9.0359802 14.298279 -1.4452091
9.175663 14.323934 -1.45368
9.3046074 14.330863 -1.4603171
9.3633432 14.229396 -1.4556887
9.46982 14.200684 -1.4587452
9.581316 14.178629 -1.4625877
9.7154093 14.188617 -1.4699234
11.727239 16.903448 -1.7659708
11.830735 16.831173 -1.7659708
11.933786 16.758263 -1.7659708
10.630671 14.73605 -1.5553317
11.690085 15.996861 -1.6993383
12.124066 16.378826 -1.7488542
11.997855 16.002047 -1.7157563
12.077141 15.903533 -1.7130491
12.163564 15.814917 -1.7114772
12.273229 15.756489 -1.7133111
11.835394 15.003552 -1.6376836
11.898631 14.894846 -1.6336664
11.948451 14.77044 -1.6279026
12.019287 14.672957 -1.6251955
