# .PCD v0.7 - Point Cloud Data file format
VERSION 0.7
FIELDS x y z
SIZE 4 4 4
TYPE F F F
COUNT 1 1 1
WIDTH 1522
HEIGHT 1
VIEWPOINT 0 0 0 1 0 0 0
POINTS 1522
DATA ascii
0 -0 -0
0 -0 -0
0 -0 -0
0 -0 -0
0 -0 -0
0 -0 -0
9.8838577 -1.0320551 -1.6918881
9.7343788 -1.0768499 -1.6668366
9.7295446 -1.1367875 -1.6671798
9.7771416 -1.2032105 -1.6767886
9.7881384 -1.2655817 -1.6800487
9.7772598 -1.3252194 -1.679534
9.7738218 -1.3858788 -1.6803918
9.744669 -1.4427912 -1.6767886
9.7366066 -1.5027065 -1.6769601
9.6737051 -1.5538216 -1.6675229
9.6406679 -1.6092534 -1.6634049
9.6063452 -1.6641701 -1.6591153
9.5746212 -1.7192491 -1.6553404
9.5396776 -1.7734611 -1.6510508
9.5073328 -1.8278675 -1.6472759
9.4775791 -1.8825201 -1.6440158
9.4475136 -1.9368764 -1.6407557
9.4296684 -1.9935855 -1.6397262
8.3488054 -1.8185263 -1.4492666
9.3881521 -2.105485 -1.6368092
9.3712168 -2.1621635 -1.6361228
9.3721523 -2.2230358 -1.6386967
9.3937492 -2.2891347 -1.6450453
9.3890829 -2.349123 -1.6467612
7.3973989 -1.8988624 -1.2912365
7.4065676 -1.949737 -1.2950114
9.4060755 -2.538238 -1.6579142
9.3760815 -2.5919657 -1.6553404
9.3761148 -2.6540108 -1.6582574
9.3823633 -2.7180736 -1.6623755
9.365509 -2.7755914 -1.6623755
7.9887958 -2.42083 -1.4149495
7.9305048 -2.4563885 -1.4070566
7.9096479 -2.5032187 -1.4060271
7.8950768 -2.5520072 -1.4061986
8.755827 -2.8898294 -1.566974
9.1879158 -3.0951471 -1.6496781
9.171546 -3.1524258 -1.6501929
9.1511011 -3.2083161 -1.6500213
9.1228943 -3.26142 -1.648477
9.108264 -3.3193603 -1.6495064
9.0923433 -3.3769004 -1.6503644
7.6249046 -2.8850572 -1.3809756
9.0235615 -3.4779451 -1.6453885
8.9974661 -3.5314469 -1.6445305
8.9655657 -3.5825655 -1.6426431
8.9096508 -3.6237726 -1.6362945
8.8471975 -3.6617906 -1.6287447
8.7964182 -3.7041512 -1.6234256
8.756319 -3.7506831 -1.6201655
8.6816607 -3.7819073 -1.6103851
8.6880159 -3.8482759 -1.6160474
8.6804085 -3.9087951 -1.619136
8.7153797 -3.9890513 -1.6304605
8.7845268 -4.0860915 -1.648477
8.7557278 -4.1382308 -1.6477907
8.7079697 -4.1812139 -1.643501
8.6600151 -4.2237668 -1.6392114
8.6321697 -4.2759495 -1.6388682
8.5978498 -4.3248496 -1.637324
8.5702744 -4.3770752 -1.6371523
8.4951563 -4.4046326 -1.6277152
8.4566364 -4.4507089 -1.6254846
8.4282999 -4.5020499 -1.625313
8.3883924 -4.5471058 -1.6229107
8.3327131 -4.5832934 -1.6174201
8.3018532 -4.632895 -1.6169053
8.2724123 -4.6832619 -1.6167337
8.2503548 -4.7378578 -1.6181064
8.210063 -4.7819448 -1.6158758
8.1686926 -4.8252144 -1.6134737
8.1549883 -4.8848662 -1.6167337
8.1265459 -4.9358354 -1.6170769
8.0365515 -4.9489217 -1.6048944
8.0177326 -5.0054455 -1.6072966
7.9985228 -5.0619245 -1.6096988
7.9631672 -5.1082468 -1.6088408
7.9614053 -5.1763477 -1.6150179
7.9155102 -5.2158837 -1.612101
7.8227348 -5.2238607 -1.5994036
7.7750335 -5.2612696 -1.5961435
7.7263556 -5.2977333 -1.5927118
7.6750965 -5.3321109 -1.5887654
7.6760678 -5.4029241 -1.5959719
7.6211162 -5.4344759 -1.5913391
7.5628729 -5.4632492 -1.58602
7.5466981 -5.5223527 -1.5897949
7.5174198 -5.5720749 -1.5908244
7.4618192 -5.6021228 -1.5861915
7.4014282 -5.6281209 -1.5805292
7.3589511 -5.667417 -1.5788134
7.3659821 -5.7451873 -1.588079
7.2695236 -5.7420273 -1.5745238
7.2380009 -5.7896018 -1.5753816
7.2046366 -5.8357649 -1.5758965
7.1785946 -5.8879852 -1.578127
7.143847 -5.9331803 -1.5784702
7.1050453 -5.9749999 -1.5779555
7.0322495 -5.9878216 -1.5697194
7.0229812 -6.0546627 -1.576068
6.9760509 -6.0892177 -1.5738374
6.9407711 -6.1338649 -1.5743521
6.883183 -6.1585984 -1.5697194
6.8416147 -6.1974092 -1.5688615
6.798377 -6.2346101 -1.5676603
6.7513318 -6.2681623 -1.5656013
6.7026954 -6.3000221 -1.5631992
6.6767578 -6.3532562 -1.5662876
6.600759 -6.3585587 -1.5573653
6.5559773 -6.3934374 -1.5559926
6.563591 -6.4799228 -1.5674888
6.5202236 -6.5165915 -1.5666308
6.4828854 -6.5592794 -1.5673171
6.4204965 -6.5763741 -1.5618265
6.3766046 -6.6120992 -1.5609685
6.3454256 -6.6610885 -1.5633707
6.2875586 -6.6819592 -1.5590811
6.2243104 -6.6965976 -1.5534188
6.2004242 -6.7535334 -1.55788
2.2111022 -2.4370992 -0.53420258
2.1915064 -2.445483 -0.53300148
2.1836395 -2.467001 -0.53488892
5.9550371 -6.8146353 -1.5372897
5.9317756 -6.8726768 -1.5422658
5.8805475 -6.898447 -1.5398636
5.8343024 -6.9298773 -1.5388341
5.8200111 -6.9996371 -1.5465554
5.7513232 -7.0039968 -1.5395204
5.749187 -7.0896626 -1.550845
5.6747918 -7.0863523 -1.5422658
5.6568651 -7.1534972 -1.5494723
2.0337081 -2.6032498 -0.53643316
1.9894283 -2.5790069 -0.52836865
1.9711797 -2.5880296 -0.5276823
1.9534874 -2.597713 -0.52716756
1.9351634 -2.6064856 -0.52648121
1.812606 -2.4728634 -0.49508113
1.7922035 -2.4767537 -0.49353686
1.8044442 -2.5261939 -0.50177294
5.2562394 -7.4588513 -1.5503303
5.2069993 -7.4861097 -1.5493008
5.1336517 -7.478117 -1.5408931
5.1059017 -7.5363927 -1.5465554
5.048614 -7.551199 -1.5431237
4.9962192 -7.5729885 -1.5412363
4.9636292 -7.6249704 -1.5456975
4.885345 -7.6063728 -1.535574
4.8675766 -7.6819787 -1.5450112
4.7984223 -7.6766114 -1.5378045
4.7140098 -7.6455269 -1.5254503
1.7391032 -2.8583348 -0.54381132
1.7220387 -2.8697968 -0.54398292
1.7059017 -2.882853 -0.54449767
4.5532427 -7.8074236 -1.5352308
4.5013237 -7.828382 -1.5338581
4.4653478 -7.8772817 -1.5381477
4.4217343 -7.9131331 -1.5398636
4.3626432 -7.9211292 -1.5360887
4.2937541 -7.9105148 -1.5287105
4.2335219 -7.9149928 -1.5244209
4.1908464 -7.9521508 -1.5266515
4.1515045 -7.9960785 -1.5302547
4.0983272 -8.0135069 -1.5287105
4.0486369 -8.0376225 -1.5285389
3.9935532 -8.0508394 -1.5263083
3.9475369 -8.0822735 -1.527681
3.9012852 -8.1134472 -1.5290537
3.848479 -8.1309986 -1.5278525
3.8030903 -8.1642828 -1.52974
3.7516925 -8.1847773 -1.5292252
3.6864202 -8.1744127 -1.5228766
3.6649482 -8.2617207 -1.5352308
3.5921314 -8.2334843 -1.525622
3.5372729 -8.24541 -1.5237346
3.4996262 -8.2978239 -1.5295684
3.4426115 -8.3045797 -1.526823
3.3875034 -8.3155098 -1.5249356
3.3371487 -8.3379679 -1.5252788
3.2855647 -8.3573704 -1.5251073
3.2221632 -8.3461237 -1.5192733
3.1747313 -8.3758707 -1.5211607
3.1225913 -8.3933468 -1.5208176
3.0720451 -8.4151249 -1.5213324
3.0213492 -8.4365988 -1.5218471
2.9809482 -8.4875126 -1.5278525
2.9272106 -8.5009861 -1.5269947
2.8727899 -8.5122528 -1.5257936
2.8137038 -8.509141 -1.5220187
2.7656877 -8.5393667 -1.5244209
2.7105601 -8.5477238 -1.5228766
2.646677 -8.5274982 -1.5161848
2.6011705 -8.5662022 -1.5203029
2.54828 -8.5810575 -1.5201312
2.4900889 -8.5776091 -1.5166996
2.4325738 -8.5756655 -1.513611
2.3838522 -8.6046715 -1.5161848
2.334866 -8.6334028 -1.5187585
2.2798388 -8.639946 -1.5173858
2.2218745 -8.6346893 -1.5139542
2.1602285 -8.6137581 -1.5077771
2.114578 -8.6565199 -1.5130962
2.0611951 -8.6683731 -1.5129247
2.0095212 -8.6875763 -1.5141258
1.9553136 -8.6958981 -1.5134394
1.906962 -8.7308321 -1.5175575
0.54431218 -2.5635941 -0.41752461
1.7760836 -8.6387396 -1.4971389
0.51704353 -2.5913372 -0.42129949
0.5000152 -2.5886567 -0.42026997
0.48646823 -2.6042664 -0.42250058
0.46821076 -2.5945978 -0.42026997
1.5163249 -8.7240982 -1.5033159
1.4500823 -8.6574488 -1.4899323
0.43588179 -2.6990674 -0.4372569
0.41720289 -2.688061 -0.43485472
1.2307189 -8.2802114 -1.4190675
1.1618555 -8.1608114 -1.3967614
1.0339777 -7.5957413 -1.2962126
0.34743342 -2.6691575 -0.42987874
0.33056626 -2.6673281 -0.42919242
0.95319724 -8.1183748 -1.3847505
0.9008649 -8.1015501 -1.3808041
0.85052145 -8.1010466 -1.3797746
0.79847723 -8.0825825 -1.3756565
0.74569404 -8.0529947 -1.369651
0.67636919 -7.8267608 -1.3293285
0.62786043 -7.8248715 -1.3282989
0.5792551 -7.8207169 -1.3269262
0.5333882 -7.855577 -1.332417
0.49934864 -8.0887957 -1.372568
0.44141921 -7.9421911 -1.346487
0.38913876 -7.87292 -1.3339612
0.15497027 -3.5660946 -0.58276117
0.13465191 -3.6093116 -0.59013933
0.25047514 -8.0835667 -1.369651
0.20143011 -8.1076031 -1.3735975
0.15486045 -8.280077 -1.4034534
0.10674474 -8.497592 -1.441202
0.056900952 -8.8635769 -1.5048602
0.0025165526 -8.8805075 -1.5077771
-0.05204989 -8.8931627 -1.5100077
-0.10653276 -8.8857803 -1.5088066
-0.16105287 -8.8849592 -1.5088066
-0.2158072 -8.8936529 -1.5105225
-0.27052391 -8.8970842 -1.5113804
-0.32492974 -8.8903341 -1.5105225
-0.37968445 -8.893095 -1.5113804
-0.43443707 -8.8945341 -1.5120667
-0.48889628 -8.8897333 -1.5117235
-0.54367447 -8.8904991 -1.5124099
-0.59828162 -8.8879786 -1.5125815
-0.65367383 -8.8959312 -1.5146406
-0.70754081 -8.8829136 -1.5130962
-0.76177889 -8.8754606 -1.5125815
-0.81730813 -8.8823919 -1.5146406
-0.87063706 -8.8654442 -1.5125815
-0.92593992 -8.8687534 -1.5141258
-0.98381013 -8.8942394 -1.5196165
-1.0405401 -8.9066267 -1.5228766
-1.0961341 -8.907897 -1.5242493
-1.1493804 -8.8902559 -1.5223619
-1.2033786 -8.8791313 -1.5216755
-1.2571452 -8.866703 -1.5208176
-1.3102269 -8.8500519 -1.5192733
-1.3645052 -8.8418455 -1.5192733
-1.4201392 -8.842061 -1.5208176
-1.4785867 -8.8584452 -1.5252788
-1.5347643 -8.8598833 -1.5271662
-0.53221309 -2.9684625 -0.4863303
-0.550237 -2.9641724 -0.4861587
-0.57083398 -2.9733171 -0.48838931
-0.59233201 -2.9861851 -0.49130625
-0.61282146 -2.9931102 -0.49319369
-1.8761433 -8.8744965 -1.5408931
-1.9223787 -8.8252773 -1.5342013
-0.66608542 -2.9736331 -0.49182102
-0.68210274 -2.9598906 -0.49010515
-0.6982041 -2.9470227 -0.48856089
-0.71767372 -2.948426 -0.48959041
-2.1838145 -8.7287073 -1.5281957
-2.2326751 -8.6970139 -1.5249356
-2.2749555 -8.6412325 -1.5173858
-0.78416634 -2.9090009 -0.48581553
-0.79806173 -2.8898916 -0.48324177
-0.8138997 -2.8783052 -0.48204064
-0.83154529 -2.8732569 -0.48204064
-2.5568759 -8.6278324 -1.5283673
-2.5966189 -8.5686131 -1.5204744
-2.6681011 -8.6136856 -1.5316274
-1.0124348 -3.2013719 -0.54587036
-1.0417595 -3.2250953 -0.55136108
-1.0692508 -3.2420297 -0.55565071
-2.8774292 -8.5418777 -1.5309411
-1.1105567 -3.2333224 -0.55650866
-1.1307012 -3.2273769 -0.5566802
-1.1388714 -3.1879113 -0.55067474
-3.0838289 -8.4622107 -1.52974
-3.1339784 -8.4385118 -1.5288821
-1.167712 -3.0880921 -0.53609002
-1.1802588 -3.0643232 -0.53300148
-1.2015592 -3.0634427 -0.53420258
-1.2627513 -3.1621282 -0.55410647
-3.3980362 -8.3548326 -1.5319706
-3.4609196 -8.3620424 -1.5372897
-3.5064261 -8.3270311 -1.534716
-3.5516338 -8.2917757 -1.5321422
-3.6012635 -8.2671175 -1.5316274
-3.6591055 -8.2610779 -1.534716
-3.7141764 -8.2483511 -1.5366035
-1.312629 -2.869735 -0.5106954
-1.329797 -2.8607337 -0.5105238
-3.8670566 -8.1821508 -1.5372897
-3.929558 -8.1840219 -1.5422658
-3.9719248 -8.1438198 -1.5391772
-4.0235691 -8.1228256 -1.5398636
-4.0759912 -8.1032648 -1.5408931
-4.1251869 -8.0772257 -1.5407214
-4.1746702 -8.0517616 -1.5407214
-4.2327161 -8.0425577 -1.5439816
-4.2861629 -8.0242558 -1.5455259
-4.3395443 -8.005599 -1.5470701
-4.3876343 -7.9770956 -1.5467269
-4.4437013 -7.9629264 -1.5493008
-4.4997587 -7.9483695 -1.5518745
-4.5499167 -7.9231725 -1.5523893
-4.6093574 -7.9138327 -1.5561641
-4.6668496 -7.9006686 -1.5592527
-4.7081504 -7.8600535 -1.5568504
-4.7102532 -7.75524 -1.5414078
-4.6988478 -7.6305685 -1.5218471
-4.7372308 -7.5882235 -1.5191017
-4.7884445 -7.566505 -1.520646
-4.8544669 -7.5676599 -1.5269947
-4.9282022 -7.5798507 -1.5357455
-4.9925103 -7.5766139 -1.5414078
-5.0536799 -7.5679564 -1.5460407
-5.1210055 -7.5678077 -1.5525608
-5.1862898 -7.5638666 -1.5583948
-5.2674589 -7.5820603 -1.569033
-5.2940321 -7.5214028 -1.5630275
-5.3240647 -7.46632 -1.5582231
-5.384202 -7.453475 -1.5625128
-5.4286704 -7.4187078 -1.5621697
-5.4635272 -7.3710136 -1.5590811
-5.5098352 -7.3389268 -1.5594243
-5.557148 -7.3081174 -1.5601106
-5.6139092 -7.2894907 -1.5635424
-5.6900425 -7.2952981 -1.5724647
-5.73592 -7.2617936 -1.5728079
-5.7816005 -7.2280002 -1.5731511
-5.8376255 -7.206933 -1.5764112
-5.8754878 -7.1633615 -1.5746953
-5.9142942 -7.1211133 -1.5733227
-5.9775367 -7.1080613 -1.5786418
-6.0299811 -7.0817499 -1.581044
-6.0778241 -7.04984 -1.5822451
-6.1242065 -7.0161252 -1.5831031
-6.1769285 -6.9894872 -1.5856768
-6.2380948 -6.9720101 -1.5904812
-6.2886944 -6.9423633 -1.5925403
-6.3318396 -6.9043717 -1.5927118
-6.3720737 -6.8632245 -1.5921971
-6.4248629 -6.8354816 -1.5949425
-6.4605708 -6.7895079 -1.5933981
-4.146523 -4.3050475 -1.0021155
-4.2499061 -4.3585086 -1.021333
-4.2198071 -4.2748685 -1.0072631
-4.3051615 -4.3081179 -1.0218477
-4.3259082 -4.2760811 -1.020475
-3.5046411 -3.4223292 -0.81422967
-3.4723828 -3.3494768 -0.80136073
-3.3987002 -3.2384236 -0.7787115
-3.4199419 -3.2188587 -0.7790547
-4.5560765 -4.2352591 -1.044497
-3.5070868 -3.2206161 -0.79037929
-3.5245924 -3.1970513 -0.78986454
-3.5639584 -3.1931095 -0.79449737
-3.4285192 -3.0341134 -0.75846446
-3.4322333 -3.000056 -0.75503272
-3.4341674 -2.9647806 -0.7512579
-4.6782427 -3.988436 -1.0317997
-3.7597206 -3.1660237 -0.8171466
-3.8313506 -3.1863484 -0.82898599
-4.5292821 -3.7197447 -0.98186839
-4.5543165 -3.6937449 -0.98238319
-4.5938148 -3.6792762 -0.98615801
-4.6317606 -3.6632395 -0.98958975
-4.6611395 -3.6402066 -0.99113399
-4.7106972 -3.6325886 -0.99713951
-4.7517118 -3.6179354 -1.0012575
-4.7690964 -3.5851605 -1.000228
-4.8084111 -3.5687439 -1.0040029
-4.7332535 -3.4681544 -0.98306948
-4.7799916 -3.4575179 -0.98856026
-4.8388047 -3.4550223 -0.99662471
-4.809175 -3.3895214 -0.98581487
-4.8314996 -3.3610737 -0.98615801
-4.8642159 -3.3397269 -0.9887318
-4.9017458 -3.3214197 -0.99233508
-4.8515949 -3.2441995 -0.97757876
-4.8870349 -3.2246757 -0.98083889
-4.8951693 -3.1871054 -0.97843671
-4.8259306 -3.1000547 -0.96007711
-4.9006219 -3.1057067 -0.97157329
-4.9722199 -3.1084692 -0.98238319
-5.0532594 -3.1161551 -0.99508047
-5.0950136 -3.0989084 -0.99971324
-5.1012583 -3.0599885 -0.99713951
-5.0105429 -2.9639478 -0.97500497
-5.1341696 -2.9946768 -0.99628156
-5.0602036 -2.9100931 -0.97775036
-5.2065306 -2.9518473 -1.0034882
-5.2340059 -2.9251301 -1.0053756
-5.2285542 -2.8801303 -1.0007428
-5.2054305 -2.8259108 -0.99267828
-5.2044277 -2.7841625 -0.98907501
-5.2057242 -2.7439106 -0.98598647
-5.2932897 -2.7486784 -0.99988484
-5.3091784 -2.7156992 -0.99971324
-5.3125429 -2.6764255 -0.99713951
-5.3553433 -2.656908 -1.002287
-5.3680038 -2.6222694 -1.0016007
-5.3733377 -2.5841608 -0.9995417
-5.4870501 -2.5974905 -1.018416
-5.3117638 -2.4747758 -0.98169684
-5.3617783 -2.458142 -0.98838866
-5.4845347 -2.473783 -1.0089788
-5.4032474 -2.3973515 -0.99061924
-5.4557824 -2.3806937 -0.99782586
-5.5028825 -2.3611512 -1.0040029
-5.5018344 -2.3208354 -1.001086
-5.4959483 -2.2787359 -0.99731106
-5.5353746 -2.255374 -1.0021155
-5.5911846 -2.2382009 -1.0100083
-5.6112309 -2.2063742 -1.0112095
-5.6577511 -2.1846719 -1.0173866
-5.711585 -2.1652737 -1.0249363
-5.7266102 -2.1308742 -1.0252795
-5.7775216 -2.1095426 -1.0323144
-5.792212 -2.0747168 -1.0326576
-5.7843828 -2.0319581 -1.0288827
-5.7138352 -1.9678916 -1.0136117
-5.6996651 -1.9239777 -1.0088073
-5.7469082 -1.9007176 -1.0153276
-5.7753334 -1.8708811 -1.018416
-5.8073649 -1.8419578 -1.0221909
-5.8768954 -1.8243878 -1.0328292
-5.9605675 -1.810325 -1.0460413
-6.1349516 -1.8222153 -1.0757256
-6.3115921 -1.832581 -1.1057529
-6.2724838 -1.779577 -1.0966589
-6.3953195 -1.7720788 -1.1169059
-6.4412608 -1.7423161 -1.1232547
-6.5185118 -1.7203467 -1.1352656
-6.7827411 -1.7455889 -1.1809072
-6.9318876 -1.7386687 -1.2057872
-7.1520214 -1.7472731 -1.2433643
-7.3389673 -1.7452673 -1.274936
-7.8121881 -1.8071555 -1.35764
-7.8913746 -1.7745227 -1.3698226
-7.931952 -1.7325817 -1.3751417
-7.9424338 -1.6838796 -1.3751417
-8.8163023 -1.8125652 -1.5287105
-9.6958809 -1.931353 -1.6829656
-9.806221 -1.8908379 -1.7004673
-9.9784088 -1.8605911 -1.7289505
-10.17095 -1.8319663 -1.7610369
-10.464456 -1.8185792 -1.8109682
-11.009828 -1.8437749 -1.9053401
-11.176555 -1.8012493 -1.9327937
-11.143586 -1.7258568 -1.9250724
-11.21146 -1.6659859 -1.9351959
-11.230249 -1.5984108 -1.9367402
-11.271084 -1.5337207 -1.9422309
-11.217755 -1.4564223 -1.9312495
-11.221592 -1.3869604 -1.9303916
-11.267073 -1.3224401 -1.9369117
-11.2691 -1.2526293 -1.9358822
-11.273635 -1.1831517 -1.9353675
-11.25421 -1.1113445 -1.9307346
-11.257875 -1.0419968 -1.9302199
-11.25915 -0.97247684 -1.9293621
-11.278652 -0.90447479 -1.9317642
-11.28792 -0.83554375 -1.9324505
-11.302664 -0.76693261 -1.9341664
-11.263891 -0.69490165 -1.9266167
-11.290567 -0.6270287 -1.9305631
-11.298138 -0.55793327 -1.9312495
-11.29938 -0.4885138 -1.9309063
-11.267708 -0.41789851 -1.9249008
-11.273998 -0.34887475 -1.9255872
-11.260169 -0.27930298 -1.9228418
-11.28728 -0.21068202 -1.927303
-11.28639 -0.14139612 -1.9269598
-11.297882 -0.072209619 -1.9288472
-11.31092 -0.0028877161 -1.9310778
-11.317621 0.066556096 -1.932279
-11.321925 0.13605815 -1.9331368
-11.312012 0.20536377 -1.9315926
-11.291826 0.27431259 -1.9283324
-11.267282 0.34290117 -1.924386
-11.299424 0.41329336 -1.9303916
-11.29077 0.48236462 -1.9293621
-11.288581 0.55168259 -1.9295336
-11.260392 0.619582 -1.925244
-11.224912 0.68673444 -1.9197532
-11.197879 0.75407153 -1.9158068
-10.543155 -0.26831394 -1.9269912
-10.546568 -0.20365535 -1.9273577
-10.547619 -0.13893898 -1.9273577
-10.559087 -0.074293889 -1.9293736
-10.549513 -0.0094939321 -1.927541
-10.569034 0.055339038 -1.9312062
-10.557682 0.12006581 -1.9291904
-10.552815 0.18477558 -1.9284573
-10.532809 0.24908209 -1.9249753
-10.533049 0.31376398 -1.9253418
-10.52503 0.37817606 -1.9242421
-10.525458 0.44287318 -1.9247919
-10.525489 0.50758982 -1.9253418
-10.505488 0.57125664 -1.9222263
-10.485104 0.6346972 -1.9191108
-10.530056 0.7022897 -1.928274
-10.498096 0.76488853 -1.9231426
-10.501045 0.82990855 -1.9246087
-10.44482 0.88998801 -1.915079
-10.446995 0.95477498 -1.916545
-10.40963 1.0158045 -1.9106805
-10.414935 1.0808749 -1.9128797
-10.410062 1.1449744 -1.9132463
-10.375498 1.2056515 -1.9081149
-10.384493 1.2713219 -1.9112303
-10.362846 1.3332603 -1.9086647
-10.354471 1.3968204 -1.9086647
-10.326237 1.4575808 -1.9049994
-10.296675 1.5179039 -1.9011508
-10.310488 1.5846378 -1.9055492
-10.329692 1.6525296 -1.9110471
-10.284447 1.7100767 -1.9044496
-10.290229 1.7759904 -1.9075651
-10.270429 1.8375387 -1.9059157
-10.254128 1.8996271 -1.9049994
-10.235519 1.9612148 -1.9037166
-10.189541 2.0173008 -1.8973023
-10.181787 2.0807688 -1.8982185
-10.210192 2.1519201 -1.906099
-10.173739 2.2095218 -1.9017006
-10.17438 2.2751224 -1.9044496
-10.164062 2.3383899 -1.9051826
-10.156219 2.4022951 -1.9064655
-10.117406 2.4587643 -1.9018838
-10.078283 2.514848 -1.8973023
-10.099804 2.5861487 -1.9044496
-10.092303 2.6503184 -1.906099
-10.053068 2.7060618 -1.9017006
-10.052385 2.7721376 -1.9048162
-10.085329 2.847923 -1.9145292
-10.001555 2.8906476 -1.9017006
-10.020396 2.962831 -1.9088479
-9.9897957 3.020561 -1.9064655
-9.953228 3.0762856 -1.9029834
-9.9041672 3.1278272 -1.8971189
-9.8904018 3.1903496 -1.8982185
-9.8734417 3.2518985 -1.8987683
-9.86728 3.3171177 -1.9015173
-9.8095446 3.3648427 -1.8941867
-9.807272 3.431462 -1.8978521
-9.7841806 3.4909132 -1.8974855
-9.73948 3.5424824 -1.8929039
-9.7194042 3.6028593 -1.8932704
-9.694356 3.6613867 -1.8927206
-9.66712 3.7190366 -1.8918042
-9.6267262 3.7714701 -1.8883222
-9.6234932 3.8384795 -1.892354
-9.5933828 3.8948674 -1.8910712
-9.5783901 3.9574115 -1.8929039
-9.5756779 4.0252509 -1.8973023
-9.5453758 4.0816116 -1.8962027
-9.5120382 4.1365762 -1.8945533
-9.4927711 4.1976457 -1.8958361
-9.4551792 4.2505736 -1.8934537
-9.4110374 4.3003387 -1.8897884
-9.3916073 4.3613148 -1.8912544
-9.3646698 4.4188585 -1.8912544
-9.3533363 4.4838848 -1.8945533
-9.3521633 4.5541019 -1.9000512
-9.3020144 4.6005058 -1.8954695
-9.2674608 4.654407 -1.8941867
-9.2159576 4.699573 -1.8894218
-9.1747255 4.7497058 -1.8868561
-9.1549816 4.8109412 -1.888872
-9.0940628 4.8503709 -1.8822745
-9.1021709 4.9266682 -1.8903382
-9.0312719 4.9601846 -1.8817247
-8.9912205 5.0102425 -1.8797088
-8.9449043 5.0566096 -1.87641
-8.9495277 5.131937 -1.8841071
-8.8821783 5.1659966 -1.87641
-8.8477726 5.2189012 -1.8758602
-8.8586111 5.2988267 -1.8852067
-8.8099604 5.3433967 -1.8817247
-8.7979441 5.4102259 -1.8863063
-8.754571 5.4578667 -1.8841071
-8.7009726 5.4988775 -1.8797088
-8.6248503 5.5251193 -1.8703623
-8.5635767 5.5602713 -1.8643146
-8.5292978 5.6127114 -1.8643146
-8.5298681 5.6883926 -1.8721949
-8.480957 5.731267 -1.8690794
-8.4569874 5.7909727 -1.8716451
-8.411603 5.8360305 -1.8694459
-8.4134359 5.9141026 -1.8780594
-8.3769894 5.9656148 -1.8780594
-8.3354435 6.0134521 -1.8769598
-8.3222008 6.0818844 -1.8824577
-8.2586508 6.1135335 -1.87641
-8.2469397 6.1835527 -1.8824577
-8.2417259 6.2590084 -1.8901548
-8.2164135 6.3196492 -1.8932704
-8.1487865 6.3475943 -1.8864896
-8.1436453 6.4242635 -1.8945533
-8.0802631 6.4550905 -1.888872
-8.0229244 6.4903288 -1.8846569
-8.0050039 6.5574994 -1.8899716
-7.9653735 6.6071215 -1.8901548
-7.9389863 6.6678839 -1.8936369
-7.9001703 6.7183814 -1.8941867
-7.8640132 6.7712193 -1.8954695
-7.8356562 6.8309722 -1.8987683
-7.805388 6.8893304 -1.9017006
-7.7629685 6.9370937 -1.9017006
-7.7268186 6.9905314 -1.90335
-7.7033539 7.0557375 -1.9082981
-7.6281972 7.073462 -1.9002345
-7.6018538 7.136282 -1.9046328
-7.5550728 7.1800828 -1.9038998
-7.4938717 7.2099476 -1.8995014
-7.4621677 7.2681394 -1.9028002
-7.4286313 7.3248329 -1.9057324
-7.3974628 7.3841658 -1.9093977
-7.3485579 7.4259229 -1.9084814
-7.3186607 7.487041 -1.9126965
-7.2678032 7.5268564 -1.9114137
-7.2201252 7.5698867 -1.9110471
-7.1573615 7.5968742 -1.9066488
-7.1072645 7.6370497 -1.9057324
-7.0675893 7.6884761 -1.9077483
-7.0520024 7.7666311 -1.916545
-7.0061836 7.8119502 -1.9170948
-6.9600744 7.8569999 -1.9176446
-6.8903708 7.875144 -1.9115969
-6.8631325 7.9418192 -1.9176446
-6.8308673 8.0032215 -1.9224095
-6.7955718 8.0615196 -1.9264414
-6.7019486 8.0501804 -1.9136128
-6.6942601 8.1420269 -1.9258916
-6.650372 8.1905804 -1.9277242
-6.6092157 8.2427359 -1.9304732
-6.5756025 8.3047142 -1.9356046
-6.5130167 8.3301907 -1.9321226
-6.4629827 8.3715534 -1.9324892
-6.4180498 8.419652 -1.934505
-6.3810468 8.4785099 -1.9390867
-6.3388715 8.5309172 -1.9422022
-6.2823367 8.5641031 -1.9409193
-6.2360129 8.6112471 -1.9429352
-6.1790557 8.6437502 -1.9416524
-6.1236353 8.6782894 -1.9409193
-6.0663381 8.7100525 -1.9396365
-6.0060968 8.7373905 -1.9374373
-5.9722419 8.8033648 -1.9440348
-5.9274106 8.8537302 -1.9471503
-5.8838115 8.9063377 -1.9508157
-5.8038201 8.9035673 -1.9422022
-5.7549295 8.9481058 -1.944218
-5.7025499 8.9873991 -1.9451344
-5.6457324 9.019721 -1.9445846
-5.5851169 9.0458279 -1.942752
-5.5509844 9.1151905 -1.9504491
-5.4969749 9.1524506 -1.9511821
-5.4422159 9.1885443 -1.9517319
-5.3991203 9.2446833 -1.9566801
-5.334445 9.2640076 -1.9537479
-5.3051667 9.345294 -1.9641939
-5.2314019 9.3485022 -1.957963
-5.1834388 9.3976412 -1.9616283
-5.1383557 9.452589 -1.9665765
-5.0746884 9.4735413 -1.9643773
-5.0150876 9.5018921 -1.9638275
-4.9530621 9.5255079 -1.9623613
-4.8994517 9.5653448 -1.9643773
-4.8419962 9.5978594 -1.9649271
-4.765954 9.5930538 -1.9577798
-4.7277393 9.6645031 -1.9665765
-4.6696296 9.6959877 -1.9671263
-4.6049943 9.7137976 -1.9649271
-4.576066 9.8077936 -1.9784887
-4.5162106 9.8365803 -1.9786719
-4.4553647 9.8632107 -1.9784887
-4.4007497 9.9038372 -1.9812376
-4.3320241 9.9126377 -1.9775723
-4.2769423 9.9525795 -1.9803213
-4.2161765 9.9795408 -1.9805046
-4.158257 10.013394 -1.982154
-4.0967379 10.03872 -1.982154
-4.0471387 10.093779 -1.9882017
-3.9872897 10.123909 -1.9893013
-3.9293516 10.159186 -1.9915005
-3.8651967 10.178511 -1.9905841
-3.8081639 10.216773 -1.9935164
-3.7403374 10.226099 -1.9907675
-3.6761928 10.245155 -1.9900343
-3.6106493 10.260101 -1.9885682
-3.5524368 10.296001 -1.9913173
-3.5014784 10.353924 -1.9984646
-3.4295325 10.350019 -1.9935164
-3.3699071 10.383022 -1.9958988
-3.3040502 10.396946 -1.994616
-3.2518742 10.454571 -2.0019467
-3.2008324 10.517589 -2.0103767
-3.1407251 10.552106 -2.013309
-3.0792158 10.582505 -2.0155082
-3.0150313 10.604036 -2.016058
-2.942543 10.595815 -2.0109265
-2.8694978 10.584258 -2.0052454
-2.8065114 10.609268 -2.0067115
-2.745291 10.64152 -2.0096438
-2.6818624 10.665791 -2.0111098
-2.6095846 10.654356 -2.0057952
-2.5514588 10.700768 -2.0116596
-2.4846413 10.711432 -2.0107434
-2.4270895 10.762918 -2.0177073
-2.3595309 10.770885 -2.0164244
-2.2942157 10.789007 -2.0171576
-2.2057288 10.695048 -1.9966319
-2.1539376 10.777788 -2.0098269
-2.0967307 10.83713 -2.0186238
-2.0244088 10.81887 -2.0127592
-1.9558884 10.819479 -2.01056
-1.886423 10.813845 -2.0072613
-1.8190567 10.819399 -2.0061617
-1.7586049 10.867233 -2.0131257
-1.6908338 10.871019 -2.011843
-1.6380339 10.974529 -2.0294363
-1.5607822 10.915279 -2.0164244
-1.4949768 10.933416 -2.018074
-1.4287531 10.949207 -2.0193567
-1.3659083 10.992887 -2.0259542
-1.2984314 11.001062 -2.0259542
-1.2282833 10.985374 -2.0215559
-1.1576536 10.962398 -2.0158746
-1.0917296 10.98299 -2.0184405
-1.0225846 10.970884 -2.0149584
-0.95738083 11.001436 -2.0195401
-0.88819498 10.986526 -2.0156915
-0.82076615 10.99177 -2.0156915
-0.75323927 10.995618 -2.0155082
-0.68330914 10.960787 -2.0081775
-0.61571109 10.958884 -2.0070779
-0.55199641 11.033148 -2.0202732
-0.48191559 10.98231 -2.0101936
-0.41570771 11.016497 -2.016058
-0.34707838 10.986415 -2.0100102
-0.27961037 10.986372 -2.0096438
-0.21192776 10.974121 -2.0070779
-0.14482157 10.992908 -2.0103767
-0.077708386 11.041759 -2.0193567
-0.0099578118 11.043994 -2.0197234
0.05778661 11.039915 -2.0189903
0.12587056 11.069825 -2.0246716
0.19334486 11.043289 -2.0199065
0.26033583 11.009462 -2.0138588
0.32826379 11.020432 -2.0162413
0.3952077 10.999544 -2.0127592
0.46339414 11.01361 -2.0158746
0.53105825 11.012523 -2.0162413
0.59851319 11.007093 -2.0158746
0.66425931 10.973776 -2.0103767
0.73079604 10.957723 -2.0081775
0.79994541 10.979506 -2.0131257
0.86714447 10.97243 -2.0127592
0.93145043 10.931641 -2.0061617
0.99931306 10.93453 -2.0078111
1.0621879 10.885142 -1.9997474
1.1325084 10.912643 -2.0061617
1.1977267 10.889854 -2.0032294
1.2697409 10.927219 -2.0116596
1.325659 10.828474 -1.994616
1.4032376 10.906915 -2.0109265
1.4638281 10.851336 -2.0021298
1.5388995 10.902501 -2.0134923
1.5970237 10.833528 -2.0023131
1.6643628 10.829354 -2.0034127
1.741026 10.883006 -2.0155082
1.809866 10.884726 -2.0178907
1.8695986 10.832727 -2.0101936
1.9445137 10.868469 -2.0191736
2.0056148 10.826368 -2.0134923
2.0679371 10.792617 -2.0094604
2.1301119 10.759474 -2.0056119
2.1915646 10.724049 -2.0013969
2.2534733 10.692122 -1.9979148
2.3221655 10.692505 -2.0006638
2.3888023 10.682852 -2.00158
2.4516616 10.656496 -1.9993808
2.5065951 10.597246 -1.9909507
2.5852661 10.638027 -2.0017633
2.6447799 10.599072 -1.997365
2.7078142 10.575026 -1.9958988
2.7679069 10.540146 -1.9924169
2.8330388 10.524862 -1.9927833
2.8978262 10.508228 -1.9929667
2.9569066 10.471329 -1.9893013
3.029835 10.48321 -1.9951658
3.0954955 10.469135 -1.9960821
3.1613815 10.45559 -1.9971817
3.216188 10.40594 -1.9913173
3.2713928 10.358825 -1.9860026
3.3478675 10.378788 -1.9938829
3.4096425 10.352448 -1.9927833
3.464956 10.307104 -1.9880184
3.52335 10.271701 -1.9852694
3.5846865 10.24525 -1.9843532
3.6511164 10.233246 -1.986369
3.7104776 10.201412 -1.9845364
3.7624114 10.149878 -1.9788551
3.8128107 10.095332 -1.9726242
3.8771532 10.07817 -1.973907
3.9475243 10.076159 -1.9783053
4.0067267 10.045356 -1.9770225
4.0638514 10.009651 -1.9748234
4.1150584 9.9599953 -1.9698752
4.1677141 9.9146204 -1.9658433
4.2273111 9.8861494 -1.9652935
4.2976923 9.8825636 -1.9698752
4.3487086 9.8344288 -1.9654769
4.3847871 9.7537622 -1.9544809
4.464571 9.7704868 -1.9634609
4.5173993 9.7277517 -1.9603454
4.5639987 9.6722889 -1.9546642
4.6317592 9.6618319 -1.9583296
4.6849308 9.6208563 -1.9557638
4.7421322 9.5884047 -1.9550307
4.7924938 9.5424347 -1.9515487
4.8598862 9.530365 -1.955214
4.9060702 9.4767942 -1.9502659
4.9737287 9.4647875 -1.9541144
5.0150566 9.4028635 -1.9475169
5.0623627 9.3528948 -1.943485
5.1191826 9.3207951 -1.9433018
5.1724496 9.2823391 -1.9418356
5.2336612 9.2581291 -1.943485
5.2801008 9.2079315 -1.9396365
5.3409481 9.1830091 -1.9412858
5.3857069 9.1305895 -1.9370707
5.4426389 9.0990582 -1.9374373
5.5014262 9.0705357 -1.9385369
5.5585227 9.0391207 -1.9390867
5.609201 8.9973354 -1.9374373
5.6637769 8.9619179 -1.9372541
5.7128267 8.9178915 -1.9352381
5.7444196 8.8472157 -1.9273577
5.8029199 8.8183718 -1.9288238
5.8531017 8.7768745 -1.927541
5.8991394 8.7293911 -1.9249753
5.9603667 8.7043867 -1.927541
6.0030165 8.6523037 -1.9240589
6.0373383 8.5887661 -1.9180112
6.0984778 8.5635719 -1.9207602
6.1330791 8.501276 -1.915079
6.1932464 8.474596 -1.9176446
6.2468839 8.4388065 -1.9181944
6.2684708 8.3602028 -1.9088479
6.3410525 8.3497677 -1.9154454
6.3831768 8.2990141 -1.9126965
6.418272 8.2395267 -1.9079316
6.4522696 8.1791506 -1.9029834
6.5109243 8.1501589 -1.9055492
6.5620465 8.1115837 -1.9059157
6.612318 8.071928 -1.906099
6.6466599 8.0130434 -1.9017006
6.6691484 7.9404917 -1.8940035
6.7202921 7.9024167 -1.8947365
6.7827649 7.8774228 -1.8987683
6.8451834 7.8519592 -1.9028002
6.8815241 7.7965431 -1.8995014
6.9174433 7.7409773 -1.8962027
6.9503016 7.6823483 -1.8921708
6.993989 7.6359324 -1.8912544
7.0286794 7.5798988 -1.8879557
7.0528536 7.5129762 -1.8819079
7.1218443 7.4937878 -1.888139
7.1581497 7.4400296 -1.8855733
7.1906343 7.3825874 -1.8820913
7.2268248 7.329227 -1.8797088
7.2647152 7.2777882 -1.8778762
7.3169203 7.2406826 -1.879892
7.3520722 7.1867166 -1.8775096
7.384716 7.1305437 -1.8745774
7.4418445 7.09799 -1.8780594
7.4552059 7.0238795 -1.8703623
7.4945655 6.9746542 -1.8694459
7.5234694 6.9158959 -1.8659639
7.5504794 6.8557248 -1.8621154
7.5645938 6.7843237 -1.8551513
7.621532 6.7514701 -1.8589998
7.6524572 6.6955152 -1.8564341
7.6926522 6.6477919 -1.8562509
7.740027 6.6062098 -1.8579003
7.7841744 6.5617614 -1.8588165
7.8114467 6.5031819 -1.8557011
7.8587956 6.4613729 -1.8575337
7.8769259 6.3956795 -1.8524023
7.9206223 6.3509169 -1.8535019
7.9548178 6.2985358 -1.8524023
8.008029 6.2611127 -1.8558843
8.0634146 6.2250757 -1.8599161
8.0905142 6.1671381 -1.8573505
8.1038542 6.0990529 -1.8516692
8.1640072 6.0662184 -1.8569839
8.209794 6.0224071 -1.8589998
8.2179289 5.9511609 -1.8524023
8.2558899 5.9017682 -1.8527688
8.2951593 5.8532672 -1.8535019
8.3123646 5.7893357 -1.8492868
8.3898563 5.7671824 -1.8588165
8.4275255 5.7172503 -1.8593663
8.4542789 5.6599631 -1.8575337
8.4740849 5.598228 -1.8542349
8.506628 5.5450525 -1.8538684
8.5504131 5.4991341 -1.8560675
8.5997658 5.456574 -1.8595496
8.6414175 5.4089203 -1.8613822
8.6794615 5.3588943 -1.8624818
8.6827936 5.2876401 -1.8560675
8.6965351 5.2231278 -1.8520358
8.7343407 5.1731758 -1.8533186
8.7718601 5.1229563 -1.8546015
8.8610582 5.1023965 -1.8670635
8.9050226 5.0552106 -1.8698125
8.951314 5.0091166 -1.8731112
8.9319553 4.9265585 -1.8624818
8.9507885 4.8655562 -1.8600994
8.9865398 4.8137932 -1.8613822
9.0359039 4.7691169 -1.8655974
9.0484247 4.7049665 -1.8621154
9.0832481 4.6524949 -1.8633982
9.1432209 4.6126151 -1.8699957
9.1511021 4.5463657 -1.8657806
9.2194462 4.5100031 -1.8742108
9.1946907 4.4281797 -1.8633982
9.223465 4.3725214 -1.8637648
9.2367573 4.3096094 -1.8610158
9.2898283 4.2651591 -1.8665137
9.3220959 4.2109103 -1.8677965
9.3459606 4.1528335 -1.86743
9.3982897 4.1072206 -1.872928
9.3889933 4.0347261 -1.8659639
9.4054232 3.9735968 -1.8643146
9.4505091 3.9244838 -1.8685296
9.4753218 3.8667941 -1.8687129
9.4952192 3.8071182 -1.8679798
9.5385237 3.7567112 -1.8720117
9.589817 3.7091076 -1.8776928
9.6096382 3.6491487 -1.877143
9.5839491 3.5722606 -1.8676133
9.6343079 3.5238566 -1.8732945
9.6603746 3.4663355 -1.8742108
9.6490059 3.3955727 -1.8677965
9.693821 3.344641 -1.8725615
9.6964674 3.2791135 -1.8690794
9.7537308 3.231925 -1.87641
9.7369118 3.1601796 -1.8692627
9.7523718 3.0991843 -1.8685296
9.8312807 3.0579755 -1.8802586
9.8555012 2.9993119 -1.8813581
9.872777 2.9385028 -1.8811749
9.9057245 2.8822644 -1.8841071
9.8995838 2.8147073 -1.8795255
9.9422426 2.7610149 -1.8844737
9.9523554 2.6981575 -1.8831909
9.964922 2.6360345 -1.8824577
9.9685345 2.5716486 -1.8800753
9.9850788 2.510674 -1.8802586
10.002206 2.4498272 -1.8806251
10.054343 2.3973024 -1.8877724
10.050669 2.3313439 -1.8842905
10.045605 2.2653043 -1.8806251
10.07276 2.2065687 -1.8831909
10.102455 2.1481984 -1.8863063
10.116409 2.086369 -1.8864896
10.147336 2.0279179 -1.8899716
10.177926 1.9691654 -1.8934537
10.16566 1.9021566 -1.888872
10.144249 1.8337984 -1.8826411
10.176616 1.7752374 -1.8866729
10.23385 1.7205869 -1.8954695
10.195694 1.6499069 -1.8863063
6.0617242 0.94263542 -1.1044974
6.0294747 0.89976251 -1.0973501
0 0 -0
0 0 -0
0 0 -0
0 0 -0
0 0 -0
0 0 -0
0 0 -0
0 0 -0
0 0 -0
0 0 -0
0 0 -0
0 0 -0
0 0 -0
0 0 -0
0 0 -0
0 0 -0
0 0 -0
0 0 -0
0 0 -0
0 0 -0
0 0 -0
0 0 -0
0 0 -0
0 0 -0
0 -0 -0
0 -0 -0
0 -0 -0
0 -0 -0
0 -0 -0
0 -0 -0
0 -0 -0
0 -0 -0
0 -0 -0
0 -0 -0
5.926754 -0.39545432 -1.068211
5.9330401 -0.43245536 -1.0698603
5.9586954 -0.47109666 -1.075175
0 -0 -0
0 -0 -0
6.0859933 -0.59405845 -1.1008321
6.1105905 -0.634332 -1.1061468
9.2784929 -1.0205601 -1.7010254
9.1705008 -1.0656757 -1.6819657
9.0496225 -1.1079525 -1.6605238
9.155757 -1.1780063 -1.6817825
9.2223997 -1.2441483 -1.6957107
9.2136183 -1.300575 -1.6955273
9.2161627 -1.3586609 -1.6975433
9.1998796 -1.4139903 -1.6960771
9.1793814 -1.46855 -1.6938779
9.165349 -1.5240399 -1.6929617
9.099638 -1.5705535 -1.6823323
9.0462837 -1.6185689 -1.6740854
9.00525 -1.6683162 -1.6682209
8.9571886 -1.7163266 -1.6610736
8.932024 -1.7683914 -1.6583246
8.9306364 -1.8251319 -1.6601572
8.4219475 -1.7750983 -1.5654092
8.8163023 -1.9147701 -1.642747
8.8878536 -1.9874905 -1.658691
8.8601627 -2.0384619 -1.6557589
8.8551416 -2.0945985 -1.657225
8.8440332 -2.1493576 -1.6575915
8.8316326 -2.2038209 -1.6577748
7.3675179 -1.886634 -1.378662
8.7782507 -2.3052919 -1.6528265
8.7848244 -2.3647316 -1.6568584
8.7578297 -2.4151928 -1.6544759
8.7248697 -2.4638093 -1.6509939
8.7048655 -2.515933 -1.6500776
8.6902075 -2.5695763 -1.6502609
7.9929924 -2.4168825 -1.5175769
7.9188404 -2.4475951 -1.5060313
7.9036732 -2.4961381 -1.5060313
7.8779168 -2.5412679 -1.5040153
7.8995247 -2.6018577 -1.511346
8.6195583 -2.8977206 -1.6561254
8.6016159 -2.9505546 -1.6561254
8.5852051 -3.0039268 -1.6564919
8.556427 -3.0529146 -1.6544759
8.5329142 -3.1036785 -1.6535597
8.5118666 -3.1552937 -1.6531931
8.4362459 -3.1862767 -1.6420139
7.5861783 -2.9185705 -1.4761591
8.4120703 -3.2956581 -1.6451294
8.3789072 -3.342113 -1.6425637
8.3491335 -3.3897645 -1.6407311
8.3299942 -3.4416807 -1.6410977
8.3087196 -3.4927278 -1.6410977
8.2880363 -3.54403 -1.6412809
8.2571192 -3.5908976 -1.6394483
8.1827831 -3.6184375 -1.6288189
8.1658058 -3.6709964 -1.6299185
8.1163034 -3.7087755 -1.6244205
8.0702114 -3.7477419 -1.6196556
8.0221701 -3.7854438 -1.6145242
7.9491487 -3.8107998 -1.6042614
7.928268 -3.8607943 -1.6048112
7.9758067 -3.9446661 -1.6196556
8.015584 -4.0257359 -1.633034
8.0108747 -4.085114 -1.6372491
8.0013723 -4.1423254 -1.6405479
7.9523082 -4.1789966 -1.6355997
7.939528 -4.2346511 -1.6383487
7.9626756 -4.3099585 -1.6487948
7.8947196 -4.3360214 -1.6399981
7.8233104 -4.3594995 -1.6304682
7.7784419 -4.3972616 -1.6266197
7.7777519 -4.4600654 -1.6323009
7.7204957 -4.4904075 -1.6258867
7.6894107 -4.535697 -1.6251535
7.6614356 -4.5827932 -1.6251535
7.5877814 -4.6021891 -1.6152573
7.6624026 -4.7119951 -1.6377989
7.5882969 -4.7308393 -1.6279025
7.5616193 -4.7788868 -1.6284523
7.5131149 -4.8129983 -1.6242373
7.4529338 -4.8392005 -1.6174564
7.4206371 -4.8832188 -1.6169066
7.3733587 -4.9172058 -1.6130581
7.331645 -4.9546494 -1.6104923
7.2954278 -4.9956546 -1.6092095
7.2735224 -5.0464888 -1.6112254
7.2528763 -5.098372 -1.6136079
7.2294645 -5.1484809 -1.6154405
7.1658473 -5.1697383 -1.60811
7.1633592 -5.2350702 -1.6148907
7.1129293 -5.2654729 -1.6106756
7.0332942 -5.2736359 -1.5996797
7.0180273 -5.3297715 -1.6037116
7.002336 -5.3859177 -1.6077434
6.9458899 -5.4106593 -1.6022455
6.9048414 -5.4470882 -1.6004127
6.8789697 -5.4954886 -1.6022455
6.8091979 -5.5085359 -1.593632
6.7729888 -5.5483437 -1.5930822
6.7373037 -5.5885425 -1.5927156
6.714931 -5.6398921 -1.5956479
6.6524892 -5.6574249 -1.5888671
6.6370206 -5.7148142 -1.593632
6.5936785 -5.7483249 -1.591616
6.5405941 -5.7730627 -1.5872177
6.5013828 -5.8098111 -1.5863013
6.4758186 -5.8588266 -1.5888671
6.4266982 -5.8864999 -1.5855683
6.3846912 -5.9204755 -1.5841022
6.358995 -5.9696317 -1.5868511
6.3236718 -6.009892 -1.5872177
6.2859683 -6.0478983 -1.5870345
6.2416983 -6.0794959 -1.5852017
6.2035775 -6.1169896 -1.5850185
6.1506205 -6.1396604 -1.5809867
6.0886297 -6.1528282 -1.5745724
6.0679421 -6.2076459 -1.579154
6.0270071 -6.2419324 -1.578421
5.969595 -6.2588782 -1.5732895
5.9196181 -6.283226 -1.5701741
2.2214429 -2.3874385 -0.56881362
2.2067521 -2.4010241 -0.56881362
2.1906562 -2.4130638 -0.56844705
2.177778 -2.4286554 -0.56899685
5.6810713 -6.4132872 -1.5580785
5.6558552 -6.4643006 -1.5621104
5.6488676 -6.5368156 -1.5714569
5.6003551 -6.5616331 -1.5690745
5.5713935 -6.6094017 -1.5723733
5.5231862 -6.634397 -1.5701741
5.4661407 -6.6484189 -1.5654092
5.3738098 -6.6184921 -1.5501982
5.4112029 -6.7487416 -1.5734729
5.3983746 -6.8180399 -1.5820863
2.0144711 -2.5769732 -0.57064629
1.9914118 -2.5799477 -0.56844705
1.9713721 -2.5866456 -0.56716424
1.9542813 -2.5971222 -0.56679767
1.9347908 -2.6043303 -0.56569809
1.8053824 -2.4615886 -0.52996141
1.7890911 -2.4710274 -0.5295949
1.7653196 -2.4699628 -0.52684593
4.8998928 -6.9441662 -1.5452499
4.8701153 -6.9926543 -1.5494651
4.8176498 -7.0086331 -1.5463495
4.8027034 -7.0795507 -1.5556961
4.7438598 -7.0860138 -1.5505646
4.7111297 -7.1313925 -1.55423
4.6640625 -7.1552238 -1.5531304
4.6200709 -7.1837072 -1.5531304
4.5737987 -7.2086 -1.5523974
4.5300031 -7.2373619 -1.5525806
4.4731145 -7.2449465 -1.5481822
4.4224396 -7.2621813 -1.5459831
1.7385404 -2.8952005 -0.5904389
1.714731 -2.8956637 -0.58823973
1.6964355 -2.9052815 -0.58805645
4.2193365 -7.3276348 -1.5371864
4.2077851 -7.412374 -1.5498316
4.1540627 -7.4234695 -1.5467161
4.0894418 -7.4143872 -1.5393856
4.0495057 -7.4497042 -1.5415847
4.0027905 -7.4726782 -1.5412182
3.9674182 -7.5170937 -1.5454333
3.9103341 -7.5203638 -1.5410349
3.8681502 -7.5520902 -1.5426843
3.8266096 -7.5853367 -1.5447001
3.7795575 -7.6077933 -1.5445169
3.74015 -7.645853 -1.5476325
3.6829274 -7.6474018 -1.5432341
3.6262481 -7.649425 -1.539019
3.5746713 -7.6617322 -1.537003
3.532105 -7.6933489 -1.539019
3.4779525 -7.6996465 -1.5359035
3.4330382 -7.7262321 -1.537003
3.3871412 -7.7507544 -1.5377362
3.3329208 -7.7560377 -1.5346206
3.2879462 -7.7826805 -1.5359035
3.2307043 -7.7800117 -1.5313219
3.1877356 -7.8115206 -1.5337043
3.1441355 -7.8418827 -1.5359035
3.1049664 -7.8838935 -1.5404851
3.0416377 -7.8642888 -1.5327879
3.0041459 -7.9112935 -1.5384692
2.9459319 -7.9037857 -1.5333377
2.8818443 -7.8792443 -1.5249076
2.8507106 -7.9448934 -1.5344373
2.8028872 -7.9650173 -1.5349871
2.7597342 -7.9987926 -1.538286
2.7055631 -8.0006762 -1.5353537
2.6468344 -7.9881983 -1.5296725
2.6132491 -8.0519753 -1.539019
2.5557539 -8.0425625 -1.5340708
2.5040214 -8.0505838 -1.5326047
2.4548631 -8.0667372 -1.5327879
2.4210269 -8.1344109 -1.5430508
2.3669493 -8.1349545 -1.5403018
2.2882183 -8.0481482 -1.5206925
2.2456329 -8.0866642 -1.5254574
2.2057478 -8.1363459 -1.5324215
2.1545255 -8.1449747 -1.5315051
2.1101573 -8.1799355 -1.5357202
2.0568094 -8.180335 -1.5333377
2.0002618 -8.1670208 -1.5283896
1.9512523 -8.1839218 -1.5293059
1.9085538 -8.2282991 -1.5355369
1.8491621 -8.2005377 -1.5280231
1.7840816 -8.1445093 -1.5151945
1.7383689 -8.1754961 -1.5190431
1.6899596 -8.1946735 -1.5206925
1.646005 -8.2367001 -1.5267402
1.5971156 -8.255331 -1.5283896
1.5404638 -8.2330885 -1.5223418
1.5014619 -8.3062325 -1.5344373
0.45503595 -2.6102533 -0.45482272
1.379529 -8.205759 -1.512079
1.3321378 -8.2325077 -1.5155611
1.2472947 -8.0200233 -1.4739599
1.1860132 -7.946826 -1.4587488
1.1050774 -7.7291536 -1.4164146
1.0585639 -7.7426066 -1.4176975
1.0159985 -7.786973 -1.4248449
0.96892691 -7.798914 -1.4259444
0.91068161 -7.7168469 -1.4094505
0.86768568 -7.7613683 -1.4167812
0.81911701 -7.7577477 -1.4151318
0.76975 -7.745019 -1.411833
0.72358203 -7.7642789 -1.414582
0.67328453 -7.7382121 -1.4089007
0.62428528 -7.7235804 -1.4054188
0.57380652 -7.6860914 -1.3977216
0.52616417 -7.6826024 -1.3964387
0.47883111 -7.6827426 -1.3958889
0.42958477 -7.6482387 -1.3889248
0.38136989 -7.6252031 -1.3841599
0.33306572 -7.5930252 -1.3777457
0.28817636 -7.6401148 -1.3861759
0.24368501 -7.7173972 -1.4002873
0.19880706 -7.8160391 -1.4184306
0.15181488 -7.8672385 -1.4277771
0.10535756 -8.0056391 -1.4534342
0.057562158 -8.1938953 -1.4884378
0.0073718899 -8.2874851 -1.5058481
-0.043709241 -8.3316116 -1.5140949
-0.095197894 -8.3636255 -1.5201427
-0.14658304 -8.3668156 -1.5208757
-0.19698994 -8.3264465 -1.5135452
-0.24854408 -8.3408031 -1.5164773
-0.29932973 -8.3283148 -1.5144615
-0.35096243 -8.3390894 -1.5168439
-0.40193427 -8.3328514 -1.5161109
-0.45300278 -8.3292475 -1.5159276
-0.50689155 -8.3724298 -1.524541
-0.55766582 -8.3603344 -1.5228916
-0.61045277 -8.3773451 -1.5267402
-0.65843749 -8.3303213 -1.5186765
-0.70720309 -8.2986975 -1.5135452
-0.75936168 -8.3079081 -1.5161109
-0.81127816 -8.3128767 -1.5179435
-0.86155969 -8.3008976 -1.5166607
-0.91462559 -8.3149986 -1.5203259
-0.9675566 -8.3258305 -1.5234414
-1.0206549 -8.3363247 -1.526557
-1.0737929 -8.3455057 -1.5294892
-1.122352 -8.3192749 -1.525824
-1.1739265 -8.3161259 -1.526557
-1.2260778 -8.3165464 -1.5280231
-1.2746953 -8.2933207 -1.5250908
-1.3260239 -8.2882547 -1.5256406
-1.3799177 -8.2983885 -1.5291227
-1.4314784 -8.2936401 -1.5298557
-1.4823402 -8.2847004 -1.5298557
-1.5336834 -8.2783489 -1.5304055
-1.5813051 -8.2523689 -1.52729
-1.6204581 -8.1846495 -1.5162941
-0.61385763 -3.0023599 -0.53216058
-0.63206553 -2.9975748 -0.5319773
-0.65148938 -2.9984436 -0.53289366
-0.66987526 -2.9943898 -0.53289366
-0.68801546 -2.989265 -0.53271037
-0.70634431 -2.984987 -0.53271037
-0.72046852 -2.963402 -0.52941161
-0.73721021 -2.9532027 -0.52831203
-2.1124098 -8.2493916 -1.5483655
-2.1492562 -8.183979 -1.538286
-0.7883783 -2.9277413 -0.52611285
-0.80528253 -2.9190578 -0.52537978
-0.82210988 -2.9102776 -0.5246467
-0 -0 -0
-1.0564792 -3.5721352 -0.65531474
-2.4851592 -8.218833 -1.5615606
-2.5099998 -8.1207762 -1.5454333
-2.5606687 -8.1080351 -1.5459831
-1.0487719 -3.2504165 -0.59758621
-1.0591639 -3.2149744 -0.591905
-2.7091639 -8.0585957 -1.5457997
-1.1014073 -3.2101038 -0.59355438
-1.1178371 -3.194006 -0.59172171
-2.8553858 -8.0027342 -1.5448835
-2.8953643 -7.9601188 -1.5399354
-1.1422735 -3.0807106 -0.57339525
-1.1649753 -3.0837603 -0.57541114
-1.1881102 -3.0875645 -0.57761031
-1.2350006 -3.1516125 -0.591905
-1.2532228 -3.1412361 -0.5913552
-3.2119062 -7.9110045 -1.5525806
-3.2592607 -7.888422 -1.5520308
-3.3159819 -7.8882132 -1.5560626
-3.3662529 -7.8722377 -1.5569789
-3.4133167 -7.8487301 -1.5564291
-1.3063759 -2.9536195 -0.56294912
-1.3228621 -2.9419615 -0.56221604
-1.3368034 -2.9248476 -0.56038344
-3.5622625 -7.6707611 -1.5375528
-3.6482739 -7.7314429 -1.5545965
-3.6998937 -7.7177768 -1.5564291
-3.7519135 -7.7046518 -1.5584451
-3.7995534 -7.6823668 -1.5586283
-3.8514729 -7.6685719 -1.5606443
-3.8948815 -7.6377892 -1.5591781
-3.940769 -7.6120009 -1.5588117
-3.9924309 -7.59725 -1.5608275
-4.0459108 -7.5856214 -1.5635765
-4.0881677 -7.5528722 -1.5619271
-4.1401129 -7.5379853 -1.5641263
-4.1934643 -7.5253215 -1.5668752
-4.2289176 -7.4806218 -1.5628434
-4.2331743 -7.3820429 -1.5472659
-4.2853088 -7.3678269 -1.5498316
-4.3698902 -7.408288 -1.5643096
-4.3986125 -7.3534942 -1.5582619
-4.4416108 -7.3230038 -1.5575287
-4.4813113 -7.2872386 -1.5556961
-4.5160594 -7.2437539 -1.552214
-4.5872045 -7.2582908 -1.5615606
-4.6576362 -7.2705693 -1.5705405
-4.7128663 -7.2583447 -1.5742059
-4.762177 -7.2366815 -1.5758553
-4.8288522 -7.240859 -1.5833691
-4.8676863 -7.2029481 -1.5815365
-4.8845768 -7.1331987 -1.5725565
-4.8991151 -7.0610914 -1.5630267
-4.96383 -7.0614605 -1.5699908
-5.0196099 -7.0484872 -1.5740227
-5.0788679 -7.0398784 -1.579154
-5.1335683 -7.024457 -1.5828193
-5.1830063 -7.0015178 -1.5848353
-5.230587 -6.9758759 -1.5863013
-5.2792368 -6.9514794 -1.5881341
-5.2894282 -6.8768764 -1.5782377
-5.3423977 -6.8582516 -1.5815365
-5.3849874 -6.8261137 -1.5817198
-5.4439497 -6.8144503 -1.5868511
-5.488133 -6.7839756 -1.5875843
-5.5433602 -6.7669044 -1.591616
-3.4685421 -4.1812844 -0.97364616
-5.6797218 -6.7623577 -1.6071936
-3.6055634 -4.2395077 -0.99838698
-3.625736 -4.2105994 -0.9967376
-3.5681732 -4.0926795 -0.97309637
-3.7220185 -4.2166462 -1.0093828
-3.7550263 -4.2017927 -1.0113988
-3.8506446 -4.2559495 -1.0308249
-3.6980803 -4.0372276 -0.98152661
-3.9065921 -4.2127008 -1.0319245
-3.8926713 -4.1463623 -1.0211118
-3.9403872 -4.1459155 -1.0271596
-3.9861984 -4.1429133 -1.0326575
-4.0129156 -4.1197848 -1.0330241
-4.0256953 -4.0824842 -1.0297253
-4.0659475 -4.0730133 -1.0337571
-4.166326 -4.1226711 -1.0535498
-3.492094 -3.4132576 -0.87120098
-3.4832706 -3.3630853 -0.86350387
-3.4234586 -3.2649751 -0.8427949
-3.4348416 -3.2358179 -0.84059572
-4.2642016 -3.9681492 -1.0467689
-3.5126483 -3.2286854 -0.85030878
-3.5294819 -3.204428 -0.8495757
-3.5615184 -3.1938698 -0.85269123
-3.40224 -3.0135481 -0.8081578
-3.4206669 -2.9926155 -0.8081578
-3.6873879 -3.1862683 -0.86936837
-3.7188325 -3.1737947 -0.87230057
-3.7645431 -3.1730938 -0.87871486
-3.8897102 -3.2379966 -0.90437198
-4.3977561 -3.6155334 -1.0222114
-4.387042 -3.5618343 -1.014331
-4.3865733 -3.517014 -1.0090164
-4.4188604 -3.4985762 -1.011582
-4.4425678 -3.4732134 -1.0121318
-4.4778013 -3.4567029 -1.0154306
-4.5090904 -3.4369104 -1.0178131
-4.5081019 -3.3926253 -1.0126816
-4.4767561 -3.3262012 -1.0005862
-4.5541511 -3.3405375 -1.0137812
-4.4837966 -3.2467959 -0.99288905
-4.5956011 -3.2849712 -1.0139645
-4.476716 -3.1586533 -0.98225963
-4.4758463 -3.1170785 -0.977678
-4.5548358 -3.1307678 -0.99123961
-4.6081271 -3.125942 -0.99893677
-4.5569696 -3.0505724 -0.98317599
-4.5575571 -3.010632 -0.97914416
-4.6179438 -3.0099907 -0.98849064
-4.5941586 -2.9544771 -0.97914416
-4.6379323 -2.9425604 -0.98482537
-4.7600584 -2.9792488 -1.0077335
-4.6962771 -2.8993695 -0.98977351
-4.7055826 -2.8653858 -0.98794085
-4.7719541 -2.8658178 -0.99857026
-4.8385057 -2.8655419 -1.0091996
-4.8542995 -2.8348079 -1.0088331
-4.8647871 -2.8010445 -1.007367
-4.8758984 -2.7677443 -1.0060841
-4.899652 -2.7416151 -1.0075502
-4.8156695 -2.6559453 -0.98610818
-4.7662354 -2.5906622 -0.97218007
-4.9605513 -2.6569991 -1.0099326
-4.9132957 -2.5930119 -0.99655432
-4.8985872 -2.5469413 -0.99014002
-4.8677506 -2.4930816 -0.98042697
-4.9127975 -2.4782226 -0.98665798
-5.0080261 -2.4878373 -1.0033351
-5.0320272 -2.4613822 -1.0051677
-4.9903517 -2.4031579 -0.99343884
-5.0831718 -2.4095535 -1.0095662
-5.1156783 -2.3866322 -1.0132314
-5.1212921 -2.3510959 -1.0113988
-5.1392055 -2.3212469 -1.0121318
-5.1605382 -2.2928634 -1.013598
-5.1294708 -2.2414708 -1.0044347
-5.1964154 -2.2328565 -1.0152473
-5.2435231 -2.2150867 -1.0220282
-5.2552004 -2.1821172 -1.0216616
-5.2757721 -2.1528027 -1.0231278
-5.2624216 -2.1097801 -1.0178131
-5.1115427 -2.0129607 -0.9850086
-5.441031 -2.1042714 -1.0484183
-5.4979529 -2.0875995 -1.0572151
-5.3816986 -2.0057518 -1.0315579
-5.3486662 -1.9561442 -1.022578
-5.3624187 -1.9239527 -1.0229445
-5.4121423 -1.9043944 -1.0304583
-5.4358063 -1.875319 -1.0328408
-5.5328851 -1.8709069 -1.0497012
-5.4108191 -1.7927006 -1.0234942
-5.6582813 -1.8362556 -1.0698603
-5.781868 -1.8372349 -1.0918522
-5.7845836 -1.7990953 -1.0902028
-5.7926927 -1.762709 -1.089653
-5.8457985 -1.739754 -1.0978999
-6.1348157 -1.784885 -1.1519631
-6.2468286 -1.7759804 -1.1715724
-6.1950927 -1.7202535 -1.159477
-6.3810601 -1.7298032 -1.1933811
-6.4153128 -1.6969032 -1.1979626
-6.8539538 -1.7680298 -1.280432
-7.1545 -1.7988282 -1.3361446
-7.1205258 -1.7439017 -1.3275311
-7.6254725 -1.8180759 -1.4222791
-7.7944932 -1.8079107 -1.4525179
-8.0921736 -1.8247213 -1.5073141
-8.3970642 -1.8394173 -1.5633932
-9.0697432 -1.9285592 -1.6894796
-9.1160669 -1.8800217 -1.6960771
-9.2421455 -1.8469814 -1.7178857
-9.3720188 -1.8132108 -1.7404273
-9.525013 -1.7822554 -1.7673672
-9.9962406 -1.8070366 -1.8546015
-10.465209 -1.8255919 -1.9412858
-10.479121 -1.7618333 -1.9418356
-10.481972 -1.696245 -1.9403695
-10.485382 -1.630839 -1.9390867
-10.538944 -1.5730033 -1.9473336
-10.526015 -1.5051066 -1.9431185
-10.499989 -1.435696 -1.9365209
-10.496902 -1.3697155 -1.9343218
-10.512914 -1.3062519 -1.9357879
