# .PCD v0.7 - Point Cloud Data file format
VERSION 0.7
FIELDS x y z
SIZE 4 4 4
TYPE F F F
COUNT 1 1 1
WIDTH 1595
HEIGHT 1
VIEWPOINT 0 0 0 1 0 0 0
POINTS 1595
DATA ascii
-4.8425016 -3.1551807 -0.18625432
-4.8659725 -3.1281102 -0.18644713
-5.7111712 -3.6221983 -0.22419955
-3.9027386 -2.4416349 -0.14086659
-3.3368771 -2.0591705 -0.11452861
-3.9127762 -2.3816073 -0.13997968
-3.9238889 -2.3554964 -0.13982542
-3.9382682 -2.3313756 -0.13982542
-3.9274738 -2.292556 -0.13870712
-3.9120219 -2.2514648 -0.13739601
-4.6097159 -2.6155634 -0.16774446
-4.6745138 -2.6145494 -0.16990395
-3.8539205 -2.1245542 -0.13303848
-4.6061554 -2.5025978 -0.16550785
-4.4716702 -2.3940957 -0.15895228
-4.4120383 -2.3274434 -0.15571305
-4.3952041 -2.2841971 -0.15436338
-4.3975744 -2.2512653 -0.15386206
-4.3818617 -2.2093911 -0.15258951
-4.4356093 -2.2024643 -0.15432481
-7.718358 -3.7739556 -0.29476839
-7.6684408 -3.6914153 -0.29164484
-7.8038206 -3.6977839 -0.29646513
-5.740768 -2.6770945 -0.20765635
-5.7543616 -2.640569 -0.20754066
-33.594593 -15.169206 -1.3856934
-33.726307 -14.980229 -1.3873515
-5.8624268 -2.5606043 -0.21008576
-5.9101624 -2.538389 -0.21143545
-5.8326526 -2.4628124 -0.20754066
-5.8052011 -2.4093549 -0.2057668
-0 -0 -0
-9.4878788 -3.8022554 -0.35766336
-9.6253948 -3.7889917 -0.36240652
-23.382767 -9.0398178 -0.93065929
-23.324755 -8.8532648 -0.92599326
-35.61145 -13.267678 -1.42977
-23.602448 -8.6288157 -0.93301159
-35.804504 -12.841479 -1.4311197
-35.853401 -12.611267 -1.4299242
-11.494705 -3.9638336 -0.43243548
-7.846806 -2.651998 -0.28285268
-7.842062 -2.5968893 -0.2820043
-7.8093734 -2.5329967 -0.28003761
-29.242533 -9.2881479 -1.1472633
-29.297066 -9.1079512 -1.1471862
-37.307331 -11.347754 -1.4680623
-29.845287 -8.8782415 -1.1648476
-9.7189274 -2.8260672 -0.35380715
-9.7408915 -2.7677457 -0.35399994
-9.6392593 -2.6750529 -0.34925678
-12.933749 -3.5041404 -0.48032975
-12.882552 -3.4055586 -0.47743759
-9.7197638 -2.5056548 -0.35056791
-15.398517 -3.8692133 -0.57592547
-13.122616 -3.2118096 -0.48457161
-15.621749 -3.7221148 -0.5829438
-13.098742 -3.0360911 -0.48210362
-11.483344 -2.5874734 -0.41747335
-15.583168 -3.4110734 -0.57881767
-11.455585 -2.433898 -0.41515961
-16.052519 -3.3079326 -0.59570789
-16.027437 -3.2003722 -0.59393406
-0 -0 -0
-19.781298 -3.6982121 -0.73981488
-19.8046 -3.5769444 -0.73985344
-41.463596 -7.2268286 -1.5874509
-19.538557 -3.2818272 -0.7277835
-19.907528 -3.2183397 -0.74143451
-0 -0 -0
-25.880436 -3.8587947 -0.97300059
-25.921432 -3.7024662 -0.97369468
-26.082272 -3.5622787 -0.97909343
-0 -0 -0
-24.015778 -2.9802794 -0.89711016
-24.010788 -2.8301744 -0.89622325
-38.412514 -4.2891593 -1.4547969
-41.10532 -4.3346753 -1.5582979
-41.141087 -4.0833631 -1.5586835
-41.170341 -3.8313124 -1.5588763
-41.181129 -3.5775859 -1.5584135
-43.816853 -3.5358431 -1.6596394
-0 -0 -0
-0 -0 -0
-0 -0 -0
-0 -0 -0
-0 -0 -0
-0 -0 -0
-0 -0 -0
-0 -0 -0
-37.413761 2.7660222 -1.8831794
-0 0 -0
-0 0 -0
-0 0 -0
-37.255104 3.6755221 -1.8790901
-37.236816 3.9045668 -1.8793457
-0 0 -0
-0 0 -0
-0 0 -0
-0 0 -0
-0 0 -0
-0 0 -0
-0 0 -0
-37.320141 5.7764916 -1.8959073
-37.320477 6.0112524 -1.8977985
-0 0 -0
-37.490871 6.5116835 -1.9106286
-0 0 -0
-37.37476 6.9650416 -1.9088907
-37.664738 7.2585025 -1.92627
-0 0 -0
-0 0 -0
-0 0 -0
-38.090935 8.315073 -1.9585242
-0 0 -0
-0 0 -0
-38.68055 9.1928539 -1.9979345
-0 0 -0
-0 0 -0
-0 0 -0
-38.665398 10.19794 -2.0096912
-38.654156 10.449069 -2.0124514
-0 0 -0
-0 0 -0
-0 0 -0
-0 0 -0
-38.694828 11.745028 -2.0327444
-38.567665 11.965364 -2.0298307
-38.444969 12.186394 -2.0272238
-0 0 -0
-0 0 -0
-37.900925 12.786297 -2.0103045
-0 0 -0
-37.497108 13.164744 -1.9970655
-0 0 -0
-37.227661 13.585552 -1.9913405
-37.046249 13.777514 -1.9860245
-36.92366 13.99041 -1.9839798
-36.7542 14.184701 -1.9794306
-0 0 -0
-36.309399 14.527441 -1.964658
-0 0 -0
-35.929108 14.889328 -1.9536171
-35.768055 15.080403 -1.9497833
-0 0 -0
-35.333145 15.410391 -1.9359821
-0 0 -0
-35.080376 15.81532 -1.9325573
-34.94545 16.013212 -1.9304615
-34.81123 16.21089 -1.928468
-34.711105 16.424181 -1.928468
-34.493565 16.581038 -1.921874
-34.311306 16.753372 -1.9173248
-34.22039 16.969799 -1.9180404
-34.064777 17.153847 -1.9151268
-33.920647 17.342991 -1.9129288
-33.765732 17.525951 -1.9101685
-33.605427 17.705338 -1.9071528
-33.391357 17.85516 -1.90107
-33.206562 18.01922 -1.8967251
-33.004391 18.172533 -1.891409
-32.783279 18.313816 -1.8850195
-32.638145 18.496407 -1.8831283
-32.472092 18.666458 -1.8800613
-32.281021 18.821083 -1.8755631
-32.084126 18.971018 -1.8707583
-31.921721 19.140305 -1.8680491
-31.700424 19.273031 -1.8618641
-31.610474 19.484997 -1.863602
-31.38954 19.615604 -1.8575193
-0 0 -0
-31.090158 19.963171 -1.8540945
-0 0 -0
-0 0 -0
-0 0 -0
-0 0 -0
-30.258135 20.766737 -1.8413666
-0 0 -0
-30.0002 21.135912 -1.8413155
-29.863445 21.314951 -1.8409066
-0 0 -0
-0 0 -0
-0 0 -0
-0 0 -0
-0 0 -0
-0 0 -0
-0 0 -0
-28.576345 22.592323 -1.8275142
-0 0 -0
-28.108444 22.788458 -1.815093
-0 0 -0
-0 0 -0
-27.779726 23.382374 -1.8214825
-27.598488 23.520645 -1.8189778
-0 0 -0
-27.323568 23.871349 -1.8200513
-27.149654 24.014732 -1.8182111
-26.613447 23.833073 -1.7915287
-26.11528 23.677279 -1.7672486
-25.9055 23.778316 -1.7628015
-25.623772 23.811049 -1.7533451
-25.492462 23.982197 -1.7544185
-25.240696 24.03898 -1.7470579
-25.064682 24.166367 -1.7450644
-24.577179 23.98904 -1.7208354
-24.261168 23.973024 -1.7087209
-23.99288 24.000656 -1.6999801
-23.752541 24.053617 -1.6932329
-23.499905 24.091667 -1.6855655
-23.305904 24.187939 -1.6821918
-22.88785 24.047623 -1.6622056
-22.650255 24.092285 -1.6555094
-22.408901 24.13055 -1.6485065
-22.201687 24.203564 -1.6440594
-21.998444 24.279387 -1.639919
-21.655254 24.197342 -1.6250443
-21.412455 24.223505 -1.6177858
-21.216129 24.300264 -1.6141055
-21.026192 24.383095 -1.6109363
-20.84057 24.469831 -1.608125
-20.626394 24.52158 -1.6030644
-20.377909 24.530142 -1.5952437
-20.215609 24.640818 -1.5943236
-20.030088 24.722492 -1.5915635
-19.697088 24.618774 -1.5767398
-19.59271 24.798729 -1.5806246
-19.467823 24.953915 -1.5829248
-19.314951 25.073689 -1.582976
-19.220589 25.270428 -1.5880364
-18.960829 25.248928 -1.5791422
-18.793652 25.348749 -1.57812
-18.63953 25.466005 -1.5782733
-18.458359 25.545897 -1.5761265
-18.293726 25.648104 -1.5754619
-18.154978 25.786818 -1.5771487
-18.013508 25.922335 -1.5786822
-17.954653 26.17898 -1.5877808
-17.972248 26.55249 -1.6040868
-17.765167 26.596657 -1.6000487
-17.57416 26.663467 -1.5974928
-17.381914 26.727262 -1.5948348
-17.992027 28.040459 -1.6682372
-17.922188 28.312347 -1.6780515
-17.793619 28.494635 -1.6824474
-12.270566 19.920404 -1.1605034
-17.714306 29.1581 -1.7092321
-17.633095 29.429876 -1.7189952
-17.500952 29.620062 -1.7239023
-17.329937 29.745872 -1.725027
-17.200813 29.945175 -1.7305474
-9.6069603 16.964056 -0.96084481
-16.966871 30.395559 -1.7447065
-16.872955 30.667973 -1.7545719
-16.838688 31.055384 -1.7711334
-16.750881 31.351028 -1.7823278
-11.088916 21.063185 -1.1813586
-10.915789 21.046604 -1.1765026
-11.0504 21.629911 -1.206201
-11.044048 21.948895 -1.2206156
-0 0 -0
-12.23328 25.074421 -1.3909848
-12.058443 25.105799 -1.3885312
-10.415425 22.030031 -1.2102391
-9.2866993 19.95837 -1.0897079
-10.840192 23.676279 -1.295807
-10.593411 23.517431 -1.2831814
-9.7644434 22.037033 -1.1966934
-0 0 -0
-0 0 -0
-9.8894119 23.476721 -1.2668755
-10.171871 24.567667 -1.3239719
-10.011904 24.607416 -1.3227451
-9.8966799 24.758339 -1.3277034
-9.8752327 25.151403 -1.3460028
-9.7929277 25.398823 -1.3562771
-9.9593067 26.310268 -1.4028947
-9.9503574 26.781866 -1.4253346
-10.0622 27.600561 -1.4666362
-10.016065 28.006903 -1.4853958
-9.9950628 28.49852 -1.5087557
-10.084641 29.329027 -1.5504152
-10.053099 29.831379 -1.5742351
-10.374561 31.42124 -1.6566339
-10.375143 32.082966 -1.6888369
-10.236567 32.33073 -1.6987534
-10.227757 33.005371 -1.7315698
-10.162373 33.520531 -1.7557987
-10.091331 34.037067 -1.7800786
-7.2527232 25.024035 -1.2965226
-7.0680256 24.958521 -1.2906954
-6.8817439 24.882061 -1.2843571
-6.6675186 24.696272 -1.2722937
-6.4726214 24.572538 -1.263604
-6.3145213 24.583738 -1.2621217
-6.1315532 24.494139 -1.2553744
-6.015204 24.671021 -1.2627351
-5.8286662 24.559763 -1.2549654
-5.6706734 24.563927 -1.2533298
-5.5097885 24.553432 -1.2509785
-5.3622174 24.601416 -1.2517451
-5.2221174 24.685638 -1.2544543
-5.0839944 24.782764 -1.257879
-5.5677333 28.013655 -1.4248745
-5.3889489 28.011984 -1.4230344
-2.7411726 14.732516 -0.73000556
-2.6371272 14.673371 -0.72606963
-2.5306711 14.59481 -0.7211625
-2.4183698 14.474126 -0.71410853
-2.3266606 14.470943 -0.71318847
-2.2332525 14.455338 -0.71165496
-2.1317823 14.38282 -0.70720786
-2.0321281 14.315537 -0.70306748
-1.8944592 13.960583 -0.68410355
-1.8169638 14.035332 -0.68737495
-1.7698684 14.363402 -0.70373201
-1.6885451 14.432516 -0.70674783
-1.5961112 14.407864 -0.7049588
-1.5164983 14.501815 -0.70930362
-1.4297353 14.533707 -0.71047932
-1.3447446 14.587952 -0.7128306
-1.2599967 14.65165 -0.71569312
-1.1823765 14.813413 -0.72361606
-1.0982019 14.912021 -0.72831875
-1.028577 15.243316 -0.74498248
-0.94302326 15.379924 -0.75167871
-1.11009 20.132004 -0.99499017
-0.70745921 14.434734 -0.70270967
-0.61955899 14.454767 -0.70352757
-0.54796606 14.925372 -0.72744977
-0.45317936 14.823639 -0.72208261
-0.36092609 14.773226 -0.71937346
-0.26954502 14.735221 -0.71732885
-0.17917457 14.740592 -0.71753329
-0.088167034 14.647538 -0.71272838
0.0017008205 14.599867 -0.71027482
0.091207996 14.587597 -0.70966142
0.18108764 14.616721 -0.71119493
0.27121663 14.639299 -0.71242172
0.36172834 14.665315 -0.71385294
0.45241532 14.685778 -0.71502864
0.54587996 14.773544 -0.71968013
0.64216167 14.900624 -0.72637635
0.74430352 15.113853 -0.73751962
1.4152746 25.53231 -1.2718337
1.5706826 25.50321 -1.2708113
1.724233 25.450247 -1.2686133
1.8777086 25.403334 -1.2667732
2.0321093 25.373415 -1.2658532
2.185698 25.336588 -1.2646264
2.3400154 25.310766 -1.2640129
2.4951773 25.294937 -1.2639618
2.6479411 25.256308 -1.2627861
2.8053973 25.262413 -1.2639618
2.9615154 25.254642 -1.264473
3.1171539 25.241943 -1.2647797
3.2739046 25.237198 -1.2655464
3.4317913 25.239395 -1.2667221
3.5858893 25.212919 -1.2664665
2.3497937 15.827556 -0.78199041
3.9046466 25.229193 -1.2696868
2.343384 14.553222 -0.71748215
4.2200546 25.215822 -1.2715781
4.3755512 25.194372 -1.2718337
4.5461626 25.256493 -1.2764852
4.7092824 25.272305 -1.2787855
4.8614264 25.228222 -1.2780187
5.0147672 25.191063 -1.2776608
5.18432 25.233187 -1.2814946
5.3647223 25.322048 -1.287833
5.5346928 25.35598 -1.2913599
5.6899509 25.320566 -1.2913089
5.8695059 25.390265 -1.2968293
6.0411224 25.420813 -1.3003564
6.216888 25.464764 -1.3046501
6.3817625 25.461012 -1.3064903
6.5445857 25.447489 -1.3078704
6.7090111 25.438719 -1.3095572
4.3182359 15.977037 -0.81010413
4.4185872 15.958902 -0.81056416
7.1987319 25.390667 -1.3137999
5.9426303 20.481359 -1.0545402
4.3355618 14.608234 -0.74293786
7.6405034 25.173586 -1.3095061
7.7933421 25.121462 -1.3092505
7.9551845 25.097921 -1.3105795
8.1253376 25.098995 -1.3132887
8.2898464 25.080906 -1.3150266
8.4531622 25.057957 -1.31656
8.6158581 25.032057 -1.3179913
8.7808695 25.011702 -1.3197803
8.9557171 25.017527 -1.3230518
9.1319942 25.024961 -1.3264766
9.3062611 25.02462 -1.3295435
9.4773283 25.013742 -1.3320993
9.6475334 24.998909 -1.3345017
9.8226614 24.995012 -1.3375686
9.9873438 24.963015 -1.3391533
10.155018 24.937336 -1.3411468
10.32581 24.917917 -1.3435493
10.498686 24.901943 -1.3462073
10.674116 24.890289 -1.349172
6.4002037 14.676176 -0.78250158
11.055279 24.929972 -1.3588328
11.246213 24.946339 -1.3635867
11.406142 24.8923 -1.3644556
11.578902 24.865299 -1.3669091
11.784225 24.905722 -1.3732475
11.967543 24.896852 -1.3768768
12.180556 24.946796 -1.3839308
12.376882 24.959269 -1.3889401
12.571122 24.964916 -1.3936428
12.759076 24.95578 -1.3975787
12.933587 24.918682 -1.3999811
8.4015045 15.947701 -0.88560224
13.344369 24.956244 -1.4114822
13.527732 24.930071 -1.4147537
13.716093 24.911335 -1.4185362
13.896939 24.877274 -1.4215009
8.3667431 14.764973 -0.83162391
11.904573 20.709991 -1.1856524
14.629674 25.092634 -1.4496658
14.809289 25.046236 -1.4522727
15.058734 25.115065 -1.4618313
15.236421 25.061445 -1.4641827
15.464326 25.088205 -1.4714411
15.689425 25.107178 -1.4783418
10.050666 15.867022 -0.92434806
16.171728 25.185867 -1.4949545
16.371723 25.156475 -1.4992481
10.182101 15.438404 -0.90957558
10.315488 15.433757 -0.91315371
10.649153 15.723238 -0.93498015
17.413115 25.372078 -1.538045
10.515718 15.123199 -0.90579301
17.82612 25.302618 -1.5471948
18.01063 25.234219 -1.5498017
18.255831 25.248671 -1.5577247
18.512505 25.275562 -1.5665678
18.834461 25.386869 -1.5809313
19.034876 25.330704 -1.584765
19.252247 25.295282 -1.59003
19.456482 25.240744 -1.5941703
19.756031 25.306664 -1.6062337
0 0 -0
0 0 -0
0 0 -0
12.025738 14.649376 -0.9330889
12.101992 14.559184 -0.93201542
21.190554 25.175875 -1.6472797
17.933233 21.042797 -1.3781036
18.058096 20.927828 -1.3777969
21.800186 24.953033 -1.6589341
22.012438 24.886124 -1.6635345
22.218023 24.810104 -1.6676238
22.438932 24.749516 -1.6728888
22.643047 24.668753 -1.6768758
22.803505 24.539597 -1.6775914
22.976231 24.423218 -1.6792783
23.171116 24.329508 -1.6826519
23.421864 24.292555 -1.6901659
15.8208 16.209246 -1.1223198
23.910547 24.197945 -1.7041717
24.079763 24.071957 -1.7057052
24.23554 23.932175 -1.7063185
16.300337 15.900479 -1.1285049
16.315605 15.721169 -1.1226776
16.821226 16.010452 -1.1516092
25.255064 23.743361 -1.7371925
25.434671 23.61989 -1.7395949
17.040213 15.631285 -1.1465487
23.635487 21.415079 -1.5954483
23.604948 21.125132 -1.5843561
23.754328 20.997755 -1.5857362
23.963974 20.922541 -1.5912567
24.184931 20.855324 -1.597544
0 0 -0
0 0 -0
26.561323 22.065145 -1.7303941
26.595064 21.818777 -1.7236979
26.71525 21.644493 -1.722829
26.780489 21.42651 -1.718433
26.995306 21.328028 -1.7239023
19.894634 15.52112 -1.2545054
19.993452 15.401804 -1.254761
0 0 -0
27.217503 20.439026 -1.7051429
27.366468 20.28948 -1.7066764
22.485756 16.458342 -1.3892468
0 0 -0
23.186893 16.538383 -1.4207342
22.756308 16.021544 -1.3874577
22.867308 15.890729 -1.3882756
28.38217 19.465574 -1.7245158
28.476261 19.274265 -1.7229823
0 0 -0
28.749834 18.949196 -1.7253847
0 0 -0
28.954988 18.578785 -1.7238512
29.139324 18.445639 -1.728145
29.274828 18.280777 -1.7295251
29.437466 18.132231 -1.7325921
29.034336 17.639122 -1.7018204
26.473375 15.861825 -1.5425944
26.465303 15.637114 -1.5363582
26.489992 15.433209 -1.5321667
26.524435 15.236058 -1.5286398
28.582335 16.185621 -1.6442127
28.751747 16.049364 -1.6483531
28.828682 15.861092 -1.6471263
29.113344 15.785768 -1.6580652
29.720554 15.879787 -1.6877123
29.914642 15.748298 -1.6933351
30.15522 15.63939 -1.701667
30.485407 15.574005 -1.7151616
30.852499 15.523556 -1.7307519
31.077822 15.398687 -1.7382149
31.449074 15.343009 -1.7540096
31.387781 15.075387 -1.7452177
31.601582 14.940132 -1.7521183
32.015015 14.89592 -1.7703155
32.616142 14.932826 -1.7990427
33.475697 15.078564 -1.8421844
33.744724 14.951356 -1.852101
34.640606 15.094673 -1.8970318
35.109867 15.043484 -1.9180404
35.565983 14.981282 -1.9382823
35.542816 14.715404 -1.9319439
0 0 -0
0 0 -0
0 0 -0
0 0 -0
0 0 -0
35.289886 13.110977 -1.8898755
35.284286 12.86307 -1.885224
35.43684 12.672894 -1.8892622
35.303768 12.381519 -1.8778633
0 0 -0
0 0 -0
35.111263 11.592776 -1.8555257
35.027794 11.327343 -1.847245
0 0 -0
0 0 -0
0 0 -0
0 0 -0
34.665253 10.046572 -1.8102882
34.525414 9.7768173 -1.799605
34.477905 9.535244 -1.7939311
34.516479 9.318306 -1.7929088
0 0 -0
34.422195 8.8411226 -1.782021
0 0 -0
0 0 -0
34.287586 8.1368551 -1.7666863
33.94957 7.8369269 -1.7463422
34.052563 7.6409302 -1.7492559
34.087097 7.4292922 -1.7486424
34.132038 7.2199979 -1.7486424
0 0 -0
34.217091 6.8004069 -1.7485913
34.249344 6.5886292 -1.7481313
34.292072 6.3789029 -1.7482846
34.33057 6.1683707 -1.7482846
34.370724 5.9581175 -1.748438
34.453915 5.7550068 -1.7508916
34.518162 5.5482469 -1.7524251
0 0 -0
34.720966 5.1445804 -1.7595301
34.754845 4.9318604 -1.7596835
34.803257 4.721066 -1.7606547
34.842464 4.5088377 -1.761217
34.877403 4.2959399 -1.7616259
34.884258 4.0796518 -1.7606547
34.951317 3.8702543 -1.7628527
34.980366 3.6563468 -1.7631594
0 0 -0
0 0 -0
35.570103 3.0572484 -1.7903019
35.389084 2.8230603 -1.7800786
35.493389 2.6123116 -1.7845769
35.497787 2.3937404 -1.7840146
35.475922 2.1736875 -1.7821745
35.458675 1.9543226 -1.780641
35.457031 1.7360809 -1.7799765
0 0 -0
35.505608 1.3019347 -1.78151
35.638706 1.0878872 -1.7879505
35.6497 0.86931324 -1.7882061
35.584469 0.64928138 -1.784628
35.677658 0.43201232 -1.7892284
35.746548 0.21348763 -1.7926532
0 -0 -0
31.152582 -0.19610339 -1.5575203
27.33009 -0.33960864 -1.361951
27.319504 -0.50714791 -1.361542
27.300901 -0.67439711 -1.3607752
27.281277 -0.8414371 -1.3600086
26.207731 -0.9692741 -1.3053145
27.395613 -1.1816279 -1.3665003
27.318024 -1.346258 -1.3629222
27.374063 -1.5174487 -1.3662447
25.689611 -1.5821712 -1.28037
25.638567 -1.7370003 -1.2782743
25.677225 -1.8979661 -1.28083
19.609461 -1.5702192 -0.96989232
27.434034 -2.3667343 -1.3723786
19.955666 -1.8446814 -0.98875403
19.918131 -1.964542 -0.98742503
19.931526 -2.0894291 -0.98875403
30.659103 -3.4049516 -1.5418788
10.59549 -1.2418112 -0.50903171
10.583707 -1.3063108 -0.50882721
10.559646 -1.3691702 -0.50800937
10.539171 -1.432322 -0.50739598
10.55688 -1.5007602 -0.50877613
10.564266 -1.5680022 -0.5096451
13.88042 -2.1477003 -0.68190551
13.865994 -2.2326696 -0.68185443
14.248983 -2.3841588 -0.70245409
13.719477 -2.3821468 -0.67572051
13.829429 -2.4887578 -0.68221223
29.097336 -5.4222245 -1.4779328
29.034098 -5.5949903 -1.4763994
28.817041 -5.7367597 -1.4668918
28.713799 -5.8995981 -1.4633648
28.800161 -6.1017575 -1.4698055
28.507519 -6.2227583 -1.4564642
28.398645 -6.3817916 -1.4527838
28.300571 -6.5424232 -1.4497169
28.159819 -6.6921616 -1.4444519
28.062925 -6.8513174 -1.4415383
27.983547 -7.0141511 -1.4395959
27.901293 -7.1757712 -1.4375513
24.84001 -6.5510836 -1.2778654
8.1217031 -2.194521 -0.39361209
8.1254091 -2.2491114 -0.39453217
7.9039211 -2.2400758 -0.38349113
7.9159236 -2.2960465 -0.38487127
7.9926386 -2.3715756 -0.38972726
7.9922709 -2.4249244 -0.39049402
7.980103 -2.4748061 -0.39064735
8.1713514 -2.5892148 -0.40173951
7.9215789 -2.5636265 -0.38916498
26.431179 -8.7362108 -1.3878156
26.534159 -8.9512234 -1.3963008
26.543894 -9.1362953 -1.3998278
26.663544 -9.3608646 -1.4093865
26.605604 -9.5242929 -1.4093865
18.902504 -6.8975115 -0.99289441
25.8577 -9.6161127 -1.3750366
18.231823 -6.9074235 -0.9608959
18.505875 -7.1414285 -0.9782753
18.479368 -7.261785 -0.9792465
18.763624 -7.5067453 -0.99739265
25.181515 -10.254465 -1.3546414
18.200491 -7.5418153 -0.97137463
25.038137 -10.556112 -1.3537724
24.936182 -10.693799 -1.3517278
24.822495 -10.82584 -1.3490697
24.687132 -10.947577 -1.3452361
24.575792 -11.079145 -1.3427825
24.46468 -11.210176 -1.3403801
24.368275 -11.347429 -1.3388466
24.281036 -11.48862 -1.3378754
24.190285 -11.62787 -1.3367509
24.0431 -11.739269 -1.3324571
23.95809 -11.880363 -1.3317415
23.826765 -11.997945 -1.328419
23.725134 -12.129823 -1.3268343
23.620123 -12.259525 -1.3250964
23.511763 -12.387 -1.3232051
23.382475 -12.502775 -1.3201382
23.292152 -12.638866 -1.3193715
12.884168 -7.0933352 -0.71579534
23.279158 -13.004114 -1.3278055
23.264091 -13.18364 -1.3316393
12.521113 -7.1968884 -0.70219851
12.590601 -7.3399835 -0.70894581
12.607221 -7.4536996 -0.71262616
22.859026 -13.705914 -1.3271922
12.421789 -7.5512943 -0.70705456
22.18668 -13.675673 -1.2969826
22.007496 -13.752271 -1.2912577
21.789404 -13.802602 -1.2831814
21.696739 -13.931183 -1.2827214
21.583229 -14.046072 -1.2810346
21.518312 -14.192537 -1.2823635
21.476488 -14.354829 -1.285175
21.475651 -14.545706 -1.2905933
21.419756 -14.700376 -1.292689
21.318493 -14.824115 -1.2920245
21.207541 -14.940839 -1.2907977
21.091892 -15.053859 -1.2893153
20.850218 -15.075317 -1.27991
20.625195 -15.106184 -1.2715271
20.452715 -15.173541 -1.2664665
19.065861 -14.32677 -1.1836588
18.977594 -14.443486 -1.1836588
19.95956 -15.385247 -1.2528697
19.605009 -15.304615 -1.2360015
19.186401 -15.168189 -1.2148395
19.045414 -15.247553 -1.2117214
18.91814 -15.337081 -1.2095234
18.798206 -15.431959 -1.2078366
18.614079 -15.472953 -1.2019072
18.420227 -15.503911 -1.1953132
18.296627 -15.592674 -1.193422
18.12878 -15.642662 -1.188566
17.905355 -15.642554 -1.1799273
17.633251 -15.596626 -1.1679151
17.49184 -15.663886 -1.1647971
17.294779 -15.679687 -1.1578454
17.093037 -15.688934 -1.1505357
16.829653 -15.638514 -1.1388813
16.734108 -15.742168 -1.1389325
16.812206 -16.011236 -1.1513025
16.682734 -16.084284 -1.1491045
16.229971 -15.841031 -1.1238022
16.062851 -15.871524 -1.1187928
15.91574 -15.920342 -1.1152147
15.483047 -15.678725 -1.0908325
15.374698 -15.761278 -1.0899634
15.189697 -15.763981 -1.0834718
15.028655 -15.789607 -1.0787179
14.757742 -15.696701 -1.0657345
14.58368 -15.703529 -1.0599073
14.443172 -15.744878 -1.0565848
6.8952975 -7.6090546 -0.48858535
14.383398 -16.071264 -1.0669101
6.7511368 -7.6362276 -0.48470053
6.6844506 -7.6549382 -0.48316708
6.6236596 -7.6799259 -0.48209363
14.789521 -17.364506 -1.1304473
14.881334 -17.691092 -1.146242
6.5417981 -7.8735261 -0.48694965
6.4692941 -7.8841767 -0.48500723
14.210557 -17.539093 -1.1183839
14.088322 -17.608021 -1.1172082
14.00416 -17.724697 -1.1192018
2.0120344 -2.5773323 -0.13036539
1.9809465 -2.5698495 -0.12908749
1.9621181 -2.5779815 -0.12883192
1.9486617 -2.5931668 -0.12903638
1.9350927 -2.6082838 -0.12924084
1.9249504 -2.6281674 -0.129752
1.9128821 -2.6455956 -0.13010982
1.9285073 -2.7020028 -0.13292119
12.977473 -18.432259 -1.1167992
12.897753 -18.559927 -1.1198151
10.038552 -14.635914 -0.87139201
12.861583 -19.001318 -1.137399
12.707032 -19.023405 -1.1339231
12.549399 -19.039309 -1.1301405
12.433973 -19.118464 -1.1302938
12.315891 -19.193556 -1.1302427
12.271601 -19.385216 -1.1372968
11.967293 -19.163658 -1.1194062
11.855243 -19.24608 -1.1199684
11.743669 -19.329557 -1.120633
11.585835 -19.336142 -1.1167482
11.481197 -19.430941 -1.1181794
11.377842 -19.528637 -1.1198151
11.286652 -19.648312 -1.1227798
11.4567 -20.230801 -1.1529893
11.119159 -19.91876 -1.1306006
10.896603 -19.804607 -1.1199684
10.779162 -19.878996 -1.1204286
10.654632 -19.940357 -1.120173
10.526497 -19.994753 -1.1195595
10.40913 -20.069605 -1.120173
10.272614 -20.107304 -1.1186906
10.043566 -19.960302 -1.1066784
9.9913979 -20.163839 -1.1148058
9.8460312 -20.180784 -1.1123011
9.7228832 -20.242619 -1.1124033
9.045764 -19.132652 -1.0462083
6.8951445 -14.817885 -0.79952312
9.3228617 -20.361856 -1.1092341
8.8495502 -19.645582 -1.0658368
9.0884695 -20.511253 -1.1112788
8.3852043 -19.241819 -1.0373142
8.218998 -19.180912 -1.031078
8.1395302 -19.3221 -1.0361384
8.2645359 -19.960392 -1.0687504
7.9718027 -19.592594 -1.045646
7.864037 -19.672668 -1.0473839
7.8263888 -19.932505 -1.0590384
7.7466879 -20.091042 -1.0651212
7.7165942 -20.384779 -1.0786158
7.5496368 -20.319403 -1.0724819
7.4029274 -20.305292 -1.0692104
7.2835774 -20.365379 -1.0700283
7.1277452 -20.322042 -1.0652745
7.0230484 -20.42395 -1.0684437
6.9113102 -20.507353 -1.0706416
6.7759566 -20.520924 -1.0691081
6.68187 -20.66094 -1.0744243
6.5664253 -20.737732 -1.0763667
6.4845762 -20.92454 -1.0842385
6.248868 -20.610308 -1.0653256
5.6530876 -19.065506 -0.98083109
6.0927658 -21.02117 -1.0832162
5.960947 -21.04855 -1.082705
5.8258276 -21.063553 -1.0815804
4.0081425 -14.844244 -0.74999189
3.9169843 -14.868558 -0.74999189
5.2642345 -20.493975 -1.0460038
4.9638066 -19.828346 -1.0092005
5.0123453 -20.557032 -1.0460038
4.8909574 -20.607805 -1.0470773
4.7698083 -20.660782 -1.0483041
4.4765739 -19.94809 -1.0094049
0.52720606 -2.413841 -0.089472704
0.50887203 -2.40042 -0.088603735
0.49553832 -2.4103456 -0.088961542
0.47820902 -2.4006066 -0.088297039
0.4649792 -2.4113414 -0.088705964
0.44633996 -2.3935301 -0.087632529
0.42899644 -2.3814795 -0.086865798
0.4215388 -2.4253957 -0.08901266
0.47277957 -2.8239272 -0.10956123
0.45465109 -2.8218448 -0.10930566
0.44144291 -2.8512301 -0.11068579
0.41925675 -2.8222721 -0.10905008
0.4048776 -2.845556 -0.11012352
0.38418892 -2.8242354 -0.10889673
0.36813387 -2.8364441 -0.10940789
0.35121107 -2.8426144 -0.10961235
0.33573404 -2.8615787 -0.11048132
0.32750946 -2.9479585 -0.11482617
0.20624723 -1.9625874 -0.064017005
0.19410343 -1.962822 -0.063965887
0.18141498 -1.9570147 -0.06360808
0.16914707 -1.9551059 -0.063454732
0.15706821 -1.9551114 -0.063403614
0.14448273 -1.9480704 -0.062994689
0.13192244 -1.9399524 -0.062534645
0.11995558 -1.9397284 -0.06248353
0.10662326 -1.9145012 -0.061154518
0.095362179 -1.9250945 -0.061665677
0.083377481 -1.9216522 -0.06146121
0.071475185 -1.9191335 -0.061307862
0.059150361 -1.9015678 -0.060387779
0.047481444 -1.901895 -0.060387779
0.035828929 -1.9031491 -0.060438894
0.024102515 -1.8993386 -0.060234431
0.012305574 -1.8754826 -0.059007652
0.00079642201 -1.8815149 -0.059314344
-0.01072938 -1.8784883 -0.059160996
-0.02229272 -1.8813829 -0.059314344
-0.033836249 -1.8812108 -0.059314344
-0.045427915 -1.8829645 -0.059416577
-0.056826562 -1.8776593 -0.059160996
-0.068605274 -1.8842613 -0.05951881
-0.08072561 -1.8967758 -0.060183316
-0.091181703 -1.8723053 -0.058956534
-0.17308918 -3.1410944 -0.12402703
-0.1818537 -2.9695203 -0.11528622
-0.20344847 -3.0181689 -0.117842
-1.5623531 -21.139576 -1.0479462
-1.6886832 -21.08778 -1.0457994
-0.30783466 -3.5800638 -0.14692692
-0.2668786 -2.8979056 -0.11196368
-0.28396821 -2.8892562 -0.11160588
-0.37920132 -3.6264331 -0.14963607
-0.41401669 -3.7371929 -0.15546328
-0.45253229 -3.8674955 -0.16231281
-0.47356048 -3.8428407 -0.16118826
-0.32452229 -2.5097713 -0.092539653
-0.34031963 -2.5107017 -0.092693001
-0.5444957 -3.8354502 -0.16129048
-0.45092672 -3.0437291 -0.12050003
-0.46959421 -3.040905 -0.12050003
-0.49157974 -3.058672 -0.12157346
-0.63598502 -3.8061578 -0.16052376
-0.54052973 -3.1183343 -0.12499823
-3.6131985 -20.074703 -1.0070025
-4.0933266 -21.967617 -1.1067295
-0.82711053 -4.2973766 -0.18700176
-0.86360461 -4.343153 -0.18965979
-0.5456655 -2.661052 -0.1020472
-0.87501621 -4.1348743 -0.17933439
-0.90441829 -4.1479664 -0.18030559
-4.6998243 -20.915379 -1.060214
-4.8381944 -20.929934 -1.0625142
-5.245049 -22.07163 -1.1241599
-0.68043566 -2.7914839 -0.1100724
-0.69682252 -2.7843502 -0.10991905
-0.71961606 -2.8022678 -0.11109471
-0.73323077 -2.7842803 -0.11037909
-0.60069221 -2.2263463 -0.081038587
-0.60341287 -2.1831574 -0.078942835
-0.6088959 -2.1515505 -0.077460475
-0.74455744 -2.5697868 -0.099951454
-0.76542735 -2.5824029 -0.10087154
-0.68030602 -2.2450979 -0.08308322
-0.80327475 -2.5928462 -0.10194498
-0.81826365 -2.5850124 -0.10179163
-0.84795314 -2.622699 -0.10409184
-0.88565832 -2.6828742 -0.10761883
-0.69840908 -2.0736601 -0.075006917
-0.60904759 -1.7728232 -0.058956534
-0.65465409 -1.8679937 -0.064323701
-1.2067379 -3.3739786 -0.14641577
-0.73676264 -2.0221219 -0.073166743
-0.75716364 -2.0390921 -0.074342407
-0 -0 -0
-7.913146 -20.505308 -1.0879699
-1.1942258 -3.0416591 -0.13026316
-1.2150927 -3.0398376 -0.13056986
-1.3584083 -3.338475 -0.14748921
-1.3758084 -3.3226964 -0.14708027
-1.6099681 -3.8212407 -0.17524512
-1.7526625 -4.0893941 -0.19073322
-1.2985837 -2.9800801 -0.12939419
-1.3152252 -2.9684043 -0.12918973
-1.7664758 -3.9207859 -0.18311696
-1.7547185 -3.831794 -0.178721
-0.84218645 -1.8111274 -0.065243788
-0.85541928 -1.8104393 -0.065499365
-0.87386781 -1.8204581 -0.066368334
-0.88852727 -1.8222411 -0.066777259
-0.90013528 -1.8176496 -0.066828378
-0.91621244 -1.8219039 -0.067390651
-0.92691952 -1.8153586 -0.067339532
-0.93758076 -1.8087506 -0.067288421
-0.95331681 -1.8117992 -0.067799576
-0.96535778 -1.807677 -0.067901812
-0.96214086 -1.7753866 -0.066368334
-0.96627218 -1.7572019 -0.065652713
-0.97313929 -1.7442651 -0.065243788
-1.4816647 -2.6166713 -0.11692192
-1.4583704 -2.5391314 -0.11288377
-1.4784503 -2.5379 -0.11334381
-1.4828113 -2.5098684 -0.11221926
-1.5002381 -2.504149 -0.11242373
-1.1010182 -1.8130785 -0.071582153
-0 -0 -0
-1.5598383 -2.4981298 -0.11375274
-2.6173418 -4.1336179 -0.21342866
-1.6297698 -2.5401454 -0.1174842
-1.6725639 -2.5719488 -0.12003999
-1.5563371 -2.3615584 -0.10777218
-1.4459215 -2.1651528 -0.096271113
-1.4474175 -2.1388762 -0.095197678
-1.3418318 -1.9570407 -0.08446335
-1.3321474 -1.9176136 -0.082520947
-1.3467646 -1.9134856 -0.082776524
-1.3480363 -1.8905545 -0.081856437
-1.359026 -1.8814383 -0.081805326
-1.3729053 -1.8762867 -0.082009785
-1.4058149 -1.8967009 -0.083849959
-1.8854171 -2.5107713 -0.12372033
-1.7792073 -2.3394251 -0.11344604
-1.4935362 -1.9393159 -0.088297039
-1.5994385 -2.0505562 -0.096117765
-1.623759 -2.0555882 -0.09708897
-1.6469526 -2.0588396 -0.097957939
-1.6809393 -2.0750706 -0.099695876
-1.6961749 -2.0678051 -0.099900343
-2.4302678 -2.9251676 -0.15766126
-2.511198 -2.9850767 -0.16267061
-2.511976 -2.94909 -0.16129048
-2.5358961 -2.9404261 -0.16175053
-2.452698 -2.8089914 -0.15387869
-2.117203 -2.3951907 -0.12663394
-2.2031512 -2.4617577 -0.13210334
-2.1182616 -2.3379552 -0.12448707
-2.1568799 -2.3513997 -0.12632725
-2.0992026 -2.2605755 -0.12090896
-2.1814668 -2.3203902 -0.12602055
-2.9870729 -3.1378779 -0.18475267
-2.4274437 -2.5191879 -0.14207092
-2.4372747 -2.4985287 -0.141662
-2.5669816 -2.5993164 -0.14999388
-3.2538874 -3.2542582 -0.19855395
-2.6207156 -2.5893724 -0.15157847
-2.6344097 -2.5711513 -0.15142512
-2.6522939 -2.5570171 -0.15157847
-2.6621461 -2.535187 -0.15116955
-3.1295199 -2.9435966 -0.1829125
-3.1621592 -2.9379301 -0.18393482
-2.9026599 -2.6639731 -0.16466413
-3.229799 -2.9277375 -0.1861328
-3.2767267 -2.9338379 -0.18812631
-2.8075321 -2.4831038 -0.15484989
-2.8279815 -2.470428 -0.15520771
-3.6349819 -3.1358519 -0.208726
-3.648072 -3.1083088 -0.20831709
-3.2765217 -2.757375 -0.18219687
-4.2021871 -3.492136 -0.24266694
-3.3440857 -2.7448294 -0.18444598
-3.4834721 -2.8235877 -0.19252229
-3.4188488 -2.7366519 -0.18715511
-3.5468547 -2.803534 -0.19441357
-11.035975 -8.6105518 -0.679452
-3.0398169 -2.3429477 -0.15945032
-3.0096204 -2.290396 -0.15658782
-3.0132356 -2.2640905 -0.15592332
-3.0166414 -2.2378271 -0.15525882
-3.0415983 -2.2275329 -0.15597443
-0 -0 -0
-3.0459383 -2.1738029 -0.15454319
-3.0641189 -2.1585219 -0.15484989
-3.0748451 -2.1379704 -0.15469654
-4.3241625 -2.9668739 -0.23142146
-4.5349936 -3.0707111 -0.24333145
-4.6160364 -3.0844281 -0.24716513
-4.6415462 -3.0604432 -0.24757406
-4.6351204 -3.0155723 -0.24604058
-5.8000612 -3.7226806 -0.31576261
-5.691153 -3.6036973 -0.30778855
-5.7140045 -3.5692379 -0.30783966
-23.746107 -14.626859 -1.3904736
-23.843945 -14.486065 -1.3909848
-3.808306 -2.2829535 -0.19027318
-3.8480375 -2.2747831 -0.19180666
-3.9007552 -2.2737513 -0.19410688
-3.9172313 -2.251266 -0.19426022
-3.8753521 -2.1956947 -0.19098881
-3.8538697 -2.1524048 -0.18894418
-3.8521287 -2.1205339 -0.1880752
-3.9195008 -2.1263702 -0.19124438
-3.9421637 -2.1074572 -0.19180666
-3.9311597 -2.0706685 -0.19042653
-4.0359945 -2.0943236 -0.19574258
-4.1216979 -2.1067736 -0.19993408
-4.3745341 -2.202184 -0.21368425
-4.3861742 -2.1744142 -0.21358201
-7.6361275 -3.7264073 -0.3979058
-4.4260311 -2.1269107 -0.21434875
-7.7706676 -3.6746745 -0.40296629
-5.7366934 -2.6702194 -0.28688216
-5.7257276 -2.6224983 -0.28534868
-26.56337 -11.965287 -1.454164
-26.606155 -11.788723 -1.4524771
-5.8627539 -2.5557566 -0.29035804
-5.8737354 -2.5177686 -0.29010245
-5.8007169 -2.4444656 -0.28519535
-5.8220658 -2.4115012 -0.28555316
-5.8330526 -2.374227 -0.28534868
-9.5467701 -3.8169129 -0.48924986
-9.606266 -3.7724965 -0.49124336
-23.298447 -8.9831972 -1.2410619
-23.326042 -8.8298197 -1.2395796
-28.32563 -10.523846 -1.5096247
-28.430017 -10.364552 -1.5118227
-28.515646 -10.197985 -1.5130495
-28.605957 -10.032739 -1.5145829
-28.681145 -9.8618975 -1.5153496
-11.506053 -3.8782661 -0.58447868
-7.8301258 -2.5862467 -0.38507572
-7.8334942 -2.5341589 -0.38441122
-28.808844 -9.1215982 -1.5096757
-28.839468 -8.9369736 -1.5083468
-28.895674 -8.7604294 -1.508449
-28.951754 -8.5838156 -1.5086024
-29.613949 -8.5827961 -1.5411121
-9.7231808 -2.7542558 -0.48025346
-9.6792555 -2.6777744 -0.47703317
-12.937089 -3.4933405 -0.64888471
-9.6940041 -2.5542154 -0.47611308
-9.7065916 -2.4939408 -0.47595972
-17.996325 -4.5052915 -0.91254032
-13.080051 -3.1896973 -0.65210497
-13.338418 -3.1660986 -0.66467947
-13.146429 -3.0354581 -0.65358734
-11.501388 -2.5815456 -0.56633258
-11.475052 -2.5017824 -0.5641346
-11.506797 -2.4348388 -0.56500357
-17.785759 -3.6489482 -0.8922984
-17.819567 -3.5420837 -0.89291179
-17.813505 -3.4273968 -0.89148057
-19.790058 -3.6817853 -0.99330336
-19.81031 -3.5599334 -0.99320114
-18.042828 -3.1282613 -0.90027249
-32.264149 -5.3893142 -1.637261
-32.332108 -5.1969481 -1.6391011
-20.205574 -3.1211562 -1.0094559
-25.888044 -3.8361125 -1.3025032
-32.052479 -4.5484748 -1.6199838
-32.035252 -4.3456793 -1.6176836
-32.051407 -4.1477513 -1.6171725
-18.257851 -2.2494264 -0.90456623
-23.966017 -2.8031502 -1.1980224
-32.22953 -3.5689545 -1.6226929
-32.76733 -3.4251018 -1.6492732
-32.904015 -3.2354109 -1.6552538
-33.69099 -3.1041648 -1.6947153
-33.450695 -2.8751552 -1.6814251
-0 -0 -0
-0 -0 -0
-38.059616 -2.5664091 -1.9154335
-38.132462 -2.3363719 -1.9183983
-38.061317 -2.0976827 -1.9140533
-38.109383 -1.8658605 -1.9158936
-38.146057 -1.6331004 -1.9172225
-0 -0 -0
-0 -0 -0
-0 -0 -0
-37.983929 -0.69298381 -1.9074594
-37.971489 -0.4597128 -1.9066416
-0 -0 -0
-37.950302 0.0062856679 -1.9054148
-0 0 -0
-0 0 -0
-0 0 -0
-0 0 -0
-0 0 -0
-0 0 -0
-0 0 -0
-0 0 -0
-0 0 -0
-0 0 -0
-37.422058 2.5358632 -1.8827704
-30.854788 -0.78061724 -1.9100713
-30.863987 -0.59137678 -1.9103861
-30.867035 -0.40198779 -1.9103861
-0 -0 -0
-0 -0 -0
-30.787369 0.16580182 -1.905223
-0 0 -0
-30.663271 0.54148471 -1.8976673
-30.791073 0.73275328 -1.9059786
-30.562542 0.91498303 -1.8918746
-30.442652 1.0983932 -1.8846965
-30.498159 1.2878169 -1.8886633
-30.492674 1.4750705 -1.8888522
-30.476072 1.6617619 -1.8884114
-30.542009 1.8533821 -1.8932598
-30.522095 2.0402169 -1.892756
-30.490089 2.226078 -1.8915597
-30.418152 2.4085515 -1.8879077
-30.38192 2.5933664 -1.8865855
-30.342575 2.7776451 -1.8851373
-30.302116 2.961539 -1.883689
-30.261536 3.145144 -1.8823038
-30.225794 3.3290181 -1.8812964
-30.181999 3.5117648 -1.8798482
-0 0 -0
-30.07922 3.8744857 -1.8761963
-30.037079 4.0565715 -1.8750629
-30.00174 4.2394028 -1.8744333
-0 0 -0
-29.926743 4.6040645 -1.873111
-29.824018 4.7757707 -1.8683887
-29.831564 4.9649034 -1.8707813
-29.768085 5.1422467 -1.8687035
-29.781162 5.3328953 -1.8715999
-29.756712 5.5171661 -1.8721665
-0 0 -0
-0 0 -0
-29.857407 6.1063461 -1.8855151
-0 0 -0
-30.28443 6.5818572 -1.9180678
-30.295092 6.7791052 -1.921405
-30.341431 6.985239 -1.9271348
-30.351414 7.1839213 -1.9305978
-30.559868 7.4315658 -1.9470316
-30.69767 7.6648722 -1.9589949
-30.38516 7.7852163 -1.9417425
-30.696857 8.0661116 -1.9652284
-0 0 -0
-30.674452 8.4639683 -1.9703915
-30.671883 8.6661339 -1.9736657
-30.598957 8.8486252 -1.9724064
-30.650316 9.0676355 -1.9793955
-30.608429 9.2598667 -1.9803399
-31.018236 9.5919714 -2.0111926
-31.015896 9.8001556 -2.0149705
-31.042559 10.01848 -2.0207632
-30.987139 10.210952 -2.021204
-30.95701 10.412028 -2.0234077
-0 0 -0
-0 0 -0
-31.203762 11.138439 -2.0531271
-0 0 -0
-31.375393 11.635727 -2.0740314
-31.354755 11.847425 -2.0774944
-31.278677 12.038516 -2.0773056
-31.232096 12.241137 -2.0791945
-31.051653 12.390747 -2.0720794
-0 0 -0
-30.581821 12.640489 -2.0505455
-30.431927 12.797721 -2.0456343
-30.270247 12.948881 -2.0399675
-30.149956 13.116855 -2.0371971
-30.078032 13.305641 -2.0378268
-29.892059 13.443282 -2.0306487
-29.740026 13.594911 -2.0258634
-29.596313 13.749385 -2.0217078
-29.42836 13.891532 -2.0159149
-29.296675 14.04983 -2.0127039
-29.139931 14.195236 -2.0077925
-28.945833 14.321104 -2.0002997
-28.742374 14.440645 -1.9921772
-28.614998 14.597233 -1.9894698
-28.434498 14.725724 -1.9830474
-0 0 -0
-28.104601 14.995095 -1.9725323
-27.958529 15.138273 -1.9686915
-25.93553 14.249425 -1.8297913
-27.680864 15.430179 -1.9622061
-27.535278 15.571241 -1.9585541
-27.42277 15.730467 -1.9573578
-27.248095 15.853264 -1.951691
-27.151167 16.020664 -1.951754
-27.006966 16.1598 -1.9484168
-26.876585 16.306572 -1.9461501
-26.753922 16.457581 -1.944513
-26.642275 16.615093 -1.9437574
-26.484148 16.743057 -1.9396018
-26.344784 16.882092 -1.9368943
-26.239027 17.042336 -1.9367683
-26.086447 17.171736 -1.9331794
-25.936588 17.302122 -1.9298422
-25.772058 17.421818 -1.9254347
-25.685259 17.593723 -1.9270089
-25.483353 17.686125 -1.9198308
-25.354759 17.828379 -1.9183197
-25.231884 17.974352 -1.9173123
-25.111408 18.121824 -1.9165567
-24.987658 18.266729 -1.9156122
-24.847834 18.399515 -1.9134715
-24.710518 18.533667 -1.9115825
-24.555006 18.653547 -1.9083083
-24.35466 18.738136 -1.9015081
-24.156565 18.822813 -1.8948969
-24.03043 18.962645 -1.8940783
-23.842676 19.05304 -1.8883485
-23.668684 19.153149 -1.8837521
-23.512892 19.267021 -1.8806669
-23.35813 19.38098 -1.8777075
-23.19445 19.486702 -1.8740555
-23.041758 19.600849 -1.871348
-22.899126 19.722973 -1.8695221
-22.725775 19.81785 -1.8651775
-22.584295 19.939745 -1.8635404
-22.388601 20.012764 -1.8573699
-22.192125 20.083464 -1.8511363
-22.073627 20.223974 -1.851577
-21.988634 20.395683 -1.8549773
-21.886356 20.552082 -1.856992
-21.760561 20.686674 -1.8570551
-21.684277 20.86894 -1.8615255
-21.543667 20.989759 -1.8604552
-21.34981 21.057779 -1.8547254
-21.215256 21.183447 -1.8542845
-0 0 -0
-21.046478 21.537128 -1.8626589
-20.900763 21.65222 -1.8614626
-20.810215 21.824839 -1.8653663
-20.66975 21.945578 -1.8647997
-0 0 -0
-20.346212 22.140257 -1.8598884
-20.193211 22.246208 -1.8583143
-20.061659 22.375637 -1.8588181
-19.918694 22.492334 -1.8583143
-19.790165 22.625399 -1.8592588
-19.652924 22.748669 -1.8594477
-0 0 -0
-19.366493 22.981258 -1.858881
-19.211712 23.083548 -1.8575587
-19.055771 23.184032 -1.8561735
-18.903723 23.288897 -1.855229
-18.729881 23.366293 -1.8521438
-18.578104 23.470604 -1.8513253
-18.416533 23.562138 -1.8495623
-18.27466 23.678646 -1.849877
-18.1012 23.753819 -1.8469807
-17.933508 23.835728 -1.8447139
-17.798223 23.960539 -1.8459103
-17.652641 24.071711 -1.8460991
-17.494658 24.165829 -1.8450288
-17.331543 24.25242 -1.8434546
-17.17205 24.343628 -1.8423213
-16.952215 24.347794 -1.8345766
-16.816631 24.471916 -1.8361508
-16.574848 24.440006 -1.8258874
-16.501179 24.655704 -1.8345766
-16.340235 24.742331 -1.8335062
-16.175577 24.822897 -1.8320581
-16.042933 24.952742 -1.8343878
-15.897543 25.063351 -1.8353322
-11.39392 18.209414 -1.3180141
-11.350644 18.390236 -1.3262626
-11.460231 18.825243 -1.3532745
-11.447766 19.06719 -1.3659303
-11.424625 19.295946 -1.3775787
-11.315573 19.382059 -1.3787751
-14.726045 25.582727 -1.8251319
-9.6163645 16.945885 -1.1920848
-14.359348 25.669186 -1.8184576
-14.211695 25.775164 -1.8197799
-14.049461 25.854864 -1.8192762
-11.208863 20.932695 -1.4608811
-11.110019 21.05757 -1.4649109
-10.936414 21.040333 -1.4588662
-10.823027 21.138132 -1.4610699
-10.944336 21.702272 -1.4962672
-10.828725 21.804771 -1.4987859
-10.68903 21.85915 -1.4979674
-0 0 -0
-10.393053 21.931856 -1.4940006
-9.312912 19.968287 -1.3528966
-0 0 -0
-9.9555626 22.048496 -1.4890893
-9.8180628 22.104607 -1.4887744
-9.6806479 22.160774 -1.4885226
-0 0 -0
-0 0 -0
-10.259429 24.716101 -1.6511605
-10.101926 24.764725 -1.650216
-9.9869118 24.91888 -1.6565124
-10.041118 25.506229 -1.6922134
-10.245756 26.501951 -1.75543
-10.111284 26.638964 -1.7604672
-10.225697 27.446804 -1.8107131
-10.077656 27.565271 -1.8144909
-9.9288816 27.683893 -1.8183317
-9.8714275 28.064394 -1.8397397
-9.673336 28.0499 -1.8347656
-9.5237341 28.175854 -1.839236
-9.336237 28.19018 -1.8363396
-0 0 -0
-8.9720736 28.247458 -1.8326877
-8.8059883 28.325804 -1.8342618
-8.6018133 28.280001 -1.8277135
-8.416461 28.293028 -1.8251319
-0 0 -0
-7.521637 26.469372 -1.6988877
-7.3614845 26.523682 -1.6994543
-7.1970339 26.562572 -1.6990765
-6.8117242 25.765837 -1.6442343
-6.6295791 25.714371 -1.6381897
-6.422297 25.558077 -1.6254078
-6.2252522 25.433176 -1.6147668
-6.0598259 25.43206 -1.6122483
-5.9016356 25.460014 -1.6116816
-5.7543006 25.535664 -1.6142632
-5.6051917 25.605589 -1.6165298
-5.4444466 25.622904 -1.6154594
-5.297399 25.705679 -1.6186707
-5.1417222 25.748465 -1.6193633
-2.8550682 14.769698 -0.91189182
-2.7198167 14.548552 -0.89659137
-2.6056609 14.427469 -0.88777632
-2.5064614 14.382228 -0.88387251
-2.4032862 14.308756 -0.87820572
-2.3097093 14.287766 -0.87593895
-2.2187796 14.280958 -0.87461668
-2.1286092 14.277523 -0.8735463
-2.0367301 14.260675 -0.87165737
-1.9078587 13.970322 -0.85239017
-1.8193935 13.960982 -0.8510679
-1.774753 14.302682 -0.87209809
-1.6883621 14.325196 -0.8728537
-1.6018724 14.34818 -0.87367225
-1.5131755 14.351784 -0.87329447
-1.4261705 14.371723 -0.87398708
-1.3412899 14.415977 -0.87625378
-1.2594616 14.500495 -0.88110209
-1.1792958 14.617375 -0.8880282
-1.0938113 14.681066 -0.89161718
-1.0127627 14.819928 -0.89999145
-1.5758566 25.340595 -1.564647
-1.128318 20.139339 -1.2354045
-0.72060835 14.451303 -0.87568712
-0.63327527 14.486362 -0.877639
-0.56552434 15.052459 -0.91315109
-0.45894036 14.603767 -0.88462812
-0.36851656 14.574382 -0.88261324
-0.27914029 14.579363 -0.88280213
-0.18896224 14.525914 -0.87933904
-0.099188969 14.433988 -0.87348336
-0.010609629 14.418356 -0.87247592
0.078026153 14.449088 -0.8744278
0.16690084 14.467298 -0.87562412
0.2557202 14.468995 -0.87581301
0.34629899 14.542981 -0.88059837
0.43564594 14.544573 -0.8808502
0.52621257 14.578528 -0.8831799
0.62041116 14.687701 -0.89029491
0.71770471 14.832149 -0.89967668
0.81201333 14.888254 -0.90351748
1.5088227 24.862762 -1.5342979
1.6612828 24.852041 -1.534235
1.8125056 24.824459 -1.5331646
1.963295 24.793966 -1.5319682
2.1161547 24.790403 -1.532535
2.2695904 24.791861 -1.5334795
2.4231236 24.792366 -1.5344238
2.5752013 24.777033 -1.5344238
2.7271817 24.760765 -1.5344238
2.8775604 24.730677 -1.5336053
3.0276723 24.699678 -1.5327868
3.1782773 24.673706 -1.532346
3.3298795 24.655718 -1.532472
2.2388613 15.842802 -0.97227496
2.3408365 15.861348 -0.97435278
3.7878506 24.620829 -1.5344238
2.3353829 14.582847 -0.89457649
4.0911751 24.581352 -1.5349905
4.2420964 24.55677 -1.5350535
4.3970919 24.554838 -1.5366277
4.5489483 24.534266 -1.5370684
4.7007174 24.512753 -1.5375091
4.8527822 24.492258 -1.5380758
5.0055718 24.474733 -1.5388944
5.158329 24.456253 -1.5397129
5.3133793 24.447548 -1.541224
5.4669914 24.431042 -1.5422945
5.6174664 24.399956 -1.5424833
5.7638578 24.351431 -1.5416019
5.9096298 24.30106 -1.5406574
6.0571766 24.258532 -1.5402796
6.2066531 24.22381 -1.5404685
6.354917 24.184305 -1.5404055
4.3004661 15.966127 -1.006024
4.3970242 15.934629 -1.0057092
6.8025217 24.07572 -1.541224
5.9201913 20.471821 -1.3073102
4.3334284 14.647066 -0.92649961
7.267643 24.02285 -1.5462612
7.4293547 24.024525 -1.5493464
7.5639977 23.938517 -1.546702
7.7226934 23.928696 -1.5491576
7.8887367 23.939629 -1.5530614
8.055522 23.950369 -1.5570282
8.2191725 23.949577 -1.5603024
8.3877316 23.960865 -1.564458
8.5460014 23.940905 -1.5665989
8.7019539 23.91334 -1.5682989
8.8637877 23.900667 -1.5710694
9.0194445 23.870104 -1.5727065
9.1800776 23.851568 -1.575225
9.3634014 23.88957 -1.5816474
9.537549 23.90119 -1.5863698
9.7136936 23.915266 -1.591344
9.8816004 23.906864 -1.59487
10.03971 23.873381 -1.596759
6.3048692 14.738199 -0.97416389
6.3983674 14.706556 -0.97466761
10.564648 23.881683 -1.6103593
10.725311 23.848267 -1.612563
10.885547 23.81287 -1.6147039
11.051216 23.78817 -1.6176633
11.227218 23.783993 -1.6221337
11.408329 23.788446 -1.6272968
11.573745 23.758373 -1.6301302
11.779493 23.808567 -1.6386935
11.949553 23.783998 -1.6420935
12.122927 23.76446 -1.6459343
12.304313 23.758753 -1.6508456
8.3893452 15.958391 -1.1002822
12.652727 23.714277 -1.6585903
12.821755 23.680077 -1.6617385
8.9488564 16.2876 -1.1352906
9.1283178 16.375349 -1.1456168
8.3694143 14.799611 -1.0354916
9.2888546 16.192841 -1.1405796
9.341362 16.055315 -1.1347239
9.4397001 15.997695 -1.1347239
9.55408 15.966878 -1.1367388
14.418097 23.763901 -1.7164549
14.627431 23.778692 -1.7241366
9.914485 15.897556 -1.1448612
14.964527 23.670794 -1.7296145
15.126179 23.604576 -1.7315663
15.28432 23.532244 -1.7331405
10.176535 15.459388 -1.1305053
10.301106 15.441488 -1.1339054
15.972543 23.62809 -1.7621672
16.130194 23.548578 -1.7636154
16.301125 23.487698 -1.7665747
10.539187 14.988099 -1.1187938
16.630976 23.346041 -1.7712342
16.68222 23.116497 -1.7613487
16.830814 23.023369 -1.7621043
16.961077 22.905228 -1.7609708
17.098906 22.797531 -1.7607191
17.233034 22.685032 -1.7601523
17.373119 22.580448 -1.7602782
17.519318 22.483658 -1.7610968
0 0 -0
11.882651 14.869523 -1.1636877
11.954204 14.772282 -1.1617358
12.022481 14.671636 -1.159532
12.102081 14.585301 -1.1585245
17.438816 20.756845 -1.6731981
17.578136 20.663897 -1.6743944
17.709806 20.561699 -1.6748981
17.977974 20.615873 -1.6885614
18.183395 20.594952 -1.6961173
18.385244 20.56782 -1.7032952
19.040133 21.039217 -1.7530373
19.172239 20.925673 -1.7533522
19.293488 20.800322 -1.7527225
19.423487 20.684458 -1.7529744
19.567228 20.582972 -1.7545484
15.659913 16.271593 -1.3875902
19.855251 20.379189 -1.7578856
19.965204 20.242054 -1.7565633
20.104546 20.134706 -1.7579486
20.248287 20.031322 -1.7597746
20.35083 19.887173 -1.7580116
16.313557 15.747245 -1.39332
16.437319 15.673022 -1.3957126
17.170315 16.171982 -1.4509326
20.832756 19.38175 -1.7580116
20.971128 19.271791 -1.7597116
17.27886 15.684154 -1.4350655
21.215704 19.021652 -1.7605301
21.33202 18.891117 -1.7605301
21.450537 18.762499 -1.760782
21.562235 18.627918 -1.7605301
21.672333 18.492025 -1.7602153
21.795311 18.36706 -1.7610339
21.910667 18.235533 -1.7612857
22.019833 18.098848 -1.7610968
22.155266 17.983522 -1.7631117
22.307245 17.880951 -1.7665118
22.073011 17.471811 -1.7388703
0 0 -0
0 0 -0
21.978096 16.748003 -1.7061286
22.019836 16.56723 -1.7013433
22.008915 16.34849 -1.6925282
22.07501 16.188349 -1.6898837
22.164225 16.045572 -1.6891282
22.248457 15.899407 -1.6880578
22.369246 15.779278 -1.6898837
22.509872 15.67252 -1.6932838
22.684576 15.58837 -1.6993284
22.892956 15.525631 -1.7079546
23.065752 15.43705 -1.7138733
23.215 15.331531 -1.7180289
23.311144 15.190433 -1.7182178
23.722912 15.252213 -1.7421445
23.929825 15.178534 -1.7506447
24.032661 15.037769 -1.7514002
23.897724 14.750064 -1.7345886
24.195782 14.729783 -1.7499521
24.575766 14.755199 -1.7712971
24.908014 14.747519 -1.7890532
25.098873 14.653282 -1.79642
25.447796 14.648373 -1.8153094
25.851408 14.670267 -1.8381027
26.215298 14.664853 -1.8579365
26.864122 14.812135 -1.8982339
27.226343 14.794744 -1.917753
27.732761 14.850253 -1.9475353
27.98489 14.765037 -1.9590578
28.180336 14.647822 -1.9665507
28.172855 14.425056 -1.9596875
28.274202 14.258659 -1.960632
28.359371 14.084016 -1.9605061
28.343945 13.860198 -1.9533911
28.405975 13.6752 -1.9518169
28.445158 13.479704 -1.9487317
28.358196 13.226027 -1.9369572
28.427931 13.04678 -1.9362017
28.362825 12.806799 -1.9261903
28.315916 12.577024 -1.9175642
28.249884 12.340717 -1.9077417
28.308567 12.160056 -1.9066082
28.338516 11.967492 -1.9035859
28.299883 11.747087 -1.8959672
28.17275 11.492173 -1.8824298
27.988907 11.21736 -1.8651775
28.065565 11.048702 -1.8657441
28.076979 10.854693 -1.8619663
28.063744 10.652107 -1.8566142
28.044405 10.448351 -1.8509475
27.9702 10.2257 -1.8416916
27.960081 10.027942 -1.8368434
27.971188 9.8386412 -1.8335062
27.81686 9.5929661 -1.8192133
27.828869 9.4064445 -1.816128
27.91638 9.245553 -1.8181429
27.85392 9.0355921 -1.8102722
27.882204 8.8560543 -1.8085092
27.812126 8.6462879 -1.8003238
27.749121 8.4403296 -1.7927051
27.783169 8.2647829 -1.7915717
27.738485 8.0665617 -1.7853383
27.926659 7.9357681 -1.7944682
27.735373 7.6978011 -1.7787899
27.606768 7.4799709 -1.7673303
27.633812 7.3055916 -1.766134
27.616266 7.1199493 -1.7621043
27.658466 6.9501214 -1.7620413
27.692835 6.7783833 -1.7615376
27.73876 6.6094923 -1.7618524
27.796293 6.443223 -1.7629857
27.870354 6.2804456 -1.7652525
