# .PCD v0.7 - Point Cloud Data file format
VERSION 0.7
FIELDS x y z
SIZE 4 4 4
TYPE F F F
COUNT 1 1 1
WIDTH 1596
HEIGHT 1
VIEWPOINT 0 0 0 1 0 0 0
POINTS 1596
DATA ascii
-4.5599613 3.6430473 -1.9091486
-4.5389972 3.6721511 -1.9097825
-4.5149121 3.6987307 -1.9091486
-4.4943223 3.7281804 -1.9100995
-4.4706359 3.7550769 -1.9097825
-4.4460659 3.7812088 -1.9091486
-4.422781 3.8084183 -1.9091486
-4.3886061 3.8261359 -1.9043939
-4.3593578 3.8479712 -1.9018581
-4.3462734 3.8841264 -1.9066128
-4.3132157 3.9024498 -1.902492
-4.2954841 3.934607 -1.9053448
-4.2712612 3.9608896 -1.9053448
-4.2392707 3.9798827 -1.9018581
-4.2182083 4.0090861 -1.903443
-4.1989975 4.0401535 -1.9059788
-4.178205 4.0698123 -1.9078807
-4.1551809 4.0973706 -1.9088316
-4.1212349 4.114079 -1.9047109
-4.0932455 4.1365924 -1.903443
-4.0684495 4.1623082 -1.90376
-4.0382218 4.1824179 -1.9015411
-4.0118284 4.2064309 -1.9012241
-3.9885442 4.2337289 -1.902492
-3.956676 4.251874 -1.8996394
-3.9362895 4.2823558 -1.902492
-3.9048386 4.3008103 -1.8999563
-3.8796425 4.3261013 -1.9005903
-3.8486226 4.3448553 -1.8983715
-3.8262625 4.3733845 -1.9005903
-3.7956347 4.3924742 -1.8986884
-3.7833896 4.4329944 -1.9062958
-3.7469482 4.4452481 -1.9015411
-3.7287052 4.4790883 -1.9062958
-3.7005494 4.5011506 -1.9059788
-3.6752527 4.5267167 -1.9072467
-3.647408 4.5491824 -1.9072467
-3.6088281 4.5580931 -1.9015411
-3.5796237 4.5786567 -1.9009073
-3.5450864 4.5922766 -1.8974205
-3.5151172 4.6116796 -1.8964696
-3.4890356 4.6361923 -1.8977375
-3.4605229 4.6575131 -1.8977375
-3.4335628 4.680953 -1.8986884
-3.4053326 4.7027011 -1.8990054
-3.3791711 4.727365 -1.9005903
-3.3451796 4.7410359 -1.8977375
-3.309521 4.7521334 -1.8939338
-3.2845986 4.7786031 -1.8964696
-3.2578783 4.8025913 -1.8980545
-3.2283487 4.8224912 -1.8980545
-3.1945152 4.8358784 -1.8955187
-3.1699622 4.8633337 -1.8986884
-3.1400616 4.8826928 -1.8986884
-3.1059775 4.8954611 -1.8961526
-3.0728617 4.9096036 -1.8942508
-3.0426791 4.9283657 -1.8942508
-3.0104086 4.9437027 -1.8929828
-2.9834363 4.967772 -1.8952017
-2.9514484 4.9835367 -1.8942508
-2.9270329 5.0121994 -1.8983715
-2.8948038 5.0275993 -1.8974205
-2.8671782 5.0510402 -1.8996394
-2.8277943 5.0536404 -1.8939338
-2.7935259 5.065083 -1.8917149
-2.7623944 5.082128 -1.8917149
-2.7338464 5.1039987 -1.8936168
-2.69805 5.1122894 -1.8904471
-2.6718817 5.1388454 -1.8942508
-2.6364083 5.1475463 -1.8913981
-2.6077645 5.1695533 -1.8936168
-2.5743077 5.1820593 -1.8923489
-2.5445466 5.2020173 -1.8939338
-2.5121682 5.2166777 -1.8936168
-2.477674 5.2268519 -1.8917149
-2.4455562 5.2419562 -1.8917149
-2.4149292 5.2603111 -1.8929828
-2.3833878 5.2767582 -1.8936168
-2.3482695 5.2852163 -1.8913981
-2.3180747 5.30474 -1.8932998
-2.2839837 5.3153777 -1.8920319
-2.2513263 5.3292923 -1.8920319
-2.2127635 5.3289914 -1.8869604
-2.1821742 5.3477368 -1.8888623
-2.1517911 5.367188 -1.8910811
-2.124727 5.3952918 -1.8964696
-2.0939775 5.4144192 -1.8986884
-2.0549912 5.4120927 -1.8932998
-2.0204194 5.4210453 -1.8920319
-1.9854894 5.4288864 -1.8904471
-1.9502188 5.4356108 -1.8885453
-1.9184042 5.4519482 -1.8901302
-1.8917218 5.4833407 -1.8971035
-1.8540908 5.4831653 -1.8929828
-1.8150414 5.4782333 -1.8872774
-1.7811006 5.4883652 -1.8869604
-1.7476784 5.5000944 -1.8872774
-1.707136 5.4889793 -1.87967
-1.6797761 5.5202193 -1.8869604
-1.64452 5.5258775 -1.8853755
-1.6129681 5.5440598 -1.8882283
-1.5784011 5.5520282 -1.8875943
-1.5435433 5.558867 -1.8866434
-1.5094057 5.568233 -1.8866434
-1.4713299 5.5627198 -1.8815719
-1.4286398 5.5385818 -1.8701608
-1.4004116 5.5702386 -1.8780851
-1.3664325 5.5796475 -1.8784021
-1.3297507 5.5777788 -1.8749154
-1.3012882 5.6107783 -1.8834736
-1.2660021 5.6149564 -1.8822057
-1.2276686 5.6050158 -1.8761833
-1.1995674 5.6421294 -1.8863264
-1.1668415 5.6586723 -1.8894962
-1.1313549 5.6620049 -1.8882283
-1.0971328 5.6716337 -1.8891792
-1.063882 5.6866493 -1.8920319
-1.0293068 5.6949368 -1.8926659
-0.9940179 5.6992764 -1.8920319
-0.95808542 5.6996565 -1.8901302
-0.92476189 5.7157269 -1.8936168
-0.88719493 5.7053618 -1.8882283
-0.85273093 5.7144499 -1.8894962
-0.81671166 5.7130027 -1.8872774
-0.78125644 5.7150874 -1.8863264
-0.74691111 5.7254162 -1.8882283
-0.71059674 5.7204795 -1.8850585
-0.675928 5.7284994 -1.8863264
-0.64108211 5.7353668 -1.8872774
-0.60607779 5.7410789 -1.8879113
-0.57018286 5.7380829 -1.8856925
-0.53487581 5.7405291 -1.8853755
-0.50062966 5.7550416 -1.8891792
-0.4644669 5.7476058 -1.8856925
-0.4286969 5.7437272 -1.8834736
-0.39286229 5.7377334 -1.880621
-0.357885 5.7438226 -1.8818887
-0.32236865 5.7411757 -1.880304
-0.28746739 5.7496762 -1.8825227
-0.25255713 5.7598596 -1.8853755
-0.21764013 5.7726741 -1.8891792
-0.18212563 5.7710567 -1.8882283
-0.14671165 5.7720656 -1.8882283
-0.11110869 5.7633748 -1.8850585
-0.075617917 5.7544641 -1.8818887
-0.040321179 5.7567167 -1.8825227
-0.0049978695 5.756856 -1.8825227
0.030325629 5.7567782 -1.8825227
0.065658733 5.757432 -1.8828397
0.10083532 5.7483864 -1.879987
0.13594815 5.7410221 -1.8777682
0.17103083 5.7353396 -1.8761833
0.20632106 5.7370257 -1.8771342
0.24171807 5.7403898 -1.8787191
0.27707285 5.7416406 -1.87967
0.31291521 5.7511969 -1.8834736
0.34842706 5.7529554 -1.8847415
0.38302612 5.7402997 -1.8812549
0.41782743 5.7321658 -1.879353
0.45306614 5.7304397 -1.87967
0.48797747 5.7247167 -1.8787191
0.52266306 5.7168922 -1.8771342
0.55819184 5.7182975 -1.8787191
0.59356171 5.7175951 -1.87967
0.62904769 5.7176161 -1.8809379
0.66433734 5.7155333 -1.8815719
0.70066208 5.7217045 -1.8850585
0.73478866 5.7097721 -1.8825227
0.76980937 5.7051563 -1.8825227
0.80519861 5.7031426 -1.8834736
0.8401773 5.6980948 -1.8834736
0.8746922 5.6900201 -1.8825227
0.91048777 5.690165 -1.8844246
0.94507378 5.6826 -1.8837906
0.98024631 5.6785636 -1.8844246
1.0139018 5.6659069 -1.8822057
1.0481299 5.6567812 -1.8812549
1.0822842 5.647449 -1.880304
1.1172843 5.6425624 -1.8809379
1.1516955 5.6346717 -1.880621
1.1858563 5.6256428 -1.879987
1.2215599 5.6238217 -1.8818887
1.2562509 5.617146 -1.8822057
1.2917565 5.6139536 -1.8837906
1.3259604 5.6049986 -1.8834736
1.3616707 5.6022873 -1.8853755
1.3955609 5.5919862 -1.8847415
1.429376 5.58148 -1.8841076
1.4638373 5.5735221 -1.8844246
1.4977617 5.5635195 -1.8841076
1.5306101 5.5496531 -1.8825227
1.5677258 5.5511098 -1.8863264
1.5978076 5.5277185 -1.8815719
1.6292751 5.509625 -1.8787191
1.6638741 5.5022478 -1.87967
1.6959238 5.4864979 -1.8777682
1.7289853 5.4741797 -1.8771342
1.765453 5.4724941 -1.880304
1.796625 5.4543519 -1.8777682
1.8303607 5.4441242 -1.8780851
1.8621923 5.4283051 -1.8765002
1.8985966 5.4257293 -1.87967
1.9312152 5.4121909 -1.8790361
1.9666564 5.4064789 -1.8812549
1.9991337 5.3925309 -1.880621
2.0284982 5.3704033 -1.8771342
2.0661793 5.3702483 -1.8815719
2.1001294 5.3601184 -1.8825227
2.134033 5.3497744 -1.8834736
2.1686022 5.3409734 -1.8850585
2.1998844 5.3240604 -1.8837906
2.2343483 5.3148336 -1.8853755
2.2669175 5.301024 -1.8853755
2.3005359 5.2896237 -1.8863264
2.3314149 5.2719388 -1.8850585
2.3571088 5.2428279 -1.87967
2.3943577 5.239481 -1.8837906
2.4244642 5.2203898 -1.8822057
2.4564502 5.2054152 -1.8822057
2.4895737 5.1928105 -1.8831567
2.5209742 5.1765842 -1.8828397
2.5581553 5.1720705 -1.8869604
2.5898423 5.1562767 -1.8869604
2.6201394 5.1377535 -1.8860095
2.6520507 5.1224222 -1.8863264
2.6807845 5.1010156 -1.8844246
2.7129257 5.0861444 -1.8850585
2.741374 5.0643978 -1.8831567
2.7701144 5.0433254 -1.8815719
2.8010075 5.0262332 -1.8815719
2.8317952 5.0089517 -1.8815719
2.8653069 4.9964185 -1.8834736
2.89448 4.976284 -1.8825227
2.9307413 4.9682331 -1.8863264
2.9597101 4.9477148 -1.8853755
2.9905047 4.9302726 -1.8856925
3.0216937 4.9134459 -1.8863264
3.0568023 4.9028611 -1.8894962
3.0842948 4.8800039 -1.8879113
3.1177609 4.8665776 -1.8901302
3.1449807 4.8433785 -1.8885453
3.1767254 4.8271594 -1.8898132
3.2036536 4.8036308 -1.8882283
3.2282887 4.7768106 -1.8853755
3.2586093 4.7584777 -1.8860095
3.2877455 4.7383933 -1.8860095
3.3178487 4.7196832 -1.8866434
3.3472958 4.7000089 -1.8869604
3.3721874 4.6739974 -1.8847415
3.3968859 4.6478577 -1.8825227
3.4275978 4.6299763 -1.8837906
3.4565113 4.6096168 -1.8841076
3.4887452 4.5936089 -1.8863264
3.5266948 4.5848966 -1.8917149
3.5681653 4.58038 -1.8990054
3.5809309 4.5390391 -1.8907641
3.6022031 4.5088301 -1.8872774
3.6190643 4.4733696 -1.8815719
3.6482472 4.4532804 -1.8825227
3.6785309 4.4344616 -1.8841076
3.7099407 4.4168906 -1.8863264
3.742502 4.4005466 -1.8891792
3.7675762 4.3753443 -1.8882283
3.794975 4.352859 -1.8885453
3.8209846 4.3287807 -1.8882283
3.8462098 4.3038397 -1.8875943
3.8700001 4.2773452 -1.8863264
3.9019377 4.2598138 -1.8891792
3.9241328 4.2316189 -1.8872774
3.9519711 4.2095356 -1.8882283
3.9803393 4.1879578 -1.8894962
4.0053039 4.1627722 -1.8891792
4.0294471 4.1367593 -1.8885453
4.0567517 4.1139832 -1.8894962
4.0812483 4.0883427 -1.8891792
4.1096277 4.0665593 -1.8907641
4.1317892 4.0386147 -1.8894962
4.1653614 4.0217509 -1.8936168
4.1851559 3.9915347 -1.8913981
4.2206135 3.9761865 -1.8964696
4.2365999 3.9424605 -1.8926659
4.2537284 3.9099722 -1.8894962
4.2769375 3.8831606 -1.8891792
4.2809143 3.8391132 -1.880304
4.3164587 3.8234656 -1.8856925
4.3448343 3.80128 -1.8879113
4.3659239 3.7726886 -1.8869604
4.396204 3.7519863 -1.8901302
4.4263945 3.7310543 -1.8932998
4.4462891 3.7013967 -1.8920319
4.4718471 3.6764545 -1.8932998
4.5002112 3.6537297 -1.8958356
4.5292048 3.6313879 -1.8986884
4.5417352 3.5958748 -1.8945677
4.5629663 3.5673554 -1.8942508
4.5877724 3.5416088 -1.8955187
4.6101708 3.513967 -1.8958356
4.6695342 3.5141313 -1.9116843
4.6407657 3.4480774 -1.8907641
4.6763649 3.4301965 -1.8967866
4.6458583 3.3641655 -1.8755493
4.7196493 3.3736553 -1.8974205
4.7294121 3.3369768 -1.8929828
4.756803 3.3127735 -1.8958356
4.7825112 3.2872851 -1.8980545
4.8065157 3.2605407 -1.8996394
4.81461 3.2230721 -1.8948847
4.8430004 3.1992207 -1.8983715
4.8617444 3.1689262 -1.8980545
4.8866811 3.142627 -1.9002733
4.9018679 3.1100428 -1.8986884
4.9224663 3.0809135 -1.8993224
4.9445057 3.052645 -1.9005903
4.9720535 3.0276754 -1.9040769
4.9856591 2.9941802 -1.9021751
5.0080175 2.9659493 -1.90376
5.0318546 2.9385133 -1.9059788
5.0481462 2.9066365 -1.9053448
5.0691853 2.8774798 -1.9066128
5.0859179 2.8458586 -1.9062958
5.0916576 2.8081851 -1.9018581
5.1079593 2.7764373 -1.9015411
5.1299152 2.7477305 -1.903443
5.1659698 2.7263851 -1.9107335
5.1960649 2.7016373 -1.915805
5.1754022 2.6506779 -1.9018581
5.1915689 2.6188724 -1.9018581
5.2228293 2.5945644 -1.9075637
5.2412066 2.5637193 -1.9085146
5.2679467 2.5368619 -1.9126352
5.2868414 2.5061159 -1.9139031
5.299541 2.4724262 -1.9129522
5.3103023 2.4378834 -1.9113673
5.3242965 2.4048636 -1.9110503
5.3337517 2.3698382 -1.9091486
5.3438473 2.3351672 -1.9075637
5.3118925 2.2824857 -1.8907641
5.3607435 2.2646153 -1.903443
5.3929319 2.2393188 -1.9100995
5.4144735 2.2094119 -1.9129522
5.4279284 2.1761477 -1.9129522
5.4438262 2.1438444 -1.9139031
5.4613008 2.1121123 -1.915488
5.4732709 2.0782259 -1.915171
5.4868083 2.0449345 -1.915488
5.4974713 2.0105779 -1.914854
5.5079188 1.9761676 -1.9142201
5.5279927 1.9451683 -1.9170729
5.5272722 1.9068812 -1.9126352
5.5451574 1.8750578 -1.914854
5.5619602 1.8427881 -1.9167559
5.5722604 1.808333 -1.9164389
5.5733085 1.7709482 -1.9129522
5.5858812 1.7372811 -1.9135861
5.5946212 1.7024218 -1.9129522
5.6149607 1.6710383 -1.9164389
5.626019 1.6368191 -1.9167559
5.6496406 1.606159 -1.9215105
5.667614 1.5737475 -1.9243633
5.6780791 1.5391903 -1.9246802
5.6809983 1.5026232 -1.9224614
5.687356 1.4670261 -1.9215105
5.6879721 1.4300197 -1.9186578
5.6966395 1.395092 -1.9186578
5.7087827 1.360992 -1.9199257
5.7216458 1.3270096 -1.9215105
5.6991491 1.2849911 -1.9110503
5.7458372 1.2585232 -1.9243633
5.7553067 1.2236383 -1.9249972
5.7627068 1.1883013 -1.9249972
5.7680292 1.1525478 -1.9243633
5.778717 1.117855 -1.9256312
5.7836032 1.0820274 -1.9249972
5.7836003 1.0453383 -1.9227784
5.7936425 1.0104833 -1.9240463
5.8100224 0.97664523 -1.927533
0 0 -0
0 0 -0
5.8345189 0.87065661 -1.9300689
0 0 -0
0 0 -0
0 0 -0
0 0 -0
5.8396425 0.68905008 -1.9237293
0 0 -0
0 0 -0
0 0 -0
0 0 -0
0 0 -0
5.8525395 0.47295401 -1.9208765
0 0 -0
0 0 -0
0 0 -0
0 0 -0
0 0 -0
0 0 -0
0 0 -0
0 0 -0
0 0 -0
0 0 -0
0 0 -0
0 0 -0
0 0 -0
0 -0 -0
0 -0 -0
0 -0 -0
0 -0 -0
0 -0 -0
0 -0 -0
5.9365425 -0.24996395 -1.9443326
0 -0 -0
0 -0 -0
0 -0 -0
5.917264 -0.39482179 -1.9405289
5.9062166 -0.43050206 -1.9376762
5.9091372 -0.46718192 -1.9395781
0 -0 -0
0 -0 -0
5.9033127 -0.57623899 -1.9408458
5.9119296 -0.61372244 -1.9449666
5.9259648 -0.65195525 -1.950989
0 -0 -0
0 -0 -0
0 -0 -0
5.8546042 -0.78996408 -1.9329215
5.8534036 -0.82640249 -1.9341894
5.8472843 -0.86216444 -1.9338725
5.8803191 -0.90393203 -1.9468684
5.8390737 -0.93430406 -1.9348234
5.8556852 -0.97384709 -1.9424307
5.8374496 -1.0076621 -1.9383101
5.8152852 -1.040622 -1.9329215
5.8302398 -1.0802571 -1.9402119
5.776927 -1.1070881 -1.9243633
5.6760564 -1.1239139 -1.8923489
5.562191 -1.1368861 -1.8558969
5.4632335 -1.1516331 -1.8245165
5.379137 -1.1684294 -1.7982078
5.2793078 -1.1807196 -1.7665104
5.2608724 -1.2105393 -1.7627068
5.1536641 -1.2192227 -1.7284735
5.107378 -1.2414167 -1.7151607
5.0775795 -1.2672215 -1.7075533
5.0311184 -1.2884734 -1.6942405
5.0974226 -1.3388294 -1.7199153
5.0836167 -1.3686025 -1.7180134
5.0705519 -1.3985087 -1.7164286
5.0500093 -1.4262445 -1.7123079
5.0530081 -1.4606268 -1.7164286
5.0175748 -1.4838063 -1.7072363
5.0129151 -1.5159379 -1.7088212
4.9980822 -1.5449878 -1.7069194
4.9767509 -1.5719138 -1.7027987
4.9634013 -1.6012565 -1.7015308
4.9489784 -1.6301979 -1.6999459
4.9370847 -1.6599292 -1.699312
4.915144 -1.6861913 -1.6951914
4.9172382 -1.720703 -1.6996289
4.910161 -1.7521169 -1.7008969
4.8886218 -1.7783223 -1.6970932
4.8624997 -1.8026813 -1.6917046
4.8540092 -1.8334883 -1.6926556
4.8214226 -1.8550653 -1.6850482
4.832027 -1.8932624 -1.6929725
4.8291287 -1.926389 -1.6961423
4.811945 -1.9538432 -1.6942405
4.7911 -1.9797107 -1.6910707
4.7692447 -2.0050285 -1.6875839
4.7542362 -2.0331357 -1.6866331
4.7207975 -2.0531921 -1.6790257
4.7055082 -2.0809691 -1.6780747
4.7004366 -2.113302 -1.6809275
4.6968703 -2.1464391 -1.6844143
4.6732888 -2.1704249 -1.6806105
4.6607409 -2.1994636 -1.6809275
4.6266317 -2.2181809 -1.6733202
4.600996 -2.240715 -1.6688825
4.5837598 -2.2672222 -1.6676147
4.5646768 -2.2927511 -1.6657128
4.5513678 -2.3211472 -1.6660298
4.5328283 -2.3468502 -1.6644449
4.5116262 -2.3710897 -1.6619091
4.5036874 -2.4022982 -1.6644449
4.4947014 -2.4330471 -1.6666638
4.4838443 -2.462863 -1.6682485
4.471962 -2.4921756 -1.6695164
4.4623661 -2.522835 -1.6717353
4.4451566 -2.5492246 -1.6711013
4.4253316 -2.5740674 -1.6695164
4.4045525 -2.5982814 -1.6676147
4.4031782 -2.6340213 -1.6733202
4.395854 -2.666399 -1.6768069
4.3947606 -2.70276 -1.6828294
4.379704 -2.7306783 -1.6834633
4.3612628 -2.7564871 -1.6828294
4.3442674 -2.7831953 -1.6828294
4.315176 -2.802052 -1.6780747
4.2844324 -2.8196142 -1.6726862
4.2765198 -2.852164 -1.6764899
4.2746558 -2.8889709 -1.6828294
4.2529359 -2.912466 -1.6812445
4.2100487 -2.921207 -1.6711013
4.199029 -2.9518929 -1.6739541
4.1754293 -2.9737511 -1.6717353
4.1440282 -2.9898822 -1.6663468
4.1355596 -3.0225279 -1.6704674
4.1146488 -3.0461535 -1.6695164
4.0890508 -3.0662227 -1.6666638
4.0867772 -3.1038737 -1.6736372
4.069159 -3.1300476 -1.6742711
4.0521216 -3.1567049 -1.675222
4.0304418 -3.1797469 -1.6742711
4.0204892 -3.2121124 -1.6783917
4.0043912 -3.2397037 -1.6799766
3.9822361 -3.2624102 -1.6790257
3.9533832 -3.2795177 -1.675222
3.9222918 -3.294564 -1.6704674
3.9178984 -3.3320854 -1.6774409
3.904567 -3.3622508 -1.6806105
3.894587 -3.3954935 -1.6853652
3.8694129 -3.415561 -1.6834633
3.8469679 -3.4379749 -1.6828294
3.8250973 -3.4608786 -1.6825124
2.4007463 -2.1992929 -1.0466633
2.367733 -2.1959264 -1.037788
2.3756514 -2.2305355 -1.0476142
3.7197607 -3.5354152 -1.6736372
3.7137179 -3.5732963 -1.6809275
3.6876462 -3.5920455 -1.6790257
3.6594579 -3.6086121 -1.676173
3.6305342 -3.6242979 -1.6730032
3.5928831 -3.6310015 -1.6657128
3.5705361 -3.6529787 -1.6657128
3.5408075 -3.6673133 -1.6622261
3.5103831 -3.6807349 -1.6584224
3.485131 -3.6994438 -1.6571546
3.4681814 -3.7270069 -1.6600072
3.4407544 -3.7433295 -1.6577885
3.4202714 -3.7671797 -1.6590563
3.3989918 -3.7902133 -1.6600072
3.3737848 -3.8088682 -1.6590563
3.3553469 -3.8352077 -1.6615921
3.3360925 -3.8607466 -1.663811
3.3111091 -3.8797009 -1.663177
3.2951884 -3.9093714 -1.6672977
3.2571814 -3.9127526 -1.6600072
3.2307024 -3.9297342 -1.6587393
3.2023442 -3.9443295 -1.6565206
3.1774886 -3.9631646 -1.6562036
3.1584103 -3.9892786 -1.6590563
1.995836 -2.5531406 -1.0415918
1.9789734 -2.5638373 -1.0409578
1.9626298 -2.5751777 -1.0406408
1.9433696 -2.5826249 -1.038739
1.9144754 -2.5769916 -1.0314486
1.8941391 -2.5825725 -1.0289128
1.6952305 -2.3414266 -0.9246285
1.6565621 -2.3178365 -0.91068166
1.6330125 -2.3147838 -0.90529311
0 -0 -0
2.8714204 -4.1775794 -1.6527169
2.8515904 -4.203753 -1.6562036
2.8220494 -4.2156544 -1.6539848
2.8044946 -4.2455516 -1.6590563
2.7789094 -4.2634745 -1.6593733
2.7506447 -4.2772546 -1.6581055
2.7279053 -4.2996573 -1.6603242
2.706001 -4.3235497 -1.663177
2.6863973 -4.3513699 -1.6676147
2.6591539 -4.3669615 -1.6672977
2.6357272 -4.3888865 -1.6695164
2.6150315 -4.415585 -1.6736372
2.5821488 -4.4217196 -1.6698334
2.5559156 -4.4391241 -1.6704674
2.52582 -4.4497743 -1.6685655
2.4956901 -4.4602232 -1.6666638
2.4641528 -4.467978 -1.663811
2.4389563 -4.4871802 -1.6653959
2.4104819 -4.5003886 -1.6647619
2.3828225 -4.5150943 -1.6647619
2.3559487 -4.5313129 -1.6653959
2.3259387 -4.5414629 -1.663811
2.3035829 -4.5666571 -1.6679317
2.2691889 -4.567965 -1.663177
2.2457025 -4.5911741 -1.6666638
2.2137852 -4.5971766 -1.663811
1.4643317 -3.0895097 -1.1011828
1.4449463 -3.0975771 -1.1008658
1.4271001 -3.1089704 -1.1018168
2.0920982 -4.6319699 -1.6571546
2.0613267 -4.6395197 -1.6552527
2.031301 -4.6486039 -1.6539848
2.0023649 -4.660109 -1.6536678
1.9704111 -4.6644449 -1.650815
1.950484 -4.6974688 -1.6584224
1.9194738 -4.7040796 -1.6565206
1.8951629 -4.7272124 -1.6606412
1.8695976 -4.7475762 -1.663811
1.8435112 -4.7669196 -1.6666638
1.808166 -4.7621822 -1.6609582
1.7818934 -4.7811852 -1.663811
1.7427483 -4.7653074 -1.6543018
1.7102726 -4.766984 -1.651132
1.6787865 -4.7711258 -1.6489131
1.6491705 -4.7804403 -1.6485963
1.6216304 -4.7958603 -1.650498
1.5930681 -4.8084211 -1.651449
1.5647055 -4.8217134 -1.6527169
1.5310687 -4.8185697 -1.6482793
1.5003468 -4.8242507 -1.6470114
1.4712697 -4.8351803 -1.6476454
1.4407622 -4.8413901 -1.6466944
1.4118239 -4.8528709 -1.6476454
1.3882467 -4.883337 -1.6552527
1.3597798 -4.8972464 -1.6571546
1.3319392 -4.9137359 -1.6600072
1.3024918 -4.9245667 -1.6609582
1.275805 -4.9462414 -1.6657128
1.2438122 -4.9475379 -1.663494
1.2143339 -4.9587612 -1.6647619
1.1847647 -4.9698091 -1.6660298
1.1568203 -4.9880719 -1.6698334
0.72867376 -3.2325816 -1.0659988
0.70578045 -3.2230949 -1.0612441
0.69447458 -3.2672553 -1.074874
0.66291767 -3.2157223 -1.0558556
0.63685316 -3.1881082 -1.0450785
0.61836046 -3.1975427 -1.0469803
0.59907806 -3.2031412 -1.0476142
0.57586884 -3.1871574 -1.0409578
0.55141127 -3.1626015 -1.0314486
0.52963626 -3.1518958 -1.0266941
0.51346904 -3.1747475 -1.0333505
0.49281314 -3.170341 -1.0308146
0.47909284 -3.2117646 -1.0438106
0.46018252 -3.2202771 -1.0457125
0.43733004 -3.2004876 -1.038105
0.41780674 -3.2040513 -1.038422
0.39451277 -3.1773777 -1.0285958
0.37834546 -3.2079952 -1.038105
0.35612428 -3.1876349 -1.0304977
0.33775428 -3.2010784 -1.0343014
0.31744954 -3.1964841 -1.0320826
0.29906309 -3.2115924 -1.0365202
0.28247735 -3.2492716 -1.0485651
0.26169381 -3.240545 -1.0450785
0 -0 -0
0 -0 -0
0.20530826 -3.2978222 -1.062829
0.18522905 -3.3018606 -1.06378
0.16368522 -3.2773592 -1.0552217
0.14215779 -3.2460864 -1.0444446
0.12155734 -3.2288899 -1.038422
0.10162302 -3.2257833 -1.0371541
0.081465594 -3.2121241 -1.0323995
0.061534673 -3.2011845 -1.0285958
0.041841302 -3.1977084 -1.0273279
0.022400893 -3.2235122 -1.0358863
0.0026089179 -3.2103107 -1.0314486
-0.017173033 -3.2263894 -1.0368372
-0.03703396 -3.2319136 -1.038739
-0.05663196 -3.2183495 -1.0343014
-0.076445475 -3.2207859 -1.0352523
-0.096347421 -3.2249963 -1.0368372
-0.11616784 -3.2252922 -1.0371541
-0.13627435 -3.2320995 -1.0396899
-0.1570622 -3.2510965 -1.0463464
-0.17783096 -3.2652242 -1.0514179
-0.19671725 -3.2451375 -1.0450785
-0.21637303 -3.2400842 -1.0438106
-0.23611195 -3.2368035 -1.0431767
-0.25410101 -3.2116566 -1.0352523
-0.27444646 -3.2175972 -1.037788
-0.29280356 -3.2007406 -1.0327165
-0.31354237 -3.2102113 -1.0365202
-0.33049366 -3.1818125 -1.0276449
-0.34887046 -3.1693544 -1.0241582
-0.36962393 -3.1784594 -1.0279619
-0.38854358 -3.1714246 -1.0263771
-0.40944761 -3.180269 -1.0301807
-0.43034804 -3.188036 -1.0336674
-0.45334697 -3.2097528 -1.0419087
-0.47455424 -3.217232 -1.0453955
-0.49875107 -3.24332 -1.0552217
-0.52298617 -3.2673581 -1.0644139
-0.54722381 -3.2893486 -1.0729722
-0.5677191 -3.2877982 -1.0736061
-0.57919794 -3.2357049 -1.0571234
-0.60111362 -3.2432809 -1.0609272
-0.61529249 -3.2097237 -1.050784
-0.63865852 -3.2244956 -1.0571234
-0.65767223 -3.2167993 -1.0558556
-0.67563766 -3.2043507 -1.0530028
-0.70011652 -3.222389 -1.0606102
-0.72670442 -3.2485766 -1.0710703
-0.758955 -3.2976658 -1.0894548
-0.79641879 -3.3658619 -1.1144958
-0.82041538 -3.3747361 -1.1192503
-0.85327506 -3.4184105 -1.1360499
-0.86858845 -3.3910594 -1.1284425
-0.84457874 -3.2150407 -1.0694854
-0.81942934 -3.0431142 -1.0117962
-0.8287583 -3.0041993 -1.0000682
-0.8409912 -2.9771516 -0.99246085
-0.85581988 -2.9600904 -0.9883402
-0.91376203 -3.0893922 -1.0352523
-0.97634083 -3.228076 -1.085651
-0.99864984 -3.23018 -1.0885038
-1.0235916 -3.2402711 -1.0942094
-1.0495679 -3.2528849 -1.1008658
-1.0668375 -3.238276 -1.098013
-1.0631168 -3.1615467 -1.0732892
-1.0778803 -3.1415069 -1.0685345
-1.0880533 -3.1088724 -1.0593423
-1.0972295 -3.0744455 -1.0495161
-1.11348 -3.0605247 -1.0469803
-1.1315788 -3.0518563 -1.0463464
-1.3741093 -3.6375551 -1.2580848
-1.3351119 -3.4697189 -1.2010295
-1.34842 -3.4411504 -1.1937391
-1.3515906 -3.3878829 -1.1775734
-1.3684287 -3.3698595 -1.1740867
-1.3630068 -3.2982857 -1.1512647
-1.4210715 -3.3799174 -1.1839129
-1.3914478 -3.2534049 -1.1411215
-1.398147 -3.2143641 -1.1300274
-1.4105566 -3.1892436 -1.124005
-1.4277657 -3.1753383 -1.1221031
-1.8736894 -4.0999122 -1.4650685
-1.4798058 -3.1859655 -1.1325632
-1.5167289 -3.2137091 -1.146193
-1.6889241 -3.5224972 -1.2641072
-1.5419351 -3.1658618 -1.1354159
-1.5520822 -3.1376376 -1.1284425
-1.5427878 -3.0712683 -1.1072053
-1.5521256 -3.0431557 -1.1002319
-1.5520208 -2.9973567 -1.086602
-1.5545012 -2.9575522 -1.075191
-1.5543207 -2.9136469 -1.0621951
-1.5550148 -2.8723588 -1.05015
-1.577632 -2.8719079 -1.0536368
-1.5984554 -2.8679731 -1.0558556
-1.6244236 -2.8729732 -1.0615611
-1.6415495 -2.862129 -1.0612441
-1.6671859 -2.8659406 -1.0666326
-1.6765486 -2.8417692 -1.0612441
-1.6759411 -2.8013122 -1.0495161
-1.6739173 -2.7593489 -1.0371541
-1.7295657 -2.8120437 -1.0618781
-1.7292271 -2.7732084 -1.050784
-1.7421573 -2.7561316 -1.0482482
-1.7677325 -2.7589672 -1.0536368
-1.7810128 -2.7425001 -1.0514179
-1.7915509 -2.7220128 -1.0476142
-1.8024311 -2.7022889 -1.0441276
-1.8280053 -2.7045379 -1.0495161
-1.8531389 -2.7057915 -1.0545877
-1.8643003 -2.6865773 -1.0514179
-1.8987476 -2.7006936 -1.0618781
-1.9026297 -2.6712229 -1.0545877
-1.9017832 -2.6356535 -1.0447615
-1.9229558 -2.6308267 -1.0476142
-1.9356763 -2.6144042 -1.0457125
-1.9425787 -2.5903366 -1.0406408
-1.9859679 -2.6146245 -1.0558556
-1.9904095 -2.5873535 -1.0495161
-1.99634 -2.5623717 -1.0441276
-2.0143745 -2.5530529 -1.0453955
-2.0406568 -2.5539834 -1.051101
-2.0717976 -2.5605862 -1.0593423
-2.0736473 -2.5309503 -1.0520519
-2.1024585 -2.5342393 -1.0590253
-2.1075997 -2.5089443 -1.0536368
-2.1198826 -2.4923525 -1.0520519
-2.1295662 -2.4728293 -1.0491991
-2.1521776 -2.4682953 -1.0530028
-2.1635168 -2.4507768 -1.051101
-2.1886246 -2.4487712 -1.0561726
-2.1978824 -2.4289658 -1.0533198
-2.2300406 -2.4343188 -1.0618781
-2.2539632 -2.4303262 -1.0663157
-2.2480614 -2.3943222 -1.0561726
-2.2620571 -2.3797958 -1.0558556
-2.2621505 -2.3508344 -1.0488821
-2.2719004 -2.3321538 -1.0466633
-2.2815063 -2.313442 -1.0444446
-2.2983384 -2.3020847 -1.0457125
-2.3171394 -2.292609 -1.0479312
-2.3406577 -2.2876301 -1.0523689
-2.3505566 -2.2692721 -1.050467
-2.3781621 -2.2678993 -1.0568064
-2.4079096 -2.2682238 -1.0640969
-2.401648 -2.2346678 -1.0549047
-2.4195039 -2.2237408 -1.0568064
-2.4338052 -2.2094908 -1.0571234
-2.4444923 -2.1919825 -1.0558556
-2.4507968 -2.1706529 -1.0526859
-2.4676385 -2.1586969 -1.0542707
-2.471509 -2.135453 -1.05015
-2.489615 -2.1245582 -1.0523689
-2.5127561 -2.1178005 -1.0568064
-2.5286188 -2.1047702 -1.0580744
-2.5414858 -2.0892153 -1.0580744
-2.5520484 -2.0717881 -1.0571234
-2.5669324 -2.0578699 -1.0580744
-2.5884335 -2.0491462 -1.0618781
-2.6144066 -2.043741 -1.0675836
-2.647167 -2.0433104 -1.0761418
-2.6611633 -2.0281792 -1.0767758
-2.6811354 -2.0175159 -1.0799456
-2.692703 -2.0004611 -1.0796286
-2.699574 -1.9799743 -1.0774097
-2.6932366 -1.9500213 -1.0698024
-2.7113233 -1.9378719 -1.0723382
-2.6882918 -1.8965911 -1.0580744
-2.7271173 -1.8990331 -1.0691684
-2.7520049 -1.8913981 -1.0745571
-2.770622 -1.8792689 -1.0774097
-2.7497888 -1.8405991 -1.0644139
-2.8085101 -1.8550611 -1.0834323
-2.8293738 -1.8440088 -1.0872359
-2.8374445 -1.8245611 -1.085968
-2.8429806 -1.8035594 -1.0837493
-2.8475623 -1.7820554 -1.0812135
-2.8544083 -1.762058 -1.0796286
-2.8651662 -1.7445105 -1.0796286
-2.8815076 -1.7303158 -1.0818474
-2.9116549 -1.7242032 -1.0894548
-2.9369214 -1.7149154 -1.0951604
-2.9654701 -1.7072753 -1.1021338
-2.9866121 -1.6951346 -1.1062543
-3.0110269 -1.6846514 -1.111643
-3.0304422 -1.6711835 -1.1151296
-3.0531383 -1.6593524 -1.1198843
-3.1008835 -1.6607418 -1.134148
-3.1537919 -1.6642634 -1.1503137
-3.1883464 -1.6575706 -1.159506
-3.2575459 -1.6682447 -1.1816941
-3.2888899 -1.6589059 -1.1896185
-3.3185422 -1.6484008 -1.1969088
-3.3294463 -1.6284244 -1.1972258
-3.3752637 -1.6252503 -1.2105387
-3.5608563 -1.6878034 -1.2755183
-3.6708441 -1.7124439 -1.3122872
-3.654563 -1.6776192 -1.302461
-3.9880462 -1.801199 -1.4210092
-4.182765 -1.8583484 -1.4882076
-4.0889335 -1.7866887 -1.4498538
-4.1782422 -1.7952702 -1.4783814
-4.1262765 -1.7430211 -1.4555593
-4.1193757 -1.7103945 -1.4492198
-4.1201339 -1.681144 -1.4457331
-4.1647034 -1.6695986 -1.4580951
-4.2445822 -1.6714724 -1.4831361
-4.3184471 -1.6700327 -1.5059581
-4.472249 -1.6980544 -1.5573078
-4.5012465 -1.6775383 -1.5639642
-4.5675697 -1.6704147 -1.5839336
-4.6339731 -1.6625396 -1.6039029
-4.7451816 -1.6696553 -1.6397209
-4.9014754 -1.6909363 -1.6913877
-4.9629698 -1.6781502 -1.7094551
-5.0235891 -1.6643741 -1.7272056
-5.0779099 -1.6478668 -1.7427374
-5.1349273 -1.631617 -1.75922
-5.2091413 -1.6200817 -1.7817252
-5.2824974 -1.6074202 -1.8039134
-5.4304309 -1.6161076 -1.8520933
-5.5477023 -1.6140281 -1.8894962
-5.6113253 -1.5952634 -1.9081976
-5.6511645 -1.5691788 -1.9186578
-5.6872325 -1.5416723 -1.92785
-5.7085047 -1.5099007 -1.9319706
-5.7222538 -1.4760303 -1.9335555
-5.7321224 -1.4411228 -1.9338725
-5.7426996 -1.4063754 -1.9345064
-5.7659817 -1.3746325 -1.9395781
-5.77246 -1.3387985 -1.9389441
-5.7768655 -1.3025194 -1.9376762
-5.7680726 -1.263395 -1.9319706
-5.7849927 -1.229952 -1.9351404
-5.7775688 -1.191367 -1.9300689
-5.78198 -1.1553364 -1.9291179
-5.7917533 -1.1203777 -1.9300689
-5.7901287 -1.0832489 -1.9272161
-5.8106661 -1.0502322 -1.9319706
-5.8235407 -1.0157 -1.9341894
-5.8418226 -0.98199296 -1.9383101
-5.8805065 -0.95143384 -1.9494042
-5.8974795 -0.91708338 -1.9532079
-5.9255085 -0.88424093 -1.9608152
-0 -0 -0
-0 -0 -0
-5.9633517 -0.77796799 -1.9684227
-0 -0 -0
-0 -0 -0
-0 -0 -0
-0 -0 -0
-0 -0 -0
-0 -0 -0
-0 -0 -0
-0 -0 -0
-0 -0 -0
-0 -0 -0
-0 -0 -0
-0 -0 -0
-0 -0 -0
-0 -0 -0
-0 -0 -0
-0 -0 -0
-0 0 -0
-0 0 -0
-0 0 -0
-0 0 -0
-0 0 -0
-0 0 -0
-0 0 -0
-0 0 -0
-0 0 -0
-0 0 -0
-0 0 -0
-0 0 -0
-0 0 -0
-0 0 -0
-0 0 -0
-0 0 -0
-0 0 -0
-0 0 -0
-5.5838132 1.0355512 -1.9249003
-5.5857062 1.0713971 -1.9278454
-5.5808806 1.1060179 -1.9284997
-5.5693607 1.139293 -1.9268637
-5.5816808 1.1775446 -1.9337353
-5.5586538 1.2083554 -1.9281725
-5.5456023 1.2412004 -1.9262092
-5.533278 1.2741431 -1.9245732
-5.524436 1.3078529 -1.924246
-5.5117168 1.3406079 -1.9226098
-5.5079708 1.3755476 -1.924246
-5.4975963 1.4088485 -1.9235915
-5.4824514 1.440872 -1.921301
-5.4780688 1.4757144 -1.922937
-5.4607134 1.5070353 -1.9199921
-5.4459081 1.5389702 -1.9180288
-5.4399934 1.5734076 -1.9193376
-5.4229879 1.6046109 -1.9167199
-5.417562 1.6392248 -1.9183559
-5.41011 1.6732737 -1.9193376
-5.4114542 1.710142 -1.9235915
-5.3936653 1.7409903 -1.9209738
-5.3801889 1.7731645 -1.9199921
-5.3674164 1.8055404 -1.9193376
-5.3553433 1.8381333 -1.9190104
-5.3493147 1.8728331 -1.9209738
-5.3395023 1.9062564 -1.9216281
-5.3268175 1.9386598 -1.921301
-5.3183651 1.9726231 -1.9226098
-5.3061614 2.005219 -1.9226098
-5.2919941 2.0370598 -1.9219553
-5.2732372 2.0670772 -1.9196649
-5.2508016 2.0955396 -1.9160655
-5.2247138 2.1223812 -1.9111573
-5.2063537 2.1522324 -1.9091939
-5.1965337 2.1856036 -1.9105028
-5.1908431 2.2207947 -1.9134477
-5.204844 2.2646732 -1.9239187
-5.1856656 2.2942719 -1.9219553
-5.1516714 2.3171282 -1.9144294
-5.1407943 2.3502669 -1.9157382
-5.1039972 2.3714092 -1.9072306
-5.1184011 2.416404 -1.9183559
-5.1128492 2.4522617 -1.9219553
-5.0815673 2.4757204 -1.9157382
-5.0645871 2.5060153 -1.9150838
-5.0465827 2.5357704 -1.9141022
-5.0334535 2.567977 -1.9150838
-5.0176015 2.5988133 -1.9150838
-4.995707 2.6264725 -1.9127933
-4.9828315 2.6588562 -1.9141022
-4.9639311 2.6880298 -1.9131205
-4.9423757 2.7157059 -1.9111573
-4.9231434 2.7445998 -1.9101756
-4.9136119 2.778944 -1.9131205
-4.8940096 2.8076301 -1.9121388
-4.8717904 2.8347538 -1.9101756
-4.8591871 2.8674755 -1.9121388
-4.8406906 2.8967516 -1.9118116
-4.8212099 2.9254184 -1.9111573
-4.7983403 2.9519737 -1.9091939
-4.7801371 2.9813602 -1.9091939
-4.761754 3.0106344 -1.9091939
-4.7487597 3.0433657 -1.9114844
-4.7292042 3.0719314 -1.9111573
-4.7078986 3.0993321 -1.9101756
-4.6777897 3.1208165 -1.9055945
-4.6671624 3.1552837 -1.9091939
-4.6492729 3.1849298 -1.9098483
-4.6335239 3.2160921 -1.9114844
-4.6152492 3.2455497 -1.9121388
-4.596787 3.2749043 -1.9127933
-4.5712428 3.2991757 -1.9105028
-4.5509138 3.3271623 -1.9105028
-4.5266166 3.3522108 -1.9088666
-4.4984045 3.3742509 -1.9055945
-4.4881482 3.4097941 -1.9101756
-4.4663925 3.4366925 -1.9098483
-4.4429855 3.46229 -1.9088666
-4.4246244 3.4918287 -1.9101756
-4.4112344 3.5254028 -1.913775
-4.3895197 3.5524035 -1.913775
-4.3669095 3.578671 -1.9134477
-4.3470502 3.6072092 -1.9144294
-4.3197713 3.6295581 -1.9121388
-4.2909431 3.6504834 -1.9091939
-4.2691793 3.6773603 -1.9095211
-4.2394147 3.6972737 -1.9062489
-4.2017765 3.7100792 -1.8993773
-4.1810455 3.7376809 -1.900359
-4.1580329 3.7632649 -1.900359
-4.1348639 3.7887073 -1.900359
-4.0983787 3.8017941 -1.8941419
-4.0949459 3.8456333 -1.9036312
-4.0705876 3.8700359 -1.903304
-4.0515299 3.8995275 -1.9055945
-4.03091 3.9276118 -1.9072306
-4.0067348 3.9522712 -1.9072306
-3.9770606 3.9714389 -1.9046128
-3.9492953 3.9924073 -1.9029768
-3.9194419 4.0111566 -1.900359
-3.8973806 4.0378504 -1.9016678
-3.8783987 4.0678449 -1.9046128
-3.8430023 4.0805569 -1.8993773
-3.8262575 4.1130562 -1.9036312
-3.7945559 4.1294971 -1.900359
-3.7647018 4.1478033 -1.8980684
-3.7410724 4.1729364 -1.8990501
-3.7197814 4.2007656 -1.9013406
-3.6951799 4.2249336 -1.9019951
-3.6660988 4.2439508 -1.900359
-3.6424422 4.2692418 -1.9016678
-3.6167867 4.2922339 -1.9019951
-3.5897777 4.3136187 -1.9016678
-3.560843 4.3326435 -1.900359
-3.5270472 4.3456049 -1.8964324
-3.5056341 4.3738017 -1.8993773
-3.4857664 4.4041224 -1.903304
-3.4493699 4.4135132 -1.8980684
-3.4326129 4.4480629 -1.9039584
-3.4023929 4.4652829 -1.9023223
-3.3800416 4.4928722 -1.9052672
-3.3518469 4.5127687 -1.90494
-3.3129218 4.5180073 -1.8983957
-3.2923384 4.5482025 -1.9026495
-3.258877 4.5606284 -1.8993773
-3.2313766 4.5813112 -1.8997046
-3.1826949 4.5715785 -1.8872703
-3.1695638 4.6128311 -1.8964324
-3.1321871 4.6188951 -1.8908697
-3.1032617 4.6372414 -1.8905425
-3.0820374 4.6672363 -1.8951235
-3.0502477 4.6813083 -1.8931602
-3.0270853 4.7086811 -1.8967596
-3.0011721 4.7319546 -1.8987229
-2.9720809 4.7502804 -1.8987229
-2.9463506 4.7740569 -1.9010135
-2.9081609 4.7775149 -1.8951235
-2.8807368 4.7985101 -1.8964324
-2.8512394 4.8160954 -1.8964324
-2.8249683 4.8392129 -1.8987229
-2.7890966 4.8458076 -1.8944691
-2.7551153 4.8554325 -1.8915241
-2.7280378 4.8771949 -1.8934875
-2.6930439 4.884738 -1.889888
-2.6652758 4.9053226 -1.8915241
-2.6337895 4.9190845 -1.8905425
-2.6062016 4.9401679 -1.8925058
-2.577147 4.9585819 -1.8934875
-2.5466733 4.9743013 -1.8934875
-2.5216322 5.0008039 -1.8977413
-2.4900601 5.0144892 -1.8970869
-2.4609046 5.0330696 -1.8983957
-2.425879 5.0395594 -1.8951235
-2.3957202 5.0560575 -1.8957779
-2.3670468 5.0758009 -1.8977413
-2.3354638 5.0893707 -1.8974141
-2.3022487 5.099298 -1.8957779
-2.2713001 5.1141925 -1.8961052
-2.2391212 5.1263003 -1.8954507
-2.2065065 5.1373377 -1.8944691
-2.1775146 5.1568742 -1.8967596
-2.1436594 5.1649013 -1.8947963
-2.1101441 5.1735821 -1.8931602
-2.0797653 5.1899409 -1.8944691
-2.0413086 5.1858969 -1.8882519
-2.0084286 5.1956801 -1.8872703
-1.9791915 5.2149739 -1.889888
-1.9488043 5.2314477 -1.8915241
-1.9176407 5.2459698 -1.8925058
-1.8866911 5.2611957 -1.8938147
-1.8521802 5.2664328 -1.8915241
-1.8213704 5.2821651 -1.8931602
-1.7868088 5.2869744 -1.8908697
-1.758491 5.3103981 -1.8954507
-1.7212123 5.3067055 -1.8902153
-1.6891901 5.3189683 -1.8908697
-1.6542794 5.3220134 -1.8882519
-1.6202192 5.3275428 -1.8866159
-1.5866919 5.3346667 -1.8856342
-1.5573565 5.3560987 -1.889888
-1.5203336 5.3510094 -1.8846525
-1.4884818 5.3638792 -1.8859614
-1.4567761 5.3774724 -1.8875976
-1.4208577 5.3753462 -1.8836709
-1.391855 5.3995194 -1.8892336
-1.3492653 5.3703814 -1.8758177
-1.3223476 5.4033427 -1.8846525
-1.2871993 5.4030809 -1.8817075
-1.2540224 5.4108777 -1.8817075
-1.2232883 5.429533 -1.8856342
-1.1867207 5.4221663 -1.8803988
-1.1569598 5.4459844 -1.8862886
-1.1237125 5.4539065 -1.8866159
-1.0913358 5.466259 -1.8885791
-1.0583123 5.4756355 -1.8895608
-1.0241742 5.4792395 -1.8885791
-0.99321854 5.5002999 -1.8938147
-0.95864058 5.5016356 -1.8921785
-0.9245525 5.5055504 -1.8915241
-0.89030194 5.5083213 -1.8905425
-0.85735589 5.5192828 -1.8925058
-0.82333493 5.5235052 -1.8921785
-0.78809398 5.5190978 -1.8889064
-0.75344878 5.5182118 -1.8869431
-0.71945357 5.5217943 -1.8866159
-0.68567508 5.5270424 -1.8869431
-0.65163851 5.5302072 -1.8866159
-0.61717039 5.5294056 -1.8849797
-0.58441728 5.5443659 -1.8889064
-0.54992127 5.5431457 -1.8872703
-0.51598614 5.5473561 -1.8875976
-0.48144919 5.5447693 -1.8856342
-0.44741806 5.5476193 -1.8856342
-0.41323012 5.5483751 -1.8849797
-0.37879291 5.5451498 -1.8830165
-0.34470296 5.5464263 -1.8826892
-0.31040108 5.5437198 -1.8810532
-0.27698854 5.5577893 -1.885307
-0.24267614 5.5546637 -1.8836709
-0.20876507 5.56077 -1.885307
-0.17490603 5.5704465 -1.8882519
-0.14107808 5.5855846 -1.8931602
-0.10680293 5.5863452 -1.8931602
-0.072451331 5.5812259 -1.8911968
-0.038172849 5.5768409 -1.8895608
-0.0039471122 5.5646858 -1.885307
0.030191908 5.5636601 -1.8849797
0.064373806 5.5671501 -1.8862886
0.09844739 5.5619259 -1.8846525
0.13257287 5.5612173 -1.8846525
0.16663633 5.5584102 -1.8839982
0.20049882 5.550673 -1.8817075
0.23467363 5.5521703 -1.8826892
0.26928741 5.5619521 -1.8866159
0.30309972 5.5545335 -1.8846525
0.33660129 5.5431376 -1.8813803
0.37067026 5.5419106 -1.8817075
0.40446067 5.5367045 -1.880726
0.43909904 5.5425963 -1.8836709
0.4726159 5.5341487 -1.8817075
0.50734133 5.5396137 -1.8846525
0.54030854 5.5260515 -1.8810532
0.57508683 5.5310907 -1.8839982
0.60704416 5.5096126 -1.8777809
0.64280909 5.5226784 -1.8836709
0.6767987 5.5195684 -1.8839982
0.70980674 5.5087514 -1.8817075
0.74460804 5.5117836 -1.8843254
0.77973813 5.5164676 -1.8875976
0.81398642 5.5143833 -1.8885791
0.84694326 5.5036817 -1.8866159
0.88159513 5.5039797 -1.8885791
0.91519493 5.4975343 -1.8882519
0.94826561 5.488091 -1.8869431
0.98175526 5.4812388 -1.8866159
1.0158865 5.4778991 -1.8875976
1.0485882 5.4669228 -1.8859614
1.0813773 5.4566784 -1.8846525
1.1140802 5.4462371 -1.8833437
1.1474767 5.4392991 -1.8833437
1.181031 5.4330792 -1.8836709
1.2124863 5.4174314 -1.880726
1.2459164 5.4108105 -1.8810532
1.281054 5.4113393 -1.8839982
1.3142332 5.4033771 -1.8839982
1.3487378 5.4007115 -1.8859614
1.3837287 5.3996568 -1.8885791
1.415392 5.3855815 -1.8866159
1.4439831 5.360373 -1.880726
1.4798654 5.3623419 -1.8846525
1.5119689 5.3504329 -1.8836709
1.54477 5.3410549 -1.8836709
1.5769764 5.3296638 -1.8830165
1.6085535 5.3162699 -1.8817075
1.6414226 5.3072023 -1.8820348
1.6770903 5.3069415 -1.8856342
1.7110738 5.3010473 -1.8872703
1.7441602 5.2922435 -1.8879247
1.7765999 5.2814417 -1.8879247
1.8080519 5.2677603 -1.8869431
1.8397154 5.2547836 -1.8862886
1.8696982 5.2371674 -1.8839982
1.9001809 5.2211566 -1.882362
1.9334967 5.2129426 -1.8836709
1.9657806 5.2018647 -1.8839982
1.9983408 5.1914687 -1.8846525
2.0311928 5.1817484 -1.8856342
2.066103 5.1770859 -1.8885791
2.0956953 5.1590586 -1.8866159
2.1280334 5.1478491 -1.8872703
2.1577473 5.1303401 -1.8856342
2.196995 5.1352463 -1.8925058
2.2269542 5.1182036 -1.8911968
2.2556396 5.0983944 -1.8889064
2.2880437 5.0870433 -1.889888
2.3172488 5.0686116 -1.8882519
2.3471105 5.0517273 -1.8872703
2.3776596 5.036376 -1.8869431
2.4130144 5.0310636 -1.8905425
2.4392846 5.0068192 -1.8869431
2.4695406 4.990911 -1.8866159
2.5009668 4.9773526 -1.8872703
2.5323193 4.9635968 -1.8879247
2.5609887 4.9446092 -1.8866159
2.5925996 4.9313111 -1.8875976
2.625479 4.9203119 -1.8895608
2.6547198 4.9024482 -1.8889064
2.681109 4.8794422 -1.8862886
2.7165217 4.8728027 -1.8902153
2.7412508 4.8469958 -1.8866159
2.7695284 4.8276262 -1.8856342
2.8029013 4.8170748 -1.8882519
2.8343272 4.803041 -1.8895608
2.8622887 4.7831268 -1.8885791
2.896487 4.7735519 -1.8918513
2.9217601 4.7492514 -1.8892336
2.953347 4.7352428 -1.8908697
2.9742641 4.7042551 -1.8856342
3.0056231 4.6898942 -1.8872703
3.0317686 4.6674018 -1.8856342
3.0572317 4.6439767 -1.8836709
3.0840952 4.6227722 -1.8826892
3.1113431 4.6021962 -1.8820348
3.1384547 4.58146 -1.8813803
3.1670458 4.5628924 -1.8817075
3.1911776 4.5379643 -1.8794171
3.2228012 4.5236845 -1.8817075
3.2516036 4.5053568 -1.882362
3.2830918 4.4906597 -1.8846525
3.3156469 4.4772639 -1.8875976
3.345325 4.4598584 -1.8889064
3.378917 4.4475231 -1.8925058
3.4130597 4.4356923 -1.8964324
3.4338214 4.4064689 -1.892833
3.4619656 4.3867998 -1.8934875
3.480556 4.3551421 -1.8889064
3.5131593 4.3410482 -1.8921785
3.5385311 4.3179488 -1.8915241
3.5667696 4.2983365 -1.8925058
3.5930767 4.2763705 -1.8925058
3.6192484 4.2542434 -1.8925058
3.6489849 4.2362509 -1.8944691
3.671803 4.2102213 -1.892833
3.6969419 4.186904 -1.8925058
3.7175231 4.1585064 -1.889888
3.7296503 4.1209078 -1.8830165
3.7586966 4.1021247 -1.8849797
3.7889383 4.0845256 -1.8875976
3.8197525 4.0673985 -1.8905425
3.8544061 4.0541549 -1.8954507
3.8818312 4.0331511 -1.8967596
3.9091434 4.0119634 -1.8980684
3.913111 3.9670513 -1.8879247
3.9547427 3.9603477 -1.8964324
3.9722493 3.9293633 -1.8931602
3.9908767 3.8996339 -1.8905425
4.0092888 3.8698239 -1.8879247
4.0090165 3.8223333 -1.8764721
4.0482192 3.8125598 -1.8839982
4.0500846 3.7677007 -1.8738544
4.1120987 3.7785754 -1.8921785
4.1170101 3.7367644 -1.8836709
4.1609731 3.7303517 -1.8934875
4.180953 3.702245 -1.8921785
4.2000341 3.6734116 -1.8905425
4.2246404 3.6494243 -1.8915241
4.2397633 3.6173019 -1.8882519
4.2777791 3.6046116 -1.8954507
4.2845602 3.5656054 -1.8885791
4.3195004 3.550046 -1.8944691
4.332396 3.516331 -1.8905425
4.358315 3.4932268 -1.8925058
4.3885598 3.4734542 -1.8964324
4.40979 3.4464612 -1.8964324
4.4301062 3.4187613 -1.8961052
4.4600205 3.3983848 -1.9000318
4.4800334 3.3703868 -1.8997046
4.4953184 3.3388915 -1.8974141
4.4981914 3.2983975 -1.889888
4.5367188 3.2840295 -1.8977413
4.556015 3.2555816 -1.8974141
4.5828557 3.2324657 -1.900359
4.5925202 3.1972682 -1.8961052
4.6128311 3.1695638 -1.8964324
4.6368852 3.1443815 -1.8983957
4.6655169 3.1221755 -1.9023223
4.6908956 3.0976541 -1.90494
4.7058549 3.0662344 -1.903304
4.7388897 3.0464971 -1.9091939
4.7479162 3.011291 -1.9052672
4.7630992 2.9800975 -1.9039584
4.7740569 2.9463506 -1.9010135
4.7928529 2.9174933 -1.9013406
4.8082333 2.8865714 -1.900359
4.8388662 2.8647139 -1.9055945
4.8571687 2.8354454 -1.9059217
4.8605509 2.7975783 -1.900359
4.8817348 2.7700329 -1.9019951
4.901114 2.7414103 -1.9029768
4.9244637 2.7149346 -1.9055945
4.9518247 2.6905301 -1.9098483
4.9724059 2.6623249 -1.9114844
4.9727664 2.6233904 -1.9052672
4.9887695 2.5928288 -1.9052672
5.0037436 2.561739 -1.90494
5.0218997 2.5322642 -1.9059217
5.0500393 2.5077043 -1.91083
5.0559921 2.4721067 -1.9072306
5.0625505 2.4369404 -1.9039584
5.086802 2.4102802 -1.9075578
5.1066346 2.381418 -1.9095211
5.1228685 2.3508275 -1.9101756
5.1397805 2.3205159 -1.9111573
5.1521945 2.2881682 -1.9105028
5.1644053 2.2557557 -1.9098483
5.1833591 2.2262616 -1.9118116
5.1925688 2.1925781 -1.9101756
5.2137799 2.1639342 -1.9131205
5.2304597 2.1333292 -1.9144294
5.2443285 2.1015468 -1.9147565
5.2509689 2.0669072 -1.912466
5.2873516 2.0438433 -1.921301
5.2856565 2.0060003 -1.9160655
5.2898955 1.9705633 -1.9131205
5.306325 1.9396892 -1.9147565
5.3110104 1.9045434 -1.9121388
5.3297281 1.8744264 -1.9147565
5.3581038 1.8475376 -1.9209738
5.3693395 1.8146261 -1.9209738
5.3848581 1.7831306 -1.9226098
5.4019899 1.7520957 -1.9249003
5.4117384 1.7186309 -1.9245732
5.4230843 1.685673 -1.9249003
5.4360375 1.6531901 -1.925882
5.4379268 1.6173813 -1.922937
5.4468412 1.5837207 -1.9226098
5.4528203 1.5492374 -1.921301
5.4640446 1.5162554 -1.9219553
5.4732451 1.4827001 -1.9219553
5.4776716 1.4478825 -1.9203193
5.4919434 1.415659 -1.9222826
5.5005264 1.3819344 -1.9222826
5.50982 1.3483822 -1.9226098
5.5179896 1.3145492 -1.9226098
5.5342374 1.2825851 -1.9255548
5.5484562 1.250056 -1.9278454
5.5643301 1.2178044 -1.9307903
5.5633783 1.1818738 -1.9278454
5.5797811 1.1496203 -1.9311175
5.585803 1.1151769 -1.9307903
5.5971794 1.0817777 -1.9324263
5.6037121 1.0474137 -1.9324263
5.6137528 1.0136812 -1.9337353
5.6170745 0.97873074 -1.9327536
5.6155186 0.94299614 -1.9301358
5.6249304 0.90912455 -1.9314448
5.6341381 0.87517291 -1.9327536
5.6365976 0.84016865 -1.9317719
5.6416469 0.80556732 -1.9317719
5.6492925 0.77131861 -1.9327536
5.6501708 0.73615313 -1.9314448
5.6498923 0.70088977 -1.9298086
5.6625328 0.66720295 -1.9327536
5.6608853 0.631818 -1.9307903
5.6740532 0.59806013 -1.9340625
5.675735 0.56304735 -1.933408
5.6856694 0.52882236 -1.9356985
5.6888075 0.49392581 -1.9356985
5.7011499 0.45976833 -1.9389707
5.7000942 0.42449811 -1.9376619
5.7025914 0.38951501 -1.9376619
0 0 -0
0 0 -0
0 0 -0
0 0 -0
0 0 -0
0 0 -0
0 0 -0
0 0 -0
0 0 -0
0 0 -0
0 0 -0
0 -0 -0
0 -0 -0
0 -0 -0
0 -0 -0
0 -0 -0
0 -0 -0
0 -0 -0
0 -0 -0
0 -0 -0
0 -0 -0
0 -0 -0
0 -0 -0
0 -0 -0
0 -0 -0
0 -0 -0
0 -0 -0
0 -0 -0
0 -0 -0
0 -0 -0
0 -0 -0
0 -0 -0
0 -0 -0
0 -0 -0
0 -0 -0
0 -0 -0
0 -0 -0
0 -0 -0
5.6491742 -0.97613299 -1.9435518
5.6570301 -1.0132792 -1.94846
0 -0 -0
0 -0 -0
5.6077604 -1.1113507 -1.9379891
5.5314054 -1.1315206 -1.9134477
5.4041657 -1.1400574 -1.8709095
5.2751875 -1.1466745 -1.8277166
5.2053499 -1.1649736 -1.8054658
5.1391721 -1.1833084 -1.7845238
5.0674505 -1.199568 -1.7616186
4.9957256 -1.2149928 -1.7387134
4.954257 -1.2371447 -1.7266062
4.9108748 -1.2583644 -1.7138448
4.8820424 -1.2829446 -1.7063187
4.8649549 -1.3104163 -1.7030466
4.8978109 -1.3515632 -1.7177714
4.8494172 -1.3702753 -1.7033738
4.8481793 -1.4021068 -1.7059916
4.8449216 -1.4334381 -1.7079549
4.8306084 -1.4614959 -1.7059916
4.8387012 -1.4964169 -1.7122087
4.8186169 -1.5226593 -1.7082821
4.8073845 -1.5516162 -1.7076277
4.7986712 -1.5813805 -1.7079549
4.7888775 -1.6107948 -1.7079549
4.7914157 -1.6444459 -1.712536
4.7749925 -1.6716274 -1.7102454
4.7521877 -1.6964443 -1.7056644
4.7381372 -1.7242777 -1.7043555
4.7212667 -1.7510164 -1.702065
4.710434 -1.7799526 -1.702065
4.7020693 -1.8098407 -1.7030466
4.6979132 -1.8414184 -1.7056644
4.6759953 -1.8660043 -1.7017378
4.6548281 -1.8907466 -1.6981384
4.6431394 -1.9192725 -1.6981384
4.6399851 -1.9513915 -1.7014105
4.6296616 -1.9805689 -1.702065
4.6035595 -2.0029035 -1.6968294
4.5842705 -2.0280528 -1.6942117
4.5786343 -2.0592456 -1.6968294
4.5590382 -2.084156 -1.6942117
4.5213146 -2.1005387 -1.6847224
4.5134673 -2.1306632 -1.6866857
4.4866776 -2.1517758 -1.6814502
4.4589505 -2.1722264 -1.6758876
4.4446912 -2.1991258 -1.6755604
4.4302697 -2.2259321 -1.6752331
4.4249444 -2.25737 -1.6785053
4.416883 -2.2875218 -1.6807958
4.4019279 -2.3141403 -1.6804686
4.3801432 -2.3371012 -1.6775236
4.358243 -2.3598821 -1.6745787
4.3494773 -2.3897657 -1.6768692
4.339684 -2.4191706 -1.6788325
4.3264031 -2.4466834 -1.6794869
4.3088508 -2.4717727 -1.6785053
4.2936029 -2.4981647 -1.6785053
4.2879581 -2.5302277 -1.6824319
4.2731633 -2.5569758 -1.682759
4.2541623 -2.5811858 -1.6814502
4.2414632 -2.6092215 -1.682759
4.2261753 -2.6356978 -1.6830863
4.210722 -2.6620846 -1.6834135
4.201468 -2.6924613 -1.6863585
4.1777372 -2.7135563 -1.6834135
4.14996 -2.7318625 -1.6788325
4.1394072 -2.7614715 -1.6814502
4.122385 -2.7868185 -1.6814502
4.1130028 -2.8174026 -1.6847224
4.0925331 -2.8404305 -1.6834135
4.0688448 -2.8611386 -1.6807958
4.0296669 -2.8706939 -1.6716337
4.0211701 -2.9020035 -1.6755604
4.0040507 -2.9271801 -1.6758876
3.9837368 -2.9500058 -1.6749059
3.9693398 -2.9772298 -1.6765419
3.9555111 -3.0049601 -1.6785053
3.934752 -3.0274448 -1.6775236
3.9168472 -3.0521121 -1.6778508
3.8995295 -3.0772591 -1.6785053
3.8872168 -3.1064389 -1.6814502
3.8680828 -3.1302321 -1.6814502
3.8356497 -3.1431234 -1.6755604
3.8279247 -3.1762564 -1.6807958
3.8047466 -3.1966443 -1.6791598
3.7922568 -3.2260542 -1.6824319
3.7723908 -3.2492623 -1.6824319
3.756655 -3.2760754 -1.6843952
3.7216101 -3.2859268 -1.6775236
3.7070129 -3.3137395 -1.6801413
2.4236462 -2.1928928 -1.0901675
2.4171109 -2.214108 -1.0934397
2.4034801 -2.2288976 -1.0934397
3.640413 -3.4185977 -1.6876674
3.5755472 -3.3991914 -1.6667254
3.5798087 -3.4453173 -1.6788325
3.5267982 -3.4362171 -1.6634532
3.5211174 -3.4730582 -1.6709793
3.4930556 -3.4879196 -1.6677071
3.4669375 -3.5045834 -1.6654166
3.4466891 -3.527142 -1.6660709
3.4197333 -3.5427837 -1.6634532
3.4122732 -3.5787494 -1.670652
3.3772957 -3.5858586 -1.6641077
3.3597341 -3.6113577 -1.6663982
3.3311198 -3.6249454 -1.663126
3.3170691 -3.6544144 -1.6673799
3.2926917 -3.6725876 -1.6663982
3.2675898 -3.6898918 -1.6650894
3.2511072 -3.7169859 -1.6683615
3.2300916 -3.7390101 -1.6693431
3.2144468 -3.7673869 -1.6732697
3.1918788 -3.7877622 -1.673597
3.1776421 -3.8181729 -1.6785053
3.1523547 -3.8354082 -1.6775236
3.1162596 -3.8392682 -1.670652
3.0885079 -3.8531547 -1.6683615
3.0689113 -3.8772204 -1.670652
2.0066643 -2.5667682 -1.0865681
1.9874141 -2.5745432 -1.0846047
1.9664266 -2.5799236 -1.0816598
1.9482878 -2.5889199 -1.080351
1.9318025 -2.6000671 -1.0800238
1.9135779 -2.6088228 -1.0787148
1.892549 -2.613625 -1.0757699
1.6540402 -2.3137648 -0.94324666
1.6272887 -2.3061073 -0.93572062
2.8140471 -4.0418234 -1.6637805
2.741581 -3.9896898 -1.6346581
2.7186396 -4.0087833 -1.6356397
2.7223616 -4.0678024 -1.6533095
2.7015152 -4.0907393 -1.6559272
2.6696599 -4.0969448 -1.6516734
2.6470253 -4.1172233 -1.6533095
2.6242425 -4.1373777 -1.6549456
2.6083264 -4.1686244 -1.6611627
2.5737689 -4.170074 -1.6552728
2.5594304 -4.2043548 -1.6627988
2.5394192 -4.2297034 -1.6667254
2.5134184 -4.2452054 -1.6667254
2.4835131 -4.2540183 -1.6641077
2.4691446 -4.2896538 -1.6722882
2.436717 -4.2940378 -1.6680343
2.4107845 -4.3097334 -1.6683615
2.3838391 -4.3236165 -1.6680343
2.3586178 -4.3406534 -1.669016
2.3306022 -4.3525443 -1.6680343
2.3034108 -4.3659272 -1.6677071
2.2748361 -4.3766241 -1.6663982
2.246217 -4.387135 -1.6650894
2.2201064 -4.4025226 -1.6657438
2.1896904 -4.4092908 -1.663126
2.1596901 -4.4167004 -1.6608355
2.13132 -4.4273143 -1.6598538
2.1065412 -4.4454327 -1.6618172
1.4373136 -3.0810442 -1.1356508
