# .PCD v0.7 - Point Cloud Data file format
VERSION 0.7
FIELDS x y z
SIZE 4 4 4
TYPE F F F
COUNT 1 1 1
WIDTH 1546
HEIGHT 1
VIEWPOINT 0 0 0 1 0 0 0
POINTS 1546
DATA ascii
7.6963711 6.6510057 -1.8571671
7.7370362 6.6036568 -1.8571671
7.7729001 6.5522571 -1.8560675
7.8129578 6.5044398 -1.8560675
7.8367753 6.4432664 -1.852219
7.8692942 6.3894825 -1.8505696
7.927525 6.356452 -1.8551513
7.9540467 6.2979255 -1.852219
8.0026083 6.2568741 -1.8546015
8.0330677 6.2016454 -1.8527688
8.0475149 6.1343589 -1.8472708
8.1179914 6.1096945 -1.854968
8.123765 6.0363145 -1.8476374
8.1883926 6.0067067 -1.8540517
8.2131519 5.947701 -1.8513027
8.2742834 5.9149179 -1.8569839
8.3007822 5.8572345 -1.8547847
8.3067179 5.7854023 -1.8480039
8.3752747 5.7571578 -1.8555177
8.4372883 5.7238736 -1.8615656
8.4534616 5.6594162 -1.8573505
8.4839277 5.6047306 -1.8564341
8.5560398 5.5772643 -1.8648643
8.5677767 5.5103021 -1.8599161
8.6039162 5.4592075 -1.860466
8.6555824 5.4177876 -1.8644978
8.628438 5.3273888 -1.8513027
8.692029 5.2932649 -1.8580835
8.7285585 5.242363 -1.8589998
8.7842436 5.2027349 -1.8641312
8.8100595 5.1452675 -1.8628484
8.83039 5.0847354 -1.860466
8.8614225 5.0304575 -1.860466
8.8921223 4.9759903 -1.860466
8.930234 4.9256086 -1.8621154
8.9896545 4.8866854 -1.8683463
9.0324669 4.8383975 -1.8710953
9.0454664 4.7741652 -1.8676133
9.1007557 4.7321796 -1.8731112
9.1278706 4.6753531 -1.8727447
9.1581411 4.6201434 -1.8731112
9.1819162 4.561676 -1.8721949
9.1788263 4.4901304 -1.8657806
9.1752052 4.4187946 -1.8593663
9.2421188 4.3813653 -1.8676133
9.2625923 4.3216643 -1.8663304
9.274641 4.2581854 -1.8633982
9.3194075 4.2096963 -1.8672467
9.3603344 4.1592212 -1.8703623
9.4027939 4.109189 -1.8738443
9.394412 4.037055 -1.8670635
9.393651 3.9686229 -1.861932
9.3996677 3.9033687 -1.8582667
9.4525671 3.8575072 -1.8641312
9.4915695 3.8056548 -1.8672467
9.5138273 3.7469838 -1.8670635
9.5696468 3.7013052 -1.873661
9.5306025 3.6191323 -1.8613822
9.6254005 3.5877128 -1.8758602
9.6620045 3.5339885 -1.8787924
9.6650009 3.4679959 -1.8751272
9.6758976 3.4050372 -1.8731112
9.706831 3.3491304 -1.8751272
9.7504787 3.2973814 -1.8797088
9.7341347 3.225431 -1.8725615
9.7976894 3.1799078 -1.8811749
9.8029633 3.1152639 -1.878426
9.8397284 3.0606039 -1.8819079
9.8470373 2.9967358 -1.8797088
9.8756037 2.9393442 -1.8817247
9.8651361 2.8704526 -1.8762268
9.8995838 2.8147073 -1.8795255
9.9195099 2.7547009 -1.8800753
9.903017 2.6847796 -1.873661
9.9031477 2.6196909 -1.8705455
9.9647264 2.5706661 -1.8793422
9.9755449 2.5082765 -1.878426
10.023212 2.4549732 -1.8846569
10.071556 2.4014072 -1.8910712
10.070779 2.3360093 -1.888139
10.097389 2.276984 -1.8905214
10.091965 2.2107768 -1.8868561
10.181303 2.164968 -1.901334
10.113521 2.0857732 -1.8859398
10.173364 2.0331204 -1.8949198
10.154762 1.9646829 -1.8890553
10.128942 1.8952844 -1.8819079
10.220672 1.8476167 -1.8971189
10.224069 1.7835172 -1.8956529
10.240637 1.7217281 -1.8967525
10.272358 1.6623161 -1.9007843
6.122921 0.95215601 -1.1160432
6.0936456 0.90934289 -1.1094456
0 0 -0
0 0 -0
0 0 -0
0 0 -0
0 0 -0
0 0 -0
0 0 -0
0 0 -0
0 0 -0
0 0 -0
0 0 -0
0 0 -0
0 0 -0
0 0 -0
0 0 -0
0 0 -0
0 0 -0
0 0 -0
0 0 -0
0 0 -0
0 0 -0
0 0 -0
0 0 -0
0 0 -0
0 -0 -0
0 -0 -0
0 -0 -0
0 -0 -0
0 -0 -0
0 -0 -0
0 -0 -0
0 -0 -0
0 -0 -0
0 -0 -0
5.9591231 -0.39761192 -1.0742587
5.9448056 -0.43331215 -1.0720595
5.9488955 -0.47032252 -1.0733424
0 -0 -0
0 -0 -0
5.9646692 -0.58222395 -1.0781072
9.5945482 -0.99576598 -1.7591203
9.3019447 -1.0231388 -1.7054237
9.1792889 -1.0666966 -1.6836151
9.0808477 -1.111774 -1.6663883
9.155757 -1.1780063 -1.6817825
9.1931725 -1.2402066 -1.6902127
9.2223797 -1.3018112 -1.6971767
9.2258883 -1.3600942 -1.699376
9.2163982 -1.4165283 -1.6991926
9.1560841 -1.4648237 -1.6894796
9.1440144 -1.5204933 -1.6889298
9.1025438 -1.5710551 -1.6828821
9.0491867 -1.6190882 -1.6746352
9.0352154 -1.6738663 -1.673902
8.9484997 -1.714662 -1.6594242
8.9368458 -1.7693458 -1.6592408
8.9479733 -1.8286742 -1.663456
8.3805838 -1.7663821 -1.5575287
8.8153419 -1.9145615 -1.6425637
8.89361 -1.9887775 -1.6597906
8.8821974 -2.0435307 -1.659974
8.8599253 -2.0957298 -1.6581413
8.8354359 -2.1472685 -1.6559421
8.8182783 -2.2004893 -1.6552091
7.3665657 -1.8863902 -1.3784788
8.7963161 -2.3100355 -1.6563087
8.7952671 -2.367542 -1.6588744
8.7530909 -2.4138863 -1.6535597
8.7220316 -2.4630077 -1.6504441
8.701088 -2.5148413 -1.6493446
8.6949205 -2.5709698 -1.6511772
7.9920516 -2.4165981 -1.5173937
7.9207187 -2.4481757 -1.5063978
7.8971109 -2.494066 -1.5047485
7.8854017 -2.5436819 -1.5054815
7.8995247 -2.6018577 -1.511346
8.5953302 -2.8895769 -1.6513605
8.5951061 -2.9483221 -1.6548425
8.6121149 -3.013341 -1.6618066
8.5619822 -3.0548966 -1.6555756
8.5282946 -3.1019986 -1.6526433
8.4906654 -3.1474357 -1.648978
8.4371653 -3.1866241 -1.6421973
7.5861783 -2.9185705 -1.4761591
8.416647 -3.2974508 -1.6460458
8.3907776 -3.3468473 -1.6449462
8.3564205 -3.3927226 -1.6421973
8.3209085 -3.4379272 -1.6392649
8.2978449 -3.4881568 -1.6388985
8.2627268 -3.5332086 -1.6361495
8.2147474 -3.572473 -1.6308348
8.1764889 -3.6156549 -1.6275361
8.1568394 -3.666966 -1.6280859
8.1252451 -3.7128608 -1.6262531
8.0844774 -3.7543662 -1.6225879
8.0408401 -3.7942529 -1.6183728
7.9349647 -3.8040009 -1.6013291
7.9415259 -3.8672495 -1.6075602
7.9564199 -3.9350791 -1.6156238
8.0278826 -4.0319123 -1.6355997
8.0406513 -4.1002965 -1.6434801
7.9978805 -4.1405177 -1.6398147
8.0106144 -4.2096334 -1.6478784
7.9733577 -4.2526927 -1.645496
7.931551 -4.2931137 -1.6421973
7.8533592 -4.3133073 -1.6312013
7.8241692 -4.3599782 -1.6306515
7.7467771 -4.3793631 -1.6198388
7.7521672 -4.4453955 -1.6268029
7.7085986 -4.4834881 -1.6233209
7.6843305 -4.5327005 -1.624054
7.6673412 -4.5863252 -1.6264365
7.5743322 -4.5940323 -1.6123251
7.6171818 -4.6841893 -1.6279025
7.5857944 -4.729279 -1.6273527
7.5366883 -4.7631321 -1.6229544
7.4973869 -4.8029237 -1.6207552
7.465302 -4.8472304 -1.6202054
7.4304919 -4.8897033 -1.6191058
7.4068923 -4.9395671 -1.620572
7.343863 -4.9629059 -1.6132413
7.3189511 -5.0117612 -1.6145242
7.2767534 -5.0487299 -1.6119585
7.2239227 -5.078021 -1.6070104
7.1894255 -5.1199698 -1.6062772
7.1395373 -5.1507587 -1.6020622
7.1220856 -5.2049093 -1.605361
7.0947556 -5.2520208 -1.6064606
7.0270019 -5.268918 -1.5982136
7.001586 -5.3172865 -1.5998629
6.9555807 -5.3499589 -1.5967475
6.9296031 -5.3979735 -1.5983969
6.8909483 -5.4361296 -1.597114
6.8497825 -5.4721737 -1.5952814
6.8198986 -5.5171914 -1.5961977
6.7737489 -5.5489664 -1.5932654
6.7675705 -5.613646 -1.6000463
6.6780438 -5.6089129 -1.5866679
6.6667185 -5.6695247 -1.5923492
6.6385102 -5.7160969 -1.5939986
6.604053 -5.7573686 -1.5941818
6.5803952 -5.8081899 -1.597114
6.5079803 -5.8157063 -1.5879507
6.4845667 -5.8667407 -1.5910662
6.4419222 -5.9004431 -1.5894169
6.3947835 -5.9298329 -1.5866679
6.3783474 -5.9877977 -1.5917994
6.3087068 -5.9956708 -1.5833691
6.2611723 -6.024044 -1.5806202
6.2135282 -6.0520601 -1.5778712
6.1909771 -6.1045661 -1.5817198
6.157578 -6.146605 -1.5828193
6.0920873 -6.156322 -1.5754887
6.06107 -6.2006164 -1.5773214
6.0037889 -6.2178888 -1.5721899
5.9628096 -6.2517648 -1.5714569
5.9270339 -6.2910962 -1.5721899
5.8843021 -6.3230276 -1.5710903
2.2247157 -2.4205644 -0.57376176
2.2104824 -2.4348972 -0.57394505
2.1974697 -2.4506102 -0.57449484
5.6771598 -6.4088721 -1.5569789
5.6862807 -6.4990726 -1.5707239
5.6597953 -6.5494599 -1.5745724
5.6112051 -6.5743442 -1.5721899
5.5618892 -6.5981274 -1.5696243
5.50809 -6.6162653 -1.5657756
5.458024 -6.6385474 -1.5630267
5.3899217 -6.6383338 -1.554963
5.4167376 -6.7556438 -1.5751222
5.4026465 -6.8234348 -1.5833691
2.0132601 -2.5754244 -0.57027972
1.9950165 -2.5846164 -0.56954664
1.9773321 -2.5944636 -0.56899685
1.9560549 -2.5994785 -0.56734747
1.9347908 -2.6043303 -0.56569809
1.7902634 -2.44098 -0.52519649
1.7712158 -2.4463456 -0.52391368
1.7481678 -2.4459715 -0.52134794
4.8902574 -6.930512 -1.5421345
4.8836002 -7.0120144 -1.5538634
4.8031702 -6.9875708 -1.5415847
4.7706914 -7.0323672 -1.5450667
4.7083092 -7.032917 -1.5386524
4.6964979 -7.1092467 -1.5492818
4.6479564 -7.130518 -1.5476325
4.6179438 -7.1804004 -1.5523974
4.580646 -7.2193909 -1.5547798
4.5440865 -7.25986 -1.5575287
4.4886088 -7.27004 -1.5536802
4.4546547 -7.3150764 -1.5575287
1.7324662 -2.8850877 -0.58823973
1.715232 -2.8965094 -0.58842295
1.6984187 -2.9086771 -0.58878952
4.211978 -7.3148565 -1.5344373
4.2102118 -7.4166489 -1.550748
4.1665454 -7.4457741 -1.551481
4.1065359 -7.4453754 -1.5459831
4.0471578 -7.4453859 -1.5406684
4.0009336 -7.4692121 -1.5404851
3.9646649 -7.5118775 -1.5443337
3.9212196 -7.541296 -1.5454333
3.8735287 -7.5625892 -1.5448835
3.8235099 -7.5791931 -1.5434173
3.7773705 -7.6033912 -1.5436006
3.7332377 -7.6317239 -1.5447001
3.685487 -7.6527157 -1.5443337
3.6359346 -7.6698556 -1.5432341
3.5929615 -7.7009296 -1.5450667
3.5472829 -7.7264042 -1.5457997
3.4868565 -7.7193561 -1.5399354
3.4338367 -7.7280288 -1.5373696
3.3843853 -7.7444491 -1.5364532
3.3317564 -7.7533278 -1.5340708
3.2875636 -7.781775 -1.5357202
3.2389996 -7.7999849 -1.5353537
3.1951652 -7.8297243 -1.5373696
3.1408427 -7.8336706 -1.5342541
3.0844305 -7.8317575 -1.530039
3.0370271 -7.8523698 -1.5304055
2.9943731 -7.885561 -1.5333377
2.9527993 -7.9222083 -1.537003
2.9010947 -7.9318686 -1.5353537
2.8566875 -7.9615483 -1.5377362
2.808109 -7.9798541 -1.5379194
2.7587721 -7.9960051 -1.5377362
2.7109175 -8.0165071 -1.5384692
2.6449788 -7.9825993 -1.5285729
2.6117313 -8.0473003 -1.5381026
2.5566473 -8.045373 -1.5346206
2.4981811 -8.0318098 -1.5289394
2.4617331 -8.0893078 -1.5371864
2.3999913 -8.0637465 -1.5293059
2.3559618 -8.0971985 -1.5329713
2.3108051 -8.1275768 -1.5360868
2.258261 -8.1321306 -1.5342541
2.1964862 -8.1021891 -1.525824
2.1454735 -8.1107616 -1.5249076
2.1032803 -8.1532822 -1.5305887
2.0474589 -8.1431532 -1.5261904
2.0086823 -8.201395 -1.5349871
1.9514804 -8.1848774 -1.5294892
1.8923354 -8.1583929 -1.5221586
1.8359684 -8.1420403 -1.5168439
1.7851336 -8.1493111 -1.5161109
1.7383689 -8.1754961 -1.5190431
1.687775 -8.184083 -1.5186765
1.6338656 -8.1759691 -1.5151945
1.5814267 -8.1742582 -1.5129954
1.5267195 -8.1596508 -1.5084137
0.46667075 -2.5832276 -0.45024109
0.44979772 -2.5802319 -0.4491415
1.3761053 -8.185401 -1.5082304
1.324284 -8.1839857 -1.5063978
1.2495615 -8.0345936 -1.4767089
1.1807876 -7.9118233 -1.4521513
1.1042423 -7.7233143 -1.415315
1.0568321 -7.7299447 -1.415315
1.0175253 -7.7986708 -1.427044
0.96795684 -7.7911096 -1.4244783
0.91471589 -7.7510166 -1.4158648
0.86604661 -7.7467136 -1.4140322
0.81911701 -7.7577477 -1.4151318
0.7693609 -7.741106 -1.4110999
0.72166532 -7.7437234 -1.4107335
0.67405188 -7.7470264 -1.4105501
0.62610805 -7.7461171 -1.4096339
0.57373327 -7.685111 -1.3975383
0.5268364 -7.69241 -1.3982714
0.4788923 -7.6837239 -1.3960723
0.42886743 -7.635479 -1.3865424
0.38141903 -7.6261849 -1.3843433
0.33341077 -7.6008821 -1.3792118
0.28817636 -7.6401148 -1.3861759
0.24352962 -7.7124844 -1.399371
0.19795544 -7.7826257 -1.4121995
0.15147257 -7.8495464 -1.4244783
0.10552639 -8.0184174 -1.4558166
0.057680376 -8.2106066 -1.4915533
0.0074060122 -8.3238583 -1.5126288
-0.043847203 -8.3581533 -1.5190431
-0.095175609 -8.361659 -1.5197761
-0.14630827 -8.3510885 -1.5179435
-0.19794129 -8.3667412 -1.521059
-0.2496842 -8.3791256 -1.5236247
-0.30105758 -8.3764534 -1.5234414
-0.35315078 -8.3911467 -1.526557
-0.40098795 -8.3132133 -1.5124456
-0.45257607 -8.321394 -1.5144615
-0.50273621 -8.3037415 -1.5117124
-0.55675048 -8.3466024 -1.5203259
-0.607454 -8.3361654 -1.5190431
-0.66230816 -8.3793221 -1.5278398
-0.71279258 -8.3643255 -1.525824
-0.76168698 -8.3333616 -1.5208757
-0.81404591 -8.3412504 -1.5232582
-0.86389279 -8.3233871 -1.5208757
-0.91655946 -8.3325872 -1.5236247
-0.96404016 -8.2955589 -1.5177603
-1.0157585 -8.2963181 -1.5190431
-1.0690274 -8.3084545 -1.5225251
-1.124717 -8.336812 -1.5291227
-1.1780473 -8.3453283 -1.5320549
-1.2276545 -8.3272448 -1.530039
-1.2769347 -8.3078957 -1.5278398
-1.3330106 -8.3319378 -1.5338875
-1.3747591 -8.2673559 -1.5232582
-1.4296396 -8.2829838 -1.5278398
-1.4818209 -8.2817974 -1.5293059
-1.5290285 -8.2532167 -1.5256406
-1.5774209 -8.2320929 -1.5234414
-1.633629 -8.2511902 -1.5289394
-0.6124801 -2.9956179 -0.53087771
-0.62861961 -2.9812219 -0.52886182
-0.64919478 -2.9878762 -0.53087771
-0.66773033 -2.9847958 -0.53106099
-0.68470991 -2.9748943 -0.52996141
-0.70000941 -2.9582002 -0.52757895
-0.71698684 -2.9490731 -0.52666265
-0.73435462 -2.9417567 -0.52611285
-2.1050951 -8.2208214 -1.5428675
-2.1500051 -8.1868315 -1.5388358
-0.78199112 -2.9040091 -0.52153122
-0.79901117 -2.8963132 -0.52098143
-0.81463063 -2.8837874 -0.51951528
-0.99251199 -3.4331095 -0.62709188
-1.0525774 -3.5589368 -0.652749
-2.459271 -8.1332016 -1.5448835
-2.5134828 -8.1320477 -1.5476325
-2.5506043 -8.0761623 -1.539752
-1.0370033 -3.213928 -0.5904389
-1.0551665 -3.2028358 -0.58952254
-2.6872389 -7.9933677 -1.5329713
-1.0953476 -3.1924357 -0.59007233
-1.121408 -3.2042131 -0.59373766
-2.8454764 -7.974957 -1.5393856
-2.9071238 -7.9924541 -1.5463495
-1.1596979 -3.1277218 -0.58274174
-1.1674064 -3.090198 -0.57669401
-1.194816 -3.1049974 -0.58109236
-1.2299808 -3.1387978 -0.58933932
-1.274709 -3.1951103 -0.60216784
-3.2322433 -7.9611025 -1.5626602
-3.2592607 -7.888422 -1.5520308
-3.3159819 -7.8882132 -1.5560626
-3.363934 -7.8668141 -1.5558794
-3.4313493 -7.8901997 -1.5648594
-1.3099537 -2.9617114 -0.5645985
-1.3123831 -2.9186487 -0.55745119
-1.3302668 -2.9105413 -0.55745119
-3.576339 -7.7010765 -1.5437839
-3.6419818 -7.7181067 -1.5518476
-3.6918201 -7.7009335 -1.5529472
-3.7398634 -7.6799035 -1.5533136
-3.7956314 -7.6744356 -1.5569789
-3.8519142 -7.6694503 -1.5608275
-3.8966677 -7.6412921 -1.5599113
-3.9470959 -7.6242232 -1.5613773
-4.0038629 -7.6190062 -1.5654092
-4.0449853 -7.5838861 -1.56321
-4.0993977 -7.5736217 -1.5663254
-4.1457915 -7.5483255 -1.5663254
-4.1676264 -7.4789486 -1.5569789
-4.2274666 -7.4780545 -1.5622936
-4.2762051 -7.4570913 -1.5633932
-4.309031 -7.4086175 -1.5586283
-4.354908 -7.382885 -1.5588117
-4.4011354 -7.3577123 -1.5591781
-4.44314 -7.3255258 -1.5580785
-4.493669 -7.3073368 -1.5600945
-4.5467424 -7.2929745 -1.5630267
-4.6019087 -7.2815595 -1.566692
-4.6480918 -7.2556691 -1.5672418
-4.7037659 -7.2443275 -1.5710903
-4.7573137 -7.2292905 -1.5742059
-4.8217621 -7.230226 -1.5809867
-4.856678 -7.1866574 -1.5778712
-4.9067926 -7.1656446 -1.5798872
-4.90696 -7.0723996 -1.5655924
-4.9796586 -7.0839801 -1.5751222
-5.0224609 -7.0524912 -1.5749389
-5.0869198 -7.0510402 -1.5817198
-5.1353083 -7.0268383 -1.5833691
-5.1783276 -6.9951963 -1.5833691
-5.2229209 -6.9656506 -1.5839189
-5.2857766 -6.9600916 -1.59015
-5.319993 -6.9166179 -1.5875843
-5.3502507 -6.8683338 -1.5839189
-5.3880315 -6.8299732 -1.5826361
-5.4402685 -6.8098416 -1.5857515
-5.449183 -6.7358241 -1.5760385
-5.5365076 -6.7585392 -1.5896001
-3.3857 -4.0814042 -0.9494552
-5.6101775 -6.6795492 -1.5870345
-3.5941005 -4.2260275 -0.99508822
-3.6238117 -4.2083645 -0.99618781
-3.5894904 -4.1171336 -0.97914416
-3.6992507 -4.1908493 -1.0029685
-3.7478211 -4.1937289 -1.0093828
-3.8513041 -4.2566786 -1.0310081
-3.703392 -4.0430274 -0.98299271
-3.8725038 -4.1759362 -1.022578
-3.9007452 -4.1549635 -1.023311
-3.9336152 -4.1387897 -1.025327
-4.0216393 -4.1797528 -1.0421873
-4.0142875 -4.1211934 -1.0333906
-4.0063696 -4.0628834 -1.0245938
-4.0485854 -4.0556188 -1.0291755
-4.1635308 -4.1199055 -1.0528167
-3.4871733 -3.4084473 -0.86991817
-3.5087285 -3.3876691 -0.87010139
-3.4220359 -3.263618 -0.84242839
-3.4284022 -3.2297506 -0.83894634
-4.22966 -3.9360013 -1.0379722
-3.4974504 -3.2147138 -0.84646022
-3.5171096 -3.1931932 -0.84646022
-3.5615184 -3.1938698 -0.85269123
-3.4015043 -3.0128961 -0.80797452
-3.4169676 -2.9893787 -0.8072415
-3.7149079 -3.2100523 -0.87614918
-3.7195802 -3.174433 -0.87248385
-3.7788236 -3.1851327 -0.8821969
-4.034008 -3.3581374 -0.93937564
-4.3749762 -3.5968025 -1.0167135
-4.3801737 -3.5562572 -1.0126816
-4.3328876 -3.4739642 -0.99618781
-4.4157777 -3.496135 -1.010849
-4.4263048 -3.4604971 -1.0082833
-4.4560142 -3.4398811 -1.0102992
-4.4715643 -3.4083028 -1.0090164
-4.4994621 -3.3861222 -1.0106658
-4.5051622 -3.3473098 -1.0071837
-4.5834785 -3.3620529 -1.0205621
-4.4885736 -3.2502556 -0.99398863
-4.5684109 -3.2655325 -1.0077335
-4.4815354 -3.1620541 -0.98335922
-4.503273 -3.1361821 -0.98390901
-4.5815692 -3.1491458 -0.99728739
-4.6154485 -3.1309094 -1.0005862
-4.5488009 -3.0451031 -0.98134333
-4.5518155 -3.0068388 -0.97786129
-4.6533556 -3.0330758 -0.99637103
-4.5685282 -2.9379914 -0.97346294
-4.6254816 -2.9346597 -0.98207641
-4.765058 -2.9823785 -1.0088331
-4.7489734 -2.9319084 -1.0013192
-4.7206955 -2.8745899 -0.99123961
-4.8140903 -2.8911271 -1.0077335
-4.8452725 -2.86955 -1.0106658
-4.8568463 -2.8362954 -1.0093828
-4.87501 -2.8069315 -1.0095662
-4.8810277 -2.7706566 -1.0071837
-4.8902154 -2.7363341 -1.0055343
-4.843215 -2.6711397 -0.99197268
-4.8033738 -2.6108522 -0.98006046
-4.916357 -2.6333234 -1.0005862
-4.8802595 -2.5755737 -0.98959023
-4.8942266 -2.5446734 -0.98922372
-4.8992491 -2.5092168 -0.98702455
-4.9242072 -2.4839792 -0.98904043
-5.0221119 -2.4948363 -1.0062674
-5.0231967 -2.457062 -1.0033351
-4.9690952 -2.3929198 -0.98904043
-5.0849485 -2.4103959 -1.0099326
-5.0925159 -2.3758242 -1.0084666
-5.1150384 -2.3482244 -1.010116
-5.140101 -2.3216517 -1.0123152
-5.1362829 -2.2820845 -1.0086498
-5.1646013 -2.256825 -1.011582
-5.1485467 -2.2122836 -1.0055343
-5.2290344 -2.2089648 -1.0190959
-5.2406745 -2.1760843 -1.0187294
-5.2894249 -2.1583748 -1.0258768
-5.2313986 -2.0973399 -1.011582
-5.115201 -2.0144019 -0.98574167
-5.4107747 -2.0925674 -1.0423706
-5.4951959 -2.0865524 -1.0566653
-5.408412 -2.0157101 -1.0368726
-5.3449731 -1.9547933 -1.0218449
-5.3874016 -1.9329181 -1.0278927
-5.4223428 -1.9079845 -1.0324743
-5.4646144 -1.8852599 -1.038522
-5.5421977 -1.8740566 -1.0515338
-5.4173512 -1.7948654 -1.0247772
-5.6349053 -1.8286678 -1.0652788
-5.7931104 -1.840808 -1.0940514
-5.7986641 -1.8034755 -1.0929518
-5.8350134 -1.7755903 -1.0978999
-5.8344922 -1.7363882 -1.0957007
-6.1291523 -1.783237 -1.1508635
-6.2922163 -1.7888871 -1.1803693
-6.2017231 -1.7220951 -1.1607598
-6.3450055 -1.7200271 -1.186417
-6.4001069 -1.6928802 -1.1950305
-6.8263493 -1.7609073 -1.2751173
-7.1154118 -1.7889981 -1.3286307
-7.1243453 -1.7448373 -1.3282641
-7.7488284 -1.8474933 -1.4459203
-7.7973661 -1.8085772 -1.4530677
-8.0940914 -1.8251538 -1.5076807
-8.3471289 -1.8284764 -1.5538634
-9.0582047 -1.9261051 -1.6872804
-9.099699 -1.8766454 -1.6929617
-9.1756306 -1.8336858 -1.7052404
-9.3691235 -1.8126504 -1.7398775
-9.6071472 -1.7976274 -1.7829448
-10.017523 -1.8108847 -1.8586333
-10.386765 -1.811905 -1.9264414
-10.465549 -1.7595509 -1.9392699
-10.473237 -1.6948313 -1.9387201
-10.505781 -1.6340125 -1.9429352
-10.556446 -1.5756161 -1.9506323
-10.503633 -1.5019052 -1.9389035
-10.4883 -1.4340974 -1.9343218
-10.495928 -1.3695883 -1.9341385
-10.481696 -1.3023719 -1.9299234
-10.485584 -1.2375718 -1.9291904
-10.495912 -1.173538 -1.9297402
-10.499004 -1.1087011 -1.9290071
-10.447893 -1.0385203 -1.9181944
-10.524544 -0.9809652 -1.9313896
-10.553869 -0.91841561 -1.9357879
-10.523051 -0.85070866 -1.9290071
-10.523171 -0.78575826 -1.9280908
-10.524852 -0.72097284 -1.927541
-10.507492 -0.65503353 -1.9235091
-10.535851 -0.59192795 -1.9280908
-10.542231 -0.52741754 -1.9286406
-10.559018 -0.46332553 -1.9312062
-10.562645 -0.39856499 -1.9313896
-10.550153 -0.33328018 -1.9286406
-9.88346 0.72636676 -1.931929
-9.8817501 0.78723085 -1.9325143
-9.8738022 0.8475973 -1.931929
-9.8625555 0.90762591 -1.9307585
-9.8421602 0.96668458 -1.9278321
-9.7628832 1.0194088 -1.9132004
-9.7759409 1.0814526 -1.9171021
-9.778862 1.1425557 -1.9190531
-9.7755613 1.2030158 -1.9198334
-9.743679 1.2598279 -1.9149562
-9.7717247 1.3244685 -1.9221745
-9.7566166 1.3834372 -1.9208089
-9.7537661 1.4441391 -1.9219794
-9.692379 1.4958755 -1.9114445
-9.6839867 1.5554743 -1.9116396
-9.653945 1.6114713 -1.9075427
-9.659338 1.6733569 -1.9106642
-9.6730213 1.7369304 -1.9155414
-9.6563959 1.795174 -1.9143709
-9.6480885 1.8549466 -1.9149562
-9.6038189 1.9076105 -1.908323
-9.6178741 1.9718242 -1.9135906
-9.598877 2.0293803 -1.9122249
-9.5603704 2.0826001 -1.9069575
-9.5866489 2.1500268 -1.9149562
-9.5503397 2.2035143 -1.910274
-9.5251884 2.2593548 -1.9079329
-9.4911356 2.3128791 -1.903836
-9.4539309 2.365356 -1.8991538
-9.4810371 2.4340558 -1.9077379
-9.4450579 2.4866884 -1.9034458
-9.4286757 2.5443397 -1.9032507
-9.4242296 2.6052823 -1.9055918
-9.4278841 2.6686714 -1.9096887
-9.3689413 2.7141833 -1.9009097
-9.369977 2.7769163 -1.9046164
-9.3208494 2.824682 -1.8979833
-9.2986574 2.8803687 -1.8970078
-9.3060551 2.9453638 -1.9022753
-9.3064718 3.008445 -1.906177
-9.284111 3.0642617 -1.9053967
-9.2298164 3.109268 -1.8979833
-9.2077827 3.1648858 -1.897398
-9.1743069 3.216455 -1.8944716
-9.1968794 3.2878795 -1.9034458
-9.1848259 3.3472722 -1.9052017
-9.1935339 3.4144967 -1.9114445
-9.1705761 3.4701486 -1.9110544
-9.1015244 3.5080051 -1.9009097
-9.0853062 3.5659356 -1.9020802
-9.0960407 3.6347206 -1.9091034
-9.0217848 3.6693957 -1.8979833
-9.0498457 3.7456939 -1.9089084
-8.9769802 3.7802114 -1.8981783
-8.9527149 3.8348355 -1.8979833
-8.9568892 3.9018424 -1.9040312
-8.907671 3.9456024 -1.8985686
-8.8895531 4.0030041 -1.8999342
-8.882659 4.06564 -1.903836
-8.8237543 4.1043439 -1.8964226
-8.8152523 4.1663728 -1.9001293
-8.7594624 4.205946 -1.8934963
-8.7599344 4.2725158 -1.899349
-8.7449789 4.3318462 -1.9018852
-8.7191105 4.3858633 -1.9020802
-8.6736937 4.4299102 -1.8979833
-8.655055 4.4875631 -1.8999342
-8.6455822 4.5501795 -1.9040312
-8.588089 4.5874271 -1.897398
-8.5278778 4.6227388 -1.8901796
-8.5371628 4.6957803 -1.8987637
-8.4619436 4.7222605 -1.8882288
-8.4720678 4.7963247 -1.897203
-8.4382257 4.8457751 -1.8962275
-8.4142666 4.9009161 -1.8975931
-8.3426609 4.9280057 -1.8880337
-8.2945986 4.9685163 -1.8839368
-8.3326893 5.0610762 -1.8999342
-8.2254868 5.0653005 -1.8821809
-8.1959152 5.1167145 -1.8825712
-8.1917124 5.1842189 -1.8890091
-8.1341591 5.2179651 -1.8829614
-8.132411 5.2875619 -1.8901796
-8.0719709 5.3190103 -1.8835466
-8.0432606 5.3711624 -1.8845221
-7.9987807 5.4127173 -1.8817908
-7.987257 5.4766731 -1.8870583
-7.9245076 5.5054297 -1.880035
-7.903409 5.562984 -1.8831564
-7.8531566 5.5999832 -1.8792546
-7.8202381 5.6492124 -1.8796448
-7.7965078 5.7052002 -1.8823761
-7.7692332 5.7587729 -1.8843269
-7.7172823 5.7939672 -1.8802301
-7.6940761 5.8507109 -1.8833516
-7.6393847 5.8834457 -1.8786694
-7.5954075 5.9241762 -1.8767184
-7.5458317 5.9603329 -1.8734019
-7.5014596 6.0003939 -1.871451
-7.4873624 6.0648317 -1.8773037
-7.4674482 6.1249671 -1.8817908
-7.38446 6.1330676 -1.8700854
-7.4127388 6.2338209 -1.8872533
-7.3668823 6.2728276 -1.8853024
-7.3133993 6.3051019 -1.8814006
-7.2856565 6.3595328 -1.8843269
-7.2604599 6.4164591 -1.8880337
-7.2406855 6.4785476 -1.8933011
-7.2451329 6.563025 -1.9052017
-7.1844893 6.5887928 -1.8997391
-7.1245217 6.6147318 -1.8944716
-7.1088104 6.6818361 -1.9012998
-7.0769134 6.7341194 -1.903836
-6.9831963 6.7270565 -1.8893993
-6.9551277 6.7827902 -1.893106
-6.9315228 6.843256 -1.8981783
-6.9240842 6.9203291 -1.9079329
-6.8932109 6.9745445 -1.9112494
-6.8571367 7.0237279 -1.9132004
-6.8179951 7.0699067 -1.9143709
-6.7325501 7.0675735 -1.9022753
-6.697794 7.1180377 -1.9048115
-6.6579981 7.1633115 -1.905982
-6.6112666 7.201139 -1.9052017
-6.5682745 7.2430224 -1.9055918
-6.5328684 7.2934175 -1.908323
-6.5016398 7.3487926 -1.91242
-6.472558 7.4070129 -1.9172972
-6.404562 7.4205985 -1.9104691
-6.3652711 7.4672213 -1.91242
-6.3401752 7.5308995 -1.9188579
-6.3320913 7.6156683 -1.9307585
-6.2634625 7.6278458 -1.9239303
-6.2208643 7.6714673 -1.9252959
-6.1657076 7.6995401 -1.9227598
-6.1207809 7.7403045 -1.9235401
-6.0804143 7.7869925 -1.9258813
-6.0421004 7.8365836 -1.9290026
-5.9927144 7.8719487 -1.9286125
-5.9401755 7.9030824 -1.9272468
-5.886312 7.9322929 -1.9254911
-5.8427453 7.9753823 -1.9272468
-5.7982965 8.0174408 -1.9288076
-5.7529817 8.0584564 -1.9301732
-5.6881762 8.0719557 -1.9249058
-5.671577 8.1542149 -1.9364161
-5.6103373 8.1726885 -1.9325143
-5.5611849 8.2085829 -1.9329045
-5.5134382 8.2466288 -1.93388
-5.4638143 8.2819405 -1.9342701
-5.423594 8.3317509 -1.9381719
-5.3787279 8.3747759 -1.940513
-5.3261905 8.4059649 -1.9401228
-5.264637 8.4226837 -1.9364161
-5.2216063 8.4690218 -1.9397327
-5.1736188 8.5076065 -1.9412934
-5.1182938 8.5341444 -1.9401228
-5.0658326 8.5653887 -1.9401228
-5.0186152 8.6056309 -1.9422688
-4.9686503 8.6413641 -1.9434394
-4.9300408 8.6972876 -1.9492921
-4.8832788 8.7393618 -1.9520233
-4.8432817 8.794076 -1.9576809
-4.770988 8.7900085 -1.9500724
-4.7225137 8.8294964 -1.9524136
-4.6709909 8.863513 -1.9535841
-4.6368494 8.93118 -1.9623631
-4.5721388 8.9402514 -1.9580711
-4.5335174 9.0005484 -1.9652895
-4.4934564 9.0589504 -1.9721177
-4.4227257 9.0555038 -1.9652895
-4.3653793 9.0789347 -1.9645091
-4.3012004 9.0878181 -1.9606073
-4.2557082 9.1362667 -1.9654845
-4.1963005 9.1550741 -1.9639238
-4.1485119 9.1994267 -1.9680207
-4.1043124 9.2525024 -1.9740685
-4.0560884 9.2972898 -1.9783605
-4.0005112 9.3256083 -1.9791409
-3.9512167 9.3689585 -1.9832377
-3.8974102 9.4020863 -1.9851887
-3.8414962 9.4303656 -1.9861641
-3.769716 9.4191561 -1.9787507
-3.7053931 9.4256783 -1.975239
-3.6591413 9.4784317 -1.9816771
-3.6089065 9.5218 -1.9861641
-3.5514393 9.5465221 -1.9867494
-3.4874167 9.5533924 -1.9836279
-3.422452 9.557066 -1.9799212
-3.3695943 9.5945435 -1.9834329
-3.3167248 9.632659 -1.9871396
-3.259125 9.6574755 -1.9881151
-3.2071936 9.6996403 -1.9927973
-3.1436903 9.7070065 -1.9902611
-3.0855517 9.7307882 -1.9912364
-3.0254962 9.748601 -1.9910414
-2.9659078 9.7679195 -1.9912364
-2.9022889 9.7737112 -1.9887003
-2.8458171 9.8035803 -1.9912364
-2.7917628 9.8425598 -1.9957236
-2.7250359 9.8368196 -1.9910414
-2.6679542 9.8656635 -1.9935776
-2.6056185 9.8752098 -1.9922119
-2.5488851 9.906209 -1.9953333
-2.4966381 9.9559116 -2.0023565
-2.4248025 9.9272137 -1.9933825
-2.3788111 10.004884 -2.0062585
-2.3094249 9.98489 -1.9992352
-2.246825 9.9931307 -1.9980646
-2.1846294 10.002896 -1.9972843
-2.1167068 9.9854088 -1.9910414
-2.0587533 10.014541 -1.9943579
-1.9963089 10.022176 -1.9933825
-1.9364467 10.042903 -1.9951383
-1.869398 10.02567 -1.9892856
-1.8147964 10.075563 -1.9970891
-1.7455555 10.043991 -1.9885052
-1.6798466 10.030329 -1.9836279
-1.6241963 10.077243 -1.9910414
-1.5662332 10.11222 -1.9961138
-1.5127999 10.179849 -2.0078192
-1.4483755 10.175344 -2.0050879
-1.3876313 10.196674 -2.0076241
-1.3321055 10.259464 -2.0185492
-1.2616768 10.207094 -2.0064535
-1.1997088 10.220489 -2.0076241
-1.128206 10.1487 -1.9918218
-1.0700043 10.194448 -1.9996253
-1.0030032 10.155924 -1.9906512
-0.94608629 10.220484 -2.0023565
-0.88133359 10.202645 -1.9976745
-0.81816667 10.201017 -1.9963088
-0.75606507 10.212692 -1.9976745
-0.69398361 10.225945 -1.9994303
-0.63134593 10.231969 -1.9998205
-0.56855184 10.235651 -1.9998205
-0.50481915 10.220334 -1.9961138
-0.44387391 10.264394 -2.0043075
-0.3791807 10.220859 -1.9951383
-0.31576413 10.200446 -1.9906512
-0.25360537 10.21984 -1.9941628
-0.19147533 10.252584 -2.0004058
-0.12838028 10.238854 -1.9974793
-0.065898828 10.294373 -2.0084045
-0.0027250159 10.245543 -1.99865
0.060128774 10.243406 -1.9982598
0.12320583 10.261477 -2.0019665
0.18580869 10.240916 -1.9980646
0.24849875 10.233701 -1.9968941
0.31209514 10.258451 -2.0021615
0.37409925 10.230861 -1.9970891
0.43724525 10.237191 -1.998845
0.49981138 10.229418 -1.9978695
0.56294638 10.233013 -1.9992352
0.6245845 10.210767 -1.9955285
0.68689483 10.201849 -1.994553
0.74890327 10.189617 -1.9929923
0.8114115 10.184831 -1.9929923
0.87380517 10.178683 -1.9927973
0.93858379 10.198523 -1.9978695
1.002103 10.202332 -1.9998205
1.0595858 10.147218 -1.9900659
1.1175098 10.101532 -1.9822624
1.182205 10.117865 -1.9869444
1.2469028 10.131836 -1.9912364
1.3053966 10.095787 -1.9855789
1.3710103 10.114799 -1.9910414
1.4370441 10.134357 -1.996699
1.4889932 10.056465 -1.9828476
1.5542636 10.070403 -1.9875298
1.6130676 10.042278 -1.9838231
1.6875833 10.109582 -1.9994303
1.739866 10.042987 -1.9881151
1.8033639 10.042741 -1.9902611
1.8566998 9.9871311 -1.9812869
1.9199829 9.986145 -1.9834329
1.9789263 9.9626331 -1.9810917
2.0433691 9.9666357 -1.9844083
2.1081386 9.9711828 -1.9879199
2.1619704 9.9245195 -1.9810917
2.2204633 9.9005404 -1.9789457
2.2842586 9.9001083 -1.9816771
2.3456409 9.8887691 -1.9822624
2.4023237 9.8579912 -1.9789457
2.4689584 9.8678026 -1.9840181
2.5245795 9.8334684 -1.9801164
2.5808718 9.802618 -1.9769949
2.6432717 9.7951193 -1.9787507
2.706461 9.79006 -1.9810917
2.7616704 9.7562828 -1.9775802
2.8135641 9.7118359 -1.9719225
2.8783991 9.7122555 -1.9756292
2.9319623 9.6746998 -1.9715323
2.9967861 9.6743279 -1.975239
3.0557942 9.6548223 -1.975044
3.0935502 9.5696335 -1.9611926
3.1466749 9.5337076 -1.9576809
3.2220273 9.5644102 -1.9682158
3.2682149 9.5082874 -1.9606073
3.3213017 9.4732475 -1.9574858
3.3737512 9.4369907 -1.9541693
3.4554434 9.481535 -1.9680207
3.5115066 9.4546385 -1.9668502
3.5611198 9.4109001 -1.962168
3.6106815 9.3678246 -1.9576809
3.6670182 9.3427544 -1.9570956
3.7392008 9.3574181 -1.9650943
3.7943289 9.3288469 -1.9639238
3.84512 9.2899847 -1.9606073
3.9039536 9.2707367 -1.9615828
3.9549699 9.2330847 -1.9586564
4.0178175 9.2230301 -1.9617778
4.0644002 9.175786 -1.9569006
4.1182084 9.1453085 -1.9557301
4.1677132 9.1055994 -1.9526086
4.2110929 9.0531788 -1.9467559
4.2665625 9.0271692 -1.9467559
4.3138041 8.9840221 -1.9430492
4.3701377 8.9600286 -1.9436344
4.4189367 8.920742 -1.9409032
4.4625692 8.8715563 -1.9360259
4.5236135 8.8571091 -1.9389523
4.5774226 8.8283148 -1.9387572
4.619627 8.7774982 -1.9336848
4.6724734 8.7472572 -1.9332947
4.7157726 8.6994543 -1.9290026
4.7685895 8.6694956 -1.9288076
4.8269534 8.6494932 -1.9309536
4.885251 8.6291008 -1.9330995
4.9366407 8.5964117 -1.9325143
4.9818883 8.5532475 -1.929588
5.0262938 8.5090075 -1.9264665
5.0552211 8.4393063 -1.9174924
5.1313524 8.4483633 -1.9268566
5.1892667 8.4267397 -1.9291978
5.2377572 8.3897486 -1.9280272
5.2823176 8.3466797 -1.9254911
5.3170128 8.2885218 -1.9194432
5.3667006 8.254096 -1.9190531
5.4048314 8.202177 -1.9145659
5.4441619 8.1525469 -1.9106642
5.488585 8.1108665 -1.9087132
5.5421319 8.0826988 -1.9100789
5.5877042 8.0429029 -1.9087132
5.6324325 8.0020504 -1.9071525
5.681426 7.9673395 -1.9071525
5.7273335 7.9283543 -1.906177
5.7723975 7.8883142 -1.9050065
5.8154335 7.8456559 -1.9032507
5.85463 7.7980614 -1.9003243
5.9106803 7.7729201 -1.9030557
5.9648466 7.7450533 -1.9052017
5.9971747 7.6889758 -1.9003243
6.0302558 7.6343331 -1.8958373
6.0726967 7.5918274 -1.8944716
6.1092863 7.5422301 -1.8913503
6.1498508 7.4977779 -1.8895944
6.1919799 7.4553757 -1.8884239
6.2432909 7.4239969 -1.8901796
6.2906342 7.3877892 -1.890765
6.338408 7.3520226 -1.8915453
6.369854 7.2974772 -1.8874484
6.4067154 7.2494373 -1.8851074
6.4569635 7.2165675 -1.8868631
6.501122 7.1768126 -1.8868631
6.5251455 7.1151047 -1.8810104
6.574687 7.0814009 -1.8827662
6.6153269 7.0380678 -1.8819859
6.650949 6.9895296 -1.8798399
6.6698923 6.9238691 -1.8730117
6.7403297 6.9115987 -1.8810104
6.7908812 6.8784852 -1.8833516
6.81285 6.8165722 -1.8776939
6.857338 6.7773986 -1.8784742
6.8742285 6.7112179 -1.8716462
6.9011574 6.6552973 -1.8677443
6.921267 6.5932117 -1.8620867
6.9708786 6.5593557 -1.8646228
7.0217719 6.5264745 -1.8675492
7.0573502 6.4792876 -1.8663787
7.0875273 6.4272985 -1.8638425
7.1239085 6.381072 -1.8630621
7.1710091 6.344388 -1.8652081
7.187644 6.28091 -1.8593554
7.2275329 6.2379704 -1.8597456
7.2522354 6.182055 -1.856234
7.305789 6.1507025 -1.8603308
7.38412 6.1396151 -1.8708657
7.4360561 6.1060157 -1.8745725
7.4558592 6.0460677 -1.8700854
7.5111918 6.0149169 -1.8747675
7.4917922 5.9243126 -1.860526
7.5303211 5.880043 -1.8611113
7.5779109 5.8427091 -1.8640376
7.6300077 5.8085756 -1.8681345
7.6498232 5.7498655 -1.8642327
7.7007136 5.7145061 -1.8681345
7.7285109 5.6619325 -1.8663787
7.783771 5.6293454 -1.871451
7.7894263 5.5609674 -1.8644278
7.7913294 5.4904733 -1.8566241
7.8224564 5.4408832 -1.8560389
7.8621626 5.397223 -1.8575996
7.900816 5.3527303 -1.8589653
7.927803 5.3003359 -1.8575996
7.9536262 5.247272 -1.8560389
7.9971814 5.2058601 -1.8587701
8.0562086 5.1741796 -1.8652081
8.1052046 5.1356721 -1.869305
8.1207609 5.0759673 -1.8655983
8.1383944 5.0178099 -1.8624768
8.1790867 4.9738932 -1.864818
8.2338457 4.9382396 -1.8704755
8.29354 4.9050961 -1.8773037
8.3141613 4.8486819 -1.8751577
8.3156948 4.781446 -1.8687197
8.3704758 4.7448382 -1.8745725
8.3480577 4.66469 -1.862867
8.402297 4.6275711 -1.8687197
8.4426022 4.5824771 -1.871451
8.4818039 4.5366001 -1.8739872
8.5129519 4.4863 -1.8747675
8.5411892 4.434433 -1.8749627
8.5953093 4.3957825 -1.8810104
8.5826998 4.3231101 -1.8722314
8.6424541 4.2869234 -1.8796448
8.6536121 4.2264981 -1.8763282
8.7032499 4.1847935 -1.8815957
8.7119188 4.1233425 -1.877889
8.7299423 4.0664973 -1.8763282
8.7734537 4.0214348 -1.8804252
8.7952814 3.9663169 -1.8798399
8.8481436 3.9249985 -1.8860828
8.8738585 3.8714175 -1.8864729
8.8803196 3.809551 -1.8827662
8.9125643 3.758801 -1.8847171
8.9689846 3.717936 -1.8919355
8.938036 3.6410093 -1.8804252
8.9529238 3.5831833 -1.8788644
8.9564848 3.5210073 -1.8749627
8.9861555 3.4691632 -1.8767184
9.0191956 3.4184773 -1.8792546
9.0308084 3.3596535 -1.8773037
9.068759 3.3105664 -1.8810104
9.0935183 3.2565119 -1.8819859
9.1216574 3.203578 -1.8837417
9.1717463 3.1580818 -1.8901796
9.1918812 3.1020591 -1.8903748
9.2079477 3.044677 -1.8897895
9.2040615 2.980871 -1.8851074
9.2240486 2.9249325 -1.8854976
9.2764816 2.8790319 -1.8927158
9.2592478 2.8115189 -1.8854976
9.2885475 2.7582805 -1.8880337
9.3128328 2.7034216 -1.8895944
9.3415117 2.6497061 -1.8921306
9.3471966 2.5894587 -1.8899846
9.3420801 2.5264261 -1.8856926
9.3678379 2.471808 -1.8878386
9.4132242 2.4220986 -1.8940815
9.4345684 2.3659639 -1.8954471
9.4155598 2.2998884 -1.8886189
9.4438076 2.2454739 -1.8915453
9.4564524 2.1872644 -1.8913503
9.4620399 2.1274793 -1.8897895
9.4969549 2.074192 -1.8942766
9.4951105 2.0128314 -1.8913503
9.5514755 1.9636126 -1.9003243
9.5431442 1.9009476 -1.8962275
9.5372934 1.8390157 -1.8927158
9.5590038 1.7824377 -1.8948618
9.592927 1.7279212 -1.899544
9.5724268 1.6636572 -1.8933011
9.5553694 1.6003577 -1.8878386
9.6395683 1.5537052 -1.9028605
6.071435 0.9408446 -1.1827822
5.9199295 0.88023567 -1.1511775
5.8883204 0.83864713 -1.1437641
5.8846087 0.80131197 -1.1420083
5.8826065 0.76430637 -1.1406426
5.8774514 0.72699493 -1.1386918
5.8671899 0.68920439 -1.1357654
5.8586364 0.6517837 -1.1332293
5.8576479 0.61531222 -1.1322538
5.8388638 0.57714427 -1.1277667
5.8315525 0.5403136 -1.1256207
5.839644 0.50494319 -1.1265962
5.8396993 0.46886736 -1.1260109
5.8248601 0.43172541 -1.1224992
5.8215284 0.39557883 -1.1213287
0 0 -0
0 0 -0
5.8219457 0.28806686 -1.1201582
0 0 -0
0 0 -0
0 0 -0
0 0 -0
0 0 -0
0 0 -0
0 0 -0
0 0 -0
0 -0 -0
0 -0 -0
0 -0 -0
0 -0 -0
0 -0 -0
0 -0 -0
0 -0 -0
0 -0 -0
0 -0 -0
0 -0 -0
0 -0 -0
0 -0 -0
0 -0 -0
0 -0 -0
0 -0 -0
0 -0 -0
6.1370611 -0.64037889 -1.1880497
9.0068026 -0.99627584 -1.7631758
8.871933 -1.0364823 -1.737424
8.6814289 -1.0682371 -1.7005519
8.5910606 -1.1106595 -1.6837741
8.6423969 -1.1712631 -1.6954795
8.742835 -1.2395663 -1.7171346
8.7273026 -1.292038 -1.7155739
8.7240572 -1.3463119 -1.7165493
8.7224112 -1.400906 -1.7179149
8.7097816 -1.453753 -1.7171346
8.6919994 -1.5056601 -1.7153788
8.6623259 -1.5553223 -1.7112819
8.6159782 -1.6016277 -1.7038684
8.572279 -1.6479791 -1.6970403
8.5495005 -1.6980611 -1.6945041
8.3909607 -1.7201355 -1.6644602
8.3658552 -1.7685442 -1.6615338
8.3778448 -1.8248557 -1.666216
8.3578768 -1.8742942 -1.6644602
8.3060818 -1.9162761 -1.6562663
8.2989388 -1.9683375 -1.6572418
8.273365 -2.0159693 -1.6545106
7.3331966 -1.8344839 -1.4642975
7.3265519 -1.8806649 -1.465273
7.9977474 -2.1054573 -1.605738
7.9591122 -2.1475887 -1.6004705
7.8937936 -2.1820052 -1.5897406
7.8576083 -2.2239857 -1.5850585
8.1151152 -2.3507884 -1.6412444
8.1024189 -2.4010949 -1.6416346
7.9551916 -2.4106419 -1.6141269
7.8971562 -2.446054 -1.6051527
7.8520775 -2.4849901 -1.5989099
7.8002872 -2.5213528 -1.5913013
7.7092319 -2.5442586 -1.5754989
7.8979492 -2.6604223 -1.6184188
7.7404985 -2.6603575 -1.5887651
7.7286568 -2.7094252 -1.5897406
7.7636027 -2.7752919 -1.6006657
7.7952652 -2.8406808 -1.6110054
7.8061891 -2.8990471 -1.6170533
7.8451247 -2.9684181 -1.6291488
7.6071343 -2.9318173 -1.5823271
7.7916737 -3.0580142 -1.6256372
7.8228531 -3.125788 -1.6363672
7.8307805 -3.1848178 -1.6422199
7.8138099 -3.2339323 -1.6428051
7.7911081 -3.2806737 -1.6422199
7.7699304 -3.3280311 -1.6420248
7.7340784 -3.368983 -1.6387082
7.7087779 -3.4143884 -1.6377329
7.67874 -3.4575963 -1.6357819
7.6457868 -3.4993393 -1.6332457
7.6401777 -3.5536346 -1.6367574
7.6368494 -3.6092503 -1.6408542
7.5685868 -3.63396 -1.6307095
7.5496726 -3.6820519 -1.6314899
7.5304532 -3.7300482 -1.6322703
7.5039201 -3.7744207 -1.6314899
7.4683914 -3.814146 -1.6287587
7.4187284 -3.8463526 -1.622906
7.3845735 -3.886318 -1.6205648
7.4073009 -3.9565148 -1.6310997
7.4225454 -4.023396 -1.6400739
7.434669 -4.0891938 -1.6484628
7.4239969 -4.1428623 -1.6517793
7.4018507 -4.1902704 -1.6525596
7.3649445 -4.2292576 -1.6500235
7.3380084 -4.2738743 -1.6498284
7.334445 -4.3322902 -1.6550958
7.3052006 -4.3756995 -1.6545106
7.2513914 -4.4041452 -1.6482677
7.2317472 -4.4531856 -1.6500235
7.1934719 -4.4907212 -1.6474873
7.1384349 -4.5174637 -1.6410494
7.1081057 -4.5595903 -1.6404641
7.0783501 -4.6020494 -1.6400739
7.0409713 -4.6394572 -1.6379279
6.9764862 -4.6586027 -1.6293439
6.9680758 -4.715066 -1.6342212
6.9568076 -4.769937 -1.6385132
6.9016356 -4.7946229 -1.6322703
6.825573 -4.8041325 -1.620955
6.7815943 -4.8356714 -1.6174434
6.736691 -4.8662772 -1.6137367
6.7130365 -4.9121556 -1.6152974
6.6796184 -4.9509172 -1.6145171
6.642056 -4.9865088 -1.6127613
6.6004052 -5.018857 -1.6100299
6.5788097 -5.0664444 -1.6123711
6.5715709 -5.1254177 -1.6184188
6.5107541 -5.142539 -1.6110054
6.482141 -5.1848421 -1.6117858
6.4402986 -5.2164917 -1.6092496
6.3967957 -5.2465792 -1.6063232
6.3667464 -5.2876105 -1.6069086
6.3364339 -5.3284707 -1.6074938
6.3125796 -5.3748813 -1.6098349
6.2512565 -5.389174 -1.6024214
6.2055116 -5.4164639 -1.5991049
6.2000842 -5.4791217 -1.6065184
6.1546545 -5.5065966 -1.6033969
6.1105757 -5.5350375 -1.6006657
6.0880623 -5.583035 -1.6037871
6.0594401 -5.6256247 -1.6053479
6.0190916 -5.6573243 -1.6037871
5.9849758 -5.6948266 -1.6039822
5.949214 -5.730762 -1.6037871
5.8914723 -5.7452426 -1.5975442
5.8609943 -5.786108 -1.5989099
5.8434153 -5.8399901 -1.6039822
5.7916164 -5.8596888 -1.5994951
5.7418518 -5.8810773 -1.5955933
5.6865973 -5.8964281 -1.5901308
5.6692495 -5.9510961 -1.5955933
2.2462733 -2.3860869 -0.61253315
2.2289195 -2.396951 -0.61175281
2.2135069 -2.4098597 -0.61155772
2.2026312 -2.4277558 -0.61272824
5.4558983 -6.0907812 -1.5872045
5.4320693 -6.1395707 -1.5913013
5.3910689 -6.1690927 -1.5903258
5.3601627 -6.2102237 -1.5924718
5.3181396 -6.2385173 -1.5913013
5.2690239 -6.258275 -1.5879848
5.2305245 -6.2904873 -1.5879848
5.1849828 -6.3141241 -1.5858388
5.1263776 -6.3214397 -1.5795959
5.0801377 -6.3435879 -1.5772548
5.0399022 -6.3731008 -1.5768646
2.0065994 -2.5685244 -0.60902154
1.9872088 -2.5761275 -0.60785103
1.9707706 -2.5874918 -0.60765588
1.9525001 -2.5963993 -0.60687554
1.9371165 -2.6091182 -0.60707062
1.8318233 -2.4991019 -0.57702672
1.7681829 -2.4435318 -0.56063914
1.7326444 -2.425596 -0.55361587
4.6928811 -6.6592035 -1.5811566
4.6295357 -6.6556635 -1.5733531
4.5947146 -6.6928401 -1.5754989
4.5425615 -6.7046657 -1.5715972
4.4942517 -6.7218118 -1.569061
4.4615631 -6.762361 -1.5721824
4.4531541 -6.8405757 -1.5842781
4.4195762 -6.8809757 -1.5873995
4.3735981 -6.9021645 -1.5860338
4.3264871 -6.9213848 -1.5842781
4.2648954 -6.9169097 -1.5770597
4.2198262 -6.9387579 -1.5760843
4.1716232 -6.955267 -1.5739383
1.7068367 -2.8844342 -0.62736005
1.7083718 -2.9278975 -0.63496858
1.6893969 -2.9366243 -0.63457835
1.6597408 -2.9264557 -0.62989622
3.9228268 -7.0200205 -1.560282
3.8877208 -7.0585637 -1.5635985
3.8349817 -7.0650444 -1.5596967
3.7818475 -7.0702796 -1.5555998
3.7338221 -7.0846744 -1.5536488
3.6871183 -7.1013575 -1.5522833
3.6515124 -7.1395664 -1.5557948
3.6041071 -7.1548295 -1.5542341
3.5631883 -7.18296 -1.5555998
3.5160351 -7.1985188 -1.5542341
3.4781733 -7.2332168 -1.5571605
3.4274335 -7.2411237 -1.5542341
3.3858364 -7.2682414 -1.5555998
3.3415842 -7.2897716 -1.5557948
3.2988074 -7.3146086 -1.5567703
3.2538638 -7.334712 -1.5567703
3.2052689 -7.3464479 -1.5550145
3.1636107 -7.3740892 -1.5567703
3.1194475 -7.3960733 -1.5573556
3.0732565 -7.4132628 -1.5569655
3.0118058 -7.392921 -1.5485765
2.976588 -7.436759 -1.5540391
2.9190629 -7.4247594 -1.5476011
2.8678007 -7.4278908 -1.5444796
2.82356 -7.4490161 -1.54526
2.7829285 -7.47999 -1.5481863
2.7342899 -7.4895539 -1.5466256
2.6859696 -7.4997263 -1.54526
2.6454246 -7.5317979 -1.5485765
2.6033101 -7.5599446 -1.5511127
2.5480959 -7.5497546 -1.5456501
2.502955 -7.5689721 -1.5464306
2.4619029 -7.6009836 -1.5499421
2.4036603 -7.5794835 -1.5423336
2.3611765 -7.607204 -1.5450649
2.3110371 -7.6102862 -1.5427238
2.2603905 -7.6111598 -1.5399926
2.2109137 -7.6154671 -1.5380417
2.165482 -7.6336074 -1.5390171
2.1251454 -7.6703811 -1.5438944
2.0818799 -7.6974788 -1.5468208
2.0416131 -7.7366619 -1.5522833
1.9894618 -7.7309957 -1.5485765
1.9376956 -7.7259331 -1.5450649
1.8823448 -7.7052817 -1.5384319
1.8304954 -7.6976023 -1.53453
1.7847757 -7.7153783 -1.5358957
1.740412 -7.7395811 -1.5386269
1.69289 -7.7501144 -1.5386269
1.6511993 -7.7881808 -1.5442846
1.6008149 -7.7856765 -1.5417484
1.5486085 -7.7732286 -1.5372612
1.5086782 -7.8230333 -1.5454551
1.4575942 -7.8157516 -1.5421386
1.4042239 -7.7946248 -1.5360907
1.3553636 -7.797296 -1.5349202
1.3055521 -7.7938581 -1.5325792
1.2464767 -7.7320037 -1.5185326
1.1829596 -7.635797 -1.497658
1.1150522 -7.5012703 -1.4691747
1.0669328 -7.4934058 -1.4662484
1.0180268 -7.4784307 -1.4619564
0.96934497 -7.4631386 -1.4576645
0.92173064 -7.4543447 -1.4547381
0.87608856 -7.4608345 -1.4549332
0.82812816 -7.4465737 -1.4510313
0.78139859 -7.4417605 -1.4490805
0.73341131 -7.4229898 -1.4443983
0.68956643 -7.4459057 -1.448105
0.64285463 -7.438271 -1.4457639
0.59665406 -7.4352317 -1.4443983
0.54863518 -7.4064751 -1.4379603
0.50609666 -7.4527578 -1.4465443
0.45698154 -7.4009027 -1.4356192
0.41335323 -7.4358835 -1.4420573
0.36796111 -7.4431782 -1.4430326
0.32329801 -7.4688125 -1.4477148
0.27739164 -7.4686956 -1.4473246
0.23346417 -7.5320172 -1.4596153
0.18768014 -7.5509567 -1.463127
0.14196371 -7.5853071 -1.4697601
0.096405491 -7.6654725 -1.4855623
0.050010666 -7.7679195 -1.5058517
0.0023619444 -7.8681202 -1.525751
-0.046103761 -7.8993711 -1.5319939
-0.094631955 -7.9038434 -1.5329694
-0.14296611 -7.8942881 -1.5312135
-0.19094738 -7.8746328 -1.5275068
-0.23935144 -7.8762541 -1.528092
-0.28842968 -7.8952198 -1.5321889
-0.33753982 -7.9089794 -1.5353104
-0.3853904 -7.8930449 -1.5325792
-0.4344078 -7.9013042 -1.5347251
-0.48372102 -7.9121952 -1.5374564
-0.53226024 -7.9090781 -1.5374564
-0.58581948 -7.974133 -1.5511127
-0.62927669 -7.9019508 -1.5374564
-0.67909431 -7.9135761 -1.5405779
-0.72988814 -7.9336762 -1.5454551
-0.77855456 -7.9290485 -1.5454551
-0.8235206 -7.8890052 -1.5384319
-0.87353045 -7.8984261 -1.5413582
-0.92721885 -7.9377279 -1.5503323
-0.96643353 -7.8549886 -1.5349202
-1.0158714 -7.8586373 -1.5368711
-1.0684229 -7.8843284 -1.5433091
-1.1123703 -7.8465505 -1.5370662
-1.1684018 -7.8929381 -1.5477961
-1.2142649 -7.8691425 -1.5444796
-1.2609696 -7.85186 -1.5425287
-1.3109015 -7.8546162 -1.5446748
-1.3635951 -7.8725171 -1.5499421
-1.4115274 -7.862071 -1.549552
-1.4654816 -7.8841181 -1.5557948
-1.5147566 -7.8797932 -1.5567703
-1.5605921 -7.8578448 -1.5542341
-1.6068065 -7.8385134 -1.5522833
-1.6502038 -7.806437 -1.5477961
-1.683869 -7.7310014 -1.53453
-0.67215091 -3.0006633 -0.57234454
-0.68988818 -2.9936156 -0.57175928
-0.7068848 -2.9836006 -0.57058877
-0.72053206 -2.9601495 -0.56668693
-0.73868161 -2.9556727 -0.56668693
-0.75655937 -2.9501348 -0.56649184
-0.76940054 -2.9255199 -0.56239498
-0.78503597 -2.9122219 -0.56063914
-0.80236739 -2.9054596 -0.56024897
-0.81911087 -2.8967071 -0.55946863
-2.247858 -7.7599745 -1.5676954
-2.2734051 -7.6717501 -1.5522833
-1.0663633 -3.5212619 -0.6925202
-2.3932161 -7.7266526 -1.5696462
-2.4269624 -7.6688108 -1.5606722
-2.4709537 -7.644443 -1.5587212
-1.07066 -3.2462976 -0.64062619
-1.0802225 -3.2089961 -0.63418818
-1.0973408 -3.1948876 -0.63262749
-1.114976 -3.1825411 -0.63145691
-2.7009799 -7.5558147 -1.5567703
-2.7617359 -7.5787225 -1.5651592
-1.1515059 -3.1026385 -0.61897117
-1.1680912 -3.0890937 -0.61760551
-1.1887877 -3.0864439 -0.618581
-1.2510757 -3.1895571 -0.64218688
-2.9808986 -7.4603863 -1.5587212
-3.0377073 -7.4692097 -1.5645739
-3.0992384 -7.4884896 -1.5727677
-3.1424634 -7.4630051 -1.5714021
-3.1916728 -7.4516964 -1.5731579
-1.287306 -2.9570265 -0.60219336
-1.3030418 -2.9436917 -0.60102284
-1.3198711 -2.9329584 -0.60043758
-1.3411088 -2.9319386 -0.60199827
-3.4046826 -7.3200517 -1.5665249
-3.4621096 -7.3256235 -1.5723776
-3.5044458 -7.2989383 -1.571207
-3.5526056 -7.2843494 -1.5727677
-3.5920093 -7.2518682 -1.5704267
-3.6307073 -7.2183018 -1.5678905
-3.6776068 -7.201129 -1.569061
-3.7226262 -7.1801691 -1.5694512
-3.7643282 -7.152853 -1.5684757
-3.818315 -7.1486521 -1.5727677
-3.8742616 -7.1475058 -1.5778401
-3.8939328 -7.0797744 -1.5678905
-3.9329977 -7.0480409 -1.5661347
-3.9935684 -7.0544996 -1.5731579
-4.0284739 -7.0154052 -1.5698414
-4.098599 -7.0371642 -1.5805713
-4.1392064 -7.0076613 -1.5795959
-4.183639 -6.9846559 -1.5801811
-4.2304912 -6.9655595 -1.5817419
-4.2906408 -6.9678631 -1.588375
-4.3286386 -6.933918 -1.5866191
-4.3737254 -6.9113712 -1.5875946
-4.4102244 -6.8753242 -1.5854486
-4.4469805 -6.8399119 -1.5834976
-4.4942632 -6.8206863 -1.5854486
-4.5436563 -6.8043995 -1.5881798
-4.579824 -6.76827 -1.586229
-2.9187765 -4.2577429 -0.98749679
-4.7005949 -6.7663269 -1.5994951
-4.7521873 -6.7517924 -1.6030067
-4.809473 -6.744864 -1.6084692
-3.0258341 -4.1896 -0.98866731
-4.898253 -6.6940422 -1.6106153
-4.9339771 -6.6567702 -1.6088594
-4.9853306 -6.6404872 -1.6123711
-5.0224195 -6.6050892 -1.6112006
-5.089787 -6.6091118 -1.6199796
-3.2715015 -4.1952486 -1.0189064
-3.3008296 -4.1797132 -1.0200769
-3.3061934 -4.1341085 -1.0136389
-3.340759 -4.1251755 -1.0165652
-3.4139085 -4.1629844 -1.0315871
-3.3848624 -4.0763245 -1.0146143
-3.4161241 -4.062984 -1.0165652
-3.4594319 -4.0636001 -1.0222229
-3.4516346 -4.0044165 -1.0122732
-3.449693 -3.9528708 -1.0042745
-3.5375409 -4.003644 -1.0233934
-3.5986683 -4.0227895 -1.0343184
-3.5778444 -3.9504828 -1.0208572
-3.5443363 -3.8655751 -1.0038843
-3.6013591 -3.8796885 -1.0136389
-3.6271122 -3.8596616 -1.0142242
-3.7169921 -3.906956 -1.033343
-3.6980214 -3.8395803 -1.0210524
-3.716717 -3.8119028 -1.0196867
-3.7772503 -3.8267107 -1.0302216
-3.7084355 -3.7112095 -1.0042745
-3.7171841 -3.674598 -1.0003728
-3.5396271 -3.4564772 -0.94477201
-3.5113444 -3.3870413 -0.93111569
-3.4425721 -3.280206 -0.90653425
-3.4490614 -3.2462525 -0.90282756
-3.4940617 -3.2483954 -0.90965575
-3.4944186 -3.2089884 -0.90438831
-3.5242155 -3.1967094 -0.90711957
-3.4283223 -3.0716465 -0.87629527
-3.4044957 -3.0128644 -0.86498004
-3.4450767 -3.0112765 -0.87083274
-3.6884849 -3.1842241 -0.92994511
-3.7437844 -3.1920681 -0.93930948
-3.801569 -3.201247 -0.94925904
-4.1002049 -3.4098356 -1.0214425
-4.1354532 -3.3964369 -1.0251492
-4.1813569 -3.391381 -1.0315871
-4.147727 -3.32214 -1.0177357
-4.2542048 -3.3647528 -1.0395858
-4.1588044 -3.2480569 -1.0103223
-4.2563353 -3.2823551 -1.0298314
-4.2670298 -3.2490489 -1.0274903
-4.2602262 -3.2027731 -1.0208572
-4.3388743 -3.2204006 -1.035489
-4.2984171 -3.149673 -1.0206621
-4.253284 -3.0766912 -1.0048598
-4.2920399 -3.06478 -1.009737
-4.2947283 -3.0270896 -1.0058353
-4.295506 -2.9883621 -1.0015433
-4.3711762 -3.001353 -1.0153947
-4.4471655 -3.0135264 -1.0292461
-4.4655724 -2.9861825 -1.0292461
-4.4690738 -2.9490058 -1.0257344
-4.4731097 -2.9124341 -1.0224179
-4.47439 -2.8743343 -1.0185162
-4.4604578 -2.8268819 -1.0111027
-4.5367732 -2.8363621 -1.0249541
