# .PCD v0.7 - Point Cloud Data file format
VERSION 0.7
FIELDS x y z
SIZE 4 4 4
TYPE F F F
COUNT 1 1 1
WIDTH 1531
HEIGHT 1
VIEWPOINT 0 0 0 1 0 0 0
POINTS 1531
DATA ascii
8.0018616 12.830581 -2.0303295
8.0730257 12.769516 -2.0284319
8.1485538 12.715569 -2.0277543
8.2215643 12.657853 -2.0265343
8.2898159 12.5931 -2.0242302
8.3559341 12.525513 -2.0215192
8.4121017 12.443636 -2.0165043
8.4793377 12.378707 -2.0143356
8.5517435 12.321562 -2.0135224
8.6254759 12.266426 -2.0131156
8.6965551 12.207622 -2.0121667
8.7649183 12.145193 -2.0106759
8.8275814 12.075187 -2.0079651
8.8879461 12.002481 -2.0048475
8.9536972 11.937416 -2.0030856
9.0093946 11.859372 -1.9991548
9.0572224 11.771673 -1.9935975
9.1006603 11.679145 -1.987227
9.1506701 11.595862 -1.982483
9.2148457 11.530982 -1.9809921
9.279192 11.466522 -1.9796367
9.3418398 11.400174 -1.9780101
9.4084501 11.338826 -1.9773324
9.4619141 11.261919 -1.9739438
9.5276279 11.199877 -1.9732661
9.5832386 11.126191 -1.9705553
9.6415596 11.055979 -1.9685221
9.6974134 10.983242 -1.9660823
9.7580194 10.916146 -1.9647269
9.817503 10.847986 -1.963236
9.8751802 10.778046 -1.9614739
9.931694 10.70708 -1.9595762
9.9782143 10.625715 -1.9557811
10.03435 10.554955 -1.9540191
10.076941 10.470343 -1.9496816
10.11818 10.384896 -1.9452088
10.171274 10.312036 -1.9431757
10.226656 10.241719 -1.9416847
10.282262 10.171809 -1.9403292
10.33031 10.094677 -1.9376184
10.367819 10.007706 -1.93301
10.41684 9.9322786 -1.9307057
10.457393 9.8491545 -1.9269105
10.48934 9.7584839 -1.9216244
10.538806 9.6845522 -1.9197267
10.578958 9.6023912 -1.9162027
10.622186 9.5234098 -1.9133563
10.657427 9.4376907 -1.9091544
10.71439 9.3714685 -1.9090189
10.754446 9.2906523 -1.9059014
10.790147 9.2064819 -1.9021062
10.831282 9.1273327 -1.8993953
10.870328 9.0467577 -1.8964134
10.914152 8.9704514 -1.8943803
10.953604 8.8908262 -1.8916694
10.993262 8.8116751 -1.8890941
11.034694 8.7342167 -1.8869255
11.100568 8.6761074 -1.8890941
11.115946 8.5787754 -1.882588
11.158131 8.5026007 -1.880826
11.195841 8.4232531 -1.8783863
11.223454 8.3366737 -1.87432
11.252824 8.251832 -1.8706603
11.284786 8.1692667 -1.8675429
11.337117 8.1015997 -1.8679495
11.352612 8.0078964 -1.8622566
11.409664 7.943749 -1.8636121
11.421447 7.84834 -1.8575127
11.443149 7.7603159 -1.8531753
11.483963 7.6855478 -1.852091
11.520156 7.6078405 -1.8503289
11.574921 7.5424204 -1.8516843
11.613482 7.4664335 -1.8504645
11.646527 7.3870735 -1.8484313
11.691634 7.3154726 -1.8484313
11.715223 7.2305865 -1.8450428
11.738212 7.1456871 -1.8416542
11.775041 7.069448 -1.8405699
11.805408 6.9894929 -1.8385367
11.823259 6.9024382 -1.8346059
11.822456 6.8050475 -1.8278289
11.876052 6.7392244 -1.8297265
11.909398 6.6618738 -1.8285066
11.956991 6.5925012 -1.8295909
11.997217 6.5190101 -1.8295909
12.014282 6.4331136 -1.8260669
12.088579 6.377768 -1.8314885
12.097596 6.2879372 -1.8268801
12.143005 6.2172017 -1.8279644
12.173848 6.1390076 -1.8268801
12.237907 6.0774155 -1.8309463
12.293658 6.0113511 -1.8337927
12.332991 5.9370947 -1.8341993
12.401419 5.8765836 -1.8390789
12.409409 5.7873969 -1.834877
12.458193 5.7173443 -1.8369102
12.455113 5.6236696 -1.8312174
12.51836 5.5600109 -1.8355548
12.544977 5.4799218 -1.8344704
12.578365 5.402844 -1.8344704
12.636835 5.3363557 -1.8382657
12.661105 5.2552986 -1.8370458
12.719717 5.188365 -1.8409765
12.731999 5.1024804 -1.8381301
12.753849 5.0206327 -1.8367747
12.787188 4.9433541 -1.8371813
12.800606 4.8584714 -1.8347415
12.853386 4.7884846 -1.8381301
12.868568 4.7044244 -1.836097
12.913046 4.6310625 -1.8384012
12.939349 4.5510845 -1.8381301
12.959538 4.4690204 -1.8370458
13.00361 4.3951287 -1.8394855
13.0087 4.3080931 -1.8363681
13.077299 4.2419496 -1.8424674
13.138963 4.1730266 -1.8476181
13.126477 4.0805635 -1.8421963
13.14558 3.998214 -1.8413831
13.173664 3.9186091 -1.8419253
13.190801 3.8357666 -1.8409765
13.195027 3.7493403 -1.8382657
13.244515 3.6757262 -1.8420608
13.263951 3.5936127 -1.8416542
13.304909 3.5172238 -1.844365
13.323361 3.4347782 -1.8439584
13.354756 3.3556192 -1.8454494
13.376057 3.2738483 -1.845585
13.401675 3.1930907 -1.8463982
13.432598 3.1134844 -1.8480247
13.454349 3.0316584 -1.8484313
13.496893 2.954344 -1.8518199
13.498292 2.8679721 -1.8495157
13.504961 2.7828941 -1.8480247
13.534412 2.7024994 -1.8497868
13.558522 2.6209075 -1.8508711
13.579218 2.5385749 -1.8515488
13.566264 2.4500995 -1.8476181
13.60154 2.3703849 -1.8504645
13.649049 2.2924635 -1.855073
13.677528 2.2110436 -1.8571061
13.689859 2.1269259 -1.8569705
13.765368 2.0522385 -1.8656453
6.4510145 0.92112184 -0.85314167
6.3151865 0.86221308 -0.83362347
6.242744 0.81333065 -0.82291561
6.2417173 0.7742784 -0.82210237
6.1902652 0.72935361 -0.81437641
6.2330256 0.69564539 -0.81966263
6.1898818 0.65239936 -0.81315655
6.1789794 0.6129387 -0.81112343
0 0 -0
0 0 -0
6.1210732 0.49360067 -0.80177099
0 0 -0
0 0 -0
0 0 -0
0 0 -0
0 0 -0
0 0 -0
0 0 -0
0 0 -0
0 0 -0
0 0 -0
0 0 -0
0 0 -0
0 0 -0
0 -0 -0
0 -0 -0
0 -0 -0
0 -0 -0
0 -0 -0
0 -0 -0
6.214653 -0.262739 -0.81261438
6.2139134 -0.30091432 -0.81274992
6.2218432 -0.33957583 -0.81410533
6.2601895 -0.38020593 -0.81966263
6.2943158 -0.42105502 -0.82467771
6.3094001 -0.46096665 -0.82711744
6.3775659 -0.50530165 -0.83687651
6.4306149 -0.54922646 -0.84460247
12.36674 -1.1323243 -1.6605692
12.340824 -1.2063531 -1.6579939
12.30264 -1.2788775 -1.6537921
12.261078 -1.3506536 -1.6491836
10.580516 -1.2313359 -1.4188967
10.570795 -1.2959925 -1.4186256
10.565592 -1.3612089 -1.4190322
10.549186 -1.4249519 -1.4179479
10.551035 -1.4911784 -1.4194388
10.573052 -1.5605183 -1.4237761
11.92346 -1.8346021 -1.6120449
11.918827 -1.908825 -1.6129937
11.90689 -1.9819217 -1.6129937
11.868145 -2.0503905 -1.6093341
11.828032 -2.1182837 -1.6055388
11.802149 -2.1884716 -1.6037768
11.766118 -2.2565556 -1.6006594
11.753022 -2.3289013 -1.6007949
11.747248 -2.4027591 -1.6020148
11.748764 -2.4782696 -1.604319
11.740113 -2.5517848 -1.6052678
11.731003 -2.6252871 -1.6062167
11.694398 -2.6925499 -1.6033702
8.2684727 -1.9573761 -1.1240914
11.620042 -2.8260233 -1.5976775
11.599599 -2.8965492 -1.5972708
11.596964 -2.9716029 -1.5994395
7.5730472 -1.9902558 -1.0328712
7.5214686 -2.0261219 -1.0273139
11.567044 -3.1919403 -1.6032346
11.527219 -3.2571974 -1.6003883
11.511775 -3.3292418 -1.601066
11.50063 -3.4026246 -1.6024214
7.9773588 -2.4136729 -1.1018624
7.9463072 -2.4575996 -1.0995582
7.932023 -2.5066097 -1.0996938
7.9768381 -2.5747068 -1.1083684
11.402136 -3.7575238 -1.6040479
11.430515 -3.8447864 -1.6115028
11.461999 -3.9338243 -1.6194998
11.456348 -4.0106263 -1.6222106
7.7224135 -2.7568986 -1.0834286
7.7314215 -2.8137167 -1.0872238
11.356433 -4.211864 -1.6186866
11.328522 -4.280766 -1.6184155
11.268754 -4.3373847 -1.6135359
11.192116 -4.3869243 -1.6062167
11.147504 -4.4485383 -1.6036413
11.078691 -4.5000772 -1.5975419
11.041714 -4.5641856 -1.5961864
11.008934 -4.62993 -1.5955087
10.980318 -4.6973925 -1.5955087
10.926759 -4.7540064 -1.5918491
10.885604 -4.8157516 -1.5900871
10.851332 -4.8804221 -1.5894094
10.813072 -4.9432054 -1.5881895
10.777146 -5.0069556 -1.5873762
10.723822 -5.0624156 -1.5839876
10.671117 -5.1178384 -1.5807346
10.611011 -5.1693344 -1.5763972
10.560444 -5.2251191 -1.5735508
10.509593 -5.2804775 -1.5707045
10.48935 -5.3511667 -1.572602
10.463357 -5.4190726 -1.5736864
10.401846 -5.4684205 -1.5693491
10.352363 -5.523747 -1.5669092
10.298235 -5.576314 -1.5637918
10.24038 -5.6265168 -1.5601321
10.196144 -5.6839385 -1.5586412
10.152452 -5.7415171 -1.5572857
10.100703 -5.7943368 -1.5547104
10.065816 -5.8567028 -1.5548459
10.014331 -5.9092922 -1.5524062
9.9880857 -5.9767323 -1.5540327
9.9249659 -6.0219741 -1.5498309
9.8675756 -6.0703006 -1.5465778
9.809967 -6.1181502 -1.5433248
9.7613544 -6.1713457 -1.5415628
9.7316465 -6.2364693 -1.5429182
9.6774101 -6.2858105 -1.5403429
9.6527271 -6.3543324 -1.5426471
9.5739937 -6.3870497 -1.536141
9.5255938 -6.4395709 -1.5346501
9.4842672 -6.496778 -1.534379
9.4108534 -6.5316896 -1.5288217
9.3616829 -6.5830417 -1.5273308
9.3203077 -6.6397853 -1.5271952
9.2858181 -6.7014871 -1.5282795
9.238925 -6.7542443 -1.5273308
9.1941233 -6.8084478 -1.5267886
9.149003 -6.8623562 -1.5262464
9.0633326 -6.8854012 -1.5187916
9.0059938 -6.9294047 -1.5162163
9.0062904 -7.0180264 -1.5236712
8.9786148 -7.0854306 -1.526382
8.9303265 -7.1366782 -1.5255687
8.8817472 -7.1875997 -1.5247555
8.8152533 -7.2237511 -1.5208248
8.7654266 -7.2732759 -1.5198759
8.7107716 -7.3186378 -1.5181139
8.6604185 -7.3674545 -1.5171651
8.6007862 -7.4081702 -1.5145898
8.5462074 -7.4529905 -1.5129633
8.4951172 -7.5006986 -1.5120145
8.4474564 -7.5513616 -1.5117434
8.3855362 -7.5890913 -1.5088969
8.3147049 -7.6183143 -1.5044241
8.2627182 -7.6644726 -1.5034753
8.2162571 -7.7157059 -1.5036108
8.1773767 -7.7741661 -1.5052373
8.1223822 -7.8173251 -1.5038819
8.0728436 -7.865633 -1.5036108
8.0096159 -7.9004087 -1.5007644
7.9413581 -7.9298048 -1.4969692
7.8821001 -7.9678178 -1.4949361
7.8233676 -8.0061111 -1.4930385
7.0199251 -7.2726989 -1.3444837
7.7511964 -8.1294775 -1.4983246
7.7752137 -8.2554979 -1.5130988
7.1365972 -7.6712465 -1.3950411
7.1135278 -7.7411537 -1.3999207
7.1324873 -7.858016 -1.4134749
7.1310973 -7.9540076 -1.4230984
6.7937922 -7.6719975 -1.3635952
2.1621852 -2.4724913 -0.4110015
2.1463258 -2.484962 -0.41086596
2.1361828 -2.5041142 -0.41195029
6.673059 -7.9189954 -1.3783695
6.5514555 -7.8722162 -1.362782
6.4854136 -7.8908362 -1.3589869
6.4256349 -7.916635 -1.356547
6.3843746 -7.9651895 -1.3581736
6.3126287 -7.9754701 -1.3531585
2.0053351 -2.5662076 -0.4072063
1.983498 -2.5706203 -0.40585089
1.9652855 -2.5795903 -0.40530872
1.9458464 -2.5868504 -0.40449545
1.9293463 -2.5979459 -0.40435991
1.8530197 -2.5274429 -0.39039901
1.8432869 -2.5467906 -0.39175445
1.8408749 -2.5765927 -0.39487192
6.3453879 -8.9958544 -1.467692
6.324605 -9.084218 -1.4759601
6.2737966 -9.1302032 -1.47718
6.2076464 -9.1537666 -1.4747403
6.1541185 -9.1958008 -1.475418
6.0915723 -9.2242947 -1.473927
6.0694776 -9.3146229 -1.4826018
1.8188589 -2.8296592 -0.42184493
1.7988087 -2.8365829 -0.42116719
1.7761143 -2.8391678 -0.41981179
5.8187618 -9.4278889 -1.4773155
5.7510147 -9.4473362 -1.4747403
5.6837587 -9.4671555 -1.4723005
5.6255622 -9.501852 -1.4723005
5.5656557 -9.5336246 -1.4718938
5.5040879 -9.5624437 -1.4710805
5.4413981 -9.5891418 -1.4699962
5.3872948 -9.6309967 -1.4713516
5.3333611 -9.6734142 -1.4728427
5.2753253 -9.7085686 -1.4732493
5.214252 -9.7381344 -1.4728427
5.1544018 -9.7699451 -1.4728427
5.0993838 -9.811058 -1.4743336
5.037734 -9.8395176 -1.473927
4.9732494 -9.8622808 -1.4727072
4.9099979 -9.8872871 -1.4718938
4.848803 -9.916338 -1.4717582
4.7861471 -9.9423323 -1.4712161
4.7284465 -9.9786749 -1.4723005
4.6734114 -10.020968 -1.4743336
4.6209278 -10.069265 -1.4773155
4.570066 -10.12181 -1.4809752
4.5484953 -10.241113 -1.494665
4.5518084 -10.420451 -1.5173006
4.501471 -10.480046 -1.5220447
4.4259033 -10.481001 -1.5181139
4.366828 -10.520771 -1.5200115
4.299572 -10.540946 -1.5190626
4.21454 -10.516548 -1.5116079
4.148118 -10.537601 -1.5109302
4.0776658 -10.548069 -1.5087614
4.0089998 -10.562701 -1.5072705
3.9409995 -10.578745 -1.5060506
3.8773761 -10.60645 -1.5065928
3.8165717 -10.642165 -1.5083548
3.7518582 -10.667252 -1.5086259
3.6847193 -10.685389 -1.5079482
3.6136923 -10.69184 -1.505644
3.539921 -10.689359 -1.5021199
3.4733486 -10.708051 -1.5017133
3.4009812 -10.708387 -1.4987313
3.331682 -10.7177 -1.4971048
3.2658567 -10.737942 -1.4971048
3.1993434 -10.755879 -1.4968337
3.1307964 -10.766746 -1.4956138
3.0611532 -10.773363 -1.4938518
2.9902217 -10.774759 -1.491412
2.9235344 -10.790991 -1.4911408
2.8567607 -10.806811 -1.4908698
2.7903976 -10.824136 -1.4908698
2.7244122 -10.842976 -1.4911408
2.6559453 -10.851789 -1.4900565
2.5856352 -10.852461 -1.4878879
2.5151935 -10.851714 -1.4855837
2.4503038 -10.874675 -1.486668
2.3843796 -10.893376 -1.4872102
2.3177001 -10.908771 -1.4873457
2.2501216 -10.919875 -1.4869391
0.52002883 -2.6060107 -0.325203
0.50233626 -2.6003976 -0.32398313
0.49128762 -2.6297262 -0.32764277
0.47461432 -2.6297662 -0.32723615
0.45983049 -2.6404371 -0.32832047
0.44608247 -2.6578653 -0.33035362
0.43087271 -2.6673987 -0.33130243
0.41571483 -2.6778245 -0.33238676
0.40015292 -2.6862044 -0.33320004
0.38324282 -2.6856668 -0.33279338
0.36648849 -2.6860044 -0.3325223
0.3512812 -2.6980271 -0.33387774
0.34118748 -2.7522428 -0.3410615
1.3094523 -11.111038 -1.4922253
1.2370733 -11.081447 -1.4870746
1.1689516 -11.087844 -1.4869391
1.1009938 -11.095794 -1.4870746
1.031146 -11.083596 -1.4844993
0.67891276 -7.8186212 -1.035311
0.62861449 -7.7940006 -1.0313802
0.58394611 -7.8401966 -1.0372086
0.26113087 -3.8255246 -0.48622769
0.69184232 -11.128799 -1.4870746
0.21338996 -3.8145919 -0.48433009
0.38751128 -7.7749815 -1.0266362
0.48579785 -11.114902 -1.4836861
0.13323818 -3.5545142 -0.44827574
0.10996164 -3.5087216 -0.44190523
0.086901121 -3.4489126 -0.43363714
0.064616755 -3.3909361 -0.42564011
0.044144928 -3.4170265 -0.42916423
0.023102423 -3.4063349 -0.42767325
0.0082223704 -11.291961 -1.5064572
-0.061079923 -11.294771 -1.5068638
-0.13061021 -11.313997 -1.5095747
-0.20034379 -11.330814 -1.5120145
-0.27024153 -11.34522 -1.5141832
-0.34011611 -11.352261 -1.515403
-0.40962303 -11.346 -1.5148609
-0.47969273 -11.354161 -1.5163518
-0.54997367 -11.36387 -1.5181139
-0.62044573 -11.374131 -1.5200115
-0.69058442 -11.376043 -1.5208248
-0.76043957 -11.372581 -1.5209603
-0.82991761 -11.363749 -1.5204182
-0.89939404 -11.355479 -1.5200115
-0.97048527 -11.366529 -1.5223157
-1.0410235 -11.36924 -1.5235356
-1.1126914 -11.38236 -1.5262464
-1.1843547 -11.393057 -1.5286862
-1.2559742 -11.401332 -1.5308549
-1.3283122 -11.414078 -1.5337013
-1.3998895 -11.418497 -1.5354633
-1.4689132 -11.401831 -1.534379
-0.39075735 -2.8906808 -0.36071518
-0.40973437 -2.897058 -0.36193508
-0.43010598 -2.9121323 -0.36437485
-1.7576253 -11.423061 -1.5427827
-1.821887 -11.375865 -1.5377675
-0.49388257 -2.9652939 -0.37291402
-0.52151173 -3.0168812 -0.3805044
-0.54106092 -3.0194759 -0.38131768
-2.0869703 -11.254664 -1.5276018
-2.1259489 -11.084987 -1.5057795
-2.1939251 -11.071733 -1.5057795
-2.259238 -11.045444 -1.5040175
-2.3290138 -11.041069 -1.5053729
-0.61648488 -2.834862 -0.3585465
-0.62478131 -2.7904177 -0.35285372
-0.65656102 -2.8502557 -0.36179951
-2.5992737 -10.980586 -1.5053729
-2.6481063 -10.888376 -1.494665
-0.9177171 -3.6739864 -0.47972164
-2.812999 -10.977911 -1.5120145
-0.75274724 -2.8632715 -0.36667907
-0.76360273 -2.833725 -0.36315495
-0.77570528 -2.8098845 -0.3604441
-3.132745 -11.086725 -1.5377675
-0.80572492 -2.7849255 -0.35827541
-0 -0 -0
-3.3534975 -11.084084 -1.5459001
-1.0011486 -3.2362723 -0.42509794
-1.0027788 -3.1724396 -0.41682982
-3.5389979 -10.964848 -1.5379031
-3.6130319 -10.963629 -1.5408851
-1.0799533 -3.209789 -0.4249624
-3.7659528 -10.972819 -1.5487466
-1.1225344 -3.205646 -0.42631781
-1.1491772 -3.2182932 -0.42916423
-1.1560286 -3.1758018 -0.42401358
-3.9693401 -10.70245 -1.5232645
-1.165848 -3.0844502 -0.41276357
-1.187243 -3.0837111 -0.41371235
-4.0568428 -10.349916 -1.4824662
-1.2154486 -3.0449839 -0.41018826
-1.2382104 -3.0475662 -0.41167921
-1.2606711 -3.0490677 -0.41303465
-4.3280559 -10.291078 -1.4889722
-4.3977432 -10.279813 -1.4912765
-4.4615269 -10.254453 -1.4915476
-4.5287719 -10.236851 -1.4930385
-4.5931244 -10.212484 -1.4935807
-4.6561122 -10.185011 -1.4937162
-4.7402244 -10.202974 -1.5007644
-1.3385577 -2.8348057 -0.39053455
-1.356355 -2.8274326 -0.39067012
-1.3775833 -2.8270733 -0.39188999
-1.398858 -2.8265598 -0.39310989
-5.0340662 -10.019125 -1.4956138
-5.0922961 -9.9818697 -1.494665
-5.1502585 -9.9442778 -1.4937162
-5.2254696 -9.9396753 -1.497918
-5.2863603 -9.9074259 -1.497918
-5.3494101 -9.879159 -1.4985957
-5.4127893 -9.8513594 -1.499409
-5.4678278 -9.8084421 -1.497918
-4.8378253 -8.554369 -1.3061252
-4.9015613 -8.5442905 -1.3092426
-4.9653554 -8.5337515 -1.3123602
-5.0065475 -8.4843512 -1.3093781
-5.8058062 -9.7024183 -1.5084903
-5.8760219 -9.6843996 -1.5113368
-5.9337764 -9.6456318 -1.5109302
-4.9180903 -7.8856182 -1.2330676
-5.1850338 -8.2011642 -1.2890468
-5.2186866 -8.1433353 -1.284845
-5.2669363 -8.1086674 -1.2844384
-5.3541784 -8.1333008 -1.2937908
-5.6448011 -8.4613018 -1.3531585
-5.6527781 -8.361661 -1.3424506
-5.6709447 -8.2785921 -1.3344536
-6.4870629 -9.3465509 -1.5181139
-6.5425806 -9.3041391 -1.5177072
-6.5955229 -9.2581711 -1.5167584
-6.6522055 -9.2175274 -1.5167584
-5.6766472 -7.7648048 -1.2775257
-1.7025633 -2.2986362 -0.35298926
-1.7142576 -2.2849758 -0.35244709
-6.8848023 -9.0625429 -1.518656
-1.7331064 -2.2519882 -0.35041395
-1.7414111 -2.2342777 -0.34919405
-1.7557013 -2.2243285 -0.34932959
-1.768698 -2.2127397 -0.34919405
-7.1664095 -8.8555613 -1.5201471
-7.2526369 -8.8505058 -1.5270597
-7.3093367 -8.8088884 -1.5276018
-7.3759956 -8.7790451 -1.5303128
-7.4457731 -8.7524881 -1.5337013
-7.5045094 -8.7126427 -1.5347856
-7.5513163 -8.6589642 -1.5334302
-7.6141405 -8.6236086 -1.5354633
-7.6834178 -8.5951939 -1.5388519
-7.7486434 -8.5618448 -1.5414273
-7.8104024 -8.5243664 -1.5433248
-7.8692975 -8.4835463 -1.5446802
-7.9164557 -8.4300461 -1.5437315
-7.969398 -8.3827486 -1.5440025
-8.0385466 -8.352253 -1.5475266
-8.1090021 -8.3226423 -1.5513219
-8.1585245 -8.2713184 -1.5510508
-8.2161236 -8.2281141 -1.5524062
-8.2692728 -8.1803331 -1.5529484
-3.4795923 -3.3998528 -0.62719202
-3.3492672 -3.2325587 -0.59845698
-3.3754923 -3.2181005 -0.59967685
-8.5194664 -8.0238419 -1.5627074
-8.5329952 -7.9383478 -1.5560658
-3.1956069 -2.9361994 -0.55535442
-3.4600542 -3.140286 -0.60089678
-3.5552382 -3.1871214 -0.61485767
-3.5472834 -3.1409426 -0.6098426
-3.4605944 -3.0264904 -0.59059554
-3.439364 -2.9708705 -0.58341175
-3.4469764 -2.9407077 -0.58151418
-3.7483048 -3.1582892 -0.6322071
-3.7775128 -3.14347 -0.63396919
-3.8135684 -3.1340733 -0.63695109
-3.8450348 -3.1206052 -0.6391198
-9.2214108 -7.3913603 -1.5784304
-9.2712507 -7.3383293 -1.5792437
-9.3184452 -7.283134 -1.5796503
-9.3794289 -7.2385325 -1.5824966
-9.429184 -7.1850486 -1.5834454
-9.5063448 -7.1520758 -1.5891383
-5.8572664 -4.3504834 -0.95981371
-9.6221581 -7.0559726 -1.5940177
-6.0651016 -4.3904119 -0.98597342
-6.0556526 -4.3271914 -0.97987401
-6.0513248 -4.2682509 -0.9747234
-6.0139794 -4.1868815 -0.96415108
-6.2608418 -4.3019695 -1.0008831
-6.149364 -4.1700454 -0.97811198
-6.118022 -4.0942111 -0.96875954
-6.1521225 -4.0626006 -0.97025049
-6.1661434 -4.0177436 -0.96848845
-5.7231536 -3.6792364 -0.89244902
-5.7180119 -3.6265373 -0.88797611
-6.3171625 -3.952441 -0.98109388
-6.1490679 -3.7949557 -0.95019019
-6.1773152 -3.7602456 -0.95100343
-6.3557162 -3.8156028 -0.97580773
-6.2903447 -3.7240353 -0.96171129
-6.3336115 -3.6973574 -0.96496433
-6.2557144 -3.600594 -0.94910586
-6.2897534 -3.5689881 -0.95100343
-6.3296919 -3.5404856 -0.95384985
-6.6376114 -3.6594515 -0.99857891
-6.3987784 -3.4767358 -0.95791608
-6.4951057 -3.4776316 -0.96957278
-6.5732799 -3.4677653 -0.97838306
-6.5153151 -3.386241 -0.9661842
-6.5148044 -3.3353624 -0.96293116
-6.6068034 -3.3314629 -0.97391015
-6.6581779 -3.3062861 -0.97865415
-6.8011665 -3.3254342 -0.99735904
-6.6616492 -3.2067101 -0.97309691
-6.6615024 -3.1564403 -0.97011495
-6.6295638 -3.0916355 -0.96238899
-6.7240477 -3.085614 -0.97377461
-6.7266006 -3.0369587 -0.97133482
-5.7916527 -2.5721185 -0.82860839
-5.7991543 -2.5329635 -0.82738853
-6.6967006 -2.8762615 -0.95872939
-6.7662473 -2.8570883 -0.96645528
-6.831234 -2.8352699 -0.97350353
-6.8705196 -2.8022823 -0.97675651
-6.8673525 -2.7519639 -0.97377461
-6.864749 -2.702153 -0.97092819
-7.0604773 -2.7292931 -0.9972235
-6.935369 -2.6321242 -0.97648543
-6.9133234 -2.5753376 -0.97092819
-6.9355092 -2.5352511 -0.97187698
-6.9882388 -2.5060277 -0.97729868
-6.9922681 -2.4591563 -0.97567219
-6.9603939 -2.4000552 -0.96889508
-7.034121 -2.3772898 -0.97743428
-7.3260312 -2.4259784 -1.0174193
-7.3643394 -2.3886244 -1.0208079
-7.1512856 -2.2711072 -0.98814213
-7.1584635 -2.225126 -0.98719335
-7.2544484 -2.2062452 -0.99898553
-7.2450576 -2.154911 -0.99573249
-7.1668134 -2.0838547 -0.98272043
-7.1766057 -2.0390284 -0.98231381
-7.2424436 -2.009794 -0.98990417
-7.3225355 -1.9837147 -0.99952769
-7.3460641 -1.9417861 -1.0011542
-7.3511243 -1.8949434 -1.0002054
-7.5884237 -1.9065479 -1.0320579
-7.6432853 -1.870551 -1.0381573
-7.8184624 -1.8626599 -1.0611997
-7.8915157 -1.8289714 -1.0698743
-8.2476416 -1.8582762 -1.118263
-8.2172709 -1.7985238 -1.1124347
-8.3909655 -1.7826676 -1.1352059
-9.1955147 -1.8947397 -1.2460798
-9.1204967 -1.8210126 -1.2340165
-9.6752701 -1.8701452 -1.3097849
-10.302064 -1.9258274 -1.3954477
-10.741709 -1.9398935 -1.454951
-11.36442 -1.9804481 -1.5398008
-11.780869 -1.9786329 -1.5959153
-12.403104 -2.0049884 -1.680494
-12.676572 -1.9694666 -1.7166839
-12.989258 -1.9365078 -1.7582954
-13.677658 -1.953446 -1.8518199
-14.315683 -1.9550331 -1.9382961
-14.253725 -1.8575523 -1.9281304
-14.369077 -1.7829934 -1.942498
-14.334484 -1.6894571 -1.936263
-14.271716 -1.5933337 -1.9262328
-14.280239 -1.5056301 -1.9260973
-14.314842 -1.4205245 -1.9296213
-14.328222 -1.3331225 -1.930299
-14.321326 -1.2438947 -1.9282659
-14.329677 -1.156077 -1.9284015
-14.31674 -1.0666572 -1.9256907
-14.315107 -0.97825062 -1.9246063
-14.332706 -0.8911345 -1.9262328
-14.365602 -0.80472624 -1.930028
-14.316835 -0.71389943 -1.9227087
-14.29818 -0.62504369 -1.9195912
-14.275014 -0.53629488 -1.9159316
-14.271104 -0.44847691 -1.9149828
-13.019492 0.95949477 -1.9148437
-13.012374 1.039284 -1.9146957
-12.981118 1.116985 -1.9109962
-12.982883 1.1974329 -1.912328
-12.974307 1.2769748 -1.9121801
-12.983932 1.3584136 -1.9148437
-12.960608 1.4364204 -1.912624
-12.936817 1.5141923 -1.9104042
-12.918448 1.5924529 -1.9090724
-12.881953 1.6682572 -1.9050769
-12.869514 1.7470018 -1.904781
-12.858553 1.8259346 -1.904781
-12.835367 1.9030573 -1.9030051
-12.807811 1.9793596 -1.9006375
-12.806166 2.059638 -1.9022652
-12.80109 2.1394813 -1.9034491
-12.77408 2.2156198 -1.9013773
-12.741751 2.2906318 -1.8985656
-12.745929 2.3722105 -1.9013773
-12.733076 2.4507475 -1.9016733
-12.706159 2.5265143 -1.8998976
-12.688479 2.6040325 -1.8996016
-12.68097 2.6836822 -1.9009334
-12.676826 2.7641809 -1.9028572
-12.659627 2.8419123 -1.9028572
-12.643878 2.9199822 -1.9031532
-12.607442 2.9931664 -1.9003415
-12.559053 3.0632005 -1.8957541
-12.538103 3.1397231 -1.8954581
-12.54638 3.2237363 -1.8997495
-12.517756 3.2983899 -1.8984177
-12.500146 3.3759091 -1.8988616
-12.450602 3.4446311 -1.8944222
-12.417813 3.5177262 -1.8926464
-12.417842 3.6001902 -1.89605
-12.375607 3.6704094 -1.8929424
-12.364209 3.7497211 -1.8947182
-12.319242 3.8187788 -1.8913146
-12.301236 3.8960886 -1.8922025
-12.25922 3.9657092 -1.8893908
-12.232779 4.040235 -1.8890948
-12.213381 4.1171141 -1.8899827
-12.190694 4.1929417 -1.8904266
-12.155405 4.2643886 -1.8889469
-12.1048 4.3302293 -1.8850993
-12.068711 4.4010324 -1.8836195
-12.057239 4.4808598 -1.8861352
-12.026743 4.5537066 -1.8856913
-11.998576 4.6274157 -1.8856913
-11.982844 4.7060127 -1.887763
-11.96568 4.784224 -1.8896868
-11.922359 4.8519607 -1.887467
-11.896933 4.9269161 -1.888207
-11.831846 4.9852262 -1.8825836
-11.824668 5.0678625 -1.8864312
-11.78791 5.1379504 -1.8855432
-11.748929 5.2069764 -1.8843595
-11.707742 5.2749052 -1.8828796
-11.685946 5.3515859 -1.8846554
-11.643026 5.4185977 -1.8830276
-11.597937 5.4844384 -1.8811039
-11.551586 5.5495019 -1.879032
-11.560868 5.6415334 -1.8862832
-11.540212 5.7193913 -1.8886509
-11.47575 5.7754188 -1.8837675
-11.418961 5.8349214 -1.8802159
-11.374165 5.900322 -1.8787361
-11.40075 6.0031838 -1.8893908
-11.368062 6.075356 -1.8901308
-11.339264 6.1497102 -1.8916105
-11.315179 6.2268014 -1.8939782
-11.294891 6.3062387 -1.8970859
-11.261147 6.3783493 -1.8979738
-11.224372 6.4488044 -1.8984177
-11.199117 6.526021 -1.9009334
-11.210797 6.6253123 -1.9099603
-11.165692 6.6914334 -1.9092205
-11.103296 6.7469778 -1.9055208
-11.076002 6.8237991 -1.9080366
-11.035601 6.8926797 -1.9083325
-11.003963 6.9671421 -1.9102563
-10.956012 7.0313244 -1.9093684
-10.911834 7.0978775 -1.9092205
-10.904406 7.188652 -1.9157317
-10.880649 7.2691617 -1.9194312
-10.849763 7.3452139 -1.9219469
-10.809382 7.4150057 -1.9228348
-10.749064 7.4710298 -1.920171
-10.671486 7.5146341 -1.9143997
-10.644498 7.5937581 -1.9179513
-10.662626 7.7058573 -1.9299378
-10.601578 7.7612042 -1.9274222
-10.508478 7.7925262 -1.9189873
-10.52926 7.9085383 -1.9318616
-10.46322 7.9598207 -1.928606
-10.421233 8.0293055 -1.9299378
-10.390482 8.1077003 -1.9334894
-10.352953 8.1811152 -1.9358572
-10.350431 8.2828016 -1.945032
-10.300951 8.3473997 -1.945328
-10.267886 8.4255066 -1.9488796
-10.196218 8.4719152 -1.945032
-10.171286 8.5572424 -1.9503595
-10.138914 8.6368084 -1.9543549
-10.105947 8.7162991 -1.9583504
-10.051531 8.7774935 -1.9582025
-9.9982243 8.8396578 -1.9583504
-9.9636917 8.9186506 -1.962346
-9.9468851 9.0141563 -1.970041
-9.8804579 9.06499 -1.9678212
-9.8253746 9.1261177 -1.9679693
-9.7699127 9.1869106 -1.9681172
-9.7162247 9.2494125 -1.9687092
-9.6578636 9.3074837 -1.9684132
-9.6196842 9.3852167 -1.9724088
-9.5731735 9.4551859 -1.9747764
-9.5296631 9.5284338 -1.9778841
-9.4793587 9.595171 -1.9796598
-9.4279022 9.6609411 -1.9812876
-9.3773689 9.7278652 -1.9832114
-9.3202305 9.788085 -1.9838034
-9.2633848 9.848691 -1.9845432
-9.2088375 9.9118662 -1.9858751
-9.155201 9.9762001 -1.9875029
-9.1044426 10.043912 -1.9898707
-9.0485792 10.106219 -1.9912025
-8.9883633 10.163773 -1.9916464
-8.9336376 10.227672 -1.9934222
-8.8668375 10.277802 -1.9925343
-8.8061724 10.335025 -1.9931262
-8.7515068 10.399459 -1.995198
-8.6976452 10.465132 -1.9975656
-8.6439342 10.5313 -2.0000813
-8.5828886 10.588749 -2.0009692
-8.5177555 10.641213 -2.0009692
-8.4498491 10.690173 -2.0003774
-8.3895721 10.748837 -2.0017092
-8.331912 10.811079 -2.0037808
-8.2660189 10.862786 -2.0039289
-8.2211876 10.942559 -2.0094042
-8.159193 10.999947 -2.010736
-8.0938816 11.052996 -2.011328
-8.0328617 11.112069 -2.0131037
-7.9673996 11.165174 -2.0138438
-7.924367 11.250237 -2.0205028
-7.8534942 11.296213 -2.0200589
-7.781796 11.340926 -2.0194671
-7.713726 11.390918 -2.0199111
-7.6409407 11.433922 -2.019171
-7.57445 11.48637 -2.0202069
-7.5086823 11.540092 -2.0215387
-7.4393349 11.588444 -2.0219827
-7.3665023 11.631366 -2.0215387
-7.2981386 11.681379 -2.0224266
-7.2273631 11.727624 -2.0227227
-7.153213 11.768369 -2.0221307
-7.0783272 11.807797 -2.0213907
-7.0082583 11.855264 -2.0221307
-6.9363799 11.899752 -2.0224266
-6.8686538 11.951521 -2.0240545
-6.8078651 12.015815 -2.0279019
-6.7494388 12.084992 -2.0326374
-6.6784973 12.132243 -2.0336733
-6.601572 12.168647 -2.0329335
-6.5267825 12.208924 -2.0329335
-6.4517469 12.248742 -2.0329335
-6.3778348 12.290732 -2.0333774
-6.3045506 12.334038 -2.0341172
-6.2287517 12.37249 -2.0341172
-6.1531577 12.411362 -2.0342653
-6.0781884 12.45155 -2.0347092
-6.0042424 12.493958 -2.0355971
-5.9232397 12.521625 -2.0341172
-5.8492184 12.56401 -2.0351532
-5.7732525 12.602361 -2.0355971
-5.695817 12.637547 -2.0355971
-5.6277857 12.693958 -2.0391486
-5.5537429 12.737316 -2.0406284
-5.4801593 12.782062 -2.0424042
-5.3997068 12.81089 -2.0416644
-5.3202419 12.841953 -2.0413682
-5.2435822 12.879852 -2.0422564
-5.1706967 12.927395 -2.0447719
-5.0959787 12.970845 -2.0466957
-5.0219898 13.016633 -2.0490634
-4.9409761 13.044428 -2.0486195
-4.8653231 13.086551 -2.0505433
-4.7913723 13.13381 -2.053355
-4.732017 13.222558 -2.0628257
-4.6494861 13.247612 -2.0622339
-4.5706863 13.283373 -2.0634177
-4.4922547 13.320539 -2.0648975
-4.4008203 13.318741 -2.0603101
-4.3177977 13.341729 -2.0597181
-4.2364502 13.369858 -2.060014
-4.1508203 13.384265 -2.0582383
-4.0677567 13.406642 -2.0577943
-3.9837308 13.42566 -2.0569065
-3.914223 13.494494 -2.0638616
-3.8316181 13.51921 -2.0640097
-3.7578251 13.575827 -2.0691891
-3.6708441 13.585261 -2.0671172
-3.590694 13.619962 -2.069041
-3.5085328 13.647485 -2.0699289
-3.4432292 13.742626 -2.0813234
-3.3560286 13.751966 -2.0795476
-3.2743268 13.783846 -2.0813234
-3.1908019 13.808495 -2.0820634
-3.1038477 13.818164 -2.0805836
-3.0099409 13.795399 -2.0742204
-2.9076235 13.730398 -2.0614939
-2.8177524 13.720855 -2.0573504
-2.7161467 13.650586 -2.0440321
-2.6218672 13.612611 -2.0357451
-2.5350342 13.610941 -2.0330813
-2.4460454 13.596065 -2.0284939
-2.3590252 13.590354 -2.0253863
-2.2729828 13.588965 -2.0230186
-2.1867321 13.585081 -2.020355
-2.1009169 13.582604 -2.0179873
-2.012748 13.562956 -2.0131037
-1.9269857 13.557426 -2.0104401
-1.8420327 13.556254 -2.0085163
-1.7586913 13.566321 -2.0083683
-1.6744485 13.569004 -2.0071845
-1.5898939 13.568218 -2.0055568
-1.506502 13.576735 -2.0054088
-1.423786 13.591625 -2.0062966
-1.3397812 13.5942 -2.0054088
-1.2564343 13.603149 -2.0055568
-1.173113 13.612574 -2.0058527
-1.0878325 13.597827 -2.0025971
-1.0037227 13.595369 -2.0012653
-0.91955072 13.590418 -1.9996374
-0.83650792 13.601727 -2.0005252
-0.75303352 13.606604 -2.0005252
-0.66957933 13.611956 -2.0006733
-0.58562088 13.605927 -1.9991934
-0.50263476 13.6231 -2.0012653
-0.41924778 13.632848 -2.0023012
-0.33556604 13.634175 -2.0021532
-0.2521202 13.647843 -2.0039289
-0.16837385 13.649134 -2.0039289
-0.084621169 13.64991 -2.0039289
-0.00086526171 13.65215 -2.0042248
0.082921043 13.654865 -2.0046687
0.16670416 13.654099 -2.0046687
0.25046277 13.651831 -2.0045209
0.33453992 13.662889 -2.0064447
0.41876221 13.67343 -2.0083683
0.50258005 13.668627 -2.0080724
0.58690709 13.676155 -2.0097003
0.67090845 13.674272 -2.0099962
0.75523645 13.677797 -2.0111799
0.83914763 13.672906 -2.0111799
0.92362767 13.67638 -2.012512
1.008473 13.683278 -2.0144355
1.0937532 13.693592 -2.0169513
1.1786885 13.697461 -2.018579
1.2623487 13.686032 -2.0179873
1.3479491 13.69476 -2.0205028
1.4330862 13.697052 -2.0221307
1.5192833 13.70766 -2.0250902
1.5978405 13.65093 -2.0179873
1.6879884 13.692891 -2.0258303
1.7743896 13.700912 -2.0286419
1.8566929 13.677026 -2.0267181
1.9439178 13.688876 -2.0302696
2.0316482 13.702126 -2.0341172
2.1174982 13.701131 -2.035893
2.2043552 13.705456 -2.0385566
2.2954228 13.733616 -2.04492
2.3784637 13.712452 -2.043884
2.4706106 13.742375 -2.0506911
2.5552478 13.728902 -2.0509872
2.6429918 13.731416 -2.0537989
2.7329853 13.74404 -2.0582383
2.8164701 13.723137 -2.0576463
2.9057419 13.729786 -2.0613458
2.9960444 13.739719 -2.0656374
3.0837607 13.736517 -2.0680051
3.1733315 13.740463 -2.0715566
3.2653518 13.753449 -2.0765882
3.3550718 13.755253 -2.0799916
3.4434948 13.750716 -2.0825074
3.5354354 13.759022 -2.0870948
3.6291196 13.772454 -2.0925701
3.7179425 13.766158 -2.0950859
3.8073521 13.761196 -2.0978975
3.8946836 13.748042 -2.0995252
3.9806197 13.729585 -2.1004131
4.0462222 13.642324 -2.0906463
4.1198049 13.584117 -2.0854671
4.1898971 13.516074 -2.0788078
4.2846994 13.527823 -2.084727
4.3256054 13.371427 -2.0643055
4.4479017 13.466712 -2.0835433
4.5247602 13.422298 -2.0808794
4.6137896 13.413921 -2.0839872
4.6956816 13.384426 -2.0838392
4.7950449 13.403783 -2.0915344
4.8832989 13.390833 -2.094198
4.9288435 13.262354 -2.078512
5.0031214 13.213364 -2.0755522
5.0755601 13.160272 -2.0720007
5.1609154 13.140847 -2.0739243
5.2289624 13.077712 -2.068893
5.30687 13.039886 -2.0680051
5.3776975 12.985148 -2.0644536
5.454967 12.946439 -2.0635657
5.5296264 12.901816 -2.06179
5.5754857 12.791492 -2.0493593
5.6522646 12.753424 -2.0487676
5.7267547 12.710387 -2.0474355
5.8075194 12.681303 -2.0484715
5.8848038 12.644534 -2.0483234
5.950861 12.584048 -2.044328
6.0245366 12.540167 -2.0431442
6.0909567 12.481634 -2.0395925
6.1529326 12.414784 -2.0347092
6.2263246 12.371497 -2.0338213
6.2976165 12.324254 -2.0323415
6.3799505 12.298549 -2.0345612
6.4446926 12.239044 -2.0311575
6.5112767 12.18357 -2.0284939
6.5797811 12.132087 -2.0265701
6.6502829 12.084555 -2.0253863
6.7204494 12.036614 -2.0242023
6.7878408 11.983965 -2.0222788
6.8582888 11.936945 -2.0213907
6.9284153 11.889512 -2.0205028
6.9972115 11.839965 -2.0193191
7.0641356 11.787477 -2.0176911
7.1281104 11.730389 -2.0153234
7.1932077 11.675485 -2.0133998
7.2568521 11.618546 -2.0111799
7.3184814 11.558761 -2.0085163
7.3796506 11.498657 -2.0058527
7.4360433 11.431606 -2.0020051
7.5065904 11.38659 -2.0021532
7.573019 11.335382 -2.0012653
7.6341119 11.276418 -1.9990455
7.6936469 11.2155 -1.9965298
7.7606254 11.165646 -1.9960859
7.8238649 11.11054 -1.994754
7.8827 11.049443 -1.9923863
7.9364448 10.981631 -1.9888347
7.991992 10.916769 -1.9858751
8.0440969 10.847667 -1.9821756
8.1027832 10.787826 -1.9802518
8.1628351 10.730034 -1.9787719
8.22369 10.673479 -1.9775881
8.2768564 10.607225 -1.9746284
8.3301344 10.541497 -1.9718168
8.3897142 10.48401 -1.9706329
8.443922 10.42004 -1.9682652
8.5045614 10.364211 -1.9675254
8.5629387 10.305748 -1.9663415
8.6196442 10.245445 -1.9648616
8.6695194 10.177307 -1.961902
8.7188826 10.108943 -1.9589424
8.7657833 10.038123 -1.9555387
8.8101768 9.9648848 -1.9516913
8.8632383 9.9017973 -1.9499154
8.9151936 9.8377008 -1.9479917
8.9760571 9.7835417 -1.9481397
9.0258226 9.7174129 -1.94592
9.0724039 9.6481609 -1.9431083
9.1191578 9.5794191 -1.9404446
9.1619778 9.5069075 -1.937041
9.2063246 9.4363546 -1.9340814
9.2550163 9.3705416 -1.9321576
9.3039465 9.3051853 -1.9303819
9.3524237 9.239583 -1.928606
9.3933678 9.1668282 -1.9253504
9.442317 9.1021557 -1.9238707
9.4908257 9.0372286 -1.9223908
9.5331306 8.9666281 -1.9197271
9.5770998 8.8978691 -1.9175074
9.6176701 8.8262339 -1.9146957
9.6569901 8.7537718 -1.9117361
9.7038879 8.6884155 -1.9104042
9.745903 8.6188831 -1.9081845
9.7866859 8.5485125 -1.9058168
9.8217297 8.4734449 -1.9024132
9.8479404 8.3912144 -1.8973819
9.8833513 8.3172588 -1.8942742
9.9159431 8.2412901 -1.8907226
9.9510336 8.1677437 -1.887763
9.9925108 8.0996819 -1.8861352
10.036616 8.0338907 -1.8850993
10.074083 7.9629579 -1.8828796
10.100142 7.8833499 -1.8785881
10.104454 7.7874236 -1.8703011
10.185891 7.7510271 -1.8766644
10.226142 7.6830359 -1.8753325
10.25641 7.6077733 -1.8722249
10.298109 7.5411925 -1.8713371
10.339378 7.4743862 -1.8704491
10.371359 7.4010396 -1.8679334
10.393126 7.3207488 -1.863642
10.433789 7.2540174 -1.862902
10.474026 7.1870632 -1.8621621
10.507281 7.1154523 -1.8602383
10.531007 7.0376601 -1.8566868
10.556651 6.9614787 -1.8535792
10.581758 6.8852482 -1.8504715
10.609657 6.8111086 -1.8479558
10.644566 6.7416477 -1.846772
10.689086 6.6783028 -1.8473639
10.735756 6.6162219 -1.8483998
10.771079 6.547142 -1.8475119
10.79578 6.4717774 -1.8448483
10.820813 6.3968592 -1.8423325
10.866695 6.3343272 -1.8435163
10.919935 6.2759075 -1.846032
10.94533 6.2014742 -1.8438123
10.984039 6.1346803 -1.8439603
11.013676 6.0628762 -1.8426285
11.06284 6.0017848 -1.8447002
11.114286 5.9417167 -1.8472159
11.166286 5.8817039 -1.8498796
11.185486 5.8044248 -1.847068
11.226174 5.7383828 -1.8479558
11.260289 5.6689477 -1.8478079
11.286 5.5953569 -1.846328
11.324564 5.5281711 -1.847068
11.378775 5.4684315 -1.8504715
11.42463 5.4044294 -1.8525432
11.463853 5.3371487 -1.8535792
11.505377 5.2708259 -1.855059
11.532993 5.1980991 -1.8543191
11.563766 5.1268358 -1.854171
11.598633 5.0573659 -1.854763
11.628537 4.9857135 -1.8546151
11.653441 4.9119639 -1.8537271
11.700722 4.8475575 -1.8565388
11.744903 4.7816377 -1.8589065
11.740962 4.6962628 -1.8535792
11.766795 4.6230483 -1.8531352
11.811549 4.557168 -1.8557988
11.830965 4.4814558 -1.854467
11.861021 4.4098115 -1.854911
11.901793 4.3420339 -1.8571308
11.932867 4.2705898 -1.8578707
11.990576 4.2084236 -1.862902
12.001209 4.1296244 -1.8605343
12.055374 4.0657034 -1.8651217
12.070703 3.9885545 -1.863642
12.08648 3.911675 -1.8623101
12.099883 3.8341548 -1.8606822
12.11657 3.7577891 -1.8596464
12.128988 3.6802146 -1.8580186
12.158926 3.6079733 -1.8592025
12.196033 3.5377066 -1.8615702
12.237493 3.4684682 -1.8646778
12.258545 3.3933151 -1.8646778
12.281044 3.3185499 -1.8649738
12.294481 3.2413681 -1.8639379
12.343832 3.1735008 -1.8685254
12.309348 3.0842447 -1.8602383
12.333806 3.0100644 -1.8611263
12.351081 2.9341004 -1.8609782
12.382342 2.8613765 -1.86305
12.407386 2.7870793 -1.8642339
12.430051 2.7121611 -1.8651217
12.447426 2.6360455 -1.8652698
12.474023 2.5618074 -1.8668976
12.492417 2.4857988 -1.8673415
12.519089 2.4113436 -1.8691173
12.532676 2.3343015 -1.8689693
12.549684 2.2578835 -1.8694133
12.553556 2.179147 -1.8679334
12.56279 2.1014266 -1.8673415
12.616458 2.030901 -1.8735567
12.642365 1.9555649 -1.8756285
6.4038382 0.95095271 -0.93017131
6.1451793 0.87408775 -0.89021617
6.0093074 0.81720203 -0.8689068
5.9396682 0.77065754 -0.85766011
5.9275985 0.73214018 -0.85514444
5.9133162 0.69357002 -0.85233277
5.9095969 0.65640163 -0.8511489
5.9076114 0.61951095 -0.85026103
5.9063802 0.58276629 -0.8495211
5.8990121 0.54551482 -0.8478933
5.8854971 0.5078668 -0.84537762
5.8855453 0.47150815 -0.84493369
5.887341 0.43531349 -0.84478569
5.8849678 0.39884785 -0.84404582
0 0 -0
0 0 -0
5.8666172 0.28924462 -0.84034622
0 0 -0
0 0 -0
0 0 -0
5.8699713 0.14513502 -0.84005028
5.8756952 0.10920574 -0.84079021
0 0 -0
0 0 -0
0 -0 -0
0 -0 -0
0 -0 -0
0 -0 -0
0 -0 -0
0 -0 -0
0 -0 -0
0 -0 -0
0 -0 -0
0 -0 -0
0 -0 -0
0 -0 -0
0 -0 -0
0 -0 -0
0 -0 -0
6.1867642 -0.57000405 -0.8911041
11.516669 -1.1333779 -1.6930187
11.491793 -1.2021675 -1.6903549
11.458644 -1.2698225 -1.6865075
10.600969 -1.240581 -1.558503
10.591194 -1.3053619 -1.558207
10.578081 -1.3696882 -1.5574671
10.553799 -1.4324383 -1.5550994
10.573206 -1.5012031 -1.5593909
10.590209 -1.5699694 -1.5633864
11.099362 -1.7151735 -1.6419649
11.068124 -1.7799459 -1.6388572
11.048215 -1.846357 -1.6375254
11.037653 -1.914282 -1.6376734
11.038353 -1.9842477 -1.6395972
11.010413 -2.0490437 -1.6372294
10.991807 -2.1154416 -1.6363416
10.97668 -2.1824603 -1.6360456
10.954363 -2.2479808 -1.6347138
10.935525 -2.3141289 -1.6339738
10.915322 -2.3799198 -1.633086
10.889899 -2.4444664 -1.6314582
8.2912655 -1.914377 -1.2347183
10.84946 -2.5756326 -1.6299783
10.857472 -2.648016 -1.6336778
10.829508 -2.7117026 -1.6319021
10.810749 -2.7776077 -1.6316061
7.4788818 -1.970178 -1.1187004
7.506752 -2.0268641 -1.1249157
10.738728 -2.9708517 -1.6286465
10.7222 -3.0372267 -1.6289425
10.709062 -3.1046126 -1.6298304
10.686018 -3.1691384 -1.6292384
7.9786 -2.4192564 -1.2089695
7.9381008 -2.4602582 -1.2049739
7.925684 -2.5098152 -1.2054179
7.931777 -2.565402 -1.2088215
10.548092 -3.483649 -1.6236151
10.524644 -3.5476735 -1.6233191
10.497066 -3.610254 -1.6224313
10.465384 -3.6713202 -1.6209514
10.358855 -3.7054772 -1.607633
7.7158384 -2.813247 -1.1903237
10.431261 -3.8764265 -1.6265748
10.4378 -3.9519179 -1.6314582
10.447495 -4.0290589 -1.6369334
10.429021 -4.0956192 -1.6379694
10.397266 -4.1569624 -1.6369334
10.351412 -4.2124772 -1.6336778
10.312578 -4.2706141 -1.6316061
10.268864 -4.3265128 -1.6287944
10.213036 -4.3769703 -1.6240591
10.131593 -4.4158397 -1.6151801
10.101594 -4.4767203 -1.6147362
10.055902 -4.5304914 -1.6117766
10.00094 -4.579752 -1.6073371
9.9699612 -4.6397781 -1.6068932
9.9350462 -4.6979055 -1.6058573
9.8997936 -4.7557788 -1.6048213
9.8793135 -4.8207712 -1.6063012
9.8460035 -4.8795419 -1.6057093
9.7955599 -4.9296365 -1.6023057
9.7404709 -4.9770455 -1.5981622
9.7027254 -5.0330744 -1.5969783
9.6699104 -5.0915928 -1.5966823
9.6376152 -5.1503639 -1.5965344
9.5936613 -5.2028003 -1.5944626
9.5554914 -5.2582297 -1.5934268
9.5118227 -5.3104935 -1.591503
9.4592676 -5.3575449 -1.5880994
9.4090662 -5.4056296 -1.5851398
9.3526506 -5.4498143 -1.5811442
9.31563 -5.5050855 -1.5805523
9.2859173 -5.5646839 -1.5812923
9.2186375 -5.6015239 -1.575521
9.1748323 -5.652276 -1.5738932
9.1408167 -5.7089891 -1.5740411
9.1148062 -5.7707891 -1.5756689
9.0817223 -5.8282104 -1.5761129
9.0209208 -5.8676453 -1.5716734
8.9707117 -5.913631 -1.5691577
8.9087658 -5.951529 -1.5645703
8.8704424 -6.0049715 -1.5642743
8.8301678 -6.0570483 -1.5636824
8.7855272 -6.1060343 -1.5623505
8.7381935 -6.1529927 -1.5605748
8.6777334 -6.1904092 -1.5564313
8.6355782 -6.2406411 -1.5556914
8.586751 -6.2859154 -1.5537676
8.533721 -6.3278794 -1.5511039
8.4931517 -6.3789339 -1.550808
8.4514904 -6.4291306 -1.550364
8.4001322 -6.4718118 -1.5481442
8.3555861 -6.5195813 -1.5472564
8.2587843 -6.5259604 -1.5364537
8.2564201 -6.6067944 -1.5437047
8.2180309 -6.6591983 -1.5441488
8.1571398 -6.6931849 -1.5403012
8.1197205 -6.7462707 -1.5410411
8.0516882 -6.7736788 -1.5358617
8.0114794 -6.8242383 -1.5361577
7.9791913 -6.8816652 -1.5380815
7.907021 -6.9044719 -1.5321622
7.8489485 -6.9391007 -1.5290546
7.8415918 -7.0187945 -1.5361577
7.7917824 -7.0608001 -1.5348259
7.7351952 -7.0964403 -1.5321622
7.6762905 -7.1296334 -1.5290546
7.6432061 -7.1867638 -1.5312743
7.5968161 -7.2314801 -1.5308304
7.5409088 -7.2669759 -1.5284626
7.4968853 -7.3137999 -1.5286106
7.4518676 -7.3596621 -1.5286106
7.1338396 -7.1325059 -1.4708977
7.075346 -7.1613684 -1.46779
7.0057168 -7.1784558 -1.4623147
6.9464397 -7.2056413 -1.4590591
6.892549 -7.2381001 -1.4569874
6.8344564 -7.2658463 -1.4540277
6.785707 -7.3032975 -1.4531398
6.7414355 -7.3455248 -1.4532878
6.6756487 -7.3640342 -1.4487003
6.563055 -7.3296962 -1.4336061
2.1687055 -2.4509749 -0.45115352
2.1536257 -2.4642358 -0.45115352
2.1391108 -2.4781528 -0.45130149
6.4427691 -7.5608263 -1.4478124
6.4140835 -7.6214051 -1.4519559
6.3495007 -7.6393194 -1.4478124
6.2949786 -7.6689615 -1.4460367
6.2247648 -7.6790133 -1.4405613
6.1775298 -7.7170634 -1.4405613
6.1760535 -7.8130174 -1.45166
2.0064189 -2.5692134 -0.44922975
1.9857875 -2.5752089 -0.44804588
1.9627631 -2.5778999 -0.44627011
1.9433445 -2.5851502 -0.44538221
1.9227327 -2.5906706 -0.44419837
1.8483768 -2.5226219 -0.42940015
1.8403947 -2.5443358 -0.43132392
1.841406 -2.578928 -0.43561539
5.9426775 -8.4363251 -1.5055255
5.8941884 -8.4775019 -1.5064133
5.8588448 -8.5379744 -1.5108528
5.8207626 -8.5950546 -1.5147003
5.7519813 -8.606761 -1.5104089
5.6800098 -8.6129942 -1.5052295
5.6081786 -8.6186686 -1.5000501
5.5231376 -8.6029787 -1.4911712
1.7978394 -2.8370616 -0.46402794
1.7840654 -2.8539112 -0.46506384
1.7675581 -2.8664882 -0.46535978
5.3385954 -8.7824163 -1.4993103
5.2647786 -8.7819242 -1.4935389
5.2153234 -8.8217258 -1.4948708
5.1670718 -8.8638144 -1.4966465
5.0982985 -8.8704844 -1.492355
5.0374374 -8.8904133 -1.4904313
4.9948459 -8.9427423 -1.4941308
4.9417877 -8.9766874 -1.4947227
4.8686967 -8.9738054 -1.4890994
4.8228664 -9.0209551 -1.4920591
4.7692676 -9.0538778 -1.492651
4.7231884 -9.1014061 -1.4957587
4.6704049 -9.1363802 -1.4967945
4.6035857 -9.1436644 -1.493243
4.5579357 -9.1930056 -1.4967945
4.494936 -9.207468 -1.4945748
4.4400687 -9.2384405 -1.4951667
4.3799167 -9.258358 -1.4939828
4.3205218 -9.2796783 -1.4930949
4.2597952 -9.2979212 -1.4917631
4.1986012 -9.314867 -1.4902833
4.1369586 -9.3305082 -1.4886554
4.0843725 -9.3665962 -1.4904313
4.0322781 -9.4042072 -1.492503
3.9691222 -9.4160118 -1.4904313
3.9090014 -9.4347067 -1.4895434
3.8536472 -9.4649267 -1.4905792
3.7958663 -9.4893122 -1.4907272
3.7335923 -9.5022984 -1.4890994
3.674505 -9.5231829 -1.4888035
3.6167033 -9.5474005 -1.4890994
3.5580535 -9.5694122 -1.4890994
3.4999473 -9.5929222 -1.4893954
3.4413536 -9.6151476 -1.4895434
3.3842559 -9.6416817 -1.4904313
3.3237453 -9.6585245 -1.4898393
3.2574677 -9.6581202 -1.4865837
3.1959739 -9.6713514 -1.4855479
3.1383982 -9.6964254 -1.4864358
3.0821283 -9.7258711 -1.4880636
3.0209291 -9.7398767 -1.4873236
2.9585257 -9.749711 -1.4859918
2.8952718 -9.7563028 -1.484216
2.8353539 -9.7738848 -1.484216
2.7772162 -9.7977591 -1.4852519
2.7199473 -9.8250999 -1.4868797
2.6616738 -9.8492422 -1.4880636
2.6037102 -9.8749523 -1.4895434
2.5455313 -9.900321 -1.4910232
2.486418 -9.9224691 -1.4920591
2.4243162 -9.9327345 -1.4913192
2.3637815 -9.9493475 -1.4916152
2.3029115 -9.9646273 -1.4917631
2.2395597 -9.9689207 -1.4902833
2.1762419 -9.9728117 -1.4888035
2.1133704 -9.9782372 -1.4876196
2.0517075 -9.9890785 -1.4873236
1.9863257 -9.9811106 -1.484216
0.49812213 -2.581243 -0.35481721
0.48553261 -2.601752 -0.35748088
0.46973446 -2.6056557 -0.35762888
0.45559725 -2.6192076 -0.35925668
0.44212672 -2.6375611 -0.36162439
0.42452085 -2.6314363 -0.36029255
0.42815992 -2.7620285 -0.37967819
0.40699667 -2.7362332 -0.37538671
0.38950434 -2.733783 -0.37464681
0.3717913 -2.7292616 -0.37361094
0.35986623 -2.7687616 -0.37923425
0.33718169 -2.7247846 -0.37227911
1.1895213 -10.148904 -1.4904313
0.91666311 -8.2569208 -1.20453
0.28346977 -2.6970863 -0.3672477
0.2657524 -2.6869643 -0.36547193
0.72553933 -7.8499126 -1.1410457
0.67540836 -7.8315539 -1.1376421
0.6251362 -7.8079472 -1.1334987
0.57896137 -7.8353071 -1.1370502
0.53234088 -7.8604202 -1.1403058
0.63287169 -10.285956 -1.5034537
0.57416618 -10.369632 -1.5154402
0.18422937 -3.7280304 -0.51996517
0.1556212 -3.5957 -0.49998757
0.13177283 -3.5481596 -0.49273646
0.10908979 -3.5192456 -0.48829702
0.086499825 -3.4793122 -0.48222974
0.065131359 -3.4787886 -0.48208177
0.12661394 -10.24034 -1.4938349
0.02188006 -3.3883407 -0.46846741
0.00093909621 -10.267826 -1.4978304
-0.062032666 -10.262693 -1.4970905
-0.12472257 -10.239375 -1.4936869
-0.18751138 -10.236439 -1.4933909
-0.25034177 -10.236084 -1.4935389
-0.31299269 -10.229413 -1.492799
-0.37517053 -10.211487 -1.4904313
-0.43726763 -10.196148 -1.4885075
-0.50045294 -10.206114 -1.4904313
-0.56290323 -10.199889 -1.4899874
-0.62596327 -10.20414 -1.4911712
-0.69116515 -10.238589 -1.4969425
-0.7595787 -10.310102 -1.5083371
-0.84994233 -10.644377 -1.559243
-0.91600287 -10.64783 -1.5605748
-0.98204684 -10.649887 -1.5617586
-1.0479566 -10.649567 -1.5626465
-1.1136934 -10.646871 -1.5632384
-1.1797636 -10.646717 -1.5642743
-1.2473696 -10.658923 -1.5672339
-1.3207396 -10.715851 -1.5770007
-1.3170668 -10.172035 -1.4962026
-1.377992 -10.152983 -1.4945748
-1.438455 -10.131607 -1.492651
-1.4984173 -10.107916 -1.4904313
-0.45318606 -2.9382925 -0.40631497
-0.47466344 -2.9569378 -0.40957057
-1.6871532 -10.096181 -1.4930949
-0.52004534 -3.0035093 -0.41756159
-0.54616809 -3.0430901 -0.4240728
-0.56175208 -3.0231528 -0.4215571
-1.9334826 -10.046879 -1.492355
-2.0004957 -10.061986 -1.4964986
-2.0614016 -10.045647 -1.4959066
-2.1227968 -10.031841 -1.4957587
-2.1893699 -10.041818 -1.4993103
-0.63992208 -2.8547196 -0.39921182
-0.65742624 -2.8507395 -0.39921182
-2.3788638 -10.020987 -1.5025659
-2.4370246 -9.9927502 -1.500494
-2.4956496 -9.9670553 -1.4988662
-0.93991244 -3.6613321 -0.52706832
-0.76069593 -2.8904362 -0.40868267
-0.77428991 -2.8704381 -0.40631497
-0.78318268 -2.8341789 -0.40143156
-0.79543495 -2.8112411 -0.39861989
-0.81239396 -2.8053577 -0.39847192
-2.9123144 -9.820364 -1.4941308
-2.9756744 -9.8127193 -1.4957587
-0.99482495 -3.2121735 -0.46461987
-1.019295 -3.2210937 -0.46698758
-3.1764951 -9.8202696 -1.5058213
-3.2171457 -9.7414331 -1.4964986
-3.2740133 -9.7130756 -1.4951667
-3.3345151 -9.6956091 -1.4956106
-1.1297386 -3.2228396 -0.47246292
-1.147493 -3.2102599 -0.47157502
-3.4792018 -9.5415363 -1.4811084
-3.5807574 -9.6358852 -1.4996061
-1.1601515 -3.0665102 -0.45204142
-1.1810811 -3.0648704 -0.45292929
-3.7567925 -9.5665016 -1.4993103
-1.1969352 -2.9959676 -0.44419837
-1.2287191 -3.021543 -0.44952571
-3.9492762 -9.5368471 -1.5059694
-4.0038781 -9.5033216 -1.5044895
-4.0664001 -9.488574 -1.5061173
-4.1241493 -9.4625378 -1.5059694
-4.1861405 -9.4460964 -1.5074492
-4.2497106 -9.4328556 -1.509521
-4.3046265 -9.4003086 -1.5084851
-1.3224927 -2.8437443 -0.43073198
-1.3416082 -2.8391523 -0.43132392
-1.3611454 -2.8353238 -0.43206385
-1.3772155 -2.8242524 -0.43161988
-4.6054487 -9.2930822 -1.5133685
-4.6668301 -9.2734823 -1.5148484
-4.7294946 -9.2561207 -1.516772
-4.7848334 -9.2242937 -1.5163281
-4.8427253 -9.1973858 -1.516772
-4.8972034 -9.16401 -1.5161802
-4.958056 -9.1424818 -1.51766
-4.7226777 -8.5825081 -1.427243
-4.7424607 -8.4946527 -1.4171802
-4.7686567 -8.4197874 -1.4093372
-4.7872148 -8.3329172 -1.3994223
-4.8063817 -8.248702 -1.3899515
-4.8553944 -8.2165012 -1.3895075
-4.8909731 -8.1619539 -1.385216
-4.9008965 -8.0658693 -1.3736734
-4.9611912 -8.0533276 -1.3767811
-4.9334855 -7.8994355 -1.3550277
-5.0892754 -8.0386305 -1.3850681
-5.2149005 -8.1262674 -1.4062295
-5.2625065 -8.0908003 -1.4056376
-5.3528829 -8.1202822 -1.4167362
-5.4377732 -8.1399126 -1.4262071
-5.4332752 -8.0261393 -1.4117048
-5.4538846 -7.9510603 -1.4041578
-5.497488 -7.9101377 -1.402826
-5.5533237 -7.8867683 -1.4047496
-5.6280355 -7.8895779 -1.4115568
