# .PCD v0.7 - Point Cloud Data file format
VERSION 0.7
FIELDS x y z
SIZE 4 4 4
TYPE F F F
COUNT 1 1 1
WIDTH 1503
HEIGHT 1
VIEWPOINT 0 0 0 1 0 0 0
POINTS 1503
DATA ascii
3.9406536 -10.577817 -1.505915
3.882139 -10.619477 -1.5084903
3.8219235 -10.657086 -1.5105236
3.7558033 -10.678468 -1.5102524
3.6811662 -10.675086 -1.5064572
3.6130576 -10.689963 -1.5053729
3.5436592 -10.700645 -1.5037464
3.4718199 -10.703339 -1.5010356
3.4021809 -10.712164 -1.4992734
3.3349175 -10.728107 -1.4985957
3.2664335 -10.739838 -1.4973758
3.2007561 -10.760627 -1.4975114
3.1363299 -10.785772 -1.4983246
3.0635905 -10.78194 -1.4950716
2.9936664 -10.787169 -1.4931741
2.9263847 -10.801511 -1.4926319
2.8592932 -10.816389 -1.4922253
2.7916343 -10.828933 -1.4915476
2.7212732 -10.830484 -1.4893788
2.6545317 -10.846015 -1.4892433
2.5865541 -10.856317 -1.48843
2.5181022 -10.864262 -1.4873457
2.4520464 -10.882407 -1.4877523
2.3867102 -10.904023 -1.4887011
2.3205831 -10.922338 -1.4892433
2.2517214 -10.927638 -1.4880234
2.1751208 -10.893641 -1.4813818
0.50891858 -2.6344442 -0.32872713
0.49565789 -2.6530995 -0.33089581
0.48183507 -2.6697409 -0.33279338
0.46714607 -2.6824076 -0.33414882
0.45281211 -2.6979256 -0.33591089
0.43909594 -2.7182584 -0.33835065
0.42514718 -2.738524 -0.34079042
0.40424442 -2.7136428 -0.33699521
0.38436368 -2.6935134 -0.33387774
0.36742711 -2.6928761 -0.33347112
0.35089701 -2.6950798 -0.33347112
0.23685028 -1.9115833 -0.22517253
0 -0 -0
0.91797829 -8.2239895 -1.0937299
1.1689516 -11.087844 -1.4869391
1.1035383 -11.121428 -1.4905987
1.0341759 -11.116151 -1.4889722
0.68028492 -7.834414 -1.0374796
0.62941152 -7.8038764 -1.0327357
0.28319979 -3.8050776 -0.48365235
0.53684223 -7.858459 -1.0392417
0.23476201 -3.7805784 -0.47985718
0.62298983 -11.122943 -1.4857192
0.18464805 -3.7089591 -0.46969149
0.15954874 -3.6565716 -0.46237218
0.1324565 -3.5337226 -0.44542933
0.10930753 -3.4879258 -0.43905884
0.085873209 -3.408304 -0.42807987
0.064635746 -3.3919268 -0.42577565
0.04357668 -3.3734365 -0.42320034
0.022979379 -3.3885014 -0.42523348
0.0081905955 -11.250348 -1.5007644
-0.06109589 -11.297743 -1.5072705
-0.13062163 -11.314988 -1.5097102
-0.20011654 -11.317936 -1.5102524
-0.2700766 -11.338286 -1.5132344
-0.33984941 -11.343348 -1.5141832
-0.4091588 -11.333128 -1.5130988
-0.47923306 -11.343273 -1.5148609
-0.55083513 -11.381682 -1.5205537
-0.6212008 -11.387981 -1.5219091
-0.69178444 -11.395823 -1.5235356
-0.76129842 -11.385432 -1.5227224
-0.83107167 -11.379559 -1.5225868
-0.90150523 -11.382147 -1.5236712
-0.97276008 -11.393183 -1.5259753
-1.0421975 -11.382066 -1.5252976
-1.1122097 -11.377429 -1.5255687
-1.1845595 -11.395027 -1.5289572
-1.25836 -11.422998 -1.5338368
-1.329457 -11.423919 -1.5350567
-1.3975993 -11.399812 -1.5328881
-1.4667616 -11.385126 -1.5320748
-0.39539796 -2.925046 -0.36545917
-0.41416994 -2.9284508 -0.36627242
-0.43603572 -2.9523187 -0.36993209
-1.7628977 -11.457335 -1.5475266
-1.8256465 -11.399344 -1.5410206
-0.50120163 -3.0092738 -0.37901345
-0.52302951 -3.0256679 -0.3817243
-0.534949 -2.9853418 -0.37657368
-2.0775788 -11.204007 -1.5205537
-2.1350913 -11.132666 -1.5124211
-2.1966207 -11.08534 -1.5076771
-2.2651935 -11.074565 -1.5080837
-2.309999 -10.950911 -1.4927675
-0.61922014 -2.8474483 -0.36030856
-0.63451666 -2.8339264 -0.35895312
-0.64855933 -2.8154972 -0.35691997
-2.5942535 -10.959375 -1.502391
-0.89445436 -3.6766601 -0.47931501
-0.91363704 -3.657645 -0.47741741
-2.8230808 -11.017262 -1.5175717
-0.76004893 -2.8910606 -0.37060979
-0.76952881 -2.8557286 -0.36627242
-0.79441535 -2.8776956 -0.37006763
-3.1262798 -11.063843 -1.5345145
-0.81618339 -2.8210931 -0.36342603
-3.2685602 -11.047447 -1.5377675
-3.3606694 -11.107791 -1.5492887
-1.0040755 -3.2457378 -0.42645338
-3.4835923 -11.024146 -1.5433248
-3.5402153 -10.968619 -1.5384452
-3.6108615 -10.957042 -1.5399363
-3.6871839 -10.961913 -1.543867
-3.7321856 -10.874421 -1.5345145
-1.1274444 -3.2196732 -0.42835096
-1.1465126 -3.2108283 -0.42807987
-1.1665311 -3.2046642 -0.42821541
-3.9772635 -10.723816 -1.526382
-1.1686496 -3.0918646 -0.41384789
-1.1936486 -3.1003549 -0.41615212
-4.084681 -10.420945 -1.492903
-1.2224251 -3.0624681 -0.41276357
-1.2408203 -3.0539918 -0.41262802
-1.2618066 -3.0518148 -0.41344127
-4.328824 -10.292904 -1.4892433
-4.3989124 -10.282546 -1.4916831
-4.460341 -10.251727 -1.4911408
-4.5227599 -10.22326 -1.4910053
-4.5833716 -10.190798 -1.4903276
-4.6470504 -10.165187 -1.4907342
-4.7201881 -10.159843 -1.4942584
-1.3440558 -2.8464534 -0.39229661
-1.358497 -2.8318994 -0.39134783
-1.3845254 -2.8413248 -0.39405867
-1.3997366 -2.8283358 -0.39338097
-5.0318422 -10.014698 -1.4949361
-5.0868936 -9.9712791 -1.4930385
-5.1466136 -9.9372396 -1.4926319
-5.2125616 -9.9151201 -1.4941229
-5.2719026 -9.8803272 -1.4937162
-5.3413906 -9.8643475 -1.4962915
-5.4104037 -9.8470182 -1.4987313
-5.4683104 -9.8093081 -1.4980536
-4.8412395 -8.5604067 -1.307074
-4.8921947 -8.5279617 -1.3066673
-4.9558887 -8.5174799 -1.3097849
-4.9924498 -8.4604588 -1.305583
-5.8027539 -9.6973171 -1.5076771
-5.8585486 -9.6555996 -1.5067283
-5.911974 -9.6101875 -1.5052373
-4.9138961 -7.8788924 -1.2319833
-5.1882105 -8.2061892 -1.28986
-5.2186866 -8.1433353 -1.284845
-5.270174 -8.1136532 -1.2852516
-5.3492756 -8.1258526 -1.2925709
-5.6343546 -8.4456415 -1.3505832
-5.6350226 -8.3353949 -1.3381132
-5.6591873 -8.261426 -1.3316072
-6.4785895 -9.334341 -1.5160807
-6.5294738 -9.2854986 -1.5145898
-6.5840259 -9.2420321 -1.5140476
-6.6475673 -9.2111006 -1.5156741
-5.648582 -7.7264118 -1.2710196
-1.700205 -2.2954512 -0.35244709
-0 -0 -0
-6.8848023 -9.0625429 -1.518656
-1.7282732 -2.2457061 -0.34932959
-1.7414111 -2.2342777 -0.34919405
-1.780251 -2.2554398 -0.35475132
-7.2108984 -9.0232077 -1.5418339
-7.2094131 -8.9087048 -1.5294995
-7.2601724 -8.8597021 -1.5286862
-7.3188267 -8.8203259 -1.5296351
-7.388742 -8.7942171 -1.5330236
-7.4406371 -8.7464504 -1.532617
-7.4967508 -8.7036343 -1.5331591
-7.5597816 -8.6686716 -1.5351923
-7.620698 -8.6310358 -1.5368187
-7.681437 -8.5929775 -1.5384452
-7.7486434 -8.5618448 -1.5414273
-7.7983551 -8.5112171 -1.5408851
-7.8612123 -8.4748297 -1.5430537
-7.9191689 -8.4329348 -1.5442736
-7.9850984 -8.3992643 -1.54712
-8.0392332 -8.3529663 -1.5476621
-8.0889521 -8.302062 -1.5473911
-8.150176 -8.2628536 -1.5494243
-8.2154236 -8.2274132 -1.5522707
-8.268569 -8.179637 -1.5528128
-3.4930556 -3.4130096 -0.62976736
-3.3449903 -3.22843 -0.59764373
-3.3754923 -3.2181005 -0.59967685
-8.5317268 -8.0353909 -1.5650116
-8.5482283 -7.9525204 -1.5589123
-3.204361 -2.9442441 -0.55698097
-3.3874273 -3.0743597 -0.58747804
-3.5692542 -3.199688 -0.61743295
-3.527257 -3.1232071 -0.60618293
-3.4680517 -3.0330133 -0.59195095
-3.4558578 -2.9851203 -0.58639371
-3.4424543 -2.9368489 -0.58070093
-3.6346619 -3.0625191 -0.61187571
-3.8117814 -3.1719916 -0.64006859
-3.8388267 -3.1548343 -0.641424
-3.8111882 -3.0931311 -0.63315588
-9.2105875 -7.3826847 -1.5765327
-9.2549372 -7.3254156 -1.5763972
-9.3090782 -7.2758121 -1.5780238
-9.3817825 -7.2403483 -1.5829033
-9.4425802 -7.1952577 -1.5857496
-9.4992189 -7.1467147 -1.5879184
-5.8580618 -4.3510742 -0.95994925
-9.6740904 -7.0940576 -1.602828
-6.0626941 -4.388669 -0.98556679
-6.0226035 -4.3035727 -0.97431678
-6.0173216 -4.2442641 -0.96903062
-6.0156054 -4.188014 -0.96442217
-6.1440749 -4.2217269 -0.98150051
-6.2166023 -4.2156467 -0.98922646
-6.1064949 -4.0864964 -0.9668619
-6.1595635 -4.0675149 -0.97147036
-6.1968565 -4.0377579 -0.97350353
-5.7481551 -3.6953111 -0.89651531
-5.7238684 -3.6302524 -0.8889249
-6.2743278 -3.9256375 -0.97418123
-6.1870074 -3.8183734 -0.95628959
-6.1773152 -3.7602456 -0.95100343
-6.3132448 -3.7901025 -0.96903062
-6.3099532 -3.7356453 -0.96482879
-6.3490124 -3.7063491 -0.96740407
-6.2660184 -3.6065254 -0.95073235
-6.2837214 -3.5655651 -0.95005465
-6.3962712 -3.5777314 -0.96428663
-6.553452 -3.6130471 -0.98543125
-6.3770151 -3.4649093 -0.95452756
-6.4741435 -3.4664066 -0.96631974
-6.6039495 -3.4839475 -0.98312706
-6.5390506 -3.3985789 -0.96984386
-6.5192142 -3.3376203 -0.96360892
-6.5961876 -3.3261092 -0.9722836
-6.6564031 -3.3054047 -0.97838306
-6.738863 -3.2949669 -0.98787105
-6.6848593 -3.2178843 -0.97662097
-6.6140504 -3.1339526 -0.96293116
-6.5954432 -3.0757213 -0.95723838
-6.7186451 -3.0831344 -0.97296137
-6.7356305 -3.0410359 -0.97269028
-5.7844086 -2.5689008 -0.82752407
-5.814589 -2.5397062 -0.82969278
-6.7476792 -2.8981605 -0.96631974
-6.7762876 -2.8613284 -0.96794629
-6.8486204 -2.8424871 -0.97607881
-6.9035454 -2.8157547 -0.98163605
-6.8820667 -2.7578614 -0.97594327
-6.864749 -2.702153 -0.97092819
-7.0475397 -2.7242911 -0.99532586
-6.922401 -2.6272018 -0.97458786
-6.907753 -2.5732622 -0.97011495
-6.9168987 -2.5284469 -0.96916616
-6.9714518 -2.5000069 -0.97485894
-7.005353 -2.4637589 -0.97756982
-6.9660139 -2.4019933 -0.96970832
-7.1720948 -2.4239285 -0.99735904
-7.2583132 -2.4035501 -1.0076603
-7.3558574 -2.3858728 -1.019588
-7.1616726 -2.2744064 -0.98963308
-7.1849542 -2.233362 -0.99098849
-7.2686667 -2.2105701 -1.0010186
-7.2441077 -2.1546285 -0.99559695
-7.1782293 -2.0871749 -0.98434693
-7.217586 -2.0506742 -0.98814213
-7.2453079 -2.0105889 -0.99031079
-7.3196669 -1.9829373 -0.99912107
-7.3393588 -1.9400134 -1.0002054
-7.3904595 -1.9050853 -1.0057627
-7.6134071 -1.9128262 -1.0355821
-7.6192265 -1.8646617 -1.0347688
-7.8493037 -1.8700092 -1.065537
-7.8944111 -1.8296425 -1.0702809
-8.2631063 -1.8617613 -1.1204318
-8.2221098 -1.7995832 -1.1131124
-8.4229469 -1.7894636 -1.1396788
-9.2789669 -1.9119388 -1.2577364
-9.124383 -1.8217887 -1.2345587
-9.6752701 -1.8701452 -1.3097849
-10.245579 -1.9152659 -1.3875864
-10.750484 -1.9414785 -1.4561709
-11.31757 -1.9722819 -1.5332947
-11.89812 -1.9983294 -1.6121805
-12.319968 -1.9915465 -1.6689728
-12.701047 -1.9732699 -1.7200724
-12.967699 -1.933293 -1.7553135
-13.687466 -1.9548471 -1.8531753
-14.246967 -1.9456469 -1.9288081
-14.155478 -1.844746 -1.9145762
-14.24519 -1.7676175 -1.9254196
-14.252815 -1.6798294 -1.9250129
-14.281563 -1.5944332 -1.9275882
-14.303886 -1.5081241 -1.9293503
-14.313857 -1.4204266 -1.9294858
-14.319344 -1.3322963 -1.9290792
-14.303559 -1.2423511 -1.9258262
-14.297087 -1.1534469 -1.9239286
-14.310812 -1.0662154 -1.9248774
-14.32005 -0.97858852 -1.925284
-14.325785 -0.89070392 -1.925284
-14.327024 -0.80256402 -1.9247419
-14.325741 -0.71434373 -1.9239286
-14.295211 -0.62491375 -1.9191846
-14.306696 -0.53748602 -1.9202689
-14.311706 -0.44975397 -1.92054
-13.02541 0.95993137 -1.9157317
-13.019275 1.0398357 -1.9157317
-12.989986 1.1177489 -1.912328
-13.017351 1.200615 -1.9175074
-12.998913 1.2793988 -1.9158796
-12.991802 1.3592376 -1.9160275
-12.95766 1.4360933 -1.9121801
-12.965303 1.517529 -1.9146957
-12.919431 1.592574 -1.9092205
-12.884895 1.6686385 -1.9055208
-12.878334 1.7481998 -1.9061128
-12.892823 1.8308042 -1.9099603
-12.881347 1.9098787 -1.9099603
-12.860589 1.9875209 -1.9086285
-12.840341 2.0651376 -1.9074446
-12.814747 2.1417651 -1.9055208
-12.816955 2.2230601 -1.9078885
-12.788472 2.2990355 -1.9056689
-12.741068 2.3713052 -1.9006375
-12.714623 2.4471943 -1.8988616
-12.708098 2.5269003 -1.9001935
-12.695261 2.6054249 -1.9006375
-12.681938 2.683887 -1.9010814
-12.671995 2.7631269 -1.9021173
-12.635503 2.8364947 -1.8991576
-12.607262 2.9115224 -1.8975298
-12.5805 2.9867673 -1.896198
-12.548485 3.0606215 -1.8941263
-12.522754 3.1358778 -1.8930904
-12.482203 3.2072403 -1.8898348
-12.454638 3.2817526 -1.8886509
-12.453363 3.36327 -1.8916105
-12.400084 3.43065 -1.8865792
-12.406395 3.5144904 -1.8908707
-12.392196 3.5927522 -1.8920544
-12.366125 3.6675966 -1.8914626
-12.336763 3.7413948 -1.8904266
-12.295627 3.811456 -1.8876151
-12.295579 3.8942964 -1.8913146
-12.287449 3.9748435 -1.8938303
-12.267524 4.0517144 -1.8945702
-12.219004 4.11901 -1.8908707
-12.183212 4.1903677 -1.8892429
-12.153539 4.2637339 -1.8886509
-12.115974 4.3342276 -1.8868752
-12.083577 4.406455 -1.8859873
-12.071144 4.4860291 -1.8883549
-12.035992 4.5572095 -1.887171
-12.016108 4.6341786 -1.888503
-11.991129 4.7092671 -1.8890948
-11.959252 4.7816529 -1.8886509
-11.916863 4.8497233 -1.8865792
-11.905156 4.9303222 -1.8895388
-11.852807 4.99406 -1.8859873
-11.819214 5.0655246 -1.8855432
-11.782471 5.1355791 -1.8846554
-11.767917 5.2153935 -1.887467
-11.737497 5.2883143 -1.887763
-11.69134 5.3540568 -1.8855432
-11.655579 5.4244409 -1.8850993
-11.583632 5.4776726 -1.8787361
-11.545346 5.5465035 -1.8779962
-11.53776 5.6302543 -1.8824357
-11.498566 5.6987462 -1.8816957
-11.4837 5.7794209 -1.8850993
-11.455948 5.8538256 -1.8864312
-11.377676 5.902144 -1.879328
-11.378875 5.9916625 -1.8856913
-11.356724 6.0692949 -1.888207
-11.33057 6.1449947 -1.8901308
-11.308248 6.2229862 -1.8927944
-11.28194 6.299006 -1.8948661
-11.237914 6.3651872 -1.8939782
-11.214082 6.4428916 -1.896642
-11.188009 6.5195465 -1.8990097
-11.163971 6.5976338 -1.9018213
-11.130913 6.6705866 -1.9031532
-11.088083 6.7377319 -1.9028572
-11.067582 6.8186111 -1.9065567
-11.03644 6.8932037 -1.9084805
-11.002292 6.9660835 -1.9099603
-10.98098 7.0473518 -1.9138079
-10.947479 7.121069 -1.9155836
-10.909359 7.1919184 -1.9166195
-10.881471 7.269711 -1.9195791
-10.839935 7.3385596 -1.920171
-10.788995 7.4010177 -1.9191352
-10.767741 7.4840136 -1.9235747
-10.739406 7.5624709 -1.9268303
-10.707293 7.6385641 -1.9294939
-10.639382 7.6890554 -1.9256464
-10.622325 7.7763953 -1.9312698
-10.583942 7.848496 -1.9330455
-10.549818 7.9239826 -1.9357092
-10.493916 7.9831762 -1.9343773
-10.470586 8.067337 -1.9392607
-10.425566 8.1350822 -1.9401486
-10.380109 8.2025785 -1.9410366
-10.321862 8.2599354 -1.9395567
-10.290195 8.3386812 -1.9432563
-10.241893 8.4041739 -1.9438483
-10.193936 8.4700193 -1.9445881
-10.159935 8.5476904 -1.9481397
-10.110308 8.6124353 -1.9487317
-10.089473 8.7020874 -1.9550948
-10.027695 8.7566748 -1.953467
-9.981184 8.8245897 -1.9549469
-9.9592705 8.9146929 -1.9614581
-9.905117 8.9762983 -1.961606
-9.8462095 9.0335627 -1.9608661
-9.827548 9.1281366 -1.9684132
-9.7850418 9.2011395 -1.9712249
-9.7004671 9.2344093 -1.9654536
-9.6656971 9.315033 -1.970041
-9.603404 9.3693304 -1.9690051
-9.5724697 9.4544907 -1.9746284
-9.5401525 9.5389242 -1.9801039
-9.494648 9.6106501 -1.9829154
-9.4472408 9.6807613 -1.9854312
-9.3766823 9.7271528 -1.9830635
-9.3134117 9.7809229 -1.9823235
-9.2633848 9.848691 -1.9845432
-9.2182608 9.9220104 -1.9879469
-9.1699104 9.9922314 -1.9907585
-9.1210461 10.062233 -1.9935702
-9.0762844 10.137167 -1.9974177
-9.0119476 10.190445 -1.9969738
-8.947299 10.243315 -1.9965298
-8.8842783 10.298021 -1.9965298
-8.8209238 10.352341 -1.9965298
-8.7546902 10.403243 -1.9959378
-8.6913242 10.457525 -1.9960859
-8.6370325 10.522889 -1.9984536
-8.5884924 10.595664 -2.0023012
-8.5307331 10.657429 -2.004077
-8.463953 10.70802 -2.0037808
-8.4011326 10.763651 -2.0045209
-8.3361378 10.816564 -2.0048168
-8.2738028 10.873018 -2.0058527
-8.2158413 10.935442 -2.0080724
-8.1568365 10.996769 -2.0101442
-8.1026449 11.064965 -2.0135477
-8.0183783 11.092031 -2.0094042
-7.9605069 11.155513 -2.0120678
-7.9158249 11.238109 -2.0182831
-7.8551874 11.298649 -2.0205028
-7.7857122 11.346635 -2.0205028
-7.721489 11.402383 -2.0219827
-7.6546764 11.45448 -2.0228705
-7.5869708 11.505362 -2.0236106
-7.5129967 11.546723 -2.0227227
-7.440403 11.590108 -2.0222788
-7.365973 11.63053 -2.0213907
-7.2981386 11.681379 -2.0224266
-7.2268443 11.726782 -2.0225747
-7.1537266 11.769214 -2.0222788
-7.0788355 11.808645 -2.0215387
-7.0027232 11.845899 -2.0205028
-6.9383721 11.903169 -2.0230186
-6.8721032 11.957523 -2.0250902
-6.8015285 12.004627 -2.0259783
-6.726295 12.043545 -2.0255344
-6.6537008 12.087189 -2.0259783
-6.5893121 12.146044 -2.0290859
-6.5174584 12.19148 -2.0299737
-6.4406872 12.22774 -2.0293818
-6.3641715 12.264396 -2.0289378
-6.2883487 12.302335 -2.02879
-6.2203035 12.355705 -2.0313056
-6.1492047 12.403387 -2.0329335
-6.0755858 12.446217 -2.0338213
-5.9991026 12.483262 -2.0338213
-5.9219713 12.518943 -2.0336733
-5.8404541 12.54518 -2.0320456
-5.7654276 12.585277 -2.0327854
-5.6917539 12.628531 -2.0341172
-5.6241789 12.685821 -2.0378168
-5.5537429 12.737316 -2.0406284
-5.4789906 12.779335 -2.0419602
-5.3981705 12.807244 -2.0410724
-5.3191066 12.839212 -2.0409243
-5.2383623 12.867028 -2.0401845
-5.1607819 12.902601 -2.0407765
-5.0847702 12.942308 -2.0421083
-5.0098886 12.98526 -2.0440321
-4.9357224 13.030554 -2.0463998
-4.8667011 13.090259 -2.0511351
-4.7961164 13.146818 -2.0554266
-4.7246876 13.202072 -2.0595701
-4.6380258 13.21495 -2.0570545
-4.5594268 13.250641 -2.0582383
-4.4865675 13.303671 -2.0622339
-4.406404 13.335645 -2.0629737
-4.3266263 13.369018 -2.0640097
-4.2400341 13.381171 -2.06179
-4.1555061 13.399379 -2.060606
-4.0743589 13.42841 -2.061198
-3.9949811 13.463587 -2.0628257
-3.9183543 13.508742 -2.0660813
-3.8380885 13.542047 -2.0675611
-3.7509675 13.551044 -2.0653415
-3.6685228 13.576669 -2.0657854
-3.5859051 13.601791 -2.0662293
-3.5023785 13.623538 -2.0662293
-3.4280913 13.682187 -2.0720007
-3.3424337 13.696239 -2.0709648
-3.2619882 13.731885 -2.0733325
-3.187463 13.794041 -2.0798438
-3.1047144 13.822023 -2.0811756
-3.0124698 13.806993 -2.0759962
-2.9127438 13.754587 -2.0651934
-2.8111897 13.688885 -2.0524671
-2.7161467 13.650586 -2.0440321
-2.6302805 13.656313 -2.0424042
-2.5353963 13.612885 -2.0333774
-2.4462204 13.597038 -2.0286419
-2.3595324 13.593277 -2.0258303
-2.2716782 13.581162 -2.0218346
-2.1868892 13.586058 -2.0205028
-2.1012192 13.584559 -2.0182831
-2.0137637 13.569804 -2.0141397
-1.9276812 13.562322 -2.0111799
-1.8417665 13.554295 -2.0082204
-1.7564042 13.548667 -2.0057046
-1.673117 13.558208 -2.0055568
-1.590584 13.574112 -2.0064447
-1.5074829 13.585582 -2.0067406
-1.4232713 13.586707 -2.0055568
-1.3389089 13.585342 -2.004077
-1.2548895 13.586408 -2.003041
-1.1703136 13.580057 -2.0009692
-1.0883839 13.604728 -2.003633
-1.0043772 13.604246 -2.0025971
-0.92121768 13.615086 -2.0033369
-0.83699292 13.609624 -2.0017092
-0.75314265 13.608579 -2.0008214
-0.66923976 13.605041 -1.9996374
-0.58583313 13.610868 -1.9999334
-0.50238013 13.616182 -2.0002294
-0.41876271 13.617032 -1.9999334
-0.33525079 13.621322 -2.0002294
-0.25181109 13.631033 -2.0014131
-0.16827692 13.641222 -2.0027452
-0.08456675 13.641009 -2.0025971
-0.0008654127 13.645226 -2.0031891
0.082854055 13.643987 -2.003041
0.166692 13.653111 -2.0045209
0.2506268 13.66073 -2.0058527
0.33456421 13.663878 -2.0065925
0.41851932 13.665523 -2.0071845
0.50254363 13.667639 -2.0079243
0.58643973 13.665286 -2.0080724
0.6702773 13.66143 -2.0080724
0.75512719 13.675822 -2.010884
0.83957225 13.679816 -2.0122159
0.92402804 13.682301 -2.0133998
1.0080364 13.67736 -2.0135477
1.0932802 13.687676 -2.0160635
1.1780095 13.689579 -2.0173953
1.2636216 13.69982 -2.0200589
1.3492095 13.707556 -2.0224266
1.4339101 13.704921 -2.0233145
1.5191743 13.706676 -2.0249424
1.6054344 13.71576 -2.0277541
1.6896837 13.706634 -2.0279019
1.7735 13.694046 -2.027606
1.8570923 13.679966 -2.0271621
1.9436395 13.686917 -2.0299737
2.0261328 13.664951 -2.0284939
2.1193118 13.712859 -2.0376687
2.2026267 13.694715 -2.0369289
2.2944441 13.727763 -2.0440321
2.3813386 13.729017 -2.0463998
2.4664087 13.719014 -2.0471396
2.5528941 13.716262 -2.0490634
2.6407478 13.719763 -2.0520232
2.729898 13.72852 -2.0558705
2.819056 13.735731 -2.0595701
2.9094293 13.747201 -2.0640097
2.9970984 13.744551 -2.0663774
3.0859277 13.746166 -2.0694849
3.1768935 13.755881 -2.0739243
3.26718 13.761147 -2.0777719
3.3581195 13.767743 -2.0819154
3.448061 13.768944 -2.085319
3.5381436 13.769558 -2.0887227
3.6301279 13.776279 -2.0931621
3.7189741 13.769977 -2.0956779
3.8070884 13.760242 -2.0977495
3.8938746 13.745188 -2.0990813
3.9795177 13.725785 -2.0998213
4.0630999 13.699213 -2.0995252
4.1396155 13.649418 -2.0956779
4.212451 13.58881 -2.0902023
4.2751408 13.497654 -2.0799916
4.3910689 13.573731 -2.0961218
4.4572091 13.494884 -2.0879827
4.5212841 13.41199 -2.0792518
4.6060672 13.391477 -2.0804355
4.6999388 13.396558 -2.085763
4.7893801 13.387953 -2.0890186
4.8649979 13.340661 -2.0862069
4.9243636 13.250302 -2.0765882
4.9852571 13.166195 -2.0680051
5.0709329 13.148276 -2.0700769
5.1482592 13.108629 -2.0687451
5.2274933 13.074039 -2.0683012
5.298667 13.019733 -2.0647495
5.3871598 13.007991 -2.0681531
5.4641852 12.968311 -2.0671172
5.5074148 12.850004 -2.053355
5.5742998 12.788773 -2.0489154
5.6554713 12.760657 -2.0499513
5.7316308 12.721208 -2.0492115
5.803401 12.672312 -2.0469916
5.8727002 12.618532 -2.0440321
5.9462094 12.574214 -2.0427003
6.0215383 12.533927 -2.0421083
6.0961623 12.492299 -2.0413682
6.1762128 12.461748 -2.0425522
6.2454457 12.409482 -2.0401845
6.31427 12.356837 -2.0378168
6.3826833 12.303816 -2.035449
6.4488406 12.24692 -2.0324895
6.5206013 12.201015 -2.0314536
6.5906267 12.152081 -2.0299737
6.6579132 12.098417 -2.0277541
6.7252717 12.045249 -2.0256822
6.7936907 11.994291 -2.0240545
6.8622308 11.943805 -2.0225747
6.9284153 11.889512 -2.0205028
6.9931855 11.833155 -2.0181351
7.0565085 11.774754 -2.0154715
7.1214333 11.719401 -2.0133998
7.1849065 11.662013 -2.0110321
7.2521362 11.610998 -2.0098481
7.3237724 11.567117 -2.0099962
7.3876638 11.511141 -2.0080724
7.4425154 11.441554 -2.0037808
7.4984245 11.374206 -1.9999334
7.5570846 11.311536 -1.9969738
7.622467 11.259221 -1.9959378
7.6863732 11.204899 -1.994606
7.7504644 11.151029 -1.9934222
7.8084888 11.088709 -1.9907585
7.8694878 11.030928 -1.9889827
7.9306512 10.973617 -1.9873549
7.9925761 10.917567 -1.9860231
8.0535231 10.860376 -1.9845432
8.1110992 10.798896 -1.9823235
8.1742134 10.744988 -1.9815836
8.2055798 10.649978 -1.9731486
8.265296 10.592412 -1.9718168
8.320322 10.529083 -1.969449
8.3773546 10.468567 -1.9676733
8.4339581 10.407747 -1.9658976
8.4882488 10.344335 -1.9636778
8.546504 10.285972 -1.9624939
8.6062727 10.229554 -1.9617541
8.6586161 10.16451 -1.9593863
8.707901 10.096212 -1.9564266
8.7683849 10.041102 -1.9561307
8.8272104 9.984148 -1.9555387
8.8803902 9.9209547 -1.953763
8.9238281 9.8472271 -1.9499154
8.959341 9.7653246 -1.9444401
9.0029364 9.6927776 -1.9408885
9.0507221 9.6251068 -1.9383729
9.1014261 9.5607967 -1.9365971
9.1564875 9.5012112 -1.9358572
9.2063246 9.4363546 -1.9340814
9.2550163 9.3705416 -1.9321576
9.2990513 9.3002901 -1.929346
9.3460913 9.2333279 -1.9272742
9.3926601 9.1661377 -1.9252025
9.4394684 9.099411 -1.9232787
9.4793653 9.0263176 -1.9200231
9.5252056 8.9591751 -1.9180993
9.572752 8.8938303 -1.9166195
9.6183987 8.8269024 -1.9148437
9.6635847 8.7597485 -1.9130679
9.7193623 8.7022676 -1.9135119
9.7599802 8.6313305 -1.9109962
9.7948799 8.5556688 -1.9074446
9.8142414 8.4669847 -1.9009334
9.8479404 8.3912144 -1.8973819
9.8848648 8.318532 -1.8945702
9.9227886 8.2469778 -1.8920544
9.9647951 8.1790361 -1.8904266
9.9994259 8.1052856 -1.887467
10.036616 8.0338907 -1.8850993
10.081842 7.96909 -1.8843595
10.125093 7.9028196 -1.8833236
10.173393 7.8405447 -1.8833236
10.203994 7.7648001 -1.8800679
10.225351 7.6824417 -1.8751845
10.263559 7.6130753 -1.8735567
10.306887 7.5476189 -1.8729649
10.348996 7.4813385 -1.8722249
10.389875 7.4142509 -1.8713371
10.41415 7.3355546 -1.8674895
10.437037 7.2562757 -1.8634939
10.459346 7.1769924 -1.8594985
10.493359 7.1060262 -1.8577226
10.519494 7.0299683 -1.8546151
10.555 6.9603901 -1.8532832
10.600825 6.8976521 -1.8538752
10.630465 6.8244638 -1.8516554
10.650414 6.7453513 -1.8478079
10.694118 6.6814466 -1.8482518
10.735756 6.6162219 -1.8483998
10.764318 6.5430331 -1.846328
10.794084 6.4707603 -1.8445523
10.841247 6.408936 -1.8458841
10.89062 6.3482704 -1.8476598
10.922507 6.2773857 -1.8464761
10.971146 6.2160978 -1.8482518
11.028077 6.1592708 -1.8515074
11.042269 6.0786128 -1.8475119
11.075881 6.0088577 -1.84692
11.108181 5.9384537 -1.8461801
11.143535 5.8697224 -1.846032
11.176707 5.79987 -1.8455881
11.226174 5.7383828 -1.8479558
11.281491 5.6796193 -1.8513595
11.317015 5.6107292 -1.8515074
11.355672 5.5433526 -1.8522474
11.387689 5.4727149 -1.8519514
11.41122 5.398087 -1.8503236
11.462956 5.3367314 -1.8534312
11.485595 5.2617655 -1.8518034
11.523976 5.1940365 -1.8528392
11.558342 5.1244311 -1.8532832
11.589567 5.0534139 -1.8532832
11.629446 4.9861031 -1.854763
11.657999 4.9138842 -1.854467
11.683362 4.8403673 -1.8537271
11.735743 4.7779093 -1.8574266
11.749227 4.6995673 -1.854911
11.776001 4.6266642 -1.8546151
11.807858 4.5557442 -1.855207
11.827266 4.4800549 -1.8538752
11.857313 4.4084334 -1.8543191
11.887856 4.3369508 -1.854911
11.922625 4.2669249 -1.8562429
11.96258 4.1986003 -1.8584626
11.982505 4.1231904 -1.8575747
12.018825 4.053381 -1.8593504
12.034079 3.9764564 -1.8578707
12.059193 3.9028463 -1.8580186
12.076313 3.8266883 -1.8569827
12.106178 3.7545676 -1.8580186
12.15738 3.6888268 -1.8624581
12.188319 3.6166923 -1.8637899
12.225479 3.5462451 -1.8661577
12.18611 3.4539099 -1.8566868
12.210886 3.3801272 -1.8572787
12.229486 3.3046234 -1.8569827
12.256227 3.2312865 -1.8580186
12.273908 3.1555307 -1.8577226
12.294957 3.0806406 -1.8580186
12.319393 3.0065484 -1.8589065
12.391495 2.943697 -1.8671935
12.42185 2.8705025 -1.8691173
12.43923 2.7942295 -1.8691173
12.455174 2.7176404 -1.8689693
12.475485 2.6419849 -1.8695612
12.490493 2.5651882 -1.8694133
12.512787 2.48985 -1.8704491
12.534627 2.414335 -1.871485
12.537538 2.3352065 -1.8697093
12.544816 2.2570086 -1.8686733
12.558429 2.1799924 -1.8686733
12.574495 2.1033835 -1.8691173
12.600835 2.0283875 -1.871189
12.612066 1.950881 -1.8710411
6.3774242 0.94703519 -0.92617583
6.1579084 0.87589592 -0.89213997
5.9857874 0.81400818 -0.86535519
5.9386873 0.77053046 -0.85751218
5.9275985 0.73214018 -0.85514444
5.9162631 0.69391507 -0.85277671
5.9115624 0.65661961 -0.8514449
5.9076114 0.61951095 -0.85026103
5.9014592 0.58228171 -0.84878123
5.8940878 0.54506046 -0.84715343
5.8884535 0.50812125 -0.84582156
5.878644 0.47095665 -0.84389782
5.8676147 0.43385884 -0.84182608
5.8672066 0.39764762 -0.84138209
0 0 -0
5.8637443 0.32518151 -0.84019828
5.8666172 0.28924462 -0.84034622
0 0 -0
0 0 -0
0 0 -0
5.8679938 0.14508653 -0.83975428
5.8707514 0.10911483 -0.84005028
0 0 -0
0 0 -0
0 -0 -0
0 -0 -0
0 -0 -0
0 -0 -0
0 -0 -0
0 -0 -0
0 -0 -0
0 -0 -0
0 -0 -0
0 -0 -0
0 -0 -0
0 -0 -0
0 -0 -0
0 -0 -0
0 -0 -0
6.1660833 -0.56809479 -0.88799644
11.486158 -1.1303722 -1.6884313
11.482941 -1.2012405 -1.6890231
11.471422 -1.2712399 -1.6884313
10.57543 -1.2375896 -1.5546554
10.561748 -1.3017293 -1.5537676
10.554543 -1.3666376 -1.5539156
10.529299 -1.4291103 -1.5513998
10.543831 -1.4970291 -1.5549514
10.554991 -1.5647445 -1.5580591
11.07786 -1.7118485 -1.6387093
11.063242 -1.7791603 -1.6381173
11.03651 -1.8443996 -1.6357496
11.013292 -1.9100544 -1.6339738
11.002338 -1.9777699 -1.6341218
11.005552 -2.0481384 -1.6364895
10.997633 -2.1165638 -1.6372294
10.98735 -2.1845829 -1.6376734
10.965019 -2.2501688 -1.6363416
10.931655 -2.3133094 -1.633382
10.908559 -2.3784442 -1.63205
10.895689 -2.4457664 -1.632346
8.3028288 -1.9170486 -1.2364941
10.851384 -2.5760896 -1.6302743
10.852668 -2.6468439 -1.6329379
10.841979 -2.7148268 -1.6338259
10.809792 -2.7773614 -1.6314582
7.4941831 -1.9742112 -1.1210681
7.5048428 -2.0263481 -1.1246197
10.754931 -2.9753363 -1.6311622
10.733619 -3.0404623 -1.6307182
10.71666 -3.1068163 -1.6310142
10.692655 -3.1711075 -1.6302743
7.9757609 -2.4183953 -1.2085255
7.9494362 -2.463773 -1.2067497
7.9228554 -2.508919 -1.2049739
7.927072 -2.5638797 -1.2080816
10.591289 -3.4979205 -1.6304222
10.512461 -3.5435653 -1.6213953
10.494261 -3.6092889 -1.6219873
10.476583 -3.6752498 -1.6227272
10.4259 -3.7294679 -1.6182878
7.704689 -2.80918 -1.188548
10.360808 -3.8502367 -1.6153281
10.477571 -3.9669802 -1.6378213
10.477022 -4.0404496 -1.6416689
10.462159 -4.1086369 -1.6432967
10.450526 -4.1782627 -1.6455164
10.383471 -4.2255282 -1.6388572
10.321714 -4.2743993 -1.633086
10.256104 -4.3211355 -1.6267227
10.202128 -4.3722944 -1.6222832
10.133406 -4.4166298 -1.6154761
10.093457 -4.4731131 -1.6134044
10.022541 -4.5154567 -1.6063012
10.016226 -4.5867538 -1.6098528
9.9923763 -4.6502128 -1.6105927
9.9520321 -4.7059398 -1.6086689
9.8917704 -4.7519236 -1.6034895
9.84554 -4.804287 -1.6006778
9.8229656 -4.8681216 -1.6018617
9.7964439 -4.9300809 -1.6024537
9.7510376 -4.9824467 -1.5999379
9.7071152 -5.0353518 -1.5977182
9.6699104 -5.0915928 -1.5966823
9.6384869 -5.1508303 -1.5966823
9.6075697 -5.2103453 -1.5968304
9.5650225 -5.2634754 -1.5950546
9.5075054 -5.3080826 -1.5907631
9.4515228 -5.3531575 -1.5867676
9.3936319 -5.39676 -1.5824761
9.363759 -5.4562888 -1.583068
9.3207378 -5.5081053 -1.5814402
9.2723446 -5.5565486 -1.5789245
9.2448368 -5.6174474 -1.5801084
9.2000914 -5.667841 -1.5783325
9.1408167 -5.7089891 -1.5740411
9.088069 -5.7538571 -1.5709335
9.0359468 -5.7988272 -1.5679739
8.989419 -5.8471503 -1.5660501
8.960803 -5.9070978 -1.567382
8.9079437 -5.9509797 -1.5644222
8.8647099 -6.0010896 -1.5632384
8.8342447 -6.0598459 -1.5644222
8.782279 -6.1037765 -1.5617586
8.7284908 -6.1461587 -1.558799
8.6777334 -6.1904092 -1.5564313
8.6195478 -6.229054 -1.5527318
8.5731859 -6.2759824 -1.5512519
8.5678778 -6.3532133 -1.5574671
8.5366411 -6.4116054 -1.558947
8.4648705 -6.439311 -1.5528797
8.417366 -6.4850926 -1.5513998
8.3680601 -6.5293169 -1.5496241
8.3169765 -6.5719538 -1.5475523
8.2602806 -6.6098843 -1.5444447
8.2103481 -6.6529713 -1.5426689
8.1655493 -6.7000866 -1.541929
8.1288481 -6.7538562 -1.5428169
8.1016321 -6.8157048 -1.5456285
8.0250301 -6.8357835 -1.5388213
7.9597211 -6.8648696 -1.5342339
7.8980823 -6.8966651 -1.5303864
7.8622842 -6.9508929 -1.5317183
7.762013 -6.9475498 -1.5201757
7.7763944 -7.0468521 -1.5317183
7.7373815 -7.0984464 -1.5326061
7.6849856 -7.137711 -1.5308304
7.6432061 -7.1867638 -1.5312743
7.5946674 -7.2294345 -1.5303864
7.5266676 -7.2532487 -1.525503
7.479897 -7.2972231 -1.5250591
7.4377956 -7.3457613 -1.525651
7.1149583 -7.1136241 -1.4669021
7.078126 -7.1641827 -1.468382
7.0064073 -7.1791639 -1.4624627
6.9498711 -7.2092013 -1.4597991
6.892549 -7.2381001 -1.4569874
6.8276811 -7.2586417 -1.4525479
6.7533984 -7.2685165 -1.4460367
6.7307372 -7.3338656 -1.4509201
6.684947 -7.3742938 -1.450772
6.5637145 -7.3304329 -1.4337542
2.1693606 -2.4517159 -0.45130149
2.1542764 -2.4649806 -0.45130149
2.1404028 -2.4796505 -0.45159745
6.3824811 -7.4900594 -1.4339021
6.4236345 -7.6327562 -1.4541757
6.3596139 -7.6514897 -1.4501802
6.2874498 -7.6597872 -1.4442608
6.2260098 -7.6805501 -1.4408573
6.1800017 -7.7201519 -1.4411533
6.1791196 -7.8168969 -1.4523998
2.0094612 -2.5731118 -0.44996965
1.9863912 -2.5759923 -0.44819388
1.9627631 -2.5778999 -0.44627011
1.9403746 -2.5811965 -0.44464231
1.9203763 -2.5874932 -0.44360644
1.8448713 -2.5178339 -0.42851228
1.8311254 -2.5315111 -0.42895621
1.8241739 -2.5547755 -0.43117595
5.9489412 -8.445219 -1.5071533
5.887979 -8.4685688 -1.5047855
5.8437386 -8.515955 -1.5068573
5.7930393 -8.5541077 -1.5073012
5.7431903 -8.5936041 -1.5080411
5.6794653 -8.6121683 -1.5050815
5.6119537 -8.6244717 -1.501086
5.5300822 -8.6137991 -1.4930949
1.7962521 -2.8345549 -0.46358401
1.7756821 -2.8404903 -0.46269611
1.7613325 -2.8563843 -0.46358401
5.3509226 -8.8027 -1.5028617
5.2749472 -8.7988901 -1.4964986
5.2123041 -8.816618 -1.4939828
5.1596022 -8.850997 -1.4944268
5.1012549 -8.8756294 -1.493243
5.0345125 -8.8852501 -1.4895434
4.9919529 -8.937561 -1.493243
4.9422646 -8.9775534 -1.4948708
4.8899155 -9.0129261 -1.4957587
4.8354535 -9.0445051 -1.4960546
4.7853966 -9.0845051 -1.4978304
4.7272878 -9.1093073 -1.4970905
4.6681547 -9.1319771 -1.4960546
4.6080322 -9.1524982 -1.4947227
4.5465164 -9.1699667 -1.492947
4.482357 -9.1816931 -1.4902833
4.4276481 -9.2125893 -1.4908752
4.3748426 -9.2476292 -1.4922071
4.3167658 -9.2716093 -1.4917631
4.2556767 -9.2889299 -1.4902833
4.1961632 -9.3094578 -1.4893954
4.1393633 -9.3359337 -1.4895434
4.0867434 -9.372036 -1.4913192
4.0279918 -9.394208 -1.4908752
3.9702744 -9.418746 -1.4908752
3.9135427 -9.4456711 -1.4913192
3.8577485 -9.4750023 -1.4922071
3.7954991 -9.4883938 -1.4905792
3.7364848 -9.5096626 -1.4902833
3.6801996 -9.5379467 -1.4911712
3.6258097 -9.5714474 -1.492947
3.5580535 -9.5694122 -1.4890994
3.4979141 -9.587347 -1.4885075
3.4363561 -9.6011801 -1.4873236
3.3754151 -9.6164846 -1.4864358
3.3192413 -9.6454325 -1.4877676
3.2577839 -9.6590567 -1.4867318
3.1981454 -9.6779251 -1.4865837
3.1457047 -9.7190084 -1.4899874
3.0878026 -9.7437849 -1.4908752
3.0247364 -9.7521563 -1.4892474
2.9628317 -9.7639074 -1.4882115
2.9045534 -9.7875919 -1.4890994
2.8452694 -9.8080797 -1.4895434
2.7842257 -9.8224983 -1.4890994
2.722321 -9.8336782 -1.4882115
2.6614158 -9.8482876 -1.4879156
2.6029539 -9.8720827 -1.4890994
2.543808 -9.8936157 -1.4899874
2.4837749 -9.9119158 -1.4904313
2.4208002 -9.9183226 -1.4890994
2.358526 -9.9272156 -1.4882115
2.2969017 -9.9386101 -1.4877676
2.2369597 -9.9573412 -1.4885075
2.1772957 -9.977643 -1.4895434
2.11378 -9.9801722 -1.4879156
0.53473216 -2.5991557 -0.35851678
0.5214749 -2.6159678 -0.36058852
0.50821829 -2.6336856 -0.36280826
0.49313474 -2.6425881 -0.36369613
0.48006147 -2.663085 -0.36635983
0.46574074 -2.6776736 -0.3681356
0.45729282 -2.7282782 -0.37538671
0.44164342 -2.7378676 -0.37642258
0.42241839 -2.7248878 -0.37405488
0.40569082 -2.7274284 -0.37405488
0.38713986 -2.7171373 -0.37213111
0.36912975 -2.7096617 -0.3706513
0.35796028 -2.7540498 -0.37701452
0.34650189 -2.8003643 -0.38367373
0.32149154 -2.7356427 -0.37361094
0.30262914 -2.7188876 -0.37079927
1.0849651 -10.354543 -1.5192878
1.0013487 -10.157269 -1.4886554
0.72726595 -7.8686242 -1.1438574
0.6748994 -7.8256416 -1.1367543
0.62694824 -7.8306212 -1.1369022
0.57874316 -7.8323483 -1.1366062
0.53387451 -7.8831153 -1.1437094
0.63262922 -10.282008 -1.5028617
0.20775546 -3.7386796 -0.52174091
0.17797211 -3.6006043 -0.50087547
0.1535839 -3.5482724 -0.49288446
0.13126351 -3.534323 -0.49066472
0.10775591 -3.4757504 -0.4817858
0.085820839 -3.4516289 -0.47808623
0.065749563 -3.5124087 -0.48711315
0.12729238 -10.29572 -1.5021218
0.02195867 -3.4011972 -0.47039118
0.00093941984 -10.252991 -1.4956106
-0.061916959 -10.243903 -1.4942788
-0.12466178 -10.23443 -1.492947
-0.18732913 -10.226551 -1.4919111
-0.25009882 -10.226197 -1.4920591
-0.3126891 -10.219528 -1.4913192
-0.37502483 -10.207534 -1.4898393
-0.4370552 -10.191207 -1.4877676
-0.4994334 -10.18537 -1.4873236
-0.56235713 -10.190014 -1.4885075
-0.62559927 -10.198217 -1.4902833
-0.69056463 -10.229709 -1.4956106
-0.76627409 -10.400843 -1.5219514
-0.84805053 -10.620717 -1.5556914
-0.91439027 -10.629108 -1.5577631
-0.98059213 -10.63413 -1.5593909
-1.0474718 -10.644646 -1.5619066
-1.1153413 -10.662608 -1.5656061
-1.1803087 -10.651632 -1.5650142
-1.2451835 -10.64026 -1.5644222
-1.311295 -10.63929 -1.5654582
-1.3770602 -10.634967 -1.5660501
-1.376794 -10.144162 -1.493243
-1.4406811 -10.147273 -1.4950187
-1.5000137 -10.118677 -1.4920591
-0.45197698 -2.9304733 -0.4051311
-0.47309214 -2.9471736 -0.40809074
-1.6856852 -10.087401 -1.4917631
-0.51581782 -2.9791486 -0.41386205
-0.54196626 -3.0197294 -0.42052123
-0.55668277 -2.9959292 -0.41741362
-1.939467 -10.077956 -1.4970905
-2.004355 -10.081386 -1.4994582
-2.0659766 -10.067928 -1.4993103
-2.1283278 -10.057965 -1.4997542
-0.62365854 -2.8643899 -0.40009972
-0.64035553 -2.8566496 -0.39950779
-0.65876204 -2.8565211 -0.40009972
-2.373379 -9.9978924 -1.4990143
-2.4349146 -9.9841022 -1.4991622
-2.4970915 -9.9728117 -1.4997542
-0.94286698 -3.6728263 -0.52884406
-0.76069593 -2.8904362 -0.40868267
-0.77893287 -2.8876238 -0.40897864
-0.7887224 -2.8541954 -0.40453917
-2.8180089 -9.9486122 -1.508633
-0.81239396 -2.8053577 -0.39847192
-2.934818 -9.8962154 -1.5059694
-2.9791195 -9.8240767 -1.4975344
-0.99951154 -3.2272873 -0.46698758
-1.0204898 -3.224865 -0.46757951
-3.197504 -9.8851957 -1.5160322
-3.2227299 -9.7583361 -1.4991622
-3.2790694 -9.7280693 -1.4975344
-3.3358021 -9.6993494 -1.4962026
-1.1251538 -3.2097747 -0.47039118
-1.1421618 -3.1953611 -0.46920732
-3.4863188 -9.5610476 -1.484216
-3.5852373 -9.6479359 -1.5015299
-1.1633041 -3.0748343 -0.45337325
-1.1906918 -3.0897837 -0.45692483
-3.749922 -9.5490122 -1.4964986
-1.1991386 -3.0014772 -0.44508624
-1.2328207 -3.0316191 -0.45115352
-3.9780414 -9.606288 -1.517216
-4.0069509 -9.5106125 -1.5056734
-4.060945 -9.4758482 -1.5040456
-4.1213827 -9.456192 -1.5049335
-4.1821327 -9.4370546 -1.5059694
-4.2484918 -9.430151 -1.509077
-4.3083334 -9.4084005 -1.5098169
-1.3275012 -2.8545036 -0.43250778
-1.3487968 -2.8543506 -0.43383962
-1.3675705 -2.848695 -0.43428355
-1.3923987 -2.8553593 -0.43679926
-4.596664 -9.2753601 -1.5104089
-4.6597152 -9.2593489 -1.5124806
-4.7285943 -9.2543602 -1.5164762
-4.7912107 -9.2365837 -1.5183998
-4.847795 -9.2070112 -1.5183998
-4.9018655 -9.1727314 -1.51766
-4.9618287 -9.149436 -1.5188438
-4.721724 -8.5807753 -1.426947
-4.7487292 -8.5058784 -1.419104
-4.7608566 -8.4060192 -1.4069694
-4.7793307 -8.3191977 -1.3970547
-4.8128557 -8.2598095 -1.3918753
-4.8619366 -8.2275686 -1.3914313
-4.8991084 -8.1755266 -1.3875837
-4.9070606 -8.0760107 -1.3754493
-4.9549651 -8.0432243 -1.3750052
-4.9345336 -7.901113 -1.3553237
-5.0887461 -8.0377941 -1.3849201
-5.198873 -8.1012993 -1.40179
-5.2576528 -8.0833397 -1.4043057
-5.3316507 -8.0880814 -1.410965
-5.4767861 -8.1982956 -1.4367138
-5.3889146 -7.9606261 -1.3998662
-5.4326229 -7.9200711 -1.3985344
-5.5104718 -7.9288149 -1.4062295
-5.5738254 -7.9158769 -1.4100771
-5.6291842 -7.8911881 -1.4118528
-5.6688075 -7.8444767 -1.409633
-5.6946311 -7.7792239 -1.4040098
-6.2736769 -8.4606409 -1.5374895
-6.3284421 -8.4259405 -1.5382295
-6.4806323 -8.5191774 -1.5630904
-1.7220604 -2.2365587 -0.3838217
-1.7381852 -2.2290688 -0.38441363
-1.757349 -2.2253447 -0.38574547
-1.7703524 -2.2137477 -0.38559747
-1.7596161 -2.1728787 -0.37982619
-6.7471437 -8.2228861 -1.5530276
-6.8113775 -8.1980648 -1.5562832
-6.8666458 -8.1621704 -1.5574671
-6.9294262 -8.1349401 -1.5604268
-6.9895468 -8.1042509 -1.5627944
-7.0456481 -8.0686598 -1.5642743
-7.0976443 -8.0282402 -1.5648662
-7.1474304 -7.9852757 -1.5650142
-7.2002778 -7.9456658 -1.5659021
-7.2562513 -7.9093518 -1.5675299
-7.2952218 -7.8545356 -1.5654582
-7.3453116 -7.8117862 -1.5659021
-7.3971977 -7.7708669 -1.56679
-7.449544 -7.7303166 -1.5678259
-7.5023618 -7.690124 -1.5690098
-7.5438457 -7.6383171 -1.5678259
-7.568892 -7.5702066 -1.5632384
-7.6391225 -7.5472527 -1.5682698
-3.4904754 -3.4073169 -0.69132835
-3.4109118 -3.2890654 -0.67046285
-3.3601165 -3.200563 -0.65581268
-7.8753543 -7.4076428 -1.5792205
-7.9119635 -7.3511038 -1.5774447
-3.5437987 -3.2531769 -0.68126559
-3.2515171 -2.9484439 -0.61822522
-3.3616557 -3.0108924 -0.63672298
-3.5897424 -3.1756041 -0.67860186
-3.4497497 -3.0143008 -0.64693373
-3.4502068 -2.9775736 -0.64338219
-3.4465797 -2.9377482 -0.63909072
-3.7725406 -3.1756926 -0.69931936
-3.8048861 -3.1632302 -0.70183504
-3.863214 -3.1718214 -0.70938218
-5.244885 -4.2520852 -0.97175425
-5.3457756 -4.2797656 -0.98610854
-5.3238273 -4.2088647 -0.97693366
-5.3698239 -4.1919389 -0.9807812
-5.4996362 -4.2391958 -1.0004628
-5.4586415 -4.1544709 -0.98788434
-5.5053802 -4.1369367 -0.99187982
-5.5370154 -4.1077914 -0.99306369
-5.5174294 -4.0410223 -0.98477668
-5.7208657 -4.1362824 -1.0177767
-5.769485 -4.1177597 -1.0220681
-5.6490955 -3.9797802 -0.99543142
-5.8122735 -4.0415688 -1.0207363
-5.7252359 -3.9291799 -1.0004628
-5.6370425 -3.8180139 -0.98018926
-5.740129 -3.8366492 -0.99454349
-5.6933789 -3.7550838 -0.98196507
-5.7643948 -3.7513587 -0.99054801
-5.6732793 -3.6427324 -0.97027445
-5.7047148 -3.6136732 -0.97190225
-5.6630321 -3.5387814 -0.96065563
-5.6299095 -3.4702454 -0.95103681
-5.8666124 -3.5666084 -0.98877221
-5.766232 -3.4573314 -0.96746278
-5.9848619 -3.53863 -1.0017946
-5.961175 -3.4754481 -0.99395156
-6.0012527 -3.4496455 -0.99720716
-5.7813616 -3.2762709 -0.95577222
-5.9343333 -3.3149886 -0.97856146
-5.9675584 -3.2856667 -0.9807812
-5.8798079 -3.1905189 -0.96243143
-5.8783407 -3.1431923 -0.95887983
-5.9762721 -3.1485388 -0.97219825
-5.9059353 -3.0653541 -0.95710409
-6.0699406 -3.103317 -0.98152107
-5.9148383 -2.9784198 -0.95236862
-6.0411077 -2.9956551 -0.97042245
-6.012269 -2.9355414 -0.96257937
-6.2004323 -2.980402 -0.99084395
-6.2543645 -2.9592137 -0.99676323
-6.7000937 -3.1198506 -1.0673506
-6.279418 -2.8772984 -0.99498743
-6.267199 -2.8253067 -0.99010408
-5.8079281 -2.575598 -0.91211754
-5.8671389 -2.5588827 -0.91922069
-6.2954168 -2.6997285 -0.98640448
-6.3537869 -2.6787159 -0.99321169
-6.3618803 -2.6362734 -0.99187982
-6.6170177 -2.6944983 -1.0305032
-6.6600566 -2.6644955 -1.0347946
-6.6385388 -2.6087556 -1.0287274
-6.5206251 -2.5163658 -1.00727
-6.5091205 -2.4661517 -1.0029784
-6.5028086 -2.418241 -0.9995749
-6.5193825 -2.3789728 -0.99987084
-6.4975405 -2.3259325 -0.99409956
-6.5406194 -2.2961712 -0.99868703
-6.5396218 -2.2508483 -0.99631929
-6.5926704 -2.2239499 -1.0025345
-6.6118269 -2.1853175 -1.0034224
-6.6429896 -2.1504912 -1.006234
-6.8248239 -2.1631503 -1.0327228
-6.7047753 -2.0799387 -1.0118574
-6.7969098 -2.0628736 -1.0242879
-6.862536 -2.03688 -1.0325749
-6.8901029 -1.9991409 -1.0349426
-6.8689356 -1.9473903 -1.0297632
-6.7063251 -1.8569394 -1.0026826
-6.8273916 -1.8454139 -1.0197004
-6.9093552 -1.822138 -1.0306511
-6.9069953 -1.7762624 -1.0285794
-7.1892624 -1.8018488 -1.0704583
-7.3039508 -1.7830168 -1.0864403
-7.3859587 -1.7550756 -1.097391
-7.7743263 -1.7969763 -1.1553999
-7.9579349 -1.7880237 -1.1818887
-8.1948643 -1.7884749 -1.2165165
-8.3092117 -1.7600732 -1.2323506
-8.9931641 -1.8472699 -1.3351982
-9.510664 -1.892759 -1.4124447
-9.8299561 -1.8936352 -1.459355
-10.331422 -1.9245098 -1.5339381
-11.286239 -2.0306892 -1.6773325
-11.347208 -1.9698529 -1.6847317
-11.555147 -1.932969 -1.7144761
-11.742549 -1.8903073 -1.7411128
-12.313965 -1.9047974 -1.8259065
-12.916307 -1.916841 -1.9152876
-13.03945 -1.8534081 -1.9321576
-13.022157 -1.7695054 -1.9278661
-13.02198 -1.6881719 -1.9262383
-13.100802 -1.6167116 -1.9365971
-13.082973 -1.5330757 -1.9324536
-13.093116 -1.4528803 -1.9326016
-13.151948 -1.3777657 -1.9401486
-13.151297 -1.2961687 -1.9388168
-13.162941 -1.2158129 -1.9394088
-13.146505 -1.1329879 -1.9358572
-13.161097 -1.0529313 -1.937041
-13.162378 -0.97179288 -1.9363011
-13.171053 -0.89121181 -1.936745
-13.176273 -0.81037897 -1.936745
-13.153348 -0.72798777 -1.9326016
-13.139788 -0.64639348 -1.9299378
-13.13659 -0.56546003 -1.928902
-13.131906 -0.48455372 -1.9277182
-13.131665 -0.40387779 -1.9272742
-13.130931 -0.32322305 -1.9268303
-13.123767 -0.24248347 -1.9254985
-13.119075 -0.16188028 -1.9246105
-13.158391 -0.081615932 -1.9303819
-13.164577 -0.00087589887 -1.9312698
-13.132689 0.079705574 -1.9265343
-13.127007 0.16022395 -1.9257944
-13.096112 0.24021997 -1.9213549
-13.082528 0.32028016 -1.9195791
-13.086247 0.40072915 -1.920467
-13.092437 0.48134515 -1.9217988
-13.084297 0.56145734 -1.921059
-13.085545 0.64197326 -1.9217988
-13.029022 0.71935827 -1.9139558
-13.053977 0.80110931 -1.9183953
-13.041908 0.88072485 -1.9173595
-12.154913 -0.30727333 -1.9240319
-12.136829 -0.23230788 -1.9208446
-12.162704 -0.15815504 -1.9248286
-12.142715 -0.083380073 -1.921482
-12.167678 -0.0088910526 -1.9254661
-12.127028 0.065551132 -1.9189322
-12.120475 0.13989179 -1.917976
-12.097672 0.2138758 -1.91447
-12.093172 0.28803128 -1.9139919
-12.08427 0.36202145 -1.9128764
-12.045318 0.43484575 -1.9069798
-12.043408 0.50878787 -1.9071392
-12.039074 0.58262753 -1.9069798
-12.020486 0.65568089 -1.9045894
-12.058609 0.73199564 -1.911442
-12.029265 0.80432636 -1.9074579
-12.054626 0.88034946 -1.9123982
-12.02341 0.95227295 -1.9082547
-12.056686 1.0293872 -1.9146293
-12.041295 1.1025364 -1.913195
-12.0176 1.1747675 -1.9104859
-11.983654 1.2457289 -1.906183
-11.929664 1.3141567 -1.898693
-11.933143 1.3887 -1.9006053
-11.90088 1.4590119 -1.8967805
-11.928911 1.536799 -1.9028364
-11.920235 1.6100966 -1.9029957
-11.914042 1.6837599 -1.9036332
-11.896649 1.7558227 -1.9025177
-11.919803 1.8340394 -1.9080954
-11.913198 1.9079239 -1.9088923
-11.914902 1.9832549 -1.9111233
-11.881106 2.0526292 -1.9076173
-11.854683 2.1230557 -1.9053862
-11.848228 2.1970143 -1.9065018
-11.775381 2.2583318 -1.8967805
-11.754524 2.3291986 -1.895665
-11.754519 2.4042461 -1.8980554
-11.754035 2.4793811 -1.9004459
-11.742459 2.5522945 -1.9010834
-11.714054 2.6214945 -1.8990116
-11.71314 2.6968648 -1.9015615
-11.665631 2.7614086 -1.8964618
-11.660938 2.835968 -1.8985336
-11.62895 2.9038777 -1.8961431
-11.586049 2.9688065 -1.8919996
-11.563795 3.0388377 -1.8913622
-11.563044 3.1146126 -1.8943901
-11.542763 3.1852407 -1.8942307
-11.462199 3.2388275 -1.8840314
-11.442111 3.3090973 -1.8840314
-11.437684 3.3840034 -1.8867406
-11.395917 3.4478312 -1.8832346
-11.408501 3.5281897 -1.8889717
-11.350866 3.5868223 -1.8829159
-11.317369 3.6527638 -1.8810035
-11.30412 3.7252269 -1.8825971
-11.301636 3.801441 -1.8861032
-11.2837 3.8726375 -1.8870593
-11.248545 3.9378862 -1.885147
-11.249273 4.0157924 -1.8894498
-11.22906 4.0864291 -1.8902466
-11.199147 4.1535358 -1.8894498
-11.129123 4.2054257 -1.8818003
-10.997155 4.2328553 -1.8634734
-11.084949 4.3449225 -1.8832346
-11.038826 4.4051733 -1.8798879
-11.034454 4.482111 -1.883872
-10.96204 4.5312548 -1.8760632
-10.980441 4.6179485 -1.8841908
-10.921039 4.6720352 -1.8787724
-10.886735 4.7365947 -1.8778162
-10.860175 4.8045034 -1.8782942
-10.809782 4.8617368 -1.8746289
-10.801296 4.9378228 -1.8784536
-10.77169 5.0044212 -1.878613
-10.710427 5.0560932 -1.8731946
-10.700566 5.1319609 -1.8770194
-10.684851 5.2053037 -1.8798879
-10.661559 5.2751446 -1.8814815
-10.605173 5.3284974 -1.8771788
-10.583711 5.3993006 -1.8792505
-10.557395 5.4677715 -1.8805254
-10.478207 5.5085611 -1.8722384
-10.442468 5.5718212 -1.8719198
-10.405478 5.6343799 -1.8714416
-10.406185 5.7176104 -1.8779756
-10.360559 5.7755857 -1.8760632
-10.327504 5.8405061 -1.8765413
-10.289761 5.902782 -1.8762225
-10.239695 5.9578648 -1.8736727
-10.208047 6.023592 -1.8746289
-10.181061 6.0921969 -1.8765413
-10.13758 6.1509676 -1.8754257
-10.103851 6.215641 -1.8762225
-10.088978 6.2921467 -1.8806847
-10.043505 6.3497128 -1.8794098
-9.9719372 6.3904467 -1.8731946
-9.9565477 6.4671068 -1.8778162
-9.9455404 6.5470753 -1.8833939
-9.8969688 6.6024981 -1.8818003
-9.8701744 6.6724992 -1.8845094
-9.8754721 6.7647352 -1.8935933
-9.8954172 6.8679805 -1.905705
-9.7933292 6.8865485 -1.893912
-9.747674 6.9442186 -1.8932745
-9.7417068 7.0304728 -1.9006053
-9.6760693 7.0738015 -1.8961431
-9.6896076 7.1753383 -1.9076173
-9.6493464 7.2376194 -1.9084141
-9.6369867 7.3211741 -1.9149481
-9.561368 7.3566904 -1.9087329
-9.5082617 7.4091516 -1.9071392
-9.4672709 7.4710231 -1.9080954
-9.4474726 7.5499263 -1.9135138
-9.4470158 7.6450129 -1.9230757
-9.3785477 7.6853151 -1.9186134
-9.3304548 7.7420859 -1.9184541
-9.3424892 7.8493581 -1.9310439
-9.2505369 7.8694348 -1.9218007
-9.2073126 7.9305568 -1.9229163
-9.1927052 8.0167484 -1.9302471
-9.1537027 8.0821505 -1.9324782
-9.1282291 8.1598759 -1.9377372
-9.0706692 8.2091074 -1.9361435
-8.990284 8.2372665 -1.9296095
-8.9453621 8.2976456 -1.9308845
-8.9317036 8.3875179 -1.9391714
-8.8564587 8.4197178 -1.9339124
-8.8039179 8.473217 -1.933753
-8.7793388 8.5539446 -1.9399682
-8.7210646 8.602107 -1.9386934
-8.6785975 8.6659193 -1.9410838
-8.6516447 8.745676 -1.9471396
-8.5909195 8.7915363 -1.945546
-8.5546408 8.8625507 -1.9496895
-8.4885187 8.9027281 -1.9469802
-8.4432087 8.9647064 -1.9492114
-8.3914061 9.0199575 -1.9500083
-8.3452549 9.0814533 -1.9522393
-8.3006554 9.1449146 -1.9549485
-8.2503176 9.2022896 -1.9563828
-8.1963167 9.2556953 -1.9570203
-8.2037172 9.3793764 -1.9727973
-8.1053524 9.382473 -1.9627573
-8.0328913 9.4147577 -1.959092
-7.9647932 9.4517908 -1.9565421
-7.9009643 9.4936552 -1.9551079
-7.8456979 9.5457687 -1.9559047
-7.8224425 9.6374187 -1.9649885
-7.7668662 9.6898565 -1.9659446
-7.7182932 9.7512646 -1.9688132
-7.6710825 9.8147736 -1.9721599
-7.6119223 9.8632202 -1.9724786
-7.5584397 9.9191628 -1.974391
-7.5140538 9.987442 -1.9788531
-7.459106 10.042077 -1.9806062
-7.3839207 10.069346 -1.9769408
-7.3214188 10.113664 -1.9767814
-7.2557802 10.153578 -1.9758252
-7.1978951 10.204361 -1.9771001
-7.1165314 10.221599 -1.9718411
-7.0615067 10.276463 -1.9740722
-7.0177126 10.348194 -1.97965
-6.9057651 10.318862 -1.9656259
-6.9135904 10.468956 -1.9865026
-6.850841 10.513661 -1.9869808
-6.7856674 10.554668 -1.9868214
-6.7197199 10.594439 -1.9865026
