# .PCD v0.7 - Point Cloud Data file format
VERSION 0.7
FIELDS x y z
SIZE 4 4 4
TYPE F F F
COUNT 1 1 1
WIDTH 1492
HEIGHT 1
VIEWPOINT 0 0 0 1 0 0 0
POINTS 1492
DATA ascii
-3.5292127 -3.2041836 -0.38031185
-3.5450988 -3.1791427 -0.37987521
-3.4392688 -3.0463524 -0.36520383
-2.6459775 -2.3147471 -0.27062586
-3.5570397 -3.073616 -0.37454811
-3.3735297 -2.8790507 -0.3512311
-13.565145 -11.435289 -1.5177801
-13.625102 -11.343554 -1.5166447
-3.3897872 -2.786731 -0.3471266
-4.0092478 -3.2550588 -0.41515636
-3.8022113 -3.0484223 -0.38965613
-13.630726 -10.793023 -1.4866034
-13.695125 -10.707956 -1.4864287
-13.735337 -10.604242 -1.4836341
-3.3189402 -2.5296226 -0.3282634
-11.263364 -8.4771328 -1.198241
-11.267192 -8.3722124 -1.1930012
-11.37056 -8.3412228 -1.1986777
-4.0666184 -2.9446635 -0.40258092
-3.2029133 -2.2893171 -0.30756629
-3.0939977 -2.1828911 -0.2943795
-3.0942545 -2.1547558 -0.29298225
-3.0589838 -2.1024332 -0.28782979
-3.1674521 -2.1485021 -0.29796004
-3.1747808 -2.1251469 -0.29734874
-3.1387224 -2.0732279 -0.29219627
-3.1630676 -2.0615463 -0.29341888
-3.2996571 -2.1218555 -0.30634367
-5.72328 -3.6312766 -0.55663031
-3.4580154 -2.1641898 -0.32005441
-3.4610581 -2.1366503 -0.31900647
-15.112298 -9.2034235 -1.5135882
-3.5877862 -2.1545439 -0.32931137
-3.5777969 -2.1187816 -0.32695347
-3.6079342 -2.106837 -0.32870007
-15.511442 -8.9321861 -1.5315781
-15.584149 -8.8471708 -1.533412
-15.642488 -8.7538137 -1.5338486
-3.8635359 -2.1307321 -0.34922251
-3.880913 -2.1093647 -0.34965917
-3.9499819 -2.1156189 -0.35524824
-3.9285305 -2.0732067 -0.3518424
-3.9058247 -2.0306783 -0.34834921
-3.9102316 -2.0025868 -0.34756324
-3.9011004 -1.9677869 -0.34546733
-7.6653905 -3.8081751 -0.71277571
-7.6716108 -3.7527516 -0.71111643
-7.7115455 -3.7138221 -0.71277571
-16.613125 -7.8760571 -1.5741949
-10.029632 -4.6795797 -0.93267167
-5.7470937 -2.6384447 -0.51680803
-5.7713456 -2.6068227 -0.51759398
-5.7981558 -2.576216 -0.51864195
-5.8102031 -2.5389948 -0.51829267
-10.135509 -4.3555603 -0.92952776
-10.152866 -4.2894111 -0.92865449
-10.301353 -4.2778506 -0.94026929
-10.338476 -4.2190795 -0.94131726
-10.202362 -4.0906801 -0.92603457
-9.6350012 -3.7947128 -0.87023097
-10.436682 -4.0366926 -0.9434132
-10.449147 -3.9679801 -0.94227791
-10.36502 -3.8634272 -0.93214768
-10.401628 -3.8045471 -0.93337029
-10.55417 -3.7870867 -0.94542176
-10.42686 -3.6693406 -0.931449
-10.368193 -3.5773478 -0.92393869
-7.7967525 -2.6365921 -0.68395692
-7.8108921 -2.5880756 -0.68378222
-10.409543 -3.3785157 -0.92184275
-10.469951 -3.3272536 -0.92551059
-10.507292 -3.2682748 -0.92708254
-10.523335 -3.2025816 -0.9267332
-10.529421 -3.1339722 -0.92551059
-10.85549 -3.1586573 -0.95354342
-10.871792 -3.0911722 -0.9532814
-10.864638 -3.0172081 -0.9509235
-9.7003489 -2.6298263 -0.84350812
-11.016411 -2.9142306 -0.96140307
-11.036979 -2.8473268 -0.96166509
-11.083225 -2.7868404 -0.96428496
-11.164943 -2.7346632 -0.97013605
-11.196048 -2.6695712 -0.97144598
-11.025899 -2.5575974 -0.95467871
-11.418431 -2.5749359 -0.98856258
-11.478778 -2.5146329 -0.99257976
-11.292294 -2.4012556 -0.9745025
-11.304864 -2.3315196 -0.97432786
-11.4733 -2.2929618 -0.98812592
-11.514539 -2.2278192 -0.99057114
-11.5652 -2.1640892 -0.99388969
-11.598846 -2.096808 -0.99572361
-11.855851 -2.0682354 -1.0174687
-11.759274 -1.9771127 -1.0077751
-12.051447 -1.9502864 -1.0326641
-12.544529 -1.9511874 -1.0753682
-13.412456 -2.0020037 -1.1512576
-14.209457 -2.0319414 -1.220772
-15.207662 -2.0795732 -1.3080143
-15.898754 -2.0747991 -1.3680097
-15.745105 -1.9565648 -1.3533384
-19.574554 -2.3106582 -1.6903434
-20.157618 -2.2541771 -1.7405579
-22.024607 -2.326256 -1.9039515
-22.235733 -2.2106879 -1.9213302
-22.242928 -2.0736554 -1.9208062
-22.333635 -1.943962 -1.9277052
-22.332233 -1.8058448 -1.9265699
-22.355808 -1.6697476 -1.9277052
-22.383522 -1.5337696 -1.9292772
-22.393507 -1.3964601 -1.9293644
-22.391706 -1.2584705 -1.9284912
-22.386074 -1.1204064 -1.9273559
-22.367645 -0.98193425 -1.9251727
-22.322481 -0.84275281 -1.9207188
-22.312296 -0.7052964 -1.9194089
-19.397062 1.4300725 -1.9104371
-19.36511 1.5472397 -1.9081448
-19.349304 1.6655203 -1.9075468
-19.336739 1.784031 -1.9073474
-19.318497 1.9019626 -1.9066498
-19.297556 2.0195303 -1.9057528
-19.273922 2.1366932 -1.9046564
-19.250566 2.253758 -1.9036598
-19.23045 2.3711038 -1.9030617
-19.198765 2.486881 -1.9013674
-19.182158 2.6045017 -1.9012678
-19.171726 2.7229919 -1.9018657
-19.12513 2.8361957 -1.8988757
-19.095568 2.9516671 -1.8976798
-19.057449 3.065618 -1.8956864
-19.019634 3.1793764 -1.8937927
-18.990944 3.2944877 -1.8928957
-18.964497 3.4098952 -1.8922977
-18.927565 3.5232804 -1.8907031
-18.891911 3.6367173 -1.8893077
-18.857531 3.7502379 -1.8881117
-18.819544 3.8628731 -1.8866167
-18.789648 3.9770381 -1.8860188
-18.761974 4.0916181 -1.8857197
-18.731661 4.2055726 -1.8852214
-18.704535 4.3202047 -1.8851217
-18.663153 4.4314432 -1.8836267
-18.621111 4.5423369 -1.8821317
-18.573586 4.6516724 -1.8801384
-18.537947 4.7638164 -1.8794407
-18.496822 4.8744297 -1.8782446
-18.461761 4.9865351 -1.8777463
-18.429859 5.0994549 -1.8776467
-18.394392 5.2113571 -1.877248
-18.383095 5.3302221 -1.8794407
-18.350042 5.4429188 -1.8794407
-18.334391 5.5608983 -1.8813343
-18.331287 5.6830163 -1.8846234
-18.337809 5.8086109 -1.8890088
-18.313183 5.9246964 -1.8902047
-18.312387 6.0488138 -1.8939921
-18.309813 6.1728258 -1.8976798
-18.308287 6.2976813 -1.9015667
-18.308735 6.4237385 -1.9057528
-18.298018 6.54635 -1.9088424
-18.290222 6.6704354 -1.9123309
-18.284389 6.7957115 -1.9161181
-18.271194 6.9186993 -1.9192078
-18.253462 7.0403485 -1.9218988
-18.237703 7.1631312 -1.9248888
-18.221125 7.2859855 -1.9278789
-18.189899 7.4032784 -1.9293739
-18.177225 7.5284591 -1.9329619
-18.176535 7.6591721 -1.9379452
-18.184984 7.7944722 -1.9440249
-18.181509 7.9253912 -1.9489087
-18.170742 8.0537376 -1.9530946
-18.158176 8.1818419 -1.957181
-18.1402 8.3080215 -1.9607691
-18.107824 8.42799 -1.962862
-18.080055 8.5504255 -1.965553
-18.046085 8.6702518 -1.967646
-18.024736 8.7965298 -1.9712341
-18.037285 8.9401064 -1.9787091
-17.96076 9.039875 -1.976317
-17.965202 9.1807032 -1.9830945
-17.957108 9.3159676 -1.9885762
-17.934824 9.4445219 -1.9925628
-17.916903 9.5759668 -1.9971476
-17.881422 9.6985331 -1.9998385
-17.865162 9.8320589 -2.0048218
-17.80971 9.9444036 -2.00542
-17.789045 10.076546 -2.0101042
-17.739824 10.192945 -2.0115993
-17.712193 10.322145 -2.0156856
-17.673365 10.445313 -2.0185759
-17.646492 10.576068 -2.0229614
-17.611027 10.702233 -2.0264497
-17.591618 10.8388 -2.0319314
-17.556005 10.966043 -2.035619
-17.52874 11.099111 -2.0404031
-17.474541 11.215593 -2.0420973
-17.427914 11.337255 -2.0447884
-17.39291 11.466982 -2.0489743
-17.346216 11.58952 -2.0518646
-17.29455 11.709125 -2.0542567
-17.261763 11.842042 -2.0590408
-17.223089 11.97159 -2.0632267
-17.181849 12.099961 -2.0672135
-17.13644 12.225965 -2.0708015
-17.091745 12.353033 -2.0745888
-17.046133 12.480011 -2.0783763
-16.986019 12.596817 -2.0804691
-16.915567 12.706182 -2.0813663
-16.838869 12.810941 -2.0815656
-16.754429 12.909769 -2.0808678
-16.635679 12.98172 -2.0758846
-16.529951 13.06319 -2.0725956
-16.436279 13.1538 -2.0709012
-16.333616 13.236861 -2.0681105
-16.219784 13.31032 -2.0639246
-16.119442 13.394329 -2.0615325
-16.011827 13.471843 -2.0582435
-15.907658 13.551767 -2.0554528
-15.806877 13.634171 -2.0531604
-15.68695 13.699486 -2.0483763
-15.573525 13.769775 -2.0444894
-15.470951 13.849145 -2.0420973
-15.371675 13.931115 -2.0402036
-15.278575 14.018445 -2.039207
-15.184253 14.104479 -2.0381107
-15.080028 14.181022 -2.0357187
-14.979759 14.260934 -2.0339246
-14.866183 14.32772 -2.0303366
-14.761611 14.402684 -2.0280442
-14.651724 14.472011 -2.0250542
-14.552095 14.551085 -2.0235593
-14.439463 14.616741 -2.0202703
-14.336997 14.692245 -2.0184762
-14.227933 14.760595 -2.0157852
-14.126119 14.836088 -2.0141907
-14.020506 14.907263 -2.0120976
-13.916583 14.979888 -2.0103035
-13.802879 15.041535 -2.0071142
-13.694289 15.108251 -2.0047221
-13.591374 15.180872 -2.0032272
-13.486107 15.250564 -2.0014331
-13.38115 15.320286 -1.9997388
-13.280396 15.394567 -1.9987422
-13.172135 15.459859 -1.9966491
-13.063575 15.524402 -1.9945562
-12.950903 15.583604 -1.9918652
-12.841784 15.646623 -1.9897722
-12.733634 15.710436 -1.9878784
-12.630157 15.779727 -1.9867821
-12.505951 15.822578 -1.9823967
-12.399448 15.887249 -1.9809017
-12.298696 15.95909 -1.9804034
-12.201746 16.035837 -1.9806027
-12.100732 16.107222 -1.9802041
-11.986855 16.161186 -1.9777124
-11.879824 16.223995 -1.9764167
-11.762566 16.27239 -1.9734267
-11.649785 16.326437 -1.9712341
-11.530482 16.370766 -1.9679451
-11.407667 16.409344 -1.964058
-11.281436 16.442108 -1.959573
-11.1742 16.501957 -1.9584767
-11.063891 16.556973 -1.956882
-10.956067 16.61541 -1.9557856
-10.846857 16.671478 -1.9544899
-10.737371 16.726833 -1.9531944
-10.623889 16.775589 -1.951201
-10.513375 16.828646 -1.9498056
-10.403656 16.882673 -1.9486096
-10.309171 16.961496 -1.9504037
-10.197742 17.012484 -1.9490083
-10.075443 17.044756 -1.9455199
-9.9371014 17.048656 -1.9388423
-9.7029209 16.884134 -1.9128292
-9.5314608 16.823877 -1.8990752
-9.4460001 16.914188 -1.9027628
-9.4816504 17.2255 -1.9317659
-9.4113588 17.348951 -1.9392409
-9.2901907 17.379168 -1.9361513
-9.1847696 17.438486 -1.9364502
-9.0698061 17.4795 -1.9347559
-8.9555912 17.521532 -1.9332609
-8.8394136 17.559265 -1.9313673
-8.7239933 17.598017 -1.9296728
-8.6084309 17.636013 -1.9279785
-8.4892826 17.66608 -1.9254869
-8.3743448 17.704344 -1.9239919
-8.2596769 17.742765 -1.9225966
-8.146925 17.784969 -1.9216995
-8.036828 17.832809 -1.9215002
-7.9244337 17.87542 -1.9208025
-7.8094344 17.911848 -1.9195069
-7.6923261 17.942966 -1.9177128
-7.5766759 17.976992 -1.9163175
-7.4582324 18.003838 -1.9142245
-7.3461223 18.045574 -1.9138259
-7.2374749 18.095854 -1.9144238
-7.1284871 18.145477 -1.9150218
-7.0162983 18.187019 -1.9148225
-6.9006968 18.219492 -1.9137262
-6.7828808 18.245636 -1.9120318
-6.6656861 18.27289 -1.9105368
-6.5474067 18.296581 -1.9087428
-6.4310646 18.325144 -1.9075468
-6.3117056 18.344501 -1.9054538
-6.1948943 18.370626 -1.9041581
-6.0773759 18.394119 -1.9026631
-5.9601092 18.417809 -1.9012678
-5.8430815 18.441702 -1.8999721
-5.7292256 18.475306 -1.8997728
-5.6174884 18.515825 -1.9003707
-5.5054698 18.555668 -1.9009688
-5.3926191 18.592922 -1.9013674
-5.2797899 18.630447 -1.9018657
-5.1645799 18.659616 -1.9015667
-5.049211 18.688072 -1.9012678
-4.9341946 18.717741 -1.9011681
-4.8182611 18.743809 -1.9007695
-4.7021937 18.769159 -1.9003707
-4.5867038 18.796692 -1.9002711
-4.4708233 18.822544 -1.9000717
-4.3545742 18.846714 -1.8997728
-3.2960482 14.674158 -1.4687127
-3.1783836 14.567724 -1.4557559
-3.0184658 14.254032 -1.4216697
-2.9305477 14.270335 -1.4214704
-2.8464251 14.305614 -1.4232644
-2.762356 14.342352 -1.4252578
-2.699796 14.495982 -1.4392111
-2.5593779 14.226315 -1.4101083
-2.472549 14.244693 -1.4104074
-2.3785357 14.22034 -1.4064207
-2.2871275 14.209125 -1.4038293
-2.1266277 13.74892 -1.3557898
-2.0358028 13.718403 -1.3514044
-1.9444532 13.680394 -1.3463215
-1.8590025 13.681222 -1.3452251
-1.7791119 13.723948 -1.3484144
-1.6977925 13.758307 -1.3508065
-1.6149613 13.782301 -1.3522018
-1.5282809 13.773161 -1.3503082
-1.4451917 13.796134 -1.3517035
-1.365876 13.859204 -1.3571851
-1.3196694 14.288419 -1.3995436
-1.2399951 14.389435 -1.4089124
-1.3124274 16.408262 -1.6110373
-1.1607926 15.725347 -1.5416689
-1.0221515 15.108722 -1.4790781
-0.93662417 15.231901 -1.4908388
-0.85143507 15.387381 -1.5058885
-0.7087878 14.410418 -1.4074174
-0.62039649 14.415489 -1.4075171
-0.56070238 15.200582 -1.4858553
-0.46513531 15.129145 -1.4783803
-0.37263742 15.145639 -1.4797757
-0.27801552 15.056115 -1.4706063
-0.18578614 15.070472 -1.471902
-0.093610078 15.120083 -1.4767857
-0.00083357736 15.104452 -1.475191
0.091582149 15.061388 -1.4709053
0.18372627 15.038653 -1.4687127
0.27575988 15.02431 -1.467417
0.3637383 14.851243 -1.4502742
0.45455155 14.838786 -1.4492775
0.54368651 14.784012 -1.4440949
0.6346457 14.786363 -1.4446929
0.72692424 14.813993 -1.4478822
0.7782492 14.093931 -1.3761219
0.86300421 14.061082 -1.3733312
0.94637859 14.012834 -1.3690455
1.0346117 14.037525 -1.3721353
1.1230248 14.059676 -1.3750256
1.2036363 13.987092 -1.3684475
1.2909919 13.996287 -1.3701419
1.3797737 14.017809 -1.3731319
1.4630651 13.983349 -1.3705405
1.5392944 13.888069 -1.3618696
1.6276065 13.905046 -1.3645605
1.7088755 13.862209 -1.3612715
1.7915984 13.833701 -1.3594775
1.8887684 13.913157 -1.3686469
1.9690632 13.865841 -1.3650589
2.0527911 13.84464 -1.3641618
2.1402864 13.848499 -1.3658562
2.2329655 13.883244 -1.3707399
2.3144989 13.84769 -1.3685472
2.4065688 13.874403 -1.3727332
2.4893651 13.846644 -1.3714375
2.5739155 13.829153 -1.3712382
2.6649301 13.845343 -1.3745272
2.7577929 13.868742 -1.3786136
2.8434384 13.854484 -1.3789126
2.9321043 13.854298 -1.3807065
3.0291455 13.891459 -1.3863876
3.115633 13.878436 -1.3869857
3.2726297 14.170261 -1.4189788
3.3192778 13.980498 -1.4015371
3.4226878 14.032369 -1.4090121
3.4990528 13.972495 -1.4050254
3.5914087 13.976782 -1.4077164
3.6943469 14.019909 -1.4144937
3.8145583 14.123774 -1.4276497
3.9237077 14.181615 -1.4361215
3.9851499 14.067285 -1.4267528
4.0713902 14.042567 -1.4267528
4.1820989 14.100312 -1.4354239
4.3349762 14.293385 -1.4583472
4.3459759 14.019419 -1.4324338
4.4343195 14.000076 -1.4332311
4.533618 14.014259 -1.4376165
4.6313839 14.022079 -1.4414039
4.7087502 13.96794 -1.4387128
4.8225303 14.020643 -1.4473839
4.9410868 14.083738 -1.457251
5.0354557 14.07564 -1.4596429
5.2328849 14.349215 -1.4921345
5.3121643 14.293519 -1.4896427
5.4082255 14.282988 -1.4920347
5.4975533 14.254176 -1.4925331
5.6016469 14.262777 -1.4971178
5.6816664 14.209661 -1.4951245
5.7766266 14.193884 -1.4972174
6.1343575 14.811774 -1.5680807
6.0508447 14.360326 -1.5231309
6.2729254 14.635697 -1.557217
6.3268213 14.514842 -1.548247
6.4528618 14.559436 -1.5574163
6.4639912 14.3463 -1.5383799
6.5415373 14.283752 -1.5358882
6.6370363 14.260485 -1.537782
6.7337718 14.239281 -1.5399746
6.8516135 14.261372 -1.547051
6.9730339 14.288809 -1.5548249
7.0791383 14.283197 -1.559011
7.73528 15.369115 -1.6856879
7.3335814 14.351187 -1.5765524
7.3995037 14.263525 -1.5717684
7.5712729 14.378083 -1.5899078
7.8868508 14.756953 -1.6382463
7.7395525 14.270095 -1.5883131
7.8408809 14.247617 -1.5912035
8.2978325 14.861216 -1.6671498
8.2549667 14.573673 -1.6399407
8.6198797 15.002419 -1.6953555
8.5318937 14.640628 -1.6595751
8.6367559 14.613698 -1.6625651
8.7477465 14.596273 -1.6667511
8.8970909 14.640958 -1.6783125
8.8954086 14.437847 -1.6608708
9.2068291 14.739958 -1.70303
9.3034868 14.693276 -1.7042259
9.4133558 14.666897 -1.7079136
9.4988317 14.602189 -1.7071162
9.5049944 14.417365 -1.6919669
9.567296 14.319888 -1.6872826
10.101292 14.920042 -1.7670162
10.189272 14.852859 -1.7664182
10.291574 14.806398 -1.7684115
10.410306 14.782833 -1.7732953
10.510641 14.732449 -1.7749896
10.57286 14.628971 -1.7702056
10.666537 14.569442 -1.7709032
10.84998 14.630791 -1.7867503
10.974213 14.610083 -1.792531
11.088958 14.575729 -1.796717
11.195189 14.529483 -1.7995077
11.299435 14.480127 -1.8019993
11.397326 14.422232 -1.8034943
11.475656 14.339599 -1.8018997
11.556534 14.260412 -1.8008033
11.643817 14.189234 -1.8008033
11.791713 14.190987 -1.8103714
11.918926 14.166331 -1.8166504
12.075317 14.17473 -1.8274145
12.214059 14.160645 -1.8353878
12.360936 14.154382 -1.8445572
12.521376 14.161754 -1.8557199
12.690333 14.176582 -1.8680786
12.862614 14.192817 -1.880836
13.047005 14.219931 -1.8952878
13.180739 14.189908 -1.9021648
13.333001 14.178349 -1.9117328
13.480125 14.159687 -1.9205035
13.642713 14.155512 -1.9314669
13.856482 14.201859 -1.949706
14.037065 14.211426 -1.9630613
14.201396 14.202421 -1.9740248
14.395166 14.220601 -1.9890745
14.56334 14.211223 -2.0004365
14.763461 14.230696 -2.0161839
14.878607 14.166598 -2.020071
14.984822 14.093443 -2.0227621
15.077577 14.007327 -2.023659
15.116318 13.871495 -2.0172803
15.21147 13.787837 -2.0186756
15.258716 13.661058 -2.0136921
15.281126 13.513129 -2.0055196
15.334525 13.393586 -2.0016325
15.387787 13.274547 -1.9978452
15.434864 13.150842 -1.9933602
15.483288 13.028982 -1.9891741
15.530799 12.907024 -1.9849881
15.570475 12.779294 -1.9799051
15.619991 12.660335 -1.9762174
15.669413 12.541872 -1.9726294
15.726557 12.430066 -1.9701377
15.766446 12.305177 -1.965553
15.810913 12.184519 -1.961666
15.854495 12.063779 -1.957779
15.919467 11.959697 -1.9566827
15.950191 11.830378 -1.9514003
15.994382 11.711713 -1.947912
16.057072 11.606941 -1.9468156
16.085869 11.478148 -1.941633
16.119387 11.353449 -1.937148
16.164234 11.23729 -1.934158
16.206625 11.119884 -1.9309685
16.245712 11.000709 -1.9274802
16.293051 10.887552 -1.9250882
16.343765 10.776969 -1.9231945
16.379557 10.65695 -1.9196066
16.410305 10.53421 -1.9155202
16.454458 10.420545 -1.9131281
16.486862 10.299881 -1.9094405
16.522644 10.181823 -1.9062511
16.549944 10.059063 -1.9021648
16.580629 9.9389105 -1.8985767
16.613033 9.8202791 -1.8952878
16.645466 9.7021265 -1.8920984
16.676214 9.5834503 -1.8888094
16.707865 9.4657431 -1.8857197
16.74478 9.3514051 -1.8833277
16.780922 9.2369709 -1.8809357
16.7988 9.112957 -1.8765503
16.815788 8.9890728 -1.872165
16.839813 8.8694963 -1.8686767
16.860355 8.7485895 -1.8648893
16.880936 8.6282187 -1.8612016
16.894453 8.5047932 -1.8568163
16.930271 8.3930168 -1.8550222
16.955519 8.2763205 -1.8521318
16.975489 8.1574764 -1.8487432
17.003635 8.0429535 -1.8463513
17.034624 7.9300718 -1.8443578
17.063059 7.8162847 -1.8421652
17.104347 7.7085791 -1.8414675
17.13586 7.5966291 -1.8397732
17.173029 7.4873667 -1.8387765
17.196697 7.3724456 -1.8363845
17.222355 7.2586756 -1.8342915
17.225201 7.1357303 -1.8298064
17.191246 6.998395 -1.8214345
17.260656 6.9034939 -1.8243247
17.247122 6.7756281 -1.8183447
17.272591 6.6635866 -1.8166504
17.321526 6.5606503 -1.8175474
17.375446 6.4594436 -1.8190424
17.432514 6.3591862 -1.8209361
17.484322 6.2567954 -1.8223314
17.517689 6.1477485 -1.8218331
17.558844 6.041441 -1.8222318
17.594641 5.9332705 -1.8221321
17.644888 5.8298812 -1.8236271
17.693581 5.7257929 -1.8250225
17.736917 5.6198235 -1.8259195
17.756809 5.5064664 -1.8244245
17.78455 5.3956761 -1.8238264
17.808737 5.2839036 -1.8229295
17.852291 5.1778574 -1.8241254
17.890427 5.0701189 -1.8248231
17.929831 4.9626379 -1.8257201
17.967628 4.8546052 -1.8265175
17.999964 4.7450271 -1.8268164
18.036449 4.6364737 -1.8276138
18.064558 4.5257168 -1.8276138
18.090055 4.4143176 -1.8274145
18.1168 4.303236 -1.8274145
18.144802 4.1924405 -1.8276138
18.179893 4.0832071 -1.8286104
18.214327 3.9737008 -1.8296071
18.247128 3.8637195 -1.8305042
18.282187 3.7540853 -1.8317002
18.315613 3.6439724 -1.8327965
18.341536 3.5322738 -1.8331952
18.370689 3.4211226 -1.8339925
18.404066 3.310627 -1.8352882
18.423054 3.1974695 -1.8351885
18.445269 3.0848596 -1.8354875
18.460903 2.9711494 -1.8351885
18.484686 2.8587315 -1.8357865
18.515659 2.7473016 -1.8371818
18.554825 2.6368585 -1.8394742
8.6843176 1.1804526 -0.84011233
8.7723131 1.137627 -0.84828502
6.8198476 0.84216887 -0.65054554
6.7359428 0.78989261 -0.64157552
6.6922035 0.74317384 -0.63669181
6.6728868 0.69961131 -0.63429981
6.6730928 0.65826404 -0.63390112
6.6581807 0.61556911 -0.63200748
6.6509275 0.57376486 -0.63091111
6.6453962 0.53223139 -0.63001412
6.6495295 0.49151915 -0.63011378
6.6414995 0.4499712 -0.62901747
6.6361904 0.40872329 -0.62822014
6.6286383 0.36744773 -0.62722343
6.6347437 0.32696345 -0.62762213
6.6326485 0.28607646 -0.62722343
6.6372619 0.24548373 -0.62752247
6.6336703 0.20460112 -0.62702411
6.6367903 0.16394264 -0.62722343
6.6446352 0.12334502 -0.6279211
6.6542215 0.082681686 -0.62881809
6.663559 0.041905344 -0.62971514
6.6806059 0.0010173572 -0.63140947
6.6884465 -0.040023103 -0.6322068
6.6950393 -0.081147514 -0.63290447
6.705359 -0.12242768 -0.63400078
6.7124391 -0.16376421 -0.63479817
6.7202592 -0.20522277 -0.63569516
6.7248392 -0.24667351 -0.63629317
6.7361226 -0.2884874 -0.6375888
6.7411823 -0.33015597 -0.63828647
6.7449908 -0.37184253 -0.63888448
6.8250132 -0.41828808 -0.64715683
8.7919416 -0.59334314 -0.84489638
16.374447 -1.2070446 -1.6068512
16.284409 -1.3009111 -1.5985788
16.219612 -1.3959385 -1.5928978
16.129496 -1.4879332 -1.5847251
16.125013 -1.5873616 -1.5852234
16.048666 -1.6793301 -1.5785458
16.021248 -1.7759064 -1.5768514
10.584479 -1.2386495 -1.0296792
10.591493 -1.3053987 -1.0311742
10.583283 -1.3703623 -1.0311742
10.573689 -1.4351404 -1.0310745
10.581432 -1.5023719 -1.0327688
10.583825 -1.5690223 -1.0339648
13.846533 -2.1399825 -1.3656569
13.792864 -2.2184212 -1.3615705
13.802546 -2.3069496 -1.3639625
15.768475 -2.7352638 -1.5652901
15.72985 -2.8280907 -1.5630974
14.670411 -2.7305644 -1.4569519
15.733043 -3.0284331 -1.5670841
13.371035 -2.6587815 -1.3277833
15.740505 -3.2306795 -1.5717684
15.735961 -3.3304982 -1.5733631
15.731755 -3.4305947 -1.5750574
15.681285 -3.5205176 -1.5720674
15.787359 -3.6462357 -1.5852234
15.780179 -3.7467153 -1.5868181
15.767526 -3.8460646 -1.5879145
8.2556391 -2.0669224 -0.81469721
8.2312374 -2.1145666 -0.81350124
15.610353 -4.1135769 -1.5792434
15.564647 -4.2038331 -1.5771505
7.6721168 -2.122134 -0.75958133
15.427643 -4.3706455 -1.5683798
15.390022 -4.4621768 -1.5672834
8.0142784 -2.3764811 -0.79954785
7.9728851 -2.4175229 -0.79675716
7.9541001 -2.4652193 -0.79635847
7.9625378 -2.5214913 -0.79885018
8.4117413 -2.7207127 -0.84778672
15.112371 -4.9915938 -1.5564196
14.96643 -5.0454402 -1.5442603
7.779707 -2.6753547 -0.78629214
14.900571 -5.2277327 -1.5439613
14.84854 -5.3120227 -1.5418683
14.804449 -5.3989401 -1.5406723
14.759851 -5.4855161 -1.5394763
14.714748 -5.5717487 -1.5382802
14.655219 -5.6522622 -1.5355892
14.573956 -5.7238879 -1.5306059
14.510843 -5.8021197 -1.5276159
14.432576 -5.8737907 -1.5230312
14.374201 -5.9530973 -1.5206392
14.328234 -6.0373197 -1.5196425
14.28909 -6.1243382 -1.5194432
14.207462 -6.1928115 -1.5146592
14.16101 -6.2762413 -1.5137621
14.057824 -6.3339872 -1.5066857
14.00603 -6.4143238 -1.5052905
13.970017 -6.5018225 -1.5056891
13.926262 -6.5857167 -1.5052905
13.864964 -6.6611304 -1.5029981
13.799687 -6.7342949 -1.5003071
13.728687 -6.8042574 -1.4970181
13.669792 -6.8798666 -1.4951245
13.612259 -6.955915 -1.49343
13.21957 -6.8578348 -1.4539618
13.046066 -6.8697314 -1.4391115
12.912406 -6.9008684 -1.4287461
12.723758 -6.9007354 -1.4121017
12.603595 -6.9359746 -1.4032314
12.445257 -6.9486542 -1.3899757
12.360831 -7.0013437 -1.3851916
12.290895 -7.0616879 -1.3821019
12.274843 -7.1530042 -1.3852913
12.254706 -7.2423635 -1.3880819
12.203209 -7.3133283 -1.3872846
12.182764 -7.4030547 -1.390175
12.179466 -7.503767 -1.3951583
12.15176 -7.5899558 -1.397351
12.158761 -7.6984453 -1.4037297
12.131392 -7.7858052 -1.4061217
12.120089 -7.8839712 -1.4105071
12.06567 -7.9543557 -1.4098094
12.46256 -8.326211 -1.4635299
12.426891 -8.4131231 -1.4654236
12.379137 -8.4920292 -1.465922
12.320262 -8.563282 -1.4651246
12.269114 -8.639863 -1.4653239
12.20858 -8.7097807 -1.464427
12.145231 -8.7775326 -1.463231
12.092751 -8.8530645 -1.4634303
12.000639 -8.8992386 -1.458746
11.912395 -8.9476042 -1.4545599
11.83193 -9.0012484 -1.4513706
11.763866 -9.063961 -1.4497759
11.701755 -9.131074 -1.4489785
11.646288 -9.2033195 -1.4490782
11.591151 -9.2758503 -1.4492775
11.542521 -9.3536892 -1.4503739
11.482603 -9.4224434 -1.4500749
11.421511 -9.4901781 -1.4496763
11.35393 -9.552393 -1.4484802
11.298133 -9.6244602 -1.4488789
11.238865 -9.6936035 -1.4488789
11.190416 -9.7721996 -1.4503739
11.153352 -9.8611116 -1.4534636
11.36767 -10.175592 -1.49044
11.201068 -10.150931 -1.476387
11.090185 -10.175068 -1.4698089
10.969953 -10.189424 -1.4619353
10.884031 -10.234728 -1.458746
10.810218 -10.291026 -1.457251
10.742571 -10.35302 -1.4566529
10.644661 -10.385385 -1.4518689
10.555962 -10.426028 -1.4483806
10.477718 -10.47653 -1.4463872
10.390163 -10.517262 -1.4430982
10.305284 -10.560163 -1.4402078
10.211983 -10.593823 -1.4361215
10.124833 -10.633223 -1.4329321
6.9558153 -7.3948956 -0.97914791
9.9251881 -10.683038 -1.4228657
9.8554153 -10.739338 -1.4222678
9.7946796 -10.805506 -1.4230651
9.7321758 -10.869849 -1.4236631
6.7547054 -7.6375823 -0.98353326
6.6769528 -7.6436605 -0.97884893
6.5486884 -7.5903039 -0.96639055
9.5870218 -11.251598 -1.4428989
2.0950644 -2.4882016 -0.28805634
2.086117 -2.5086627 -0.28905302
9.3631439 -11.407698 -1.4405068
9.3155241 -11.492764 -1.4440949
9.2672129 -11.577673 -1.4476829
6.3530807 -8.0370197 -0.98841697
2.0332808 -2.6036351 -0.29313937
1.9978324 -2.5908406 -0.28995004
1.9674382 -2.5840449 -0.28755802
1.9515458 -2.5960681 -0.28755802
1.9361726 -2.608793 -0.28765768
1.9218923 -2.6230326 -0.28795668
1.9115901 -2.6428401 -0.28895336
1.9080518 -2.6723394 -0.29114604
8.2888813 -11.767833 -1.4040287
8.2267418 -11.833178 -1.4058228
8.1489143 -11.876049 -1.4049257
1.8770394 -2.7702684 -0.29742506
1.8594532 -2.7809062 -0.2973254
1.8544043 -2.810539 -0.29951808
7.8533792 -12.069954 -1.4046267
7.7490735 -12.071021 -1.3990453
7.6791196 -12.125067 -1.3998426
7.6061587 -12.174488 -1.4001417
7.5412316 -12.237025 -1.4020354
7.4561863 -12.266911 -1.4001417
7.3685007 -12.291946 -1.3977497
7.2878776 -12.328362 -1.396753
7.20959 -12.368549 -1.3962547
7.1385193 -12.421181 -1.3972514
7.067565 -12.474272 -1.3983476
6.994772 -12.524352 -1.399145
6.9077172 -12.54873 -1.397052
6.8215756 -12.57426 -1.3951583
6.7410102 -12.609737 -1.3944607
6.6649022 -12.653502 -1.3947597
6.5875945 -12.695043 -1.3948593
6.5118389 -12.739655 -1.3953576
6.422811 -12.75804 -1.3929657
6.3364544 -12.781162 -1.3911717
6.2570381 -12.818013 -1.3909723
6.1834416 -12.866926 -1.3921683
6.1077785 -12.911821 -1.3929657
6.0250793 -12.941838 -1.3921683
5.9430699 -12.973136 -1.3915703
5.8649917 -13.012986 -1.391969
5.8035822 -13.090573 -1.3965536
5.7330914 -13.14874 -1.3990453
5.6507363 -13.180012 -1.3986467
5.5716906 -13.21902 -1.399145
5.4900947 -13.25204 -1.3990453
5.3993006 -13.262437 -1.3965536
5.304522 -13.262056 -1.3929657
5.2095881 -13.260087 -1.3892779
5.1112976 -13.248171 -1.3845936
5.0055981 -13.215076 -1.3777165
4.9209509 -13.236215 -1.37672
4.8379378 -13.261486 -1.3762215
4.7514482 -13.276868 -1.3747265
4.6675873 -13.2992 -1.3740289
4.582984 -13.319121 -1.3731319
4.4964046 -13.332849 -1.3716369
4.4054604 -13.332788 -1.3687465
4.3281636 -13.373769 -1.3702415
4.2559381 -13.431376 -1.3735305
4.1743283 -13.460089 -1.3738296
4.0858841 -13.466405 -1.3718362
3.9972363 -13.471189 -1.3697432
3.9075756 -13.471571 -1.3672515
3.8226721 -13.487635 -1.3664542
3.73878 -13.507001 -1.3660555
3.658427 -13.539293 -1.3670522
3.5841577 -13.595161 -1.3705405
3.5026534 -13.624607 -1.3713379
3.4192302 -13.646808 -1.3714375
3.3380246 -13.678164 -1.3725339
3.2542639 -13.699357 -1.3726336
3.1732802 -13.732639 -1.3740289
3.0917923 -13.764473 -1.3753246
3.0066409 -13.780269 -1.3750256
2.9222362 -13.799431 -1.3751253
2.8371093 -13.815152 -1.3749259
2.7555873 -13.84889 -1.3766203
2.6743226 -13.885079 -1.3786136
2.5923529 -13.918836 -1.3804076
2.511126 -13.957983 -1.3827996
2.4324079 -14.013324 -1.386886
2.3455577 -14.023078 -1.3863876
2.2514091 -13.987104 -1.3813046
2.1609831 -13.971155 -1.3783146
0.41894597 -2.8168011 -0.24749185
0.2754319 -1.9307299 -0.15759215
0.26143777 -1.916608 -0.15599747
0.25043976 -1.9240967 -0.15659547
0.23838547 -1.9236221 -0.15639614
0.22403206 -1.9033066 -0.15420346
0.21213007 -1.9026675 -0.15400413
0.20283391 -1.9266945 -0.15629648
0.19159316 -1.9338441 -0.15689448
0.17972371 -1.9349834 -0.15689448
0.16938376 -1.953894 -0.15868849
0.15572716 -1.9340676 -0.15659547
0.14414972 -1.938956 -0.15699415
0.13278648 -1.947746 -0.15779148
0.12595631 -2.0319486 -0.16616352
0.10898444 -1.9512159 -0.15799081
0.10149971 -2.0432796 -0.16716018
0.11283132 -2.5995681 -0.22287409
0.12810028 -3.4483898 -0.30789012
0.10852496 -3.5008278 -0.3130728
0.087774165 -3.5312693 -0.31606281
0.066781908 -3.5685511 -0.31975049
0.044969752 -3.5758581 -0.32044816
0.022985268 -3.5691018 -0.31975049
0.0010854986 -3.5572355 -0.31855449
-0.021427536 -3.6686153 -0.32971719
-0.044243138 -3.6932883 -0.33220887
-0.059862569 -3.3109243 -0.29393673
-0.079321466 -3.2756793 -0.29044837
-0.10222919 -3.3666298 -0.29961774
-0.53049403 -14.426047 -1.4082147
-0.14614274 -3.4257622 -0.30569744
-0.70797235 -14.42839 -1.4092114
-0.80165452 -14.517163 -1.4185801
-0.89291239 -14.547725 -1.4221681
-0.9836356 -14.563812 -1.4243608
-0.27978754 -3.8076653 -0.34466726
-0.30274913 -3.8009176 -0.34416893
-0.32529688 -3.7900665 -0.34327191
-0.27042827 -2.9418497 -0.25815624
-0.2885716 -2.9411252 -0.2582559
-1.5320793 -14.642429 -1.4369189
-0.324642 -2.9373624 -0.2582559
-0.34242767 -2.9333386 -0.25805658
-1.8038973 -14.632486 -1.4390118
-1.8937744 -14.622129 -1.4391115
-1.9865389 -14.632912 -1.4414039
-2.0796468 -14.64409 -1.4437959
-2.1713605 -14.643848 -1.4450915
-0.47114769 -3.0544472 -0.27181062
-0.49414894 -3.0780232 -0.27450162
-0.63578284 -3.8090155 -0.34905261
-0.65829188 -3.8001409 -0.34855428
-0.54807937 -3.0537164 -0.27300662
-0.56334549 -3.0317099 -0.27111295
-0.53320664 -2.775135 -0.24529918
-2.9109697 -14.638725 -1.457251
-2.9863274 -14.550411 -1.4500749
-3.079879 -14.552256 -1.4521679
-0.58270115 -2.676636 -0.23662814
-0.8581351 -3.8263671 -0.35503265
-0.88249302 -3.8249075 -0.35543132
-0.62152374 -2.6218927 -0.23214312
-0.64585489 -2.6518629 -0.23563147
-0.65534413 -2.6208246 -0.23284079
-0.67611933 -2.6350644 -0.23473448
-0.71332532 -2.7107251 -0.24300684
-0.74006575 -2.7437599 -0.24689385
-3.9993484 -14.454922 -1.4645267
-4.1031585 -14.483721 -1.4701079
-0.94842166 -3.274389 -0.30370408
-0.81397039 -2.7476656 -0.24928586
-0.81781572 -2.6997719 -0.24480085
-4.4983339 -14.510764 -1.4839617
-4.5641456 -14.409851 -1.4762874
-4.6546211 -14.388202 -1.476985
-4.7484365 -14.376377 -1.478779
-4.8295641 -14.326227 -1.4765863
-4.9054003 -14.261512 -1.4728986
-4.997757 -14.245227 -1.4743936
-5.0927801 -14.235841 -1.476686
-1.176988 -3.2300766 -0.30659443
-5.2785339 -14.203051 -1.479975
-1.1619123 -3.0711594 -0.29114604
-1.1696329 -3.0351937 -0.28805634
-1.1984212 -3.0538914 -0.29084703
-5.6317854 -14.084937 -1.4816693
-1.3089613 -3.2186651 -0.31028211
-1.2483375 -3.0166066 -0.28925237
-1.286918 -3.0565698 -0.29443505
-1.3421092 -3.1336672 -0.30370408
-1.3633001 -3.1299336 -0.30420244
-1.3748177 -3.1042264 -0.30230874
-1.3926126 -3.0930107 -0.30200976
-6.376616 -13.923709 -1.4962207
-6.4703283 -13.902362 -1.4982141
-6.5810366 -13.916368 -1.5041941
-6.6632853 -13.869448 -1.5034964
-1.3781582 -2.8261838 -0.27719265
-1.372493 -2.7713165 -0.27200997
-1.3773921 -2.7388463 -0.26931894
-1.3928128 -2.7276852 -0.26901993
-7.1011734 -13.688555 -1.5068852
-7.1952319 -13.664094 -1.5090778
-7.300046 -13.659176 -1.5135628
-1.4830563 -2.7364135 -0.2740033
-1.5002985 -2.7281339 -0.27410296
-7.5206361 -13.469499 -1.5074831
-7.6271744 -13.465521 -1.5123668
-7.7374167 -13.46678 -1.5179482
-7.8289204 -13.434525 -1.5197421
-5.0054626 -8.4703817 -0.94775277
-8.0162134 -13.375845 -1.5242271
-8.147747 -13.408034 -1.5337952
-8.2554417 -13.399297 -1.5386789
-8.3338127 -13.342483 -1.5379813
-5.1122785 -8.074955 -0.91954702
-5.2353668 -8.1581516 -0.93320137
-5.2847834 -8.1250401 -0.93310171
-5.3504224 -8.1165504 -0.93599206
-5.6278868 -8.4244232 -0.97705489
-8.8527384 -13.076132 -1.5439613
-8.9378719 -13.028951 -1.5448583
-9.0284386 -12.989387 -1.546752
-9.1177101 -12.947575 -1.5484463
-5.5958419 -7.8444591 -0.92742068
-9.38025 -12.979058 -1.5662867
-9.4561844 -12.916441 -1.5656887
-9.5334816 -12.855778 -1.5653898
-1.742417 -2.3213267 -0.25297356
-1.728912 -2.2741661 -0.24838886
-1.7063918 -2.2162261 -0.24240883
-1.7383238 -2.2292464 -0.24539885
-1.7346938 -2.1966803 -0.24260817
-1.7319739 -2.1657975 -0.24001682
-9.9657993 -12.297749 -1.5477487
-10.135126 -12.350971 -1.5625991
-10.220895 -12.300795 -1.5641937
-1.6462247 -1.9581902 -0.21848874
-1.63885 -1.9253303 -0.21549872
-10.45013 -12.115851 -1.5648913
-10.528202 -12.055999 -1.5654894
-1.6812618 -1.9030375 -0.21659505
-1.679633 -1.877859 -0.21460171
-1.6924603 -1.8689922 -0.21480106
-1.7025508 -1.857106 -0.21460171
-1.8080485 -1.9479542 -0.22845544
-10.96209 -11.657416 -1.5650907
-11.025864 -11.582008 -1.5639944
-2.3939514 -2.4853168 -0.30789012
-3.2159517 -3.2973893 -0.42360359
-3.4312201 -3.4750915 -0.45141071
-3.4566998 -3.458194 -0.45200872
-3.2697299 -3.2313423 -0.42270657
-3.3172705 -3.2383192 -0.4265936
-3.4065719 -3.2848823 -0.43626133
-3.4165742 -3.254313 -0.43486598
-11.169926 -10.505883 -1.4982141
-11.236365 -10.43918 -1.4985131
-3.1577041 -2.8989174 -0.39161044
-3.5293248 -3.200223 -0.43945065
-3.5422223 -3.1725342 -0.43855366
-3.4721715 -3.0716479 -0.4265936
-3.4617248 -3.0247591 -0.42270657
-3.428231 -2.9586179 -0.41582957
-3.3599737 -2.8639665 -0.40446752
-11.791398 -9.9226685 -1.5058885
-11.847468 -9.8463154 -1.5052905
-3.4513485 -2.8338273 -0.40955055
-3.9603212 -3.2110419 -0.47293881
-10.899471 -8.7244415 -1.3606735
-10.981683 -8.6802273 -1.3643612
-11.043365 -8.6194153 -1.3654575
-11.212696 -8.6413765 -1.3802083
-3.9373806 -2.9970746 -0.45788908
-3.9517183 -2.9698708 -0.45739073
-11.258763 -8.3511353 -1.3663546
-11.381247 -8.3342104 -1.3752249
-11.472491 -8.2933626 -1.3802083
-11.544223 -8.2378378 -1.3827996
-11.596179 -8.1679945 -1.3829989
-11.624836 -8.0819225 -1.3804076
-11.677488 -8.0126934 -1.3808062
-3.0899549 -2.0934861 -0.3360959
-3.0911593 -2.0667479 -0.33470055
-3.1071055 -2.049933 -0.33509922
-3.1246295 -2.034085 -0.33569723
-3.1680346 -2.0347605 -0.33938491
-3.2300587 -2.04669 -0.34526527
-3.2872834 -2.0547712 -0.35054761
-3.4353697 -2.1180756 -0.36649436
-3.5707467 -2.1713688 -0.38084641
-3.6121671 -2.1662986 -0.38413543
-3.5945539 -2.1258678 -0.3805474
-3.6101093 -2.1052752 -0.38084641
-13.905093 -7.9911718 -1.5686787
-3.6503906 -2.0691524 -0.38254076
-13.98126 -7.8082905 -1.5662867
-3.9099996 -2.1532571 -0.4093512
-3.9511268 -2.1444061 -0.41254056
-3.9870265 -2.1323171 -0.4151319
-3.9436893 -2.07814 -0.40875319
-14.334318 -7.4380627 -1.5798414
-14.408926 -7.3649111 -1.5831305
-8.9904737 -4.5264807 -0.97047687
-7.6701083 -3.803091 -0.81978023
-7.6825686 -3.7507198 -0.81858426
-9.1180086 -4.3822055 -0.97555989
-9.1321325 -4.32022 -0.97416455
-9.0628481 -4.2195978 -0.96359986
-9.1862707 -4.2086582 -0.97436392
-5.7964058 -2.6131649 -0.59911734
-5.8068728 -2.5751302 -0.59851933
-5.8070579 -2.5326922 -0.596825
-9.3352604 -4.0027246 -0.97964627
-9.2908745 -3.9163899 -0.97217125
-9.342309 -3.8707311 -0.97516125
-9.3575888 -3.8099589 -0.9742642
-9.3623123 -3.7450812 -0.97227091
-9.5481167 -3.7515886 -0.98981231
-9.3750725 -3.6173763 -0.96878254
-9.4538546 -3.581279 -0.97486222
-9.462594 -3.5183506 -0.97346687
-9.5026999 -3.4670417 -0.97546023
-9.3589058 -3.3496752 -0.95791882
-9.1802359 -3.2223463 -0.93678939
-9.2694616 -3.1899083 -0.94416475
-9.4500923 -3.1873312 -0.96120787
-7.805666 -2.5796797 -0.78569412
-9.3692093 -3.0325308 -0.94864976
-9.3487492 -2.9626656 -0.94456345
-9.4427824 -2.9288194 -0.95253682
-9.4634323 -2.8716908 -0.9528358
-9.6525831 -2.8645048 -0.9707759
-9.4950933 -2.7545123 -0.95253682
-9.7224293 -2.7558732 -0.97446358
-9.6739454 -2.6781209 -0.96768618
-9.7055655 -2.6228638 -0.9692809
-9.822504 -2.5898876 -0.97974592
-9.78617 -2.5161951 -0.97436392
-9.8660936 -2.4722981 -0.98104161
-9.8781776 -2.4110069 -0.98074257
-9.8695517 -2.3448329 -0.97835058
-9.8536987 -2.2772882 -0.97526091
-9.9373875 -2.2324793 -0.98243695
-10.004368 -2.1831241 -0.98791862
-10.222973 -2.1651759 -1.0089483
-10.116179 -2.0777981 -0.99668932
-10.301473 -2.0500424 -1.0143304
-10.56692 -2.0355146 -1.0401442
-10.800288 -2.0117953 -1.0626689
-11.041588 -1.9866958 -1.085991
-11.070236 -1.9218 -1.0876853
-11.099485 -1.8567914 -1.0894793
-12.066534 -1.9424298 -1.1864555
-13.216933 -2.0443876 -1.30187
-13.506788 -2.0044174 -1.3299761
-14.499039 -2.0607402 -1.4291447
-15.375122 -2.0890241 -1.5164531
-16.677364 -2.1617274 -1.646718
-17.467508 -2.1551969 -1.7251561
-18.18504 -2.1304846 -1.7962186
-19.569458 -2.1709502 -1.9344569
-19.576473 -2.0502119 -1.9338589
-19.624332 -1.9335645 -1.937447
-19.559536 -1.8060755 -1.9297726
-19.590076 -1.6877333 -1.9317659
-19.626842 -1.5696392 -1.9344569
-19.636105 -1.4491817 -1.9344569
-19.650583 -1.329072 -1.9350549
-19.64645 -1.2077414 -1.9338589
-19.639582 -1.0864017 -1.9324635
-19.629978 -0.96509421 -1.9308689
-19.624596 -0.84415901 -1.9297726
-19.612501 -0.72310662 -1.9280782
-19.608612 -0.60250896 -1.9272809
-19.606966 -0.48205945 -1.9267825
-19.61055 -0.36176258 -1.9268823
-19.610411 -0.24140333 -1.9266828
-19.610527 -0.12106548 -1.9265832
-19.602942 -0.00073543558 -1.9257859
-19.588648 0.11946019 -1.9243906
-19.57262 0.23946813 -1.9228956
-19.555861 0.35928392 -1.9214005
-19.537373 0.47887862 -1.9198059
-19.528099 0.5985654 -1.9192078
-19.524059 0.71837628 -1.9192078
-19.513319 0.83790368 -1.9186099
-19.500853 0.95727742 -1.9179121
-19.491632 1.0767496 -1.9176131
-19.480686 1.1960835 -1.9172145
-19.469009 1.3153237 -1.9168159
-17.408897 -0.44330338 -1.9184763
-17.4252 -0.33674517 -1.9200394
-17.420977 -0.22974105 -1.9193695
-17.404171 -0.12271708 -1.9173599
-17.396646 -0.015917329 -1.9164668
-17.404367 0.090868108 -1.9173599
-17.388577 0.19748865 -1.9156853
-17.404922 0.3044917 -1.9176949
-17.393785 0.41106945 -1.9166901
-17.375042 0.51731515 -1.9149038
-17.362602 0.62359589 -1.9138991
-17.340578 0.72936779 -1.9118894
-17.329821 0.83546686 -1.9112196
-17.279715 0.93935853 -1.9061958
-17.295448 1.0466874 -1.9086518
-17.285727 1.1525922 -1.908317
-17.251568 1.256685 -1.9053025
-17.217775 1.3604804 -1.9023999
-17.225937 1.4675347 -1.9042978
-17.211658 1.5727514 -1.9037396
-17.192783 1.6774622 -1.9027348
-17.151525 1.7797447 -1.8992739
-17.128429 1.8836478 -1.8979342
-17.118523 1.9889398 -1.8981575
-17.101065 2.0933359 -1.8975992
-17.092827 2.1988606 -1.8981575
-17.075073 2.3031676 -1.8977109
-17.043892 2.4055343 -1.895813
-17.015047 2.50804 -1.89425
-16.958084 2.6060565 -1.8895611
-16.9457 2.7106879 -1.8900076
-16.938551 2.8162434 -1.891124
-16.919973 2.9199543 -1.8910123
-16.909563 3.0251184 -1.8919055
-16.887753 3.1282735 -1.8915706
-16.850672 3.2284706 -1.8895611
-16.820797 3.3298738 -1.8884445
-16.780575 3.4290431 -1.8862118
-16.735882 3.5270245 -1.8835323
-16.713926 3.6296475 -1.8835323
-16.63994 3.7206423 -1.8776152
-16.651663 3.8306928 -1.8816344
-16.588194 3.9234164 -1.8770571
-16.582155 4.0295839 -1.8791783
-16.528193 4.1240373 -1.875829
-16.491024 4.2224174 -1.8744893
-16.470573 4.3250389 -1.8751591
-16.443724 4.4260192 -1.8751591
-16.413383 4.5260401 -1.8748242
-16.387217 4.6272054 -1.8750474
-16.357561 4.7273927 -1.8749359
-16.310139 4.822319 -1.8728147
-16.25456 4.9145408 -1.8698003
-16.22315 5.0138907 -1.8696886
-16.173126 5.1073551 -1.8674558
-16.135809 5.2046652 -1.866786
-16.096964 5.3013988 -1.8660045
-16.065073 5.4003849 -1.866116
-16.042915 5.5027251 -1.8674558
-16.017292 5.6040125 -1.8684605
-16.012556 5.7128725 -1.8720331
-16.009888 5.8229036 -1.8759407
-16.009266 5.9341526 -1.880183
-15.992076 6.0396447 -1.8825275
-15.977903 6.1465759 -1.8853186
-15.946365 6.247036 -1.8861001
-15.884658 6.3355598 -1.883309
-15.888761 6.4504752 -1.8885562
-15.855311 6.5505013 -1.8893377
-15.845967 6.6607566 -1.8931335
-15.814851 6.7621574 -1.8943616
-15.783086 6.8634272 -1.8955897
-15.755218 6.9665709 -1.8973759
-15.735741 7.0737052 -1.9002787
-15.73362 7.1891217 -1.9054142
-15.71535 7.2976627 -1.9086518
-15.672973 7.395225 -1.9089868
-15.685549 7.5191741 -1.9162436
-15.677536 7.6339836 -1.9210441
-15.660686 7.7450128 -1.92484
-15.651943 7.8605819 -1.9297522
-15.630861 7.9704661 -1.9332131
-15.614315 8.083128 -1.937344
-15.57322 8.1834059 -1.9384604
-15.543759 8.2900305 -1.9411398
-15.50571 8.3923435 -1.9428145
-15.47657 8.4997644 -1.9457171
-15.4493 8.6085939 -1.9489547
-15.429062 8.7218094 -1.9531971
-15.442498 8.8548717 -1.9619052
-15.440277 8.9799328 -1.9687154
-15.372903 9.0674362 -1.9671525
-15.288833 9.1447582 -1.9634682
-15.1874 9.2110853 -1.9575512
-15.286356 9.3998747 -1.9780934
-15.237668 9.4992762 -1.9793215
-15.191695 9.6005573 -1.9809961
-15.136685 9.6962709 -1.9815543
-15.116079 9.8143988 -1.9868015
-15.0838 9.9255362 -1.9905974
-15.056513 10.040506 -1.9951746
-15.016853 10.147724 -1.998189
-14.954306 10.239676 -1.998189
-14.915689 10.348233 -2.0015383
-14.863296 10.44756 -2.0031013
-14.835338 10.564502 -2.0081253
-14.771848 10.656494 -2.0083485
-14.774383 10.796768 -2.017838
-14.739008 10.910276 -2.0221922
-14.704385 11.024949 -2.0267694
-14.653872 11.128187 -2.0292256
-14.601857 11.230615 -2.0315702
-14.538944 11.324883 -2.0324633
-14.479325 11.421881 -2.0339146
-14.420616 11.519813 -2.0355892
-14.362795 11.618704 -2.037487
-14.303534 11.716689 -2.0392735
-14.268086 11.834684 -2.0446322
-14.218032 11.941182 -2.0479815
-14.166449 12.046866 -2.0512192
-14.106572 12.145883 -2.0533404
-14.057999 12.255065 -2.0572479
-14.041399 12.393041 -2.0660677
-13.96287 12.476977 -2.0657327
-13.894156 12.569751 -2.0669608
-13.838753 12.674902 -2.0703101
-13.798614 12.794711 -2.0761154
-13.716949 12.876416 -2.0756688
-13.615351 12.939118 -2.0722079
-13.511353 12.998993 -2.0684121
-13.372962 13.024797 -2.0592575
-13.261655 13.075909 -2.0543451
-13.175547 13.151419 -2.053452
-13.070137 13.207293 -2.0495446
-12.981906 13.280135 -2.0484281
-12.887751 13.346673 -2.0464184
-12.761717 13.379478 -2.0392735
-12.725722 13.506714 -2.046865
-12.604693 13.543807 -2.0406132
-12.509247 13.607724 -2.0386035
-12.398126 13.65406 -2.0340261
-12.295534 13.709163 -2.0309002
-12.2013 13.77319 -2.0292256
-12.074024 13.799187 -2.0219688
-12.019667 13.908349 -2.027216
-11.947003 13.996955 -2.029449
-11.833353 14.037327 -2.0246482
-11.72538 14.083705 -2.0208523
-11.644423 14.162293 -2.0218573
-11.534755 14.205704 -2.017838
-11.452347 14.282414 -2.0187311
-11.363879 14.351637 -2.0186195
-11.253569 14.392912 -2.0146005
-11.182655 14.484502 -2.017838
-11.09357 14.552845 -2.017838
-11.005859 14.623022 -2.018173
-10.91889 14.694265 -2.0187311
-10.819705 14.748967 -2.0170567
-10.723758 14.807835 -2.0160518
-10.622871 14.859612 -2.014154
-10.508575 14.892035 -2.0096881
-10.397123 14.927694 -2.0057807
-10.307021 14.993666 -2.0061157
-10.203112 15.039357 -2.0037711
-10.09129 15.072778 -1.9998636
-9.9953279 15.129438 -1.9991938
-9.900136 15.187154 -1.9987472
-9.7906361 15.22254 -1.9953979
-9.6858664 15.264708 -1.9930534
-9.6226044 15.372706 -1.9995288
-9.5040808 15.392565 -1.9943932
-9.3980827 15.431919 -1.991937
-9.292984 15.472257 -1.9897043
-9.1872377 15.51103 -1.9873598
-9.0808649 15.548232 -1.9849036
-8.9862833 15.605381 -1.9851269
-8.8825111 15.646399 -1.9833406
-8.7805157 15.6902 -1.9820008
-8.6658373 15.710715 -1.9777585
-8.560257 15.747005 -1.9756373
-8.455966 15.785217 -1.973851
-8.3510647 15.821864 -1.971953
-8.2437391 15.853412 -1.969497
-8.141326 15.893967 -1.9682689
-8.0329056 15.922328 -1.9655894
-7.9319615 15.965088 -1.964808
-7.8198776 15.984892 -1.9612354
-7.7048311 15.997656 -1.9568814
-7.5780029 15.984468 -1.9494013
-7.4915471 16.055882 -1.9525273
-7.392889 16.101545 -1.9525273
-7.2898612 16.137548 -1.9514109
-7.1846528 16.168352 -1.9497362
-7.0813303 16.203026 -1.9486198
-6.9751067 16.23065 -1.9467219
-6.8746123 16.271313 -1.9464986
-6.7731194 16.309517 -1.9460521
-6.668788 16.340649 -1.944824
-6.5639596 16.370192 -1.9434843
-6.4746809 16.438822 -1.9469452
-6.3726168 16.47546 -1.9466102
-6.2678766 16.504961 -1.9454938
-6.1644034 16.537523 -1.944824
-6.0699844 16.594635 -1.9471685
-5.970397 16.638115 -1.94795
-5.8698449 16.679121 -1.9485081
-5.7683654 16.717642 -1.9488431
-5.6666346 16.755547 -1.949178
-5.5652809 16.794716 -1.9497362
-5.4602847 16.822878 -1.9490664
-5.3557549 16.852276 -1.9486198
-5.2484131 16.872486 -1.9471685
-5.13871 16.884407 -1.944824
-5.034729 16.914667 -1.9447123
-4.9252939 16.926157 -1.9424795
-4.8197136 16.950325 -1.9418097
-4.7105646 16.961388 -1.9396884
-4.6030221 16.977503 -1.9382371
-4.4954591 16.992937 -1.9367857
-4.3886251 17.010578 -1.9356693
-4.2822285 17.029476 -1.9347762
-4.1793122 17.062187 -1.9355576
-4.0743113 17.086544 -1.935446
-3.9689445 17.109285 -1.9352227
-3.3135698 14.693342 -1.6542189
-3.1891077 14.557112 -1.6362444
-3.0771935 14.470456 -1.6240754
-2.9445808 14.276896 -1.5997374
-2.8454316 14.2372 -1.5931505
-2.763118 14.280734 -1.5961648
-2.6743441 14.291558 -1.595495
-2.5770545 14.254892 -1.5894663
-2.4577687 14.08835 -1.5687008
-2.3778698 14.142365 -1.5731665
-2.2753294 14.059572 -1.5621139
-2.1803112 14.017299 -1.5557503
-2.042464 13.683465 -1.5163405
-1.9552293 13.673114 -1.5137727
-1.8712958 13.684854 -1.5137727
-1.7830474 13.66356 -1.5100886
-1.6995436 13.677202 -1.5104235
-1.6204836 13.728822 -1.5151125
-1.5855901 14.179959 -1.5650166
-1.4954218 14.159774 -1.5616673
-1.4060526 14.143962 -1.5588763
-1.3514401 14.497643 -1.5978395
-1.3276181 15.254106 -1.6822411
-1.1930577 14.755812 -1.6251918
-1.1490629 15.386185 -1.6954149
-1.0406352 15.188713 -1.6724166
-0.99802732 16.006121 -1.7637401
-0.90833133 16.163748 -1.7808213
-0.72242272 14.437095 -1.5860053
-0.63360679 14.436292 -1.5854472
-0.60956794 16.14893 -1.7775837
-0.47716877 15.09952 -1.6592427
-0.38334617 15.056466 -1.6541072
-0.28937787 14.977062 -1.6449525
-0.19895825 15.09084 -1.6575681
-0.10514972 14.920856 -1.6383656
-0.013810445 15.150776 -1.664155
0.078781329 15.079027 -1.6561168
0.17305999 15.233274 -1.673533
0.2803272 16.021835 -1.7622887
0.38432983 16.261227 -1.7894177
0.4785144 16.070827 -1.7683173
0.53116709 14.787472 -1.6244104
0.62164092 14.777977 -1.6237406
0.71206599 14.768921 -1.6231823
0.79496253 14.622377 -1.6072174
0.85214508 14.079596 -1.5467073
0.93336463 13.996761 -1.5379992
1.0499761 14.41299 -1.5855588
1.1092819 14.037749 -1.5440278
1.1889858 13.955426 -1.535543
1.2735074 13.935992 -1.5342033
1.3598614 13.936817 -1.5352081
1.4496573 13.969726 -1.5398971
1.5403426 14.006006 -1.5450326
1.6199461 13.942 -1.5388923
1.7040136 13.919961 -1.5375526
1.7883786 13.901359 -1.5366595
1.8733764 13.888154 -1.5364362
1.961751 13.89903 -1.539004
2.0446787 13.871 -1.5372176
2.1341276 13.886678 -1.5404553
2.226671 13.919442 -1.5457025
2.3126891 13.909438 -1.546149
2.4033992 13.926323 -1.5497216
2.5747197 14.391621 -1.604538
2.5739348 13.894804 -1.54961
2.6597042 13.881677 -1.5499449
2.7438657 13.860222 -1.5493866
2.8394022 13.894728 -1.5553037
2.9284985 13.895519 -1.5574249
3.0175002 13.894769 -1.5594345
3.1337056 14.014674 -1.5753994
3.567826 15.508882 -1.7498964
3.3123124 14.004176 -1.5787486
3.7588139 15.467794 -1.750343
3.8310392 15.353806 -1.7398486
3.9133458 15.2838 -1.7344897
3.743829 14.257001 -1.6180468
3.8503494 14.304771 -1.6263083
3.9404266 14.289499 -1.627313
4.0299215 14.271747 -1.6280946
4.1461072 14.346038 -1.6397054
4.2715254 14.447074 -1.6545538
4.3365092 14.342591 -1.6453991
4.3601756 14.107784 -1.6209494
4.4472556 14.082661 -1.6211728
4.5479183 14.099559 -1.6264199
4.773911 14.495193 -1.6765473
4.8649783 14.472221 -1.6773288
4.9533644 14.441157 -1.6772172
4.9414644 14.123464 -1.6430546
5.0340419 14.109725 -1.6450642
5.1327496 14.112191 -1.6490834
5.5207491 14.893896 -1.7465471
5.4972301 14.55574 -1.7100401
5.5921474 14.536576 -1.7118263
5.5851851 14.256788 -1.6822411
5.6659312 14.205635 -1.6802316
5.9051199 14.545356 -1.72567
5.9988108 14.51987 -1.7270097
6.0365772 14.360946 -1.7121613
6.135129 14.348307 -1.7151756
6.2599063 14.395144 -1.7255584
6.3477135 14.355555 -1.7254467
6.4466786 14.340808 -1.728461
6.5238132 14.277481 -1.7255584
6.704206 14.437277 -1.750343
6.8113232 14.435413 -1.7552552
6.8976212 14.388867 -1.754697
6.98665 14.348061 -1.7549202
7.0741158 14.30403 -1.7548087
7.1702237 14.277228 -1.7569299
7.2721376 14.261293 -1.7605025
7.3796067 14.255235 -1.7654147
7.4368911 14.152506 -1.758158
7.5942006 14.239011 -1.775016
7.6762238 14.182532 -1.7737879
7.8095016 14.219656 -1.7846172
7.9265938 14.225291 -1.791539
8.0323114 14.209261 -1.7957814
8.1208296 14.162294 -1.7961164
8.2290573 14.149138 -1.8009169
8.3439913 14.146314 -1.807169
8.4255333 14.086321 -1.8060524
8.5308733 14.065796 -1.8101833
8.6367979 14.045355 -1.8144257
8.7469988 14.030889 -1.8195612
