# .PCD v0.7 - Point Cloud Data file format
VERSION 0.7
FIELDS x y z
SIZE 4 4 4
TYPE F F F
COUNT 1 1 1
WIDTH 1627
HEIGHT 1
VIEWPOINT 0 0 0 1 0 0 0
POINTS 1627
DATA ascii
-5.0343528 -1.5988672 -1.7874688
-5.1595778 -1.6038253 -1.8293527
-5.2705832 -1.6029094 -1.8660011
-5.3509712 -1.5915376 -1.8915241
-5.4286928 -1.5784478 -1.9160655
-5.4600925 -1.551302 -1.9239187
-5.4886308 -1.5230725 -1.9307903
-5.5188518 -1.4950448 -1.9383162
-5.5306621 -1.4618775 -1.9392979
-5.5441031 -1.4290929 -1.9409341
-5.5527678 -1.395048 -1.9409341
-5.5621409 -1.3611751 -1.9412613
-5.5584378 -1.3241764 -1.9370074
-5.5544901 -1.2872745 -1.9327536
-5.5576749 -1.2521311 -1.9311175
-5.5615606 -1.2171988 -1.9298086
-5.5726218 -1.1838355 -1.9311175
-5.5825577 -1.1501918 -1.9320991
-5.5959969 -1.1172099 -1.9343897
-5.6148081 -1.0851811 -1.9386435
-5.6176453 -1.0500152 -1.9373347
-5.6221223 -1.0151907 -1.9366802
-5.6180053 -0.97889274 -1.9330808
-5.6145864 -0.94283986 -1.9298086
-5.6146688 -0.90746814 -1.9278454
-5.6145287 -0.87213099 -1.925882
-5.6122971 -0.83655149 -1.9232643
-5.6145177 -0.80169922 -1.9222826
-5.6043506 -0.76519179 -1.9170471
-0 -0 -0
-0 -0 -0
-0 -0 -0
-0 -0 -0
-0 -0 -0
-0 -0 -0
-0 -0 -0
-0 -0 -0
-0 -0 -0
-0 -0 -0
-0 -0 -0
-0 -0 -0
-0 -0 -0
-0 -0 -0
-0 -0 -0
-0 -0 -0
-0 -0 -0
-0 -0 -0
-0 -0 -0
-0 -0 -0
-0 -0 -0
-0 -0 -0
-0 0 -0
-0 0 -0
-0 0 -0
-0 0 -0
-0 0 -0
-0 0 -0
-0 0 -0
-0 0 -0
-0 0 -0
-0 0 -0
-0 0 -0
-5.4445262 -0.13931166 -1.9114317
-5.4509249 -0.10601228 -1.9134572
-0 -0 -0
-0 -0 -0
-0 -0 -0
-0 0 -0
-0 0 -0
-0 0 -0
-0 0 -0
-0 0 -0
-0 0 -0
-0 0 -0
-0 0 -0
-0 0 -0
-0 0 -0
-0 0 -0
-0 0 -0
-0 0 -0
-0 0 -0
-0 0 -0
-0 0 -0
-0 0 -0
-0 0 -0
-0 0 -0
-0 0 -0
-0 0 -0
-0 0 -0
-0 0 -0
-0 0 -0
-0 0 -0
-0 0 -0
-0 0 -0
-0 0 -0
-0 0 -0
-0 0 -0
-5.3593135 1.0261196 -1.915145
-5.374155 1.0631845 -1.9229096
-5.373064 1.0972693 -1.9249351
-5.3653088 1.1300232 -1.9245975
-5.3601141 1.163322 -1.9252727
-5.3501191 1.1955734 -1.92426
-5.3399305 1.2277461 -1.9232472
-5.3396249 1.26222 -1.9259479
-5.3290353 1.2942933 -1.9249351
-5.3264737 1.3283335 -1.9269607
-5.3173108 1.3607578 -1.9266231
-5.307951 1.3931197 -1.9262855
-5.2993031 1.4256624 -1.9262855
-5.3067899 1.4626523 -1.9323621
-5.2886562 1.4926306 -1.9289862
-5.2839198 1.5263588 -1.9306742
-5.2744546 1.5587517 -1.9306742
-5.2584839 1.5891801 -1.928311
-5.2459354 1.6205823 -1.9272983
-5.2233257 1.6487744 -1.922572
-5.2175903 1.682237 -1.92426
-5.2035937 1.7130427 -1.9229096
-5.1947694 1.7455387 -1.9235848
-5.1768374 1.7749386 -1.9208841
-5.1818433 1.8122618 -1.9269607
-5.1573262 1.839281 -1.9218968
-5.1309042 1.8654246 -1.9161578
-5.1264234 1.899488 -1.9188585
-5.1129103 1.9302427 -1.9181833
-5.0930629 1.9585384 -1.915145
-5.0835791 1.9907815 -1.9161578
-5.0773892 2.0243762 -1.9185209
-5.0683608 2.0569079 -1.9198713
-5.0617352 2.0904827 -1.9222344
-5.0470772 2.1207726 -1.9215592
-5.032238 2.1509612 -1.9208841
-5.0120392 2.1787961 -1.9181833
-4.9959931 2.2083669 -1.9171706
-4.9763384 2.2362797 -1.9148074
-4.9727979 2.2714643 -1.9188585
-4.9476671 2.2967825 -1.91447
-4.9292245 2.3250899 -1.912782
-4.9097719 2.3528512 -1.9107565
-4.8977818 2.3841684 -1.9117692
-4.9016247 2.4233522 -1.9191961
-4.8765683 2.4483149 -1.915145
-4.863131 2.4790459 -1.9158202
-4.8478284 2.5088387 -1.9158202
-4.8206763 2.5324094 -1.9110941
-4.8033857 2.5610554 -1.9104189
-4.7834415 2.5882406 -1.9087309
-4.7484918 2.6071246 -1.9009664
-4.7546091 2.6485782 -1.9100813
-4.7481022 2.6832585 -1.9141324
-4.7217488 2.7067251 -1.9100813
-4.714817 2.741323 -1.9141324
-4.6930428 2.7673326 -1.9121068
-4.6711268 2.7931783 -1.9100813
-4.6506805 2.8198354 -1.9087309
-4.6276774 2.8448682 -1.9063678
-4.6117325 2.8742051 -1.907043
-4.5948057 2.9029508 -1.9073806
-4.5856266 2.9366727 -1.9110941
-4.5746274 2.9693661 -1.9141324
-4.562613 3.0015178 -1.916833
-4.5472431 3.0315452 -1.9181833
-4.5285563 3.0593896 -1.9181833
-4.5096993 3.0871186 -1.9181833
-4.48139 3.1082945 -1.9141324
-4.4599233 3.13411 -1.9131196
-4.4383082 3.1597788 -1.9121068
-4.4196 3.1875029 -1.9124444
-4.3953981 3.2112296 -1.9104189
-4.3809085 3.242058 -1.912782
-4.3556604 3.2649262 -1.9104189
-4.3362947 3.2921596 -1.9107565
-4.3160129 3.3187046 -1.9107565
-4.3000245 3.3485944 -1.912782
-4.2801361 3.3754988 -1.9131196
-4.2571373 3.3999355 -1.9121068
-4.2391233 3.4283602 -1.9134572
-4.2252903 3.4602699 -1.916833
-4.2025299 3.4849291 -1.9161578
-4.1817884 3.511255 -1.9164954
-4.1551447 3.5325804 -1.9141324
-4.1298242 3.5549393 -1.9124444
-4.1036754 3.5765018 -1.9104189
-4.0802417 3.6003687 -1.9097437
-4.0629873 3.6297264 -1.9121068
-4.0322614 3.6470118 -1.9080558
-4.0084195 3.6704133 -1.9073806
-3.9823711 3.69174 -1.9056926
-3.9562118 3.7128854 -1.9040047
-3.9354029 3.7390354 -1.9050175
-3.9144218 3.7650695 -1.9060302
-3.9006884 3.7982099 -1.9107565
-3.8799913 3.8247156 -1.9121068
-3.8544512 3.8464563 -1.9110941
-3.8268037 3.8660207 -1.9090685
-3.797087 3.8833718 -1.9060302
-3.7692637 3.9025352 -1.9040047
-3.7439477 3.9242275 -1.9033295
-3.7178617 3.9450712 -1.9023167
-3.6929438 3.9671204 -1.9019791
-3.6691697 3.9903979 -1.9023167
-3.6446159 4.0128365 -1.9023167
-3.6230681 4.0386271 -1.9040047
-3.6025896 4.0657129 -1.9063678
-3.5781951 4.0884495 -1.9067054
-3.5530415 4.1103282 -1.9067054
-3.5259204 4.1299043 -1.9056926
-3.4968722 4.1471438 -1.9036671
-3.4707577 4.167799 -1.9033295
-3.4265823 4.1664805 -1.8928642
-3.4205379 4.2115378 -1.9040047
-3.3981659 4.2368522 -1.9060302
-3.3750277 4.261312 -1.9077182
-3.3459175 4.2782335 -1.9060302
-3.3178775 4.2964482 -1.9050175
-3.2897403 4.3144803 -1.9040047
-3.2569771 4.326313 -1.9002912
-3.2258775 4.3401723 -1.8975905
-3.1969583 4.3568487 -1.8962401
-3.1668513 4.3718095 -1.8942146
-3.1213496 4.3651266 -1.8827366
-3.1124213 4.4095736 -1.893877
-3.0879967 4.4324493 -1.8955649
-3.062875 4.4544158 -1.8969153
-3.0381286 4.4770198 -1.8986033
-3.0142679 4.5010514 -1.9009664
-2.9881501 4.5218177 -1.9019791
-2.958806 4.5377021 -1.9009664
-2.9309075 4.5557718 -1.9009664
-2.8988628 4.5673122 -1.8982657
-2.871783 4.5866089 -1.8989408
-2.8406179 4.5993385 -1.8969153
-2.813323 4.618289 -1.8975905
-2.7873569 4.6394987 -1.8992784
-2.7564375 4.6524653 -1.8975905
-2.7330623 4.6782308 -1.901304
-2.7057154 4.6973596 -1.9023167
-2.6749825 4.7105989 -1.9009664
-2.64235 4.7203531 -1.8982657
-2.6128817 4.7356534 -1.8979281
-2.5824261 4.7491155 -1.8969153
-2.5545714 4.7673607 -1.8979281
-2.5208757 4.774622 -1.8945522
-2.4989171 4.8041954 -1.9002912
-2.4638112 4.808548 -1.8959025
-2.4359567 4.8269367 -1.8972529
-2.4071312 4.8434782 -1.8979281
-2.3736427 4.8505478 -1.8948898
-2.3462873 4.8701086 -1.8969153
-2.3135369 4.8784604 -1.8945522
-2.2847543 4.895123 -1.8955649
-2.2534964 4.9064837 -1.8945522
-2.2268374 4.9279385 -1.8975905
-2.1957936 4.9397888 -1.8969153
-2.1669507 4.9566188 -1.8982657
-2.1350093 4.966363 -1.8969153
-2.1066952 4.9845715 -1.8989408
-2.0749872 4.9947963 -1.8979281
-2.0443008 5.0074344 -1.8979281
-2.0135372 5.0198836 -1.8979281
-1.9816625 5.0295167 -1.8969153
-1.9521236 5.0450926 -1.8982657
-1.9167842 5.045537 -1.893877
-1.8910524 5.0713139 -1.8992784
-1.8592528 5.0810542 -1.8986033
-1.8274047 5.0905948 -1.8979281
-1.7942592 5.0963845 -1.8959025
-1.7638762 5.1099672 -1.8969153
-1.7261523 5.1019697 -1.8898259
-1.6948147 5.1124654 -1.8898259
-1.6660303 5.1308255 -1.8928642
-1.63794 5.1517158 -1.8969153
-1.603781 5.1535802 -1.893877
-1.5707577 5.1588216 -1.8921891
-1.5382681 5.1656561 -1.8911763
-1.5070697 5.176805 -1.8918515
-1.4716703 5.1732798 -1.8871253
-1.4388916 5.1785846 -1.885775
-1.4088149 5.193675 -1.8881381
-1.3745114 5.1931224 -1.8847622
-1.3430917 5.2032814 -1.8854374
-1.3134371 5.2205524 -1.8888133
-1.2793624 5.2202854 -1.885775
-1.2503666 5.2408552 -1.8905011
-1.2169083 5.2429276 -1.8884757
-1.1857518 5.2548866 -1.8901635
-1.155099 5.2694187 -1.8928642
-1.1239206 5.2819309 -1.8948898
-1.0907289 5.2850404 -1.8935394
-1.0573566 5.2870188 -1.8918515
-1.0245382 5.2915587 -1.8911763
-0.99135715 5.2940445 -1.8898259
-0.95851958 5.2981753 -1.8891507
-0.92680234 5.3085933 -1.8908387
-0.89468074 5.3169646 -1.8918515
-0.86249131 5.3251419 -1.8928642
-0.83009034 5.3321939 -1.8935394
-0.79777443 5.3399796 -1.8945522
-0.76606143 5.3522286 -1.8972529
-0.73116285 5.341907 -1.8918515
-0.69873774 5.349093 -1.8928642
-0.6655544 5.3504772 -1.8918515
-0.63260144 5.3535256 -1.8915139
-0.59984571 5.3582416 -1.8918515
-0.56715494 5.3636937 -1.8925266
-0.53367347 5.3614526 -1.8905011
-0.50015324 5.3580656 -1.8881381
-0.46751276 5.3638468 -1.8891507
-0.43428782 5.3628616 -1.8878005
-0.40137374 5.3654256 -1.8878005
-0.36850908 5.3687263 -1.8881381
-0.33561903 5.3718257 -1.8884757
-0.30238682 5.3690853 -1.8867877
-0.26943704 5.3708396 -1.8867877
-0.23639418 5.3705106 -1.8861125
-0.20322274 5.3662167 -1.884087
-0.17014283 5.3626585 -1.8823991
-0.13742815 5.371129 -1.8850998
-0.10448731 5.3728123 -1.8854374
-0.071543574 5.3752351 -1.8861125
-0.038574055 5.3774552 -1.8867877
-0.0055810269 5.3804145 -1.8878005
0.027432682 5.3803477 -1.8878005
0.060476869 5.3829017 -1.8888133
0.09358599 5.387135 -1.8905011
0.12666112 5.3874002 -1.8908387
0.15990999 5.3931079 -1.8932018
0.19289766 5.3892031 -1.8921891
0.2260403 5.3897991 -1.8928642
0.25870097 5.3798485 -1.8898259
0.29206261 5.3847394 -1.8921891
0.32373703 5.3602958 -1.884087
0.35737038 5.3694792 -1.8881381
0.38935533 5.3540421 -1.8834118
0.42249563 5.3553057 -1.8847622
0.45566607 5.3563643 -1.8861125
0.48775429 5.3450308 -1.8830742
0.52127135 5.349432 -1.885775
0.5545699 5.3508143 -1.8874629
0.58749413 5.3482466 -1.8878005
0.62040776 5.3454762 -1.8881381
0.65479392 5.3546495 -1.8928642
0.68296039 5.3141198 -1.8796983
0.71756458 5.3247552 -1.8850998
0.75022316 5.3202519 -1.8850998
0.78340185 5.3192735 -1.8864501
0.8167395 5.3190184 -1.8881381
0.84713352 5.2999644 -1.8830742
0.88133377 5.3048811 -1.8867877
0.91418707 5.3012285 -1.8874629
0.94537294 5.2881064 -1.8847622
0.97831613 5.2849832 -1.885775
1.010195 5.2761073 -1.8847622
1.0425495 5.2698097 -1.8847622
1.0741117 5.259624 -1.8834118
1.1081094 5.2612243 -1.8864501
1.1417677 5.2607656 -1.8888133
1.1734101 5.2509046 -1.8878005
1.2051853 5.2417712 -1.8871253
1.2375419 5.2351937 -1.8874629
1.2687528 5.2238431 -1.8861125
1.3005542 5.2150464 -1.885775
1.3304288 5.198761 -1.8827366
1.3630195 5.1932311 -1.8837494
1.394859 5.1847701 -1.8837494
1.4243953 5.1679463 -1.8807111
1.4568453 5.1618271 -1.8817239
1.4877068 5.1500778 -1.8807111
1.5208793 5.1462688 -1.8827366
1.5535165 5.1404443 -1.884087
1.5800287 5.1146264 -1.8780104
1.6164807 5.1209931 -1.884087
1.6464282 5.1064987 -1.8823991
1.6812614 5.1070294 -1.8864501
1.7119664 5.0948329 -1.885775
1.7428902 5.0833421 -1.8854374
1.7799511 5.0894346 -1.8918515
1.8120942 5.0810771 -1.8928642
1.8419508 5.0663238 -1.8915139
1.8749644 5.0602226 -1.8935394
1.9053131 5.0468612 -1.8928642
1.933542 5.0280466 -1.8901635
1.9698479 5.0301123 -1.8955649
1.9971895 5.0091867 -1.8921891
2.02718 4.9950938 -1.8915139
2.0527616 4.9703803 -1.8867877
2.0828559 4.9568238 -1.8864501
2.1117518 4.9404879 -1.8850998
2.1420262 4.9274373 -1.8850998
2.1779275 4.9271159 -1.8901635
2.2069614 4.9110837 -1.8891507
2.2343166 4.8914561 -1.8867877
2.2678542 4.8853388 -1.8898259
2.3018026 4.8798451 -1.8932018
2.3288543 4.8596873 -1.8908387
2.3553336 4.8385353 -1.8881381
2.3862293 4.8265238 -1.8891507
2.4204445 4.8210454 -1.8928642
2.4491253 4.8044257 -1.8921891
2.4807215 4.7934875 -1.893877
2.5127132 4.7831759 -1.8959025
2.5420151 4.7676682 -1.8959025
2.5703251 4.7503252 -1.8952274
2.5921769 4.7212625 -1.8898259
2.6265934 4.7151361 -1.893877
2.6471405 4.6841798 -1.8878005
2.6791089 4.6735654 -1.8901635
2.7105734 4.6619215 -1.8921891
2.737215 4.6419587 -1.8908387
2.7646801 4.6234603 -1.8901635
2.7890933 4.5999699 -1.8874629
2.8162799 4.5811658 -1.8867877
2.8468254 4.5677938 -1.8884757
2.8722856 4.5462608 -1.8867877
2.897589 4.5245876 -1.8850998
2.9314461 4.5161982 -1.8891507
2.9580672 4.4965534 -1.8884757
2.9814253 4.4720526 -1.885775
3.000906 4.4419742 -1.8807111
3.0259781 4.4203701 -1.8793608
3.0557263 4.4055877 -1.8810487
3.0794539 4.382134 -1.8790232
3.1155639 4.3761926 -1.8847622
3.1473122 4.3638649 -1.8878005
3.17625 4.3475118 -1.8891507
3.202306 4.3271842 -1.8888133
3.2276678 4.3059473 -1.8881381
3.2557354 4.288311 -1.8891507
3.2796917 4.2652683 -1.8878005
3.3069577 4.2465496 -1.8884757
3.335866 4.2298741 -1.8901635
3.3623447 4.2100616 -1.8905011
3.3934405 4.1959391 -1.8935394
3.420315 4.1764946 -1.8942146
3.4452765 4.154705 -1.893877
3.4713097 4.1342077 -1.8942146
3.4923437 4.10781 -1.8918515
3.517483 4.0863042 -1.8918515
3.5387795 4.0603862 -1.8898259
3.5642498 4.0393023 -1.8901635
3.5883403 4.0166545 -1.8898259
3.6148126 3.9966557 -1.8908387
3.6399031 3.9750946 -1.8911763
3.6674247 3.9561374 -1.8928642
3.6858332 3.9273825 -1.8898259
3.7098618 3.9046926 -1.8898259
3.7337506 3.8818557 -1.8898259
3.7660351 3.8676407 -1.8942146
3.7910171 3.8458006 -1.8948898
3.8191972 3.8271313 -1.8972529
3.8492973 3.8102477 -1.9006288
3.8625095 3.7766852 -1.8955649
3.8903491 3.7574921 -1.8979281
3.8888152 3.7101572 -1.885775
3.9217818 3.6959105 -1.8908387
3.9485192 3.6756256 -1.8928642
3.9606054 3.6417713 -1.8878005
3.9947209 3.6281602 -1.8935394
4.0099015 3.5972946 -1.8901635
4.0135827 3.5563905 -1.8813863
4.0551605 3.5490561 -1.8908387
4.0811334 3.527801 -1.8928642
4.1048498 3.5045269 -1.893877
4.1349111 3.4865561 -1.8979281
4.1583962 3.4629264 -1.8989408
4.1715693 3.4307683 -1.8952274
4.2100763 3.4193511 -1.9033295
4.22437 3.3881531 -1.9002912
4.2480311 3.364507 -1.9016416
4.2663708 3.3366385 -1.9006288
4.2860188 3.3098223 -1.9002912
4.3062468 3.2834616 -1.9002912
4.3285685 3.2586756 -1.901304
4.343194 3.2281237 -1.8989408
4.366714 3.2041981 -1.9006288
4.3939152 3.1828668 -1.9040047
4.3888617 3.138324 -1.8932018
4.4234152 3.1221926 -1.8999536
4.44944 3.0998356 -1.9029919
4.4644985 3.069809 -1.901304
4.489481 3.0465865 -1.9040047
4.5104365 3.0205538 -1.9050175
4.533597 2.9959354 -1.907043
4.5455866 2.963948 -1.9043423
4.5613127 2.9344728 -1.9033295
4.5784378 2.9059255 -1.9029919
4.5945864 2.8767788 -1.9023167
4.6161556 2.8510063 -1.9040047
4.6383853 2.825567 -1.9060302
4.6580558 2.7985077 -1.907043
4.6727099 2.768434 -1.9060302
4.687171 2.738286 -1.9050175
4.7063313 2.7108843 -1.9060302
4.7351537 2.6889288 -1.9110941
4.7441716 2.6556852 -1.9080558
4.7677946 2.6306188 -1.9110941
4.7764039 2.5972669 -1.9080558
4.7947392 2.5692446 -1.9090685
4.8054194 2.5371389 -1.907043
4.815886 2.5049992 -1.9050175
4.8286529 2.4741144 -1.9040047
4.8487849 2.4469845 -1.9060302
4.8662367 2.4184439 -1.907043
4.8809843 2.3885398 -1.907043
4.9074197 2.3642662 -1.9117692
4.9192829 2.3329 -1.9107565
4.9411812 2.3062556 -1.9137948
4.9518175 2.274322 -1.9124444
4.9673948 2.2446706 -1.9131196
4.9750538 2.2114723 -1.9107565
4.9816298 2.1778872 -1.9080558
5.0009522 2.1498823 -1.9104189
5.0105815 2.1176906 -1.9090685
5.0252199 2.0876288 -1.9097437
5.0431633 2.0588903 -1.9117692
5.059196 2.0293093 -1.9131196
5.0715523 1.9982284 -1.9131196
5.0933738 1.9708096 -1.916833
5.103611 1.9388514 -1.9161578
5.1162934 1.9078287 -1.9164954
5.1393948 1.8806056 -1.9208841
5.1393199 1.8449003 -1.9164954
5.1532068 1.8142692 -1.9175082
5.1615729 1.7816939 -1.9164954
5.1732998 1.7502913 -1.916833
5.1839418 1.7185156 -1.916833
5.1979699 1.6878383 -1.9181833
5.2225809 1.6604767 -1.9235848
5.2371645 1.6297991 -1.9252727
5.2479668 1.597908 -1.9256103
5.2540641 1.5646023 -1.92426
5.2707953 1.5344398 -1.9269607
5.2710581 1.4994937 -1.9235848
5.2819734 1.467627 -1.92426
5.2908788 1.4351898 -1.92426
5.2986755 1.4024576 -1.9239224
5.3008013 1.3682718 -1.9215592
5.3173127 1.3377886 -1.9245975
5.321764 1.3042405 -1.9232472
5.3324132 1.2722178 -1.92426
5.3428698 1.2401134 -1.9252727
5.3540511 1.2081358 -1.9266231
5.3613634 1.1752613 -1.9266231
5.3749185 1.1437143 -1.9289862
5.388288 1.1120452 -1.9313493
5.397779 1.0795163 -1.9323621
5.4052253 1.0465548 -1.9326997
5.4115448 1.0133693 -1.9326997
5.4213662 0.98081619 -1.93405
5.422646 0.94672304 -1.9323621
5.4320655 0.91405755 -1.9337125
0 0 -0
0 0 -0
0 0 -0
0 0 -0
0 0 -0
0 0 -0
0 0 -0
0 0 -0
0 0 -0
0 0 -0
0 0 -0
0 0 -0
0 0 -0
0 0 -0
0 0 -0
0 0 -0
0 0 -0
0 0 -0
0 0 -0
0 0 -0
0 0 -0
0 0 -0
0 0 -0
0 0 -0
0 0 -0
0 0 -0
0 0 -0
0 -0 -0
0 -0 -0
0 -0 -0
0 -0 -0
0 -0 -0
0 -0 -0
0 -0 -0
0 -0 -0
0 -0 -0
0 -0 -0
0 -0 -0
5.521152 -0.40149516 -1.9435025
5.5213995 -0.43558663 -1.9445152
0 -0 -0
5.5081391 -0.50262612 -1.9418145
5.5058885 -0.53650522 -1.9421521
5.4950027 -0.56950289 -1.9394515
5.4942117 -0.603517 -1.9404641
0 -0 -0
0 -0 -0
0 -0 -0
5.5001349 -0.74118531 -1.9485663
5.4973478 -0.77518231 -1.9492415
5.5176315 -0.81259996 -1.9583564
5.5078897 -0.84572625 -1.9566684
5.4970198 -0.87861514 -1.9546429
5.4868822 -0.91155666 -1.952955
5.4746923 -0.94408715 -1.9505918
5.4613838 -0.97633678 -1.9478911
5.4432578 -1.0076025 -1.9435025
5.4314256 -1.0399209 -1.9414769
5.4101682 -1.0703063 -1.9360756
5.3988876 -1.1025409 -1.9343876
5.3496504 -1.1267264 -1.9188585
5.2708845 -1.1439631 -1.8925266
5.173738 -1.1561719 -1.8594431
5.0949912 -1.1714493 -1.8331112
4.9906049 -1.1797433 -1.7973268
4.9238153 -1.1959069 -1.7753836
4.8707175 -1.2147113 -1.7585042
4.8230481 -1.2343094 -1.7436503
4.7835169 -1.2555187 -1.7318348
4.7457266 -1.2767786 -1.7206943
4.7078562 -1.2976223 -1.7095538
4.6816874 -1.3213725 -1.7028022
4.6888652 -1.3545138 -1.7085412
4.71838 -1.3944602 -1.7227198
4.7142401 -1.4247466 -1.7244078
4.6946168 -1.4503127 -1.7203567
4.68922 -1.4802241 -1.7217071
4.6692982 -1.5055034 -1.717656
4.6608672 -1.5344197 -1.7179936
4.6433334 -1.5602915 -1.7149553
4.6479197 -1.5936366 -1.7203567
4.6309452 -1.6196402 -1.717656
4.6191468 -1.6473925 -1.7169808
4.6142597 -1.6776334 -1.7190064
4.5950522 -1.7026446 -1.7156305
4.57307 -1.7264861 -1.7112418
4.5544829 -1.7514733 -1.7082036
4.5401444 -1.7780135 -1.7068532
4.5326467 -1.807232 -1.7082036
4.5293226 -1.8381948 -1.7112418
4.5127382 -1.8637962 -1.7092164
4.4942746 -1.8885341 -1.7065156
4.4618287 -1.9071974 -1.6984135
4.439683 -1.9300362 -1.6943624
4.4251738 -1.9560997 -1.6933497
4.4251089 -1.9886161 -1.6980759
4.4128237 -2.0157306 -1.6980759
4.3807344 -2.0336549 -1.6903113
4.3579574 -2.0556781 -1.6862603
4.357995 -2.0884802 -1.6913241
4.3383274 -2.1118858 -1.6886234
4.3100986 -2.1309574 -1.6825469
4.3011484 -2.1594751 -1.6842347
4.2752376 -2.1794143 -1.679171
4.2642922 -2.2069032 -1.6801838
4.2448373 -2.2299631 -1.6778206
4.2427034 -2.262166 -1.6825469
4.2246037 -2.2859168 -1.6808589
4.2129736 -2.3131542 -1.6818717
4.2069244 -2.3435411 -1.6852475
4.1965632 -2.3716257 -1.6869355
4.1949987 -2.4048197 -1.6923369
4.1606336 -2.4191606 -1.6842347
4.1473331 -2.4456005 -1.6849099
4.1314411 -2.4705188 -1.6845723
4.1202292 -2.4982624 -1.6862603
4.0960016 -2.5180748 -1.6825469
4.0924573 -2.550627 -1.6876106
4.070363 -2.5716681 -1.6849099
4.0552998 -2.5971026 -1.6852475
4.0463943 -2.6265485 -1.6882858
4.0278425 -2.6497755 -1.687273
4.0138578 -2.6760063 -1.6882858
4.0012627 -2.7032187 -1.6899738
3.9752793 -2.7213392 -1.6859227
3.9569597 -2.7446072 -1.6852475
3.9292619 -2.7612588 -1.6805214
3.9114785 -2.7847705 -1.6801838
3.8927908 -2.8076174 -1.6795086
3.8967731 -2.8469968 -1.688961
3.8557739 -2.8534968 -1.6784958
3.8336732 -2.8737144 -1.6764703
3.8189673 -2.8994601 -1.6778206
3.8108058 -2.9302964 -1.6822093
3.7920113 -2.9530456 -1.6818717
3.7730813 -2.9756746 -1.6815341
3.7591653 -3.0022938 -1.6835597
3.7531157 -3.0353649 -1.6892986
3.7329638 -3.0571437 -1.6886234
3.7090628 -3.0757856 -1.6862603
3.6843531 -3.0936441 -1.6835597
3.6681702 -3.1186314 -1.6849099
3.6425447 -3.1355538 -1.6818717
3.624656 -3.1590817 -1.6825469
3.6044981 -3.18064 -1.6822093
2.4265871 -2.1680443 -1.1251888
2.4104459 -2.1803672 -1.1238384
2.3956335 -2.1938453 -1.1231632
3.5074065 -3.2515042 -1.673432
3.4928808 -3.2781167 -1.6761327
3.4781606 -3.3046734 -1.6788334
3.4673166 -3.3350875 -1.6835597
3.452183 -3.3615527 -1.6862603
3.4274695 -3.3787072 -1.6842347
3.403342 -3.3963499 -1.6825469
3.370518 -3.4051275 -1.6764703
3.3311336 -3.4069011 -1.6670178
3.3121283 -3.4293075 -1.6680305
3.2962227 -3.4550138 -1.6707313
3.2685049 -3.4683242 -1.6673554
3.2529347 -3.4945145 -1.6703937
3.2365291 -3.5199511 -1.6730944
3.2110727 -3.5355635 -1.6710688
3.1893184 -3.5551996 -1.6710688
3.1705656 -3.5782242 -1.6727568
3.1442106 -3.592653 -1.6703937
3.1387289 -3.631104 -1.6795086
3.1078324 -3.6402729 -1.6747823
3.0939333 -3.6693475 -1.6795086
3.0846133 -3.7041748 -1.6869355
3.0701985 -3.7332094 -1.6916617
3.0365512 -3.7388263 -1.6855851
3.0041292 -3.7456398 -1.6801838
2.9734917 -3.7544103 -1.6757951
2.0050983 -2.5640686 -1.1255263
1.978971 -2.5629139 -1.1194497
1.960354 -2.5712662 -1.1177619
1.9434078 -2.5817423 -1.1170866
1.9241605 -2.5890856 -1.1150612
1.8748225 -2.5553117 -1.0948058
1.699506 -2.3464727 -0.99724287
1.6314147 -2.2818239 -0.96415925
1.6173829 -2.2917912 -0.96415925
2.7236812 -3.9096019 -1.6670178
2.6943073 -3.9184844 -1.6636419
2.6691561 -3.9333851 -1.6629667
2.6444471 -3.9489067 -1.6626291
2.6175721 -3.9611318 -1.6609412
2.5921896 -3.9755416 -1.660266
2.5626538 -3.9834561 -1.6568902
2.5376592 -3.9983108 -1.6565526
2.512079 -4.0122108 -1.6558774
2.4745514 -4.0067277 -1.6471001
2.4543278 -4.0290704 -1.6501384
2.4271357 -4.0400195 -1.6484505
2.4013412 -4.0532165 -1.6477753
2.3788004 -4.0719385 -1.6494632
2.3594091 -4.0962453 -1.6535143
2.3388793 -4.1188302 -1.6568902
2.3108037 -4.1281757 -1.6548647
2.2890685 -4.14887 -1.6575654
2.2721133 -4.1785483 -1.6639795
2.2388725 -4.1783071 -1.6582404
2.2140718 -4.1936307 -1.6589156
2.1909051 -4.2121472 -1.6609412
2.16416 -4.2238359 -1.660266
2.1398988 -4.2403965 -1.6616163
2.114259 -4.2542896 -1.6619539
2.0893567 -4.2697191 -1.6629667
2.0590327 -4.2739787 -1.6595908
2.0331728 -4.2873826 -1.6599284
2.0044386 -4.2946596 -1.657903
1.4369785 -3.1290505 -1.1930439
1.4084476 -3.1172228 -1.1849419
1.3869997 -3.1206455 -1.1829164
1.3761224 -3.1480711 -1.1903433
1.8762194 -4.3645015 -1.6619539
1.851603 -4.3811336 -1.6639795
1.8239636 -4.3906741 -1.6633043
1.7984121 -4.4052687 -1.6646546
1.772049 -4.4179678 -1.6653298
1.7404208 -4.4173732 -1.6609412
1.71804 -4.440259 -1.6656674
1.6870849 -4.4410377 -1.6619539
1.6578298 -4.4460144 -1.6599284
1.6363418 -4.472014 -1.666005
1.6066446 -4.4757686 -1.6636419
1.5832161 -4.4970846 -1.6680305
1.5552855 -4.5058246 -1.667693
1.528816 -4.5188494 -1.6690433
1.5019488 -4.5308256 -1.6700561
1.4749923 -4.5426416 -1.6710688
1.4465208 -4.5498123 -1.6703937
1.4205347 -4.5648937 -1.6727568
1.3908529 -4.5681214 -1.6707313
1.3617224 -4.5729609 -1.6693809
1.3344271 -4.5839415 -1.6703937
1.3047297 -4.5866113 -1.6683681
1.2803432 -4.6081343 -1.673432
1.2525371 -4.6177201 -1.6741072
1.2249025 -4.6280489 -1.6751199
1.1971883 -4.6382117 -1.6761327
1.1673278 -4.6399932 -1.6741072
1.1421973 -4.6607819 -1.679171
1.1142333 -4.6704493 -1.6801838
0.69447523 -2.9928465 -1.0600343
0.67278218 -2.9823601 -1.0546329
0.65930909 -3.0084989 -1.062735
0.63456559 -2.9830263 -1.0519321
0.61663079 -2.9887075 -1.0526073
0.60197413 -3.0108948 -1.0593591
0.57597035 -2.975719 -1.0451804
0.56688702 -3.0282326 -1.0630726
0.54360145 -3.0057189 -1.0536201
0.52255714 -2.9941618 -1.0482187
0.50776958 -3.018661 -1.0559832
0.48577484 -3.0003488 -1.0482187
0.46590728 -2.9939723 -1.0448428
0.44404903 -2.973501 -1.0364031
0.42392749 -2.9631245 -1.0316769
0.40765387 -2.9796588 -1.0367407
0.3870455 -2.9643703 -1.0303265
0.36838412 -2.9629529 -1.0289762
0.35119161 -2.9735706 -1.0320145
0.33272994 -2.9737985 -1.0313393
0.31378344 -2.9692316 -1.0289762
0.29705155 -2.9860878 -1.0343776
0.28336415 -3.0375264 -1.0522697
0.26153055 -3.0026364 -1.0391037
0.24530719 -3.0313928 -1.0488938
0.22656173 -3.0309637 -1.0482187
0.20879869 -3.0445049 -1.0526073
0.19023156 -3.0476077 -1.0532825
0.17237623 -3.0637543 -1.0586839
0.15338521 -3.0609939 -1.0573336
0.13480774 -3.0665793 -1.0590215
0.1155607 -3.0560613 -1.0549704
0.09623839 -3.0388372 -1.0485562
0.077928692 -3.0525444 -1.0532825
0.058590844 -3.0219083 -1.042142
0.039871287 -3.0090339 -1.0374159
0.021366511 -3.0035744 -1.0353904
0.0029386182 -3.0055315 -1.0360655
-0.015441563 -2.9932563 -1.0316769
-0.033628982 -2.9771042 -1.0259379
-0.052074585 -2.9871945 -1.0296513
-0.071020186 -3.0131676 -1.0391037
-0.089395985 -3.0089116 -1.0377535
-0.10789024 -3.0092473 -1.0380911
-0.12654945 -3.0132308 -1.0397789
-0.14521648 -3.0161586 -1.0411294
-0.16402599 -3.0208502 -1.0431548
-0.18051818 -2.9859619 -1.0310017
-0.19752507 -2.9650743 -1.0239123
-0.21530549 -2.9581735 -1.0218868
-0.2326389 -2.9464746 -1.0181733
-0.25087318 -2.9468675 -1.0188485
-0.26903555 -2.9462101 -1.0191861
-0.28911495 -2.9651148 -1.026613
-0.3038123 -2.9295788 -1.0144598
-0.32280922 -2.9370162 -1.0178357
-0.34158349 -2.9415255 -1.0201988
-0.36248055 -2.9627326 -1.0286386
-0.38149211 -2.9669881 -1.0310017
-0.40119773 -2.975786 -1.0350528
-0.421157 -2.9853852 -1.0394413
-0.44056371 -2.990195 -1.042142
-0.45918846 -2.9892962 -1.0428172
-0.47767031 -2.9873519 -1.0431548
-0.49753335 -2.9936507 -1.0465307
-0.51381409 -2.9784825 -1.042142
-0.53506047 -2.9919527 -1.0482187
-0.55186731 -2.980283 -1.0451804
-0.57421321 -2.9981046 -1.0529449
-0.59880722 -3.0259209 -1.064423
-0.61792743 -3.0249565 -1.0654356
-0.63550693 -3.0165026 -1.0637478
-0.65300602 -3.007947 -1.0620598
-0.6671406 -2.9845917 -1.0549704
-0.68080246 -2.9602599 -1.0475435
-0.69678873 -2.9468663 -1.0441676
-0.71552348 -2.9452794 -1.0451804
-0.73972982 -2.9654937 -1.0542953
-0.75021291 -2.9308054 -1.0431548
-0.78299308 -2.9825966 -1.0640854
-0.78905559 -2.9322865 -1.0472059
-0.80503255 -2.92013 -1.0445052
-0.82523549 -2.9232886 -1.0475435
-0.85099179 -2.9453003 -1.0576712
-0.87171483 -2.9490504 -1.0610471
-1.2197493 -4.0357375 -1.4702039
-1.2525444 -4.0542593 -1.4799939
-1.2768307 -4.0447025 -1.4793187
-1.3024908 -4.0394793 -1.4803315
-0.98854494 -3.0022874 -1.0917675
-1.0249332 -3.0497026 -1.1120229
-1.0344698 -3.0166433 -1.1018952
-1.0383582 -2.9684775 -1.0860286
-1.056869 -2.9629369 -1.0863662
-1.0788881 -2.9670124 -1.0904171
-1.0924952 -2.9479792 -1.085691
-1.1155491 -2.9544301 -1.0907547
-1.1333183 -2.946651 -1.0904171
-1.1527499 -2.9431477 -1.0917675
-1.1467375 -2.8756864 -1.0684739
-1.1590521 -2.8555126 -1.0634102
-1.1743959 -2.8431268 -1.0613846
-1.1841627 -2.8176429 -1.0542953
-1.187003 -2.776567 -1.0411294
-1.2062687 -2.774411 -1.0431548
-1.2240304 -2.7686791 -1.04383
-1.2467822 -2.7739959 -1.0488938
-1.2649527 -2.7688622 -1.0499066
-1.2842959 -2.7661712 -1.0519321
-1.2928131 -2.7403603 -1.0448428
-1.9091148 -3.9836359 -1.5424478
-1.3259321 -2.7234428 -1.0445052
-1.3392811 -2.7085049 -1.0418046
-1.3584086 -2.7052839 -1.04383
-1.3886603 -2.7237346 -1.0546329
-1.4118352 -2.7277029 -1.0596967
-1.446491 -2.7531557 -1.0735378
-1.4589288 -2.7359221 -1.0701619
-1.4774802 -2.7302303 -1.0715122
-1.4987344 -2.7293646 -1.0748881
-1.5145372 -2.7184727 -1.0742129
-1.5247061 -2.697655 -1.0694867
-1.5365492 -2.6800823 -1.0661108
-1.546342 -2.6592107 -1.0613846
-1.558327 -2.6423748 -1.0583463
-1.5745109 -2.6327634 -1.0583463
-1.5989312 -2.6367366 -1.0640854
-1.6180372 -2.6316876 -1.0661108
-1.6336566 -2.6209111 -1.0657732
-1.6391507 -2.5941257 -1.0586839
-1.6596053 -2.5911536 -1.0617222
-1.6780353 -2.5848696 -1.0634102
-1.6912777 -2.5705926 -1.0617222
-1.7070189 -2.5601668 -1.0617222
-1.7232225 -2.5504246 -1.0620598
-1.7319276 -2.529705 -1.0576712
-1.7468805 -2.5182569 -1.0573336
-1.7590525 -2.5028698 -1.055308
-1.7798353 -2.4996979 -1.0586839
-1.7951397 -2.48873 -1.0586839
-1.8070451 -2.4731078 -1.0566584
-1.8182665 -2.4566767 -1.0542953
-1.8327417 -2.4447205 -1.0539577
-1.8442929 -2.4289305 -1.0519321
-1.856867 -2.4145834 -1.0505818
-1.8658648 -2.3957174 -1.0472059
-1.878781 -2.3820062 -1.0461931
-1.892774 -2.3696978 -1.0458555
-1.9066867 -2.3573072 -1.0455179
-1.9175369 -2.3411939 -1.0434924
-1.9336685 -2.331558 -1.0445052
-1.9443069 -2.3153238 -1.0424796
-1.9566479 -2.3011985 -1.041467
-1.9645905 -2.2820151 -1.0380911
-1.9810294 -2.2727563 -1.0394413
-1.9949374 -2.2605581 -1.0394413
-2.005635 -2.2447648 -1.0377535
-2.021265 -2.2345107 -1.0387663
-2.0527353 -2.2415059 -1.0482187
-2.0683699 -2.2309394 -1.0492314
-2.0691378 -2.2044778 -1.0424796
-2.0767906 -2.1855981 -1.0394413
-2.0914669 -2.174171 -1.0401165
-2.1027982 -2.1592739 -1.0391037
-2.1080787 -2.1382859 -1.0350528
-2.1298022 -2.1339729 -1.0394413
-2.1421871 -2.1202023 -1.0391037
-2.1551561 -2.1070182 -1.0391037
-2.1666899 -2.0924468 -1.0384287
-2.1828933 -2.0823619 -1.0401165
-2.197684 -2.0708656 -1.0411294
-2.2124162 -2.0592661 -1.042142
-2.2506454 -2.0692277 -1.0546329
-2.2674801 -2.0591764 -1.0566584
-2.2835755 -2.0483677 -1.0583463
-2.3010323 -2.0386877 -1.0607095
-2.3163311 -2.0270104 -1.0620598
-2.3087871 -1.995522 -1.0526073
-2.3245671 -1.9843743 -1.0542953
-2.3388579 -1.9718941 -1.055308
-2.3509133 -1.9575061 -1.055308
-2.3781462 -1.9556015 -1.0623974
-2.3988683 -1.9480945 -1.0664485
-2.4159162 -1.9374615 -1.0688115
-2.4351373 -1.9284461 -1.0721874
-2.4491484 -1.9152079 -1.0732002
-2.4608538 -1.9001441 -1.0732002
-2.468724 -1.8821548 -1.0715122
-2.4772184 -1.8647069 -1.0701619
-2.4878581 -1.8489102 -1.0698243
-2.4953616 -1.8308256 -1.0681363
-2.502737 -1.8127186 -1.0664485
-2.5023279 -1.7891145 -1.0613846
-2.5078757 -1.7699268 -1.0590215
-2.5349069 -1.7658062 -1.0661108
-2.5581033 -1.7587532 -1.0715122
-2.5766351 -1.74831 -1.0748881
-2.5943527 -1.7371815 -1.0779264
-2.6096747 -1.7243443 -1.079952
-2.618629 -1.7072707 -1.0792768
-2.6322217 -1.6932085 -1.0806271
-2.6481245 -1.6805569 -1.0829903
-2.659184 -1.6647762 -1.0833279
-2.6789587 -1.6543646 -1.0873789
-2.6922746 -1.6398548 -1.0887293
-2.7030928 -1.6237892 -1.0890669
-2.7259619 -1.6148505 -1.0944682
-2.7723918 -1.6194637 -1.1096597
-2.798589 -1.6118199 -1.1164114
-2.8428028 -1.6141423 -1.1305902
-2.8674374 -1.604946 -1.1366668
-2.9324481 -1.6177927 -1.1592852
-2.9704344 -1.6150599 -1.1707631
-3.0226007 -1.6194801 -1.1879802
-3.0632782 -1.6171666 -1.2004709
-3.1174009 -1.6213651 -1.2183632
-3.1976571 -1.6382678 -1.2467206
-3.255547 -1.6427931 -1.2659631
-3.2975962 -1.6387081 -1.2787914
-3.3676164 -1.6478239 -1.3027601
-3.8237014 -1.8420596 -1.4803315
-4.159812 -1.9726626 -1.6092902
-3.9893107 -1.8618917 -1.5370463
-3.7526062 -1.7234278 -1.4391458
-3.722796 -1.6821488 -1.4232792
-3.7631514 -1.6726588 -1.4350947
-3.8225031 -1.6710331 -1.4543372
-3.9096467 -1.6806396 -1.4843826
-3.9771078 -1.6808085 -1.5066634
-4.0873089 -1.6979102 -1.5454861
-4.0976501 -1.6727989 -1.5454861
-4.2546034 -1.7065072 -1.6022009
-4.2623668 -1.6793339 -1.6011881
-4.3489633 -1.6827067 -1.6305583
-4.361846 -1.6569933 -1.6315711
-4.4618893 -1.6637508 -1.666005
-4.537426 -1.660283 -1.6909865
-4.5997972 -1.6511784 -1.7109042
-4.6595616 -1.6404322 -1.7298092
-4.7113576 -1.6262493 -1.7456758
-4.7551293 -1.6087763 -1.7585042
-4.8274527 -1.6003075 -1.7821354
-4.9132781 -1.5953723 -1.8108304
-5.052146 -1.6062746 -1.8594431
-5.120326 -1.5934297 -1.8813863
-5.1984415 -1.5828246 -1.907043
-5.2432384 -1.5613776 -1.9202089
-5.2762179 -1.5360188 -1.9289862
-5.2991238 -1.50748 -1.93405
-5.3182497 -1.4777095 -1.9377635
-5.335393 -1.447268 -1.9408017
-5.3459926 -1.4149853 -1.9414769
-5.3536625 -1.3819209 -1.9411393
-5.3620415 -1.3490454 -1.9411393
-5.3638182 -1.3145503 -1.9387763
-5.3717833 -1.2816138 -1.9387763
-5.3694601 -1.2462872 -1.9350628
-5.3797607 -1.2139392 -1.9360756
-5.3797522 -1.1792938 -1.9333749
-5.3822837 -1.1452821 -1.9316869
-5.3965845 -1.1137581 -1.9343876
-5.3959327 -1.079147 -1.9316869
-5.4172387 -1.0488818 -1.9370884
-5.439301 -1.018569 -1.9428273
-5.4232183 -0.98115146 -1.9347252
-5.4662271 -0.95433503 -1.9482287
-5.4701233 -0.9204644 -1.9475535
-5.49611 -0.89019549 -1.9549805
-0 -0 -0
-0 -0 -0
-0 -0 -0
-0 -0 -0
-0 -0 -0
-0 -0 -0
-0 -0 -0
-0 -0 -0
-0 -0 -0
-0 -0 -0
-0 -0 -0
-0 -0 -0
-0 -0 -0
-0 -0 -0
-0 -0 -0
-0 -0 -0
-0 -0 -0
-0 -0 -0
-0 -0 -0
-0 -0 -0
-0 -0 -0
-0 0 -0
-0 0 -0
-0 0 -0
-0 0 -0
-0 0 -0
-0 0 -0
-0 0 -0
-0 0 -0
-0 0 -0
-0 0 -0
-0 0 -0
-0 0 -0
-0 0 -0
-0 0 -0
-0 0 -0
-0 0 -0
-0 0 -0
-0 0 -0
-0 0 -0
-0 0 -0
-0 0 -0
-0 0 -0
-5.2198429 1.1001838 -1.9376241
-5.2010846 1.1296022 -1.9331012
-5.1858215 1.159651 -1.9299699
-5.1722131 1.189976 -1.9275346
-5.1611652 1.2208257 -1.9261428
-5.1490226 1.251363 -1.9244033
-5.1394281 1.2824789 -1.9237075
-5.1287374 1.3132914 -1.9226637
-5.1142359 1.3430676 -1.9202282
-5.1122355 1.37613 -1.9226637
-5.1018877 1.4069734 -1.9219679
-5.0976696 1.4395263 -1.9237075
-5.0977468 1.4733831 -1.9271866
-5.0940046 1.5062307 -1.9292741
-5.0828719 1.5369154 -1.9285783
-5.0769286 1.5691826 -1.9299699
-5.0627351 1.5988919 -1.9282304
-5.0447993 1.627334 -1.9250991
-5.0338287 1.6579642 -1.9247512
-5.0217838 1.6882221 -1.9240553
-4.9953694 1.7135245 -1.9177928
-4.9883008 1.7453824 -1.9191844
-4.9704337 1.7734352 -1.9164011
-4.9709115 1.8080684 -1.9209241
-4.9623609 1.8395135 -1.9219679
-4.9606271 1.8735733 -1.925795
-4.9472876 1.9033022 -1.9250991
-4.9346433 1.9332801 -1.9247512
-4.9253001 1.9645648 -1.925795
-4.9131532 1.9947488 -1.925795
-4.8956227 2.0227087 -1.9237075
-4.8839836 2.0530732 -1.9240553
-4.8712945 2.0830021 -1.9240553
-4.8618603 2.1143489 -1.925447
-4.8402219 2.1403475 -1.9219679
-4.8184476 2.1661601 -1.9184886
-4.7973919 2.1921763 -1.9153574
-4.7744985 2.2172256 -1.9115303
-4.8031931 2.2664931 -1.9289262
-4.7773614 2.2902458 -1.9240553
-4.7497334 2.3129458 -1.9184886
-4.734612 2.3416302 -1.9181408
-4.705914 2.3634808 -1.9122262
-4.6863127 2.3897548 -1.9101386
-4.6782207 2.4219141 -1.912922
-4.6574636 2.4475195 -1.9104866
-4.6481481 2.4791408 -1.912922
-4.6386199 2.5107398 -1.9153574
-4.6280565 2.5418634 -1.9174449
-4.6148295 2.5715826 -1.9184886
-4.5956993 2.5980039 -1.917097
-4.5804853 2.6266203 -1.9174449
-4.5618515 2.6532617 -1.9164011
-4.5479074 2.6826322 -1.9174449
-4.5297527 2.7095242 -1.9167491
-4.5234613 2.7435899 -1.921272
-4.5073404 2.771785 -1.9216199
-4.491044 2.7998855 -1.9219679
-4.4674401 2.8233812 -1.9191844
-4.4524002 2.8522573 -1.9202282
-4.4285254 2.8754373 -1.9174449
-4.4154973 2.9056492 -1.9195324
-4.388227 2.9264436 -1.9153574
-4.379508 2.9596155 -1.9195324
-4.3481174 2.9774241 -1.9136178
-4.3197541 2.9970977 -1.9090949
-4.2989821 3.021929 -1.9080511
-4.2803593 3.0482502 -1.9080511
-4.2570138 3.0711644 -1.9059637
-4.2403598 3.0988872 -1.9070073
-4.2265396 3.1287529 -1.9094428
-4.2080121 3.1551902 -1.9097908
-4.1967845 3.1871898 -1.9136178
-4.1830935 3.2174547 -1.9164011
-4.1588359 3.2396033 -1.9143137
-4.145503 3.2702878 -1.9174449
-4.1246266 3.2950773 -1.917097
-4.1050596 3.3209133 -1.9174449
-4.0824299 3.3442562 -1.9164011
-4.0589476 3.3668478 -1.9150095
-4.0410833 3.3941021 -1.9164011
-4.015183 3.4145811 -1.9139657
-3.9920251 3.4373178 -1.912922
-3.9673264 3.4586666 -1.9111824
-3.9460297 3.4829447 -1.9111824
-3.8959281 3.4814723 -1.8969178
-3.8960407 3.5248148 -1.9077032
-3.8750305 3.5492876 -1.9080511
-3.8641768 3.5831993 -1.9136178
-3.8414345 3.6062002 -1.9132699
-3.8246703 3.634871 -1.9160533
-3.7908125 3.6472175 -1.9101386
-3.7811198 3.6828403 -1.9167491
-3.7517769 3.6993876 -1.9132699
-3.7197199 3.7130637 -1.9083991
-3.6929111 3.7318184 -1.9063115
-3.667978 3.7523956 -1.9052678
-3.6429315 3.7728076 -1.904224
-3.6216543 3.7971249 -1.9052678
-3.5976446 3.8185928 -1.9049199
-3.5741463 3.8405957 -1.9049199
-3.5517824 3.8638346 -1.9056157
-3.5261171 3.8834727 -1.904572
-3.5022223 3.9050353 -1.904572
-3.4794385 3.9278548 -1.9052678
-3.4565065 3.9505417 -1.9059637
-3.4309757 3.9702573 -1.9052678
-3.4077671 3.992661 -1.9059637
-3.3759551 4.0048919 -1.9017886
-3.3549161 4.0298548 -1.9038761
-3.3307216 4.0510888 -1.904224
-3.3016663 4.0663538 -1.9017886
-3.2836893 4.0953145 -1.9059637
-3.2567537 4.1131806 -1.9049199
-3.2262588 4.1264377 -1.9017886
-3.2048879 4.1513515 -1.904224
-3.1810598 4.1731753 -1.9052678
-3.1632843 4.2031045 -1.9101386
-3.1329629 4.2164135 -1.9073553
-3.1009345 4.227241 -1.9035282
-3.0798857 4.2530236 -1.9066595
-3.0477362 4.2634506 -1.9028324
-3.0171959 4.2759414 -1.900049
-2.9898312 4.2928352 -1.8993531
-2.9692748 4.3195996 -1.9031802
-2.9463973 4.3431692 -1.9056157
-2.9170856 4.3572702 -1.9038761
-2.8933947 4.3797812 -1.9059637
-2.8659546 4.396667 -1.9056157
-2.8394301 4.414958 -1.9059637
-2.8092744 4.427547 -1.9038761
-2.7835462 4.4470854 -1.9049199
-2.7591612 4.4688683 -1.9070073
-2.7302265 4.4833112 -1.9059637
-2.7050786 4.5039983 -1.9077032
-2.6730933 4.5132508 -1.904572
-2.6462955 4.5311871 -1.9052678
-2.6147017 4.5408387 -1.9024844
-2.585865 4.5551658 -1.9017886
-2.5551207 4.5660372 -1.8997011
-2.5243402 4.5767031 -1.8976136
-2.4988959 4.5970488 -1.8997011
-2.4719694 4.6147747 -1.9007449
-2.4471066 4.6364894 -1.9035282
-2.4177468 4.6497531 -1.9028324
-2.3904526 4.6670046 -1.9038761
-2.3605051 4.6790729 -1.9028324
-2.3309166 4.6917892 -1.9021366
-2.3020844 4.7060027 -1.9021366
-2.2735722 4.7208843 -1.9024844
-2.2457669 4.7372875 -1.9035282
-2.2202229 4.7586255 -1.9066595
-2.189028 4.7678986 -1.9049199
-2.1608887 4.7838035 -1.9059637
-2.1337781 4.8021135 -1.9080511
-2.1020215 4.8099608 -1.9059637
-2.0743182 4.8270755 -1.9077032
-2.0413787 4.8319387 -1.904572
-2.0102546 4.84091 -1.9031802
-1.9773272 4.8453407 -1.900049
-1.945816 4.8530307 -1.8983095
-1.9146283 4.8613892 -1.8969178
-1.8803693 4.8616772 -1.8923949
-1.8528316 4.8792591 -1.8948302
-1.822531 4.8896575 -1.8944824
-1.795391 4.9086733 -1.8976136
-1.765238 4.9195971 -1.8976136
-1.7325306 4.9232607 -1.8948302
-1.7050397 4.9417753 -1.8979615
-1.6740851 4.9503679 -1.8972657
-1.6442682 4.9623265 -1.8979615
-1.6129212 4.9696469 -1.8969178
-1.5812627 4.9758759 -1.8955261
-1.5504233 4.9845896 -1.8951782
-1.521173 4.9984937 -1.8969178
-1.4907415 5.0086317 -1.8972657
-1.4589341 5.0140834 -1.895874
-1.4283971 5.0238428 -1.896222
-1.3980457 5.0343194 -1.8969178
-1.3659039 5.0382786 -1.8951782
-1.3347243 5.0456581 -1.8948302
-1.2988257 5.034688 -1.887524
-1.2724774 5.0607481 -1.8944824
-1.2420697 5.0711927 -1.8955261
-1.2133198 5.0887504 -1.8993531
-1.1820729 5.0960994 -1.8993531
-1.1497514 5.0986838 -1.8976136
-1.1216515 5.120296 -1.9031802
-1.0902128 5.1270819 -1.9031802
-1.0581657 5.1309199 -1.9021366
-1.0261124 5.1345582 -1.9010928
-0.99352074 5.1352348 -1.8990053
-0.96095949 5.1357045 -1.8969178
-0.92876303 5.137814 -1.8955261
-0.89609414 5.1369505 -1.8930907
-0.86471277 5.1432767 -1.8934386
-0.83224058 5.1429329 -1.8913511
-0.80052465 5.147016 -1.8910031
-0.76961899 5.1564674 -1.8927428
-0.73783255 5.1601648 -1.8923949
-0.7071709 5.1720262 -1.8951782
-0.67481714 5.1716194 -1.8934386
-0.64226419 5.1691499 -1.8910031
-0.60932833 5.1627517 -1.887176
-0.5809657 5.196209 -1.8983095
-0.54799074 5.1894197 -1.8944824
-0.5168789 5.2001481 -1.8972657
-0.48496169 5.2032218 -1.8972657
-0.45367473 5.2135715 -1.900049
-0.42137498 5.2125192 -1.8986573
-0.38924444 5.2131367 -1.8979615
-0.35673898 5.2079439 -1.8951782
-0.32483506 5.2109704 -1.8955261
-0.29233122 5.203505 -1.8920469
-0.26025772 5.2023916 -1.8910031
-0.22833154 5.2038908 -1.8910031
-0.19646704 5.2070675 -1.891699
-0.16454278 5.2091122 -1.8920469
-0.13262445 5.2118979 -1.8927428
-0.10069602 5.215426 -1.8937865
-0.068668596 5.2140703 -1.8930907
-0.036648821 5.2106438 -1.891699
-0.0046730535 5.2060828 -1.8899595
0.027245365 5.2013259 -1.8882198
0.059159588 5.2010608 -1.8882198
0.091038339 5.1987252 -1.887524
0.12293541 5.1980686 -1.887524
0.15494034 5.2009649 -1.8889157
0.18718868 5.2092857 -1.8923949
0.21922798 5.2099123 -1.8930907
0.25128201 5.2103419 -1.8937865
0.28319621 5.2077661 -1.8934386
0.31497458 5.2031226 -1.8923949
0.34689441 5.2010922 -1.8923949
0.37934786 5.206346 -1.8951782
0.41136032 5.204855 -1.8955261
0.4422515 5.1900892 -1.8910031
0.47588521 5.2068839 -1.8983095
0.5080989 5.206665 -1.8993531
0.54042476 5.2071795 -1.9007449
0.57061923 5.1879234 -1.8948302
0.60179049 5.1787372 -1.8927428
0.6328705 5.169364 -1.8906553
0.66373831 5.1588745 -1.8882198
0.69575667 5.1574922 -1.8892636
0.72778308 5.1559105 -1.8903073
0.75940549 5.1513481 -1.8903073
0.79142714 5.1493711 -1.8913511
0.82389802 5.1499724 -1.8934386
0.85532814 5.1438956 -1.8930907
0.88655508 5.136703 -1.8923949
0.91805661 5.1311665 -1.8923949
0.95020753 5.1291237 -1.8937865
0.98042488 5.1167517 -1.8913511
1.0119845 5.1115594 -1.891699
1.0437052 5.1070905 -1.8923949
1.0752157 5.1015077 -1.8927428
1.1062986 5.0938983 -1.8923949
1.1375333 5.0870142 -1.8923949
1.1683043 5.0781116 -1.891699
1.198145 5.0653734 -1.8896115
1.2296462 5.0597482 -1.8903073
1.2599876 5.0493793 -1.8892636
1.2867565 5.0252061 -1.8830011
1.3211414 5.030817 -1.8882198
1.3558872 5.0370998 -1.8937865
1.385771 5.0250707 -1.8923949
1.4183631 5.0227885 -1.8948302
1.448374 5.0112891 -1.8937865
1.4798936 5.0050044 -1.8948302
1.5119336 5.0003166 -1.8965698
1.5425864 4.9909453 -1.8965698
1.5712036 4.9751287 -1.8941344
1.6022768 4.9671788 -1.8948302
1.6344856 4.9625964 -1.8969178
1.6631111 4.9471426 -1.8948302
1.6940436 4.9386182 -1.8955261
1.7240047 4.9272456 -1.8951782
1.7535748 4.9148088 -1.8944824
1.7836984 4.9039564 -1.8944824
1.813755 4.8929195 -1.8944824
1.8450691 4.8852067 -1.895874
1.8736621 4.8702936 -1.8944824
1.9055635 4.8639426 -1.8965698
1.933287 4.8469343 -1.8944824
1.9629909 4.8349805 -1.8944824
1.9908298 4.8185129 -1.8927428
2.0196311 4.8044782 -1.8920469
2.0461226 4.7851 -1.8892636
2.0743227 4.7698765 -1.8882198
2.1027923 4.7553439 -1.887524
2.1327002 4.7440619 -1.8882198
2.1602097 4.7274761 -1.8868282
2.1891763 4.7141323 -1.8868282
2.2220631 4.7090888 -1.8903073
2.254565 4.7029738 -1.8934386
2.2866645 4.6957941 -1.896222
2.3195925 4.6900778 -1.8997011
2.3571665 4.6933484 -1.9070073
2.385494 4.6779613 -1.9066595
2.4158773 4.6665664 -1.9080511
2.4514463 4.6649318 -1.9136178
2.4725199 4.6357412 -1.9077032
2.4919887 4.6039948 -1.9007449
2.5161278 4.581223 -1.8976136
2.5400815 4.5583282 -1.8944824
2.5620029 4.5320482 -1.8899595
2.591629 4.5194955 -1.8913511
2.6216691 4.5075603 -1.8930907
2.6488011 4.4905815 -1.8927428
2.6686018 4.4613729 -1.887176
2.6973851 4.447319 -1.8882198
2.7275703 4.4354758 -1.8903073
2.7532458 4.4162698 -1.8892636
2.7812939 4.400878 -1.8899595
2.8107743 4.3876758 -1.891699
2.8396866 4.3734913 -1.8930907
2.8669839 4.3567681 -1.8934386
2.8936625 4.3390946 -1.8934386
2.9160314 4.3150444 -1.8906553
2.9435129 4.2986178 -1.8913511
2.971437 4.2827864 -1.8923949
2.9998171 4.2675405 -1.8937865
3.0313859 4.2566891 -1.8972657
3.0612881 4.2433305 -1.8997011
3.0811803 4.2161417 -1.895874
3.1036441 4.192636 -1.8937865
3.1349373 4.1810131 -1.8972657
3.1582637 4.1587129 -1.895874
3.1842933 4.1399989 -1.896222
3.2125175 4.1240802 -1.8979615
3.2389235 4.1057625 -1.8986573
3.2570312 4.0770235 -1.8944824
3.281986 4.056962 -1.8944824
3.3157313 4.0476246 -1.8997011
3.3387084 4.0250387 -1.8986573
3.3615334 4.0023236 -1.8976136
3.3860278 3.9816225 -1.8976136
3.4048879 3.9543784 -1.8944824
3.4290874 3.9334121 -1.8944824
3.4550195 3.9144058 -1.8955261
3.4814723 3.8959281 -1.8969178
3.5078282 3.8772733 -1.8983095
3.532186 3.8563678 -1.8986573
3.5596075 3.8387461 -1.9007449
3.5843782 3.8181992 -1.9014407
3.6064467 3.7947752 -1.9007449
3.6296632 3.7725749 -1.9007449
3.6507802 3.7482183 -1.8997011
3.6737101 3.7257471 -1.8997011
3.6978266 3.7044623 -1.9003969
3.7304852 3.6915925 -1.9056157
3.7503839 3.6660125 -1.904224
3.7748313 3.6448848 -1.9052678
3.7923748 3.6171257 -1.9028324
3.8117676 3.591217 -1.9014407
3.8275533 3.5620141 -1.8983095
3.827246 3.5181632 -1.887176
3.8570917 3.5021744 -1.8913511
3.8743196 3.4746869 -1.8892636
3.9145186 3.4676299 -1.8986573
3.9272532 3.4361393 -1.8944824
3.955358 3.4181058 -1.8979615
3.9776831 3.3949888 -1.8986573
3.9962885 3.368706 -1.8976136
4.0176039 3.3447216 -1.8979615
4.0394998 3.3211975 -1.8986573
4.061986 3.2981215 -1.8997011
4.084341 3.2748945 -1.9007449
4.1087694 3.2532628 -1.9028324
4.1323476 3.2308769 -1.904572
4.1439295 3.1991603 -1.9007449
4.1597524 3.1708324 -1.8990053
4.1843743 3.1491942 -1.9014407
4.1930814 3.1156342 -1.8965698
4.2325335 3.1048152 -1.9059637
4.2499857 3.077687 -1.9052678
4.2687902 3.0515516 -1.9052678
4.2874336 3.0253012 -1.9052678
4.30053 2.9951878 -1.9028324
4.3172817 2.9676819 -1.9021366
4.3346338 2.9406095 -1.9017886
4.3564911 2.9165642 -1.9035282
4.3758698 2.8908117 -1.904224
4.3950958 2.8649311 -1.9049199
4.4196897 2.8424718 -1.9080511
4.4378395 2.8158019 -1.9083991
4.4558282 2.789016 -1.908747
4.4576983 2.7522683 -1.9021366
4.4753032 2.725352 -1.9024844
4.5048022 2.7055612 -1.9080511
4.5261588 2.6807349 -1.9101386
4.5546675 2.6600018 -1.9153574
4.5692782 2.6310694 -1.9146615
4.5837054 2.6020582 -1.9139657
4.5979486 2.5729687 -1.9132699
4.6202178 2.5483286 -1.9160533
4.6374145 2.5208268 -1.9167491
4.651968 2.4918821 -1.9164011
4.6621952 2.4606667 -1.9143137
4.6730461 2.429852 -1.9125741
4.6920404 2.4032691 -1.9143137
4.6974897 2.369791 -1.9104866
4.7060642 2.3380046 -1.9080511
4.7203212 2.3090849 -1.9080511
4.7462273 2.2857704 -1.912922
4.7610102 2.2570066 -1.9132699
4.7730699 2.2269588 -1.9125741
4.7934613 2.2007577 -1.9153574
4.8120017 2.1736186 -1.9174449
4.820107 2.1417687 -1.9153574
4.8280029 2.1099014 -1.9132699
4.8365512 2.0783877 -1.9115303
4.8595772 2.0530481 -1.9157053
4.8668876 2.0210357 -1.9136178
4.8844051 1.9932591 -1.9157053
4.8956738 1.9629027 -1.9153574
4.9207115 1.937977 -1.9205762
4.9333844 1.9080855 -1.9209241
4.9572706 1.8824357 -1.925795
4.973999 1.8539466 -1.9278824
4.9905643 1.8253229 -1.9299699
5.0016704 1.7946669 -1.9299699
5.0072818 1.7620773 -1.9278824
5.0188856 1.7316257 -1.9282304
5.0089879 1.6938945 -1.9202282
5.0175071 1.6625386 -1.9195324
5.0213714 1.629696 -1.917097
5.033957 1.5997061 -1.9181408
5.0409923 1.5679533 -1.917097
5.0621786 1.5405387 -1.9216199
5.0742316 1.5102504 -1.9226637
5.0852036 1.4796107 -1.9233595
5.0950885 1.4486368 -1.9237075
5.1120114 1.4196025 -1.9268386
5.1224356 1.3886993 -1.9275346
5.139924 1.3596381 -1.9310137
5.1545248 1.3297124 -1.9334491
5.1644053 1.2985166 -1.934145
5.172276 1.266804 -1.934145
5.1881595 1.2369988 -1.9372762
5.1947384 1.2049299 -1.9369283
5.2002048 1.1726209 -1.9362324
5.2082181 1.1408914 -1.9365804
5.2187886 1.1096921 -1.9379721
5.2199898 1.0765144 -1.9358846
5.2448845 1.0481353 -1.9428428
5.2337275 1.0125538 -1.9362324
5.2435284 0.98111016 -1.9376241
5.2642112 0.95158309 -1.9431908
5.2717981 0.91958642 -1.9438866
5.2653217 0.8852039 -1.9393637
5.2715797 0.85302937 -1.9397117
5.2674503 0.81922871 -1.9362324
5.272378 0.78689283 -1.9362324
5.268754 0.75333482 -1.9331012
5.2816377 0.7221334 -1.9362324
5.2813206 0.68910682 -1.9344928
5.2947536 0.65784216 -1.9379721
5.2996211 0.62545151 -1.9383199
5.3089495 0.59354562 -1.9404075
5.3068976 0.56036985 -1.9383199
5.3093028 0.5277043 -1.9379721
5.3133745 0.49520388 -1.9383199
5.3135109 0.46234912 -1.9372762
5.3218546 0.43018934 -1.9393637
5.3253293 0.39759654 -1.9397117
5.332345 0.36523277 -1.9414512
5.3316789 0.33233288 -1.9404075
5.3233209 0.29903588 -1.9365804
5.32131 0.26618043 -1.9351887
5.3340826 0.23401512 -1.9393637
5.3232388 0.20082457 -1.9348408
5.3140631 0.1678347 -1.9310137
5.3149929 0.13522506 -1.9310137
5.3372817 0.10302182 -1.9390157
5.3359385 0.070246652 -1.9383199
5.3503318 0.037600424 -1.9435388
0 0 -0
0 -0 -0
0 -0 -0
0 -0 -0
0 -0 -0
5.3705807 -0.1600309 -1.9518888
0 -0 -0
5.3654022 -0.22580527 -1.950845
0 -0 -0
5.3425689 -0.29055661 -1.9435388
5.3350706 -0.3229914 -1.9414512
0 -0 -0
5.3400555 -0.38911995 -1.9449304
5.3310251 -0.42136008 -1.942495
5.3274055 -0.45398292 -1.942147
0 -0 -0
5.3158345 -0.5187766 -1.9400595
5.3153491 -0.55167514 -1.9411033
5.3090682 -0.58397102 -1.9400595
0 -0 -0
5.3359327 -0.6533004 -1.9529325
5.316946 -0.68411136 -1.9473659
5.2922087 -0.71396065 -1.9397117
5.2895851 -0.74668205 -1.9404075
5.284904 -0.77912432 -1.9404075
5.324501 -0.81838316 -1.9571075
5.3295622 -0.85266966 -1.9609346
0 -0 -0
5.2992969 -0.91465461 -1.9536283
5.2889709 -0.94632667 -1.9518888
5.277534 -0.97773546 -1.9498012
5.2649903 -1.008863 -1.9473659
5.2531829 -1.0400556 -1.9452783
5.2347617 -1.069826 -1.9407554
5.2198429 -1.1001838 -1.9376241
5.1983361 -1.1290047 -1.9320575
5.1364179 -1.1485921 -1.9111824
5.0497894 -1.1617819 -1.8809136
4.9577217 -1.1726564 -1.8485572
4.8875771 -1.1877639 -1.8245509
4.8137975 -1.2011467 -1.799153
