# .PCD v0.7 - Point Cloud Data file format
VERSION 0.7
FIELDS x y z
SIZE 4 4 4
TYPE F F F
COUNT 1 1 1
WIDTH 1512
HEIGHT 1
VIEWPOINT 0 0 0 1 0 0 0
POINTS 1512
DATA ascii
-10.60948 -7.4731154 -1.5828509
-10.658394 -7.4101415 -1.5833467
-10.69957 -7.3417969 -1.5827271
-10.764137 -7.2893591 -1.5857018
-10.821862 -7.2319946 -1.587685
-10.909941 -7.1944051 -1.5942541
-11.096944 -7.220397 -1.6155732
-5.7038507 -3.6623545 -0.80854869
-5.7237 -3.6256948 -0.80817688
-7.0662966 -4.4153295 -1.0026511
-6.9386568 -4.2766323 -0.97996861
-6.9774871 -4.2417068 -0.9818278
-7.0118933 -4.2039151 -0.98306727
-6.9299221 -4.0971961 -0.96744984
-7.0758138 -4.1250467 -0.98492652
-7.076901 -4.0677104 -0.98145598
-7.1310821 -4.0408392 -0.98567021
-7.065639 -3.9466956 -0.97277963
-7.0697279 -3.8922629 -0.9699288
-7.1772127 -3.8942285 -0.9818278
-7.1773438 -3.8374877 -0.97848123
-7.4334207 -3.9159026 -1.0113274
-7.2371073 -3.7559762 -0.98034042
-7.1796103 -3.670408 -0.9690612
-7.3916745 -3.7217562 -0.99558604
-7.2952366 -3.617281 -0.97897702
-7.2923255 -3.5602641 -0.97550648
-7.2675242 -3.4931059 -0.9690612
-7.2699833 -3.4395385 -0.96645826
-7.3071442 -3.4024031 -0.96868932
-7.3477311 -3.3665936 -0.97141618
-7.3592029 -3.3173687 -0.9701767
-5.7945952 -2.5696883 -0.75363982
-5.8111629 -2.5344815 -0.75376374
-7.5622072 -3.2427247 -0.98963654
-7.4978356 -3.1608124 -0.97823334
-7.5024209 -3.1086717 -0.97625017
-7.7410131 -3.1519842 -1.0058737
-7.3124294 -2.9253681 -0.94563502
-7.806818 -3.067636 -1.0095922
-7.5977454 -2.9318299 -0.97910094
-7.6731262 -2.9069436 -0.98678571
-7.7382545 -2.8774385 -0.99310708
-7.6644068 -2.7965837 -0.98096019
-7.6216273 -2.7281096 -0.97302753
-7.6213694 -2.6753793 -0.97079647
-7.5400562 -2.5949957 -0.95790589
-7.7250881 -2.6057453 -0.9802165
-7.6391726 -2.5246818 -0.96683013
-7.7328806 -2.503114 -0.97711778
-7.8549876 -2.48948 -0.99112391
-7.9847965 -2.4767911 -1.0061216
-7.8593073 -2.385123 -0.98777729
-7.9166036 -2.3495531 -0.99335498
-7.8546286 -2.2788253 -0.98343915
-7.9419761 -2.2514157 -0.9929831
-7.8571367 -2.1753848 -0.9802165
-7.8741684 -2.1281686 -0.98071229
-8.0185337 -2.1144578 -0.99769312
-8.0688381 -2.0748498 -1.0025271
-8.1333952 -2.0383198 -1.0092202
-8.1611729 -1.9921387 -1.0112034
-8.2137918 -1.951654 -1.0164093
-8.2681532 -1.9110447 -1.021863
-8.2865 -1.861798 -1.0227306
-8.3801756 -1.8288909 -1.0332662
-8.5941324 -1.8203847 -1.0591713
-9.2525053 -1.9005066 -1.1417205
-9.3136272 -1.8535703 -1.1480418
-9.8899746 -1.90519 -1.2199316
-10.22633 -1.9049455 -1.2612063
-10.61871 -1.9106531 -1.309546
-11.068235 -1.9214528 -1.3650746
-11.822655 -1.9776908 -1.459151
-12.507615 -2.0133903 -1.5443032
-12.658004 -1.9579824 -1.5617799
-13.806417 -2.0488565 -1.7053114
-14.093807 -2.0031779 -1.7400168
-14.801002 -2.0110619 -1.827648
-15.566856 -2.0178609 -1.922592
-15.611444 -1.9263141 -1.9266824
-15.663378 -1.8352193 -1.9317642
-15.684206 -1.7401695 -1.9330037
-15.679785 -1.6423508 -1.9311445
-15.672779 -1.5444574 -1.9290373
-15.698758 -1.4498121 -1.9311445
-15.708347 -1.3535441 -1.9312685
-15.718335 -1.2572922 -1.9315163
-15.722785 -1.1606036 -1.9311445
-15.72763 -1.0639749 -1.9308965
-15.733862 -0.96745187 -1.9308965
-15.718696 -0.86974275 -1.9282937
-15.73563 -0.7738623 -1.9297811
-15.733143 -0.6769976 -1.9289134
-15.728076 -0.58011961 -1.9277979
-15.702577 -0.48272097 -1.9242034
-15.719131 -0.38670331 -1.9259386
-15.718231 -0.29019052 -1.9255668
-15.715747 -0.19369119 -1.925071
-15.717631 -0.097263597 -1.925195
-15.717933 -0.00082019332 -1.925195
-15.717642 0.09562324 -1.925195
-15.707829 0.19195329 -1.9240794
-15.698419 0.28818482 -1.9230878
-15.696355 0.38450307 -1.9230878
-15.685765 0.48056319 -1.9220963
-15.677564 0.57661748 -1.9214765
-15.654894 0.67199236 -1.9191215
-15.677236 0.76935154 -1.9224681
-15.604847 0.86180496 -1.9140396
-15.590352 0.95699048 -1.9129242
-15.571316 1.0517628 -1.9113128
-14.30132 -0.36160463 -1.9187779
-14.269589 -0.27320078 -1.9141695
-14.272979 -0.18566492 -1.9144406
-14.240164 -0.097851664 -1.9098321
-14.270219 -0.010496514 -1.9138985
-14.281904 0.077127978 -1.915525
-14.275218 0.16469023 -1.9147117
-14.263041 0.25208592 -1.9132208
-14.26915 0.33978602 -1.9143051
-14.255903 0.4270075 -1.9128141
-14.243114 0.51411492 -1.9114586
-14.204055 0.59999502 -1.9065791
-14.173387 0.68584597 -1.9029195
-14.179793 0.77339256 -1.9044105
-14.178737 0.8606236 -1.9049526
-14.14551 0.94575661 -1.9011574
-14.149322 1.0332553 -1.9025129
-14.140739 1.1198981 -1.9022417
-14.123731 1.2058004 -1.9008863
-14.119025 1.2927103 -1.9012929
-14.127591 1.3809568 -1.9035972
-14.130677 1.4688449 -1.9052237
-14.098748 1.553027 -1.9021062
-14.056477 1.6357279 -1.8976333
-14.033391 1.7203791 -1.8958713
-14.004884 1.8041759 -1.8934315
-14.014169 1.8928586 -1.8962779
-13.966973 1.9738222 -1.8913983
-13.956559 2.0597742 -1.8916694
-13.939741 2.1447687 -1.8911272
-13.882295 2.2232118 -1.8850279
-13.893803 2.3125789 -1.888552
-13.880328 2.3979547 -1.8886875
-13.867304 2.483427 -1.8889586
-13.856675 2.5693715 -1.8896363
-13.848433 2.6558387 -1.8907206
-13.886302 2.7515438 -1.898311
-13.832272 2.8291535 -1.8931605
-13.794293 2.9096797 -1.890314
-13.736485 2.9856386 -1.8847568
-13.695669 3.0648921 -1.8816392
-13.677571 3.1490917 -1.8817748
-13.663776 3.2343254 -1.882588
-13.639823 3.3171675 -1.8820459
-13.632669 3.4041576 -1.8839436
-13.616324 3.4889715 -1.8846213
-13.58412 3.5696845 -1.8831302
-13.55335 3.6506488 -1.8819103
-13.533561 3.7345326 -1.8823169
-13.518019 3.8196576 -1.8834014
-13.486713 3.9003289 -1.8823169
-13.444476 3.9776683 -1.8797417
-13.444473 4.0675459 -1.8832659
-13.3814 4.1382556 -1.8778441
-13.370872 4.2250605 -1.8800128
-13.324895 4.300633 -1.8771664
-13.298256 4.3823118 -1.8771664
-13.254212 4.4581409 -1.8747267
-13.227546 4.5397048 -1.8748622
-13.21908 4.627656 -1.8777086
-13.151245 4.6946907 -1.8720157
-13.148261 4.7847829 -1.875811
-13.126086 4.8681254 -1.8768953
-13.08392 4.9440212 -1.8751333
-13.029297 5.014957 -1.8716091
-12.979832 5.0875783 -1.8688983
-12.973216 5.1770391 -1.8725579
-12.919175 5.2475963 -1.8693049
-12.919697 5.3403921 -1.8741845
-12.841021 5.4003625 -1.8674073
-12.782137 5.4681411 -1.8636121
-12.702918 5.5267057 -1.856835
-12.727663 5.6305981 -1.8656453
-12.72179 5.721591 -1.8699826
-12.656708 5.7859502 -1.8655097
-12.615576 5.8609967 -1.8646965
-12.617006 5.9560571 -1.8703892
-12.605238 6.0453572 -1.8741845
-12.593738 6.1351705 -1.8781152
-12.569176 6.2189188 -1.8801483
-12.54052 6.3008175 -1.8816392
-12.513978 6.3839488 -1.8835369
-12.48161 6.4642577 -1.8846213
-12.462759 6.5517859 -1.8878742
-12.446799 6.6411915 -1.8916694
-12.424983 6.7278166 -1.8946514
-12.391283 6.8082218 -1.8958713
-12.362256 6.8913612 -1.8979044
-12.328363 6.9719615 -1.8992598
-12.269882 7.0386024 -1.8968201
-12.208479 7.1032934 -1.8939737
-12.180024 7.1871324 -1.8964134
-12.174805 7.2851329 -1.9026484
-12.144275 7.3684354 -1.9049526
-12.105585 7.4469652 -1.906037
-12.098336 7.5452204 -1.912272
-12.076097 7.6346655 -1.9162027
-12.017346 7.7011356 -1.9143051
-11.986485 7.7855206 -1.9170159
-11.96166 7.8741746 -1.9208111
-11.926308 7.9562187 -1.9229798
-11.88219 8.0325766 -1.9237931
-11.871097 8.1316481 -1.9301635
-11.853537 8.2269306 -1.9355853
-11.833632 8.3211622 -1.9407359
-11.790421 8.3993645 -1.9420913
-11.737055 8.4703913 -1.9418203
-11.700058 8.5533581 -1.9443955
-11.652929 8.6291142 -1.9453443
-11.610859 8.7087755 -1.9472419
-11.531169 8.7600775 -1.9427691
-11.526672 8.8687277 -1.9513083
-11.489232 8.9526844 -1.9542902
-11.461306 9.0444927 -1.9590341
-11.438102 9.140625 -1.9647269
-11.361006 9.1938086 -1.9610673
-11.348062 9.2991381 -1.9687932
-11.297652 9.3742876 -1.9700131
-11.246747 9.4491682 -1.971233
-11.190821 9.5199251 -1.9716396
-11.15697 9.6097479 -1.9761125
-11.088088 9.6695595 -1.9743505
-11.047116 9.7538061 -1.977739
-11.00405 9.8365927 -1.9808565
-10.935406 9.896615 -1.9793656
-10.872284 9.9615192 -1.978959
-10.837108 10.052298 -1.9838384
-10.786057 10.128778 -1.9858716
-10.727296 10.198182 -1.9865493
-10.632394 10.232895 -1.9804499
-10.606308 10.333894 -1.987498
-10.551166 10.407127 -1.9891247
-10.499029 10.483573 -1.9914289
-10.420569 10.53371 -1.988718
-10.383438 10.625794 -1.9941397
-10.335936 10.70784 -1.9976637
-10.289183 10.791136 -2.0014589
-10.234324 10.866326 -2.0037632
-10.17623 10.938349 -2.0055254
-10.12166 11.014443 -2.0081005
-10.072533 11.096882 -2.0118957
-10.006238 11.16069 -2.0123024
-9.9316568 11.215201 -2.0110824
-9.8724394 11.287116 -2.0131156
-9.8062353 11.351229 -2.0137935
-9.7447615 11.420982 -2.0155554
-9.6847153 11.492682 -2.017724
-9.6304951 11.57169 -2.0212481
-9.5668602 11.639749 -2.0228748
-9.5052509 11.710538 -2.0250435
-9.4487095 11.787968 -2.0284319
-9.3835812 11.855044 -2.0300584
-9.3088331 11.910055 -2.0296519
-9.2398157 11.97244 -2.0306005
-9.1661806 12.028909 -2.0306005
-9.0927963 12.085716 -2.0307362
-9.0302839 12.157188 -2.033447
-8.9695816 12.231544 -2.0367
-8.9100485 12.308018 -2.0403597
-8.8464575 12.379385 -2.0432062
-8.780612 12.448006 -2.045646
-8.7057657 12.504087 -2.0460525
-8.6288786 12.557269 -2.0460525
-8.5499973 12.607519 -2.045646
-8.477438 12.667153 -2.0468657
-8.3930025 12.709011 -2.0452392
-8.3365002 12.793473 -2.0506611
-8.256237 12.841884 -2.0502543
-8.1868372 12.907361 -2.0526941
-8.1048574 12.953153 -2.0520165
-8.0221033 12.997581 -2.0512033
-7.9365335 13.03725 -2.0497122
-7.8410888 13.060219 -2.045646
-7.7562623 13.100412 -2.044426
-7.6952157 13.181127 -2.0497122
-7.5988703 13.201476 -2.0455103
-7.5138125 13.24096 -2.044426
-7.4232354 13.270386 -2.0418508
-7.3359294 13.305273 -2.0402241
-7.2437444 13.330883 -2.0372422
-7.1594725 13.370711 -2.0365646
-7.07406 13.408256 -2.0356157
-6.9784036 13.425915 -2.0316851
-6.8936348 13.464071 -2.0310073
-6.8394437 13.562734 -2.0396819
-6.7415524 13.575162 -2.0352092
-6.6568241 13.613602 -2.0348024
-6.5538273 13.614018 -2.028703
-6.4964762 13.709486 -2.0371068
-6.38585 13.692521 -2.0285676
-6.3037806 13.735949 -2.0292451
-6.2063317 13.745474 -2.0249078
-6.1138306 13.765187 -2.022197
-6.022511 13.787007 -2.0198927
-5.9362383 13.82006 -2.0193505
-5.856339 13.868089 -2.0211127
-5.7749343 13.912912 -2.0224681
-5.6969423 13.966433 -2.0251789
-5.5963945 13.964339 -2.0197573
-5.5113316 14.000258 -2.0200284
-5.4299688 14.045826 -2.0217903
-5.340167 14.069616 -2.0204349
-5.2610011 14.121614 -2.0232813
-5.1718717 14.147116 -2.0223327
-5.0829625 14.172988 -2.0215192
-4.9922867 14.193629 -2.0200284
-4.9054251 14.224931 -2.0201638
-4.8215404 14.265086 -2.0216548
-4.7348552 14.297224 -2.0220616
-4.6442881 14.317526 -2.0208416
-4.5524507 14.333477 -2.0190794
-4.4638286 14.359248 -2.0188084
-4.3762145 14.388264 -2.0190794
-4.2889771 14.418643 -2.0196216
-4.1987653 14.43898 -2.0188084
-4.1098194 14.463518 -2.0186729
-4.0175509 14.476052 -2.0169108
-3.9281337 14.498519 -2.0166397
-3.8233972 14.462961 -2.0082362
-3.748682 14.540834 -2.0159621
-3.645385 14.507831 -2.0081005
-3.5534713 14.518376 -2.006474
-3.3887625 14.222821 -1.9618806
-3.2640641 14.082162 -1.9392449
-3.1457946 13.960811 -1.9194556
-3.0424871 13.899519 -1.9082056
-2.9449937 13.860747 -1.9002086
-2.8392913 13.778607 -1.8862478
-2.748291 13.763707 -1.8817748
-2.6367052 13.640234 -1.8622566
-2.5573308 13.679529 -1.8655097
-2.473875 13.697888 -1.8659164
-2.381103 13.663031 -1.8590037
-2.2955821 13.667613 -1.8576483
-2.2085133 13.66188 -1.8549374
-2.1273823 13.692796 -1.8573772
-2.0411332 13.690892 -1.8553441
-1.9542867 13.683543 -1.8526331
-1.8654621 13.659937 -1.8477536
-1.7785376 13.647547 -1.8445005
-1.6981813 13.685734 -1.8482958
-1.6132473 13.688024 -1.8472115
-1.5269197 13.676988 -1.844365
-1.4415158 13.672304 -1.8424674
-1.3572055 13.676949 -1.8419253
-1.2735353 13.687978 -1.8423319
-1.1892661 13.692574 -1.8419253
-1.1066623 13.717389 -1.844365
-1.0286589 13.806916 -1.8557507
-0.94202977 13.785291 -1.8519554
-0.86640751 13.935184 -1.8717446
-0.78105283 13.943207 -1.8721513
-0.69948322 14.027889 -1.8831302
-0.61460888 14.059632 -1.8869255
-0.52017707 13.846313 -1.8572416
-0.43925714 13.977981 -1.8748622
-0.35235339 13.935843 -1.8687627
-0.26450187 13.8159 -1.852091
-0.18133847 13.941098 -1.8690338
-0.09738683 14.172792 -1.9006152
-0.01036639 14.099807 -1.8905851
0.076143265 14.098614 -1.8904495
0.16171436 14.016644 -1.879335
0.24661455 13.952978 -1.8707958
0.33351949 14.005679 -1.8782507
0.42268071 14.111315 -1.8930249
0.50693691 14.044098 -1.8842146
0.58106589 13.755634 -1.8451784
0.66569728 13.756759 -1.8458561
0.75020248 13.754394 -1.8461272
0.83470374 13.751509 -1.8463982
0.9200567 13.760957 -1.8484313
1.0050521 13.762958 -1.8495157
1.0890901 13.751594 -1.848838
1.1739533 13.750575 -1.8496512
1.2596577 13.757913 -1.8516843
1.3457855 13.767674 -1.8541241
1.4311587 13.768026 -1.8553441
1.5159361 13.76194 -1.8557507
1.6034406 13.778952 -1.8594103
1.6874744 13.764919 -1.8588681
1.772029 13.755289 -1.8590037
1.8610373 13.778522 -1.8637476
1.948595 13.788426 -1.8667296
2.0363443 13.797774 -1.8697115
2.1200638 13.779144 -1.8688983
2.2072341 13.782507 -1.8712025
2.295176 13.789228 -1.8740489
2.3822715 13.789531 -1.8760821
2.4705048 13.795135 -1.8789284
2.5558259 13.783612 -1.8794706
2.6435244 13.784212 -1.8817748
2.7315187 13.785227 -1.8842146
2.820816 13.791503 -1.8874676
2.9064083 13.778783 -1.8881453
2.9938443 13.774244 -1.8900429
3.0834973 13.77882 -1.893296
3.1755416 13.792468 -1.8979044
3.2660439 13.797791 -1.9014285
3.3553262 13.796745 -1.9041394
3.4427981 13.787433 -1.9057659
3.5347085 13.794842 -1.9098321
3.6270907 13.8026 -1.914034
3.7176397 13.802088 -1.9171515
3.8098998 13.806715 -1.9210821
3.9018178 13.808821 -1.9247419
3.9952807 13.815077 -1.9290792
4.0881238 13.817854 -1.93301
4.181438 13.820959 -1.9370762
4.2737732 13.819653 -1.9406004
4.3659511 13.816788 -1.9439889
4.4609928 13.821796 -1.9485973
4.5556402 13.824276 -1.9529347
4.6504855 13.826114 -1.9572721
4.7480969 13.834804 -1.9626938
4.8463173 13.84375 -1.968251
4.9414945 13.84268 -1.9724529
5.0385351 13.845616 -1.9773324
5.135108 13.846025 -1.9819409
5.2315254 13.84484 -1.9864137
5.327765 13.842069 -1.9907511
5.4277825 13.84786 -1.9964439
5.536149 13.873189 -2.0051186
5.6327267 13.867415 -2.0093205
5.7362537 13.87746 -2.0159621
5.8397312 13.885839 -2.0224681
5.942358 13.890738 -2.0285676
6.0452642 13.894898 -2.034667
6.1488452 13.899223 -2.0409019
6.250268 13.897377 -2.0463235
6.3531346 13.897511 -2.0521519
6.4508109 13.885224 -2.0562181
6.5667615 13.910788 -2.0661128
6.6639881 13.895247 -2.0699081
6.7486887 13.853205 -2.0697725
6.8397141 13.823967 -2.0716701
6.9284105 13.789707 -2.07289
7.0128922 13.746936 -2.07289
7.0930095 13.695728 -2.0716701
7.146946 13.594945 -2.0628598
7.2181025 13.528109 -2.0593357
7.3108797 13.501861 -2.0621822
7.4045606 13.47672 -2.0652995
7.458652 13.379974 -2.0573025
7.513299 13.285661 -2.0497122
7.5744648 13.204074 -2.0441549
7.6478672 13.144504 -2.0421219
7.7339149 13.106715 -2.0436127
7.795877 13.028407 -2.0387332
7.8772125 12.982868 -2.0391397
7.9551682 12.931759 -2.0387332
8.0044832 12.834784 -2.0310073
8.0820265 12.783752 -2.0307362
8.1581755 12.730585 -2.030194
8.2253418 12.66367 -2.0274832
8.283824 12.583997 -2.0227392
8.3465872 12.511501 -2.0192151
8.4159861 12.449381 -2.017453
8.4854965 12.387698 -2.0158265
8.5534382 12.324004 -2.0139289
8.6209173 12.259942 -2.0120313
8.6902323 12.198745 -2.0106759
8.7568016 12.133945 -2.0087783
8.825242 12.071987 -2.0074229
8.877923 11.988945 -2.0025432
8.9245682 11.898578 -1.9964439
8.9938126 11.83886 -1.9956306
9.0650768 11.781881 -1.9953595
9.1298904 11.716659 -1.993733
9.1776752 11.630085 -1.988447
9.2334003 11.554203 -1.9850583
9.2916574 11.481926 -1.9823475
9.3625622 11.425464 -1.982483
9.419838 11.352551 -1.9797722
9.4721117 11.274056 -1.9761125
9.5334063 11.206669 -1.974486
9.5929375 11.137452 -1.9725884
9.6487226 11.064193 -1.9700131
9.6980686 10.983985 -1.9662179
9.7560387 10.91393 -1.9643203
9.8028774 10.831824 -1.9602541
9.8551006 10.75613 -1.9574076
9.9020481 10.675118 -1.9536124
9.9456606 10.591047 -1.949275
10.007046 10.526232 -1.9485973
10.062513 10.455351 -1.9468353
10.115415 10.382057 -1.9446666
10.1671 10.307803 -1.9423624
10.223156 10.238214 -1.941007
10.280853 10.170416 -1.9400581
10.34023 10.104372 -1.9395159
10.39348 10.032478 -1.9378895
10.434049 9.9486876 -1.9339588
10.457393 9.8491545 -1.9269105
10.495143 9.7638826 -1.9227087
10.53224 9.6785192 -1.9185069
10.576756 9.6003933 -1.915796
10.616284 9.5181189 -1.912272
10.667069 9.4462309 -1.9109164
10.710661 9.368207 -1.9083412
10.737952 9.2764025 -1.9029195
10.776581 9.1949062 -1.8996664
10.816887 9.115202 -1.8968201
10.859667 9.0378838 -1.8945159
10.907264 8.9647894 -1.8931605
10.955912 8.8926992 -1.892076
11.001766 8.818491 -1.8905851
11.047123 8.7440557 -1.8890941
11.079492 8.6596327 -1.8854345
11.118299 8.5805912 -1.8829947
11.158919 8.5032015 -1.8809615
11.187132 8.4167013 -1.8768953
11.225045 8.3378553 -1.8745911
11.265607 8.2612066 -1.872829
11.294416 8.176239 -1.8691694
11.320189 8.0895023 -1.8651031
11.340467 7.99933 -1.8602235
11.360065 7.909215 -1.8553441
11.414098 7.8432899 -1.8562928
11.452168 7.7664332 -1.8546664
11.494666 7.6927114 -1.853853
11.551573 7.6285887 -1.8554796
11.593183 7.5543208 -1.8546664
11.606815 7.4621468 -1.8493801
11.664097 7.3982182 -1.8512777
11.699193 7.3202028 -1.8496512
11.717752 7.2321477 -1.8454494
11.717901 7.1333218 -1.8384012
11.752955 7.0561881 -1.8370458
11.778127 6.9733396 -1.8341993
11.809569 6.8944454 -1.8324373
11.84564 6.8183932 -1.8314885
11.894148 6.7494936 -1.8325728
11.921503 6.6686459 -1.8304042
11.963932 6.5963283 -1.8306752
11.992865 6.516645 -1.8289132
12.021269 6.4368553 -1.8271512
12.021982 6.3426294 -1.8211873
12.029026 6.2522941 -1.8163078
12.114785 6.2027516 -1.823627
12.149077 6.1265154 -1.8230848
12.22016 6.0686016 -1.8282355
12.286538 6.0078692 -1.8327084
12.30978 5.9259205 -1.8306752
12.366502 5.8600364 -1.8337927
12.411204 5.7882347 -1.8351481
12.423075 5.7012267 -1.831624
12.474076 5.6322322 -1.8340638
12.506589 5.5547824 -1.8337927
12.566767 5.4894409 -1.8377235
12.590199 5.407928 -1.8362325
12.623145 5.330574 -1.8362325
12.673001 5.2602367 -1.8388078
12.695865 5.1786351 -1.8374524
12.741197 5.1061664 -1.8394855
12.771365 5.0275288 -1.83935
12.80567 4.9504995 -1.8398921
12.871929 4.8855448 -1.8451784
12.864528 4.7926354 -1.8397566
12.901136 4.716332 -1.8408409
12.93636 4.6394248 -1.8417897
12.965519 4.5602899 -1.8419253
12.968904 4.4722505 -1.8384012
13.012057 4.3979845 -1.8407054
13.0783 4.3311443 -1.8463982
13.076356 4.2416439 -1.8423319
13.116301 4.1658282 -1.844365
13.145399 4.0864463 -1.8449072
13.171173 4.0059991 -1.8450428
13.186959 3.9225643 -1.8438228
13.176531 3.8316164 -1.8389434
13.229337 3.7590904 -1.8431451
13.240697 3.6746662 -1.8415186
13.25917 3.5923171 -1.8409765
13.29533 3.5146916 -1.8430096
13.322402 3.434531 -1.8438228
13.355717 3.3558607 -1.845585
13.376057 3.2738483 -1.845585
13.39011 3.1903348 -1.8447716
13.421981 3.1110232 -1.8465338
13.448549 3.0303514 -1.8476181
13.46205 2.9467163 -1.8469404
13.505075 2.8694136 -1.8504645
13.516605 2.7852941 -1.8496512
13.541214 2.7038577 -1.8507355
13.563386 2.6218479 -1.8515488
13.547079 2.5325658 -1.8470759
13.614038 2.458729 -1.8542596
13.627892 2.3749785 -1.8541241
13.626575 2.2886884 -1.8519554
13.652099 2.2069318 -1.8535819
13.683985 2.1260133 -1.8561573
6.8832731 1.0260049 -0.91372919
6.5245757 0.93163002 -0.86330736
6.2641406 0.85524052 -0.82657528
6.2437263 0.81345874 -0.82305115
6.2279525 0.77256995 -0.82020479
6.1932173 0.72970158 -0.81478304
6.1640997 0.68794841 -0.81017464
6.1849551 0.65187979 -0.81247884
6.1681342 0.61186218 -0.80963242
0 0 -0
6.156424 0.53449416 -0.80705714
6.1269984 0.49407887 -0.80258423
0 0 -0
0 0 -0
0 0 -0
0 0 -0
0 0 -0
0 0 -0
0 0 -0
0 0 -0
0 0 -0
0 0 -0
0 0 -0
0 0 -0
0 0 -0
0 -0 -0
6.1979923 -0.071731277 -0.80963242
0 -0 -0
0 -0 -0
0 -0 -0
0 -0 -0
6.2196021 -0.26294795 -0.81329209
6.2277679 -0.30158433 -0.8146475
6.2129393 -0.33909044 -0.81288546
6.2305207 -0.37840593 -0.81559634
6.2824531 -0.42026222 -0.82305115
6.3271866 -0.46226501 -0.82955724
6.3913937 -0.50639635 -0.83877414
6.4059353 -0.54712015 -0.84121388
12.38746 -1.1342207 -1.6634157
12.361531 -1.2083766 -1.6608403
12.30067 -1.2786727 -1.6535209
12.229564 -1.3471831 -1.6448463
10.592326 -1.2327098 -1.4205232
10.584562 -1.2976799 -1.4205232
10.57935 -1.3629808 -1.4209298
10.573732 -1.4282666 -1.4213364
10.570656 -1.4939506 -1.4221497
10.571092 -1.5602291 -1.4235051
11.927377 -1.8352046 -1.6125871
11.904152 -1.9064754 -1.6109606
11.902003 -1.9811084 -1.612316
11.883765 -2.0530887 -1.6115028
11.841686 -2.1207285 -1.6074365
11.805071 -2.1890132 -1.6041834
11.778768 -2.2589812 -1.6024214
11.75691 -2.3296714 -1.6013371
11.755983 -2.4045458 -1.6032346
11.741009 -2.4766338 -1.6032346
11.738177 -2.5513639 -1.6049967
11.744539 -2.6283159 -1.6081142
11.707915 -2.6956618 -1.6052678
8.2896833 -1.9623964 -1.1270733
11.638333 -2.8304713 -1.6002527
11.623631 -2.9025495 -1.6006594
11.603683 -2.9733243 -1.6003883
7.5289679 -1.9786738 -1.0266362
7.5310354 -2.0286984 -1.0286694
11.52311 -3.1798184 -1.5969998
11.509103 -3.2520792 -1.597813
11.511775 -3.3292418 -1.601066
11.504431 -3.403749 -1.6029636
7.9792557 -2.4142466 -1.1021335
7.9472537 -2.4578924 -1.0996938
7.935802 -2.5078037 -1.1002359
7.9570374 -2.5683167 -1.105522
11.350381 -3.7404702 -1.5965931
11.381682 -3.8283627 -1.6044545
11.478868 -3.9396129 -1.6219395
11.452608 -4.0093169 -1.6216685
7.7280121 -2.7588971 -1.0842419
7.6979036 -2.8015203 -1.0823443
11.310914 -4.194984 -1.6120449
11.29423 -4.2678094 -1.6134003
11.251186 -4.3306231 -1.6109606
11.157986 -4.3735471 -1.6012015
11.124498 -4.4393587 -1.6002527
11.079608 -4.5004501 -1.5976775
11.060942 -4.5721331 -1.5990329
11.029026 -4.6383796 -1.5984907
10.99216 -4.7024579 -1.5972708
10.962191 -4.7694206 -1.5971353
10.909162 -4.8261728 -1.5936111
10.853139 -4.8812346 -1.5896804
10.814875 -4.9440293 -1.5884606
10.77445 -5.0057034 -1.5869696
10.737262 -5.0687594 -1.5860207
10.691665 -5.1276922 -1.5838521
10.63506 -5.1810493 -1.5800569
10.595078 -5.2422533 -1.578837
10.538809 -5.2951555 -1.5751773
10.48229 -5.3475652 -1.5715177
10.442243 -5.4081378 -1.5704334
10.402723 -5.4688811 -1.5694846
10.345369 -5.5200162 -1.5658249
10.319145 -5.5876355 -1.5670447
10.261221 -5.6379666 -1.5633851
10.19701 -5.6844211 -1.5587767
10.157627 -5.7444429 -1.5580989
10.097265 -5.7923646 -1.5541682
10.029848 -5.8357768 -1.5491532
9.9673986 -5.8816009 -1.5449513
9.9319725 -5.9431577 -1.5450869
9.8580484 -5.9813747 -1.5391231
9.8380394 -6.0521321 -1.5418339
9.7914715 -6.1066165 -1.5403429
9.7605171 -6.1708159 -1.5414273
9.7558384 -6.2519712 -1.5468489
9.6965208 -6.298223 -1.5434604
9.6750717 -6.3690405 -1.5463067
9.5599823 -6.3777032 -1.5338368
9.50179 -6.42348 -1.5307194
9.4483013 -6.4721432 -1.5284151
9.4230623 -6.540163 -1.5308549
9.3997755 -6.6098261 -1.5337013
9.3533926 -6.6633534 -1.5327525
9.2994766 -6.7113433 -1.5305839
9.2261276 -6.7448893 -1.5251621
9.1535139 -6.7783785 -1.5198759
9.1141281 -6.8361993 -1.5202826
9.0625429 -6.8848023 -1.518656
9.0436859 -6.9584036 -1.5227224
8.975811 -6.994277 -1.5183849
8.9583931 -7.0694733 -1.5228579
8.9117508 -7.1218343 -1.5223157
8.8609524 -7.1707721 -1.5210959
8.806057 -7.2162156 -1.5191982
8.7509394 -7.2612557 -1.5173006
8.6993923 -7.3090782 -1.5160807
8.6574001 -7.3648868 -1.5166229
8.6233072 -7.4275675 -1.518656
8.5417271 -7.4490833 -1.51215
8.4802628 -7.4875836 -1.5093036
8.4356375 -7.5407972 -1.5095747
8.3877401 -7.5910859 -1.5093036
8.3322372 -7.6343775 -1.5076771
8.2467375 -7.6496501 -1.5004933
8.2285357 -7.7272353 -1.505915
8.1967649 -7.7925973 -1.5088969
8.1459408 -7.8399968 -1.5083548
8.1047783 -7.8967457 -1.5097102
8.0060892 -7.8969297 -1.5000867
7.9441624 -7.9326048 -1.4975114
7.8876743 -7.9734521 -1.4960204
7.8413715 -8.0245342 -1.4965626
7.0247421 -7.2776885 -1.3454325
7.7552986 -8.1337795 -1.4991379
7.7086411 -8.1848183 -1.4998156
7.1406465 -7.6755986 -1.3958545
7.095427 -7.721457 -1.3962611
7.1498013 -7.87709 -1.4169991
7.1072865 -7.9274511 -1.418219
6.8023319 -7.6816397 -1.3653573
2.168056 -2.479203 -0.4122214
2.1540985 -2.4939587 -0.41249248
2.1387553 -2.507129 -0.41249248
6.6915746 -7.9409661 -1.3823001
6.5482864 -7.8684087 -1.3621043
6.491076 -7.8977246 -1.3602067
6.4231372 -7.913558 -1.3560048
6.3794169 -7.9590049 -1.3570892
6.3341513 -8.0026598 -1.3579025
2.0138774 -2.577136 -0.4091039
1.9901569 -2.5792482 -0.40734187
1.9700897 -2.5858946 -0.40639305
1.9482291 -2.5900171 -0.40503764
1.9057139 -2.5661321 -0.39893821
1.8582931 -2.5346334 -0.39161891
1.8450298 -2.5491982 -0.39216107
1.8466356 -2.5846536 -0.39622736
6.3779411 -9.0420017 -1.475418
6.333663 -9.0972281 -1.4781288
6.276041 -9.1334696 -1.4777222
6.2093148 -9.1562271 -1.4751469
6.1381373 -9.1719227 -1.4714872
6.0839281 -9.2127199 -1.4720293
5.9737334 -9.1676998 -1.4586107
1.8097498 -2.8154917 -0.4195407
1.7945631 -2.8298898 -0.42008287
1.7771654 -2.8408477 -0.42008287
5.8218842 -9.4329481 -1.4781288
5.7520452 -9.449028 -1.4750113
5.6801887 -9.4612103 -1.4713516
5.6134477 -9.4813919 -1.4690474
5.5551653 -9.5156565 -1.4690474
5.4942021 -9.54527 -1.4683697
5.4389529 -9.5848341 -1.4693185
5.3761697 -9.6111088 -1.4682342
5.3156605 -9.6413126 -1.4678276
5.2549834 -9.6711359 -1.4674209
5.1969466 -9.7058182 -1.4678276
5.1428432 -9.7480383 -1.4694541
5.0833902 -9.7802896 -1.4695896
5.0246387 -9.8139429 -1.4699962
4.9759264 -9.867589 -1.4735204
4.9161677 -9.8997097 -1.4737915
4.8527203 -9.9243479 -1.4729782
4.7874365 -9.9450102 -1.4716227
4.7216578 -9.9643497 -1.4701318
4.6566596 -9.9850521 -1.4689119
4.6027436 -10.029645 -1.4713516
4.5753665 -10.133549 -1.4827373
4.5332117 -10.206705 -1.4895144
4.5418925 -10.397754 -1.5139121
4.4846559 -10.440902 -1.5162163
4.422049 -10.471873 -1.5167584
4.358851 -10.501554 -1.5171651
4.2868481 -10.509755 -1.5144542
4.2141714 -10.515629 -1.5114723
4.146666 -10.533913 -1.510388
4.0790949 -10.551765 -1.5093036
4.0079451 -10.559922 -1.5068638
3.9423831 -10.582458 -1.5065928
3.8760154 -10.602728 -1.5060506
3.8252685 -10.666412 -1.511879
3.7613924 -10.694356 -1.5125567
3.6850424 -10.686326 -1.5080837
3.6105194 -10.682455 -1.5042886
3.539921 -10.689359 -1.5021199
3.4739602 -10.709936 -1.5019844
3.4051805 -10.721607 -1.5006288
3.3305054 -10.713916 -1.4965626
3.2629735 -10.728462 -1.4957494
3.1942585 -10.738786 -1.4943939
3.1255395 -10.74867 -1.4930385
3.0581739 -10.762879 -1.4923608
2.9915466 -10.779532 -1.4920897
2.9222388 -10.78621 -1.4904631
2.8575203 -10.809685 -1.4912765
2.7908924 -10.826055 -1.4911408
2.7229636 -10.837211 -1.4903276
2.6545317 -10.846015 -1.4892433
2.5860946 -10.854389 -1.4881589
2.514746 -10.849784 -1.4853126
2.4494326 -10.870809 -1.4861258
2.3839557 -10.89144 -1.4869391
2.3183179 -10.911678 -1.4877523
2.2485216 -10.912112 -1.4858547
2.1836581 -10.936391 -1.4873457
0.50308853 -2.6042886 -0.3245253
0.48709947 -2.6073265 -0.3245253
0.47338152 -2.6229413 -0.32628736
0.4569383 -2.6238444 -0.32601625
0.44148663 -2.630507 -0.32655844
0.43182153 -2.6732671 -0.33211568
0.41358495 -2.6641183 -0.33048916
0.40336767 -2.7077632 -0.33618197
0.38548458 -2.7013597 -0.33496207
0.36367264 -2.6653898 -0.32967591
0.35153732 -2.6999922 -0.33414882
0.33789262 -2.7256958 -0.33740184
1.3089883 -11.107102 -1.4916831
1.2387227 -11.096217 -1.4891077
1.1712377 -11.109521 -1.489921
1.1020702 -11.106639 -1.4885656
1.0322478 -11.095434 -1.4861258
0.6790843 -7.8205953 -1.0355821
0.62566555 -7.7574611 -1.0263652
0.58107412 -7.8016634 -1.0319223
0.26038754 -3.8146515 -0.48473671
0.69055063 -11.108033 -1.4842283
0.211006 -3.7720554 -0.47850174
0.38770875 -7.7789397 -1.0271784
0.48852563 -11.177261 -1.4922253
0.13346153 -3.5604546 -0.44908899
0.10859113 -3.4651492 -0.43594134
0.086249277 -3.4231608 -0.43011302
0.064958632 -3.4087667 -0.42807987
0.044041611 -3.4091012 -0.42807987
0.023020394 -3.3944459 -0.42604673
0.008170926 -11.224588 -1.4972403
-0.061063953 -11.291799 -1.5064572
-0.13042779 -11.298146 -1.507406
-0.19994174 -11.30803 -1.5088969
-0.26960546 -11.318477 -1.5105236
-0.33913815 -11.31958 -1.5109302
-0.40912306 -11.332138 -1.5129633
-0.47923306 -11.343273 -1.5148609
-0.54987794 -11.36189 -1.5178428
-0.61958283 -11.358302 -1.5178428
-0.69040442 -11.373077 -1.5204182
-0.76096809 -11.380489 -1.5220447
-0.83042252 -11.370666 -1.521367
-0.90064514 -11.371282 -1.5221802
-0.97166479 -11.380349 -1.5242133
-1.0418363 -11.378119 -1.5247555
-1.1130769 -11.386304 -1.5267886
-1.1839451 -11.389114 -1.528144
-1.2549981 -11.392468 -1.5296351
-1.3276252 -11.408173 -1.5328881
-1.3950683 -11.37916 -1.5300417
-1.4648632 -11.370386 -1.5300417
-0.39500019 -2.9221003 -0.36505255
-0.41375411 -2.9255078 -0.3658658
-0.43516797 -2.9464378 -0.36911884
-1.7574747 -11.422083 -1.5426471
-1.8275262 -11.411084 -1.5426471
-1.8857985 -11.329288 -1.5328881
-0.5247159 -3.0354311 -0.38307971
-0.53931469 -3.0097234 -0.37996224
-2.0773983 -11.203033 -1.5204182
-2.1304269 -11.10834 -1.5090325
-2.195658 -11.080481 -1.5069994
-2.2640023 -11.068741 -1.5072705
-2.3269691 -11.031374 -1.5040175
-0.61290801 -2.818403 -0.35624227
-0.62759376 -2.8029869 -0.35461575
-0.64678121 -2.8077729 -0.35583565
-2.6013274 -10.989264 -1.5065928
-0.89796585 -3.6911008 -0.48134813
-0.91963714 -3.6816766 -0.48080596
-2.8287365 -11.039336 -1.5206892
-0.75375438 -2.8671043 -0.36722124
-0.7617991 -2.8270283 -0.36220616
-0.77623236 -2.8117948 -0.36071518
-3.1198149 -11.040959 -1.5312616
-0.8104037 -2.8011057 -0.36057964
-0.83122951 -2.8084314 -0.3623417
-0.96434629 -3.1864028 -0.41710094
-1.0023193 -3.2400584 -0.42564011
-0.99412227 -3.1450422 -0.41289911
-3.5420408 -10.974277 -1.5392586
-3.6049702 -10.939162 -1.5373609
-1.0752157 -3.1957028 -0.42292926
-3.7321856 -10.874421 -1.5345145
-1.1195884 -3.1972299 -0.42509794
-1.1485111 -3.2164271 -0.42889315
-1.1665311 -3.2046642 -0.42821541
-3.9824309 -10.73775 -1.5284151
-1.1654978 -3.0835233 -0.41262802
-1.1908016 -3.0929577 -0.41506779
-4.0857658 -10.423712 -1.4933096
-1.2180189 -3.0514255 -0.41113704
-1.2314996 -3.0310431 -0.40923944
-1.2625635 -3.0536461 -0.41371235
-4.3188381 -10.269158 -1.4857192
-4.3852744 -10.250663 -1.4869391
-4.4512506 -10.230831 -1.4880234
-4.5195532 -10.216011 -1.489921
-4.5906858 -10.207063 -1.4927675
-4.6552887 -10.183208 -1.4934452
-4.7239451 -10.167931 -1.4954783
-1.3377118 -2.8330138 -0.39026347
-1.3443594 -2.8024185 -0.38687491
-1.3728105 -2.8172755 -0.39039901
-1.3971006 -2.8230076 -0.39256769
-5.0162749 -9.9837122 -1.4901921
-5.0891447 -9.9756918 -1.4937162
-5.158915 -9.9609938 -1.4962915
-5.2227039 -9.9344139 -1.4971048
-5.2844944 -9.9039288 -1.4973758
-5.3428059 -9.8669615 -1.4966981
-5.4051561 -9.8374662 -1.4972403
-5.4702396 -9.8127699 -1.4985957
-4.8358746 -8.5509195 -1.305583
-4.9015613 -8.5442905 -1.3092426
-4.9628639 -8.5294695 -1.3116825
-5.0015125 -8.4758177 -1.3080227
-5.8042798 -9.6998672 -1.5080837
-5.8616323 -9.6606817 -1.5075415
-5.9265089 -9.6338167 -1.5090325
-4.9201875 -7.8889809 -1.2336099
-5.1839752 -8.1994896 -1.2887757
-5.2138758 -8.1358271 -1.2836251
-5.265317 -8.1061754 -1.2840317
-5.3558125 -8.1357832 -1.2941974
-5.6579967 -8.4810829 -1.3564115
-5.621706 -8.3156948 -1.3348602
-5.6580672 -8.2597914 -1.3313361
-6.4842386 -9.3424807 -1.5174361
-6.5368819 -9.2960348 -1.5163518
-6.5817266 -9.2388039 -1.5135055
-6.6574235 -9.2247581 -1.5179783
-5.6854177 -7.7768025 -1.2795588
-1.6966674 -2.2906737 -0.35163382
-1.7124741 -2.2825978 -0.35204044
-6.8686204 -9.0412416 -1.5149964
-1.7349188 -2.254344 -0.35082057
-1.7395842 -2.2319331 -0.34878743
-1.7618387 -2.2321062 -0.35068503
-1.7767385 -2.2228019 -0.35095611
-7.1657863 -8.8547907 -1.5200115
-7.2576609 -8.856637 -1.528144
-7.3219895 -8.8241377 -1.5303128
-7.3836436 -8.7881479 -1.5319393
-7.4438472 -8.7502241 -1.5332947
-7.5090356 -8.7178974 -1.5357344
-7.562386 -8.6716585 -1.5357344
-7.6003704 -8.6080112 -1.532617
-7.6715326 -8.5818977 -1.5364121
-7.7400012 -8.5522947 -1.5396652
-7.8083944 -8.5221748 -1.5429182
-7.8632336 -8.4770088 -1.5434604
-7.9150996 -8.4286013 -1.5434604
-7.9687152 -8.3820305 -1.543867
-8.0337372 -8.3472557 -1.5465778
-8.102088 -8.315546 -1.5499665
-8.1675692 -8.280489 -1.5528128
-8.2273245 -8.2393322 -1.5545748
-8.2791338 -8.1900892 -1.5548459
-3.4880955 -3.4081624 -0.62881857
-3.3620985 -3.2449446 -0.60089678
-3.3790774 -3.2215192 -0.60035461
-8.4516706 -7.9599867 -1.5499665
-8.5482283 -7.9525204 -1.5589123
-3.2174921 -2.9563117 -0.5594207
-3.3888946 -3.0756915 -0.58774912
-3.5692542 -3.199688 -0.61743295
-3.5368993 -3.1317465 -0.60794497
-3.4501541 -3.0173581 -0.58869791
-3.4850972 -3.0103812 -0.59167987
-3.4522521 -2.9452093 -0.58246297
-3.70209 -3.1193426 -0.62393904
-3.8079739 -3.1688225 -0.63939089
-3.8288765 -3.1466558 -0.63966197
-3.801188 -3.0850136 -0.63139385
-9.2469215 -7.4118099 -1.5829033
-9.286788 -7.3506279 -1.5819545
-9.306736 -7.273982 -1.5776172
-9.3825665 -7.2409539 -1.5830388
-9.4449444 -7.1970592 -1.5861562
-9.5245533 -7.1657763 -1.5922557
-5.8699923 -4.3599362 -0.96198237
-9.6621056 -7.0852685 -1.6007949
-6.0482488 -4.3782105 -0.98312706
-6.0395312 -4.31567 -0.97716314
-6.0383716 -4.2591128 -0.97255468
-5.9635677 -4.1517816 -0.95574743
-6.2886047 -4.3210478 -1.0054916
-6.1747832 -4.1872849 -0.98231381
-6.0900273 -4.0754747 -0.96415108
-6.1248403 -4.0445824 -0.96577758
-6.1611629 -4.0144978 -0.96767515
-5.71732 -3.6754856 -0.89150023
-5.7146654 -3.6244147 -0.88743395
-6.3171625 -3.952441 -0.98109388
-6.1313629 -3.7840273 -0.94734377
-6.1900096 -3.7679737 -0.95303655
-6.3268356 -3.7982626 -0.97119927
-6.2971649 -3.7280736 -0.96279562
-6.3447347 -3.7038515 -0.96672636
-6.2943544 -3.6228371 -0.95520526
-6.2888918 -3.5684991 -0.95086789
-6.4005947 -3.5801499 -0.96496433
-6.6350083 -3.6580164 -0.99817228
-6.3944259 -3.4743705 -0.95723838
-6.4191175 -3.4369407 -0.95778054
-6.683691 -3.526021 -0.9954614
-6.532897 -3.39538 -0.96889508
-6.5456705 -3.351167 -0.96767515
-6.5740714 -3.3149557 -0.96889508
-6.6235709 -3.2890987 -0.97336799
-6.7664547 -3.3084595 -0.99207288
-6.6687908 -3.2101483 -0.97418123
-6.621213 -3.137347 -0.96401554
-6.6520114 -3.1021051 -0.96577758
-6.7132421 -3.0806546 -0.97214806
-6.7211828 -3.034512 -0.97052157
-5.7816925 -2.5676944 -0.82711744
-5.8254838 -2.5444658 -0.83131927
-6.7103553 -2.8821273 -0.9607625
-6.7571201 -2.8532338 -0.96509987
-6.8467903 -2.8417273 -0.97580773
-6.9053798 -2.816503 -0.98190713
-6.9188528 -2.7726049 -0.98136497
-6.8979373 -2.715219 -0.97580773
-7.0734148 -2.7342949 -0.99912107
-6.9270325 -2.6289597 -0.97526556
-6.9188943 -2.5774131 -0.97174144
-6.9048018 -2.5240242 -0.96740407
-6.9733171 -2.5006759 -0.97513002
-6.9857259 -2.4568551 -0.9747234
-7.0072255 -2.4162064 -0.97567219
-7.1814809 -2.4271011 -0.99871445
-7.2611346 -2.4044847 -1.0080669
-7.3002548 -2.3678348 -1.011591
-7.1324 -2.2651083 -0.98543125
-7.1698165 -2.2286556 -0.98881984
-7.2601357 -2.2079751 -0.99979877
-7.2668991 -2.1614087 -0.99884999
-7.1677647 -2.0841315 -0.98285598
-7.1975722 -2.0449867 -0.98529571
-7.2796764 -2.0201283 -0.99519032
-7.3225355 -1.9837147 -0.99952769
-7.332654 -1.9382406 -0.99925661
-7.3156271 -1.8857909 -0.99519032
-7.5797758 -1.9043746 -1.030838
-7.6307745 -1.8674886 -1.0363953
-7.8396659 -1.8677125 -1.0641816
-7.8731775 -1.8247203 -1.067299
-8.2611732 -1.8613257 -1.1201607
-8.2414675 -1.8038208 -1.1158233
-8.4258547 -1.7900815 -1.1400855
-9.2576189 -1.907539 -1.2547545
-9.1175814 -1.8204305 -1.2336099
-9.6655426 -1.8682646 -1.3084294
-10.289404 -1.9234601 -1.3936857
-10.745609 -1.9405979 -1.4554932
-11.360517 -1.9797676 -1.5392586
-11.801389 -1.9820799 -1.5987618
-12.292583 -1.9871186 -1.6651777
-12.703006 -1.9735742 -1.7203435
-13.048055 -1.9452753 -1.766428
-13.791432 -1.9696987 -1.8675429
-14.243041 -1.9451106 -1.9282659
-14.20362 -1.8510211 -1.9212177
-14.286486 -1.7727427 -1.9311124
-14.298078 -1.6851652 -1.9312479
-14.233315 -1.5890454 -1.9209466
-14.263489 -1.5038637 -1.9237931
-14.254702 -1.4145546 -1.9213532
-14.276923 -1.3283482 -1.9232509
-14.264077 -1.2389207 -1.9204044
-14.289186 -1.1528093 -1.9228443
-14.301919 -1.0655526 -1.9236575
-14.293362 -0.97676396 -1.9216244
-14.288208 -0.88836658 -1.9201334
-14.2924 -0.8006236 -1.9199978
-14.300013 -0.71306014 -1.9204044
-14.292241 -0.62478387 -1.9187779
-14.283925 -0.53662992 -1.9171515
-14.297842 -0.4493179 -1.9186424
-13.040204 0.96102303 -1.9179513
-13.017303 1.0396781 -1.9154357
-13.005752 1.1191068 -1.9146957
-12.978944 1.1970692 -1.9117361
-12.981197 1.2776536 -1.9132159
-12.991802 1.3592376 -1.9160275
-12.980268 1.438601 -1.9155836
-12.972179 1.5183345 -1.9157317
-12.953785 1.5968119 -1.9143997
-12.914319 1.6724516 -1.9099603
-12.867555 1.7467355 -1.904485
-12.879115 1.8288565 -1.9078885
-12.860803 1.9068308 -1.9068527
-12.857657 1.9870676 -1.9081845
-12.804213 2.0593238 -1.9019693
-12.812796 2.1414387 -1.9052249
-12.80721 2.221369 -1.9064088
-12.787498 2.2988603 -1.9055208
-12.746902 2.3723915 -1.9015254
-12.688403 2.4421451 -1.8948661
-12.700338 2.5253565 -1.8990097
-12.7282 2.6121879 -1.9056689
-12.703224 2.6883938 -1.904337
-12.679726 2.7648132 -1.9033011
-12.651908 2.8401787 -1.9016733
-12.620751 2.914639 -1.8996016
-12.592046 2.9895098 -1.8979738
-12.57827 3.067889 -1.8987137
-12.55729 3.1445296 -1.8984177
-12.531054 3.2197969 -1.8973819
-12.50628 3.2953651 -1.896642
-12.470549 3.367913 -1.8942742
-12.444883 3.4430485 -1.8935343
-12.417813 3.5177262 -1.8926464
-12.398845 3.5946805 -1.8930904
-12.3538 3.6639397 -1.8895388
-12.332978 3.7402465 -1.8898348
-12.313575 3.8170214 -1.8904266
-12.289922 3.8925042 -1.8904266
-12.280862 3.9727123 -1.8927944
-12.275036 4.0541964 -1.8957541
-12.245243 4.1278582 -1.8950142
-12.201916 4.1968026 -1.8922025
-12.180601 4.2732306 -1.8929424
-12.141115 4.343224 -1.8908707
-12.1226 4.4206891 -1.8922025
-12.087831 4.4922318 -1.8910186
-12.069288 4.5698195 -1.8924985
-12.06778 4.6541119 -1.8967899
-12.040836 4.7287941 -1.8970859
-11.992311 4.7948742 -1.8939782
-11.94984 4.8631468 -1.8919065
-11.917948 4.9356213 -1.8916105
-11.871945 5.0021257 -1.8890948
-11.816487 5.0643554 -1.8850993
-11.802416 5.1442742 -1.887911
-11.761587 5.2125878 -1.8864312
-11.732087 5.2858763 -1.8868752
-11.706626 5.3610587 -1.888059
-11.635853 5.4152584 -1.8818437
-11.584526 5.4780955 -1.8788841
-11.569415 5.5580688 -1.8819917
-11.532427 5.6276512 -1.8815478
-11.505654 5.7022605 -1.8828796
-11.468682 5.7718611 -1.8825836
-11.433931 5.8425732 -1.8827317
-11.377676 5.902144 -1.879328
-11.385875 5.9953494 -1.8868752
-11.35934 6.0706935 -1.8886509
-11.325355 6.1421652 -1.8892429
-11.294385 6.2153559 -1.8904266
-11.261216 6.2874331 -1.8913146
-11.234472 6.3632369 -1.8933864
-11.205506 6.437964 -1.8951621
-11.151267 6.4981322 -1.8926464
-11.127362 6.5759945 -1.8954581
-11.10801 6.6568584 -1.8991576
-11.072026 6.7279725 -1.9000455
-11.059162 6.8134227 -1.9050769
-11.027213 6.8874402 -1.9068527
-10.993936 6.9607925 -1.9084805
-10.977652 7.0452147 -1.9132159
-10.949138 7.1221476 -1.9158796
-10.914313 7.1951847 -1.9175074
-10.889694 7.2752056 -1.921059
-10.854676 7.3485408 -1.9228348
-10.814275 7.4183626 -1.9237226
-10.773426 7.4879651 -1.9246105
-10.728086 7.5544982 -1.9247586
-10.663014 7.6069703 -1.9213549
-10.642589 7.6913733 -1.9262383
-10.573649 7.7407546 -1.9222429
-10.56885 7.8373022 -1.9302338
-10.541121 7.9174485 -1.9340814
-10.506509 7.9927578 -1.936745
-10.484686 8.0782032 -1.9419245
-10.431803 8.1399498 -1.9413325
-10.37235 8.1964464 -1.9395567
-10.371279 8.2994871 -1.9490275
-10.324769 8.366704 -1.9499154
-10.270944 8.4280157 -1.9494715
-10.216755 8.4889822 -1.9490275
-10.178097 8.562973 -1.9516913
-10.145689 8.642581 -1.9556868
-10.122423 8.7305107 -1.961606
-10.072387 8.7957096 -1.962346
-10.030082 8.8678293 -1.9647137
-9.9961128 8.9476767 -1.9688572
-9.9549456 9.0214624 -1.9716688
-9.8833723 9.0676641 -1.9684132
-9.8108826 9.1126556 -1.9650096
-9.7483006 9.166584 -1.9636778
-9.706913 9.2405472 -1.9667854
-9.6728172 9.3218966 -1.9715208
-9.6395035 9.4045563 -1.9765522
-9.5795059 9.461441 -1.9761083
-9.526866 9.5256367 -1.9772922
-9.4473886 9.5628042 -1.9728527
-9.4154701 9.6481991 -1.978624
-9.3746233 9.7250166 -1.9826195
-9.3290958 9.7973967 -1.9857271
-9.2762575 9.86238 -1.9873549
-9.2196064 9.92346 -1.9882429
-9.1598816 9.9813013 -1.9885387
-9.1031141 10.042447 -1.9895747
-9.0400038 10.09664 -1.9892787
-8.9896736 10.165255 -1.9919424
-8.9316854 10.225437 -1.9929782
-8.8726511 10.284541 -1.9938661
-8.8209238 10.352341 -1.9965298
-8.7686977 10.419891 -1.9991934
-8.7077579 10.477303 -1.9999334
-8.6445618 10.532063 -2.0002294
-8.5866251 10.593359 -2.001857
-8.5313511 10.658201 -2.0042248
-8.4706984 10.716556 -2.0054088
-8.407217 10.771447 -2.0060008
-8.3421736 10.824397 -2.0062966
-8.2767973 10.876954 -2.0065925
-8.2164354 10.936234 -2.0082204
-8.1574249 10.997563 -2.0102921
-8.1061506 11.069753 -2.0144355
-8.0253296 11.101649 -2.0111799
-7.9547629 11.147462 -2.0105882
-7.908422 11.227597 -2.0163593
-7.8433332 11.281595 -2.0173953
-7.7789984 11.336848 -2.0187271
-7.713172 11.390099 -2.019763
-7.644237 11.438856 -2.0200589
-7.5739059 11.485545 -2.0200589
-7.5049071 11.534288 -2.0205028
-7.4339929 11.58012 -2.0205028
-7.3654437 11.629694 -2.0212429
-7.2997103 11.683896 -2.0228705
-7.2258067 11.725098 -2.0222788
-7.1516724 11.765833 -2.0216868
-7.0829029 11.815432 -2.0227227
-7.0163097 11.868886 -2.0244985
-6.9418578 11.90915 -2.0240545
-6.8681612 11.950664 -2.0239065
-6.8025031 12.006349 -2.0262742
-6.7407598 12.069449 -2.0299737
-6.6708679 12.118381 -2.0313056
-6.6001573 12.166039 -2.0324895
-6.5263162 12.208052 -2.0327854
-6.4545121 12.253992 -2.0338213
-6.3805676 12.296 -2.0342653
-6.2996001 12.32435 -2.0324895
-6.2274179 12.36984 -2.0336733
-6.1531577 12.411362 -2.0342653
-6.0851288 12.46577 -2.037077
-6.0102386 12.506439 -2.0376687
-5.9325418 12.541293 -2.0373728
-5.8542261 12.574769 -2.0369289
-5.7794299 12.615849 -2.0378168
-5.7071934 12.662794 -2.0397406
-5.6329956 12.705712 -2.0410724
-5.5592756 12.750009 -2.0427003
-5.4774318 12.775699 -2.0413682
-5.4035473 12.820004 -2.0431442
-5.3312168 12.868451 -2.0456598
-5.2614784 12.923821 -2.0493593
-5.1820803 12.955862 -2.0493593
-5.1028485 12.988335 -2.0495074
-5.0227017 13.018478 -2.0493593
-4.9448285 13.054602 -2.0502472
-4.8715253 13.103237 -2.0532069
-4.8025551 13.164472 -2.0582383
-4.7246876 13.202072 -2.0595701
-4.6475215 13.242013 -2.0613458
-4.5719733 13.287113 -2.0640097
-4.4938345 13.325225 -2.0656374
-4.4101267 13.346913 -2.0647495
-4.3263221 13.368076 -2.0638616
-4.2397356 13.380228 -2.0616419
-4.1560917 13.401268 -2.0609019
-4.0723495 13.421785 -2.0601621
-3.9980748 13.474016 -2.0644536
-3.9233122 13.525841 -2.0687451
-3.8397062 13.547755 -2.068449
-3.7586164 13.578686 -2.069633
-3.6659439 13.567121 -2.0643055
-3.5813684 13.584578 -2.0635657
-3.4979477 13.606297 -2.0635657
-3.4360206 13.713846 -2.076884
-3.3757174 13.832674 -2.0919783
-3.2658725 13.748242 -2.0758481
-3.1930277 13.818131 -2.0835433
-3.1053646 13.824919 -2.0816195
-3.0027754 13.762546 -2.0691891
-2.9123342 13.752652 -2.0648975
-2.8183489 13.723761 -2.0577943
-2.7207768 13.673866 -2.0475836
-2.6282239 13.64563 -2.0407765
-2.5375683 13.624553 -2.0351532
-2.4484959 13.609692 -2.0305657
-2.3590252 13.590354 -2.0253863
-2.273798 13.593843 -2.0237584
-2.1879888 13.592893 -2.0215387
-2.1022768 13.591401 -2.0193191
-2.0165203 13.588392 -2.0169513
-1.9306021 13.582884 -2.0142877
-1.8442949 13.572915 -2.0110321
-1.7595807 13.573187 -2.0094042
-1.676264 13.583728 -2.0094042
-1.5919642 13.585899 -2.0082204
-1.5074829 13.585582 -2.0067406
-1.4226536 13.580806 -2.0046687
-1.3383274 13.579436 -2.0031891
-1.2543442 13.580499 -2.0021532
-1.1708225 13.585969 -2.001857
-1.0873598 13.591911 -2.0017092
-1.0029227 13.584519 -1.9996374
-0.91968405 13.592391 -1.9999334
-0.83687168 13.60765 -2.0014131
-0.75385201 13.621416 -2.0027452
-0.67011291 13.622822 -2.0023012
-0.58655465 13.627665 -2.002449
-0.50288945 13.630019 -2.0023012
-0.41921744 13.63186 -2.0021532
-0.33551753 13.632197 -2.001857
-0.25192016 13.636967 -2.0023012
-0.16828904 13.642211 -2.002893
-0.084645353 13.653866 -2.0045209
-0.00086526171 13.65215 -2.0042248
0.082939312 13.657832 -2.0051126
0.1668379 13.664977 -2.0062966
0.25057212 13.657763 -2.0054088
0.33473426 13.670799 -2.0076284
0.41867113 13.670465 -2.0079243
0.50261647 13.669616 -2.0082204
0.58711952 13.681095 -2.0104401
0.67144245 13.685138 -2.0116239
0.75578254 13.687673 -2.0126598
0.84011829 13.6887 -2.0135477
0.92402804 13.682301 -2.0133998
1.0079637 13.676373 -2.0133998
1.0926496 13.67979 -2.0148795
1.1785188 13.695491 -2.0182831
1.2628033 13.690956 -2.0187271
1.3487248 13.702635 -2.0216868
1.4346311 13.711806 -2.0243504
1.5215729 13.728302 -2.028198
1.6069303 13.72853 -2.0296779
1.6893203 13.703689 -2.027458
1.7746439 13.702873 -2.0289378
1.8624171 13.719166 -2.0330813
1.9487873 13.723146 -2.035449
2.0323737 13.707017 -2.034857
2.1200674 13.717746 -2.0384088
2.2092261 13.735724 -2.0431442
2.2924867 13.716058 -2.0422564
2.3862424 13.757276 -2.0506911
2.4721863 13.751136 -2.0520232
2.5556099 13.730846 -2.0512831
2.6429918 13.731416 -2.0537989
2.7329853 13.74404 -2.0582383
2.8170669 13.726044 -2.0580902
2.9051275 13.726883 -2.0609019
2.9956229 13.737787 -2.0653415
3.0837607 13.736517 -2.0680051
3.1748898 13.747209 -2.0725925
3.2651231 13.752487 -2.0764401
3.3564785 13.761018 -2.0808794
3.448061 13.768944 -2.085319
3.5383899 13.770516 -2.0888705
3.6301279 13.776279 -2.0931621
3.7207799 13.77666 -2.0967135
3.8097262 13.769774 -2.0992293
3.8965712 13.754703 -2.1005611
3.9811704 13.731484 -2.1007092
4.0563488 13.676457 -2.0959737
4.1272697 13.608723 -2.0893145
4.1623635 13.42728 -2.0648975
4.2885823 13.54008 -2.0866508
4.3578801 13.471168 -2.0799916
4.4683781 13.528691 -2.0933101
4.5250764 13.423236 -2.0810275
4.612824 13.411116 -2.0835433
4.6897869 13.367628 -2.0811756
4.7663894 13.323702 -2.0788078
4.8761816 13.371322 -2.0910902
4.9350467 13.27904 -2.0811756
5.0087261 13.228162 -2.07792
5.0862389 13.187953 -2.0764401
5.1591072 13.136245 -2.0731845
5.225657 13.069448 -2.0675611
5.3001585 13.023397 -2.0653415
5.3731556 12.974184 -2.0626779
5.4449811 12.922744 -2.0597181
5.5120912 12.860912 -2.0551307
5.5833907 12.809624 -2.052319
5.6610823 12.773315 -2.0520232
5.7450399 12.750962 -2.0540948
5.8248177 12.719068 -2.0546868
5.9002466 12.677709 -2.0537989
5.9749646 12.635008 -2.052763
6.0485239 12.590086 -2.0514312
6.101368 12.502965 -2.0431442
6.1621571 12.433393 -2.0378168
6.228548 12.375914 -2.0345612
6.3003168 12.329537 -2.0332294
6.3726625 12.284503 -2.0321934
6.4423885 12.234669 -2.0304177
6.5164051 12.193164 -2.0301218
6.5854397 12.142519 -2.0283458
6.6531444 12.089753 -2.0262742
6.7233429 12.041795 -2.0250902
6.7897911 11.987407 -2.0228705
6.8573031 11.93523 -2.0210948
6.9249291 11.883531 -2.0194671
7.0017409 11.847628 -2.0206509
7.0783725 11.811229 -2.0218346
7.1445475 11.757433 -2.0200589
7.1994338 11.685589 -2.0151756
7.2584243 11.621063 -2.0116239
7.3200688 11.561268 -2.0089602
7.389267 11.513638 -2.0085163
7.4527626 11.457305 -2.0065925
7.5120349 11.394847 -2.003633
7.5763159 11.340316 -2.0021532
7.6368842 11.280513 -1.9997854
7.6970038 11.220393 -1.9974177
7.7555447 11.158338 -1.994754
7.8124757 11.094369 -1.9917943
7.8758068 11.039783 -1.9906105
7.933548 10.977624 -1.9880948
7.996666 10.923153 -1.987059
8.0570583 10.865143 -1.9854312
8.114069 10.802849 -1.9830635
8.1664276 10.734756 -1.9796598
8.2164459 10.664079 -1.9758123
8.2847672 10.617361 -1.9765522
8.3423986 10.557015 -1.9747764
8.3872423 10.480921 -1.970041
8.4432993 10.419272 -1.9681172
8.4951506 10.352744 -1.9653056
8.5547209 10.295859 -1.9644177
8.6145506 10.239391 -1.9636778
8.666954 10.174296 -1.96131
8.7182369 10.108194 -1.9587944
8.7696867 10.042592 -1.9564266
8.8180389 9.9737759 -1.953467
8.8724737 9.9121132 -1.9519873
8.929141 9.8530893 -1.9510993
8.9827442 9.7908287 -1.9496195
9.0359192 9.728282 -1.9481397
9.080534 9.656806 -1.9448841
9.1191578 9.5794191 -1.9404446
9.1558008 9.5004988 -1.9357092
9.1973457 9.4271526 -1.9321576
9.2404213 9.3557663 -1.92905
9.2976532 9.298892 -1.92905
9.3559418 9.2430573 -1.929346
9.3827496 9.1564684 -1.9231308
9.4202423 9.0808802 -1.9192832
