# .PCD v0.7 - Point Cloud Data file format
VERSION 0.7
FIELDS x y z
SIZE 4 4 4
TYPE F F F
COUNT 1 1 1
WIDTH 1510
HEIGHT 1
VIEWPOINT 0 0 0 1 0 0 0
POINTS 1510
DATA ascii
-5.8801332 -9.6911764 -1.5124211
-5.927547 -9.6355047 -1.5093036
-4.9138961 -7.8788924 -1.2319833
-5.1882105 -8.2061892 -1.28986
-5.2176175 -8.1416664 -1.2845739
-5.2685552 -8.1111603 -1.284845
-5.3558125 -8.1357832 -1.2941974
-5.6437016 -8.4596529 -1.3528874
-5.6272545 -8.3239031 -1.3362156
-5.6709447 -8.2785921 -1.3344536
-6.492712 -9.3546906 -1.5194693
-6.5477095 -9.3114338 -1.5189271
-6.6018462 -9.2670479 -1.5182494
-6.6516261 -9.2167244 -1.5166229
-5.6643686 -7.7480078 -1.2746793
-1.6972569 -2.2914698 -0.35176936
-0 -0 -0
-6.9003844 -9.0830564 -1.5221802
-1.7337105 -2.2527735 -0.35054949
-1.7414111 -2.2342777 -0.34919405
-1.7606113 -2.2305508 -0.35041395
-7.1533775 -8.9512243 -1.5292283
-7.2081666 -8.9071636 -1.5292283
-7.2645683 -8.8650665 -1.5296351
-7.3188267 -8.8203259 -1.5296351
-7.3708973 -8.7729759 -1.5292283
-7.4188108 -8.7207918 -1.5280085
-7.4909315 -8.6968775 -1.5319393
-7.5558748 -8.6641912 -1.534379
-7.6233211 -8.6340065 -1.5373609
-7.6781354 -8.5892839 -1.5377675
-7.7373419 -8.5493565 -1.5391231
-7.7963471 -8.5090256 -1.5404785
-7.853127 -8.4661121 -1.5414273
-7.9279857 -8.4423246 -1.5460356
-7.9830503 -8.3971109 -1.5467134
-8.0406075 -8.354394 -1.5479332
-8.0924091 -8.3056107 -1.5480688
-8.1487846 -8.2614431 -1.5491532
-8.2063227 -8.2182989 -1.5505086
-8.2622299 -8.1733656 -1.5515929
-3.4866784 -3.4067774 -0.62854749
-3.3542571 -3.2373755 -0.59940577
-3.3769264 -3.2194681 -0.59994799
-8.5245142 -8.0285978 -1.5636562
-8.5743418 -7.9768157 -1.5637918
-3.210197 -2.9496076 -0.5580653
-3.5099394 -3.1855686 -0.61011368
-3.5714672 -3.2016723 -0.61783957
-3.5584092 -3.1507957 -0.61187571
-3.4516454 -3.0186627 -0.58896899
-3.5068393 -3.029165 -0.59561062
-3.4349174 -2.930418 -0.57934546
-3.6755733 -3.0969963 -0.61919504
-3.7638054 -3.1320617 -0.63152939
-3.8097415 -3.1309278 -0.63627338
-3.8434963 -3.1193564 -0.63884872
-9.2716599 -7.4316397 -1.5872407
-9.2875643 -7.3512425 -1.58209
-9.3207874 -7.2849646 -1.5800569
-9.3911943 -7.2476125 -1.5845298
-9.4441566 -7.1964588 -1.5860207
-9.5142612 -7.1580324 -1.5904937
-5.8795362 -4.3670259 -0.96360892
-9.6045809 -7.0430822 -1.5910358
-6.0699172 -4.393898 -0.98678666
-6.0580711 -4.3289194 -0.98028064
-6.031085 -4.253973 -0.97133482
-5.9903998 -4.170464 -0.96022034
-6.2543092 -4.2974801 -0.99979877
-6.1829829 -4.1928463 -0.98366922
-6.0941443 -4.0782299 -0.96482879
-6.1182261 -4.0402145 -0.96469325
-6.1802549 -4.0269394 -0.97079265
-5.7364879 -3.6878095 -0.89461768
-5.7263784 -3.6318445 -0.88933152
-6.3003645 -3.9419298 -0.97838306
-6.1465387 -3.7933946 -0.94978356
-6.194241 -3.7705498 -0.95371431
-6.3132448 -3.7901025 -0.96903062
-6.2997227 -3.729588 -0.9632023
-6.3216329 -3.6903639 -0.96306676
-6.2539973 -3.5996056 -0.94883478
-6.2664876 -3.5557849 -0.94734377
-6.2708945 -3.5075932 -0.94463295
-6.6063771 -3.6422293 -0.99369937
-6.3778858 -3.4653823 -0.9546631
-6.4374595 -3.4467626 -0.96062696
-6.5978155 -3.480711 -0.98217827
-6.5197105 -3.3885257 -0.9668619
-6.5297966 -3.343039 -0.96523541
-6.5802641 -3.3180788 -0.96984386
-6.6741505 -3.3142188 -0.98109388
-6.7522135 -3.3014956 -0.98990417
-6.6643271 -3.2079995 -0.97350353
-6.6427007 -3.1475301 -0.96726853
-6.6582971 -3.1050367 -0.96672636
-6.7096405 -3.0790017 -0.9716059
-6.7049289 -3.0271728 -0.96808183
-5.7816925 -2.5676944 -0.82711744
-5.8064179 -2.5361364 -0.82847285
-6.7485895 -2.8985515 -0.96645528
-6.7835889 -2.8644121 -0.96903062
-6.8321495 -2.8356497 -0.97363907
-6.9283142 -2.8258588 -0.98529571
-6.8894238 -2.7608101 -0.9770276
-6.8877964 -2.7112265 -0.97431678
-7.0549326 -2.7271492 -0.99641019
-6.9196224 -2.626147 -0.97418123
-6.912395 -2.5749917 -0.97079265
-6.9122458 -2.526746 -0.96848845
-6.9873061 -2.5056932 -0.97716314
-6.9969411 -2.4608002 -0.97634989
-7.010972 -2.4174984 -0.97621435
-7.1336126 -2.4109204 -0.9918018
-7.2592535 -2.4038618 -1.0077958
-7.3219304 -2.3748667 -1.0147085
-7.1503415 -2.2708073 -0.98800659
-7.1717091 -2.229244 -0.98909092
-7.2506566 -2.205092 -0.99844337
-7.2365108 -2.1523685 -0.99451262
-7.1982079 -2.0929852 -0.98719335
-7.2023373 -2.0463407 -0.98597342
-7.2567639 -2.0137687 -0.99193734
-7.3473992 -1.9904518 -1.0030518
-7.3364854 -1.9392537 -0.99979877
-7.3837438 -1.9033537 -1.0048139
-7.5288482 -1.8915766 -1.0236543
-7.6567583 -1.873849 -1.0400549
-7.8329191 -1.866105 -1.0632328
-7.8876553 -1.8280764 -1.0693321
-8.2988672 -1.8698206 -1.1254468
-8.2434025 -1.8042446 -1.1160944
-8.4549284 -1.7962596 -1.1441517
-9.2061892 -1.8969396 -1.2475708
-9.1204967 -1.8210126 -1.2340165
-9.7141809 -1.8776679 -1.3152065
-10.300117 -1.9254632 -1.3951766
-10.767058 -1.9444724 -1.4584751
-11.323426 -1.9733027 -1.5341079
-11.845357 -1.989466 -1.6048611
-12.39528 -2.0037231 -1.6794096
-12.7079 -1.9743348 -1.7210213
-13.081372 -1.9502435 -1.7710365
-13.757104 -1.9647949 -1.8627988
-14.208683 -1.9404175 -1.923522
-14.25569 -1.8578084 -1.9284015
-14.331714 -1.7783562 -1.9373473
-14.331532 -1.6891091 -1.9358563
-14.253008 -1.5912445 -1.9236575
-14.254621 -1.5029284 -1.9225732
-14.304983 -1.4195458 -1.9282659
-14.303559 -1.3308272 -1.9269105
-14.29665 -1.2417507 -1.9248774
-14.295112 -1.1532874 -1.9236575
-14.285123 -1.0643008 -1.9213532
-14.283477 -0.97608823 -1.9202689
-14.287219 -0.88830507 -1.9199978
-14.305261 -0.80134434 -1.92176
-14.326731 -0.71439314 -1.9240642
-14.336783 -0.62673229 -1.9248774
-14.332438 -0.53845388 -1.9237931
-14.305764 -0.44956708 -1.9197267
-13.031327 0.96036804 -1.9166195
-13.038006 1.0413334 -1.9185432
-13.05699 1.1235203 -1.9223908
-13.040987 1.2027971 -1.921059
-13.007771 1.2802714 -1.9172114
-12.978031 1.3577956 -1.9139558
-12.95766 1.4360933 -1.9121801
-12.939764 1.5145375 -1.9108483
-12.91256 1.5917264 -1.9081845
-12.924127 1.6737227 -1.9114401
-12.890094 1.7497972 -1.9078885
-12.845824 1.824126 -1.9028572
-12.854934 1.90596 -1.9059649
-12.821494 1.9814755 -1.9027092
-12.813001 2.0607378 -1.9033011
-12.785483 2.1368716 -1.9010814
-12.773106 2.2154505 -1.9012294
-12.769005 2.2955339 -1.9027092
-12.737179 2.3705812 -1.9000455
-12.765123 2.4569187 -1.9065567
-12.737198 2.5326891 -1.9046329
-12.702043 2.6068172 -1.9016733
-12.709029 2.6896229 -1.9052249
-12.680692 2.7650239 -1.9034491
-12.642258 2.8380115 -1.9001935
-12.605334 2.911077 -1.8972338
-12.589159 2.9888241 -1.8975298
-12.56674 3.0650759 -1.8969378
-12.539062 3.1399634 -1.895606
-12.507108 3.2136416 -1.8936822
-12.489066 3.2908275 -1.8939782
-12.443815 3.3606906 -1.8901308
-12.450602 3.4446311 -1.8944222
-12.424474 3.5196135 -1.8936822
-12.405494 3.5966089 -1.8941263
-12.398362 3.6771607 -1.8964939
-12.349067 3.7451272 -1.8923504
-12.327744 3.8214149 -1.8926464
-12.318207 3.9014652 -1.8948661
-12.294976 3.9772794 -1.8950142
-12.252499 4.0467505 -1.8922025
-12.23962 4.1259623 -1.8941263
-12.165443 4.1842546 -1.8864312
-12.167537 4.2686458 -1.8908707
-12.157877 4.3492217 -1.8935343
-12.143969 4.428484 -1.895606
-12.096173 4.4953332 -1.8923504
-12.073913 4.5715709 -1.8932383
-12.049325 4.6469932 -1.8938303
-12.027028 4.7233701 -1.8948661
-11.959252 4.7816529 -1.8886509
-11.9361 4.857554 -1.8896868
-11.902415 4.9291868 -1.8890948
-11.865566 4.9994373 -1.888059
-11.832849 5.0713696 -1.887763
-11.779751 5.1343932 -1.8842114
-11.700106 5.1853333 -1.8763684
-11.650938 5.2493057 -1.8735567
-11.614913 5.3190484 -1.8729649
-11.620611 5.4081631 -1.879328
-11.587209 5.4793639 -1.879328
-11.545346 5.5465035 -1.8779962
-11.54487 5.6337247 -1.8836195
-11.51806 5.7084098 -1.8849514
-11.463382 5.7691932 -1.8816957
-11.43129 5.8412228 -1.8822876
-11.38821 5.9076099 -1.8811039
-11.372749 5.9884362 -1.8846554
-11.337535 6.0590377 -1.8849514
-11.321008 6.1398072 -1.888503
-11.290919 6.213448 -1.8898348
-11.263807 6.2888794 -1.8917586
-11.237054 6.3646994 -1.8938303
-11.204649 6.4374709 -1.8950142
-11.170066 6.5090885 -1.895902
-11.136727 6.5815301 -1.8970859
-11.119885 6.6639767 -1.9012294
-11.120198 6.7572508 -1.9084805
-11.095367 6.8357325 -1.9114401
-11.05657 6.9057798 -1.912032
-11.019002 6.976666 -1.91292
-10.959341 7.0334616 -1.9099603
-10.935874 7.1135182 -1.9135119
-10.893672 7.1815743 -1.9138079
-10.844467 7.2449846 -1.91292
-10.829289 7.3313513 -1.9182473
-10.800411 7.4088507 -1.921207
-10.76693 7.483449 -1.9234266
-10.719192 7.548234 -1.9231308
-10.700047 7.6333942 -1.9281621
-10.760412 7.7765398 -1.9479917
-10.622325 7.7763953 -1.9312698
-10.584736 7.8490853 -1.9331934
-10.523725 7.9043798 -1.9308258
-10.51674 8.0005436 -1.9386688
-10.476069 8.0715628 -1.9402966
-10.431803 8.1399498 -1.9413325
-10.403386 8.2209759 -1.9454761
-10.38981 8.3143187 -1.9525791
-10.306329 8.351759 -1.9463639
-10.284704 8.4393101 -1.9521352
-10.241095 8.5092096 -1.953763
-10.188691 8.571888 -1.953763
-10.126117 8.625905 -1.9518392
-10.066258 8.6820612 -1.9505074
-10.040358 8.7677345 -1.9559827
-10.000447 8.8416233 -1.9587944
-9.9607449 8.9160118 -1.9617541
-9.9175739 8.9875889 -1.9641217
-9.8680696 9.0536222 -1.9653056
-9.8181286 9.1193867 -1.9664894
-9.7677517 9.1848783 -1.9676733
-9.7198057 9.2528229 -1.969449
-9.6649847 9.3143473 -1.969893
-9.6331329 9.3983402 -1.9752204
-9.5851345 9.4670019 -1.9772922
-9.5345583 9.533329 -1.97892
-9.4814434 9.5972815 -1.9801039
-9.424449 9.657402 -1.9805478
-9.3698187 9.7200317 -1.9815836
-9.3154573 9.7830715 -1.9827675
-9.2593193 9.8443689 -1.9836553
-9.2007599 9.9031715 -1.9840993
-9.1485147 9.9689131 -1.9860231
-9.1057701 10.045378 -1.9901665
-9.0485792 10.106219 -1.9912025
-8.9870539 10.162291 -1.9913504
-8.9316854 10.225437 -1.9929782
-8.8610239 10.271062 -1.9912025
-8.8132277 10.343307 -1.994754
-8.7476864 10.394918 -1.99431
-8.6932201 10.459807 -1.9965298
-8.6382875 10.524419 -1.9987495
-8.5872478 10.594128 -2.0020051
-8.5319691 10.658973 -2.0043728
-8.4615002 10.704916 -2.0031891
-8.3920059 10.751955 -2.0023012
-8.3307047 10.809512 -2.003485
-8.2821865 10.884038 -2.0079243
-8.2336617 10.959165 -2.012512
-8.1727428 11.018217 -2.0141397
-8.1020613 11.064167 -2.0133998
-8.0351782 11.115275 -2.0136957
-7.9737182 11.17403 -2.0154715
-7.9141169 11.235682 -2.0178392
-7.8518004 11.293777 -2.0196149
-7.7840338 11.344188 -2.0200589
-7.7176075 11.39665 -2.0209467
-7.6453362 11.4405 -2.020355
-7.5679173 11.476462 -2.0184312
-7.4941211 11.517708 -2.0175433
-7.424911 11.565971 -2.0179873
-7.3596239 11.620503 -2.0196149
-7.2965665 11.678863 -2.0219827
-7.2258067 11.725098 -2.0222788
-7.153213 11.768369 -2.0221307
-7.0783272 11.807797 -2.0213907
-7.0057425 11.851007 -2.0213907
-6.9393678 11.904878 -2.0233145
-6.8711176 11.955809 -2.0247943
-6.8068905 12.014093 -2.027606
-6.7470279 12.080675 -2.0318975
-6.6804051 12.13571 -2.0342653
-6.6062875 12.177341 -2.0344131
-6.5300455 12.21503 -2.0339692
-6.4526687 12.250492 -2.0332294
-6.3737359 12.282831 -2.0320456
-6.2978001 12.320828 -2.0318975
-6.2198591 12.354822 -2.0311575
-6.1474476 12.399842 -2.0323415
-6.0820923 12.459549 -2.036041
-6.0102386 12.506439 -2.0376687
-5.9312735 12.538611 -2.0369289
-5.8567305 12.580149 -2.0378168
-5.7806654 12.618546 -2.0382607
-5.7043495 12.656483 -2.0387046
-5.6277857 12.693958 -2.0391486
-5.5513716 12.731877 -2.0397406
-5.4778214 12.776608 -2.0415163
-5.4081559 12.83094 -2.04492
-5.3331094 12.87302 -2.0463998
-5.2502933 12.89634 -2.04492
-5.1648211 12.912702 -2.0424042
-5.083324 12.938626 -2.0415163
-5.0073972 12.978801 -2.0429962
-4.93257 13.02223 -2.0450678
-4.8656678 13.087478 -2.0506911
-4.7923889 13.136598 -2.0537989
-4.7213559 13.19276 -2.0580902
-4.6439195 13.231748 -2.0597181
-4.5587831 13.24877 -2.0579424
-4.48246 13.291488 -2.0603101
-4.4014406 13.32062 -2.060606
-4.3220596 13.354903 -2.06179
-4.2391381 13.378343 -2.0613458
-4.1578488 13.406936 -2.06179
-4.0752201 13.431249 -2.0616419
-3.9949811 13.463587 -2.0628257
-3.913672 13.492595 -2.0635657
-3.8294613 13.511598 -2.0628257
-3.7493849 13.545325 -2.0644536
-3.6700704 13.582397 -2.0666733
-3.5854011 13.599879 -2.0659335
-3.5023785 13.623538 -2.0662293
-3.4338582 13.705212 -2.0755522
-3.3609507 13.772142 -2.0826554
-3.2727273 13.77711 -2.0802877
-3.1919148 13.813313 -2.0828032
-3.0999479 13.800795 -2.07792
-3.0078335 13.785736 -2.0727406
-2.9127438 13.754587 -2.0651934
-2.8125818 13.695666 -2.0535028
-2.7230918 13.685506 -2.0493593
-2.6317763 13.664082 -2.0435882
-2.5391974 13.633304 -2.036485
-2.4472706 13.602879 -2.0295298
-2.3575037 13.581584 -2.0240545
-2.271189 13.578236 -2.0213907
-2.185004 13.57434 -2.0187271
-2.099406 13.572831 -2.0165074
-2.0126028 13.561978 -2.0129559
-1.9289329 13.571135 -2.012512
-1.8450934 13.578794 -2.01192
-1.7609785 13.583976 -2.0110321
-1.6766272 13.586673 -2.0098481
-1.5923092 13.588846 -2.0086644
-1.5053031 13.565923 -2.0037808
-1.4230654 13.58474 -2.0052607
-1.3391997 13.588295 -2.0045209
-1.2557982 13.596256 -2.0045209
-1.1715012 13.593852 -2.003041
-1.0874386 13.592897 -2.001857
-1.00365 13.594382 -2.0011172
-0.92015082 13.599298 -2.0009692
-0.83705354 13.610611 -2.001857
-0.75368834 13.618453 -2.0023012
-0.67001587 13.620846 -2.0020051
-0.58591801 13.612844 -2.0002294
-0.50256205 13.621124 -2.0009692
-0.41924778 13.632848 -2.0023012
-0.33578429 13.643073 -2.003485
-0.25201109 13.641911 -2.003041
-0.16834962 13.647156 -2.003633
-0.084681638 13.6598 -2.0054088
-0.0008654343 13.644238 -2.003041
0.082823604 13.639042 -2.0023012
0.16661905 13.647177 -2.003633
0.25038987 13.647875 -2.0039289
0.33444273 13.658935 -2.0058527
0.41891399 13.678373 -2.0091083
0.50319928 13.685429 -2.0105882
0.58707702 13.680107 -2.0102921
0.67061716 13.668345 -2.0091083
0.75469035 13.667923 -2.0097003
0.83914763 13.672906 -2.0111799
0.92396128 13.681314 -2.0132518
1.0092008 13.693141 -2.0159154
1.0944626 13.702464 -2.0182831
1.1791978 13.703374 -2.0194671
1.2635306 13.698834 -2.0199111
1.3488218 13.703619 -2.0218346
1.4343221 13.708855 -2.0239065
1.5202646 13.716507 -2.0264223
1.6053194 13.714778 -2.027606
1.6907734 13.715467 -2.0292339
1.7761692 13.714643 -2.0307136
1.8553617 13.667226 -2.0252383
1.9457264 13.701605 -2.0321934
2.0307772 13.696257 -2.0332294
2.1208231 13.722632 -2.0391486
2.2063978 13.718149 -2.0404804
2.2895505 13.6985 -2.0395925
2.3798165 13.720247 -2.0450678
2.4674592 13.724854 -2.0480275
2.5556099 13.730846 -2.0512831
2.6429918 13.731416 -2.0537989
2.7304769 13.73143 -2.0563145
2.8226364 13.753169 -2.0622339
2.9069712 13.735591 -2.0622339
2.9964659 13.741652 -2.0659335
3.0839775 13.737482 -2.0681531
3.1733315 13.740463 -2.0715566
3.263752 13.746714 -2.0755522
3.3571818 13.7639 -2.0813234
3.4478207 13.767984 -2.085171
3.5361741 13.761895 -2.0875387
3.6273549 13.765759 -2.0915344
3.7179425 13.766158 -2.0950859
3.8086712 13.765962 -2.0986373
3.8971105 13.756606 -2.100857
3.9800687 13.727685 -2.1001172
4.0481911 13.648962 -2.0916822
4.1416254 13.656043 -2.0967135
4.2142086 13.594478 -2.0910902
4.2867899 13.534423 -2.085763
4.3639698 13.489987 -2.0829513
4.4562783 13.492067 -2.0875387
4.5304484 13.439167 -2.0835433
4.6134677 13.412986 -2.0838392
4.6996112 13.395624 -2.0856149
4.7850485 13.375848 -2.0870948
4.8738093 13.364818 -2.0900545
4.9367695 13.283675 -2.0819154
5.0017204 13.209664 -2.0749602
5.0755601 13.160272 -2.0720007
5.1453662 13.101265 -2.0675611
5.2230864 13.06302 -2.0665252
5.2945652 13.009657 -2.0631218
5.3742914 12.976925 -2.0631218
5.4434447 12.919098 -2.0591261
5.4906588 12.810918 -2.0469916
5.575881 12.792398 -2.0495074
5.6510625 12.750711 -2.0483234
5.7283802 12.713994 -2.0480275
5.800518 12.666018 -2.0459559
5.8756218 12.624808 -2.0450678
5.9512839 12.584943 -2.044476
6.0249648 12.541058 -2.043292
6.0909567 12.481634 -2.0395925
6.1608391 12.430735 -2.0373728
6.2298818 12.378564 -2.0350051
6.2985168 12.326015 -2.0326374
6.3644638 12.268702 -2.0295298
6.4350147 12.220668 -2.0280499
6.5038171 12.169615 -2.0261261
6.5764799 12.126002 -2.0255344
6.6545749 12.092352 -2.0267181
6.7209315 12.037477 -2.0243504
6.7922282 11.99171 -2.0236106
6.8582888 11.936945 -2.0213907
6.9259253 11.88524 -2.019763
6.9962053 11.838263 -2.0190232
7.068203 11.794264 -2.0188751
7.1388974 11.748137 -2.0184312
7.2082539 11.699902 -2.0176911
7.2558041 11.616869 -2.010884
7.3200688 11.561268 -2.0089602
7.3807187 11.500321 -2.0061486
7.4403577 11.438238 -2.0031891
7.4984245 11.374206 -1.9999334
7.5609307 11.317291 -1.9980096
7.6230216 11.260039 -1.9960859
7.6852541 11.203268 -1.99431
7.7549806 11.157525 -1.994606
7.8244348 11.111349 -1.994902
7.885572 11.053469 -1.9931262
7.947453 10.996861 -1.9916464
8.0071831 10.937515 -1.9897226
8.0641279 10.874675 -1.9872069
8.118228 10.808384 -1.9840993
8.1682243 10.737118 -1.9801039
8.2194643 10.667995 -1.9765522
8.2713804 10.600208 -1.9732966
8.3313608 10.543049 -1.9721128
8.3903322 10.484781 -1.970781
8.4476585 10.42465 -1.9691532
8.5039349 10.363446 -1.9673773
8.5559855 10.297381 -1.9647137
8.6139135 10.238635 -1.9635298
8.6637468 10.170532 -1.9605702
8.7104855 10.099208 -1.9570186
8.765132 10.037377 -1.9553908
8.8232794 9.9797029 -1.9546509
8.8704948 9.9099026 -1.9515432
8.9198427 9.8428307 -1.9490275
8.9660273 9.7726116 -1.94592
9.0184183 9.7094431 -1.9442922
9.0771465 9.653204 -1.9441441
9.1246128 9.5851488 -1.9416285
9.1702147 9.5154524 -1.9388168
9.2139225 9.4441404 -1.9357092
9.2487612 9.3642092 -1.9308258
9.2850647 9.2863045 -1.9263864
9.3341303 9.2215128 -1.9247586
9.3926601 9.1661377 -1.9252025
9.4344835 9.0946064 -1.9222429
9.4793653 9.0263176 -1.9200231
9.5223236 8.9564657 -1.9175074
9.5647821 8.886426 -1.9149917
9.6118402 8.8208847 -1.9135119
9.6591883 8.755764 -1.9121801
9.7060986 8.6903944 -1.9108483
9.7525711 8.6247797 -1.9095163
9.7918997 8.5530663 -1.9068527
9.8344612 8.4844265 -1.9049289
9.8735371 8.4130201 -1.9024132
9.907567 8.3376341 -1.8990097
9.9501724 8.2697325 -1.8973819
9.970911 8.1840553 -1.8916105
9.9917421 8.0990591 -1.8859873
10.014996 8.0165882 -1.8809558
10.060893 7.9525332 -1.8803639
10.110279 7.8912592 -1.8805119
10.152241 7.8242464 -1.879328
10.199271 7.7612071 -1.8791801
10.238003 7.6919456 -1.8775523
10.273886 7.6207337 -1.8754805
10.308483 7.5487876 -1.8732607
10.336973 7.4726486 -1.8700051
10.349622 7.3855309 -1.8639379
10.385849 7.3156238 -1.8623101
10.423233 7.2466793 -1.8609782
10.472394 7.1859441 -1.8618661
10.517108 7.1221061 -1.8620142
10.544987 7.0470009 -1.8592025
10.578945 6.9761772 -1.8575747
10.6058 6.900888 -1.854763
10.622142 6.8191214 -1.8501756
10.652921 6.7469387 -1.8482518
10.689086 6.6783028 -1.8473639
10.722284 6.6079211 -1.846032
10.747415 6.5327606 -1.8433684
10.800021 6.4743195 -1.8455881
10.834435 6.4049106 -1.8447002
10.869259 6.3358212 -1.8439603
10.907072 6.2685165 -1.8438123
10.941028 6.1990371 -1.8430724
10.977131 6.1308231 -1.8427764
11.018008 6.0652604 -1.8433684
11.055886 5.9980125 -1.8435163
11.090736 5.9291296 -1.8432205
11.133034 5.8641925 -1.8442563
11.190753 5.8071575 -1.8479558
11.228816 5.7397332 -1.8483998
11.239971 5.658721 -1.8444042
11.289545 5.5971136 -1.84692
11.33523 5.5333762 -1.8488437
11.366294 5.4624352 -1.8483998
11.413008 5.3989325 -1.8506196
11.441437 5.3267155 -1.8498796
11.487393 5.2625895 -1.8520993
11.523976 5.1940365 -1.8528392
11.535738 5.1144123 -1.8495836
11.58594 5.0518332 -1.8526913
11.61672 4.980648 -1.8526913
11.631569 4.9027467 -1.8501756
11.674225 4.8365827 -1.8522474
11.71559 4.7697067 -1.854171
11.740044 4.6958952 -1.8534312
11.755749 4.6187096 -1.8513595
11.782022 4.5457788 -1.8510635
11.824492 4.4790039 -1.8534312
11.85824 4.4087777 -1.854467
11.891573 4.3383064 -1.855503
11.91983 4.2659254 -1.8557988
11.945782 4.1927066 -1.8557988
11.982505 4.1231904 -1.8575747
11.996333 4.0457978 -1.8557988
12.014359 3.9699421 -1.854763
12.015908 3.8888421 -1.8512114
12.048971 3.8180273 -1.8526913
12.092009 3.7501745 -1.8557988
12.121417 3.6779182 -1.8568348
12.15134 3.6057234 -1.8580186
12.178936 3.5327489 -1.8589065
12.221316 3.4638851 -1.8621621
12.218512 3.3822372 -1.8584626
12.229486 3.3046234 -1.8569827
12.267704 3.2343111 -1.8597944
12.292108 3.1602077 -1.8605343
12.293039 3.0801599 -1.8577226
12.323236 3.0074861 -1.8594985
12.37225 2.9391272 -1.8642339
12.38427 2.8618217 -1.863346
12.42765 2.7916293 -1.8673415
12.444545 2.7153223 -1.8673415
12.468712 2.6405513 -1.8685254
12.499211 2.566978 -1.8707451
12.511817 2.4896572 -1.8703011
12.5288 2.4132133 -1.8705971
12.560872 2.3395505 -1.8732607
12.54871 2.2577085 -1.8692653
12.561353 2.1804996 -1.8691173
12.568643 2.1024051 -1.8682294
12.581306 2.0252457 -1.8682294
12.589586 1.9474058 -1.8676375
6.4938407 0.96430135 -0.94378567
6.1481166 0.87450504 -0.89066011
6.0093074 0.81720203 -0.8689068
5.9347644 0.77002221 -0.85692024
5.9207277 0.7312929 -0.85410857
5.9064403 0.69276494 -0.8512969
5.9095969 0.65640163 -0.8511489
5.9095788 0.61971688 -0.85055703
5.905396 0.58266938 -0.84937316
5.8999968 0.54560572 -0.8480413
5.8933802 0.5085454 -0.84656149
5.8865309 0.47158691 -0.84508169
5.8784642 0.43465889 -0.84345388
5.8760872 0.39824775 -0.84271395
0 0 -0
0 0 -0
5.8616781 0.28900209 -0.83960634
0 0 -0
0 0 -0
0 0 -0
5.8749146 0.14525627 -0.84079021
5.8786621 0.10926028 -0.84123415
0 0 -0
0 0 -0
0 -0 -0
0 -0 -0
0 -0 -0
0 -0 -0
0 -0 -0
0 -0 -0
0 -0 -0
0 -0 -0
0 -0 -0
0 -0 -0
0 -0 -0
0 -0 -0
0 -0 -0
0 -0 -0
0 -0 -0
6.2163081 -0.57273161 -0.89554352
11.537338 -1.135414 -1.6961263
11.514416 -1.2045364 -1.6937586
11.489116 -1.2732024 -1.6910949
10.572483 -1.2372444 -1.5542115
10.564692 -1.3020926 -1.5542115
10.559446 -1.3672731 -1.5546554
10.554778 -1.4325714 -1.5552474
10.560476 -1.4993943 -1.5574671
10.556948 -1.5650347 -1.558355
11.092521 -1.7141155 -1.640929
11.07203 -1.7805744 -1.6394491
11.045289 -1.8458676 -1.6370815
11.028883 -1.91276 -1.6363416
11.014992 -1.9800458 -1.6360456
10.999719 -2.0470521 -1.6356016
10.995691 -2.1161897 -1.6369334
10.97765 -2.1826534 -1.6361935
10.961144 -2.2493732 -1.6357496
10.941331 -2.3153579 -1.6348617
10.909525 -2.378655 -1.6321981
10.888935 -2.4442496 -1.6313101
8.2912655 -1.914377 -1.2347183
10.836951 -2.5726616 -1.6280545
10.844982 -2.6449685 -1.6317542
10.830467 -2.7119429 -1.63205
10.810749 -2.7776077 -1.6316061
7.5142655 -1.9795049 -1.1241758
7.5210733 -2.0307333 -1.1271354
10.730149 -2.9684775 -1.6273147
10.723151 -3.0374963 -1.6290904
10.71761 -3.1070917 -1.6311622
10.705929 -3.1750457 -1.632346
7.9795465 -2.4195435 -1.2091174
7.9456577 -2.4626014 -1.2061578
7.925684 -2.5098152 -1.2054179
7.9214263 -2.5620527 -1.2071937
10.567812 -3.4901643 -1.6267227
10.523706 -3.5473573 -1.6231712
10.479298 -3.604141 -1.6196196
10.454186 -3.6673903 -1.6191757
10.381204 -3.713474 -1.6111846
7.7158384 -2.813247 -1.1903237
10.36637 -3.8523045 -1.6162159
10.438725 -3.9522684 -1.6316061
10.453032 -4.0311947 -1.6378213
10.439146 -4.0995965 -1.6395972
10.41104 -4.1624713 -1.6391532
10.37706 -4.222918 -1.6378213
10.31075 -4.2698574 -1.6313101
10.275244 -4.3292017 -1.6298304
10.213036 -4.3769703 -1.6240591
10.141565 -4.420187 -1.6168079
10.105211 -4.4783235 -1.6153281
10.045082 -4.5256152 -1.6100007
9.9937468 -4.576457 -1.6061532
9.9618912 -4.6360221 -1.6055613
9.9323635 -4.6966367 -1.6054133
9.9069242 -4.7592058 -1.6060052
9.8633156 -4.812963 -1.6036376
9.8229656 -4.8681216 -1.6018617
9.7787762 -4.9211874 -1.599494
9.7439928 -4.9788456 -1.5987542
9.7000923 -5.0317078 -1.5965344
9.658535 -5.0856013 -1.5947586
9.6149378 -5.1382422 -1.5926869
9.5745354 -5.1924257 -1.591207
9.5407629 -5.2501225 -1.590911
9.4954166 -5.3013315 -1.5886914
9.4592676 -5.3575449 -1.5880994
9.4219284 -5.4130211 -1.5873595
9.3791389 -5.4652529 -1.5857317
9.3309546 -5.5141439 -1.583216
9.2681036 -5.5540061 -1.5781846
9.2237091 -5.6046057 -1.5764089
9.189146 -5.6610961 -1.5764089
9.1332674 -5.7042732 -1.5727093
9.0822201 -5.7501531 -1.5698977
9.0484314 -5.8068409 -1.5701935
9.0176048 -5.8654876 -1.5710815
8.9863987 -5.923975 -1.5719694
8.9424801 -5.9740577 -1.5706376
8.9056559 -6.0288153 -1.5706376
8.8309832 -6.0576077 -1.5638304
8.7944603 -6.1122441 -1.5639783
8.7446623 -6.1575484 -1.5617586
8.6608267 -6.1783462 -1.5533236
8.645998 -6.2481732 -1.5576152
8.5995178 -6.2952638 -1.5561353
8.5559626 -6.3443756 -1.5552474
8.5239897 -6.402101 -1.5565792
8.4577866 -6.4339213 -1.5515479
8.4095325 -6.4790559 -1.5499201
8.3657217 -6.5274911 -1.5491802
8.3216324 -6.5756335 -1.5484402
8.2942543 -6.6370759 -1.5509559
8.2410812 -6.6778803 -1.5485882
8.1831322 -6.7145176 -1.5453326
8.1067905 -6.7355251 -1.5385255
8.066823 -6.7864141 -1.5388213
8.0159969 -6.8280869 -1.5370456
7.9447441 -6.8519492 -1.5312743
7.923408 -6.9187846 -1.5354178
7.917109 -6.9993734 -1.5426689
7.8570652 -7.0326476 -1.5392654
7.7822566 -7.0521655 -1.5329021
7.7351952 -7.0964403 -1.5321622
7.6849856 -7.137711 -1.5308304
7.6367221 -7.1806655 -1.5299425
7.5896535 -7.2246604 -1.5293505
7.5430446 -7.2690349 -1.5289066
7.4869757 -7.3041301 -1.5265388
7.4068379 -7.3151798 -1.5191398
7.1212521 -7.1199179 -1.4682339
7.0690908 -7.1550355 -1.4664582
7.0112419 -7.1841187 -1.4634986
6.9505577 -7.2099137 -1.459947
6.8870935 -7.2323694 -1.4558035
6.8371668 -7.2687283 -1.4546196
6.7749372 -7.2917037 -1.450772
6.7260571 -7.3287644 -1.4498842
6.6776414 -7.3662329 -1.4491442
6.6151667 -7.3879089 -1.4452968
2.1778769 -2.4613476 -0.45322526
2.1653357 -2.4776442 -0.45381719
2.1462166 -2.4863904 -0.45292929
6.4363551 -7.553298 -1.4463326
6.4268179 -7.6365404 -1.4549156
6.3722553 -7.6667027 -1.4531398
6.2818031 -7.6529064 -1.442929
6.2204061 -7.673635 -1.4395255
6.2164617 -7.7657089 -1.4498842
6.1785064 -7.8161211 -1.4522519
2.0088527 -2.5723319 -0.44982168
1.9857875 -2.5752089 -0.44804588
1.9645596 -2.5802612 -0.44671404
1.9463145 -2.5891039 -0.44612214
1.9274458 -2.5970256 -0.44538221
1.8390288 -2.5098543 -0.42703244
1.8195388 -2.5154803 -0.42599657
1.8207275 -2.5499449 -0.43028805
5.9329967 -8.4225788 -1.5030098
5.8947525 -8.4783144 -1.5065613
5.8442984 -8.5167704 -1.5070052
5.7980294 -8.5614786 -1.508633
5.7569261 -8.6141624 -1.5117407
5.7023292 -8.6468468 -1.5112967
5.6308293 -8.6534863 -1.5062654
5.5535874 -8.6504202 -1.4996061
1.7999557 -2.8404038 -0.46461987
1.7788259 -2.8455231 -0.46358401
1.7675581 -2.8664882 -0.46535978
5.2687435 -8.6674747 -1.4791846
5.2718968 -8.7938004 -1.4956106
5.2284069 -8.8438625 -1.4987183
5.1556187 -8.844161 -1.493243
5.1076603 -8.8867769 -1.4951667
5.0530357 -8.9179497 -1.4951667
4.9943638 -8.9418783 -1.4939828
4.9384499 -8.9706221 -1.4936869
4.8908587 -9.0146646 -1.4960546
4.8312578 -9.0366545 -1.4947227
4.771111 -9.0573778 -1.493243
4.7263765 -9.1075516 -1.4967945
4.6686049 -9.1328583 -1.4962026
4.6098108 -9.1560316 -1.4953147
4.5535436 -9.184145 -1.4953147
4.4958038 -9.2092457 -1.4948708
4.4430671 -9.2446804 -1.4962026
4.3803396 -9.2592516 -1.4941308
4.3176007 -9.2734022 -1.4920591
4.2536178 -9.2844343 -1.4895434
4.1957569 -9.3085556 -1.4892474
4.1429701 -9.3440704 -1.4908752
4.0855579 -9.3693161 -1.4908752
4.0283818 -9.3951168 -1.4910232
3.9710424 -9.4205694 -1.4911712
3.911272 -9.4401894 -1.4904313
3.8540201 -9.4658422 -1.4907272
3.793663 -9.4838028 -1.4898393
3.7335923 -9.5022984 -1.4890994
3.6734374 -9.5204153 -1.4883596
3.6096983 -9.5289021 -1.4861398
3.5487502 -9.5443821 -1.485104
3.4901202 -9.5659771 -1.485104
3.4413536 -9.6151476 -1.4895434
3.3799992 -9.62955 -1.4885075
3.3163459 -9.6370153 -1.4864358
3.25494 -9.6506224 -1.4853998
3.2003169 -9.6844988 -1.4876196
3.139616 -9.7001896 -1.4870276
3.075259 -9.7041864 -1.48466
3.0168288 -9.7266512 -1.4852519
2.9593871 -9.7525501 -1.4864358
2.9028659 -9.7819033 -1.4882115
2.8422396 -9.7976313 -1.4879156
2.7809906 -9.81108 -1.4873236
2.72153 -9.8308191 -1.4877676
2.6637368 -9.8568802 -1.4892474
2.6052225 -9.8806896 -1.4904313
2.5462697 -9.9031944 -1.4914671
2.4861777 -9.9215097 -1.4919111
2.4247849 -9.9346561 -1.4916152
2.3642385 -9.951272 -1.4919111
2.3051374 -9.9742632 -1.493243
2.2443264 -9.9901495 -1.4935389
2.1821427 -9.9998674 -1.492947
2.1178763 -9.9995232 -1.4908752
0.53572655 -2.6039996 -0.35925668
0.52263242 -2.6217878 -0.36147642
0.50747043 -2.629801 -0.36221632
0.49367777 -2.645505 -0.36414009
0.47901127 -2.6572447 -0.36547193
0.46489546 -2.6728015 -0.3673957
0.45631436 -2.7224255 -0.37449881
0.44022962 -2.7290797 -0.37509075
0.42075634 -2.7141368 -0.37242708
0.40264386 -2.7068844 -0.37094727
0.38783529 -2.7220333 -0.37287101
0.37325516 -2.7400415 -0.37523875
0.35643554 -2.7422802 -0.37523875
0.34371793 -2.7777886 -0.38027012
0.32275671 -2.7464478 -0.37523875
0.30328307 -2.7247853 -0.37168717
0.28861746 -2.7462673 -0.37464681
1.0013487 -10.157269 -1.4886554
0.72563016 -7.8508978 -1.1411937
0.67506903 -7.8276124 -1.1370502
0.6251362 -7.8079472 -1.1334987
0.57910687 -7.8372798 -1.1373461
0.53227419 -7.8594337 -1.1401578
0.22596298 -3.6603384 -0.51019835
0.19984339 -3.5954945 -0.50028354
0.17690498 -3.5788727 -0.49761987
0.15498455 -3.580879 -0.49776787
0.12962639 -3.4898486 -0.48400551
0.10639171 -3.4312668 -0.47512659
0.086257331 -3.4694254 -0.48074993
0.189136 -10.222561 -1.4913192
0.12658972 -10.238362 -1.4935389
0.021922389 -3.3952634 -0.46950328
0.00093959243 -10.245079 -1.4944268
-0.061935227 -10.24687 -1.4947227
-0.12463746 -10.232452 -1.492651
-0.18727446 -10.223584 -1.4914671
-0.24995308 -10.220265 -1.4911712
-0.31253731 -10.214585 -1.4905792
-0.37520695 -10.212475 -1.4905792
-0.43798992 -10.212945 -1.4910232
-0.50030726 -10.203151 -1.4899874
-0.56279397 -10.197914 -1.4896914
-0.62565994 -10.199204 -1.4904313
-0.69043118 -10.227736 -1.4953147
-0.7649641 -10.383089 -1.5192878
-0.84757757 -10.614802 -1.5548035
-0.91286254 -10.611372 -1.5550994
-0.97859192 -10.612465 -1.5561353
-1.0465991 -10.635787 -1.5605748
-1.1138994 -10.648837 -1.5635344
-1.1807449 -10.655563 -1.5656061
-1.2488654 -10.671693 -1.5691577
-1.3185601 -10.698183 -1.5743371
-1.3138891 -10.147515 -1.492503
-1.3750634 -10.131423 -1.4913192
-1.4381768 -10.129649 -1.492355
-1.4881126 -10.038458 -1.4799246
-0.45348835 -2.9402473 -0.40661094
-0.47733465 -2.9735372 -0.41208625
-1.6776923 -10.039604 -1.484512
-0.52207452 -3.0152025 -0.41933739
-0.54511762 -3.03725 -0.4231849
-0.5626573 -3.0280144 -0.42229703
-1.9377838 -10.069216 -1.4957587
-2.0010746 -10.064896 -1.4969425
-2.0635896 -10.056303 -1.4975344
-2.1234114 -10.034744 -1.4962026
-0.61501634 -2.8247731 -0.39403245
-0.63732153 -2.8431401 -0.39743605
-0.64807594 -2.8102679 -0.39299658
-2.3752074 -10.00559 -1.5001981
-2.4339769 -9.9802589 -1.4985703
-2.491564 -9.9507465 -1.4963505
-0.93942004 -3.6594164 -0.52677232
-0.76069593 -2.8904362 -0.40868267
-0.77506369 -2.8733025 -0.4067589
-0.78476548 -2.8398979 -0.40231946
-0.78518862 -2.7750833 -0.39299658
-0.81294489 -2.8072574 -0.39876789
-2.9170964 -9.836482 -1.4966465
-2.9699321 -9.7937918 -1.492799
-0.99394619 -3.2093396 -0.46417594
-1.0195937 -3.2220366 -0.46713558
-3.1831934 -9.840971 -1.509077
-3.2140431 -9.7320423 -1.4950187
-3.2718012 -9.7065153 -1.4941308
-3.3367674 -9.7021551 -1.4966465
-1.1290835 -3.220973 -0.47216696
-1.1484926 -3.2130535 -0.47201899
-3.4795406 -9.5424652 -1.4812564
-3.5769668 -9.6256876 -1.4979783
-1.1548972 -3.0526371 -0.44982168
-1.1906918 -3.0897837 -0.45692483
-3.7824667 -9.6318579 -1.5098169
-1.2068509 -3.020761 -0.44819388
-1.244007 -3.0590992 -0.45559299
-3.9549534 -9.5505524 -1.5081891
-4.0123281 -9.5233717 -1.5077451
-4.071466 -9.500391 -1.5080411
-4.1288924 -9.4734173 -1.5077451
-4.191752 -9.4587536 -1.509521
-4.2566185 -9.448184 -1.5120367
-4.3198657 -9.4335766 -1.5139604
-1.326249 -2.8518138 -0.43206385
-1.3428768 -2.8418343 -0.43176788
-1.362002 -2.8371067 -0.43235978
-1.3741789 -2.8180311 -0.43058401
-4.6085238 -9.2992849 -1.5144044
-4.6597152 -9.2593489 -1.5124806
-4.7218432 -9.2411499 -1.5142564
-4.7834673 -9.2216597 -1.5158842
-4.8450298 -9.2017612 -1.517512
-4.8911424 -9.1526709 -1.5142564
-4.9462671 -9.1207485 -1.5139604
-4.7360311 -8.6067677 -1.4313865
-4.7414961 -8.4929256 -1.4168842
-4.7608566 -8.4060192 -1.4069694
-4.7748957 -8.3114805 -1.3957227
-4.8103657 -8.255538 -1.3911353
-4.8553944 -8.2165012 -1.3895075
-4.8884311 -8.1577129 -1.3844762
-4.9070606 -8.0760107 -1.3754493
-4.9845386 -8.0912161 -1.3834403
-4.9371538 -7.9053068 -1.3560636
-5.0786929 -8.0219193 -1.3821084
-5.2074208 -8.1146154 -1.4041578
-5.2641249 -8.0932875 -1.4060816
-5.3403616 -8.1012926 -1.4133326
-5.4537082 -8.1637592 -1.4304986
-5.3894691 -7.9614453 -1.4000143
-5.4247894 -7.9086542 -1.3964627
-5.5065203 -7.9231305 -1.4051937
-5.5743947 -7.9166851 -1.410225
-5.6222911 -7.8815274 -1.4100771
-5.6577992 -7.829248 -1.4068215
-5.6911254 -7.774436 -1.4031218
-6.2825141 -8.4725561 -1.5397093
-6.3438869 -8.4464989 -1.5420769
-6.4818301 -8.520752 -1.5633864
-1.7160236 -2.2287247 -0.38234186
-1.7302749 -2.2189331 -0.38248986
-1.7432443 -2.2074988 -0.38234186
-1.7617004 -2.2029378 -0.38352573
-1.7702024 -2.1859403 -0.38234186
-6.7584372 -8.2366467 -1.5556914
-6.8176985 -8.2056713 -1.5577631
-6.8723764 -8.1689816 -1.558799
-6.9326334 -8.1387043 -1.5611666
-6.9876089 -8.1020041 -1.5623505
-7.0371904 -8.0589762 -1.5623505
-7.0845413 -8.013423 -1.5619066
-7.1375356 -7.9742231 -1.5627944
-7.1903152 -7.9346743 -1.5636824
-7.2415409 -7.893321 -1.5642743
-7.2918563 -7.8509126 -1.5647182
-7.3432789 -7.8096251 -1.5654582
-7.3971977 -7.7708669 -1.56679
-7.4577799 -7.7388616 -1.5696017
-7.5210104 -7.7092357 -1.5730052
-7.5869379 -7.6819396 -1.5770007
-7.6192446 -7.6205568 -1.5738932
-7.6672668 -7.5750527 -1.5741891
-3.4904754 -3.4073169 -0.69132835
-3.4244416 -3.3021052 -0.67327452
-3.3608327 -3.2012448 -0.65596062
-3.4157145 -3.2137618 -0.66321176
-7.9032683 -7.3430266 -1.5756689
-3.5372403 -3.2471592 -0.67993373
-3.2639747 -2.9597342 -0.62074089
-3.3697615 -3.0181484 -0.63835078
-3.5727017 -3.1605365 -0.67519832
-3.4609232 -3.0240591 -0.64915347
-3.4374757 -2.9665923 -0.64086646
-3.4322758 -2.9255624 -0.63627905
-3.7755675 -3.1782396 -0.6999113
-3.7873912 -3.1486926 -0.69843149
-3.866272 -3.1743309 -0.70997405
-5.2272129 -4.2377634 -0.96835071
-5.357358 -4.2890353 -0.98832828
-5.3393459 -4.2211289 -0.97989327
-5.3682647 -4.190722 -0.9804852
-5.4714336 -4.2174649 -0.99513543
-5.4594283 -4.1550694 -0.98803228
-5.5069618 -4.1381245 -0.99217582
-5.5449591 -4.1136823 -0.99454349
-5.4775305 -4.0118103 -0.97737759
-5.6447186 -4.0812459 -1.0037184
-5.7066884 -4.0729566 -1.0105256
-5.6224117 -3.9609883 -0.99054801
-5.8171458 -4.0449557 -1.0216242
-5.7725363 -3.9616301 -1.0090457
-5.6026468 -3.7947261 -0.97397399
-5.7565756 -3.8476379 -0.99750316
-5.6298013 -3.7131667 -0.97057045
-5.7453279 -3.7389548 -0.98714441
-5.6566329 -3.6320481 -0.96731484
-5.7506709 -3.6427732 -0.98004127
-5.6361909 -3.5220149 -0.95592022
-5.6450653 -3.4795835 -0.95370048
-5.8666124 -3.5666084 -0.98877221
-5.96134 -3.5742688 -1.0014987
-5.9848619 -3.53863 -1.0017946
-5.9150333 -3.4485574 -0.98596054
-5.9643798 -3.4284585 -0.99084395
-5.7796402 -3.275296 -0.95547628
-5.8609362 -3.2740047 -0.96598297
-5.9181719 -3.2584858 -0.97234619
-5.8989334 -3.2008924 -0.96568704
-5.8661294 -3.1366658 -0.95680809
-5.9596457 -3.1397831 -0.96938658
-5.8918891 -3.0580668 -0.95473635
-5.9281554 -3.0308585 -0.95769596
-5.9139547 -2.9779751 -0.95222068
-6.065033 -3.0075138 -0.97441798
-6.0016036 -2.930336 -0.96080363
-6.1915178 -2.9761188 -0.98936415
-6.2436361 -2.9541399 -0.99498743
-6.3235116 -2.9445701 -1.0051982
-6.2947035 -2.8842995 -0.99750316
-6.2789207 -2.8305886 -0.99202782
-5.8079281 -2.575598 -0.91211754
-5.8580728 -2.5549307 -0.91774082
-6.2636018 -2.6860912 -0.98122513
-6.3346481 -2.670651 -0.99010408
-6.3298998 -2.6230276 -0.98670048
-6.5968652 -2.686296 -1.0272475
-6.6426091 -2.6575184 -1.031983
-6.6228895 -2.6026089 -1.0262116
-6.5464616 -2.5263314 -1.0114135
-6.4804487 -2.4552941 -0.99839103
-6.4963193 -2.4158292 -0.99853903
-6.4961543 -2.370501 -0.9961713
-6.501265 -2.3272653 -0.99469149
-6.5508847 -2.2997732 -1.0003148
-6.5059547 -2.2392666 -0.99099195
-6.6067281 -2.2286894 -1.0047543
-6.6174612 -2.1871789 -1.0043104
-6.6335797 -2.1474469 -1.0047543
-6.8021965 -2.1559825 -1.0291713
-6.7378373 -2.0901892 -1.0170368
-6.7997489 -2.0637348 -1.0247319
-6.8473654 -2.0323799 -1.0302072
-6.8616071 -1.9908779 -1.0305032
-6.8632264 -1.9457728 -1.0288754
-6.6987 -1.8548294 -1.0014987
-6.8273916 -1.8454139 -1.0197004
-6.8959665 -1.8186095 -1.0285794
-6.9022059 -1.7750316 -1.0278394
-7.1748719 -1.7982446 -1.0682386
-7.3327751 -1.7900486 -1.0908798
-7.3638272 -1.7498202 -1.0939875
-7.7540903 -1.7923021 -1.1522924
-7.9183712 -1.7791404 -1.1758215
-8.2151566 -1.7929006 -1.2196242
-8.2385807 -1.7451221 -1.221548
-9.0047894 -1.8496563 -1.3369739
-9.378746 -1.8665217 -1.3923192
-9.8386965 -1.8953179 -1.4606869
-10.323644 -1.9230617 -1.5327542
-11.271638 -2.0280638 -1.6751128
-11.309205 -1.9632596 -1.6789603
-11.57173 -1.9357412 -1.7169918
-11.902684 -1.9160697 -1.7653819
-12.22991 -1.8918034 -1.8131801
-12.946634 -1.9213389 -1.9198751
-13.056096 -1.8557725 -1.9346733
-13.116237 -1.7822808 -1.9420724
-13.174004 -1.7078665 -1.9491756
-13.139084 -1.6214323 -1.9423684
-13.058415 -1.5302004 -1.9287541
-13.062644 -1.4495016 -1.9280142
-13.12244 -1.3746771 -1.9357092
-13.141455 -1.2951995 -1.937337
-13.156048 -1.2151768 -1.9383729
-13.151432 -1.133412 -1.9365971
-13.142365 -1.0514344 -1.9342294
-13.132789 -0.96961087 -1.9318616
-13.130597 -0.88847792 -1.9306778
-13.12593 -0.8072871 -1.929198
-13.127674 -0.72656906 -1.9287541
-13.144726 -0.64663601 -1.9306778
-13.149435 -0.56601179 -1.9308258
-13.14673 -0.48509943 -1.9299378
-13.140562 -0.40415064 -1.928606
-13.10127 -0.32249558 -1.9223908
-13.106957 -0.24217436 -1.9229827
-13.103251 -0.16168645 -1.9222429
-13.102019 -0.081271268 -1.9219469
-13.120073 -0.00087686977 -1.9246105
-13.097085 0.079486333 -1.921207
-13.104262 0.15994431 -1.9223908
-13.091168 0.24012883 -1.9206151
-13.113177 0.32103324 -1.9241666
-13.113926 0.4015792 -1.9246105
-13.098367 0.48156369 -1.9226868
-13.092201 0.5617972 -1.9222429
-13.070727 0.64124501 -1.9195791
-13.038898 0.71990436 -1.9154357
-13.058913 0.80141264 -1.9191352
-13.063617 0.88219279 -1.9206151
-12.118398 -0.30634901 -1.9181354
-12.120049 -0.23198615 -1.9181354
-12.121244 -0.15761456 -1.9181354
-12.124946 -0.083257474 -1.9186134
-12.096599 -0.0088367769 -1.9139919
-12.119131 0.065508708 -1.9176573
-12.103693 0.13969865 -1.9152668
-12.093724 0.21380612 -1.9138325
-12.106002 0.28833643 -1.9160637
-12.097097 0.36240533 -1.9149481
-12.099579 0.43680283 -1.9157449
-12.096671 0.51103622 -1.9157449
-12.066684 0.5839628 -1.911442
-12.057945 0.65772295 -1.9106452
-12.043828 0.73109883 -1.9090515
-12.077532 0.80755198 -1.9152668
-12.059549 0.88070881 -1.913195
-12.027347 0.95258456 -1.9088923
-11.997667 1.0243503 -1.9050674
-12.009835 1.0996569 -1.9080954
-12.020548 1.1750555 -1.910964
-12.01213 1.248688 -1.9108046
-11.993447 1.3211808 -1.9090515
-11.967464 1.3926929 -1.906183
-11.959674 1.4662178 -1.9063424
-11.950452 1.5395733 -1.9063424
-11.922192 1.6103607 -1.9033145
-11.930659 1.6861079 -1.9063424
-11.895673 1.7556785 -1.9023583
-11.9159 1.8334391 -1.9074579
-11.879081 1.9024611 -1.9033145
-11.87887 1.9772586 -1.9052268
-11.863596 2.0496047 -1.9047488
-11.848852 2.1220117 -1.90443
-11.786104 2.185497 -1.8963025
-11.758899 2.2551713 -1.8940713
-11.734188 2.3251696 -1.8923184
-11.728405 2.3989058 -1.8937526
-11.743409 2.4771402 -1.898693
-11.706765 2.5445375 -1.8951869
-11.698639 2.6180456 -1.8964618
-11.640986 2.6802545 -1.8896091
-11.643536 2.7561791 -1.8927964
-11.634079 2.8294368 -1.8940713
-11.61171 2.8995731 -1.8932745
-11.602306 2.9729717 -1.8947088
-11.598168 3.0478694 -1.8970993
-11.590688 3.1220579 -1.8990116
-11.558942 3.1897047 -1.8969399
-11.497351 3.2487588 -1.8899279
-11.498064 3.3252773 -1.8934339
-11.469872 3.3935251 -1.892159
-11.398751 3.4486887 -1.8837126
-11.425477 3.5334392 -1.8918402
-11.392285 3.5999091 -1.8899279
-11.344616 3.6615567 -1.885625
-11.325686 3.7323327 -1.8862625
-11.2876 3.7967203 -1.8837126
-11.257555 3.8636651 -1.8825971
-11.229909 3.9313629 -1.8819597
-11.236257 4.0111461 -1.8872187
-11.210505 4.0796776 -1.8870593
-11.229692 4.1648636 -1.8947088
-11.163292 4.2183361 -1.8876967
-11.092052 4.2693782 -1.8798879
-11.070243 4.3391585 -1.8806847
-11.058081 4.4128566 -1.8832346
-10.995125 4.4661365 -1.8770194
-10.983936 4.5403051 -1.8798879
-10.94768 4.6041718 -1.8784536
-10.924669 4.6735883 -1.8794098
-10.873156 4.7306871 -1.8754257
-10.870107 4.8088965 -1.8800473
-10.815185 4.8641663 -1.8755851
-10.79591 4.9353604 -1.8774974
-10.763633 5.0006781 -1.8771788
-10.700607 5.0514579 -1.8714416
-10.66763 5.1161666 -1.8711228
-10.695501 5.2104917 -1.8818003
-10.659789 5.2742691 -1.8811629
-10.596352 5.3240652 -1.8755851
-10.574037 5.3943663 -1.8774974
-10.530219 5.4536977 -1.8755851
-10.482576 5.5108576 -1.8730353
-10.455533 5.5787916 -1.8743101
-10.40027 5.6315594 -1.8704854
-10.388016 5.7076278 -1.8746289
-10.371769 5.7818346 -1.878135
-10.314614 5.8332171 -1.8741508
-10.266639 5.8895197 -1.8719198
-10.227749 5.9509144 -1.8714416
-10.181689 6.00804 -1.8696886
-10.183602 6.0937176 -1.8770194
-10.149396 6.1581364 -1.8776568
-10.087875 6.2058134 -1.8731946
-10.069711 6.2801318 -1.8770194
-10.051015 6.3544607 -1.8808441
-10.025134 6.4245353 -1.8833939
-9.9590321 6.46872 -1.8782942
-9.9257498 6.5340481 -1.8795692
-9.8969688 6.6024981 -1.8818003
-9.902072 6.6940613 -1.8907247
-9.8591824 6.7535777 -1.890406
-9.8783855 6.8561602 -1.9023583
-9.8369389 6.9172115 -1.9025177
-9.8345137 7.0060787 -1.9104859
-9.756917 7.0414491 -1.9036332
-9.7159185 7.1029315 -1.9041113
-9.7157888 7.194725 -1.9128764
-9.624074 7.2186646 -1.9033145
-9.59375 7.2883301 -1.906183
-9.5777998 7.3693323 -1.9120796
-9.5401897 7.4340296 -1.9136732
-9.4928455 7.4912038 -1.9133544
-9.4590416 7.5591707 -1.9159043
-9.4140158 7.61831 -1.9162229
-9.3915291 7.6959524 -1.9213227
-9.34793 7.7565846 -1.9221195
-9.3046951 7.8176064 -1.9230757
-9.2535448 7.8719931 -1.9224381
-9.2005806 7.9247584 -1.921482
-9.1473179 7.97717 -1.9205258
-9.1204004 8.0527477 -1.9253068
-9.0870104 8.1230326 -1.9288127
-9.0655451 8.2044706 -1.935028
-9.0099373 8.2552729 -1.9339124
-8.9656286 8.3164434 -1.9353467
-8.9101133 8.3672447 -1.9343905
-8.8729153 8.4353619 -1.9375778
-8.8430405 8.5108681 -1.9425181
-8.7800455 8.5546341 -1.9401276
-8.7316074 8.6125059 -1.9410838
-8.6667213 8.6540613 -1.9383746
-8.6252613 8.7190075 -1.9410838
-8.5895395 8.7901239 -1.9452273
-8.5464134 8.8540277 -1.9477772
-8.508276 8.9234476 -1.9516019
-8.4384708 8.9596758 -1.9480958
-8.3725777 8.9997206 -1.945546
-8.3265505 9.0611 -1.9477772
-8.2907019 9.1339502 -1.952558
-8.2404327 9.1912642 -1.9539924
-8.1910801 9.2497826 -1.9557453
-8.1738186 9.3451958 -1.9654665
-8.1008339 9.377244 -1.9616418
-8.0373764 9.4200144 -1.9602076
-7.9806976 9.4706631 -1.9605262
-7.8997016 9.492137 -1.9547892
-7.8557281 9.557971 -1.9584545
-7.8075104 9.6190233 -1.9611638
-7.7631612 9.685235 -1.9649885
-7.7201314 9.7535868 -1.9692913
-7.6674347 9.8101063 -1.9712037
-7.6191602 9.8725986 -1.974391
-7.560833 9.9223042 -1.9750284
-7.4962473 9.9637766 -1.9740722
-7.4290829 10.00166 -1.9724786
-7.3722444 10.053424 -1.9737535
-7.2837887 10.061687 -1.9664228
-7.2477446 10.142333 -1.9735942
-7.1865139 10.188227 -1.9739128
-7.1413522 10.257246 -1.9788531
-7.079958 10.303312 -1.9793313
-7.0215917 10.353913 -1.9807656
-6.9711075 10.416492 -1.9845903
-6.8940043 10.4393 -1.9807656
-6.8492241 10.51118 -1.9865026
-6.7803283 10.546365 -1.9852277
-6.7149606 10.586936 -1.9850683
-6.6472554 10.623755 -1.9842715
-6.5834999 10.666862 -1.9847497
-6.5266523 10.721392 -1.9874588
-6.4683671 10.773932 -1.9898493
-6.4036469 10.815967 -1.9903274
-6.3341742 10.84994 -1.9893712
-6.2674809 10.888601 -1.9893712
-6.204937 10.93458 -1.9908055
-6.1343532 10.966416 -1.9896899
-6.0626588 10.996069 -1.9882556
-5.9908319 11.025255 -1.9868214
-5.9240012 11.063547 -1.9871401
-5.866601 11.11977 -1.9908055
-5.8000822 11.159061 -1.9914429
-5.7292528 11.190046 -1.9906461
-5.6658182 11.235567 -1.9925585
-5.5958934 11.268352 -1.9922397
-5.5201416 11.289173 -1.9898493
-5.4524813 11.326389 -1.9904867
-5.384995 11.364093 -1.9912835
-5.3130784 11.392447 -1.9904867
-5.2443113 11.427525 -1.9909649
-5.1870956 11.488279 -1.9960645
-5.1177092 11.522597 -1.9965426
-5.0706239 11.608062 -2.0061045
-4.9833274 11.601767 -1.9995705
-4.9131985 11.634853 -2.0000486
-4.8466363 11.676634 -2.0021203
-4.7797461 11.718036 -2.0041921
-4.7081227 11.74806 -2.0043514
-4.6348648 11.773972 -2.0038733
-4.5678735 11.816001 -2.0062637
-4.513854 11.892723 -2.0147102
-4.4283886 11.886892 -2.0089731
-4.3770642 11.973181 -2.0191724
-4.3041821 12.001672 -2.019491
-4.2370119 12.046481 -2.0226784
-4.1630163 12.072252 -2.0226784
-4.0929737 12.109727 -2.02475
-4.0285254 12.164602 -2.0298498
-3.9589877 12.205055 -2.0325589
-3.8873117 12.239467 -2.034312
-3.8174143 12.280058 -2.0371804
-3.7540598 12.342918 -2.0438738
-3.6836028 12.383698 -2.0469017
-3.6103053 12.415547 -2.0484953
-3.5359461 12.444114 -2.0496109
-3.4603159 12.46843 -2.0500889
-3.390717 12.515154 -2.0543919
-3.3206747 12.561493 -2.0586946
-3.241811 12.57494 -2.057579
-3.166276 12.601296 -2.0586946
-3.0973463 12.655008 -2.0644319
-3.021698 12.682418 -2.065866
-2.9442689 12.702643 -2.0661848
-2.8743021 12.756104 -2.0720813
-2.7947111 12.767714 -2.071125
-2.7072885 12.742132 -2.0641131
-2.6308467 12.767206 -2.0655472
-2.5511057 12.776331 -2.0644319
-2.4829702 12.845054 -2.0731969
-2.3881409 12.774652 -2.0591729
-2.3316476 12.910502 -2.0790932
-2.2525558 12.925538 -2.0792527
-2.1691151 12.914777 -2.0752685
-2.0860491 12.904454 -2.0714438
-2.0197146 12.999929 -2.0849898
-1.9390368 13.006219 -2.0840335
-1.8529134 12.973893 -2.0768621
-1.7735394 12.986975 -2.0771809
-1.6924158 12.986844 -2.075428
-1.6092936 12.969552 -2.0709658
-1.5270252 12.956633 -2.0673003
-1.4472769 12.963796 -2.0669816
-1.3679124 12.974396 -2.0673003
-1.2952983 13.053277 -2.0787747
-1.2168273 13.078672 -2.0816431
-1.1311717 13.023932 -2.0716033
-1.053143 13.054243 -2.075428
-0.97390437 13.072273 -2.0773404
-0.89131939 13.043531 -2.0717626
-0.81267869 13.071417 -2.075428
-0.73450261 13.112627 -2.0813243
-0.65403122 13.116887 -2.0813243
-0.5743981 13.140379 -2.0845118
-0.49435285 13.15944 -2.0870614
-0.41366082 13.164199 -2.0873802
-0.33350354 13.191162 -2.0913644
-0.2523118 13.180129 -2.0892925
-0.17108785 13.154776 -2.0849898
-0.090348005 13.152617 -2.0845118
-0.0096154762 13.116396 -2.0786152
0.070950255 13.132004 -2.0811651
0.15141177 13.121449 -2.0795715
0.23251283 13.153833 -2.0849898
0.31368834 13.171898 -2.088177
0.39444461 13.167752 -2.0878584
0.47420108 13.136473 -2.0832367
0.55196476 13.066245 -2.0724001
0.63384408 13.09811 -2.0781372
0.71199745 13.053559 -2.0716033
0.7932151 13.067667 -2.0746312
0.86923456 13.000498 -2.0645912
0.95157516 13.030365 -2.0703282
1.0296402 13.000662 -2.0665035
1.1072927 12.969508 -2.0625193
1.1863112 12.956571 -2.0615633
1.265885 12.95003 -2.0617225
1.3483822 12.971478 -2.0665035
1.4278404 12.961978 -2.0663443
1.5002735 12.892176 -2.0564635
1.5842742 12.922903 -2.0629976
1.6674471 12.943292 -2.0679379
1.7433994 12.90738 -2.0637944
1.8279512 12.934563 -2.0700095
1.901085 12.881107 -2.0631568
1.9920942 12.94726 -2.075906
2.0624466 12.878254 -2.0666628
2.1459651 12.892624 -2.071125
2.2167988 12.831546 -2.0633163
2.3031459 12.860459 -2.0703282
2.3798532 12.834437 -2.0684159
2.4529817 12.790507 -2.0636349
2.522975 12.732605 -2.056623
2.6109431 12.765245 -2.0645912
2.6763852 12.688128 -2.0545511
2.7554455 12.677256 -2.0555074
2.8282218 12.637952 -2.051842
2.9028344 12.607854 -2.0497704
2.9669526 12.534085 -2.0405271
3.0571003 12.570323 -2.0496109
3.1403906 12.576231 -2.0537543
3.2255833 12.588284 -2.0590134
3.2849505 12.500464 -2.0476985
3.3700621 12.51153 -2.0529575
3.4407287 12.468728 -2.0492921
3.5118024 12.428381 -2.0461049
3.5975938 12.439792 -2.0516827
3.6562119 12.357843 -2.0416427
3.7448328 12.377698 -2.0488141
3.8075864 12.312045 -2.0416427
3.8765166 12.267741 -2.0381367
3.9492915 12.236208 -2.0368617
4.0212073 12.202369 -2.0352681
4.0875072 12.152202 -2.0309653
4.1565471 12.111018 -2.0282562
4.2314329 12.08715 -2.0285747
4.2985497 12.041433 -2.0252283
4.363914 11.991638 -2.021244
4.437068 11.963711 -2.0210848
4.5013204 11.912249 -2.0169413
4.5771642 11.891776 -2.0182161
4.6356354 11.826701 -2.0118415
4.7234817 11.836546 -2.0185349
