# .PCD v0.7 - Point Cloud Data file format
VERSION 0.7
FIELDS x y z
SIZE 4 4 4
TYPE F F F
COUNT 1 1 1
WIDTH 1501
HEIGHT 1
VIEWPOINT 0 0 0 1 0 0 0
POINTS 1501
DATA ascii
-0.88159561 -6.8323784 -1.5822484
-0.92337126 -6.8258758 -1.5820192
-0.96537304 -6.8210454 -1.5822484
-1.0131828 -6.8554368 -1.5918748
-1.0466344 -6.7932925 -1.5785812
-1.0926114 -6.8136539 -1.5849988
-1.1399971 -6.8404264 -1.5930208
-1.1791283 -6.8169975 -1.5891244
-1.2245407 -6.8297544 -1.5939376
-1.2589649 -6.7819166 -1.5843112
-1.2921146 -6.7300911 -1.573768
-0.82123548 -4.1393356 -0.95378095
-1.3771433 -6.7261252 -1.5767477
-1.4159757 -6.70612 -1.5739973
-1.4459256 -6.6459436 -1.5616204
-1.5051829 -6.719584 -1.5815609
-1.5474777 -6.7149644 -1.5827068
-1.5861831 -6.6949239 -1.5801857
-0.73307335 -3.0107198 -0.68974209
-0.74893743 -2.9957771 -0.68722087
-0.77068955 -3.0043259 -0.69042969
-1.7492644 -6.6511564 -1.5794981
-0.79964697 -2.9655068 -0.68332452
-0.81575543 -2.9530382 -0.6814909
-0.83200592 -2.9414206 -0.67988646
-1.9501133 -6.7380624 -1.6118153
-1.9673836 -6.6447687 -1.5918748
-2.0084002 -6.6335039 -1.5921041
-2.0513666 -6.6284947 -1.5939376
-1.0606294 -3.3535068 -0.78829825
-1.0805879 -3.3450832 -0.78783989
-2.1913152 -6.6450787 -1.6076896
-1.0905105 -3.2393165 -0.76491982
-1.1005667 -3.204025 -0.75781465
-1.1140922 -3.1797571 -0.75345981
-1.495666 -4.1867013 -1.0069554
-1.1433719 -3.1393213 -0.746813
-1.1406035 -3.0729287 -0.731915
-1.1587487 -3.0640512 -0.73145658
-1.2209003 -3.1695204 -0.75987744
-1.6294293 -4.1542568 -1.0108519
-1.6577759 -4.151413 -1.0126854
-2.6257012 -6.460515 -1.6021888
-1.2607479 -3.0477536 -0.73672819
-1.267723 -3.0121469 -0.72962296
-1.2861813 -3.0043116 -0.72962296
-1.3030373 -2.9927931 -0.72870618
-1.8393931 -4.1552296 -1.0301046
-1.860062 -4.133213 -1.0273542
-1.8700047 -4.0880842 -1.0186447
-1.8917714 -4.0694718 -1.016811
-1.9341632 -4.0947547 -1.0264375
-1.9112523 -3.9827628 -1.0003086
-1.9574018 -4.0155859 -1.0119978
-1.988049 -4.0157132 -1.0152067
-2.0135257 -4.0051785 -1.0156651
-2.051337 -4.0187583 -1.022541
-2.0943155 -4.0415311 -1.0319383
-2.1236053 -4.03722 -1.0342302
-2.142837 -4.0138092 -1.0314798
-2.1994135 -4.0596414 -1.0472947
-2.2144358 -4.0281563 -1.0424815
-2.1950219 -3.9354305 -1.0211658
-2.1860578 -3.8634307 -1.0053511
-2.2276475 -3.8811817 -1.0138315
-2.2685573 -3.8968842 -1.0218534
-2.2968786 -3.8904355 -1.0239162
-2.3237062 -3.8812799 -1.0252914
-2.3575783 -3.8835912 -1.0298755
-2.3517752 -3.8209705 -1.0165819
-2.3808434 -3.8155527 -1.0191031
-2.4120145 -3.8132124 -1.022541
-2.4448221 -3.813091 -1.0266666
-2.4580965 -3.78251 -1.0223119
-2.4641287 -3.7413416 -1.0149775
-2.4578624 -3.6824303 -1.0026007
-2.4907711 -3.6826 -1.0069554
-2.5699906 -3.7499526 -1.0305631
-2.5579793 -3.6837399 -1.0161234
-2.5777342 -3.6639943 -1.0149775
-2.63745 -3.7004268 -1.0301046
-2.6777675 -3.7086399 -1.0372099
-2.7021966 -3.6944966 -1.0378975
-2.7242353 -3.6770647 -1.0376683
-2.770113 -3.6914237 -1.0468363
-2.7614973 -3.6332822 -1.0346887
-2.7160592 -3.5283334 -1.0085598
-2.7801442 -3.5661092 -1.0248331
-2.8182566 -3.569612 -1.0310215
-2.8516541 -3.5666983 -1.0353763
-2.8722606 -3.5476205 -1.034918
-2.8686748 -3.4990654 -1.0255207
-2.937959 -3.5390704 -1.0431691
-2.9107714 -3.4628537 -1.0252914
-2.9780135 -3.4990439 -1.0420231
-3.0210292 -3.5057778 -1.0498159
-3.0501618 -3.4959774 -1.0525663
-3.0915301 -3.4998128 -1.0596715
-3.1259227 -3.4952898 -1.0642556
-3.2518315 -3.5915015 -1.1009276
-3.7611425 -4.1032147 -1.2707651
-3.3446527 -3.6041281 -1.1178885
-3.3067257 -3.519686 -1.0972604
-3.2403891 -3.4069276 -1.0672351
-3.344943 -3.4739337 -1.095656
-3.3838594 -3.4714682 -1.1016152
-3.4139836 -3.4596474 -1.1045948
-3.4413383 -3.4448328 -1.1066576
-3.4720998 -3.4332347 -1.1098664
-3.5105073 -3.4288704 -1.1155964
-3.4859519 -3.3633318 -1.1006984
-3.5790942 -3.4110537 -1.1243061
-3.4426298 -3.240896 -1.0734235
-3.4574616 -3.2150712 -1.0718192
-3.479991 -3.1964302 -1.0727359
-3.5089092 -3.1835206 -1.0757155
-3.4102278 -3.0560338 -1.0383559
-3.4311016 -3.0369873 -1.0390435
-3.6174734 -3.1626039 -1.0915304
-3.727422 -3.2186029 -1.119722
-3.821898 -3.2594717 -1.1428713
-3.8075821 -3.2071114 -1.132328
-3.5810103 -2.9788687 -1.0569211
-3.644345 -2.993917 -1.0706731
-3.6467741 -2.9586196 -1.0658599
-3.5782654 -2.8667989 -1.0397311
-3.5980783 -2.8466012 -1.0404187
-3.6338851 -2.8388536 -1.0459195
-3.652777 -2.817692 -1.0463779
-3.6839347 -2.8058434 -1.0505035
-3.6738548 -2.7627084 -1.0424815
-3.7352819 -2.7731912 -1.0555459
-3.7263217 -2.7312284 -1.0479823
-3.7493184 -2.712878 -1.0498159
-3.6740179 -2.6241865 -1.0232286
-3.7210746 -2.6234708 -1.0321674
-3.745091 -2.6061499 -1.0344595
-3.7706392 -2.589735 -1.0372099
-3.7800131 -2.5621805 -1.0353763
-3.8102255 -2.5486813 -1.0395019
-3.8461003 -2.5386612 -1.0452319
-3.8102221 -2.4815428 -1.0307922
-3.8523986 -2.4754841 -1.0383559
-3.8075054 -2.4137492 -1.0216243
-3.8321471 -2.3965356 -1.0243747
-3.8534069 -2.3770657 -1.0262083
-3.9103267 -2.379184 -1.0378975
-3.9365361 -2.3621585 -1.0411063
-3.9375534 -2.3300276 -1.0374391
-3.954298 -2.3072953 -1.0381267
-3.957413 -2.2766776 -1.0351471
-3.9552219 -2.2432272 -1.0307922
-3.9867525 -2.2288928 -1.0356055
-3.9926815 -2.20016 -1.0335426
-3.9889996 -2.1663277 -1.0289587
-3.9678898 -2.1234367 -1.0197906
-3.9834273 -2.1004126 -1.0204782
-3.9962401 -2.0759311 -1.0204782
-4.0210333 -2.0575802 -1.0236871
-4.034452 -2.0333071 -1.0239162
-4.0503397 -2.0102451 -1.0248331
-4.0302415 -1.969539 -1.0163527
-4.0729489 -1.9595457 -1.0243747
-4.1667061 -1.9732699 -1.0456903
-4.1937332 -1.9546583 -1.0495868
-4.2038784 -1.9280775 -1.0491283
-4.1996603 -1.895039 -1.0450027
-4.2218843 -1.8739744 -1.0477531
-4.2529283 -1.8566034 -1.0527955
-4.2883897 -1.8408418 -1.0589839
-4.2798753 -1.8061663 -1.0539415
-4.3403258 -1.8003879 -1.0665475
-4.3837395 -1.7869523 -1.0747987
-4.4660039 -1.7886158 -1.0929056
-4.5321469 -1.7829205 -1.1068869
-4.5584364 -1.7610426 -1.1107832
-4.6337724 -1.7575537 -1.1270565
-4.6152792 -1.7182186 -1.119722
-4.6330495 -1.6925399 -1.1215557
-4.6772499 -1.6762333 -1.130036
-4.816925 -1.6930221 -1.1623533
-5.0333581 -1.7344853 -1.2136942
-5.0964699 -1.7213264 -1.2267586
-5.2603316 -1.7407979 -1.2648059
-5.2773957 -1.7105898 -1.2664102
-5.3221192 -1.6890731 -1.2748907
-5.4309149 -1.6869997 -1.299186
-5.6190419 -1.7077177 -1.3429632
-5.8514729 -1.7392256 -1.3975129
-6.200397 -1.8016284 -1.4804834
-6.7459922 -1.9153873 -1.6113569
-6.8354692 -1.8955523 -1.6303805
-6.9559584 -1.883086 -1.6569678
-7.021965 -1.8547904 -1.6702614
-7.0332136 -1.8116696 -1.6702614
-7.1253872 -1.7888683 -1.6899726
-7.2118702 -1.7636157 -1.7083087
-7.2964144 -1.7369176 -1.7261863
-7.3771067 -1.7083691 -1.7431471
-7.566925 -1.7034854 -1.786466
-7.7141643 -1.6869751 -1.8194709
-8.1528397 -1.7305816 -1.922611
-8.2100201 -1.6901435 -1.9338418
-8.1906452 -1.6338317 -1.9267366
-8.2186747 -1.5870514 -1.9310914
-8.2435665 -1.5394524 -1.9347587
-8.2825527 -1.4942005 -1.9418639
-8.2954006 -1.4440194 -1.9427806
-8.2781858 -1.3887432 -1.9365922
-8.2740593 -1.3359056 -1.9336126
-8.2840242 -1.2854103 -1.9340711
-8.2956066 -1.2351298 -1.9349878
-8.307847 -1.1848931 -1.9361339
-8.3429298 -1.1377102 -1.9427806
-8.3130751 -1.0817231 -1.9340711
-8.3272839 -1.0316523 -1.9359046
-8.3363571 -0.98087907 -1.9365922
-8.3354473 -0.92895466 -1.9349878
-8.3284054 -0.87646687 -1.9320083
-8.3520308 -0.82717186 -1.936363
-8.3598566 -0.77617925 -1.9370506
-8.3460369 -0.72327197 -1.9326959
-8.3522577 -0.67220426 -1.9331542
-8.3552551 -0.62087095 -1.932925
-8.3841562 -0.5713141 -1.9388843
-8.3379564 -0.51678586 -1.9271951
-8.3438864 -0.46577829 -1.9278827
-8.3670034 -0.41558743 -1.9326959
-8.3752298 -0.36449483 -1.9340711
-8.3461828 -0.31193373 -1.9267366
-8.368371 -0.26135567 -1.9315498
-7.924706 0.58079332 -1.9336911
-7.9113188 0.62863731 -1.9312804
-7.8976431 0.67633891 -1.9288696
-7.9020419 0.7255851 -1.9310392
-7.8781242 0.7721613 -1.9262178
-7.8799949 0.82119113 -1.9279053
-7.8815598 0.87027305 -1.9295928
-7.8828192 0.91940498 -1.9312804
-7.8346467 0.96254241 -1.920673
-7.8661308 1.0154481 -1.9300749
-7.8520584 1.0626523 -1.9281464
-7.8521166 1.111765 -1.9298339
-7.8413067 1.1593554 -1.9288696
-7.8052707 1.2030076 -1.9216373
-7.8322387 1.2564161 -1.9303161
-7.8052368 1.3012555 -1.9254946
-7.7980618 1.3492886 -1.9257356
-7.8010988 1.3991688 -1.9286286
-7.7790084 1.4445266 -1.9252535
-7.7719045 1.4925969 -1.9257356
-7.7330904 1.5343965 -1.9182622
-7.7111702 1.5792837 -1.9151284
-7.743114 1.6353993 -1.9257356
-7.7272439 1.6816403 -1.9242891
-7.6684833 1.7181933 -1.9119943
-7.6417198 1.7615056 -1.907896
-7.6638188 1.8161988 -1.9163337
-7.6553593 1.8638781 -1.9170569
-7.6682577 1.9169387 -1.9233248
-7.6243901 1.9557506 -1.9151284
-7.6131845 2.0027432 -1.9153694
-7.6045008 2.0504303 -1.9163337
-7.6039371 2.1004131 -1.9194677
-7.5768986 2.1430664 -1.9158516
-7.5570812 2.1876268 -1.9141641
-7.5072255 2.2232022 -1.904762
-7.4767241 2.2641582 -1.9004227
-7.5210962 2.3280802 -1.9156104
-7.5288763 2.381212 -1.9213963
-7.4827256 2.4172156 -1.9131997
-7.4843426 2.4685576 -1.9175391
-7.4699745 2.5147438 -1.9177802
-7.4296227 2.5520153 -1.9112711
-7.4000859 2.5927389 -1.907655
-7.3940907 2.6416893 -1.9103068
-7.378654 2.6873412 -1.9105479
-7.3811316 2.7396598 -1.9156104
-7.349659 2.7794034 -1.9117533
-7.3406172 2.8275886 -1.9139229
-7.3168049 2.8700948 -1.9122354
-7.2720194 2.9041338 -1.9050032
-7.2936196 2.9647853 -1.9156104
-7.2250729 2.9887006 -1.9021102
-7.2557936 3.0536895 -1.9153694
-7.2137246 3.0882187 -1.9091015
-7.213325 3.1405616 -1.9141641
-7.1885948 3.1824045 -1.9127176
-7.1432691 3.2148983 -1.9057264
-7.127821 3.2606876 -1.9069318
-7.1111994 3.3059986 -1.907896
-7.0495396 3.330081 -1.8965656
-7.0840926 3.3997357 -1.9117533
-7.0133777 3.4188914 -1.8980119
-7.0331426 3.482105 -1.9093425
-6.958756 3.4985938 -1.894637
-6.9700027 3.5579984 -1.9037977
-6.9230533 3.5877452 -1.8968066
-6.9421339 3.6518505 -1.9083782
-6.9307246 3.7003214 -1.9115121
-6.9036231 3.7404656 -1.9103068
-6.8422747 3.7617095 -1.8994584
-6.8394046 3.8149714 -1.9052442
-6.8091111 3.8530407 -1.9033157
-6.7634583 3.8821833 -1.8970476
-6.7445426 3.9265406 -1.8984941
-6.7520771 3.9866052 -1.907655
-6.7141671 4.0199814 -1.9037977
-6.6761022 4.0530429 -1.8999406
-6.6354055 4.0842624 -1.8953601
-6.5978708 4.1171908 -1.891744
-6.570024 4.1560402 -1.8910208
-6.5738077 4.215138 -1.8996994
-6.5689759 4.2691479 -1.9059675
-6.4851179 4.2714634 -1.8888512
-6.4959145 4.3359652 -1.8999406
-6.4715986 4.3773732 -1.9006639
-6.4462185 4.4180975 -1.9011459
-6.438118 4.4708557 -1.9069318
-6.4137387 4.5125093 -1.907896
-6.3630133 4.535439 -1.9009049
-6.343719 4.5806475 -1.9035567
-6.308444 4.6143279 -1.901387
-6.269876 4.6454363 -1.8982531
-6.2334929 4.6779938 -1.8958423
-6.188448 4.7038183 -1.8907797
-6.1786928 4.7565045 -1.8968066
-6.1562791 4.7996984 -1.8989763
-6.1358519 4.8446007 -1.9018692
-6.1014628 4.878521 -1.9004227
-6.0646267 4.9103699 -1.8982531
-6.0471401 4.9579515 -1.9023514
-6.0128717 4.9918628 -1.9011459
-5.9583592 5.0086756 -1.8934315
-5.9393377 5.0552077 -1.8972888
-5.9082079 5.0915556 -1.8972888
-5.8783178 5.1289883 -1.8977709
-5.8307366 5.1508222 -1.8924673
-5.7990222 5.186502 -1.8924673
-5.7598958 5.2154713 -1.8900565
-5.7177715 5.2415323 -1.8866814
-5.6755452 5.2672729 -1.8833064
-5.6706996 5.3279195 -1.8927083
-5.6653223 5.3887038 -1.9021102
-5.6118808 5.4038391 -1.8951191
-5.5751433 5.4347839 -1.8939137
-5.5168271 5.444345 -1.885235
-5.492928 5.4876976 -1.88861
-5.4536948 5.5157762 -1.8866814
-5.4299178 5.5595517 -1.8902975
-5.3882918 5.5850806 -1.8876457
-5.3653016 5.6299825 -1.891744
-5.3206787 5.6521959 -1.8881279
-5.2984519 5.6982427 -1.8927083
-5.242384 5.7077699 -1.8849939
-5.1772718 5.7067604 -1.8739045
-5.1693559 5.7687807 -1.8840296
-5.1306462 5.7967567 -1.8828243
-5.101368 5.8354363 -1.885235
-5.067369 5.8688316 -1.8859582
-5.0407076 5.9108925 -1.8895744
-5.0155954 5.9550734 -1.8939137
-4.9839258 5.9917059 -1.8958423
-4.9421401 6.0161738 -1.8939137
-4.8886271 6.0260334 -1.8874047
-4.8734002 6.0831861 -1.8960834
-4.8179221 6.090138 -1.8888512
-4.7942019 6.1371779 -1.8943958
-4.7534914 6.1626363 -1.8931905
-4.721468 6.199409 -1.8956013
-4.6920877 6.2398992 -1.8992174
-4.6456146 6.2576613 -1.8958423
-4.6163082 6.298574 -1.8996994
-4.5605106 6.3031898 -1.8924673
-4.5223131 6.3318439 -1.8927083
-4.4878492 6.365819 -1.894637
-4.4514756 6.3972197 -1.8958423
-4.4060969 6.4156122 -1.8931905
-4.3748145 6.4545784 -1.8968066
-4.3389034 6.4869475 -1.8984941
-4.293674 6.5053477 -1.8960834
-4.2563248 6.5356374 -1.8972888
-4.2025051 6.5404 -1.8910208
-4.1773601 6.5898361 -1.8980119
-4.1795464 6.6836481 -1.9180212
-4.1211381 6.6810808 -1.9098246
-4.0997343 6.7385802 -1.9192266
-4.0408378 6.7344794 -1.910789
-3.9930162 6.7482877 -1.907655
-3.9720709 6.8078713 -1.9177802
-3.9108715 6.7984624 -1.9081371
-3.8925364 6.8637004 -1.9199498
-3.8333042 6.8569565 -1.9112711
-3.7654052 6.8335938 -1.8980119
-3.7451661 6.896657 -1.9093425
-3.707814 6.9289207 -1.9119943
-3.6792569 6.9781561 -1.9194677
-3.6359234 6.9997387 -1.9192266
-3.5747855 6.9864912 -1.9093425
-3.5401461 7.0247622 -1.9139229
-3.5116408 7.0759115 -1.9221195
-3.4613421 7.0833726 -1.9182622
-3.4375827 7.1455851 -1.9295928
-3.3791404 7.1358414 -1.9211552
-3.3365216 7.1590805 -1.9218785
-3.2990026 7.1935339 -1.9257356
-3.2603879 7.2260261 -1.9291106
-3.2258279 7.2680736 -1.9351375
-3.1648698 7.2503705 -1.9250124
-3.1314201 7.2955174 -1.9320036
-3.0711322 7.2779317 -1.9221195
-3.0264177 7.296639 -1.9221195
-2.964745 7.2737274 -1.9110301
-2.9402554 7.3422379 -1.9245303
-2.8972797 7.3655601 -1.9259766
-2.8492343 7.3759561 -1.9240481
-2.8070188 7.4014673 -1.9262178
-2.7612131 7.4176416 -1.9259766
-2.7129846 7.4271517 -1.9240481
-2.6716156 7.4555359 -1.9271821
-2.6158481 7.4434028 -1.9197087
-2.5789754 7.4850063 -1.9264588
-2.5373449 7.5135636 -1.9298339
-2.4826624 7.503191 -1.9230838
-2.4470446 7.5505977 -1.9315214
-2.3983216 7.5580697 -1.9295928
-2.3484485 7.5615206 -1.9266999
-2.2991874 7.5665016 -1.9242891
-2.256309 7.5925612 -1.9274231
-2.2134681 7.6193113 -1.9307982
-2.1666751 7.6327491 -1.9307982
-2.1198008 7.6459002 -1.9307982
-2.0614431 7.6166053 -1.9199498
-2.0161555 7.6347408 -1.9213963
-1.9743515 7.6667056 -1.9264588
-1.9282168 7.6824408 -1.9274231
-1.8775867 7.679986 -1.923807
-1.835368 7.7121339 -1.9291106
-1.7853878 7.711904 -1.9262178
-1.7390995 7.727448 -1.9274231
-1.6966233 7.7607288 -1.9332089
-1.6469593 7.7614989 -1.9307982
-1.6039963 7.7942734 -1.936584
-1.5514001 7.7801738 -1.9305571
-1.5074925 7.8095579 -1.9356197
-1.4520715 7.7785907 -1.9254946
-1.4008738 7.7682514 -1.920673
-1.3626575 7.831202 -1.9344143
-1.3102508 7.8135724 -1.9279053
-1.2666085 7.8482924 -1.9346554
-1.218577 7.8568754 -1.9348965
-1.1733422 7.8843637 -1.939959
-1.1239848 7.8846893 -1.9382715
-1.0728347 7.871243 -1.9332089
-1.0210168 7.8507299 -1.9264588
-0.9742558 7.8684049 -1.9293517
-0.92686349 7.8819461 -1.9312804
-0.87708861 7.8749456 -1.9281464
-0.82946187 7.8869352 -1.9298339
-0.7768535 7.849381 -1.9192266
-0.7343154 7.9148812 -1.9344143
-0.68473375 7.9076352 -1.9315214
-0.63550168 7.9029813 -1.9293517
-0.5878585 7.9183459 -1.9322447
-0.53748554 7.8956604 -1.9257356
-0.49154139 7.9394937 -1.9358608
-0.44313961 7.948174 -1.9373072
-0.39292407 7.9216638 -1.9300749
-0.34552795 7.952044 -1.9370662
-0.29748544 7.974381 -1.9421287
-0.24740662 7.9391947 -1.9329679
-0.19774672 7.9027252 -1.923566
-0.1496346 7.9241672 -1.9286286
-0.10105892 7.9288177 -1.9295928
-0.052475698 7.9399638 -1.9322447
-0.0037566419 7.9420772 -1.9327267
0.044941276 7.9361281 -1.9312804
0.093299426 7.9075603 -1.9242891
0.14202811 7.9184828 -1.9271821
0.19033033 7.9058199 -1.9242891
0.24007295 7.9452457 -1.9344143
0.28966925 7.9668999 -1.9402001
0.33767933 7.9446101 -1.9351375
0.38679862 7.9501433 -1.9370662
0.43615824 7.9582801 -1.939718
0.48225814 7.9108939 -1.9286286
0.53085452 7.9087539 -1.9288696
0.57546246 7.8521132 -1.9156104
0.62779015 7.9006767 -1.9286286
0.67700249 7.9053783 -1.9307982
0.72442967 7.8894787 -1.9279053
0.77623814 7.9196563 -1.936584
0.8193779 7.8626199 -1.923566
0.87016636 7.8805952 -1.9293517
0.91760385 7.8673964 -1.9274231
0.96870363 7.8847356 -1.9332089
1.0176872 7.8834558 -1.9344143
1.0605675 7.8366709 -1.9242891
1.1087687 7.8309765 -1.9245303
1.1592133 7.8403468 -1.9286286
1.2081867 7.8388414 -1.9300749
1.2524158 7.8073249 -1.9240481
1.2961439 7.7746038 -1.9177802
1.3473014 7.7865863 -1.9228427
1.395911 7.782949 -1.9240481
1.4406253 7.7580166 -1.9199498
1.4887501 7.7518902 -1.920673
1.5391221 7.7568884 -1.9242891
1.5866885 7.7472982 -1.9242891
1.6372056 7.7516599 -1.9279053
1.6791621 7.7158647 -1.9213963
1.7245632 7.6968932 -1.9192266
1.7617238 7.6426654 -1.9081371
1.8247083 7.6997027 -1.9254946
1.8709996 7.6845899 -1.9245303
1.9263588 7.7059174 -1.9329679
1.9632303 7.6535311 -1.9226016
2.0096605 7.6394639 -1.9221195
2.0567503 7.6279259 -1.9223605
2.1009302 7.6058078 -1.9199498
2.1412163 7.5703616 -1.9141641
2.1887069 7.5608096 -1.9151284
2.2292681 7.5276971 -1.9100658
2.2818878 7.5352392 -1.9156104
2.3191795 7.4923573 -1.9081371
2.3677433 7.4863133 -1.9103068
2.4112463 7.4642563 -1.9083782
2.4554801 7.4447126 -1.9071728
2.5063798 7.4451413 -1.9112711
2.5561156 7.4415541 -1.9144051
2.6026912 7.4284778 -1.9151284
2.6449559 7.4032292 -1.9127176
2.6713929 7.3348846 -1.8989763
2.7210784 7.3310924 -1.9023514
2.7701309 7.325151 -1.9052442
2.7965291 7.2600193 -1.8924673
2.8452773 7.2535648 -1.8953601
2.8843298 7.2224512 -1.891744
2.9351723 7.2207999 -1.8960834
2.9883296 7.2241759 -1.9018692
3.0280807 7.1949706 -1.8989763
3.056124 7.1387854 -1.8888512
3.1080077 7.1385841 -1.8939137
3.1474278 7.1096187 -1.8912619
3.1921875 7.0928273 -1.8919851
3.2352443 7.0722241 -1.891744
3.2781687 7.0513601 -1.891503
3.3192999 7.0267258 -1.8902975
3.3636127 7.0088511 -1.8910208
3.3984723 6.9715066 -1.8864404
3.4338622 6.9357381 -1.8823421
3.4794068 6.9206071 -1.8840296
3.5266607 6.9086351 -1.8866814
3.575685 6.8997898 -1.8902975
3.6034915 6.8502369 -1.8825831
3.6509426 6.8382702 -1.8854761
3.6826584 6.7969685 -1.8801724
3.7299068 6.7844486 -1.8830653
3.7728839 6.7639771 -1.8837886
3.804754 6.7238083 -1.878967
3.8464222 6.7011776 -1.8792081
3.9118881 6.7193828 -1.8912619
3.945147 6.6818833 -1.8874047
3.9910588 6.6658764 -1.8898154
4.0157642 6.614718 -1.8821011
4.0486431 6.5775566 -1.8784848
4.0637445 6.5122504 -1.8666723
4.0963612 6.4757118 -1.8632972
4.1470218 6.4676099 -1.8683598
4.1935048 6.4526205 -1.8714937
4.2202034 6.4073181 -1.8657079
4.2696776 6.3966384 -1.8702884
4.3289695 6.4000602 -1.8792081
4.3681579 6.3733778 -1.8792081
4.3916788 6.3241372 -1.872458
4.4248147 6.289135 -1.8700473
4.4481082 6.2405305 -1.8635383
4.4857473 6.2123332 -1.8632972
4.5243545 6.1854753 -1.8635383
4.5599113 6.1544795 -1.862574
4.5946751 6.1225038 -1.8613685
4.6303935 6.0918784 -1.8606453
4.6765671 6.0748863 -1.8642615
4.7065921 6.0368934 -1.8613685
4.7363267 5.9987612 -1.8584757
4.7712269 5.9673133 -1.8577524
4.8175249 5.9499922 -1.8616097
4.8662515 5.9353285 -1.8664311
4.9143586 5.9195437 -1.8710116
4.9462156 5.884079 -1.8693241
4.9803391 5.8514018 -1.8686008
5.0053768 5.8082366 -1.8645025
5.0562372 5.7949629 -1.8702884
5.0929847 5.7652841 -1.8707705
5.1230869 5.7281389 -1.8688419
5.1516228 5.6894035 -1.8664311
5.1943059 5.6662703 -1.8693241
5.230957 5.6364255 -1.8700473
5.2594609 5.5978584 -1.8678776
5.2990618 5.5711064 -1.8698062
5.3331456 5.538487 -1.8698062
5.364996 5.5035744 -1.8690829
5.3884373 5.4601917 -1.8654668
5.4403615 5.4455609 -1.8719759
5.4798846 5.4182177 -1.8741455
5.5005279 5.3722873 -1.8698062
5.5305939 5.3357406 -1.8688419
5.5688505 5.3070607 -1.8707705
5.6013093 5.2727909 -1.8707705
5.6378222 5.2422872 -1.8722169
5.6791754 5.2161288 -1.875351
5.7110739 5.1811838 -1.875351
5.7304688 5.135035 -1.8712527
5.7596884 5.0978475 -1.8705294
5.8047442 5.0745449 -1.8751098
5.8254862 5.029954 -1.8717349
5.854763 4.9928555 -1.8712527
5.8993936 4.9687142 -1.875833
5.9036527 4.9107046 -1.8673954
5.9554234 4.8922501 -1.8743867
6.002666 4.8696761 -1.8799313
6.0127378 4.8169794 -1.8736634
6.0650177 4.7980556 -1.8808956
6.0553336 4.7302871 -1.8686008
6.1111436 4.7137852 -1.8770385
6.1337743 4.6714959 -1.8751098
6.1855955 4.6512666 -1.8823421
6.1984324 4.6016574 -1.8775206
6.2406425 4.5738626 -1.8818599
6.2394938 4.5144396 -1.8729402
6.2670765 4.4760699 -1.8729402
6.331708 4.4638085 -1.8842707
6.3502145 4.4187775 -1.8816189
6.3620062 4.3692932 -1.8770385
6.4264579 4.3557606 -1.888369
6.4611311 4.3216414 -1.8907797
6.4737554 4.2728291 -1.8866814
6.4843979 4.2229657 -1.8821011
6.525702 4.1930642 -1.8866814
6.5660629 4.1622949 -1.8910208
6.564322 4.1049514 -1.8830653
6.5918641 4.0661244 -1.8837886
6.6415648 4.04073 -1.8910208
6.6412654 3.9849257 -1.8837886
6.6756153 3.9500299 -1.8866814
6.6921816 3.9045942 -1.8845118
6.7294745 3.8711991 -1.888369
6.7767406 3.8432367 -1.8951191
6.7578354 3.7779107 -1.8830653
6.8072414 3.7508898 -1.8905387
6.8326869 3.7104397 -1.8912619
6.8433447 3.6620364 -1.8878869
6.8785639 3.6267653 -1.891503
6.9041333 3.5862799 -1.8924673
6.9942675 3.578763 -1.9115121
6.9545565 3.5047786 -1.8943958
6.9950571 3.471529 -1.8996994
6.970881 3.4063926 -1.8871636
7.0406299 3.38711 -1.9006639
7.0332103 3.3305583 -1.8929495
7.0702286 3.2951276 -1.8975298
7.1035471 3.25775 -1.9011459
7.1419811 3.2224815 -1.9062085
7.1509738 3.1738756 -1.9033157
7.1827669 3.1353719 -1.9066907
7.1840324 3.0835872 -1.9018692
7.1876163 3.0330365 -1.8977709
7.2195387 2.9944525 -1.901387
7.2117124 2.9394784 -1.8943958
7.2043848 2.8850744 -1.8876457
7.2237577 2.8415251 -1.8881279
7.268218 2.8076348 -1.8953601
7.2925687 2.7657371 -1.8972888
7.3748913 2.7453063 -1.9146461
7.3323407 2.6783679 -1.8989763
7.3184857 2.6225276 -1.8910208
7.3536682 2.5843272 -1.8960834
7.407927 2.5524302 -1.9062085
7.4133339 2.5035136 -1.9035567
7.4442201 2.4631596 -1.907655
7.4730425 2.4219224 -1.9112711
7.4794369 2.3733826 -1.9091015
7.4910779 2.3265817 -1.9083782
7.4996409 2.2788813 -1.9069318
7.5023184 2.2295055 -1.9040389
7.5400896 2.1904662 -1.9103068
7.5421844 2.1409812 -1.907414
7.5645318 2.0972545 -1.9098246
7.5735106 2.0497863 -1.9088603
7.6084661 2.0092211 -1.9146461
7.6121926 1.9603217 -1.9124765
7.623136 1.913341 -1.9122354
7.6262479 1.8644574 -1.9100658
7.6375442 1.8176284 -1.9100658
7.6220784 1.764606 -1.9033157
7.634656 1.7182305 -1.9037977
7.7038403 1.6841952 -1.9187444
7.704535 1.6348804 -1.9163337
7.6706934 1.5785832 -1.9052442
7.7478123 1.544952 -1.9223605
7.7256989 1.4913177 -1.9144051
7.7661881 1.4497582 -1.9223605
7.7395978 1.3957108 -1.9134408
7.7288928 1.3448707 -1.9086193
7.741785 1.2982235 -1.9098246
7.7668514 1.2534771 -1.9141641
6.0480852 0.93830889 -1.4802289
5.8722968 0.87420738 -1.4346657
5.8227839 0.83036023 -1.4209244
5.8075752 0.7918672 -1.4158618
5.8007755 0.75471741 -1.412969
5.7908497 0.7173236 -1.4093528
5.7797203 0.67996681 -1.4054956
5.774138 0.64341748 -1.4030849
5.7712207 0.60726637 -1.4013973
5.7690434 0.5712707 -1.3999509
5.764709 0.53514564 -1.3980223
5.7659502 0.49959683 -1.3975402
5.7689071 0.46420822 -1.3975402
5.7697115 0.42865869 -1.397058
5.7567406 0.392196 -1.3932008
5.7919731 0.35890013 -1.4013973
5.7911592 0.32319283 -1.4006741
5.7697697 0.28650236 -1.3948883
5.8121419 0.25285786 -1.4050134
5.790308 0.21632554 -1.3992277
5.7701855 0.18013088 -1.393924
5.7770033 0.14486711 -1.3953705
5.7719612 0.10930827 -1.393924
5.7958136 0.074183568 -1.3997098
5.8116875 0.03872009 -1.4035671
5.8292851 0.0030652322 -1.4079064
5.7651415 -0.032330584 -1.3919954
5.8007407 -0.068133123 -1.4009153
5.7526665 -0.10286475 -1.3891026
0 -0 -0
0 -0 -0
0 -0 -0
0 -0 -0
0 -0 -0
0 -0 -0
0 -0 -0
0 -0 -0
0 -0 -0
0 -0 -0
0 -0 -0
0 -0 -0
0 -0 -0
6.099082 -0.63533539 -1.4831218
7.8863831 -0.87080628 -1.9307982
7.8799276 -0.91906726 -1.9305571
7.8645077 -0.96621543 -1.9281464
7.8584309 -1.0144529 -1.9281464
7.7683887 -1.0513165 -1.9071728
7.4888954 -1.0602832 -1.8387076
7.2422366 -1.0706921 -1.7784388
7.135778 -1.0997198 -1.7533669
7.0464878 -1.1302515 -1.7326345
6.9149747 -1.152701 -1.7012948
6.8685646 -1.188319 -1.6914107
6.952847 -1.2469025 -1.7145538
7.0366654 -1.3065645 -1.7376971
7.0065956 -1.345503 -1.7321523
6.9896402 -1.386768 -1.7299826
6.9771967 -1.4288501 -1.7290183
6.9777937 -1.4736414 -1.7314291
6.9534478 -1.5131243 -1.727572
6.9392972 -1.5546998 -1.7263665
6.9088225 -1.5924503 -1.7210629
6.8602042 -1.6256307 -1.7111788
6.8152122 -1.6591938 -1.7022591
6.7738338 -1.6932081 -1.6943035
6.7463965 -1.7303967 -1.6899642
6.70468 -1.7636069 -1.6820087
6.6927958 -1.80446 -1.6817677
6.6872101 -1.8470435 -1.6832141
6.6524053 -1.8814338 -1.6771872
6.6099734 -1.9133068 -1.6692318
6.5888042 -1.9510716 -1.666821
6.5655627 -1.9880861 -1.6639282
6.5513864 -2.02776 -1.6634459
6.53512 -2.0667491 -1.6624817
6.4835296 -2.0942733 -1.6523565
6.4585762 -2.1300623 -1.6492225
6.4463048 -2.1699612 -1.6494635
6.4172654 -2.2041121 -1.6453654
6.4081998 -2.2450514 -1.6465707
6.4016151 -2.2869422 -1.6484993
6.3874621 -2.3261788 -1.6484993
6.3503237 -2.3568816 -1.6424724
6.3339272 -2.3951154 -1.6419903
6.3236399 -2.4356794 -1.6431956
6.3194165 -2.478689 -1.6460886
6.3004837 -2.5159774 -1.6451242
6.2912207 -2.5571482 -1.6468117
6.2960372 -2.6042376 -1.6523565
6.277256 -2.6416905 -1.6516333
6.2707419 -2.6843603 -1.6542851
6.2176723 -2.7068968 -1.6444011
6.2009463 -2.7449968 -1.6444011
6.2052255 -2.7925558 -1.6501868
6.1756191 -2.8249238 -1.6468117
6.1599293 -2.8635821 -1.6472939
6.1562819 -2.9079592 -1.6511511
6.1374483 -2.9452589 -1.65091
6.1253672 -2.9858398 -1.6525975
6.0747528 -3.0074308 -1.6436778
6.0544515 -3.043776 -1.6431956
6.0209675 -3.0733647 -1.6390973
6.0114741 -3.1151643 -1.6417491
5.9707751 -3.1406925 -1.6357223
5.9385509 -3.1704111 -1.6321062
5.930078 -3.2128017 -1.6352402
5.9247098 -3.2570782 -1.6393385
5.8919005 -3.2862766 -1.6357223
5.8665581 -3.3194983 -1.6342759
5.8418713 -3.3530161 -1.6330705
5.822865 -3.3897748 -1.6335527
5.8144903 -3.4328427 -1.6371688
5.8099694 -3.4784284 -1.6419903
5.7686086 -3.5019219 -1.6362045
5.7602348 -3.545393 -1.6400616
5.7186141 -3.5683367 -1.6342759
5.7130136 -3.6137371 -1.6390973
5.7005353 -3.6550112 -1.6419903
5.6780014 -3.6899202 -1.6419903
5.6487703 -3.7204187 -1.6400616
5.6331 -3.7598591 -1.6422313
5.6219807 -3.8025103 -1.6458474
5.5905385 -3.8314469 -1.6434367
5.5438089 -3.8496206 -1.6364455
5.5192904 -3.8830059 -1.6362045
5.4937801 -3.9156716 -1.6357223
5.4484086 -3.933964 -1.6292133
5.4570637 -3.99139 -1.6393385
5.4620996 -4.0467582 -1.6484993
5.4519129 -4.0912671 -1.6530797
5.4104829 -4.1123071 -1.6480172
5.4012961 -4.1578622 -1.6530797
5.364203 -4.1819735 -1.6494635
5.3513894 -4.2250347 -1.6535618
5.3071747 -4.2432423 -1.6477761
5.313468 -4.3019919 -1.6581423
5.2599568 -4.3123579 -1.6494635
5.2662487 -4.3718324 -1.6600709
5.231154 -4.3971925 -1.6574191
5.1974239 -4.4235454 -1.6552494
5.163568 -4.4496498 -1.6530797
5.1230073 -4.4697623 -1.6487404
5.0802126 -4.4876165 -1.6436778
5.0460715 -4.5128798 -1.6415081
5.0168476 -4.5424542 -1.641026
5.0203543 -4.6020117 -1.6516333
4.9756632 -4.6175427 -1.6460886
4.9429936 -4.6439981 -1.6446421
4.9172182 -4.6769161 -1.6456064
4.8891277 -4.7076731 -1.6458474
4.8518119 -4.7294526 -1.6429546
4.8786454 -4.8143597 -1.6624817
4.8510728 -4.846262 -1.6632049
2.3037281 -2.3290014 -0.77363789
2.2893944 -2.3430929 -0.77363789
2.2736268 -2.3556993 -0.77315575
2.2591298 -2.3696055 -0.77315575
4.6243091 -4.9122167 -1.6357223
4.6020107 -4.949028 -1.6386153
4.571557 -4.9771724 -1.6386153
4.5494075 -5.0144749 -1.6417491
4.515316 -5.0386806 -1.6405438
4.4778829 -5.0590229 -1.638133
4.4333458 -5.0710573 -1.6330705
4.4072199 -5.1040416 -1.634999
4.3751893 -5.1302495 -1.634758
4.3442535 -5.1577411 -1.634999
4.318109 -5.1910157 -1.6371688
4.2818651 -5.212163 -1.6354812
4.2467465 -5.2345691 -1.6342759
4.2109079 -5.2559834 -1.6328294
4.1821904 -5.2862892 -1.6342759
2.0147948 -2.578099 -0.77267361
1.9906411 -2.5796533 -0.76929855
1.9688962 -2.5840974 -0.76688778
1.9460055 -2.5868204 -0.76399487
1.9243126 -2.5909188 -0.76158416
1.8900238 -2.5776258 -0.75386977
1.7194645 -2.3752823 -0.68829733
1.7167006 -2.4023747 -0.69335991
0 -0 -0
3.8407395 -5.5192518 -1.6301776
3.8013086 -5.5347137 -1.6277668
3.7721763 -5.5651646 -1.6299365
3.7250111 -5.5688434 -1.6241508
3.675271 -5.5681028 -1.6171595
3.6193268 -5.5572023 -1.6072755
3.6040428 -5.6087017 -1.6159542
3.5659242 -5.6249719 -1.6142666
3.5323718 -5.6483917 -1.6147488
3.5052881 -5.6823511 -1.6183649
3.4794335 -5.7186775 -1.6227043
3.4228127 -5.7041316 -1.6123381
3.4075122 -5.7584391 -1.621981
3.3706479 -5.7767239 -1.6212578
3.3298173 -5.7880425 -1.618606
3.2894535 -5.799922 -1.6161952
3.2509632 -5.8149133 -1.6147488
3.2128813 -5.8305011 -1.6135434
1.5995504 -2.9441538 -0.79220068
1.5814552 -2.953913 -0.79220068
1.5533453 -2.9446728 -0.786897
3.0831375 -5.9351554 -1.6212578
3.0364974 -5.9340882 -1.6157131
3.0078888 -5.9682093 -1.6200525
2.9681928 -5.9804673 -1.6183649
2.9276078 -5.9907188 -1.6161952
2.8950002 -6.0173159 -1.618606
2.8463976 -6.0104046 -1.6118559
2.814383 -6.0383134 -1.6147488
2.774853 -6.0501752 -1.6133024
2.7292984 -6.0485091 -1.6082398
2.6964633 -6.0749002 -1.6108916
2.6556447 -6.0833254 -1.6087219
2.6209466 -6.1057487 -1.6104094
2.589468 -6.136023 -1.6142666
2.5428488 -6.13028 -1.6084808
2.4956656 -6.1223989 -1.6022129
2.451921 -6.1222796 -1.5981146
2.4207015 -6.1534667 -1.6024539
2.3773057 -6.1537185 -1.5985968
2.3563592 -6.2126565 -1.6104094
2.3131182 -6.2133541 -1.6067933
2.2603047 -6.1873178 -1.596186
2.2232792 -6.2038112 -1.5969093
2.1916044 -6.2356496 -1.6017307
2.1624663 -6.2755904 -1.6087219
2.1198843 -6.2767868 -1.605588
2.0862064 -6.304419 -1.6094451
2.0406053 -6.2958655 -1.6039004
2.0036967 -6.3138185 -1.6053468
1.9677953 -6.3352628 -1.6077576
1.9201429 -6.3184304 -1.6002843
1.887693 -6.351491 -1.605829
1.8476031 -6.3592262 -1.6048647
1.8048404 -6.3573718 -1.6014897
1.7676125 -6.3748732 -1.6031772
1.7269431 -6.3799782 -1.6017307
1.6828108 -6.3716869 -1.5969093
1.6470697 -6.3950505 -1.6002843
1.6049659 -6.3937407 -1.5973914
1.5677775 -6.411953 -1.5995611
1.5281805 -6.4205079 -1.5993199
1.4850373 -6.4136896 -1.5952218
1.4475722 -6.4312024 -1.5973914
1.4074625 -6.4371195 -1.5966681
1.3675359 -6.4437351 -1.596186
1.3354006 -6.4881282 -1.6053468
1.2972718 -6.5047665 -1.6075165
1.2565998 -6.5087919 -1.6065522
1.2157491 -6.5116096 -1.6053468
1.1680274 -6.475966 -1.5944985
0.7141844 -4.1012063 -0.99398053
1.0867054 -6.4792829 -1.5918467
1.0473922 -6.4887033 -1.5925698
0.62564504 -4.0302191 -0.97300696
0.60318774 -4.0493412 -0.97686416
0.58202434 -4.0789084 -0.98337322
0.90092868 -6.6086168 -1.6166774
0.8537358 -6.5630121 -1.6039004
0.8124969 -6.5604219 -1.6019719
0.77075595 -6.552753 -1.5988379
0.72967625 -6.5496426 -1.5969093
0.43514588 -4.1323142 -0.9920519
0.40997317 -4.136838 -0.99253404
0.61105394 -6.5841904 -1.6024539
0.57014108 -6.5820146 -1.6010075
0.53044271 -6.5940952 -1.6031772
0.48947015 -6.5904512 -1.6014897
0.44908845 -6.5942984 -1.6017307
0.40891731 -6.6017733 -1.6029361
0.36802471 -6.5973749 -1.6012486
0.32772878 -6.6033864 -1.6022129
0.2864072 -6.5868506 -1.5976324
0.24652624 -6.6030316 -1.6012486
0.20555486 -6.589869 -1.5976324
0.16501977 -6.5871258 -1.5966681
0.12470791 -6.5938363 -1.5981146
0.084552221 -6.6187382 -1.6041415
0.043951359 -6.6210732 -1.6046237
0.0033291557 -6.6357756 -1.6082398
-0.03728579 -6.6182022 -1.6039004
-0.048090499 -4.1228547 -0.98409641
-0.073386952 -4.1224823 -0.98409641
-0.098492652 -4.1141925 -0.98216784
-0.2005475 -6.6434259 -1.6108916
-0.24141324 -6.64498 -1.6116148
-0.28110629 -6.6181631 -1.6053468
-0.32227695 -6.6279459 -1.6082398
-0.36155468 -6.6006489 -1.6019719
-0.40127915 -6.5857129 -1.5988379
-0.27616543 -4.1226306 -0.98626608
-0.48547751 -6.6267519 -1.6104094
-0.3265816 -4.1169963 -0.98578393
-0.35059261 -4.1004105 -0.98216784
-0.60826093 -6.6263576 -1.6128201
-0.64596891 -6.5925584 -1.6053468
-0.68922853 -6.6154985 -1.6120969
-0.73023409 -6.6150031 -1.6130613
-0.48442471 -4.1580954 -0.99976629
-0.51348376 -4.1839418 -1.0069985
-0.85124898 -6.5956287 -1.6118559
-0.89417863 -6.6085544 -1.6164364
-0.93416631 -6.5990996 -1.615472
-0.97421378 -6.5903635 -1.6147488
-1.0158169 -6.5919347 -1.6166774
-1.057476 -6.5932436 -1.618606
-0.68914717 -4.1369753 -1.0016949
-0.71219969 -4.1192808 -0.99831986
-1.1810576 -6.5860353 -1.621981
-1.2257024 -6.6015644 -1.6277668
-0.78368837 -4.0835533 -0.99277514
-0.80457127 -4.0577259 -0.98747146
-0.83257169 -4.0679245 -0.99132866
-1.3921604 -6.5922847 -1.6335527
-0.89192832 -4.1010222 -1.0024182
-0.9232325 -4.1229348 -1.0094093
-0.94567722 -4.1048989 -1.0062753
-1.5421032 -6.5079737 -1.6212578
-0.73110723 -3.0057909 -0.72831577
-0.74906564 -2.9993653 -0.72783363
-0.76673144 -2.9918926 -0.72711039
-1.6978939 -6.455029 -1.6178827
-1.7379748 -6.4463634 -1.6183649
-0.81986272 -2.9707248 -0.72542286
-0.82961851 -2.9357555 -0.71770847
-0.86138636 -2.9781518 -0.7300033
-1.2190487 -4.118278 -1.0267667
-1.2414808 -4.1014328 -1.024356
-1.2514064 -4.0446033 -1.011579
-1.2762001 -4.036849 -1.011579
-1.0788856 -3.3418794 -0.83221912
-1.0905509 -3.3084695 -0.82522798
-1.0916246 -3.2446918 -0.81028134
-1.0998427 -3.2039733 -0.8013615
-1.1400279 -3.25578 -0.81679034
-1.4856583 -4.1598635 -1.0571421
-1.1283958 -3.1002066 -0.77942371
-1.1362481 -3.0632012 -0.77146822
-1.1735669 -3.1051881 -0.78448629
-1.1971347 -3.1097014 -0.78762025
-1.5817176 -4.0337353 -1.0361687
-1.6067985 -4.0248551 -1.0364097
-1.6318299 -4.0158195 -1.0366508
-1.2493395 -3.0219936 -0.77219146
-1.2655989 -3.008904 -0.77074498
-1.282127 -2.9966211 -0.76953959
-1.7384176 -3.9941378 -1.0419544
-1.7593554 -3.9754095 -1.0397848
-1.7976602 -3.9955125 -1.0482224
-1.8181038 -3.9755824 -1.0458117
-1.8260926 -3.929152 -1.0361687
-1.8111893 -3.835392 -1.0135076
-1.8275481 -3.8093331 -1.0094093
-1.8819411 -3.8617263 -1.0270078
-1.8961246 -3.8309731 -1.0217041
-1.9134903 -3.8071284 -1.0183291
-1.9438765 -3.809145 -1.0221863
-1.9721258 -3.8066237 -1.0248381
-2.0094562 -3.8210757 -1.0323114
-2.009089 -3.7641587 -1.0197755
-2.0094872 -3.7099516 -1.0079628
-2.0359547 -3.704355 -1.0098915
-2.0775616 -3.7256927 -1.0195345
-2.1218965 -3.7508812 -1.0303829
-2.1424553 -3.7335827 -1.0291774
-2.1926749 -3.7673309 -1.0426776
-2.2142689 -3.7512991 -1.0419544
-2.2507088 -3.7601221 -1.0484635
-2.2571139 -3.7188671 -1.040508
-2.2875226 -3.7173438 -1.0441241
-2.2953854 -3.679363 -1.037133
-2.3194752 -3.6676698 -1.0378562
-2.3267407 -3.6296785 -1.030865
-2.3590188 -3.6307933 -1.0354455
-2.3988731 -3.6429939 -1.0434009
-2.4168694 -3.6217492 -1.0414723
-2.458082 -3.6349845 -1.0499099
-2.4660711 -3.5990219 -1.0436419
-2.496413 -3.5957785 -1.0472581
-2.5312765 -3.5986471 -1.0528028
-2.5431681 -3.5688241 -1.0484635
-2.5752468 -3.5673137 -1.0528028
-2.5947945 -3.5483119 -1.0518385
-2.5830009 -3.4871008 -1.0378562
-2.6026008 -3.4688578 -1.037133
-2.6361718 -3.4690468 -1.0421956
-2.7693202 -3.5981357 -1.0877587
-2.8343179 -3.6361766 -1.1051161
-2.6821349 -3.3978491 -1.0352043
-2.7350609 -3.4214971 -1.0479813
-2.7590573 -3.4084215 -1.0491867
-2.7903817 -3.4041851 -1.053285
-2.7479737 -3.3108439 -1.0286953
-2.8700466 -3.4149976 -1.0679905
-2.8682973 -3.3707204 -1.0593119
-2.878787 -3.3412962 -1.0554546
-2.9075308 -3.3330748 -1.0585886
-2.9253569 -3.3122628 -1.0576243
-2.9676266 -3.3188426 -1.0658208
-3.0446167 -3.3631513 -1.0867944
-3.1675186 -3.4559934 -1.1244022
-3.2038512 -3.4528518 -1.1299468
-2.9903569 -3.1834879 -1.0448474
-3.1636982 -3.3267937 -1.1002946
-3.2224281 -3.3471613 -1.1140358
-3.2679746 -3.353035 -1.1229557
-3.3266678 -3.3715975 -1.1364559
-3.3692458 -3.3730893 -1.1441703
-3.4154177 -3.3775959 -1.15309
-3.4659371 -3.38573 -1.1634563
-3.4447334 -3.3239758 -1.1489918
-3.4699829 -3.3074627 -1.1506793
-3.4647684 -3.2621651 -1.1420006
-3.4562862 -3.2144139 -1.1323576
-3.4802337 -3.1970842 -1.1338041
-3.4990661 -3.1750178 -1.1335629
-3.4114969 -3.0576487 -1.0978838
-3.438189 -3.0437329 -1.1005356
-3.5781071 -3.1285942 -1.1405542
-3.8249838 -3.3031666 -1.2152874
-3.901309 -3.3274865 -1.2336091
-4.2223229 -3.5566456 -1.3312445
-3.3687541 -2.8028026 -1.0484635
-3.3768883 -2.7746885 -1.0455706
-3.4036491 -2.7618632 -1.0487045
-3.3712933 -2.7014928 -1.0330347
-3.5035112 -2.7722628 -1.0696781
-3.5028629 -2.7369747 -1.0641334
-3.4212162 -2.6395731 -1.0332757
-3.5608954 -2.7125962 -1.0718478
-3.5937638 -2.7029421 -1.0769104
-3.4551947 -2.5657415 -1.0289364
-3.4567811 -2.534168 -1.024597
-3.5005746 -2.5333858 -1.0332757
-3.4963071 -2.4977605 -1.0272489
-3.52426 -2.4852059 -1.0311061
-3.5227118 -2.4518964 -1.0260435
-3.5672934 -2.4505596 -1.0349633
-3.561373 -2.4144709 -1.0286953
-3.6446962 -2.4384265 -1.0491867
-3.6668801 -2.4208274 -1.0513563
-3.7028117 -2.4120495 -1.0576243
-3.7110095 -2.385088 -1.0556958
-3.6977022 -2.3446102 -1.0474992
-3.7070813 -2.3187907 -1.0460527
-3.7005873 -2.2832661 -1.0400258
-3.7335989 -2.2721159 -1.0455706
-3.8023996 -2.2821124 -1.0614815
-3.8205075 -2.2612088 -1.0626869
-3.8150284 -2.2264779 -1.0571421
-3.8311419 -2.2044787 -1.0578654
-3.8310881 -2.1732717 -1.0540082
-3.8019915 -2.1260512 -1.0419544
-3.8302665 -2.1111109 -1.0462937
-3.8329127 -2.0820129 -1.0434009
-3.8379135 -2.0543354 -1.0412313
-3.7946405 -2.0013344 -1.0255613
-3.806849 -1.9780132 -1.0255613
-3.8465636 -1.9687598 -1.0332757
-3.8585713 -1.9451207 -1.0332757
-3.8886912 -1.9304658 -1.0383383
-3.9187756 -1.9155141 -1.0434009
-3.9217091 -1.8872268 -1.0409901
-3.9525132 -1.8722633 -1.0462937
-3.9700849 -1.8508447 -1.0479813
-4.0078335 -1.838583 -1.0552136
-4.0367327 -1.8219371 -1.0600351
-4.0602555 -1.802644 -1.0634102
-4.1255007 -1.8013726 -1.0781157
-4.1498542 -1.7817651 -1.0817318
-4.2528124 -1.7951186 -1.1065626
-4.2341623 -1.7567242 -1.0986071
-4.2871041 -1.7479213 -1.1099375
-4.3887496 -1.75801 -1.1342862
-4.4635811 -1.7562619 -1.1514025
-4.5521345 -1.7589045 -1.172135
-4.6091232 -1.7484847 -1.1844298
-4.6161265 -1.718817 -1.1834655
-4.6512003 -1.6994476 -1.1899745
-4.7154469 -1.6901844 -1.204198
-4.7458735 -1.6682953 -1.2095016
-4.9055915 -1.6906543 -1.2487968
-5.1540327 -1.7409106 -1.3112353
-5.319417 -1.7604482 -1.3517359
-5.3347354 -1.7292712 -1.3529413
-5.369298 -1.7041337 -1.3592092
-6.0924211 -1.8924127 -1.544596
-6.2673559 -1.9046315 -1.5870252
-6.2528753 -1.8584027 -1.5802751
-5.9388871 -1.7255579 -1.4961399
-6.5637102 -1.8633803 -1.6547673
-6.5516386 -1.8165922 -1.6487404
-6.5439248 -1.7712897 -1.6439189
-6.7507906 -1.7828637 -1.6943035
-6.8123565 -1.7544703 -1.7073216
-6.8785329 -1.7265687 -1.721545
-6.9681907 -1.703679 -1.7417953
-7.0814276 -1.6853671 -1.7680725
-7.2873602 -1.6871668 -1.817975
-7.5465984 -1.6984262 -1.8813778
-7.7834845 -1.7015945 -1.9389948
-7.7747908 -1.6497777 -1.9341732
-7.7876191 -1.6026279 -1.9348965
-7.823956 -1.5601239 -1.9416466
-7.8429112 -1.5139257 -1.9440573
-7.8673177 -1.4686213 -1.9479145
-7.8914628 -1.4230741 -1.9517717
-7.9038706 -1.3752912 -1.952736
-7.8365445 -1.3140994 -1.9336911
-7.8511667 -1.267072 -1.9353787
-7.8578348 -1.2187257 -1.9351375
-7.8478856 -1.167919 -1.9307982
-7.8789244 -1.1231639 -1.936825
-7.9000921 -1.0767626 -1.9404413
-7.8930764 -1.0265179 -1.9370662
-7.9175267 -0.98033071 -1.9416466
-7.8944764 -0.92833513 -1.9344143
-7.910634 -0.88105822 -1.9370662
-7.9322996 -0.83422613 -1.9411644
-7.9392004 -0.78572965 -1.9416466
-7.9718971 -0.73959672 -1.9486377
-7.916337 -0.68548602 -1.9336911
-7.9126549 -0.63627821 -1.9317625
-7.9193139 -0.5879302 -1.9324857
-7.9479475 -0.5410372 -1.9387537
-7.9307756 -0.49100292 -1.9336911
-7.9375153 -0.4425469 -1.9346554
-7.9197254 -0.3928282 -1.9295928
-7.9345913 -0.34477213 -1.9327267
-7.9433465 -0.29633218 -1.9344143
-7.9459848 -0.24761723 -1.9346554
-7.9376526 -0.19861558 -1.9322447
-7.9464846 -0.15005277 -1.9341732
-7.9424038 -0.10123009 -1.9329679
-7.9370522 -0.052456878 -1.9315214
-7.943048 -0.0037569595 -1.9329679
-7.9691248 0.045132946 -1.9394768
-7.9298801 0.093566045 -1.9298339
-7.9446826 0.14250185 -1.9336911
-7.9242539 0.19077682 -1.9288696
-7.9287548 0.23957226 -1.9303161
-7.9290752 0.28828847 -1.9307982
-7.9436407 0.33763796 -1.9348965
-7.9578981 0.38717705 -1.9389948
-7.8991685 0.43290997 -1.9250124
-7.9050817 0.48190299 -1.9271821
-7.8961658 0.53000772 -1.9257356
-7.5789075 -0.18880066 -1.9316543
-7.5537972 -0.141802 -1.9248576
-7.5758152 -0.095720209 -1.9303957
-7.5607753 -0.049132649 -1.926368
-7.5435143 -0.0027324567 -1.9218369
-7.5453243 0.0435648 -1.9223403
-7.5478182 0.089895651 -1.9230955
-7.5277719 0.13585824 -1.9180609
-7.5442119 0.18246552 -1.922592
-7.5410156 0.22869393 -1.9220885
-7.5356016 0.27481955 -1.9210817
-7.5221705 0.3205581 -1.9180609
-7.5509949 0.36821401 -1.9261162
-7.5389299 0.41400895 -1.9235989
-7.5323839 0.46002337 -1.922592
-7.5448694 0.50727051 -1.9266198
-7.5406494 0.55348462 -1.926368
-7.4792261 0.59513974 -1.9112641
-7.5217185 0.64498669 -1.9233472
-7.5128007 0.6906842 -1.9220885
-7.4756732 0.73355716 -1.9135296
-7.5172353 0.78423095 -1.9256128
-7.4997764 0.82895952 -1.9223403
-7.4801297 0.87327909 -1.9185643
-7.4554191 0.91679841 -1.9135296
-7.4496536 0.96252674 -1.9135296
-7.4474435 1.0087383 -1.9145366
-7.4267402 1.05238 -1.9107606
-7.4325891 1.0997707 -1.9140332
-7.4524832 1.1494849 -1.9210817
-7.4137559 1.1901305 -1.9127744
-7.3919945 1.2332098 -1.9089985
-7.3785667 1.2775527 -1.9074881
-7.3782096 1.32417 -1.909502
-7.3756552 1.3704774 -1.9110124
-7.3908677 1.4202725 -1.9173057
-7.3649268 1.4622037 -1.9127744
-7.3700376 1.5102801 -1.9165505
-7.3558974 1.5544732 -1.9152918
-7.3443298 1.5991671 -1.9147884
-7.3173804 1.6403911 -1.9102572
-7.296804 1.6828671 -1.9074881
-7.294816 1.7296168 -1.9097537
-7.2991109 1.7780083 -1.9137814
-7.296514 1.8248743 -1.916047
-7.2954912 1.8722562 -1.9188161
-7.2642112 1.9118136 -1.9135296
-7.2336555 1.9513098 -1.9084951
-7.2075539 1.9917918 -1.9047191
-7.1970592 2.0365059 -1.9052225
-7.1779203 2.0787439 -1.9034604
-7.1381202 2.1147766 -1.8961602
-7.1796579 2.1750879 -1.9110124
-7.1587806 2.2168107 -1.9089985
-7.1487346 2.261862 -1.9100055
-7.131959 2.3047907 -1.9092503
-7.1415787 2.3563914 -1.9157952
-7.1178136 2.3970785 -1.913278
-7.0828352 2.4337895 -1.9077399
-7.0540681 2.4724021 -1.9039639
-7.0405879 2.5162899 -1.9044673
-7.0413837 2.5654051 -1.9089985
-7.0010133 2.5994678 -1.9022018
-6.9785948 2.6399796 -1.9004396
-6.9758115 2.6879687 -1.9042156
-6.959187 2.730721 -1.9042156
-6.9279203 2.7676265 -1.9001878
-6.9152908 2.8119059 -1.9014466
-6.9175816 2.8624241 -1.9069847
-6.8775878 2.8954289 -1.9006914
-6.8614717 2.9383364 -1.9011948
-6.8495245 2.9830871 -1.902957
-6.8275518 3.0234914 -1.90195
-6.8044591 3.0633414 -1.9006914
-6.7952151 3.1094642 -1.9034604
-6.7760081 3.1511004 -1.9034604
-6.7460451 3.1876569 -1.9004396
-6.7254868 3.2285709 -1.9001878
-6.7072897 3.2706251 -1.9006914
-6.6888299 3.3125777 -1.9011948
-6.6614614 3.3500791 -1.899181
-6.6312985 3.3860493 -1.8964119
-6.6258636 3.4346907 -1.9009432
-6.6072335 3.4766333 -1.9016984
-6.5687027 3.5079918 -1.8966637
-6.5530105 3.5514584 -1.8984258
-6.5302477 3.5911336 -1.898174
-6.5140066 3.6344354 -1.8999362
-6.4966369 3.6771963 -1.9014466
-6.4613619 3.7097621 -1.8976706
-6.4267688 3.7425208 -1.8941463
-6.4103508 3.785821 -1.8961602
-6.382019 3.8220997 -1.8946499
-6.3807826 3.8747489 -1.9014466
-6.3502941 3.9097688 -1.8994327
-6.3212585 3.9455855 -1.8979223
-6.2928405 3.9817107 -1.8966637
-6.285399 4.031219 -1.90195
-6.2548652 4.0660176 -1.9001878
-6.1910052 4.0787649 -1.8881048
-6.1835704 4.1284971 -1.8936429
-6.1493044 4.1603961 -1.8908738
-6.1268539 4.2002382 -1.8918808
-6.1136847 4.2465858 -1.8959085
-6.0890956 4.2851324 -1.8964119
-6.0587478 4.3196049 -1.8951533
-6.0321293 4.3566995 -1.8951533
-6.0146565 4.4004869 -1.898174
-5.9953184 4.4430714 -1.9006914
-5.9625249 4.4757075 -1.8989292
-5.9380322 4.5145512 -1.8999362
-5.9109864 4.5514917 -1.9001878
-5.8844743 4.5888653 -1.9006914
-5.8516493 4.6212869 -1.899181
-5.8352771 4.6667757 -1.9032087
-5.7975073 4.6951838 -1.9001878
-5.7655954 4.7282138 -1.899181
-5.7401981 4.766593 -1.9004396
-5.6938047 4.7874002 -1.8946499
-5.6665335 4.8241286 -1.8954051
-5.6126347 4.8379564 -1.8870978
-5.5850315 4.8742127 -1.887853
-5.5680737 4.9199243 -1.8923842
-5.5356169 4.9520612 -1.891629
-5.5158877 4.9956779 -1.8954051
-5.4851308 5.029429 -1.8954051
-5.4506211 5.0596986 -1.8941463
-5.4166512 5.0903969 -1.8931395
-5.3797059 5.1182003 -1.8911256
-5.3461084 5.1490993 -1.8903704
-5.3074841 5.1750493 -1.887853
-5.2756305 5.2075181 -1.887853
-5.2517939 5.2479997 -1.8908738
-5.217453 5.2780604 -1.8901186
-5.1829405 5.3078976 -1.8893634
-5.1536336 5.3430824 -1.8906221
-5.1294312 5.3837123 -1.8938947
-5.0929842 5.4115605 -1.8926359
-5.0524349 5.4349122 -1.8898669
-5.0098271 5.4558315 -1.8863426
-4.9626017 5.4714155 -1.8810563
-4.9360404 5.5096912 -1.8838253
-4.9104786 5.5492959 -1.8870978
-4.8897119 5.5946236 -1.8923842
-4.8325238 5.5981488 -1.8833219
-4.7911763 5.6195946 -1.8805529
-4.7516174 5.6429648 -1.878539
-4.7336125 5.6921039 -1.8853358
-4.7028971 5.7262769 -1.8870978
-4.6695018 5.7572803 -1.887853
-4.6268272 5.7767591 -1.8848323
-4.6009011 5.8171849 -1.88886
-4.5591636 5.8376789 -1.8863426
-4.5285778 5.8724408 -1.8886082
-4.4912872 5.8985772 -1.8881048
-4.4474492 5.9159679 -1.8848323
-4.4214487 5.9571333 -1.8893634
-4.374516 5.9700994 -1.8848323
-4.3587904 6.0258412 -1.8941463
-4.3245468 6.0564108 -1.8954051
-4.2767096 6.067802 -1.8906221
-4.2637181 6.1288843 -1.9016984
-4.1827517 6.0919037 -1.8818115
-4.163754 6.1446934 -1.8903704
-4.1367326 6.1862154 -1.8954051
-4.0869694 6.1937108 -1.8898669
-4.0483603 6.2178602 -1.8896152
-4.0211177 6.2596827 -1.8949015
-3.986778 6.2907772 -1.8969154
-3.9434857 6.3077359 -1.8946499
-3.9031837 6.3293428 -1.8938947
-3.8657832 6.3556533 -1.8946499
-3.8297002 6.3842335 -1.8961602
-3.8008037 6.4251037 -1.9014466
-3.7569194 6.4407802 -1.899181
-3.7163637 6.4620333 -1.8986775
-3.6818945 6.4939752 -1.9014466
-3.6433957 6.5189791 -1.9022018
-3.6061294 6.546298 -1.9037122
-3.561738 6.5606465 -1.9014466
-3.528264 6.5951777 -1.9052225
-3.4796066 6.6012926 -1.9006914
-3.4390364 6.6225185 -1.9006914
-3.4133234 6.6727896 -1.9092503
-3.3810253 6.7108932 -1.9142848
-3.3242981 6.7003031 -1.9052225
-3.2882214 6.731009 -1.9082433
-3.2367907 6.7301269 -1.9022018
-3.1941919 6.7472367 -1.9014466
-3.1515052 6.7640772 -1.9006914
-3.1131694 6.7903247 -1.9027052
-3.0849774 6.839293 -1.9112641
-3.0335329 6.836863 -1.9052225
-3.0031393 6.8819575 -1.9127744
-2.9528406 6.8815784 -1.9074881
-2.9150751 6.9102674 -1.9105089
-2.8670585 6.9146142 -1.9067329
-2.8278644 6.9401422 -1.9089985
-2.7773132 6.9375968 -1.9034604
-2.7361095 6.9581103 -1.9044673
-2.6985941 6.9883099 -1.9082433
-2.6488011 6.9866381 -1.9032087
-2.615334 7.0281553 -1.9102572
-2.5615368 7.0149803 -1.9022018
-2.5184455 7.0305657 -1.9022018
-2.482959 7.0678 -1.9082433
-2.436393 7.0737519 -1.905726
-2.3954201 7.0959034 -1.9077399
-2.3527472 7.1132245 -1.9084951
-2.2980194 7.093462 -1.899181
-2.26089 7.1277232 -1.9047191
-2.2274444 7.1747351 -1.9137814
-2.1794407 7.1753035 -1.9102572
-2.1375778 7.1959629 -1.912271
-2.0963533 7.2191668 -1.91504
-2.046469 7.2123423 -1.9097537
-2.0037274 7.2303591 -1.9112641
-1.9729754 7.2929645 -1.9248576
-1.9247309 7.2918329 -1.9213333
-1.8797115 7.3025684 -1.9210817
-1.829922 7.2942519 -1.9157952
-1.7865095 7.3109837 -1.9173057
-1.7301921 7.2737904 -1.9044673
-1.6966579 7.3323565 -1.9173057
-1.6471744 7.3228006 -1.9120193
-1.597872 7.3129144 -1.9067329
-1.5561841 7.337729 -1.9107606
-1.5113264 7.3480873 -1.9110124
-1.4758601 7.4056277 -1.9238507
-1.4236075 7.379384 -1.9145366
-1.3742182 7.3660989 -1.9087468
-1.3356911 7.4115372 -1.9185643
-1.2860433 7.3957567 -1.912271
-1.2435195 7.4206891 -1.9168022
-1.1976553 7.4262686 -1.9162987
-1.1525109 7.4363465 -1.9170539
-1.1038702 7.4231758 -1.9117676
-1.0593939 7.4374738 -1.9137814
-1.0162207 7.4620543 -1.9185643
-0.96904296 7.457592 -1.9157952
-0.92100728 7.4451489 -1.9110124
-0.87621117 7.4583492 -1.9130262
-0.83107352 7.4693565 -1.9145366
-0.78370923 7.4598775 -1.9107606
-0.74030304 7.4886236 -1.9170539
-0.6946972 7.4968796 -1.9180609
