# .PCD v0.7 - Point Cloud Data file format
VERSION 0.7
FIELDS x y z
SIZE 4 4 4
TYPE F F F
COUNT 1 1 1
WIDTH 1495
HEIGHT 1
VIEWPOINT 0 0 0 1 0 0 0
POINTS 1495
DATA ascii
-3.4587538 -3.0597839 -0.42479959
-3.4707181 -3.0326133 -0.4239026
-3.4312449 -2.9612176 -0.41622823
-3.3736072 -2.8755813 -0.40626153
-11.792159 -9.9233084 -1.5059881
-11.886498 -9.878747 -1.5103735
-3.4344268 -2.8199403 -0.40735787
-3.9510448 -3.2035241 -0.47174278
-10.939092 -8.7561502 -1.3657565
-10.983244 -8.6814613 -1.3645605
-11.055132 -8.6285973 -1.3669525
-11.216637 -8.644413 -1.3807065
-3.9619291 -3.0157514 -0.46097875
-3.9795632 -2.990787 -0.46087909
-11.270752 -8.3600264 -1.3678496
-11.423797 -8.3653641 -1.3805072
-11.478943 -8.2980251 -1.3810056
-11.539363 -8.2343702 -1.3822016
-11.593739 -8.166276 -1.3827
-11.622385 -8.0802183 -1.3801086
-11.681591 -8.0155077 -1.3813046
-3.1064336 -2.1046431 -0.33808923
-3.1019149 -2.0739341 -0.33599624
-3.1594405 -2.0844378 -0.34137824
-3.1396425 -2.0438516 -0.33749124
-3.1898062 -2.0487344 -0.34197626
-3.1670094 -2.0067663 -0.33779022
-3.2374928 -2.0236695 -0.34466726
-3.4497709 -2.1269488 -0.36818868
-3.4857152 -2.1196938 -0.37087971
-13.702731 -8.2140503 -1.5624994
-3.5739958 -2.1137173 -0.37815541
-3.5825996 -2.0892427 -0.37765706
-3.6652334 -2.1073749 -0.38573009
-13.998884 -7.9312034 -1.5738614
-3.7107997 -2.0733957 -0.38802245
-14.037624 -7.7271538 -1.5672834
-3.8706594 -2.1007609 -0.40337119
-3.9931691 -2.1356001 -0.41582957
-3.92344 -2.0674765 -0.40646085
-14.307821 -7.4243159 -1.5768514
-8.7481127 -4.4719825 -0.94635743
-8.9478121 -4.5050077 -0.96569288
-7.6487122 -3.7924857 -0.81738824
-7.6825686 -3.7507198 -0.81858426
-9.1045561 -4.3757415 -0.97406489
-9.1033487 -4.3066072 -0.97097522
-9.0817919 -4.228415 -0.96569288
-9.1537027 -4.1937418 -0.9707759
-5.7936845 -2.6119385 -0.5988183
-5.8023243 -2.5731144 -0.59802097
-5.7924643 -2.5263302 -0.59523028
-9.3233709 -3.9976285 -0.97835058
-9.2752867 -3.9098213 -0.97047687
-9.3220844 -3.8623545 -0.97296858
-9.3363924 -3.8013315 -0.97197187
-9.3623123 -3.7450812 -0.97227091
-9.5453377 -3.7504973 -0.98951328
-9.3722878 -3.616302 -0.96848357
-9.4324522 -3.5731742 -0.97256988
-9.4709883 -3.5214705 -0.97436392
-9.5157862 -3.4718146 -0.97685558
-9.3673382 -3.3526919 -0.95881581
-9.2130976 -3.2338765 -0.94027776
-9.2224169 -3.1737249 -0.93918139
-9.4868641 -3.199729 -0.96509486
-7.8141689 -2.5824885 -0.78659111
-9.3748894 -3.0343685 -0.94924778
-9.3297777 -2.9566557 -0.94257009
-9.4361296 -2.9267566 -0.95183915
-9.4672413 -2.8728461 -0.95323449
-9.6611681 -2.8670516 -0.97167289
-9.5935249 -2.7830548 -0.96280253
-9.7521067 -2.7642817 -0.97755325
-9.6566839 -2.6733444 -0.9658922
-9.7170925 -2.6259775 -0.97047687
-9.8513689 -2.5974948 -0.98273593
-9.7514772 -2.5072792 -0.9707759
-9.9143543 -2.4843857 -0.98602492
-9.9071779 -2.4180815 -0.98373258
-9.8869772 -2.3489709 -0.98014456
-9.8595161 -2.2786317 -0.97585893
-9.9111748 -2.2265937 -0.97974592
-10.032561 -2.1892729 -0.99080896
-10.258991 -2.1728001 -1.0126361
-10.106431 -2.0757973 -0.99569267
-10.267316 -2.0432491 -1.0108421
-10.490708 -2.0208426 -1.0323701
-10.781702 -2.0083351 -1.0607753
-10.979891 -1.9756013 -1.079712
-11.045727 -1.9175477 -1.0851936
-11.079858 -1.8535099 -1.087486
-12.048851 -1.939585 -1.1846614
-13.199233 -2.0416512 -1.3000759
-13.502851 -2.0038335 -1.3295773
-14.481306 -2.0582216 -1.4273508
-15.437238 -2.0974591 -1.5227321
-16.832289 -2.1817977 -1.6623658
-17.588976 -2.1701758 -1.7374151
-18.247301 -2.1377747 -1.8024977
-19.583303 -2.1724854 -1.9358523
-19.577463 -2.0503154 -1.9339585
-19.596607 -1.9308343 -1.9346563
-19.549627 -1.8051611 -1.9287759
-19.567274 -1.6857703 -1.9294735
-19.597088 -1.5672613 -1.9314669
-19.605343 -1.4469131 -1.9313673
-19.617823 -1.3268582 -1.9317659
-19.626589 -1.2065215 -1.9318656
-19.625673 -1.085633 -1.9310682
-19.618052 -0.96450853 -1.9296728
-19.610678 -0.84356117 -1.9283773
-19.601562 -0.72270399 -1.9269819
-19.600657 -0.60226494 -1.9264835
-19.59304 -0.48171788 -1.9253873
-19.593637 -0.3614516 -1.9251878
-19.593496 -0.24119611 -1.9249885
-19.599583 -0.12099856 -1.9254869
-19.596972 -0.00073556579 -1.9251878
-19.601582 0.11953984 -1.9256862
-19.593515 0.23972501 -1.9249885
-19.576752 0.359669 -1.9234935
-19.561245 0.47946519 -1.9221978
-19.543016 0.59902352 -1.9207028
-19.527042 0.71848625 -1.9195069
-19.519283 0.83816016 -1.9192078
-19.508804 0.95766819 -1.9187095
-19.498587 1.0771341 -1.9183109
-19.487637 1.1965108 -1.9179121
-19.458088 1.3145853 -1.9157195
-17.465523 -0.44474661 -1.92484
-17.475872 -0.33772558 -1.9257331
-17.456749 -0.23021363 -1.9233886
-17.439945 -0.12297016 -1.9213791
-17.418509 -0.015937839 -1.9189229
-17.362631 0.090651169 -1.912671
-17.406464 0.19769138 -1.9176949
-17.393993 0.30430076 -1.9164668
-17.390804 0.41099909 -1.9163551
-17.35021 0.51657635 -1.9121127
-17.359623 0.6234889 -1.9135641
-17.371357 0.73066163 -1.9153504
-17.351658 0.83651912 -1.9136758
-17.3333 0.94227016 -1.9122244
-17.310328 1.0475874 -1.9103265
-17.267878 1.1514026 -1.9063073
-17.263462 1.2575512 -1.9066423
-17.234617 1.3618107 -1.9042978
-17.218016 1.4668601 -1.9034046
-17.195826 1.5713049 -1.9019533
-17.169046 1.6751468 -1.9000554
-17.143618 1.7789245 -1.8983808
-17.125465 1.883322 -1.8975992
-17.104704 1.9873344 -1.8965945
-17.097118 2.0928531 -1.8971527
-17.087898 2.1982267 -1.8975992
-17.076057 2.3033004 -1.8978225
-17.0557 2.4072006 -1.8971527
-17.029795 2.5102131 -1.8959246
-17.002285 2.6128478 -1.8945849
-16.975138 2.7153962 -1.8933568
-16.948355 2.817873 -1.8922404
-16.929766 2.9216442 -1.8921288
-16.915434 3.0261681 -1.8925754
-16.8985 3.1302643 -1.8927987
-16.882879 3.2346406 -1.8932452
-16.846142 3.3348908 -1.8913473
-16.807837 3.4346132 -1.8893377
-16.758247 3.5317373 -1.8861001
-16.708099 3.6283822 -1.8828624
-16.653517 3.7236779 -1.8791783
-16.623577 3.8242323 -1.8783967
-16.593996 3.9247885 -1.8777269
-16.556084 4.0232487 -1.876164
-16.555189 4.1307731 -1.878955
-16.519905 4.2298112 -1.8778385
-16.465767 4.3237772 -1.8746009
-16.472513 4.4337668 -1.8785084
-16.441166 4.5337005 -1.8780619
-16.416862 4.6355762 -1.8785084
-16.389065 4.7364969 -1.87862
-16.35207 4.8347154 -1.8777269
-16.304024 4.9294944 -1.8756057
-16.24119 5.0194654 -1.8718098
-16.207241 5.1181273 -1.871475
-16.145267 5.2077155 -1.8679024
-16.114897 5.3073049 -1.8681257
-16.0679 5.4013348 -1.866451
-16.048555 5.5046597 -1.8681257
-16.022919 5.6059813 -1.8691305
-15.99758 5.70753 -1.8702469
-15.97253 5.8093176 -1.871475
-15.925403 5.9030695 -1.8701352
-15.941874 6.0206861 -1.8764988
-15.932456 6.1290936 -1.8798481
-15.916756 6.2354374 -1.8825275
-15.891119 6.3381371 -1.8840905
-15.903493 6.4564557 -1.8903425
-15.888376 6.5641608 -1.8933568
-15.873451 6.672308 -1.8964828
-15.859624 6.7813005 -1.8998321
-15.866927 6.8998842 -1.9058608
-15.832472 7.0007286 -1.9068656
-15.806439 7.105484 -1.9089868
-15.769774 7.2056408 -1.9098799
-15.738784 7.3085442 -1.9115546
-15.713416 7.4143071 -1.9140106
-15.697199 7.5247583 -1.9176949
-15.676642 7.6335487 -1.9209325
-15.672266 7.7507396 -1.9262913
-15.650167 7.8596897 -1.929529
-15.629976 7.9700146 -1.9331015
-15.615197 8.0835848 -1.9374555
-15.601371 8.1981974 -1.9420329
-15.572695 8.3054619 -1.944824
-15.552903 8.4178858 -1.9488431
-15.540156 8.5346842 -1.953867
-15.523088 8.6497068 -1.9584444
-15.490484 8.7565289 -1.9611237
-15.45543 8.8622866 -1.9635799
-15.41966 8.9679432 -1.9660361
-15.413133 9.0911636 -1.9723996
-15.310154 9.1575108 -1.9662594
-15.226486 9.2347898 -1.9626868
-15.331222 9.4274626 -1.9840105
-15.203936 9.4782486 -1.9748558
-15.226138 9.6223221 -1.9855734
-15.195261 9.7337914 -1.9893693
-15.152753 9.8382082 -1.9917138
-15.109535 9.9424696 -1.9940583
-15.075529 10.053186 -1.9977424
-15.008619 10.14216 -1.9970726
-14.964965 10.246974 -1.9996403
-14.915689 10.348233 -2.0015383
-14.873864 10.454988 -2.0045526
-14.868526 10.588136 -2.0127025
-14.804085 10.679749 -2.0128143
-14.762347 10.787973 -2.0161633
-14.732617 10.905547 -2.0212989
-14.683712 11.00945 -2.0238669
-14.635669 11.114365 -2.0266578
-14.581376 11.214863 -2.0286674
-14.540512 11.326105 -2.0326865
-14.492589 11.432343 -2.0358126
-14.43925 11.534698 -2.0382686
-14.3937 11.643703 -2.0419528
-14.345047 11.750692 -2.0453022
-14.291034 11.853717 -2.0479815
-14.241622 11.960994 -2.0514424
-14.186889 12.064247 -2.0542336
-14.134437 12.169872 -2.057471
-14.08197 12.275961 -2.0608203
-14.025753 12.379231 -2.0637231
-13.957683 12.472342 -2.0649512
-13.890471 12.566418 -2.0664024
-13.832891 12.669533 -2.0694168
-13.765093 12.763631 -2.0709798
-13.654637 12.817926 -2.0660677
-13.584375 12.909682 -2.0674074
-13.464087 12.953521 -2.0610437
-13.36513 13.017171 -2.0580294
-13.27227 13.086374 -2.0560198
-13.166403 13.142292 -2.0520008
-13.066642 13.203761 -2.0489862
-12.986074 13.284399 -2.049098
-12.907769 13.367404 -2.0496562
-12.815217 13.435567 -2.0479815
-12.7155 13.495865 -2.0451906
-12.622972 13.563448 -2.0436275
-12.530768 13.631135 -2.042176
-12.423512 13.682016 -2.0382686
-12.329373 13.746891 -2.0365939
-12.213161 13.78658 -2.0312352
-12.120486 13.852284 -2.0298955
-12.011869 13.899326 -2.0258763
-11.909584 13.953116 -2.0229735
-11.807732 14.006935 -2.0201826
-11.734918 14.09516 -2.022527
-11.665882 14.188392 -2.0256531
-11.554174 14.229618 -2.0212989
-11.484674 14.322728 -2.0245366
-11.396575 14.392927 -2.0245366
-11.298253 14.450059 -2.0227504
-11.204518 14.512819 -2.0218573
-11.103811 14.56628 -2.0197361
-10.995102 14.60873 -2.0161633
-10.894588 14.661563 -2.014154
-10.792078 14.711308 -2.0118093
-10.678292 14.745056 -2.0073438
-10.57837 14.797365 -2.0055575
-10.494251 14.871737 -2.0068972
-10.398827 14.93014 -2.0061157
-10.297451 14.979745 -2.0042176
-10.201438 15.03689 -2.0034363
-10.09129 15.072778 -1.9998636
-9.9871111 15.117002 -1.9975191
-9.8887396 15.169672 -1.9964027
-9.7954741 15.230062 -1.9964027
-9.6858664 15.264708 -1.9930534
-9.6025677 15.340697 -1.9952863
-9.4915504 15.372272 -1.9917138
-9.3923969 15.422583 -1.9907089
-9.289402 15.466293 -1.9889227
-9.1847057 15.506756 -1.9868015
-9.0888834 15.561962 -1.9866898
-8.9743814 15.584713 -1.9824475
-8.8535643 15.595411 -1.9767537
-8.7674122 15.666786 -1.9789865
-8.6639175 15.707235 -1.9773118
-8.5569353 15.740892 -1.9748558
-8.4522114 15.778209 -1.9729578
-8.3510647 15.821864 -1.971953
-8.2414474 15.849003 -1.9689387
-8.1318111 15.875393 -1.9659244
-8.0226107 15.901922 -1.9630216
-7.9160433 15.933049 -1.9607888
-7.80896 15.962576 -1.9584444
-7.6944818 15.976169 -1.9542019
-7.5958834 16.022182 -1.9540902
-7.4907069 16.054079 -1.952304
-7.3854251 16.085291 -1.9505178
-7.28127 16.11853 -1.9490664
-7.1753707 16.147467 -1.9471685
-7.0745649 16.187548 -1.9467219
-6.9751067 16.23065 -1.9467219
-6.8722916 16.265821 -1.9458288
-6.772357 16.307682 -1.9458288
-6.6684127 16.339729 -1.9447123
-6.5735765 16.394173 -1.9463869
-6.4743166 16.437897 -1.9468335
-6.3726168 16.47546 -1.9466102
-6.2699938 16.510536 -1.9461637
-6.1758585 16.568251 -1.9485081
-6.0703259 16.595568 -1.94728
-5.9774461 16.657757 -1.9502945
-5.8774328 16.700682 -1.9510759
-5.7751727 16.73737 -1.9511876
-5.6695004 16.764017 -1.9501828
-5.5640306 16.790943 -1.9492897
-5.4599781 16.821932 -1.9489547
-5.357862 16.858906 -1.9494013
-5.2501841 16.87818 -1.9478383
-5.1439185 16.90152 -1.9468335
-5.0409665 16.935621 -1.9471685
-4.9372339 16.967188 -1.94728
-4.8335762 16.999073 -1.9475034
-4.7273192 17.021709 -1.9467219
-4.6178455 17.032171 -1.9446007
-4.5038466 17.024641 -1.94047
-4.3925977 17.025974 -1.9374555
-4.2827134 17.031404 -1.9349995
-4.183332 17.078596 -1.9374555
-4.0886035 17.146475 -1.9423678
-3.9855638 17.18092 -1.9434843
-3.3196917 14.720486 -1.6573448
-3.1867683 14.546433 -1.6350163
-3.0790541 14.479204 -1.6250802
-2.9393611 14.251591 -1.5968347
-2.8456264 14.238174 -1.5932621
-2.7693484 14.31293 -1.599849
-2.6776347 14.30914 -1.5975045
-2.5623786 14.173728 -1.5802
-2.4581101 14.090308 -1.5689241
-2.3757274 14.129625 -1.5717151
-2.2837451 14.111565 -1.568031
-2.1780198 14.002569 -1.5540757
-2.0427575 13.685431 -1.5165638
-1.9552293 13.673114 -1.5137727
-1.8741238 13.705529 -1.5161172
-1.7827903 13.66159 -1.5098653
-1.6990533 13.673257 -1.5099769
-1.6219983 13.741652 -1.5165638
-1.5762011 14.096015 -1.555527
-1.4851907 14.062926 -1.5507264
-1.4049709 14.133084 -1.5576482
-1.3512555 14.495664 -1.5976162
-1.2891775 14.812564 -1.6324486
-1.1907344 14.727087 -1.6219542
-1.1500994 15.400059 -1.6969779
-1.0396159 15.173841 -1.6707419
-1.0029768 16.085466 -1.7726715
-0.90660214 16.13299 -1.7773604
-0.7206338 14.401365 -1.5819863
-0.63216794 14.40353 -1.5817629
-0.60960543 16.149923 -1.7776953
-0.47723159 15.101506 -1.659466
-0.3831436 15.048518 -1.6532141
-0.28910872 14.963153 -1.6433896
-0.19843316 15.051093 -1.6531024
-0.10501616 14.901976 -1.6362444
-0.013807648 15.147795 -1.6638201
0.07908608 15.137657 -1.6627036
0.1732965 15.254142 -1.6758775
0.27996263 16.000969 -1.7599442
0.38538533 16.305933 -1.7944417
0.47889858 16.08374 -1.7697687
0.53048986 14.768602 -1.6222892
0.62147397 14.774005 -1.6232939
0.71225733 14.772891 -1.6236289
0.79350674 14.595586 -1.6042031
0.84854466 14.02008 -1.5400087
0.93329853 13.99577 -1.5378876
1.0492543 14.403078 -1.5844424
1.1069343 14.008029 -1.5406786
1.1882268 13.946514 -1.5345383
1.2732362 13.933023 -1.5338684
1.3595719 13.93385 -1.5348731
1.4508878 13.981586 -1.5412368
1.5428405 14.028726 -1.5476004
1.6154742 13.903502 -1.5345383
1.7043757 13.92292 -1.5378876
1.7920549 13.929942 -1.5398971
1.8782905 13.924593 -1.5405669
1.968416 13.946261 -1.5443628
2.0469968 13.886731 -1.539004
2.1342785 13.88766 -1.5405669
2.2236891 13.900798 -1.5435812
2.3064964 13.872188 -1.5419066
2.4018786 13.91751 -1.5487168
2.5635209 14.329015 -1.5973929
2.5739348 13.894804 -1.54961
2.6587694 13.876797 -1.5493866
2.7448304 13.865096 -1.5499449
2.842983 13.912253 -1.5573133
2.929523 13.900381 -1.5579832
3.0267785 13.937498 -1.5643468
3.1272011 13.98558 -1.5720501
3.5560193 15.457554 -1.7439793
3.3301516 14.079608 -1.5874567
3.758579 15.466828 -1.7502313
3.8418643 15.397194 -1.7448725
3.9057052 15.253956 -1.7310288
3.7572048 14.307943 -1.6239638
3.8565478 14.327803 -1.6289877
3.957068 14.349854 -1.6343465
4.0374818 14.298525 -1.6312206
4.1480384 14.352721 -1.6404868
4.3005443 14.54523 -1.6660529
4.3457117 14.373031 -1.6489717
4.3622293 14.11443 -1.6217309
4.4466572 14.080766 -1.6209494
4.5466981 14.095776 -1.6259733
4.780128 14.51407 -1.6787802
4.8637118 14.468453 -1.6768823
4.9482059 14.426118 -1.6754309
4.9394956 14.117836 -1.6423848
5.0280313 14.092877 -1.6430546
5.2033954 14.306444 -1.672305
5.4710159 14.759717 -1.7304707
5.5488381 14.692401 -1.7264515
5.5907202 14.532866 -1.7113798
5.5935216 14.278069 -1.6848089
5.682497 14.247171 -1.6852554
5.9208193 14.584028 -1.730359
6.0060201 14.537321 -1.7291309
6.0438933 14.378352 -1.7142825
6.1308317 14.338255 -1.7139475
6.2567363 14.387854 -1.7246652
6.3440967 14.347375 -1.7244419
6.440567 14.327212 -1.7267864
6.525878 14.282001 -1.7261165
6.7138319 14.458007 -1.7529107
6.8142915 14.441704 -1.7560368
6.9053531 14.404997 -1.7567066
6.9957857 14.366823 -1.7572647
7.0705919 14.296904 -1.7539155
7.17067 14.278116 -1.7570415
7.2667208 14.250669 -1.7591627
7.3722973 14.241115 -1.7636284
7.4456735 14.16922 -1.7602792
7.6058912 14.260932 -1.777807
7.6743317 14.179036 -1.7733413
7.8066316 14.21443 -1.7839473
7.9077296 14.191436 -1.787185
8.0103064 14.170332 -1.7907575
8.1094608 14.142467 -1.7935486
8.1970835 14.09416 -1.7937719
8.3268261 14.11721 -1.8033731
8.4163513 14.07097 -1.8040429
8.5185061 14.045403 -1.8075038
8.627429 14.030117 -1.8124161
8.7575121 14.047754 -1.821794
8.8785801 14.0492 -1.8291625
8.9935617 14.039644 -1.8351911
9.1352749 14.070046 -1.8466903
9.2525711 14.061048 -1.8530539
9.3678932 14.04783 -1.858971
9.5000935 14.058427 -1.8682373
9.6277208 14.060548 -1.8764988
9.7630939 14.072244 -1.8862118
9.885829 14.064106 -1.8933568
10.016323 14.065514 -1.9019533
10.137321 14.052146 -1.9086518
10.277294 14.063497 -1.9189229
10.418967 14.075253 -1.9294174
10.551037 14.072282 -1.9380138
10.67745 14.060303 -1.9454938
10.816228 14.063054 -1.9552068
10.960937 14.071685 -1.9659244
11.111079 14.085309 -1.9775352
11.275444 14.114699 -1.9916022
11.407461 14.101649 -1.999752
11.558002 14.109804 -2.0111396
11.703362 14.109755 -2.0215223
11.837649 14.094752 -2.0298955
11.947085 14.049106 -2.0339146
12.014909 13.95445 -2.0307887
12.091817 13.870727 -2.0293372
12.172095 13.791056 -2.0285559
12.24192 13.699807 -2.0260997
12.317082 13.614854 -2.0246482
12.364818 13.500181 -2.0187311
12.427826 13.402925 -2.0154936
12.481946 13.296711 -2.0109162
12.548238 13.204024 -2.00846
12.600083 13.096704 -2.0037711
12.660099 12.998499 -2.0005336
12.722176 12.902883 -1.9977424
12.775834 12.799257 -1.9937234
12.835057 12.701752 -1.9907089
12.880065 12.590802 -1.9855734
12.92491 12.480472 -1.9805496
12.983987 12.384469 -1.9778701
13.043097 12.288894 -1.9753023
13.092794 12.184936 -1.9713949
13.124882 12.065362 -1.9649196
13.180274 11.967901 -1.9621285
13.236444 11.871542 -1.9595608
13.273334 11.758471 -1.9542019
13.321301 11.655865 -1.9506294
13.376028 11.559611 -1.9481733
13.435367 11.467643 -1.9464986
13.487244 11.369617 -1.9438192
13.547587 11.279016 -1.9424795
13.601955 11.183685 -1.9403583
13.654892 11.087486 -1.9381254
13.693207 10.979869 -1.9338831
13.736948 10.877135 -1.9305338
13.790121 10.782236 -1.9286358
13.840289 10.685272 -1.9264029
13.883464 10.58328 -1.923277
13.929085 10.483551 -1.9205976
13.973207 10.383068 -1.9178065
14.02143 10.285966 -1.9156853
14.067378 10.187498 -1.9133408
14.097286 10.077872 -1.9088751
14.141807 9.9791508 -1.9065306
14.177493 9.8745832 -1.9030697
14.217342 9.7733316 -1.9002787
14.258129 9.6730795 -1.8977109
14.289138 9.5666142 -1.8939151
14.326011 9.4645147 -1.8910123
14.3655 9.3644943 -1.8885562
14.39678 9.2595081 -1.8850954
14.421439 9.1507635 -1.8808529
14.462153 9.0526123 -1.8788433
14.489525 8.9464741 -1.8751591
14.52802 8.847579 -1.8730379
14.562441 8.746501 -1.8704702
14.590184 8.6417894 -1.8671209
14.61805 8.5375681 -1.8638833
14.643464 8.4323397 -1.8604224
14.68283 8.3354616 -1.8588593
14.714621 8.2345352 -1.8564032
14.749207 8.1354532 -1.8543936
14.763052 8.025341 -1.8498163
14.800629 7.9285045 -1.8483649
14.839332 7.8324375 -1.8471369
14.873005 7.733902 -1.8453506
14.906912 7.6357012 -1.843676
14.935739 7.5351377 -1.8414432
14.937195 7.4212427 -1.835861
14.972631 7.3246465 -1.834633
14.995804 7.2222891 -1.8319535
14.997634 7.1101313 -1.8267063
15.020267 7.0083089 -1.8241385
15.047633 6.9089651 -1.8222406
15.089743 6.8165045 -1.8222406
15.115846 6.7169266 -1.8203428
15.145848 6.6192751 -1.819003
15.170657 6.519547 -1.8171051
15.202137 6.4228578 -1.8161004
15.245849 6.3313642 -1.8166585
15.296371 6.2425799 -1.8181099
15.349145 6.1545234 -1.8198961
15.406036 6.0678749 -1.8222406
15.4541 5.9775333 -1.8235804
15.496989 5.885066 -1.8243618
15.525358 5.7870903 -1.8234687
15.561508 5.6920609 -1.8235804
15.598948 5.5974774 -1.8239152
15.648934 5.507267 -1.8258132
15.703098 5.4182749 -1.8282694
15.737932 5.3224573 -1.8284926
15.77501 5.227354 -1.8290508
15.805842 5.1301551 -1.8289392
15.831341 5.0312696 -1.8282694
15.853374 4.9313788 -1.8272645
15.877629 4.8322754 -1.8265947
15.893646 4.730792 -1.8250318
15.949092 4.6409564 -1.8281577
15.981091 4.5440941 -1.8286042
16.020163 4.449142 -1.829944
16.074974 4.3583021 -1.8331816
16.111021 4.2621279 -1.834298
16.138794 4.1636887 -1.8345213
16.175604 4.067493 -1.835861
16.206047 3.9695833 -1.8365309
16.233967 3.8709922 -1.8369775
16.262253 3.7724326 -1.8375356
16.290911 3.6738901 -1.8382055
16.311205 3.5734365 -1.8379822
16.344488 3.4757662 -1.839322
16.368427 3.3760152 -1.8396568
16.388834 3.2755167 -1.8396568
16.406672 3.1745176 -1.8394336
16.429749 3.0745196 -1.8398801
16.449282 2.9738276 -1.8399918
16.5054 2.8795023 -1.8443458
16.522757 2.778173 -1.8443458
16.546358 2.6778502 -1.8451273
16.555605 2.5752041 -1.8443458
16.573059 2.4738657 -1.8445691
16.58596 2.3718474 -1.8443458
16.601185 2.2701678 -1.8444575
6.6870003 0.87242311 -0.71966052
6.6281271 0.82340896 -0.71240377
6.55509 0.77351916 -0.70358402
6.5132961 0.72809172 -0.69833684
6.5225821 0.68863517 -0.69889504
6.5217404 0.64810872 -0.69833684
6.529552 0.60844892 -0.6987834
6.5321727 0.56828672 -0.69867176
6.5404892 0.52859592 -0.69923002
6.5436096 0.48845428 -0.69923002
6.5445004 0.44815835 -0.69900668
6.5312581 0.40700373 -0.69722044
6.5445466 0.36753461 -0.69844848
6.5417156 0.32712263 -0.69789028
6.5277152 0.28627965 -0.69610399
6.5214047 0.24592088 -0.69521087
6.5188179 0.20577601 -0.69476432
6.5189643 0.1657481 -0.69465268
6.5178714 0.12570693 -0.69442934
6.5284567 0.085842915 -0.69554579
6.530848 0.045797504 -0.69576907
6.5290184 0.0057222466 -0.69554579
6.5378742 -0.034385651 -0.69655055
6.5375404 -0.07450065 -0.69655055
6.5349727 -0.11457812 -0.69632727
6.5550098 -0.15516637 -0.69867176
6.5688338 -0.1958275 -0.70034641
6.5873709 -0.23684233 -0.70257926
6.598701 -0.27779981 -0.70403063
6.6137462 -0.31909657 -0.7059285
6.6146407 -0.35983351 -0.70626348
6.6212358 -0.40095347 -0.70726824
6.6870675 -0.4461334 -0.71497154
14.831244 -1.0804338 -1.6326718
14.339901 -1.1331496 -1.5780787
14.742606 -1.2560298 -1.6242987
14.707902 -1.3440242 -1.6212844
14.627177 -1.427202 -1.6131345
14.568723 -1.5117986 -1.6075524
14.526574 -1.5975782 -1.6038681
10.596682 -1.2313448 -1.1605363
10.589913 -1.2964624 -1.1606479
10.585701 -1.3619236 -1.1610945
10.586009 -1.4280459 -1.1620992
10.583935 -1.4939455 -1.1628808
10.582435 -1.5600183 -1.1637739
13.870962 -2.1317129 -1.538669
13.800708 -2.2076807 -1.5321938
13.832975 -2.2999778 -1.5374409
14.020333 -2.419621 -1.5604392
13.969029 -2.4991281 -1.5563085
13.85865 -2.5672386 -1.5454792
14.128605 -2.7070079 -1.5781904
14.197515 -2.8106287 -1.588015
13.307627 -2.719445 -1.4879833
14.210575 -2.9948876 -1.5935971
14.196787 -3.0830798 -1.5941553
14.178572 -3.1703484 -1.5942669
14.154978 -3.2563958 -1.5938203
14.143435 -3.3452463 -1.5948251
8.2650032 -2.0086634 -0.91760248
8.2612 -2.0615036 -0.91860723
13.876334 -3.553009 -1.5712686
13.866767 -3.6413665 -1.5727199
7.6432152 -2.0574832 -0.85128689
7.653439 -2.1106818 -0.8539663
14.02118 -3.9591761 -1.5988443
14.03672 -4.0567212 -1.6035333
8.0163994 -2.3703732 -0.90119106
7.9627042 -2.4077256 -0.89661372
7.9439831 -2.4553649 -0.89616716
7.935401 -2.5061567 -0.89694864
8.4551821 -2.7274518 -0.9601382
13.705161 -4.513742 -1.5831027
13.639529 -4.5850854 -1.578637
13.597979 -4.664176 -1.5770739
7.7684946 -2.7182038 -0.88667756
13.484496 -4.8109927 -1.5704871
13.448185 -4.891264 -1.5697056
13.394625 -4.965054 -1.5669146
13.349962 -5.0418825 -1.5652399
13.291878 -5.1133547 -1.5620023
13.250074 -5.1908288 -1.5607742
13.205975 -5.2672462 -1.5593228
13.16604 -5.3451872 -1.5584297
13.110952 -5.4167657 -1.5557503
13.068308 -5.4932604 -1.5546339
12.987755 -5.5534186 -1.5489401
12.92883 -5.6223059 -1.5459257
12.870458 -5.6910815 -1.5430231
12.818981 -5.7626123 -1.5410135
12.767111 -5.8337264 -1.539004
12.694121 -5.8947949 -1.5344266
12.618169 -5.9539156 -1.5295143
12.56258 -6.0222068 -1.5271698
12.540581 -6.1065717 -1.5290678
12.482388 -6.1732726 -1.5265
12.405199 -6.230124 -1.5215877
12.363197 -6.304318 -1.5211412
12.309279 -6.3722925 -1.5192432
12.218925 -6.4208908 -1.512768
12.145101 -6.4775066 -1.5084139
12.089396 -6.5433917 -1.5064044
12.056857 -6.6217527 -1.5074091
12.021209 -6.6985097 -1.5080791
11.9695 -6.7662764 -1.5067393
11.941551 -6.8475013 -1.5085256
11.866667 -6.90166 -1.5042832
11.812968 -6.9677796 -1.5028318
11.750378 -7.0283995 -1.500264
11.691736 -7.0910907 -1.4982544
11.615838 -7.1429167 -1.4940121
11.559985 -7.2066956 -1.492449
11.509667 -7.2737746 -1.4916676
11.443899 -7.3308597 -1.4888765
11.382033 -7.3901172 -1.4866437
11.324852 -7.4521694 -1.4850807
11.269818 -7.5154529 -1.4838526
11.216082 -7.5794544 -1.4828478
11.176744 -7.6531849 -1.4838526
11.133657 -7.7244525 -1.4844108
11.08849 -7.7943358 -1.4847457
11.035599 -7.8587685 -1.4840759
10.975887 -7.9181943 -1.482513
10.915863 -7.9771838 -1.4809499
10.864314 -8.0422382 -1.480615
10.813173 -8.1075573 -1.4803917
10.752142 -8.1653385 -1.4788287
10.703414 -8.2323704 -1.4790519
10.63702 -8.2856779 -1.4768192
10.596123 -8.3587904 -1.4782705
10.546187 -8.4248896 -1.4784938
10.489659 -8.4856911 -1.477824
10.422019 -8.5373011 -1.4755911
10.354141 -8.5883999 -1.4733583
10.275375 -8.6300411 -1.4695624
10.231314 -8.7006521 -1.4709021
10.175475 -8.761322 -1.4705671
10.117031 -8.8196745 -1.4698973
10.053782 -8.8736944 -1.4685576
9.9895124 -8.9266081 -1.4671062
9.9205494 -8.9750681 -1.464985
9.8513689 -9.0230179 -1.4628638
9.7812452 -9.0697813 -1.460631
9.7138176 -9.1187458 -1.4588447
9.6454363 -9.1665392 -1.4569468
9.5868616 -9.2234831 -1.4566119
9.5322227 -9.284214 -1.4569468
9.4701233 -9.3376436 -1.4561653
9.4063196 -9.3892574 -1.4551605
9.3548231 -9.4531536 -1.4561653
9.3008108 -9.5146389 -1.4568352
9.2408752 -9.5700989 -1.4566119
7.0289249 -7.3694396 -1.1061665
9.1234207 -9.6835012 -1.4567235
9.0651865 -9.7407541 -1.4569468
9.0012121 -9.7918043 -1.4562769
8.9416294 -9.8475866 -1.4563886
8.8817005 -9.9030056 -1.4565002
6.7384162 -7.6067967 -1.1037103
6.6785269 -7.6330423 -1.1014775
6.5496912 -7.5791421 -1.0874106
2.124943 -2.4900656 -0.32980537
2.1096241 -2.5030572 -0.32980537
2.0904109 -2.5113723 -0.32913551
2.0724375 -2.5210812 -0.32868895
2.0575559 -2.5345213 -0.32880059
2.0419655 -2.5470986 -0.32880059
2.0423381 -2.5798359 -0.33170328
2.0130036 -2.5750964 -0.32924715
1.9977725 -2.588186 -0.32935879
1.944501 -2.5513968 -0.32243696
1.9150643 -2.5450187 -0.31986919
1.8917069 -2.5463521 -0.31841785
1.8866279 -2.5723341 -0.32042742
1.8824667 -2.5999587 -0.32266027
1.8861283 -2.6389461 -0.3264561
1.880214 -2.6650844 -0.32846567
1.8979045 -2.725497 -0.33516419
1.8766418 -2.7305398 -0.33427107
1.8659894 -2.751049 -0.33549914
1.8612373 -2.7806134 -0.33795527
1.8452364 -2.7936397 -0.33817855
1.8242613 -2.7990818 -0.33739704
7.2054191 -11.203226 -1.4585098
7.1269579 -11.232123 -1.4565002
7.0452499 -11.255426 -1.4538208
6.9744887 -11.295907 -1.4534858
6.8988442 -11.328304 -1.4521462
6.8225536 -11.359346 -1.4506948
6.7486739 -11.394156 -1.4498017
6.6816406 -11.440498 -1.4504715
6.6217318 -11.499365 -1.452816
6.5495763 -11.537187 -1.4524812
6.472353 -11.565884 -1.4510298
6.4118242 -11.624522 -1.4534858
6.3389525 -11.661026 -1.453151
6.2574277 -11.681307 -1.4508065
6.1717181 -11.693116 -1.4474572
6.0943527 -11.720185 -1.4461175
6.0209651 -11.754705 -1.4457825
5.9460402 -11.786105 -1.4451127
5.872726 -11.820587 -1.4448894
5.8441935 -11.946557 -1.4561653
5.7759557 -11.992935 -1.457505
5.7107739 -12.046108 -1.4597379
5.6329713 -12.072818 -1.4587331
5.5480061 -12.083673 -1.4558303
5.4766216 -12.123827 -1.4566119
5.3863893 -12.121786 -1.4522578
5.2896228 -12.103616 -1.4460058
5.2015238 -12.103889 -1.4420984
5.0911875 -12.050447 -1.4317156
5.0057168 -12.053926 -1.4283663
4.9361672 -12.095454 -1.4297061
4.8640771 -12.131048 -1.4303759
4.7636929 -12.095018 -1.4224494
4.6793513 -12.098069 -1.4193233
4.6032667 -12.121908 -1.4187651
4.5183883 -12.121991 -1.4154159
4.4381204 -12.133621 -1.413518
4.361908 -12.155948 -1.4129597
4.2872381 -12.182484 -1.4129597
4.2094898 -12.200106 -1.4119549
4.1278658 -12.205936 -1.4096104
4.0528941 -12.231034 -1.4096104
3.9814513 -12.267015 -1.4109502
3.9024951 -12.279849 -1.4096104
3.823827 -12.293125 -1.4083824
3.7419598 -12.295441 -1.4059262
3.6638942 -12.309598 -1.4049214
3.5941262 -12.351885 -1.4072659
3.5220742 -12.387088 -1.408829
3.4444065 -12.40272 -1.408159
3.3692801 -12.427458 -1.4086057
3.3036387 -12.488246 -1.4132947
3.2361362 -12.543884 -1.4174254
3.1593497 -12.564469 -1.417537
3.0824325 -12.584583 -1.4176487
3.0067706 -12.610026 -1.4184302
2.9392221 -12.670832 -1.4233425
2.8633878 -12.697352 -1.4243472
2.7790437 -12.685561 -1.420998
2.6966064 -12.68099 -1.4185418
2.6149321 -12.678805 -1.4164206
2.533581 -12.677072 -1.4144111
2.4493289 -12.659206 -1.4106152
2.3688653 -12.659345 -1.4089406
2.2899067 -12.666797 -1.408159
2.2126539 -12.683545 -1.408494
2.1349523 -12.697864 -1.4086057
2.0571582 -12.711705 -1.4087173
1.9794276 -12.726052 -1.4089406
1.8979298 -12.715352 -1.4063728
1.8169194 -12.7061 -1.4040283
0.40198696 -2.9420786 -0.29564279
0.37132245 -2.8479216 -0.28470185
0.23948258 -1.9300586 -0.1805395
0.22635376 -1.9206359 -0.17931144
0.2145647 -1.9219886 -0.17931144
0.20381154 -1.9331515 -0.18042786
0.19056946 -1.9205215 -0.17886488
0.17841272 -1.9176968 -0.17841831
0.16802163 -1.9345955 -0.18020459
0.15630825 -1.937571 -0.18042786
0.14530501 -1.9503855 -0.18176758
0.1326554 -1.9413261 -0.18065116
0.12086489 -1.9440871 -0.18087444
0.1087108 -1.9408234 -0.18042786
0.096651003 -1.9384764 -0.18009295
0.085016519 -1.9449898 -0.1807628
0.073568299 -1.9583843 -0.18221414
0.11533269 -3.659246 -0.37334588
0.092143543 -3.6310754 -0.37010828
0.070304096 -3.6544242 -0.37267604
0.047643356 -3.6369009 -0.37066647
0.025115963 -3.6073132 -0.3673172
0.0030047388 -3.6322432 -0.37010828
-0.018982755 -3.5745566 -0.36363301
-0.042064253 -3.6757286 -0.37502053
-0.22918594 -13.094699 -1.4333903
-0.084564336 -3.5646603 -0.36262822
-0.10619868 -3.5561278 -0.36173508
-0.12951377 -3.5971198 -0.36642405
-0.55285597 -13.141725 -1.4397539
-0.63520354 -13.173819 -1.443773
-0.71996075 -13.242109 -1.4519229
-0.23101403 -3.8120756 -0.39109704
-0.25142598 -3.7659667 -0.38607311
-0.2730853 -3.7445307 -0.38384026
-0.29926461 -3.7834017 -0.3884176
-0.31007668 -3.6359401 -0.37200618
-0.34512779 -3.7735066 -0.38774776
-1.3021684 -13.345363 -1.4684459
-1.3755183 -13.255081 -1.4591796
-1.4549778 -13.229599 -1.4572817
-1.537387 -13.23128 -1.4585098
-0.35967422 -2.9355369 -0.29430309
-0.37691894 -2.9273608 -0.29363322
-1.7923589 -13.287406 -1.4683343
-1.8777431 -13.30371 -1.4714603
-1.9612215 -13.304718 -1.4729116
-2.0604784 -13.407354 -1.4859738
-0.48725447 -3.0439498 -0.30837002
-0.50624853 -3.0428634 -0.3085933
-2.2940729 -13.292731 -1.477489
-2.3813667 -13.310686 -1.4811732
-2.4631755 -13.296801 -1.4812849
-2.5430341 -13.272653 -1.48028
-0.55265415 -2.7899923 -0.28157586
-0.56817132 -2.7787597 -0.28068271
-0.58275193 -2.7635524 -0.27934301
-0.59526956 -2.7395313 -0.27699852
-0.60317814 -2.6960652 -0.27242118
-3.053231 -13.271745 -1.4920025
-3.1330066 -13.245991 -1.491221
-3.2179778 -13.241968 -1.4930073
-3.29989 -13.224867 -1.4933422
-3.382453 -13.210146 -1.4940121
-0.7330457 -2.7902606 -0.2861532
-0.74963605 -2.7837911 -0.28592992
-3.617111 -13.116908 -1.4906628
-3.6975267 -13.094467 -1.4906628
-0.816199 -2.8229835 -0.29218188
-0.80561334 -2.7235777 -0.2811293
-0.92353708 -3.0534155 -0.32042742
-4.0356655 -13.057697 -1.497473
-4.1207967 -13.0488 -1.4993709
-4.2309837 -13.1169 -1.5104235
-4.3300381 -13.147326 -1.517122
-4.420126 -13.148768 -1.5204713
-4.5139403 -13.15994 -1.5250486
-4.594275 -13.131057 -1.524937
-4.656394 -13.051141 -1.5187967
-1.1803288 -3.2443371 -0.34990099
-1.1636046 -3.1382623 -0.33806691
-1.1631784 -3.0790021 -0.33181491
-1.186687 -3.0838645 -0.33326629
-5.0886154 -12.989142 -1.529291
-1.302485 -3.264756 -0.35693446
-1.25708 -3.0955677 -0.33739704
-1.2271039 -2.9693146 -0.32299519
-5.4343467 -12.928143 -1.5375526
-1.3247851 -3.0974889 -0.34052303
-1.3493137 -3.1020606 -0.34208602
-5.6139255 -12.695954 -1.5215877
-5.6970172 -12.673052 -1.5230391
-5.7713666 -12.630627 -1.522146
-5.8336911 -12.562529 -1.5181268
-5.9136319 -12.532788 -1.5189083
-1.3294184 -2.7724977 -0.30747688
-1.3603263 -2.7928791 -0.31104946
-1.3651032 -2.7595379 -0.30792347
-1.378442 -2.7440054 -0.30703032
-6.3165059 -12.3871 -1.5241555
-6.3869109 -12.33752 -1.5228158
-1.4462817 -2.7515965 -0.31127274
-1.4589293 -2.7347789 -0.31026796
-6.6176524 -12.226607 -1.5239322
-6.7365575 -12.265907 -1.5342033
-6.842165 -12.279032 -1.5412368
-6.9203129 -12.242008 -1.5419066
-6.9938154 -12.19673 -1.5415717
-4.94029 -8.4940729 -1.0659752
-7.1470003 -12.116834 -1.5424649
-7.2227435 -12.075312 -1.5427998
-7.2967 -12.030766 -1.5427998
-7.3807926 -12.002698 -1.5450326
-7.4695458 -11.981641 -1.5482702
-5.1773882 -8.1922293 -1.0507919
-5.223269 -8.1536131 -1.0498987
-5.2742825 -8.1230774 -1.050122
-5.3518839 -8.1329002 -1.0558157
-5.6431646 -8.4620419 -1.1047151
-8.0039759 -11.844329 -1.568031
-8.1040106 -11.835173 -1.5735015
-8.1691132 -11.77461 -1.5720501
-8.2486353 -11.734833 -1.5735015
-8.3325891 -11.700998 -1.575846
-8.4152746 -11.664963 -1.5779672
-8.4743776 -11.596259 -1.5756227
-1.7285336 -2.3345563 -0.28838605
-8.6732712 -11.567721 -1.5863403
-8.6905985 -11.443849 -1.5764041
-8.7358141 -11.358012 -1.5718268
-1.7285154 -2.2185216 -0.27800331
-1.6528554 -2.0947406 -0.26181516
-1.6489313 -2.0635955 -0.2588008
-8.536315 -10.552241 -1.486867
-8.6525373 -10.562703 -1.4960216
-1.6517433 -1.9908257 -0.25266048
-1.6600932 -1.9760873 -0.25199062
-8.826827 -10.379695 -1.492784
-1.6868113 -1.9585789 -0.2524372
-1.707939 -1.9586793 -0.25400019
-1.7107191 -1.9377317 -0.2524372
-9.108695 -10.193294 -1.4978079
-9.1724024 -10.138685 -1.4980311
-2.3957977 -2.615304 -0.36050701
-1.7131643 -1.8470702 -0.2450688
-1.7469095 -1.8604338 -0.248753
-2.4887116 -2.6183062 -0.36787543
-9.5238705 -9.8991022 -1.5052879
-9.5768042 -9.8326473 -1.5040599
-9.6306763 -9.7673321 -1.5030551
-3.245821 -3.2513466 -0.47817808
-9.7907791 -9.6889563 -1.5095303
-3.284765 -3.2105758 -0.47806644
-3.068501 -2.9625602 -0.44122446
-3.2994678 -3.1467042 -0.47427061
-10.017653 -9.4382639 -1.5083023
-10.075377 -9.3766193 -1.5083023
-3.1695449 -2.9132652 -0.44569016
-3.5257792 -3.2010658 -0.49704564
-3.535737 -3.1707461 -0.49559429
-3.5841355 -3.1746914 -0.49994835
-3.4345303 -3.0047462 -0.47471717
-3.4235795 -2.9582736 -0.47036311
-3.4152124 -2.9146304 -0.46645564
-10.606905 -8.9414062 -1.5205829
-3.4423215 -2.8655066 -0.46522757
-3.8612866 -3.1744213 -0.52361655
-3.9863796 -3.2364895 -0.53891152
-10.703752 -8.5826683 -1.5033901
-10.723492 -8.4909191 -1.4987011
-10.67675 -8.3478346 -1.484634
-3.9387529 -3.0405154 -0.52104878
-10.761791 -8.2035341 -1.4822896
-10.801602 -8.1295776 -1.4808383
-10.852877 -8.064333 -1.4810616
-10.902955 -7.9981766 -1.4811732
-10.987239 -7.9567738 -1.4860854
-11.052022 -7.9007664 -1.4883183
-11.201784 -7.9044251 -1.5022736
-11.300632 -7.8707581 -1.5091954
-11.450257 -7.871078 -1.5230391
-11.546034 -7.8330321 -1.5295143
-11.728477 -7.8521576 -1.5477121
-11.85852 -7.8342772 -1.5587647
-12.027076 -7.8400583 -1.5749528
-5.7062349 -3.6697628 -0.72423786
-5.7294841 -3.6352134 -0.7243495
-3.1834354 -1.9923068 -0.38395193
-3.2556336 -2.0098054 -0.39187852
-12.29416 -7.487083 -1.5791951
-12.27768 -7.3741531 -1.5710453
-3.534899 -2.0933716 -0.42358497
-7.6408234 -4.4623461 -0.95611912
-7.6327524 -4.3950462 -0.95154178
-7.7122912 -4.378058 -0.95835197
-7.9037743 -4.422864 -0.97956401
-7.9629588 -4.3920436 -0.98369473
-7.8177629 -4.2495971 -0.96170121
-7.8296752 -4.1940403 -0.95991492
-7.9976325 -4.2210689 -0.978001
-8.01192 -4.1659565 -0.97654963
-7.9303122 -4.0618968 -0.96304095
-7.9284697 -3.9997318 -0.95969164
-7.681427 -3.8161433 -0.9256407
-7.7046981 -3.768939 -0.9256407
-8.1914492 -3.9449682 -0.98347145
-8.2029295 -3.8886719 -0.9819085
-8.0807495 -3.7701931 -0.96382242
-8.2247458 -3.7761056 -0.97878247
-5.7898993 -2.6152046 -0.67578506
-5.7804098 -2.5683296 -0.6726591
-8.1125641 -3.5452752 -0.95667732
-8.3213291 -3.5758698 -0.97956401
-8.291852 -3.5030844 -0.97331202
-8.7105751 -3.6171794 -1.0216532
-8.4317436 -3.4408712 -0.98514611
-8.4148808 -3.3739059 -0.98056877
-8.2523518 -3.2500992 -0.95846361
-8.2276516 -3.1821938 -0.95310473
-8.5108595 -3.2318511 -0.98481119
-8.5193558 -3.1754031 -0.98347145
-8.5610781 -3.131263 -0.98615092
-8.3603239 -2.999794 -0.95991492
-8.5707369 -3.0160723 -0.98280162
-8.6059914 -2.9692612 -0.98481119
-7.8417754 -2.6518197 -0.89203638
-7.7965846 -2.5833342 -0.88477963
-8.8019123 -2.8566787 -1.0016692
-8.7510862 -2.7809448 -0.99363095
-8.7708321 -2.7280824 -0.99396586
-8.750329 -2.6629293 -0.9896118
-8.7188816 -2.5950119 -0.98402971
-8.8205156 -2.5664556 -0.9940775
-8.9584455 -2.5470779 -1.0083678
-8.9576283 -2.487541 -1.0064698
-8.7703495 -2.3776577 -0.98291326
-8.7963018 -2.326849 -0.98425299
-9.0384636 -2.3316731 -1.0107123
-9.0275431 -2.2698689 -1.0078095
-9.043231 -2.2149069 -1.0080328
-9.0218515 -2.1510785 -1.0040137
-9.2497854 -2.1455388 -1.0287982
-9.1076727 -2.0537601 -1.0109355
-9.4210262 -2.0637715 -1.0455446
-9.2964582 -1.9767774 -1.029803
-9.4076853 -1.9401759 -1.0411906
-9.4661875 -1.8917645 -1.0465494
-9.7078695 -1.8782028 -1.0728971
-10.124578 -1.8944681 -1.1192286
-10.423512 -1.8842927 -1.1520514
-10.806883 -1.8852082 -1.1944755
-11.383699 -1.9139534 -1.2588933
-12.001475 -1.9421977 -1.3278883
-13.256298 -2.0619197 -1.4692274
-13.579283 -2.0269101 -1.5045065
-14.649965 -2.0949461 -1.6246337
-15.443317 -2.111804 -1.713166
-15.903351 -2.0753992 -1.7638516
-17.113972 -2.1267021 -1.8994972
-17.361578 -2.0493839 -1.9260681
-17.359013 -1.9411598 -1.9243934
-17.367632 -1.8342972 -1.9240584
-17.381527 -1.7279918 -1.9243934
-17.387844 -1.6209393 -1.9239469
-17.416273 -1.5158565 -1.9260681
-17.420294 -1.4085631 -1.9255098
-17.43951 -1.3024621 -1.9267379
-17.460062 -1.1963141 -1.9281893
-17.461123 -1.0887874 -1.9275194
-17.455568 -0.98095816 -1.9261796
-17.454311 -0.87348652 -1.9253982
-17.456364 -0.76624161 -1.9250633
-17.44187 -0.65840429 -1.922942
-17.444588 -0.55133921 -1.9228305
-15.574466 1.1480169 -1.9125522
-15.55328 1.2424512 -1.910817
-15.499887 1.3339437 -1.9051154
-15.504255 1.43021 -1.9067267
-15.464576 1.5222996 -1.9028844
-15.48455 1.62026 -1.9066027
-15.44473 1.7119591 -1.9028844
-15.445762 1.8080794 -1.9043717
-15.427483 1.9019682 -1.9035041
-15.399777 1.9945532 -1.901521
-15.367583 2.0863357 -1.899042
-15.340739 2.1786358 -1.8973067
-15.309415 2.2701027 -1.8950757
-15.298139 2.3644516 -1.8954475
-15.270607 2.4562252 -1.8938361
-15.245461 2.5482411 -1.8925967
-15.210963 2.6385138 -1.8902416
-15.210113 2.7346075 -1.8922248
-15.181341 2.8257036 -1.8907374
-15.182231 2.9223664 -1.8930925
-15.148442 3.0123701 -1.8911093
-15.132589 3.1058612 -1.8914812
-15.097715 3.1953659 -1.889498
-15.052618 3.282445 -1.8862753
-15.02348 3.3727875 -1.8851599
-15.005403 3.4655764 -1.8855317
-14.977098 3.5559776 -1.8846641
-14.964637 3.6501606 -1.8859035
-14.936183 3.7404664 -1.8851599
-14.901418 3.8290782 -1.8836725
-14.865169 3.9171515 -1.8820611
-14.840854 4.0082889 -1.8820611
-14.837976 4.1053629 -1.8849119
-14.784821 4.1884837 -1.8813174
-14.753124 4.2774644 -1.8805737
-14.728503 4.3684721 -1.8808216
-14.697623 4.4576097 -1.8803258
-14.6463 4.5403619 -1.8772272
-14.620058 4.6307435 -1.877475
-14.593257 4.7209744 -1.877723
-14.552709 4.8066926 -1.8762356
-14.510717 4.8917742 -1.8746243
-14.471984 4.9778128 -1.8735087
-14.435551 5.0645461 -1.8727651
-14.397664 5.1506853 -1.8718973
-14.364857 5.2385907 -1.8717735
-14.329652 5.3255959 -1.8714015
-14.287426 5.4099064 -1.8701621
-14.262294 5.5006847 -1.8712777
-14.219038 5.584465 -1.8700382
-14.203854 5.6793442 -1.8726411
-14.182524 5.7720022 -1.8745003
-14.164259 5.8661313 -1.8768553
-14.143543 5.9594822 -1.8789624
-14.128598 6.0555367 -1.8819371
-14.121193 6.1552005 -1.8860275
-14.097674 6.2481651 -1.8880106
-14.077165 6.3427029 -1.8904896
-14.057828 6.4380507 -1.8932164
-14.026157 6.5279555 -1.8943319
-14.011851 6.6261997 -1.8979264
-13.992395 6.7223644 -1.9009012
-13.975853 6.820281 -1.9043717
-13.956857 6.9173651 -1.9075943
-13.934535 7.0131345 -1.9104452
-13.908913 7.1075349 -1.9129242
-13.886179 7.2037129 -1.9158989
-13.860153 7.2984915 -1.9185017
-13.830862 7.3918185 -1.9207329
-13.785246 7.4765439 -1.9207329
-13.758236 7.5715146 -1.9234596
-13.72798 7.6649833 -1.9258147
-13.694504 7.7568984 -1.9277979
-13.661277 7.849185 -1.9299049
-13.633432 7.9448533 -1.9328797
-13.608345 8.0424948 -1.9363502
-13.581721 8.139617 -1.9396969
-13.559505 8.2398071 -1.9437871
-13.539103 8.3415918 -1.9482492
-13.517962 8.4434357 -1.9527113
-13.479312 8.5347157 -1.9546945
-13.441721 8.6269112 -1.9569256
-13.406001 8.7205887 -1.9595286
-13.36798 8.8130608 -1.9618835
-13.331803 8.9070482 -1.9646103
-13.293333 8.9998102 -1.9670893
-13.263226 9.0986099 -1.9709318
-13.237294 9.2007771 -1.9755177
-13.21304 9.3046818 -1.9804757
-13.168623 9.3948021 -1.9824588
-13.119576 9.4818201 -1.9838223
-13.080364 9.5762119 -1.9867971
-13.030127 9.6627932 -1.9881605
-12.981699 9.7509069 -1.9898957
-12.923993 9.83218 -1.9902676
-12.896432 9.9367342 -1.9954734
-12.844605 10.023005 -1.9969608
-12.810889 10.123779 -2.0014229
-12.757051 10.209015 -2.0027864
-12.724235 10.311466 -2.0076203
-12.665328 10.393124 -2.008364
-12.620398 10.486496 -2.0114627
-12.564926 10.571403 -2.0129499
-12.512666 10.659241 -2.0150571
-12.456794 10.744242 -2.0166686
-12.39736 10.826348 -2.0177841
-12.341105 10.911416 -2.0195193
-12.283532 10.995538 -2.0211306
-12.224656 11.078698 -2.0226181
-12.178382 11.173626 -2.0263364
-12.127768 11.265024 -2.0294352
-12.078657 11.358262 -2.0329056
-12.034608 11.456794 -2.0373678
-11.980516 11.54626 -2.0402186
-11.924358 11.634107 -2.0428214
-11.856984 11.711239 -2.0435653
-11.790515 11.789385 -2.0445569
-11.722138 11.865744 -2.0453005
-11.654655 11.943128 -2.0462921
-11.587351 12.020844 -2.0474076
-11.524322 12.103216 -2.0493908
-11.462077 12.186711 -2.0516217
-11.39654 12.266991 -2.0533571
-11.327765 12.343999 -2.0545964
-11.263139 12.425772 -2.0567036
-11.194626 12.503519 -2.0581911
-11.132155 12.588326 -2.0609179
-11.063843 12.666859 -2.0626531
-10.984616 12.733004 -2.0624053
-10.910142 12.804697 -2.063149
-10.828814 12.868361 -2.0626531
-10.740138 12.923116 -2.0607939
-10.655605 12.982636 -2.0598023
-10.570122 13.040835 -2.0586867
-10.483086 13.096925 -2.0573235
-10.3853 13.139203 -2.0538528
-10.288001 13.181557 -2.0505064
-10.199658 13.235003 -2.0490189
-10.113452 13.291019 -2.0480273
-10.012042 13.326643 -2.043937
-9.9330387 13.391809 -2.0445569
-9.8448191 13.444499 -2.0433173
-9.7586517 13.499827 -2.0425737
-9.6692953 13.550566 -2.0412102
-9.5911112 13.616942 -2.0423257
-9.5068121 13.674721 -2.0422018
-9.4300241 13.743434 -2.043813
-9.3494129 13.806788 -2.0446806
-9.2656221 13.865545 -2.0449286
-9.1716318 13.908882 -2.0429454
-9.091527 13.973214 -2.0441849
-8.9895382 14.003683 -2.0404665
-8.8763704 14.015822 -2.0341451
-8.7775869 14.049825 -2.0311704
-8.6865282 14.095816 -2.0300548
-8.5875063 14.128498 -2.0270801
-8.4873915 14.158794 -2.0238574
-8.3907614 14.194375 -2.0215025
-8.2980127 14.236162 -2.020139
-8.2055616 14.278206 -2.0188994
-8.1119289 14.317925 -2.0174122
-8.0224714 14.36483 -2.0170403
-7.9274812 14.401614 -2.015305
-7.8384924 14.449113 -2.0151811
-7.7370577 14.473309 -2.0118346
-7.6383958 14.502072 -2.0092316
-7.5410433 14.532813 -2.0070004
-7.4485688 14.572625 -2.0061328
-7.3425059 14.585259 -2.0015469
-7.2431793 14.610478 -1.9988199
-7.1455612 14.638596 -1.9965889
-7.0483003 14.666959 -1.9944818
-6.951385 14.695578 -1.9924986
-6.8711333 14.759545 -1.9954734
-6.7775488 14.795113 -1.9946058
-6.6711493 14.802042 -1.9898957
-6.5934691 14.872634 -1.993986
-6.5088291 14.928274 -1.9960932
-6.4174995 14.968843 -1.9962171
-6.3236046 15.003366 -1.9955974
-6.2318068 15.042801 -1.9957213
-6.1412587 15.085351 -1.996341
-6.0493178 15.124592 -1.9965889
-5.9549503 15.15773 -1.9960932
-5.8600464 15.189355 -1.9954734
-5.7618165 15.212033 -1.9937382
-5.666986 15.243381 -1.9932424
-5.5730076 15.276934 -1.9931184
-5.4791651 15.310842 -1.9931184
-5.3874164 15.350727 -1.993986
-5.2911878 15.377865 -1.9932424
-5.1926103 15.397818 -1.991631
-5.0999007 15.435042 -1.9923747
-5.0063186 15.46982 -1.9928705
-4.9101048 15.496464 -1.9923747
-4.8158092 15.529143 -1.9927466
-4.7184176 15.551753 -1.9918789
-4.6172609 15.561385 -1.9893999
-4.516717 15.572268 -1.9871689
-4.4167542 15.584414 -1.9851857
-4.3181362 15.600702 -1.9838223
-4.2218132 15.624988 -1.9835744
-4.1281366 15.659234 -1.98469
-4.0337043 15.690996 -1.9855576
-3.9395201 15.724114 -1.9866731
-3.8457866 15.759559 -1.9881605
-3.4890399 14.688048 -1.8476036
-3.3943837 14.689843 -1.8451246
-3.2946193 14.667794 -1.8396709
-3.1552906 14.461841 -1.8107911
-3.0383425 14.347932 -1.7938102
-2.9273016 14.254522 -1.7795563
-2.8372662 14.259564 -1.7779449
-2.7442775 14.248447 -1.7743504
-2.6344614 14.145027 -1.7591048
-2.522155 14.019316 -1.7411324
-2.4376132 14.043326 -1.7422479
-2.3291466 13.924915 -1.725391
-2.2647812 14.070223 -1.742
-2.1865916 14.136809 -1.7486932
-2.0944221 14.113642 -1.7441071
-1.9497293 13.717538 -1.6925448
-1.8603162 13.690896 -1.6877109
-1.7739806 13.68434 -1.6854798
-1.6916819 13.708755 -1.6872151
-1.6082271 13.72479 -1.6879587
-1.5413699 13.891212 -1.7076665
-1.4510444 13.852051 -1.701593
-1.3712735 13.914019 -1.7082862
-1.2952642 14.023944 -1.7210529
-1.3023906 15.11418 -1.8567758
-1.2001415 15.00319 -1.841902
-1.1084991 15.016209 -1.8426456
-1.0174109 15.038568 -1.8446288
-0.92450851 15.034624 -1.8433894
-0.83136439 15.024161 -1.8414062
-0.70923162 14.419456 -1.7651783
-0.61984783 14.402718 -1.7625754
-0.55015171 14.913958 -1.8260367
-0.45595434 14.829773 -1.8151293
-0.36521962 14.843203 -1.8164927
-0.27420953 14.849133 -1.8169885
-0.1830918 14.850536 -1.8169885
-0.091851905 14.832526 -1.8146335
-0.00083876762 14.866549 -1.8188477
0.085113667 14.010938 -1.7120047
0.1826214 14.948786 -1.8292593
0.27421397 14.940439 -1.8283917
0.36651534 14.964267 -1.8316144
0.45832744 14.961737 -1.8316144
0.54972035 14.947735 -1.8302509
0.64100128 14.934166 -1.8290114
0.73086995 14.894273 -1.8245493
0.77205694 13.981958 -1.7110131
0.85199064 13.881877 -1.6991141
0.9379555 13.888268 -1.7006015
1.0558671 14.325592 -1.7561301
1.1588535 14.507768 -1.7798041
1.1991397 13.934889 -1.7089059
1.287904 13.96284 -1.7133681
1.3714139 13.93295 -1.7106413
1.4638029 13.990395 -1.7189457
1.5501658 13.98608 -1.7195655
1.6345682 13.964478 -1.7180781
1.714512 13.9079 -1.7122525
1.7947158 13.857756 -1.7072946
1.8861227 13.893679 -1.7132441
1.9780377 13.929001 -1.7191936
2.0656517 13.931325 -1.7210529
2.1492741 13.90662 -1.7195655
2.2567923 14.031306 -1.7370421
2.3238595 13.903666 -1.7226641
2.4155741 13.926296 -1.7273742
2.5201259 14.017664 -1.7408845
2.5862894 13.895605 -1.7273742
2.673754 13.891167 -1.7288616
2.7781055 13.970848 -1.7411324
2.8613818 13.941875 -1.739645
2.9388578 13.886195 -1.7348111
3.0295053 13.893108 -1.7380337
3.1375251 13.975916 -1.7510482
3.2301452 13.986373 -1.7548906
3.3496099 14.108209 -1.773111
3.4626927 14.196323 -1.787117
3.5777051 14.286465 -1.801495
3.673203 14.294996 -1.8054613
3.75857 14.263554 -1.8043458
3.8509359 14.258424 -1.8067008
3.930676 14.206793 -1.8031063
3.9880137 14.077391 -1.7894721
4.1025081 14.149863 -1.8021147
4.2025175 14.169136 -1.8079402
4.2876506 14.137385 -1.8071966
4.3622656 14.071953 -1.8021147
4.447928 14.043029 -1.8018669
4.5337052 14.014529 -1.8017429
4.6354866 14.034499 -1.8080642
4.7218308 14.006732 -1.8081882
4.8212442 14.016905 -1.813394
4.9387026 14.076944 -1.8252929
5.0069313 13.995925 -1.8185998
5.0882936 13.952821 -1.8169885
5.1821089 13.94366 -1.8199632
5.2781115 13.939439 -1.8236817
5.3703289 13.92438 -1.8260367
5.4738069 13.937346 -1.832234
5.5702758 13.931137 -1.8359525
5.6635075 13.915997 -1.8385555
5.7654967 13.921321 -1.8440092
5.8743153 13.941461 -1.8515699
5.9671764 13.922482 -1.853925
6.0683537 13.92199 -1.8588829
6.1717591 13.925316 -1.8644605
6.2746181 13.926085 -1.8697903
6.3768916 13.924311 -1.8748721
6.4772849 13.917306 -1.8793342
6.5965004 13.94906 -1.88925
6.7030249 13.952147 -1.8953235
6.8111405 13.957127 -1.9017688
6.9178061 13.957746 -1.9077183
7.0171499 13.942513 -1.9115607
7.1138573 13.921283 -1.9146594
7.2393594 13.95488 -1.9255668
7.3521304 13.961997 -1.9328797
7.4559045 13.950751 -1.9377137
7.5550857 13.930035 -1.9413081
7.6801305 13.955568 -1.9515959
7.7917414 13.954964 -1.958289
7.9046116 13.95524 -1.9652301
8.0182714 13.955516 -1.9722952
8.1327314 13.955777 -1.9794841
8.2379007 13.938928 -1.9843181
8.3712282 13.968122 -1.9959692
8.5031605 13.99281 -2.0071244
8.6169691 13.985991 -2.0138178
8.735219 13.985032 -2.0215025
8.8606825 13.994045 -2.0307984
8.9817591 13.994527 -2.0389791
9.1091261 14.003197 -2.0485232
9.2298355 14.000059 -2.0564559
9.3486423 13.992665 -2.0638926
