# .PCD v0.7 - Point Cloud Data file format
VERSION 0.7
FIELDS x y z
SIZE 4 4 4
TYPE F F F
COUNT 1 1 1
WIDTH 1545
HEIGHT 1
VIEWPOINT 0 0 0 1 0 0 0
POINTS 1545
DATA ascii
-6.7028995 4.7152958 -1.8898354
-6.675426 4.7574649 -1.8902937
-6.6429524 4.7960558 -1.889377
-6.6314702 4.8499413 -1.8946486
-6.5984583 4.8882222 -1.8937317
-6.5442038 4.9105086 -1.8866266
-6.5348754 4.9664717 -1.892815
-6.4819088 4.9892588 -1.8861681
-6.4765081 5.0486846 -1.8937317
-6.4530482 5.0943594 -1.8960238
-6.4087429 5.1235266 -1.8921274
-6.3756719 5.1615286 -1.8916689
-6.3438811 5.2005515 -1.8916689
-6.3111029 5.2387576 -1.8914398
-6.2661719 5.266737 -1.8875433
-6.2359614 5.3069787 -1.8882309
-6.2084432 5.3495893 -1.8898354
-6.1637659 5.3773451 -1.8861681
-6.1321139 5.4163527 -1.8866266
-6.1002159 5.4551744 -1.887085
-6.0630207 5.4892354 -1.885939
-6.0285072 5.5256767 -1.8857098
-6.0001974 5.5678592 -1.8875433
-5.9602451 5.5992393 -1.8857098
-5.9285979 5.6383886 -1.8866266
-5.8805666 5.6618328 -1.8822718
-5.8533831 5.7052822 -1.8847929
-5.8168802 5.7397232 -1.8843346
-5.762958 5.7567339 -1.8781462
-5.7323179 5.7968311 -1.8797505
-5.695961 5.8311987 -1.8795214
-5.6654816 5.8716421 -1.8813549
-5.6239743 5.9006577 -1.8795214
-5.5950027 5.9428501 -1.8820425
-5.5584326 5.9770684 -1.8820425
-5.5308728 6.0210972 -1.8852513
-5.5055976 6.0678959 -1.889377
-5.4812555 6.1160603 -1.893961
-5.4236236 6.1269841 -1.8868557
-5.3993821 6.1755357 -1.8916689
-5.3384843 6.1820288 -1.8834177
-5.3023467 6.2168903 -1.8841053
-5.270999 6.2574968 -1.8866266
-5.2318821 6.2889729 -1.8863974
-5.1956668 6.3239651 -1.8873142
-5.1573796 6.356482 -1.8875433
-5.1255836 6.3971224 -1.8902937
-5.0995231 6.4452448 -1.8953362
-5.0610785 6.4779477 -1.8957945
-5.0141006 6.4996319 -1.8930441
-4.9829726 6.5418901 -1.8964821
-4.9491744 6.5808988 -1.8990034
-4.8970957 6.5955129 -1.8944193
-4.8640156 6.6356421 -1.8973989
-4.8135071 6.651957 -1.8935026
-4.7901411 6.7059197 -1.9006078
-4.7393684 6.721662 -1.8967113
-4.7152734 6.775382 -1.9038166
-4.6824303 6.8170242 -1.9074838
-4.6465216 6.8544888 -1.910005
-4.6000457 6.8763986 -1.9081714
-4.5470409 6.888248 -1.9035873
-4.5174408 6.9355927 -1.9090881
-4.4395394 6.908318 -1.8937317
-4.4205227 6.9724212 -1.9040458
-4.3812709 7.0051904 -1.9056501
-4.3351388 7.0269713 -1.9042749
-4.2919407 7.0534387 -1.9042749
-4.2666135 7.1096864 -1.9125261
-4.2387738 7.1625371 -1.9198606
-4.1878767 7.1766415 -1.9166518
-4.1491027 7.211483 -1.919173
-4.0942097 7.2181797 -1.9141306
-4.070271 7.2796969 -1.9239862
-4.0043836 7.2661734 -1.9136722
-3.9731975 7.315412 -1.920319
-3.9218054 7.3276386 -1.9171102
-3.8794944 7.3567305 -1.9184854
-3.8365252 7.3847146 -1.9196314
-3.7765064 7.3795223 -1.9120678
-3.7535014 7.4468842 -1.923757
-3.7124984 7.4793653 -1.9262782
-3.6438808 7.4556556 -1.9141306
-3.5959549 7.4734883 -1.9129846
-3.5404468 7.4751792 -1.9077129
-3.5216582 7.5549889 -1.9228402
-3.4772646 7.5808787 -1.9239862
-3.4278808 7.5958619 -1.9223818
-3.377259 7.6078553 -1.9200898
-3.3472636 7.6667929 -1.9299455
-3.3051505 7.6988144 -1.932925
-3.2487643 7.6974273 -1.9274242
-3.2126634 7.7441883 -1.9343002
-3.1665556 7.7673602 -1.935217
-3.1155787 7.7785115 -1.9331542
-3.0649407 7.7902355 -1.9313207
-3.0083117 7.7861967 -1.9255906
-2.9656589 7.8181601 -1.9290286
-2.9172921 7.8352976 -1.9287994
-2.8765104 7.8731637 -1.9338418
-2.8265052 7.8860841 -1.9326959
-2.7812922 7.9124613 -1.9349878
-2.7292006 7.9192553 -1.9324666
-2.6827385 7.9423075 -1.9340711
-2.6379313 7.9706321 -1.9370506
-2.5844717 7.9727793 -1.9336126
-2.5402153 8.0033312 -1.9372798
-2.4884605 8.0104008 -1.935217
-2.4415276 8.0329695 -1.9370506
-2.3910828 8.0440674 -1.9361339
-2.3443968 8.067934 -1.9384258
-2.2940512 8.0793581 -1.9377382
-2.2387102 8.0726471 -1.9326959
-2.195241 8.1087809 -1.9381967
-2.1464398 8.1258621 -1.9391134
-2.0941114 8.1294537 -1.9368215
-2.0467982 8.1525345 -1.9393426
-1.9941927 8.1545391 -1.9368215
-1.9490801 8.1874533 -1.9418639
-1.8913381 8.1670179 -1.9340711
-1.8411906 8.1784687 -1.9340711
-1.7934698 8.2010231 -1.9368215
-1.7352313 8.1747389 -1.9278827
-1.6803279 8.1623516 -1.9223818
-1.6475447 8.2593737 -1.9432391
-1.5933278 8.2511683 -1.9388843
-1.5489252 8.2942791 -1.9469062
-1.4954104 8.289258 -1.9434682
-1.4410138 8.2781401 -1.938655
-1.3851993 8.2570667 -1.9315498
-1.3376127 8.2846298 -1.9361339
-1.2930244 8.3330793 -1.9457603
-1.2418692 8.3408566 -1.9457603
-1.1877803 8.328083 -1.9409471
-1.1373155 8.3400364 -1.942093
-1.0876284 8.3584414 -1.9448434
-1.0363215 8.3649569 -1.9448434
-0.98508936 8.3721247 -1.9450727
-0.93380827 8.3789797 -1.9453019
-0.88268399 8.387455 -1.9459895
-0.83024317 8.3830271 -1.9436975
-0.77563906 8.3540411 -1.9356754
-0.72713983 8.390645 -1.9432391
-0.67603278 8.3997993 -1.9443851
-0.62303627 8.3843756 -1.939801
-0.57383049 8.4210587 -1.9475938
-0.51913601 8.3758459 -1.9361339
-0.46898189 8.401226 -1.9414054
-0.41665077 8.3883905 -1.9377382
-0.3667827 8.427743 -1.9464478
-0.31444535 8.4132986 -1.9425515
-0.26211646 8.3926935 -1.9372798
-0.21029694 8.3814936 -1.9343002
-0.15886511 8.3826265 -1.9343002
-0.10769017 8.403882 -1.9391134
-0.056135979 8.406332 -1.9395719
-0.0045506284 8.399704 -1.9379674
0.046999872 8.4015207 -1.9384258
0.09869758 8.4137268 -1.9414054
0.14992248 8.3905792 -1.9361339
0.20196284 8.4128551 -1.9416347
0.2536965 8.41535 -1.9425515
0.30501005 8.4048805 -1.9404886
0.35690546 8.4106302 -1.9423223
0.4080807 8.3995323 -1.9402595
0.45902687 8.386179 -1.9377382
0.50982457 8.3725166 -1.935217
0.56014657 8.3536921 -1.9315498
0.61309814 8.3733969 -1.9370506
0.66492671 8.3752985 -1.9384258
0.71746528 8.3846388 -1.9416347
0.76952118 8.3868637 -1.9432391
0.8175534 8.3471098 -1.9349878
0.86966193 8.3506498 -1.9370506
0.91928339 8.3306437 -1.9336126
0.97049463 8.3258123 -1.9338418
1.0162263 8.2762251 -1.9235278
1.0724676 8.3123112 -1.9336126
1.1222769 8.2968922 -1.9315498
1.1776639 8.3216553 -1.9391134
1.2265686 8.2998285 -1.9356754
1.2773242 8.2911844 -1.9354463
1.3257089 8.2678127 -1.931779
1.3781738 8.2700844 -1.9343002
1.4234192 8.2298203 -1.9267366
1.4780111 8.243926 -1.9322374
1.5285671 8.2347021 -1.9322374
1.582368 8.2423744 -1.936363
1.6257178 8.196229 -1.9276534
1.6839811 8.2251968 -1.9370506
1.7271808 8.1804237 -1.9287994
1.7816869 8.1896458 -1.9336126
1.8272245 8.1576624 -1.9285703
1.8748407 8.1358633 -1.926049
1.9260722 8.1298895 -1.9274242
1.9779915 8.1264305 -1.929487
2.0287609 8.117918 -1.9304038
2.0770829 8.0996599 -1.9290286
2.1302075 8.0999413 -1.9322374
2.1687226 8.0453653 -1.9221526
2.2216742 8.045043 -1.9253614
2.2749679 8.0453091 -1.9287994
2.315362 8.0003433 -1.9212358
2.3547375 7.9533186 -1.9132138
2.4116721 7.9657378 -1.9198606
2.4432404 7.8949971 -1.9061086
2.4995594 7.9049158 -1.912297
2.5542974 7.9088817 -1.9171102
2.5982056 7.8791938 -1.9136722
2.6306694 7.8160534 -1.901983
2.6909063 7.835669 -1.9109218
2.7485869 7.84657 -1.9177978
2.7858772 7.7993073 -1.9102342
2.8376765 7.7930427 -1.9129846
2.8800225 7.7608829 -1.9093174
2.9310303 7.7521701 -1.9116094
2.9757433 7.7267728 -1.9097757
3.0206103 7.7020249 -1.9081714
3.0681732 7.6842499 -1.9084005
3.0991418 7.6256013 -1.8983158
3.1492209 7.6145377 -1.9003786
3.1966386 7.5968652 -1.9008369
3.2489364 7.5905313 -1.9042749
3.2791345 7.532968 -1.8946486
3.3390818 7.5438595 -1.9026706
3.3729262 7.4957113 -1.8955654
3.4334292 7.5067415 -1.9038166
3.4892712 7.5067182 -1.9093174
3.514483 7.4411588 -1.8978573
3.5575485 7.4141884 -1.8964821
3.6016951 7.389595 -1.8957945
3.6417875 7.3568883 -1.8930441
3.6776803 7.3161402 -1.8882309
3.7278113 7.3038406 -1.8909813
3.7730045 7.2816939 -1.8912106
3.823956 7.2704673 -1.8944193
3.8629947 7.2365627 -1.8916689
3.9096427 7.2170029 -1.892815
3.9458814 7.1783767 -1.8889185
3.9884307 7.1514797 -1.8882309
4.0293608 7.121789 -1.8868557
4.0846105 7.1171932 -1.8923565
4.1149836 7.0692825 -1.8861681
4.1469021 7.024621 -1.8808966
4.1854272 6.9915271 -1.8788338
4.2277427 6.9648819 -1.8786045
4.2295876 6.8724909 -1.8602685
4.2928004 6.8802686 -1.8696657
4.3338957 6.8521538 -1.8692073
4.3784847 6.8295298 -1.8703533
4.4229593 6.8066163 -1.8714993
4.4705291 6.7882919 -1.8740206
4.5256047 6.7809749 -1.8797505
4.5682173 6.7546911 -1.880209
4.6068263 6.7225194 -1.8790629
4.6435475 6.6877294 -1.8772293
4.6861749 6.6614995 -1.8779169
4.7100143 6.6088395 -1.8710409
4.7350941 6.558506 -1.8648525
4.7700758 6.5222573 -1.8627898
4.8105855 6.4936481 -1.8630189
4.8538442 6.4686799 -1.8643941
4.8999219 6.4473004 -1.8669153
4.9322658 6.4078574 -1.8641649
4.9583259 6.3605833 -1.8591225
4.9900231 6.3208714 -1.8563721
5.0396533 6.3038201 -1.8604977
5.0641518 6.2553773 -1.855226
5.0962682 6.2166586 -1.8529341
5.1392903 6.1912637 -1.8547677
5.1821923 6.1655741 -1.8566012
5.2161412 6.1292129 -1.855226
5.2612753 6.1059413 -1.8579764
5.3088799 6.0852799 -1.8616437
5.3184114 6.0212188 -1.851788
5.3604469 5.994277 -1.8536217
5.4114981 5.9771485 -1.8586642
5.4579363 5.9545956 -1.8621022
5.5115838 5.9395466 -1.8680613
5.5172687 5.8729806 -1.8575181
5.5625916 5.8488922 -1.860727
5.5571947 5.7718754 -1.8467457
5.6366653 5.7829785 -1.8616437
5.6816139 5.7579842 -1.8648525
5.7312827 5.7374763 -1.8696657
5.7781448 5.7138376 -1.8735621
5.8026509 5.6680732 -1.8701241
5.7959948 5.5924835 -1.8566012
5.8337235 5.5601726 -1.8577473
5.8769431 5.5329471 -1.860727
5.9350157 5.5193214 -1.8685197
5.9573007 5.4722648 -1.8648525
5.9561653 5.4042115 -1.8538508
6.0087838 5.3851042 -1.8600394
6.0373402 5.3442626 -1.8586642
6.0766129 5.3128839 -1.860727
6.1223578 5.2869506 -1.8648525
6.1880083 5.2777109 -1.8751665
6.2001758 5.2227101 -1.8689781
6.1939435 5.1528182 -1.8572888
6.2277002 5.1165695 -1.8579764
6.2718272 5.0886874 -1.8618729
6.3340759 5.0750637 -1.8712701
6.3254046 5.0046954 -1.8593518
6.383606 4.9873638 -1.8676029
6.4179411 4.9510741 -1.8687489
6.4629111 4.9228082 -1.8731037
6.4953289 4.8848152 -1.8737913
6.4923573 4.8204961 -1.8641649
6.5681295 4.8145232 -1.8776877
6.5888734 4.7678537 -1.8751665
6.6481013 4.7488365 -1.8838761
6.6468859 4.6866393 -1.8751665
6.689898 4.6557755 -1.8792921
6.7231536 4.6179461 -1.8806673
6.7368598 4.5667748 -1.8765417
6.7793164 4.5350952 -1.8806673
6.789957 4.4821506 -1.8758541
6.8271184 4.4467793 -1.8786045
6.8321657 4.3905959 -1.8724161
6.8819952 4.3631864 -1.8788338
6.8913074 4.3100371 -1.8740206
6.9192805 4.2686939 -1.8744789
6.952826 4.2307119 -1.8765417
6.9778194 4.18747 -1.8763125
7.0092459 4.1480465 -1.8779169
7.0471759 4.1123195 -1.8813549
7.0849314 4.0762835 -1.8847929
7.1301289 4.044261 -1.8902937
7.1369686 3.9904587 -1.8854805
7.1749587 3.9541097 -1.8891478
7.1905322 3.9053645 -1.8868557
7.2212253 3.8648455 -1.8886894
7.225862 3.8104744 -1.883647
7.231832 3.7570899 -1.8790629
7.2634134 3.7170801 -1.8813549
7.2756543 3.6671848 -1.8786045
7.3154559 3.6311295 -1.8831885
7.2842541 3.5600996 -1.8692073
7.3787608 3.55037 -1.8882309
7.3863316 3.4983609 -1.8845637
7.419127 3.4583201 -1.8875433
7.4287057 3.4074559 -1.8845637
7.4565716 3.3650134 -1.8863974
7.4824162 3.3215673 -1.8877726
7.5329857 3.288837 -1.8955654
7.5270858 3.2314165 -1.8889185
7.53332 3.1794925 -1.8854805
7.5553846 3.1343281 -1.8861681
7.5780797 3.08938 -1.887085
7.6131573 3.0493391 -1.8912106
7.6308184 3.0022118 -1.8909813
7.6572676 2.9584911 -1.8930441
7.6761866 2.9117966 -1.8932734
7.671104 2.8561494 -1.8875433
7.6802564 2.80602 -1.8854805
7.7138224 2.7647543 -1.8896061
7.7324777 2.7180169 -1.8900646
7.7526908 2.6717889 -1.8909813
7.7772379 2.6269729 -1.8930441
7.7830458 2.5758386 -1.890523
7.8116674 2.5322371 -1.8937317
7.8409739 2.4886756 -1.8971697
7.8412237 2.4358964 -1.8935026
7.872786 2.3928335 -1.8976282
7.8798561 2.3422627 -1.8957945
7.877255 2.2889791 -1.8916689
7.8939605 2.2413998 -1.8923565
7.9122548 2.194222 -1.8935026
7.9283876 2.1463952 -1.8941902
7.9470553 2.0991991 -1.8955654
7.9494176 2.0477259 -1.8930441
7.9703288 2.0010443 -1.8951069
7.9890757 1.9537203 -1.8967113
7.9753466 1.898576 -1.890523
8.0238285 1.8581709 -1.8994617
8.0255833 1.8067642 -1.8971697
8.0688486 1.7645581 -1.9049625
8.0823803 1.7156218 -1.9056501
8.0765476 1.6626596 -1.9017538
8.0703697 1.6098338 -1.8978573
8.0858297 1.5613923 -1.8992325
8.104826 1.5135365 -1.9015245
8.1206665 1.4649876 -1.903129
8.110323 1.4117931 -1.8985449
8.1677914 1.370218 -1.9102342
8.1443338 1.3149542 -1.9026706
6.0159545 0.93336982 -1.3936166
0 0 -0
0 0 -0
0 0 -0
0 0 -0
0 0 -0
0 0 -0
0 0 -0
0 0 -0
0 0 -0
0 0 -0
0 0 -0
0 0 -0
0 0 -0
0 0 -0
0 0 -0
0 0 -0
0 0 -0
0 0 -0
0 0 -0
0 0 -0
0 0 -0
0 0 -0
0 0 -0
0 0 -0
0 0 -0
0 -0 -0
0 -0 -0
0 -0 -0
0 -0 -0
0 -0 -0
0 -0 -0
0 -0 -0
0 -0 -0
0 -0 -0
0 -0 -0
5.8246832 -0.39068753 -1.334712
5.8318844 -0.4271301 -1.3370041
5.8514714 -0.46467659 -1.3422756
5.8679066 -0.50223064 -1.3468596
0 -0 -0
5.9446139 -0.58235705 -1.3665708
6.1122909 -0.63665956 -1.4071393
8.2667875 -0.91223997 -1.9184854
8.2378302 -0.96024323 -1.9129846
8.2114944 -1.0082812 -1.9081714
8.0864115 -1.0433325 -1.8799797
7.8579993 -1.0629313 -1.8272636
7.5352087 -1.0664055 -1.7520859
7.4649701 -1.1032317 -1.7369587
7.3455019 -1.13168 -1.7101423
7.2461534 -1.1619397 -1.688139
7.1918402 -1.1985415 -1.6769081
7.3819346 -1.2768115 -1.7241235
7.3691711 -1.3212235 -1.7229775
7.3283858 -1.3603766 -1.7151847
7.3122535 -1.4038492 -1.713351
7.3168693 -1.4513407 -1.7165599
7.2935219 -1.493281 -1.7131219
7.2775555 -1.5365978 -1.7115175
7.2413578 -1.5754306 -1.7050998
7.2106581 -1.6151534 -1.7000574
7.1626706 -1.6506255 -1.6908894
7.1571436 -1.6956655 -1.6920354
7.0851293 -1.7245888 -1.6771374
7.0838575 -1.7703894 -1.6794294
7.0662608 -1.8121296 -1.677825
7.0248847 -1.8475324 -1.6704906
7.0002584 -1.8870553 -1.6672817
6.9801035 -1.927641 -1.6652189
6.9512844 -1.9656672 -1.6610934
6.9381571 -2.0080121 -1.6608641
6.9359727 -2.0535851 -1.6633854
6.8878393 -2.0853884 -1.6546757
6.8823533 -2.1299138 -1.6565094
6.84688 -2.165061 -1.6510085
6.8390245 -2.2088265 -1.6523838
6.8262672 -2.2510533 -1.6526129
6.7892628 -2.2851348 -1.6468829
6.781558 -2.3289626 -1.6484873
6.7735705 -2.372782 -1.6500918
6.7598009 -2.4146264 -1.6503209
6.7613211 -2.4620523 -1.6544466
6.7469997 -2.5038314 -1.6546757
6.7169414 -2.5396757 -1.6510085
6.7021403 -2.5811923 -1.6512377
6.6716771 -2.6165817 -1.6475705
6.6455526 -2.6534991 -1.6450493
6.6038961 -2.6839652 -1.6386317
6.6196856 -2.7378261 -1.6468829
6.589304 -2.7727301 -1.6434449
6.5605335 -2.8081303 -1.6404654
6.558352 -2.8549361 -1.6443617
6.5416012 -2.8955176 -1.644591
6.5192733 -2.9336045 -1.6434449
6.4728236 -2.9605966 -1.6361105
6.4580669 -3.0018983 -1.6370273
6.4342446 -3.0389738 -1.6356521
6.3847609 -3.0636597 -1.6276301
6.3509674 -3.0955291 -1.6237336
6.3353434 -3.1361666 -1.6246505
6.2968473 -3.1653638 -1.619608
6.2712379 -3.2008436 -1.6180037
6.2566652 -3.2419496 -1.6193789
6.2159791 -3.2694051 -1.6138781
6.2009535 -3.3102343 -1.6152533
6.1505694 -3.3319941 -1.6072313
6.1385393 -3.3743591 -1.6095233
6.1066675 -3.405798 -1.6065437
6.1068349 -3.4551857 -1.6122737
6.0863638 -3.4930758 -1.6125029
6.0723872 -3.5347621 -1.6145657
6.0623198 -3.5788822 -1.6177745
6.0419164 -3.6170123 -1.6182328
6.0445719 -3.669168 -1.625109
6.0103388 -3.6990457 -1.6219001
6.0040455 -3.7461591 -1.6264842
5.9875278 -3.7870908 -1.6283177
5.9486084 -3.8137774 -1.6239629
5.9169331 -3.8449025 -1.6216708
5.8802228 -3.8725705 -1.6180037
5.8498731 -3.9042554 -1.61617
5.8822498 -3.9782445 -1.6322141
5.8328371 -3.9972062 -1.625109
5.8185954 -4.0401373 -1.6280885
5.804842 -4.0836034 -1.6312973
5.8137622 -4.1434345 -1.641153
5.7866507 -4.1778893 -1.6406945
5.7907639 -4.2351508 -1.6494042
5.7341638 -4.2480068 -1.6404654
5.7181125 -4.2907052 -1.6434449
5.7102771 -4.3398442 -1.6489457
5.712853 -4.3973603 -1.6576554
5.6635003 -4.4149771 -1.6510085
5.6133828 -4.4315515 -1.6441325
5.5762019 -4.4580102 -1.641153
5.5389075 -4.4841795 -1.6381733
5.5015025 -4.5100594 -1.6351937
5.4946976 -4.5611377 -1.6416113
5.4584107 -4.5878782 -1.6390902
5.4190378 -4.6118217 -1.6356521
5.3884258 -4.6430793 -1.6349645
5.3414969 -4.660058 -1.6292346
5.3427157 -4.7191634 -1.6386317
5.3608232 -4.7940302 -1.6535298
5.3161526 -4.8131151 -1.6487166
5.2721682 -4.83249 -1.6441325
5.2210112 -4.8448868 -1.6372565
5.1848001 -4.8708334 -1.6351937
5.1583424 -4.9059086 -1.6363397
5.1162219 -4.9259911 -1.6324433
5.089386 -4.9606876 -1.6335893
5.0671668 -5.0000257 -1.6363397
5.0198631 -5.014514 -1.6308389
4.9917378 -5.0479894 -1.6317557
2.2963455 -2.3512061 -0.73397779
2.2872827 -2.3708556 -0.73581135
2.2659764 -2.3777995 -0.73351938
2.2179806 -2.3562248 -0.72205937
4.8133302 -5.1759262 -1.6244212
4.7906995 -5.2153983 -1.6276301
4.7514133 -5.2367659 -1.625109
4.7139945 -5.2600226 -1.6232753
4.6816306 -5.2888484 -1.6232753
4.6388392 -5.3057504 -1.619608
4.6112862 -5.3400073 -1.6214417
4.5683265 -5.3563523 -1.6177745
4.5309849 -5.3790708 -1.61617
4.5010066 -5.4105124 -1.6173161
4.4732852 -5.444797 -1.6193789
4.4397926 -5.4721422 -1.6193789
4.4043064 -5.4970026 -1.6186913
4.3680787 -5.5208697 -1.6177745
2.014209 -2.5784833 -0.7305398
1.9906203 -2.580775 -0.72756016
1.9676692 -2.5836489 -0.72480977
1.9470985 -2.5894504 -0.72297615
1.9195672 -2.5857191 -0.71839213
1.7989253 -2.4545734 -0.6766777
1.7336116 -2.396173 -0.65650803
1.6945461 -2.3727078 -0.6466524
4.0106964 -5.6883206 -1.5989801
4.0168662 -5.7719426 -1.6159409
3.9747608 -5.7868533 -1.6131905
3.9348087 -5.8046875 -1.6113569
3.8904576 -5.8157778 -1.6076896
3.8579173 -5.8444138 -1.6090648
3.818265 -5.8622661 -1.6074605
3.7838018 -5.8880405 -1.6081481
3.7397835 -5.8988161 -1.6047101
3.6968083 -5.9109235 -1.6017305
3.6660922 -5.9426079 -1.6042516
3.6315842 -5.968317 -1.6051685
3.5918894 -5.9854798 -1.6037933
3.5531125 -6.004056 -1.6028764
3.5171866 -6.0274258 -1.6033349
3.4723694 -6.0353947 -1.5996677
3.4410348 -6.0667467 -1.6024181
1.6531059 -2.9570704 -0.75781465
1.6307019 -2.9594855 -0.75575179
1.6101891 -2.9651589 -0.75460583
3.3071904 -6.1794028 -1.61044
3.2510488 -6.1651402 -1.6012721
3.207325 -6.1737432 -1.5982925
3.1684961 -6.1915736 -1.5978341
3.122997 -6.1961226 -1.5939376
3.079726 -6.2047062 -1.5911872
3.0441613 -6.2287331 -1.5925624
3.0109501 -6.2578197 -1.5953128
2.9733295 -6.277936 -1.5957712
2.9388659 -6.304884 -1.5980632
2.9045889 -6.33253 -1.6005845
2.8428543 -6.2996626 -1.58752
2.8037517 -6.3160977 -1.5872909
2.7645545 -6.3322902 -1.5870616
2.7279525 -6.3545008 -1.5884368
2.6851254 -6.3621516 -1.5861448
2.6482754 -6.3839021 -1.58752
2.6053796 -6.3910179 -1.5852281
2.5686498 -6.413209 -1.5868324
2.5360227 -6.4460592 -1.5911872
2.4774768 -6.4124694 -1.5788105
2.4353218 -6.4202695 -1.5769768
2.4033549 -6.4551592 -1.5820192
2.3573542 -6.4524136 -1.5776644
2.3200176 -6.4731708 -1.5792688
2.2805781 -6.4882026 -1.5794981
2.2416759 -6.5048347 -1.5801857
2.1970477 -6.5046339 -1.5767477
2.1564829 -6.5161443 -1.5762892
2.1116569 -6.5144386 -1.5726221
2.0734124 -6.5328393 -1.5739973
2.0396426 -6.5658889 -1.5790396
1.9998828 -6.5801425 -1.5794981
1.9547546 -6.5764284 -1.5756016
1.9140939 -6.5873642 -1.5753725
1.8731067 -6.5971122 -1.574914
1.8255678 -6.5831561 -1.5687256
1.801422 -6.6543646 -1.5833944
1.7667735 -6.6888199 -1.5891244
1.7286127 -6.7108455 -1.5918748
1.6767352 -6.678843 -1.5815609
1.6350292 -6.6861687 -1.5808733
1.5899144 -6.6790309 -1.5767477
1.5473652 -6.682023 -1.5751432
1.5084742 -6.7008877 -1.5774353
1.4710739 -6.7271333 -1.5815609
1.428152 -6.728416 -1.5797272
1.3836993 -6.7217979 -1.5760601
1.3412864 -6.7244344 -1.5746849
1.2990777 -6.7277594 -1.5735388
1.258845 -6.7413445 -1.574914
1.2191857 -6.7585211 -1.577206
1.1775262 -6.7649155 -1.5769768
1.1361564 -6.7729731 -1.577206
1.0958184 -6.7875047 -1.5790396
1.0553448 -6.8017955 -1.5808733
1.01359 -6.8081427 -1.5808733
0.97055954 -6.8055615 -1.5788105
0.92720431 -6.7998152 -1.5760601
0.88672048 -6.8150287 -1.578352
0.84584528 -6.8280692 -1.5801857
0.8030228 -6.825397 -1.578352
0.76069641 -6.8263264 -1.5774353
0.71787924 -6.8221531 -1.5753725
0.67600578 -6.8264294 -1.5753725
0.63320655 -6.8207569 -1.5730804
0.59243637 -6.8371201 -1.5760601
0.55094224 -6.8464479 -1.5774353
0.50856197 -6.8448462 -1.5762892
0.46542743 -6.8313289 -1.5723928
0.42464739 -6.8525147 -1.5767477
0.38275605 -6.8579068 -1.5774353
0.34033117 -6.8533211 -1.5758308
0.29784989 -6.8455558 -1.5735388
0.25573155 -6.8443365 -1.5728512
0.21406543 -6.8564787 -1.5753725
0.17274913 -6.8878284 -1.5824776
0.13042749 -6.885839 -1.58179
0.087999068 -6.8728833 -1.5785812
0.045832735 -6.8742671 -1.5788105
0.0036544546 -6.8783126 -1.5797272
-0.038501553 -6.8694453 -1.5776644
-0.080582723 -6.8632398 -1.5762892
-0.12272795 -6.8645625 -1.5767477
-0.16484579 -6.8636804 -1.5767477
-0.20678173 -6.8567023 -1.5753725
-0.24884978 -6.8553042 -1.5753725
-0.29090846 -6.8536482 -1.5753725
-0.33314493 -6.8556232 -1.5762892
-0.37531027 -6.8553939 -1.5767477
-0.41778094 -6.8597631 -1.578352
-0.45966855 -6.854157 -1.5776644
-0.50121897 -6.8444118 -1.5760601
-0.54389894 -6.8499408 -1.5781229
-0.58575326 -6.8445349 -1.5776644
-0.62685061 -6.8311186 -1.5753725
-0.66960728 -6.8358626 -1.5774353
-0.71305048 -6.8461475 -1.5808733
-0.75589794 -6.8493834 -1.5827068
-0.79678422 -6.8349481 -1.5804148
-0.83858907 -6.8289642 -1.5801857
-0.88134658 -6.8304477 -1.58179
-0.92467558 -6.8355222 -1.5843112
-0.9667365 -6.8306832 -1.5845405
-1.0101954 -6.8352151 -1.5870616
-1.0530055 -6.8346605 -1.5884368
-1.0955386 -6.8319149 -1.5893537
-1.1385576 -6.8317852 -1.590958
-1.1756456 -6.7968554 -1.5843112
-1.2140653 -6.7713099 -1.5799564
-1.2586098 -6.7800026 -1.5838529
-1.2961509 -6.7511215 -1.5788105
-0.82861954 -4.1765723 -0.9627198
-1.3759722 -6.7204037 -1.5753725
-1.4189912 -6.7204056 -1.5774353
-1.4459256 -6.6459436 -1.5616204
-1.5070972 -6.7281327 -1.5836236
-1.5476964 -6.7159128 -1.582936
-1.5792282 -6.6655617 -1.5730804
-0.73445427 -3.0163944 -0.69111729
-0.751297 -3.0052207 -0.68951291
-0.76778859 -2.9930112 -0.68767929
-1.7715418 -6.7358809 -1.600126
-0.79990023 -2.9664466 -0.6835537
-0.81653261 -2.9558532 -0.6821785
-0.83438921 -2.9498506 -0.68194932
-1.9160234 -6.6202497 -1.582936
-1.9745671 -6.6690359 -1.5978341
-2.0131943 -6.6493416 -1.5960004
-2.0548191 -6.6396532 -1.596688
-2.090239 -6.6102142 -1.5925624
-1.0787933 -3.3395255 -0.78646469
-2.1733327 -6.5905371 -1.5941669
-1.0902001 -3.238394 -0.76469064
-1.1008829 -3.2049456 -0.75804383
-1.1115183 -3.1724079 -0.75162619
-1.499922 -4.1986179 -1.009935
-1.1430389 -3.1384068 -0.74658382
-1.1341699 -3.0555894 -0.72756016
-1.1580603 -3.0622301 -0.73099816
-1.2198509 -3.1667953 -0.75918984
-1.620901 -4.1325083 -1.0053511
-1.6657157 -4.1713009 -1.0177279
-2.6418245 -6.5001926 -1.6122737
-1.2559123 -3.0360599 -0.73374856
-1.2639482 -3.0031748 -0.72733098
-1.2796707 -2.9890988 -0.72572654
-1.2964336 -2.9776206 -0.72480977
-1.8476657 -4.1739221 -1.034918
-1.868449 -4.151854 -1.0321674
-1.8797203 -4.1093292 -1.0241455
-1.8815153 -4.0474043 -1.0110811
-1.9204465 -4.0657091 -1.0188738
-1.9053576 -3.9704764 -0.99709982
-1.9552696 -4.0112109 -1.0108519
-1.9854584 -4.010479 -1.0138315
-2.0109031 -3.9999602 -1.0142899
-2.0407181 -3.9979503 -1.0170403
-2.0956588 -4.0441241 -1.0326259
-2.1213398 -4.0329123 -1.0330843
-2.153379 -4.0335593 -1.0367515
-2.2239845 -4.1050034 -1.0594423
-2.2055278 -4.0119486 -1.0381267
-2.2040293 -3.9515829 -1.0255207
-2.1918092 -3.8735971 -1.0081015
-2.2446039 -3.9107306 -1.0218534
-2.2670884 -3.8943605 -1.0211658
-2.2993524 -3.8946266 -1.0250623
-2.3297052 -3.8913023 -1.0280418
-2.3601036 -3.8877516 -1.0310215
-2.3614678 -3.8367214 -1.0209366
-2.3777521 -3.8105977 -1.0177279
-2.4042103 -3.8008723 -1.0191031
-2.4248602 -3.7819517 -1.0179571
-2.4395349 -3.7539423 -1.0142899
-2.4555635 -3.7283344 -1.0113102
-2.4627252 -3.6897173 -1.0046635
-2.5033121 -3.7011454 -1.0122271
-2.5562358 -3.7298787 -1.0248331
-2.5635304 -3.6917357 -1.0184155
-2.5726941 -3.6568291 -1.0129147
-2.6205034 -3.6766458 -1.0232286
-2.6800466 -3.7117968 -1.0381267
-2.6998982 -3.6913538 -1.0369807
-2.726553 -3.6801932 -1.0385851
-2.7683604 -3.6890879 -1.0461487
-2.7667978 -3.6402571 -1.0367515
-2.7362444 -3.5545599 -1.0163527
-2.7885218 -3.5768571 -1.0280418
-2.8435869 -3.6017013 -1.0406479
-2.827343 -3.5362859 -1.0262083
-2.8526626 -3.5234103 -1.0275835
-2.861887 -3.4907846 -1.0229995
-2.9087405 -3.5038674 -1.0323967
-2.9026301 -3.4531665 -1.0223119
-2.9893682 -3.5123875 -1.0461487
-3.0292888 -3.5153644 -1.0527955
-3.0616794 -3.5091805 -1.0566919
-3.1031284 -3.5129452 -1.0637971
-3.1388991 -3.5098019 -1.0688396
-3.2635903 -3.6044905 -1.1050532
-3.6072471 -3.9352989 -1.2171322
-3.347301 -3.6069822 -1.1188053
-3.3173885 -3.5310376 -1.1009276
-3.2363644 -3.4026954 -1.0658599
-3.337517 -3.4662201 -1.0931348
-3.3634782 -3.4505558 -1.0947392
-3.3873217 -3.4326246 -1.095656
-3.4241414 -3.4276156 -1.1009276
-3.4610264 -3.4222834 -1.1061993
-3.5056334 -3.4241092 -1.113992
-3.4572339 -3.3356194 -1.0913012
-3.567821 -3.4003081 -1.1206388
-3.449008 -3.2469015 -1.0754863
-3.4624507 -3.2197115 -1.0734235
-3.4878759 -3.2036738 -1.0752572
-3.5103509 -3.1848288 -1.076174
-3.395731 -3.0430405 -1.0337719
-3.4157965 -3.023438 -1.0342302
-3.6094131 -3.1555557 -1.0890092
-3.6957448 -3.1912453 -1.1098664
-4.4876676 -3.827358 -1.3489224
-3.7502611 -3.1588223 -1.1146796
-3.5278838 -2.9346676 -1.0406479
-3.598469 -2.9562221 -1.0566919
-3.6309013 -2.9457397 -1.0610467
-3.5623138 -2.8540168 -1.034918
-3.5843387 -2.8357291 -1.0362931
-3.6576624 -2.8574319 -1.0530248
-3.6774385 -2.836719 -1.0537124
-3.6893549 -2.8099723 -1.0521079
-3.7026374 -2.7843566 -1.050962
-3.711056 -2.7552018 -1.0484407
-3.7153313 -2.7231715 -1.0447735
-3.7406445 -2.7066007 -1.0472947
-3.700155 -2.6428585 -1.0307922
-3.7234609 -2.6251535 -1.032855
-3.745091 -2.6061499 -1.0344595
-3.7553954 -2.5792634 -1.032855
-3.7727621 -2.5572646 -1.0333135
-3.827215 -2.5600476 -1.0443151
-3.8306661 -2.5284717 -1.0408771
-3.8053286 -2.4783552 -1.029417
-3.8343842 -2.463906 -1.0333135
-3.7935305 -2.4048882 -1.0177279
-3.8164675 -2.386728 -1.0200199
-3.8484366 -2.3739991 -1.0248331
-3.9144845 -2.3817141 -1.0390435
-3.9440475 -2.3666668 -1.0431691
-3.9099107 -2.3136668 -1.0298755
-3.9282367 -2.2920856 -1.0310215
-3.9287279 -2.2601719 -1.0273542
-3.9459088 -2.2379444 -1.0282711
-3.9867525 -2.2288928 -1.0356055
-4.0054684 -2.2072077 -1.0369807
-3.97788 -2.1602879 -1.025979
-3.9747553 -2.1271117 -1.0216243
-3.989454 -2.103591 -1.0220827
-3.9962401 -2.0759311 -1.0204782
-4.0193005 -2.0566933 -1.0232286
-4.0370593 -2.0346215 -1.0246038
-4.0564427 -2.0132749 -1.0264375
-4.0625978 -1.9853549 -1.0248331
-4.0896139 -1.9675653 -1.0287294
-4.1420751 -1.9616026 -1.0392727
-4.1646199 -1.9410858 -1.0420231
-4.1835299 -1.9187425 -1.0438567
-4.1819162 -1.8870304 -1.0404187
-4.2209949 -1.8735794 -1.0475239
-4.2796898 -1.8682888 -1.0596715
-4.3196945 -1.8542829 -1.067006
-4.2709079 -1.8023809 -1.0516496
-4.3448215 -1.802253 -1.0676936
-4.3756275 -1.7836448 -1.0727359
-4.4298606 -1.7741371 -1.0837376
-4.5312414 -1.782564 -1.1066576
-4.5638843 -1.7631477 -1.1121584
-4.631042 -1.7565179 -1.1263689
-4.6216645 -1.7205963 -1.1213264
-4.6165929 -1.6865265 -1.1174301
-4.71665 -1.6903572 -1.1398916
-4.8334541 -1.6988331 -1.1664789
-5.0324378 -1.7341681 -1.213465
-5.0798707 -1.7157186 -1.222633
-5.2575598 -1.7398803 -1.2641183
-5.247766 -1.7009834 -1.2590759
-5.3137693 -1.6864225 -1.2728279
-5.4448581 -1.6913319 -1.302624
-6.4171653 -1.9503393 -1.5393879
-5.8981237 -1.7530949 -1.408973
-6.1779642 -1.7951086 -1.4749826
-6.8209004 -1.9366605 -1.6296929
-6.8420348 -1.8973734 -1.6319849
-6.938107 -1.8782523 -1.6526129
-7.0031433 -1.8498178 -1.6656773
-7.0181322 -1.8077838 -1.6665941
-7.0876245 -1.7793856 -1.6808046
-7.1853957 -1.7571402 -1.7018911
-7.2755823 -1.7319573 -1.7211438
-7.3657274 -1.7057333 -1.7403967
-7.4919066 -1.6865929 -1.7683592
-7.8805709 -1.7233746 -1.8595809
-8.2213945 -1.7451371 -1.9391134
-8.2367153 -1.6956402 -1.9402595
-8.2336006 -1.6424023 -1.9370506
-8.2406559 -1.5912973 -1.936363
-8.2827969 -1.5467803 -1.9441558
-8.3045845 -1.4981761 -1.9471354
-8.3433485 -1.4523681 -1.9542407
-8.3204241 -1.3958311 -1.9466771
-8.2721376 -1.3355951 -1.9331542
-8.2878714 -1.2860075 -1.9349878
-8.2811651 -1.2329789 -1.9315498
-8.2567749 -1.1776066 -1.9239862
-8.3159256 -1.1340264 -1.936363
-8.3082485 -1.0810949 -1.932925
-8.2799501 -1.025786 -1.9246738
-8.311223 -0.97792047 -1.9306331
-8.3102951 -0.92615038 -1.9290286
-8.3380861 -0.87748611 -1.9343002
-8.3462191 -0.82659596 -1.9349878
-8.3375645 -0.77410853 -1.931779
-8.3247023 -0.72142208 -1.9276534
-8.3134489 -0.66907895 -1.9239862
-8.3125439 -0.61769509 -1.9228402
-8.3491955 -0.56893021 -1.9306331
-8.3700171 -0.51877445 -1.9347587
-8.3545771 -0.46637556 -1.9304038
-8.3426981 -0.41437906 -1.9269658
-8.3538361 -0.36356273 -1.9290286
-8.3802271 -0.31320772 -1.9347587
-8.3771267 -0.26162955 -1.9336126
-7.9430962 0.58214378 -1.9382715
-7.9142208 0.62886834 -1.9320036
-7.8889403 0.67559236 -1.9266999
-7.8633852 0.72202986 -1.9213963
-7.8559093 0.76998067 -1.920673
-7.88096 0.82129186 -1.9281464
-7.875772 0.86963308 -1.9281464
-7.8645043 0.91726613 -1.9266999
-7.8452425 0.96384573 -1.9233248
-7.8420682 1.0123383 -1.9240481
-7.831862 1.059916 -1.9230838
-7.8098369 1.1057724 -1.9192266
-7.8115454 1.1549506 -1.9213963
-7.8158216 1.2046354 -1.9242891
-7.7967839 1.2507234 -1.9213963
-7.8014073 1.3006165 -1.9245303
-7.8047557 1.3504479 -1.9274231
-7.7839046 1.3960824 -1.9242891
-7.7293916 1.4353055 -1.9127176
-7.746172 1.487651 -1.9192266
-7.7540326 1.538555 -1.923566
-7.7415938 1.5855193 -1.9228427
-7.7402654 1.6347972 -1.9250124
-7.6836228 1.6721406 -1.9131997
-7.6741652 1.7194673 -1.9134408
-7.6511765 1.763687 -1.9103068
-7.6704292 1.8177664 -1.9180212
-7.6685605 1.8670943 -1.920432
-7.6635499 1.9157611 -1.9221195
-7.6234498 1.9555093 -1.9148872
-7.5831513 1.9948379 -1.907655
-7.5904455 2.0466385 -1.9127176
-7.577745 2.093174 -1.9127176
-7.5498176 2.1354022 -1.9088603
-7.5347085 2.1811469 -1.9083782
-7.4979205 2.2204452 -1.9023514
-7.4488602 2.2557158 -1.8931905
-7.5572515 2.3392775 -1.9250124
-7.5251751 2.3800409 -1.920432
-7.479032 2.4160216 -1.9122354
-7.4788127 2.4667327 -1.9160926
-7.4368639 2.5035918 -1.9091015
-7.4222798 2.5494919 -1.9093425
-7.4000859 2.5927389 -1.907655
-7.3922625 2.641036 -1.9098246
-7.3859487 2.6899991 -1.9124765
-7.3720336 2.7362814 -1.9131997
-7.3478436 2.7787166 -1.9112711
-7.3152604 2.817817 -1.9071728
-7.2815714 2.8562679 -1.9028335
-7.2963529 2.9138556 -1.9115121
-7.2720437 2.9560111 -1.9098246
-7.2313499 2.9912984 -1.9037977
-7.1860261 3.0243149 -1.8965656
-7.2217536 3.0916574 -1.9112711
-7.1964192 3.1331983 -1.9095836
-7.1548748 3.1674707 -1.9035567
-7.1211457 3.2049375 -1.8996994
-7.1075239 3.2513988 -1.901387
-7.0927196 3.2974041 -1.9028335
-7.0705986 3.3400328 -1.9023514
-7.0718441 3.3938551 -1.9083782
-7.0578651 3.4405863 -1.9103068
-7.0183578 3.4747825 -1.9052442
-6.9986391 3.5186529 -1.9057264
-7.0106263 3.5787432 -1.9151284
-6.9385624 3.5957854 -1.9011459
-6.9034858 3.6315124 -1.8975298
-6.911891 3.6902628 -1.9062085
-6.8712001 3.7228923 -1.9011459
-6.8210154 3.7500172 -1.8934315
-6.872457 3.8334143 -1.9146461
-6.7913747 3.8430009 -1.8982531
-6.7988071 3.9024801 -1.9071728
-6.7680244 3.9402161 -1.9052442
-6.7194872 3.9673569 -1.8982531
-6.7025108 4.013 -1.9004227
-6.6761022 4.0530429 -1.8999406
-6.670115 4.1056337 -1.9054853
-6.6233926 4.133122 -1.8992174
-6.6290717 4.1934047 -1.9083782
-6.5942307 4.2282372 -1.9057264
-6.5486341 4.2559237 -1.8999406
-6.5240178 4.2970934 -1.9004227
-6.4579797 4.310636 -1.88861
-6.4306045 4.3496361 -1.888369
-6.4374137 4.4120607 -1.8984941
-6.4221764 4.4597821 -1.9021102
-6.4010401 4.5035725 -1.9040389
-6.3724961 4.5422006 -1.9037977
-6.349226 4.5846252 -1.9052442
-6.2951288 4.6045856 -1.8972888
-6.272995 4.647748 -1.8992174
-6.219522 4.6675062 -1.891503
-6.2062168 4.7173285 -1.8963245
-6.1894579 4.7647943 -1.9001817
-6.1746459 4.8140225 -1.904762
-6.1152883 4.8283596 -1.8953601
-6.0953999 4.8736715 -1.8984941
-6.0442638 4.8938775 -1.891744
-6.0096192 4.9271798 -1.8902975
-5.9859934 4.9695415 -1.8924673
-5.9665298 5.0155463 -1.8960834
-5.9385986 5.0545783 -1.8970476
-5.9023271 5.0864863 -1.8953601
-5.8556509 5.1092048 -1.8902975
-5.8132825 5.1353989 -1.8866814
-5.8069782 5.1936197 -1.8951191
-5.7944226 5.2467442 -1.9016281
-5.7521062 5.2730165 -1.8982531
-5.7438264 5.3306613 -1.9064496
-5.6841364 5.340548 -1.8972888
-5.6400104 5.3646212 -1.8934315
-5.57763 5.3708487 -1.8833064
-5.5424857 5.4029388 -1.8825831
-5.532022 5.4593444 -1.8905387
-5.5087171 5.5034761 -1.8941548
-5.4666576 5.5288906 -1.8912619
-5.4394102 5.5692735 -1.8936726
-5.4199572 5.6179123 -1.8989763
-5.369318 5.6341987 -1.8931905
-5.3126974 5.6437149 -1.885235
-5.2865582 5.6854477 -1.888369
-5.250917 5.7170634 -1.8881279
-5.205307 5.7376728 -1.8842707
-5.1609378 5.7593837 -1.8808956
-5.1370778 5.8040252 -1.885235
-5.1186113 5.8551669 -1.891744
-5.0483446 5.8467917 -1.878726
-5.023078 5.890213 -1.8828243
-5.0005937 5.9372559 -1.8881279
-4.9733768 5.9790206 -1.891744
-4.9236622 5.9936738 -1.8866814
-4.9026871 6.0433702 -1.8929495
-4.8376064 6.0384932 -1.8818599
-4.8293605 6.1046009 -1.8934315
-4.7882285 6.129529 -1.8919851
-4.7558622 6.1657104 -1.8941548
-4.7120614 6.1870542 -1.891744
-4.6734266 6.2150745 -1.891503
-4.6450362 6.2568817 -1.8956013
-4.5962324 6.271174 -1.8912619
-4.5707488 6.3173442 -1.8968066
-4.5262609 6.3373728 -1.8943958
-4.4861717 6.3634391 -1.8939137
-4.4536924 6.4004068 -1.8968066
-4.414886 6.4284134 -1.8970476
-4.389513 6.4762712 -1.9033157
-4.3383641 6.4861407 -1.8982531
-4.2968807 6.5102081 -1.8975298
-4.2547359 6.5331974 -1.8965656
-4.2150936 6.5599976 -1.8968066
-4.1887889 6.6078711 -1.9033157
-4.1445637 6.6276879 -1.9016281
-4.117063 6.6744719 -1.907896
-4.0770407 6.7012668 -1.9083782
-4.0378423 6.7294855 -1.9093425
-3.9994395 6.7591467 -1.910789
-3.9618027 6.790266 -1.9127176
-3.9229667 6.8194952 -1.9141641
-3.8638182 6.8130441 -1.9054853
-3.8299899 6.8510261 -1.9095836
-3.7967775 6.8905492 -1.9141641
-3.7470181 6.9000688 -1.9103068
-3.7252092 6.9614396 -1.9211552
-3.6742792 6.9687119 -1.9168159
-3.6363707 7.0006003 -1.9194677
-3.5783212 6.9934034 -1.9112711
-3.5353429 7.0152278 -1.9112711
-3.5168164 7.0863442 -1.9250124
-3.4660277 7.0929651 -1.9209141
-3.4342179 7.138588 -1.9276642
-3.3778949 7.1332102 -1.920432
-3.3352921 7.1564412 -1.9211552
-3.2880828 7.1697135 -1.9192266
-3.2340529 7.1676369 -1.9131997
-3.1970968 7.2033138 -1.9175391
-3.1485684 7.2130108 -1.9148872
-3.1096082 7.2446804 -1.9182622
-3.0534046 7.2359037 -1.910789
-3.0126653 7.2634678 -1.9131997
-2.9881806 7.3312492 -1.9264588
-2.9409769 7.3440399 -1.9250124
-2.8962145 7.3628507 -1.9252535
-2.8555267 7.3922524 -1.9283874
-2.8200915 7.4359517 -1.9353787
-2.764936 7.4276471 -1.9286286
-2.7169788 7.4380913 -1.926941
-2.6725972 7.4582767 -1.9279053
-2.6309652 7.4864388 -1.9310392
-2.5818195 7.4932652 -1.9286286
-2.5339308 7.5034485 -1.9271821
-2.4857097 7.5124054 -1.9254946
-2.44525 7.5450583 -1.9300749
-2.3997886 7.562695 -1.9307982
-2.3513255 7.5707893 -1.9291106
-2.3070841 7.5925035 -1.9310392
-2.2612829 7.6093073 -1.9317625
-2.2134681 7.6193113 -1.9307982
-2.1627018 7.6187444 -1.9271821
-2.1151359 7.629065 -1.9264588
-2.0637238 7.6250367 -1.9221195
-2.0168986 7.6375561 -1.9221195
-1.975319 7.670465 -1.9274231
-1.9260917 7.6739688 -1.9252535
-1.8808116 7.6931849 -1.9271821
-1.8295298 7.6875854 -1.9228427
-1.7834189 7.7033939 -1.9240481
-1.7344146 7.7066169 -1.9221195
-1.6895807 7.7284918 -1.9250124
-1.6409198 7.733017 -1.923566
-1.5938311 7.7448411 -1.9240481
-1.5500726 7.7735109 -1.9288696
-1.5076764 7.8105111 -1.9358608
-1.4559865 7.7995796 -1.9307982
-1.4075855 7.8055015 -1.9300749
-1.3643198 7.840764 -1.936825
-1.312175 7.8250585 -1.9307982
-1.2696983 7.867455 -1.9394768
-1.217834 7.8520803 -1.9336911
-1.1746267 7.8930035 -1.9421287
-1.1234375 7.880846 -1.9373072
-1.074144 7.8808594 -1.9356197
-1.0253927 7.8844147 -1.9348965
-0.97354114 7.8626261 -1.9279053
-0.92629749 7.8771267 -1.9300749
-0.87730318 7.8768744 -1.9286286
-0.82652229 7.8589444 -1.9228427
-0.78028941 7.88415 -1.9279053
-0.73368877 7.9081168 -1.9327267
-0.68548602 7.916337 -1.9336911
-0.63915122 7.9484487 -1.9406823
-0.58757168 7.9144745 -1.9312804
-0.54208958 7.9634399 -1.9426109
-0.49225932 7.9511175 -1.9387537
-0.44152308 7.9191041 -1.9300749
-0.39450601 7.9536514 -1.9380305
-0.34519202 7.9442873 -1.9351375
-0.29561141 7.9239497 -1.9295928
-0.24740662 7.9391947 -1.9329679
-0.1989052 7.949295 -1.9351375
-0.14998004 7.9426036 -1.9332089
-0.10115673 7.9365811 -1.9315214
-0.0526576 7.9681082 -1.9392358
-0.0037474316 7.9139328 -1.9257356
0.04485108 7.9205999 -1.9274231
0.093751512 7.9454074 -1.9336911
0.14216848 7.9262457 -1.9291106
0.19148183 7.9533606 -1.9361018
0.23966062 7.9316649 -1.9310392
0.28853631 7.935864 -1.9324857
0.33648005 7.916491 -1.9281464
0.38632557 7.9404502 -1.9346554
0.43413472 7.9214563 -1.9305571
0.48202136 7.9070191 -1.9276642
0.53020316 7.8990707 -1.9264588
0.57716835 7.8753428 -1.9213963
0.62494051 7.864881 -1.9197087
0.67824674 7.9198828 -1.9344143
0.72487408 7.894311 -1.9291106
0.77510041 7.9080658 -1.9336911
0.81947869 7.863585 -1.923807
0.87091297 7.8873477 -1.9310392
0.91760385 7.8673964 -1.9274231
0.96751881 7.875103 -1.9307982
1.0133334 7.8497682 -1.9259766
1.0622615 7.8491731 -1.9274231
1.1128546 7.8598037 -1.9317625
1.1562294 7.8201857 -1.923566
1.2059672 7.8244538 -1.9264588
1.2538005 7.815949 -1.9262178
1.2999775 7.7975783 -1.923566
1.3506135 7.8057117 -1.9276642
1.3991688 7.8010988 -1.9286286
1.4443493 7.7780542 -1.9250124
1.4905819 7.7614207 -1.9230838
1.5340184 7.7311864 -1.9177802
1.5903909 7.7653623 -1.9288696
1.6311848 7.7231741 -1.920673
1.677097 7.7063818 -1.9189855
1.7309331 7.7253032 -1.9264588
1.7743757 7.6975145 -1.9221195
1.8242605 7.6978145 -1.9250124
1.8728374 7.6921334 -1.9264588
1.9211777 7.6852045 -1.9276642
1.9634715 7.6544709 -1.9228427
2.0121307 7.648849 -1.9245303
2.0521998 7.6110597 -1.9180212
2.0952423 7.5852284 -1.9146461
2.1470304 7.5909061 -1.9194677
2.203017 7.6102161 -1.9279053
2.2215478 7.5016422 -1.9033157
2.2765408 7.517592 -1.9110301
2.3283672 7.5220232 -1.9158516
2.3703785 7.4946408 -1.9124765
2.4121416 7.4670267 -1.9091015
2.4615626 7.4631453 -1.9119943
2.5063798 7.4451413 -1.9112711
2.5564311 7.442472 -1.9146461
2.6010859 7.4238982 -1.9139229
2.6488757 7.414196 -1.9156104
2.6893346 7.3841252 -1.9119943
2.7288489 7.3520179 -1.907896
2.7670403 7.3169813 -1.9030745
2.8213069 7.3243165 -1.9095836
2.8481135 7.2607923 -1.8972888
2.9145758 7.2981553 -1.9119943
2.9446778 7.244174 -1.9023514
2.9946382 7.2394209 -1.9059675
3.0205488 7.1770811 -1.8941548
3.0595627 7.1468148 -1.8910208
3.1118832 7.1474819 -1.8963245
3.1588247 7.1353521 -1.8982531
3.1977656 7.1052165 -1.8953601
3.2388792 7.0801668 -1.8939137
3.2822611 7.0601602 -1.8939137
3.315568 7.0188284 -1.8881279
3.3585722 6.9983525 -1.8881279
3.4120851 6.9994206 -1.8941548
3.4377389 6.9435654 -1.8845118
3.480715 6.9232082 -1.8847529
3.521364 6.898263 -1.8837886
3.5649648 6.8791113 -1.8845118
3.6206656 6.8828731 -1.891744
3.6449988 6.8271413 -1.8823421
3.6882081 6.8072071 -1.8830653
3.7182148 6.7631888 -1.8770385
3.7709923 6.7605872 -1.8828243
3.8028419 6.7204299 -1.8780028
3.8527045 6.7121191 -1.8823421
3.8996778 6.6984167 -1.885235
3.955018 6.698596 -1.8922262
3.999536 6.6800308 -1.8939137
4.0409527 6.6561937 -1.8941548
4.042028 6.5668135 -1.875351
4.0611749 6.5081339 -1.8654668
4.0953231 6.4740715 -1.862815
4.1412578 6.4586239 -1.8657079
4.1855702 6.4404154 -1.8678776
4.2218051 6.4097495 -1.8664311
4.2448874 6.3595104 -1.8591989
4.3088465 6.3703194 -1.8702884
4.3533406 6.3517656 -1.8726991
4.3767295 6.3026166 -1.865949
4.4281659 6.2938967 -1.8714937
4.4497986 6.2429013 -1.8642615
4.4914303 6.2202005 -1.8657079
4.5249276 6.1862588 -1.8637793
4.5581775 6.1521401 -1.8618507
4.6173983 6.1527734 -1.8707705
4.6450782 6.1111922 -1.8666723
4.6884098 6.0902648 -1.8690829
4.700027 6.0284753 -1.8587167
4.7621922 6.0315108 -1.8688419
4.7991114 6.0021768 -1.8688419
4.8572283 5.9990134 -1.8772795
4.8736367 5.9443336 -1.8693241
4.9075384 5.9113307 -1.8683598
4.9355974 5.8714509 -1.8652258
4.9507694 5.8166709 -1.8572702
5.0256538 5.831759 -1.8722169
5.0460262 5.7832642 -1.8664311
5.0762758 5.7463756 -1.8645025
5.108851 5.7122264 -1.8635383
5.1555319 5.6937194 -1.8678776
5.2067685 5.6798611 -1.8739045
5.2349186 5.6406932 -1.8714937
5.2727537 5.6120024 -1.8726991
5.3097653 5.582356 -1.8736634
5.3297791 5.5349922 -1.8686008
5.3670287 5.5056591 -1.8698062
5.4000278 5.4719334 -1.8695651
5.4424195 5.4476204 -1.8726991
5.4950695 5.4332271 -1.8794492
5.4949727 5.3668633 -1.8678776
5.5298953 5.3350668 -1.8686008
5.5618238 5.3003664 -1.8683598
5.6076698 5.2787771 -1.8729402
5.6378222 5.2422872 -1.8722169
5.6620183 5.2003751 -1.8695651
5.7211385 5.1903114 -1.878726
5.763721 5.1648231 -1.8823421
5.7909422 5.1255016 -1.8808956
5.8047442 5.0745449 -1.8751098
5.8401799 5.0426373 -1.8765563
5.857717 4.9953742 -1.8722169
5.8860307 4.9574628 -1.8714937
5.9155922 4.9206328 -1.8712527
5.9696736 4.9039526 -1.878967
6.0011587 4.8684535 -1.8794492
6.041523 4.8400331 -1.8828243
6.0505543 4.7866173 -1.8763152
6.0935788 4.7601538 -1.8806546
6.1065321 4.7102294 -1.875592
6.1469011 4.6814904 -1.8792081
6.1778378 4.6454349 -1.8799313
6.207005 4.6080194 -1.8801724
6.241425 4.5744357 -1.8821011
6.2575803 4.5275216 -1.8784848
6.278924 4.484529 -1.8765563
6.3126688 4.4503903 -1.8784848
6.3454342 4.4154525 -1.8801724
6.3956099 4.392364 -1.8871636
6.395927 4.3350739 -1.8792081
6.4345074 4.3038397 -1.8828243
6.4567437 4.2616048 -1.8816189
6.4974113 4.2314377 -1.8859582
6.5191693 4.188868 -1.8847529
6.5308132 4.139957 -1.8806546
6.549509 4.0956912 -1.878726
6.5703859 4.0528803 -1.8775206
6.6142015 4.0240879 -1.8830653
6.6487556 3.9894187 -1.8859582
6.6956625 3.9618883 -1.8924673
6.7005649 3.9094837 -1.8869225
6.7193789 3.8653934 -1.8854761
6.7522569 3.8293564 -1.8881279
6.7705431 3.7850125 -1.8866814
6.8140421 3.7546358 -1.8924673
6.8582749 3.7243302 -1.8984941
6.8852768 3.6844676 -1.8996994
6.8794227 3.6272178 -1.891744
6.9222207 3.5956719 -1.8975298
6.9311924 3.5465012 -1.8939137
6.9701576 3.5126381 -1.8987352
6.9820161 3.4650595 -1.8960834
6.9996576 3.4204495 -1.8951191
7.0450029 3.3892131 -1.9018692
6.987596 3.3089662 -1.8804135
7.0174451 3.2705371 -1.8830653
7.0638471 3.2395504 -1.8902975
7.1092477 3.2077179 -1.8972888
7.1376672 3.1679718 -1.8996994
7.1213903 3.1085911 -1.8900565
7.1367626 3.0633059 -1.8890922
7.2046061 3.0402031 -1.9023514
7.1989193 2.9859035 -1.8958423
7.2045221 2.9365489 -1.8924673
7.2160978 2.8897631 -1.8907797
7.2318869 2.8447213 -1.8902975
7.3189182 2.8272111 -1.9088603
7.2934761 2.7660811 -1.8975298
7.3157687 2.7233078 -1.8989763
7.3068147 2.6690478 -1.8922262
7.3294497 2.6264546 -1.8939137
7.3545842 2.5846488 -1.8963245
7.4042563 2.5511661 -1.9052442
7.3912649 2.4960644 -1.8977709
7.4239488 2.4564555 -1.9023514
7.4785824 2.4237168 -1.9127176
7.4951634 2.3783703 -1.9131997
7.4994197 2.3291712 -1.9105479
7.5321426 2.2887523 -1.9153694
7.4688263 2.219558 -1.8953601
7.5018773 2.1793711 -1.9004227
7.5533881 2.1441598 -1.9103068
7.5897841 2.1042516 -1.9163337
7.5510263 2.0437045 -1.9030745
7.5774999 2.0010486 -1.9066907
7.5689583 1.9491946 -1.901387
7.6174884 1.9119244 -1.910789
7.6234193 1.8637663 -1.9093425
7.6196051 1.813362 -1.9054853
7.6494989 1.7709498 -1.9103068
7.640337 1.7195082 -1.9052442
7.6744475 1.677774 -1.9112711
7.6864967 1.6310555 -1.9117533
7.7077675 1.5862072 -1.9146461
7.6973672 1.5349007 -1.9095836
7.6961579 1.4856198 -1.9069318
7.749969 1.4467329 -1.9182622
7.7606106 1.3994969 -1.9187444
7.741323 1.3470317 -1.9117533
7.7628427 1.3017515 -1.9151284
7.7304425 1.2476066 -1.9050032
6.0413718 0.93726867 -1.4785414
5.8598175 0.87235206 -1.4315318
5.8285489 0.83118117 -1.4223709
5.8143067 0.79278368 -1.4175494
5.808475 0.75571758 -1.4148976
5.803371 0.71887207 -1.4124868
5.7980337 0.6821177 -1.410076
5.7886062 0.64502674 -1.406701
5.777977 0.6079759 -1.4030849
5.7777357 0.57212967 -1.4021206
5.77244 0.53586179 -1.3999509
5.7630496 0.49934608 -1.396817
5.7747116 0.46467412 -1.3989866
5.7822933 0.42959097 -1.400192
5.772233 0.39324835 -1.397058
5.7919731 0.35890013 -1.4013973
5.7940664 0.32335448 -1.4013973
5.7697697 0.28650236 -1.3948883
5.8102026 0.25277388 -1.4045314
5.7961268 0.21654177 -1.4006741
5.7769756 0.1803415 -1.3956115
5.7789435 0.14491537 -1.3958527
5.7709908 0.10929009 -1.393683
5.7919321 0.074134663 -1.3987455
5.8165402 0.038751453 -1.4047724
5.8292851 0.0030652322 -1.4079064
5.7767878 -0.032398231 -1.3948883
5.8114157 -0.068260632 -1.4035671
5.7555776 -0.10291739 -1.3898257
0 -0 -0
0 -0 -0
0 -0 -0
0 -0 -0
0 -0 -0
0 -0 -0
0 -0 -0
0 -0 -0
0 -0 -0
0 -0 -0
0 -0 -0
0 -0 -0
0 -0 -0
6.1396232 -0.63956624 -1.4932469
7.8497272 -0.8667534 -1.9216373
7.8808913 -0.91917986 -1.9307982
7.8462057 -0.96396422 -1.923566
7.8141556 -1.0087309 -1.9170569
7.7597332 -1.0501438 -1.9050032
7.4764037 -1.0585127 -1.8355736
7.2211151 -1.067566 -1.7731351
7.1885319 -1.1078585 -1.7666261
7.0464878 -1.1302515 -1.7326345
6.9226332 -1.1539789 -1.7032233
6.8121448 -1.1785481 -1.6771872
6.9891458 -1.2534184 -1.7237147
7.0423903 -1.3076285 -1.7391435
6.9999242 -1.3442206 -1.7304648
6.9867845 -1.3862009 -1.7292595
6.9781475 -1.429045 -1.7292595
6.9825411 -1.4746449 -1.7326345
6.9638786 -1.515396 -1.7302238
6.9269867 -1.5519395 -1.7232325
6.8993659 -1.5902689 -1.7186521
6.8498168 -1.6231674 -1.708527
6.8133264 -1.6587343 -1.7017769
6.7710094 -1.6925017 -1.6935804
6.7576766 -1.7332921 -1.6928571
6.7272048 -1.7695359 -1.6877946
6.7087245 -1.8087575 -1.6858659
6.6497927 -1.8367019 -1.6735711
6.6486702 -1.8803767 -1.6762229
6.6202278 -1.9162768 -1.6718836
6.5990396 -1.9541045 -1.6694728
6.579495 -1.9923073 -1.6675442
6.5448971 -2.0257502 -1.6617584
6.5378957 -2.0676274 -1.6632049
6.5084634 -2.1023319 -1.6588656
6.4862251 -2.1391864 -1.6564548
6.4619403 -2.1752274 -1.6535618
6.4264441 -2.2072661 -1.6477761
6.4027047 -2.2431252 -1.6451242
6.3888206 -2.2823691 -1.6451242
6.3920217 -2.3278401 -1.6497047
6.3867159 -2.3703954 -1.6521155
6.3702354 -2.4088521 -1.6516333
6.3471851 -2.4447529 -1.6494635
6.3320646 -2.4836526 -1.6494635
6.3212123 -2.5242589 -1.650669
6.3047056 -2.5626321 -1.6504279
6.2888632 -2.6012688 -1.6504279
6.2799392 -2.6428204 -1.6523565
6.243978 -2.6728978 -1.6470529
6.2256804 -2.7103848 -1.6465707
6.2169189 -2.7520707 -1.6487404
6.2123051 -2.7957435 -1.6521155
6.1941509 -2.8334048 -1.6518743
6.1713691 -2.8689024 -1.6504279
6.1633019 -2.9112766 -1.6530797
6.1217003 -2.9376981 -1.6465707
6.0939641 -2.9705255 -1.6439189
6.063447 -3.0018311 -1.6405438
6.0327759 -3.0328743 -1.6371688
6.0054092 -3.0654199 -1.634758
5.989934 -3.1039972 -1.6357223
5.9587512 -3.1343651 -1.6323472
5.9411192 -3.1717827 -1.6328294
5.9036279 -3.1984653 -1.6277668
5.9000483 -3.2435153 -1.6323472
5.8859682 -3.2829664 -1.6340348
5.8606458 -3.3161519 -1.6325884
5.8385048 -3.351083 -1.6321062
5.822865 -3.3897748 -1.6335527
5.8069696 -3.4284008 -1.634999
5.7891545 -3.4659617 -1.6359634
5.7868576 -3.5130048 -1.6415081
5.7651935 -3.5484462 -1.6415081
5.7268467 -3.5734758 -1.6366866
5.7187543 -3.6173699 -1.6407849
5.7087045 -3.6602509 -1.6444011
5.6796284 -3.6909783 -1.6424724
5.6293201 -3.7076037 -1.6342759
5.6282573 -3.7566257 -1.6407849
5.6195693 -3.8008788 -1.6451242
5.5921397 -3.8325443 -1.6439189
5.5517797 -3.8551576 -1.6388563
5.5057983 -3.8735101 -1.6321062
5.4700742 -3.8987689 -1.6284901
5.4484086 -3.933964 -1.6292133
5.5064077 -4.027494 -1.6545261
5.4784732 -4.0588937 -1.6535618
5.4154339 -4.0638824 -1.6417491
5.3996673 -4.1040835 -1.6446421
5.4066787 -4.1620073 -1.6547673
5.3940492 -4.2052498 -1.6588656
5.3955631 -4.2599225 -1.6675442
5.3564386 -4.2826438 -1.6634459
5.3172388 -4.3050461 -1.6593477
5.2802176 -4.3289747 -1.6559726
5.2714753 -4.3761725 -1.6617584
5.2623515 -4.4234257 -1.6675442
5.2240267 -4.4461946 -1.6639282
5.1709189 -4.4559865 -1.6554905
5.1325126 -4.4780583 -1.6518743
5.0983939 -4.5036826 -1.6497047
5.0388389 -4.5064092 -1.6390973
5.0082159 -4.534636 -1.638133
5.0017567 -4.5849581 -1.6453654
4.9770861 -4.6188636 -1.6465707
4.9507728 -4.651309 -1.6472939
4.9179211 -4.6775851 -1.6458474
