# .PCD v0.7 - Point Cloud Data file format
VERSION 0.7
FIELDS x y z
SIZE 4 4 4
TYPE F F F
COUNT 1 1 1
WIDTH 1492
HEIGHT 1
VIEWPOINT 0 0 0 1 0 0 0
POINTS 1492
DATA ascii
-1.683808 -1.9530112 -0.15742451
-1.6996962 -1.9471482 -0.15787646
-1.7129331 -1.9381762 -0.15802711
-1.7307805 -1.9343146 -0.15870506
-2.2643878 -2.4991169 -0.21738464
-2.2843997 -2.4903181 -0.21791193
-2.2765574 -2.4514194 -0.21535082
-2.298389 -2.4446671 -0.21610409
-2.3119705 -2.4290743 -0.21595342
-2.3420587 -2.4306347 -0.21761063
-3.1990361 -3.2789133 -0.30868074
-3.1910589 -3.2308517 -0.30566767
-3.4089944 -3.4093044 -0.3268345
-3.2751677 -3.2355881 -0.31041324
-3.4912636 -3.4069004 -0.33112812
-2.4888201 -2.3995154 -0.22378741
-3.4605763 -3.2950568 -0.32359543
-2.5674825 -2.4152367 -0.22890964
-2.6151354 -2.429971 -0.23229934
-2.6277916 -2.4118571 -0.23207337
-2.6425409 -2.3956878 -0.23207337
-2.6356418 -2.3601446 -0.22988889
-2.6530623 -2.3465698 -0.2301902
-2.7845941 -2.43255 -0.24194118
-2.6491857 -2.2858357 -0.22695115
-3.3190815 -2.8281333 -0.29203349
-2.6747475 -2.2512283 -0.22672516
-15.464385 -12.847279 -1.4813684
-15.543694 -12.752781 -1.4814438
-3.3929112 -2.750221 -0.29256079
-4.1151714 -3.2937264 -0.36080688
-4.0742731 -3.2201991 -0.35493138
-3.8179893 -2.9798608 -0.32849169
-16.130592 -12.426363 -1.5008028
-16.206535 -12.327153 -1.5008028
-16.34247 -12.272985 -1.5065275
-11.262761 -8.3510571 -1.0217996
-3.255816 -2.3843145 -0.26747698
-16.394253 -11.846292 -1.4905583
-16.504787 -11.772689 -1.4940987
-3.0667701 -2.1603882 -0.24600883
-3.0529451 -2.1227531 -0.24352305
-3.0749586 -2.1101844 -0.24435164
-3.1456547 -2.1304004 -0.24962452
-3.3004632 -2.2057638 -0.26250541
-3.2373364 -2.1349878 -0.25557533
-3.37326 -2.1949944 -0.26664838
-3.5721436 -2.2932577 -0.2832956
-5.727087 -3.6264424 -0.47470102
-5.7695303 -3.6039088 -0.47650886
-17.279034 -10.643718 -1.4956806
-3.6324604 -2.2080085 -0.28374755
-3.6211336 -2.1708167 -0.28156307
-3.6841795 -2.1779757 -0.28593203
-3.7431397 -2.1819315 -0.28992435
-17.759092 -10.20155 -1.5097667
-17.854326 -10.11106 -1.512629
-3.9933796 -2.2302735 -0.30815345
-3.9877682 -2.1951544 -0.30649626
-3.9976559 -2.1687436 -0.30619493
-3.9317322 -2.1018839 -0.29941553
-3.9145544 -2.0619276 -0.29685441
-3.8961501 -2.0218024 -0.29421797
-3.9075942 -1.9974045 -0.29414266
-3.9562984 -1.9917648 -0.29723105
-3.9907827 -1.978519 -0.29911423
-7.6683345 -3.7421188 -0.60720086
-7.6911516 -3.6949964 -0.60720086
-17.308393 -8.1833916 -1.4089041
-5.7523146 -2.6774871 -0.44193384
-5.7505016 -2.6338398 -0.4404273
-19.229023 -8.6619339 -1.5557914
-5.8316212 -2.5848851 -0.44449496
-5.8318315 -2.5422831 -0.44321442
-5.7959924 -2.4844611 -0.43899611
-19.519432 -8.2226439 -1.562646
-11.323618 -4.6890535 -0.88847113
-11.358642 -4.6221151 -0.88899845
-9.6191683 -3.845849 -0.74519956
-9.6342306 -3.7834749 -0.74452162
-11.582288 -4.4664187 -0.9003728
-11.674757 -4.4199753 -0.90564567
-11.940018 -4.4368043 -0.92485398
-12.019481 -4.3825827 -0.92907232
-12.033939 -4.3043852 -0.92809308
-12.067652 -4.2331052 -0.92869568
-12.226359 -4.2046919 -0.93931675
-11.577229 -3.9022496 -0.88553339
-7.7953973 -2.5747814 -0.58279496
-7.7901754 -2.5201521 -0.58113778
-12.423782 -3.9343748 -0.94707543
-12.572465 -3.8967309 -0.95694321
-11.597009 -3.5166459 -0.87807608
-11.662346 -3.4584589 -0.88154107
-12.928431 -3.7476373 -0.97946596
-12.956939 -3.6698694 -0.97991788
-9.6913233 -2.6811116 -0.72222489
-9.7037411 -2.6205568 -0.72192359
-12.768688 -3.3639634 -0.96010697
-12.997705 -3.3391275 -0.97637755
-13.2385 -3.3145108 -0.99355203
-13.076455 -3.1888206 -0.97939062
-13.020098 -3.0905685 -0.97351509
-13.134034 -3.0325973 -0.98089713
-13.096935 -2.9395089 -0.97660351
-11.538318 -2.515569 -0.85472476
-13.451035 -2.8460383 -1.0012354
-13.482898 -2.7664559 -1.0023652
-11.595381 -2.3052866 -0.85570401
-13.471766 -2.5923164 -0.99897557
-13.612904 -2.5329444 -1.0086174
-13.485879 -2.4238048 -0.99769503
-13.676368 -2.3714919 -1.0111785
-13.702463 -2.2895017 -1.0120825
-13.731022 -2.2077551 -1.0132123
-13.795554 -2.1313744 -1.0171293
-13.981978 -2.0724034 -1.0303868
-14.503864 -2.058846 -1.0692555
-14.505355 -1.9683392 -1.0684268
-15.925377 -2.0614839 -1.1756923
-16.475124 -2.0299034 -1.2165947
-22.664474 -2.6509809 -1.686408
-22.715994 -2.5158143 -1.6891198
-23.233826 -2.428925 -1.7273104
-23.794098 -2.3399684 -1.7687402
-25.941872 -2.3904588 -1.9306175
-26.097128 -2.2433584 -1.9413139
-25.814188 -2.0595675 -1.9188665
-25.877058 -1.9048669 -1.9227082
-25.868361 -1.7447113 -1.9212017
-25.855686 -1.5845513 -1.9194691
-25.848993 -1.4249965 -1.9182639
-25.854261 -1.266217 -1.9180379
-25.843613 -1.1067872 -1.916682
-25.834969 -0.94764537 -1.9155521
-25.832323 -0.78886402 -1.9149495
-25.815744 -0.62983519 -1.9133676
-25.797188 -0.47102144 -1.9117105
-25.799593 -0.31272399 -1.9117105
-25.801027 -0.15441477 -1.9117105
-25.786531 0.003897317 -1.9105805
-25.805964 0.1622467 -1.9120871
-0 0 -0
-25.817982 0.47921017 -1.9132923
-25.805584 0.63739532 -1.9126143
-25.797201 0.79560024 -1.9123131
-25.765924 0.9529146 -1.9103546
-25.721735 1.1093589 -1.9074922
-25.688549 1.2658864 -1.9055337
-25.633505 1.4208885 -1.9019933
-25.605394 1.5769806 -1.9005622
-25.571358 1.7324438 -1.8987542
-22.346079 -0.56913894 -1.9220288
-22.338196 -0.43180326 -1.9210682
-22.325483 -0.29453316 -1.9197582
-22.323881 -0.15751988 -1.9194962
-22.322435 -0.020538284 -1.9193215
-22.299229 0.1163109 -1.917313
-22.268213 0.25279552 -1.9146931
-22.228394 0.38876465 -1.9113746
-22.217623 0.5249601 -1.9106759
-22.172161 0.66003078 -1.9070081
-22.143801 0.79520661 -1.9049122
-22.111631 0.92993373 -1.9025543
-22.093569 1.0650153 -1.9015063
-22.06175 1.1992075 -1.8993231
-22.045029 1.3340119 -1.8985372
-22.0245 1.4684576 -1.8974892
-22.006134 1.6029185 -1.8967032
-21.979002 1.7365819 -1.8952186
-21.949074 1.8698035 -1.8935593
-21.932226 2.0039923 -1.8931227
-21.909603 2.1375611 -1.8922493
-21.885176 2.2708249 -1.8912888
-21.869839 2.404958 -1.8912015
-21.851704 2.5387588 -1.8909395
-21.829781 2.6720645 -1.8904154
-21.803095 2.8046885 -1.8895422
-21.783501 2.9381506 -1.8893675
-21.762102 3.0713387 -1.8891056
-21.733978 3.2035034 -1.8883196
-21.70899 3.3360438 -1.8878829
-21.67729 3.4674542 -1.8869222
-21.642832 3.5982747 -1.885787
-21.606602 3.7286334 -1.8845644
-21.569588 3.8586831 -1.8833418
-21.529833 3.9880562 -1.8819445
-21.491261 4.1174617 -1.8807219
-21.460705 4.2482848 -1.8802853
-21.418619 4.3766947 -1.878888
-21.374788 4.5045428 -1.8774034
-21.328251 4.6315947 -1.8757441
-21.286793 4.7595496 -1.8746088
-21.248449 4.8880634 -1.8738228
-21.201576 5.014452 -1.8723383
-21.144274 5.1380973 -1.8699803
-21.155844 5.2785912 -1.8739102
-21.157799 5.4171963 -1.8770541
-21.105854 5.542109 -1.8753948
-21.208048 5.708271 -1.8877956
-21.187988 5.8425303 -1.8891928
-21.190088 5.9832549 -1.892686
-21.209442 6.1294789 -1.8978385
-21.18194 6.262609 -1.8987991
-21.180304 6.4037037 -1.902205
-21.176781 6.5447202 -1.9055235
-21.154272 6.6802344 -1.9071828
-21.133743 6.8166361 -1.909104
-21.152075 6.9661241 -1.9146931
-21.141039 7.1065712 -1.9176623
-21.131901 7.2481141 -1.9208935
-21.123701 7.39047 -1.9242994
-21.112673 7.5323281 -1.9275305
-21.120356 7.681479 -1.9325957
-21.115793 7.8268518 -1.9366128
-21.16243 7.992166 -1.9455204
-21.156691 8.1386757 -1.9496249
-21.17314 8.2944984 -1.9559127
-21.186617 8.4500904 -1.9620258
-21.202673 8.6076574 -1.9684881
-21.207464 8.7615557 -1.97399
-21.19463 8.9088869 -1.9779197
-21.194525 9.0622644 -1.9831595
-21.184198 9.2120037 -1.9875259
-21.159164 9.3559132 -1.9905826
-21.144974 9.5051718 -1.9947743
-21.108904 9.6450853 -1.9969575
-21.075527 9.7865925 -1.9994901
-21.036705 9.9259272 -2.001586
-21.008642 10.070751 -2.0048172
-20.984966 10.21822 -2.0085723
-20.977236 10.374167 -2.0139868
-20.935442 10.513863 -2.01617
-20.979696 10.697782 -2.0269117
-20.964087 10.852412 -2.0318894
-20.957951 11.012814 -2.0379152
-20.937449 11.166515 -2.0426309
-20.933369 11.329863 -2.0490935
-20.900129 11.478233 -2.0527613
-20.867598 11.627593 -2.0566037
-20.808867 11.762768 -2.0579138
-20.776918 11.913517 -2.0620182
-20.726677 12.054299 -2.0643761
-20.708956 12.21465 -2.0701399
-20.616518 12.331261 -2.0683932
-20.598389 12.492657 -2.0743315
-20.523893 12.620376 -2.0745935
-20.425781 12.733423 -2.0724976
-20.310211 12.835098 -2.0686553
-20.217653 12.950881 -2.0672579
-20.125275 13.066553 -2.065948
-19.949018 13.126822 -2.0559051
-19.834118 13.22632 -2.0523245
-19.711319 13.319884 -2.0479581
-19.576612 13.404561 -2.0423689
-19.495632 13.525564 -2.0425436
-19.393528 13.631757 -2.040535
-19.246227 13.705425 -2.0337234
-19.180351 13.836665 -2.035732
-19.046831 13.918828 -2.0304921
-0 0 -0
-18.822783 14.112671 -2.0248158
-18.723934 14.218863 -2.0235057
-18.618176 14.319515 -2.0214972
-18.505598 14.414508 -2.01879
-18.409765 14.522233 -2.0180039
-18.294626 14.614402 -2.0151222
-18.176727 14.703826 -2.0119784
-18.042238 14.779099 -2.0070004
-17.927446 14.869811 -2.0042932
-17.816034 14.962874 -2.0020227
-17.698845 15.050614 -1.9991409
-17.601633 15.155029 -1.9986168
-17.494797 15.250963 -1.9970449
-17.391178 15.349452 -1.9959097
-17.281813 15.442598 -1.994163
-17.171219 15.534313 -1.9923291
-17.054276 15.619869 -1.9897965
-16.931084 15.699158 -1.9865654
-16.810469 15.780251 -1.9836835
-16.693829 15.864573 -1.9813256
-16.572481 15.943913 -1.9784437
-16.449362 16.020973 -1.9753872
-16.328758 16.099922 -1.97268
-16.202166 16.172365 -1.9692742
-16.060585 16.228991 -1.9640343
-15.931456 16.297314 -1.9603665
-15.802094 16.364662 -1.9566987
-15.678694 16.437527 -1.9538168
-15.554996 16.509493 -1.9509349
-15.431006 16.580563 -1.948053
-15.324261 16.6698 -1.9474417
-15.214321 16.755402 -1.9464811
-15.104574 16.841022 -1.9456078
-14.996331 16.928167 -1.9449965
-14.881683 17.007868 -1.9435992
-14.761412 17.080772 -1.9415033
-14.646627 17.159658 -1.9401933
-14.525652 17.230927 -1.9380975
-14.404354 17.301357 -1.9360015
-14.282739 17.370947 -1.9339056
-14.162069 17.441244 -1.9319844
-14.037958 17.506828 -1.9296265
-13.917288 17.576235 -1.9277925
-13.793225 17.640894 -1.925522
-13.675591 17.713367 -1.924212
-13.561212 17.789816 -1.923426
-13.450003 17.870304 -1.9231641
-12.507068 16.831482 -1.800728
-13.213195 18.01152 -1.9207188
-13.098924 18.087416 -1.9201949
-12.981321 18.158535 -1.9192343
-12.866212 18.23296 -1.9187102
-12.747262 18.301754 -1.9176623
-12.627953 18.369774 -1.9166144
-12.509967 18.439493 -1.9158283
-12.391601 18.508455 -1.9150424
-12.279998 18.587465 -1.9153917
-12.162453 18.657457 -1.9148678
-12.050438 18.735922 -1.9153044
-11.489574 18.10717 -1.8423842
-11.341783 18.119064 -1.8363584
-11.201607 18.141697 -1.8315554
-11.569388 18.997084 -1.9123352
-11.443887 19.053198 -1.9108506
-11.326255 19.1222 -1.9107633
-11.195647 19.168972 -1.9084927
-11.059921 19.206228 -1.9053488
-9.6144218 16.935581 -1.6696463
-10.785451 19.272699 -1.8985372
-10.657851 19.321941 -1.8968779
-10.535287 19.379971 -1.8961792
-10.407707 19.428444 -1.8946073
-10.284581 19.48489 -1.8939086
-10.161613 19.541441 -1.8932973
-10.036976 19.594559 -1.8924241
-9.9120693 19.646881 -1.8915508
-9.7829103 19.69038 -1.8898915
-9.6527147 19.731245 -1.8880576
-9.5197926 19.765869 -1.8856996
-9.3889437 19.804106 -1.8837785
-9.250823 19.826136 -1.8803725
-9.1235943 19.870756 -1.8792373
-8.9957561 19.913654 -1.8780147
-8.8483162 19.912035 -1.8726002
-8.7152004 19.941307 -1.8702424
-8.5824518 19.97061 -1.8679718
-8.4488964 19.997202 -1.8655266
-8.3218336 20.038548 -1.8645658
-8.1983471 20.088308 -1.8644786
-8.0727081 20.132687 -1.8639545
-7.9446435 20.170719 -1.8629067
-7.8153377 20.205151 -1.8615967
-7.6869698 20.241549 -1.8605487
-7.5563622 20.271532 -1.8589768
-7.4256759 20.300676 -1.8574048
-7.2932343 20.324291 -1.8553963
-7.1554914 20.332012 -1.8519905
-7.0215034 20.349167 -1.8495452
-6.8939576 20.384317 -1.8488466
-6.7656183 20.416779 -1.8479732
-6.6374478 20.449379 -1.8471873
-6.5094342 20.482126 -1.8464887
-6.3818603 20.515974 -1.8459647
-6.2532458 20.546169 -1.8451787
-6.1281958 20.587971 -1.845528
-6.0011983 20.623272 -1.8453534
-5.875906 20.664497 -1.84579
-5.7468677 20.692484 -1.8450915
-5.6197925 20.727356 -1.8450915
-5.4899583 20.751818 -1.8442181
-5.3612795 20.780291 -1.8437815
-5.2322154 20.806999 -1.8432574
-5.1051588 20.841614 -1.8435194
-4.9755635 20.865763 -1.8429081
-4.84834 20.899782 -1.8432574
-4.7175994 20.918447 -1.8422968
-4.5912895 20.956732 -1.8431702
-4.4590921 20.967943 -1.8416855
-3.053812 14.806432 -1.2877538
-2.9455256 14.73795 -1.2799815
-2.8368704 14.661856 -1.2715979
-2.7232132 14.552672 -1.2603323
-2.6320958 14.559304 -1.259459
-2.5377464 14.546721 -1.2569265
-2.425313 14.424485 -1.2447003
-2.3315077 14.406644 -1.2418184
-2.2458227 14.438396 -1.2433904
-2.1067348 14.11396 -1.2134364
-1.9968209 13.963907 -1.1990269
-1.9059727 13.938392 -1.1957084
-1.8236358 13.974519 -1.1978917
-1.7385926 13.991377 -1.1984156
-1.6550465 14.021567 -1.2001623
-1.5576862 13.930478 -1.1912546
-1.4846348 14.057663 -1.2016468
-1.4138266 14.22214 -1.2153575
-1.3038749 13.987538 -1.1939619
-1.274876 14.648292 -1.2514247
-1.1881038 14.694563 -1.2548306
-1.1385874 15.245965 -1.3026872
-1.0448822 15.250677 -1.3025125
-0.94700682 15.188198 -1.2964867
-0.85821348 15.272297 -1.3033859
-0.72254521 14.439542 -1.2298543
-0.63419449 14.449675 -1.2303783
-0.57353342 15.194919 -1.2954389
-0.47931209 15.167286 -1.2927316
-0.38725361 15.209775 -1.2962248
-0.29442194 15.237761 -1.2984954
-0.1901551 14.424477 -1.2270597
-0.10239862 14.53196 -1.2364041
-0.013290067 14.596071 -1.2419931
0.078320451 14.990359 -1.2765757
0.16762231 14.753517 -1.2558786
0.25570875 14.612767 -1.2436523
0.345907 14.633829 -1.2456609
0.4517183 15.170126 -1.2929063
0.53207111 14.812656 -1.261817
0.62135988 14.771292 -1.2584984
0.71169543 14.76123 -1.2579744
0.76836514 14.132902 -1.2032188
0.85494822 14.125933 -1.2030441
0.9400171 14.096565 -1.2009482
1.0229491 14.041848 -1.1966691
1.1067356 14.005514 -1.1940491
1.1923974 13.995482 -1.1937872
1.2752589 13.955165 -1.1909053
1.3629899 13.968889 -1.1928265
1.4471338 13.9454 -1.1915166
1.5311497 13.922396 -1.190294
1.6143631 13.893938 -1.1886348
1.7078134 13.951009 -1.1945732
1.7856311 13.879997 -1.1892461
1.8704972 13.866805 -1.1890714
1.9563824 13.860985 -1.1895953
2.0492382 13.901938 -1.1943111
2.1363158 13.900919 -1.1953591
2.2239299 13.902304 -1.1966691
2.3126216 13.909033 -1.198503
2.4014795 13.915196 -1.2003369
2.4878688 13.906083 -1.2008609
2.639004 14.246121 -1.2325615
2.6618915 13.893095 -1.2025201
2.745734 13.86966 -1.2019088
2.8359697 13.877928 -1.2041794
2.9290805 13.898282 -1.2075852
3.0352306 13.976423 -1.2162309
3.1281037 13.989618 -1.2191128
3.2241559 14.014819 -1.2231299
3.3192592 14.03355 -1.2266231
3.4154191 14.054543 -1.2303783
3.5040033 14.042988 -1.2312516
3.6288936 14.172737 -1.2449623
3.7147756 14.14635 -1.2446131
3.7976227 14.108861 -1.2433031
3.8857102 14.091056 -1.243827
3.9680381 14.052567 -1.2425171
4.0522523 14.021256 -1.2419058
4.1359496 13.988486 -1.2412071
4.2320814 13.997172 -1.244351
4.3364167 14.030903 -1.2498528
4.4494238 14.089526 -1.2577125
4.5336514 14.055324 -1.2571012
4.6204309 14.029133 -1.2572758
4.7061076 13.999575 -1.2571884
4.8119564 14.028857 -1.2626029
4.9453154 14.13447 -1.2751783
5.0178914 14.064453 -1.2715105
5.152442 14.166339 -1.2839113
5.2399602 14.136325 -1.284086
5.3420858 14.144913 -1.2879285
5.4434404 14.149988 -1.291509
5.5817556 14.248034 -1.3039098
5.6653848 14.204264 -1.3030366
5.7314506 14.117545 -1.298146
5.8297572 14.110654 -1.3008533
5.957531 14.172881 -1.3101976
6.0283251 14.098505 -1.306617
6.1151156 14.062164 -1.3067044
6.2206206 14.06811 -1.3108962
6.3656363 14.160516 -1.3234717
6.4383283 14.090384 -1.3205024
6.5309572 14.064166 -1.3218124
6.6524119 14.098606 -1.3290608
6.7801313 14.14376 -1.3374444
6.8698406 14.108161 -1.3380557
6.9871888 14.12825 -1.3441688
7.071064 14.07977 -1.3436447
7.2482777 14.214499 -1.3611981
7.325285 14.150294 -1.3592768
7.4166055 14.113899 -1.3601501
7.5157237 14.091859 -1.3625079
7.6276526 14.092788 -1.3672237
7.7595358 14.128672 -1.3755201
7.8538394 14.094717 -1.3769174
8.0004702 14.15293 -1.387659
8.1035118 14.132092 -1.3905408
8.1980848 14.095882 -1.3919381
8.2722759 14.024721 -1.3898422
8.4670887 14.1558 -1.4084433
8.6514196 14.264566 -1.4249487
8.706954 14.15945 -1.4196216
8.8474236 14.191986 -1.4285291
9.0397053 14.304173 -1.4458205
9.1724386 14.3189 -1.4531561
9.3056917 14.332535 -1.4604918
9.3627958 14.228563 -1.4556013
9.4808731 14.21726 -1.4604918
9.5958176 14.200089 -1.4648583
9.742424 14.228071 -1.4741153
11.735756 16.915726 -1.7672807
11.830162 16.830357 -1.7658834
11.931476 16.755018 -1.7656214
12.033475 16.680683 -1.7655342
11.651882 15.944581 -1.6936618
12.24023 16.535763 -1.7659708
12.033113 16.049072 -1.7209086
12.029547 15.840858 -1.7061499
12.127732 15.768327 -1.7063247
12.223644 15.69283 -1.7062373
11.858839 15.033274 -1.6410021
11.938423 14.94466 -1.6392555
11.961608 14.786704 -1.6297365
12.028756 14.684517 -1.6265054
12.116724 14.608133 -1.6262434
12.904446 15.365013 -1.7214327
13.016549 15.306792 -1.7238779
13.123224 15.241735 -1.7256244
13.233519 15.180449 -1.727895
13.366625 15.144525 -1.7332221
13.50377 15.111994 -1.7390733
13.643691 15.081303 -1.7452737
13.838913 15.109701 -1.758635
13.93204 15.025233 -1.7587224
14.022608 14.938012 -1.7585478
14.125668 14.863966 -1.7600324
14.217296 14.777731 -1.7601197
14.308398 14.69093 -1.7602071
14.415056 14.619884 -1.7623029
14.510824 14.537505 -1.7630889
14.597628 14.446093 -1.7628269
14.741555 14.410569 -1.7696387
14.881294 14.369669 -1.7759264
15.038385 14.344096 -1.78431
15.187019 14.308937 -1.7916456
15.380998 14.314569 -1.8043958
15.559478 14.303525 -1.8152246
15.793711 14.341052 -1.8326032
15.965208 14.319035 -1.8424715
16.184748 14.337729 -1.8579289
16.364632 14.318838 -1.8686703
16.518507 14.275479 -1.8763554
16.777784 14.320666 -1.8961792
17.075552 14.394667 -1.9202822
17.260782 14.370571 -1.931373
17.478672 14.371316 -1.9461317
17.684843 14.359876 -1.9594932
17.957588 14.399415 -1.9802777
18.214294 14.422538 -1.9991409
18.350317 14.347936 -2.004468
18.505821 14.287426 -2.0119784
18.555111 14.144619 -2.0077865
18.691694 14.068242 -2.0132883
18.714497 13.906347 -2.0063891
18.707102 13.723491 -1.9963462
18.700594 13.543004 -1.9865654
18.737959 13.395561 -1.9816749
18.788055 13.257935 -1.9782691
18.839624 13.121906 -1.9751252
18.891052 12.986309 -1.9720687
18.912674 12.831001 -1.9659556
18.94552 12.684231 -1.9611524
18.987251 12.544132 -1.9573973
19.02965 12.405087 -1.9538168
19.072731 12.267073 -1.950411
19.102221 12.120992 -1.9456952
19.145836 11.984527 -1.9425513
19.163069 11.832281 -1.9367875
19.189367 11.686495 -1.9320717
19.237656 11.554682 -1.9297138
19.282478 11.421193 -1.9270939
19.33499 11.292615 -1.9253473
19.38924 11.165314 -1.9238627
19.431396 11.031379 -1.9212428
19.453514 10.886643 -1.9167017
19.508608 10.760819 -1.9155664
19.525255 10.614269 -1.9106759
19.535572 10.465098 -1.9052615
19.531582 10.309227 -1.8985372
19.523766 10.152421 -1.8915508
19.527176 10.002459 -1.885787
19.541933 9.8591194 -1.8812459
19.553885 9.7150908 -1.8765301
19.566595 9.5721626 -1.8719889
19.574701 9.4277163 -1.8670985
19.593475 9.2890806 -1.8633432
19.592327 9.1417227 -1.8577542
19.604597 9.0013819 -1.8535624
19.623144 8.8645153 -1.8500692
19.638933 8.7269526 -1.8464013
19.641907 8.584343 -1.8415983
19.659431 8.4487143 -1.8382797
19.663185 8.307766 -1.8337386
19.681589 8.1735849 -1.830682
19.698168 8.0391159 -1.8275381
19.713839 7.9047513 -1.8243943
19.731382 7.7715926 -1.8215125
19.722023 7.6284542 -1.8161854
19.736795 7.4952731 -1.8132161
19.752544 7.3628945 -1.8104216
19.750572 7.2244453 -1.8060551
19.752337 7.0879803 -1.8021252
19.767265 6.956727 -1.7995054
19.76626 6.8203588 -1.7954882
19.822836 6.7040534 -1.7968855
19.857924 6.5804162 -1.7963614
19.953831 6.4765925 -1.8015139
19.982752 6.3507171 -1.8005533
20.005171 6.2229552 -1.7990687
20.047743 6.1015391 -1.7995054
20.095306 5.9815402 -1.8004659
20.134501 5.8589602 -1.800728
20.173904 5.7363968 -1.8010772
20.217361 5.6149035 -1.8018632
20.254316 5.491528 -1.8021252
20.283779 5.3661275 -1.8017759
20.314394 5.2410698 -1.8016013
20.368391 5.1219125 -1.8036098
20.412012 4.9999194 -1.8047451
20.459749 4.8787389 -1.8063171
20.495123 4.7544594 -1.806841
20.538486 4.6319017 -1.808151
20.578197 4.5083513 -1.809199
20.617165 4.3844876 -1.8102469
20.650509 4.2593093 -1.8108582
20.684071 4.1340823 -1.8115568
20.713936 4.0080357 -1.8119935
20.753807 3.8837938 -1.8133907
20.784109 3.7576187 -1.814002
20.808737 3.6303613 -1.8141767
20.842409 3.5045955 -1.8152246
20.87237 3.3780756 -1.8160106
20.907471 3.2522385 -1.8173206
20.933929 3.1249211 -1.8179319
20.969473 2.998812 -1.8194165
21.007219 2.8727891 -1.8211631
21.040255 2.7458999 -1.8225603
21.067581 2.6180995 -1.823521
6.9588962 0.82119441 -0.57671613
6.8885632 0.77006447 -0.57007909
6.8416438 0.72234058 -0.56553793
6.8578429 0.6815303 -0.5665859
6.8261881 0.63610899 -0.56344205
6.8150764 0.59291631 -0.56213212
6.8285155 0.55189168 -0.56300539
6.8128982 0.50857222 -0.56134611
6.7999892 0.4656696 -0.55994886
6.7987413 0.4236888 -0.55959952
6.7912669 0.38140538 -0.55872625
6.7914896 0.33962813 -0.55855161
6.786479 0.29764399 -0.5579403
6.7822046 0.25577173 -0.55741632
6.7846422 0.21418357 -0.55750364
6.7947912 0.1727782 -0.55828959
6.8046875 0.13125633 -0.55907559
6.795404 0.089369483 -0.55820227
6.8018012 0.047714271 -0.55872625
6.8049545 0.0059811063 -0.55898821
6.8317595 -0.035913225 -0.56134611
6.8194575 -0.077695958 -0.5602982
6.8487329 -0.12005996 -0.56291807
6.8448796 -0.16201019 -0.5626561
6.8746247 -0.20492487 -0.56536329
6.8752289 -0.24717438 -0.56553793
6.8865218 -0.28989926 -0.56667322
6.8676982 -0.33133361 -0.56518865
6.9500861 -0.37806115 -0.57261163
18.554819 -1.1228726 -1.5920101
18.390532 -1.2262336 -1.5782121
18.362791 -1.3376057 -1.5764655
18.331396 -1.4484482 -1.5744569
18.238787 -1.553799 -1.5671213
18.17038 -1.6603339 -1.5619688
14.263357 -1.3917135 -1.2187635
18.079275 -1.8759918 -1.5558558
18.071384 -1.9873242 -1.556205
10.585954 -1.2300986 -0.89669186
10.584139 -1.2957557 -0.89721584
10.57599 -1.3606745 -0.89721584
10.570403 -1.4259413 -0.89747781
10.570333 -1.492026 -0.89826375
10.575762 -1.5590349 -0.89957374
13.859565 -2.1299615 -1.1916913
13.826561 -2.2118156 -1.1899446
13.855968 -2.3038001 -1.1937872
18.137371 -3.1300166 -1.5759416
14.532696 -2.5999544 -1.2566645
17.935974 -3.3224199 -1.5615321
13.454778 -2.5779235 -1.1633965
0 -0 -0
18.098215 -3.6982653 -1.5817926
18.054712 -3.8049307 -1.5799587
17.998901 -3.9086649 -1.5770768
17.968746 -4.0177264 -1.5765529
17.812695 -4.0977578 -1.5647633
17.725172 -4.1923041 -1.5591743
17.685562 -4.2976918 -1.5579517
17.651127 -4.4041986 -1.557253
8.2366896 -2.1091578 -0.70779788
8.2023954 -2.1540918 -0.70587665
17.533401 -4.7192903 -1.5541965
7.7172608 -2.1282792 -0.66422039
7.7471981 -2.187772 -0.66815025
17.373701 -5.0210347 -1.5478214
8.0159121 -2.370229 -0.69522244
7.9792862 -2.4127388 -0.69321382
7.9652834 -2.4619474 -0.6933012
8.0241232 -2.5341721 -0.70011288
16.926132 -5.4595656 -1.5215352
16.867712 -5.5552182 -1.5192646
7.8240914 -2.6303399 -0.6860528
16.721003 -5.735292 -1.5121036
16.667631 -5.8315315 -1.5104443
16.624031 -5.931015 -1.5097457
16.587326 -6.0329061 -1.5097457
16.475269 -6.1068735 -1.5027593
16.378777 -6.1856771 -1.4972576
16.281008 -6.2631693 -1.4916685
16.211662 -6.3509593 -1.4887866
16.140928 -6.4377656 -1.4858174
16.063278 -6.5213208 -1.4822369
16.015596 -6.6167173 -1.4815383
15.968267 -6.7121611 -1.4809269
15.923118 -6.8084474 -1.4805776
15.881042 -6.9060216 -1.4805776
15.834724 -7.0017247 -1.4802283
15.760571 -7.0848665 -1.477259
15.684184 -7.1665344 -1.4741153
15.61281 -7.2500496 -1.4714954
15.546408 -7.3355098 -1.4693995
15.482241 -7.42172 -1.4675655
15.417603 -7.5074196 -1.4657316
15.353388 -7.5930471 -1.463985
15.299387 -7.6835341 -1.4632864
15.242191 -7.7722874 -1.4623257
15.194215 -7.8656654 -1.4623257
15.136847 -7.9541135 -1.4614525
13.058165 -6.9644489 -1.2598083
14.977648 -8.1065502 -1.4554267
14.91802 -8.1930237 -1.4544661
14.862247 -8.281496 -1.4539421
14.810286 -8.3720427 -1.4538548
12.426164 -7.1253681 -1.2181522
12.611273 -7.3346939 -1.2413818
12.57976 -7.4200344 -1.2427791
13.080296 -7.8238273 -1.2985827
14.411924 -8.7407875 -1.4400567
14.33426 -8.8144426 -1.4376115
14.256235 -8.8874741 -1.4351662
12.257809 -7.7465472 -1.2336094
14.107512 -9.037034 -1.431149
14.041769 -9.1169167 -1.4301012
14.00304 -9.2144032 -1.4319351
13.964473 -9.3123093 -1.4338562
13.918626 -9.4056263 -1.4350789
13.855721 -9.4874754 -1.4345549
13.807886 -9.5796957 -1.4356902
13.754551 -9.6682491 -1.4363015
13.847525 -9.8610964 -1.4527194
13.80938 -9.9621964 -1.4551647
13.717428 -10.024406 -1.4518461
13.627637 -10.087643 -1.4487896
13.519256 -10.136412 -1.4437245
13.432211 -10.200498 -1.4410173
13.348838 -10.266933 -1.4387467
13.252582 -10.322937 -1.4350789
13.078711 -10.317069 -1.4227654
12.934991 -10.333084 -1.4137704
12.835717 -10.383438 -1.4097533
12.761746 -10.453795 -1.408618
12.693529 -10.528723 -1.4081813
12.620296 -10.599363 -1.4072207
12.54895 -10.671438 -1.4065222
12.47644 -10.742387 -1.4057361
12.417801 -10.825284 -1.4066094
12.353385 -10.903252 -1.4068714
12.273623 -10.967562 -1.4053868
12.181718 -11.020611 -1.4025049
12.083014 -11.066891 -1.3988371
11.953519 -11.083928 -1.3915014
11.857684 -11.131157 -1.3881829
11.777608 -11.192725 -1.3867856
11.705119 -11.261327 -1.386349
11.615105 -11.31278 -1.3838164
11.505748 -11.344669 -1.3789259
11.393618 -11.372829 -1.3736862
11.324321 -11.443233 -1.3737735
11.281053 -11.540284 -1.3771794
11.226638 -11.626484 -1.3792753
11.156463 -11.696592 -1.37945
11.085167 -11.765553 -1.3795372
6.9549079 -7.4733491 -0.8573935
10.934558 -11.894832 -1.3788387
10.844625 -11.943263 -1.3766553
10.709944 -11.941354 -1.3686211
6.7330761 -7.600769 -0.85259038
6.6843438 -7.6396904 -0.85232842
6.5722032 -7.6051903 -0.84359545
10.251976 -12.01117 -1.3467886
10.170379 -12.06471 -1.3457407
10.097434 -12.128418 -1.3459153
10.02599 -12.193994 -1.346352
9.9597712 -12.266109 -1.3475746
9.871233 -12.31067 -1.3457407
9.8103523 -12.38975 -1.3478366
2.0246546 -2.5899971 -0.25062737
2.0008104 -2.5921206 -0.24949209
1.9806402 -2.598803 -0.24888079
1.9592654 -2.6037438 -0.24809483
1.9480056 -2.6221132 -0.24879345
1.9360046 -2.6396391 -0.24940477
1.9244462 -2.657923 -0.25010341
0 -0 -0
9.1115417 -12.912348 -1.3478366
1.8974018 -2.7247753 -0.25350925
1.8817759 -2.738008 -0.25368392
1.8666183 -2.751976 -0.25394592
1.8668783 -2.7890387 -0.25665313
8.6826153 -13.142546 -1.3432955
8.5833139 -13.1672 -1.3403263
8.4667931 -13.164322 -1.3345625
8.3591719 -13.173969 -1.330196
8.2802944 -13.22839 -1.3305453
8.2115316 -13.29929 -1.3326412
8.1168203 -13.328155 -1.330458
8.0292454 -13.368314 -1.3294973
7.952652 -13.426757 -1.330458
7.8741369 -13.482183 -1.3311566
7.7887778 -13.525927 -1.3307199
7.7149825 -13.589923 -1.3323792
7.6528573 -13.675255 -1.3362218
7.556293 -13.699275 -1.3339512
7.478755 -13.757635 -1.3351738
7.4050183 -13.823462 -1.3371824
7.2926235 -13.81666 -1.3320299
7.1971378 -13.840818 -1.3300214
7.1148019 -13.890038 -1.3305453
7.0227094 -13.920092 -1.3292354
6.9345055 -13.957567 -1.3287114
6.8382263 -13.978378 -1.3266155
6.7216358 -13.956351 -1.3204151
6.6239252 -13.972128 -1.3179699
6.5254321 -13.985426 -1.3153499
6.4249473 -13.993516 -1.3122934
6.3373232 -14.029044 -1.3119441
6.2547641 -14.075858 -1.3127301
6.1830397 -14.147745 -1.3159612
6.1201086 -14.241247 -1.3212883
6.0333862 -14.280366 -1.3214631
5.9391546 -14.301477 -1.3199785
5.8558078 -14.348719 -1.3210264
5.7943506 -14.450951 -1.3273141
5.7070322 -14.48994 -1.3276634
5.6266418 -14.546983 -1.3297594
5.5443511 -14.599859 -1.331506
5.4543157 -14.63267 -1.3314186
5.3623753 -14.660249 -1.3308947
5.2639084 -14.669435 -1.3287114
5.1757836 -14.707095 -1.3292354
5.0903196 -14.752702 -1.3305453
5.0044904 -14.797812 -1.3318553
4.9001236 -14.78758 -1.3281001
4.8040676 -14.801261 -1.3266155
4.710443 -14.821915 -1.3258295
4.6185207 -14.847685 -1.3255676
4.5165977 -14.840483 -1.3223363
4.3842416 -14.729474 -1.3096735
4.2793064 -14.70636 -1.3051324
4.1898069 -14.735215 -1.3053944
4.1449022 -14.924779 -1.3203278
4.060286 -14.97589 -1.3226857
3.9255137 -14.838731 -1.3080143
3.8299112 -14.845176 -1.3064424
3.7307334 -14.836514 -1.3035605
3.6412871 -14.8659 -1.3041718
3.5775023 -15.003274 -1.314564
3.4896541 -15.043381 -1.3162233
3.4040782 -15.094634 -1.3189305
3.3154464 -15.133726 -1.3205898
3.2233541 -15.157681 -1.3209391
3.1401489 -15.224981 -1.3252182
3.045109 -15.236147 -1.3245196
2.9511859 -15.252588 -1.324345
2.8582752 -15.274326 -1.3246943
2.767513 -15.308242 -1.3261789
2.6786683 -15.354375 -1.3287988
2.5862224 -15.381329 -1.3297594
0.43940854 -2.7171993 -0.20373139
0.41614294 -2.6775177 -0.19997621
0.39764684 -2.6662271 -0.1987536
0.38325435 -2.6824229 -0.19997621
0.36530319 -2.673867 -0.19901559
0.36578012 -2.80546 -0.21045576
0.35015658 -2.820503 -0.21159105
0.33482933 -2.8394167 -0.21307565
0.31884018 -2.8542879 -0.21421093
0.20367913 -1.931898 -0.13273241
0.19162424 -1.9311289 -0.13255775
0.17958647 -1.9302845 -0.13238309
0.16713428 -1.9244031 -0.13177179
0.15452014 -1.9154631 -0.13089849
0.1429868 -1.9193554 -0.13116047
0.13025351 -1.9062827 -0.12993786
0.11812019 -1.9000863 -0.12932655
0.10645926 -1.9007753 -0.12932655
0.098231457 -1.9700432 -0.1353523
0.10423671 -2.3826299 -0.17150675
0.074725412 -1.9890187 -0.13692422
0.06072459 -1.9326859 -0.13194644
0.048585508 -1.9220678 -0.13098581
0.037272777 -1.9472295 -0.13316905
0.025179351 -1.9364645 -0.13220844
0.012782527 -1.8638632 -0.12583336
0.00133836 -1.8559371 -0.12513474
-0.010054659 -1.8569067 -0.12522206
-0.021346623 -1.847845 -0.1244361
-0.033606693 -1.9004686 -0.12906456
-0.077503726 -3.2656081 -0.24879345
-0.097273052 -3.2561095 -0.24800749
-0.11289094 -3.1339958 -0.23735328
-0.12860405 -3.0496387 -0.23001759
-0.1473618 -3.0497873 -0.23010492
-0.16326152 -2.9971006 -0.22556378
-0.18068585 -2.9801326 -0.22416651
-0.20307593 -3.0405943 -0.22958094
-1.1714867 -16.081604 -1.3759568
-1.265668 -16.017508 -1.370979
-1.3607979 -15.972713 -1.3677478
-1.4570571 -15.945214 -1.3660885
-1.554094 -15.928041 -1.3653898
-0.30961165 -2.9805253 -0.22512713
-0.32636976 -2.9647064 -0.22390452
-1.7667814 -15.206049 -1.3044338
-1.8506116 -15.117795 -1.2976221
-0.48216805 -3.7456651 -0.29350623
-0.50420994 -3.7357254 -0.2928949
-0.43400064 -3.0726552 -0.23447141
-0.45487934 -3.0837319 -0.23569402
-0.47258189 -3.0730057 -0.23499538
-0.48796737 -3.0484073 -0.23307413
-0.51483095 -3.0944905 -0.23744062
-0.47723314 -2.7633946 -0.20827252
-0.48400635 -2.7035387 -0.2032074
-0.49732023 -2.6828866 -0.20163547
-0.51620936 -2.6925037 -0.20277075
-3.1687615 -16.00684 -1.3928987
-3.2557504 -15.932439 -1.3880082
-3.3540649 -15.915087 -1.3882703
-0.56352949 -2.5933568 -0.19508575
-0.5787794 -2.5869339 -0.19482376
-0.59397167 -2.5804212 -0.19456178
-0.60681319 -2.5641255 -0.19342649
-0.61571383 -2.5322814 -0.19089393
-3.9180496 -15.702558 -1.3811965
-4.0133367 -15.674361 -1.3808472
-0.64628232 -2.4598174 -0.18539216
-0.65514982 -2.4327188 -0.18329625
-4.2760153 -15.5066 -1.3725508
-0.92613006 -3.2786975 -0.26110694
-0.93876326 -3.2471137 -0.25874904
-4.559587 -15.421445 -1.3722016
-0.80528265 -2.6622624 -0.20626394
-0.854545 -2.7638693 -0.21604486
-4.780581 -15.138267 -1.3541243
-5.0177078 -15.556146 -1.3953439
-5.1504555 -15.638608 -1.4058235
-5.2713895 -15.681308 -1.4127225
-5.3788204 -15.681648 -1.415779
-5.4779005 -15.656812 -1.4165651
-5.5859156 -15.656683 -1.4197088
-1.2046521 -3.3112175 -0.27132449
-5.806016 -15.663551 -1.4268699
-5.8970895 -15.614584 -1.4256473
-1.1813494 -3.0699883 -0.25080204
-1.1783634 -3.0070288 -0.24556227
-1.3012277 -3.2616034 -0.27027655
-1.3538151 -3.3338609 -0.27787423
-1.2669848 -3.0658517 -0.25324726
-1.2579807 -2.9918983 -0.24695954
-1.2637829 -2.9548123 -0.24416499
-6.670855 -15.34022 -1.4288784
-6.8164186 -15.41562 -1.4400567
-1.365334 -3.0364478 -0.25429523
-1.4249246 -3.1177154 -0.26294085
-7.005877 -15.086958 -1.4206696
-7.0995922 -15.04639 -1.4209315
-1.9260153 -4.0171161 -0.35297769
-7.2784667 -14.947386 -1.4198835
-1.3847635 -2.7992938 -0.23621799
-1.3607841 -2.708843 -0.22818367
-1.3647093 -2.6755934 -0.22573844
-1.3865961 -2.6777854 -0.2267864
-1.3988303 -2.6612902 -0.22600043
-2.0550063 -3.8524811 -0.34520534
-8.1937952 -15.13885 -1.4714954
-1.987042 -3.6174114 -0.32424626
-1.4826303 -2.6600981 -0.22940628
-1.4989245 -2.6509507 -0.22940628
-1.5240813 -2.6572592 -0.23097822
-8.6012344 -14.789102 -1.4622384
-8.6892872 -14.731757 -1.4618018
-5.0626082 -8.463665 -0.82700282
-8.9055738 -14.683641 -1.4679148
-8.987155 -14.615144 -1.4665176
-1.3636855 -2.1868186 -0.18836138
-1.3717562 -2.1699886 -0.18748808
-1.3888065 -2.1674027 -0.18809938
-5.2828236 -8.1362324 -0.81285542
-1.3999672 -2.1268957 -0.18565415
-5.6038909 -8.4031448 -0.84787458
-1.4192691 -2.0996509 -0.18460619
-9.7688751 -14.266704 -1.4782197
-9.857934 -14.20895 -1.4784817
-1.6650459 -2.3682005 -0.21621951
-1.6911023 -2.3741689 -0.21796611
-1.6864055 -2.3370869 -0.21508422
-1.6225433 -2.2197211 -0.2034694
-1.6782125 -2.266573 -0.2096698
-1.6968689 -2.2626092 -0.21036842
-1.6577042 -2.182339 -0.20268342
-1.6042595 -2.0852649 -0.19307716
-1.6182485 -2.0769539 -0.19325183
-1.6679792 -2.1139138 -0.1984916
-1.701436 -2.1293247 -0.20137349
-10.998668 -13.596285 -1.4955109
-11.085673 -13.533166 -1.496035
-1.682469 -2.0278707 -0.19342649
-1.6385024 -1.9503787 -0.18574148
-1.6459216 -1.934976 -0.18513018
-1.6675129 -1.9361643 -0.18644013
-1.6721611 -1.917636 -0.18547949
-1.6891695 -1.9133148 -0.18617813
-1.7068514 -1.9095998 -0.18696409
-1.717868 -1.898352 -0.18687676
-1.7341936 -1.8929181 -0.18748808
-1.7749002 -1.9136528 -0.19124325
-2.2897661 -2.4387512 -0.25569251
-3.2118816 -3.3793037 -0.37114224
-3.3796642 -3.512445 -0.38974345
-2.3585942 -2.4211686 -0.25874904
-12.490993 -12.668406 -1.5220592
-12.568491 -12.591524 -1.5220592
-3.2503047 -3.2161236 -0.36328259
-3.402473 -3.3256454 -0.3795259
-3.3963006 -3.2791021 -0.3762947
-3.4098692 -3.2520127 -0.37550873
-12.920542 -12.17342 -1.5186533
-3.5187955 -3.2743986 -0.38380504
-3.1486681 -2.8940728 -0.33734569
-3.5034006 -3.1807446 -0.37725532
-3.5710545 -3.2024229 -0.38293174
-3.40646 -3.0172865 -0.36136132
-3.5658522 -3.1196556 -0.3777793
-3.4274025 -2.9615779 -0.35952741
-3.3947449 -2.8971598 -0.35367632
-13.559813 -11.430795 -1.5171688
-13.62893 -11.346741 -1.5170814
-3.3482361 -2.7525656 -0.3424108
-3.9767678 -3.2286844 -0.41148853
-3.7959938 -3.0434368 -0.38895747
-3.840369 -3.0404956 -0.39183936
-13.688062 -10.702434 -1.4856427
-13.751108 -10.616418 -1.4853808
-3.3221092 -2.5320385 -0.32861272
-11.253813 -8.469944 -1.197193
-11.274388 -8.3775597 -1.1937872
-11.354495 -8.3294373 -1.196931
-4.0763001 -2.9516754 -0.40362886
-14.227365 -10.170869 -1.4955983
-3.1208572 -2.2018454 -0.29726139
-3.1244996 -2.1758225 -0.29621345
-3.1427166 -2.1599958 -0.2967374
-3.127883 -2.1216559 -0.2937682
-3.130909 -2.095773 -0.29272026
-3.1420472 -2.0754244 -0.29254559
-3.1655712 -2.0631783 -0.29368088
-3.1932521 -2.053416 -0.2952528
-3.2074738 -2.0348516 -0.29542747
-3.3414903 -2.0912468 -0.30800295
-3.4805532 -2.1486881 -0.32101506
-15.171854 -9.2396946 -1.5197012
-3.589494 -2.1555698 -0.32948601
-3.5957961 -2.1294429 -0.32878739
-3.6053536 -2.1053298 -0.32843807
-3.6415119 -2.0965908 -0.33079597
-15.621401 -8.8683186 -1.5371672
-15.681607 -8.7757063 -1.5377785
-15.749115 -8.6870193 -1.5391757
-3.8992925 -2.1193564 -0.35149309
-3.943835 -2.1123261 -0.35463694
-3.9690557 -2.0945978 -0.35585955
-16.116648 -8.3806295 -1.5548952
-3.9111183 -2.003041 -0.34765059
-3.9544637 -1.9947106 -0.35070711
-7.6332736 -3.7922177 -0.7096318
-7.6671367 -3.7505627 -0.71067977
-7.6684651 -3.6930728 -0.70858383
-16.602324 -7.8709359 -1.5731469
-10.078379 -4.7023268 -0.93738741
-5.7688212 -2.6484213 -0.51890397
-5.7595434 -2.601491 -0.51645869
-5.7808595 -2.5685296 -0.51698267
-5.8029008 -2.5358031 -0.51759398
-10.128186 -4.3524137 -0.92882913
-10.180395 -4.3010426 -0.93127435
-10.289393 -4.2728834 -0.939134
-10.353233 -4.2251024 -0.94271457
-10.250442 -4.1099601 -0.93057573
-9.6377811 -3.7958081 -0.87049294
-10.40788 -4.0255513 -0.94070596
-10.437041 -3.9633822 -0.94114262
-10.350085 -3.8578596 -0.93075037
-10.38666 -3.7990713 -0.93197298
-10.55792 -3.7884326 -0.9457711
-10.402428 -3.6607418 -0.92917848
-10.401152 -3.588721 -0.92699522
-7.7863722 -2.6330812 -0.68299627
-7.8042731 -2.5858822 -0.68317091
-10.460709 -3.395124 -0.92655855
-10.490837 -3.3338919 -0.92743188
-10.522511 -3.2730095 -0.92847979
-10.541443 -3.2080929 -0.92839247
-10.499824 -3.1251614 -0.9228034
-10.858358 -3.1594923 -0.95380539
-10.870833 -3.0908999 -0.95319408
-10.879036 -3.0212069 -0.95223349
-9.7090015 -2.6321726 -0.84429407
-11.028931 -2.9175429 -0.96253836
-11.060129 -2.8533001 -0.96376097
-11.086123 -2.7875693 -0.96454692
-11.163976 -2.7344263 -0.97004873
-11.218335 -2.6748862 -0.97345459
-11.186987 -2.5949697 -0.9691754
-11.422318 -2.5758126 -0.98891193
-11.490456 -2.5171914 -0.99362773
-11.287422 -2.4002194 -0.9740659
-11.317547 -2.334136 -0.97546315
-11.517259 -2.3017485 -0.99205577
-11.533121 -2.2314153 -0.99223042
-11.579887 -2.1668382 -0.99519962
-11.597866 -2.0966306 -0.99563628
-12.009924 -2.0951185 -1.0311794
-11.779903 -1.9805819 -1.009609
-12.016046 -1.9445561 -1.0295202
-13.247346 -2.0605271 -1.1377215
-13.458762 -2.0089171 -1.1553621
-14.294266 -2.0440714 -1.2282823
-15.215557 -2.080653 -1.308713
-15.937278 -2.0798275 -1.3714156
-15.737197 -1.9555819 -1.3526397
-19.573565 -2.3105414 -1.690256
-20.081387 -2.245651 -1.7338334
-21.074558 -2.2258937 -1.8202025
-22.283316 -2.2154193 -1.925522
-22.258799 -2.0751352 -1.9222034
-22.305847 -1.9415427 -1.9252599
-22.314362 -1.8043991 -1.924998
-22.317066 -1.6668532 -1.9242994
-22.310972 -1.5287969 -1.9229021
-22.31695 -1.3916845 -1.9226401
-22.334019 -1.2552273 -1.923426
-22.334337 -1.1178161 -1.9228147
-22.326841 -0.98014224 -1.9215921
-22.307549 -0.84218884 -1.9194089
-22.309309 -0.70520192 -1.9191469
-19.403017 1.4305118 -1.9110352
-19.372053 1.5477948 -1.9088424
-19.348312 1.6654348 -1.9074471
-19.331785 1.7835737 -1.9068491
-19.309584 1.9010847 -1.9057528
-19.286671 2.0183904 -1.9046564
-19.268978 2.1361446 -1.9041581
-19.249578 2.2536421 -1.9035602
-19.227488 2.3707383 -1.9027628
-19.205671 2.4877763 -1.9020652
-19.182158 2.6045017 -1.9012678
-19.165815 2.7221522 -1.9012678
-19.142847 2.838824 -1.9006698
-19.124084 2.9560769 -1.9005702
-19.106569 3.0735226 -1.9006698
-19.083424 3.1900439 -1.9002711
-19.045845 3.3040152 -1.8984771
-19.003668 3.4169409 -1.8962845
-18.959846 3.5292914 -1.8939921
-18.91927 3.6419857 -1.8920984
-18.883881 3.7554796 -1.8908027
-18.854633 3.8700776 -1.8902047
-18.826637 3.9848702 -1.889806
-18.799889 4.0998888 -1.8896067
-18.76564 4.2132034 -1.8887097
-18.723925 4.3246841 -1.887115
-18.681547 4.435812 -1.8855203
-18.62401 4.5430441 -1.8824307
-18.585167 4.6545739 -1.8813343
-18.542765 4.7650547 -1.879939
-18.499708 4.8751907 -1.8785437
-18.459841 4.9860158 -1.877547
-18.425064 5.0981278 -1.8771484
-18.393435 5.2110858 -1.8771484
-18.365892 5.3252335 -1.8776467
-18.344318 5.4412203 -1.8788427
-18.325821 5.5582986 -1.8804374
-18.316082 5.6783009 -1.8830287
-18.306507 5.7986937 -1.8857197
-18.309397 5.923471 -1.889806
-18.304829 6.0463166 -1.8931948
-18.292841 6.1671033 -1.8958857
-18.280062 6.2879701 -1.8985767
-18.258974 6.4062762 -1.9004705
-18.243679 6.5269065 -1.9030617
-18.23881 6.6516819 -1.9068491
-18.240555 6.7794161 -1.9114338
-18.244209 6.9084792 -1.9163175
-18.25996 7.0428553 -1.9225966
-18.243261 7.1653142 -1.9254869
-18.232212 7.2904196 -1.9290749
-18.220312 7.4156585 -1.932663
-18.206642 7.5406446 -1.9361513
-18.206793 7.6719246 -1.9412342
-18.18041 7.7925119 -1.9435266
-18.152321 7.9126663 -1.9457192
-18.127989 8.0347853 -1.9484103
-18.107376 8.1589479 -1.9515996
-18.090445 8.2852306 -1.9552873
-18.07535 8.4128723 -1.9592741
-18.068363 8.5448952 -1.9642574
-18.051466 8.6728373 -1.9682441
-18.080175 8.8235893 -1.9774134
-18.104147 8.9732513 -1.9861841
-17.971424 9.0452442 -1.9775131
-18.005959 9.2015343 -1.9876791
-18.002151 9.3393393 -1.9936591
-17.978844 9.4677057 -1.9975462
-17.952003 9.5947304 -2.0011342
-17.921656 9.7203579 -2.0044231
-17.889568 9.8454933 -2.0076125
-17.855753 9.9701157 -2.0107021
-17.81069 10.088808 -2.0125959
-17.770882 10.210792 -2.0151873
-17.709614 10.320642 -2.0153866
-17.669083 10.442782 -2.0180776
-17.623449 10.562256 -2.0202703
-17.609325 10.7012 -2.0262504
-17.595007 10.840889 -2.03233
-17.552629 10.963934 -2.0352204
-17.51697 11.091658 -2.0390077
-17.469517 11.212369 -2.0414994
-17.448765 11.350821 -2.0472801
-17.427799 11.489987 -2.0531604
-17.35697 11.596705 -2.0531604
-17.309381 11.719167 -2.0560508
-17.265043 11.844294 -2.0594394
-17.230442 11.976702 -2.0641239
-17.183475 12.101108 -2.0674129
-17.14616 12.232901 -2.0719974
-17.095778 12.355947 -2.0750871
-17.054161 12.485889 -2.0793729
-16.986019 12.596817 -2.0804691
-16.937841 12.722917 -2.084157
-16.855497 12.823593 -2.0836585
-16.769403 12.921309 -2.0827615
-16.70706 13.037429 -2.0849543
-16.557274 13.084785 -2.0760839
-16.451817 13.166235 -2.0728946
-16.34753 13.248138 -2.0699046
-16.218246 13.309058 -2.0637252
-16.110258 13.386698 -2.0603364
-15.993556 13.456468 -2.0558515
-15.897054 13.542733 -2.0540574
-15.781261 13.612074 -2.0497718
-15.69894 13.709959 -2.0499711
-15.595887 13.789549 -2.0474794
-15.499122 13.874365 -2.0458846
-15.397479 13.954503 -2.0436921
-15.304235 14.04199 -2.0426953
-15.198104 14.117346 -2.0400043
-15.086551 14.187157 -2.0366156
-14.976877 14.258189 -2.0335259
-14.869049 14.330482 -2.0307353
-14.763747 14.404769 -2.0283432
-14.658094 14.478304 -2.0259514
-14.547874 14.546865 -2.0229614
-14.447854 14.625236 -2.0214663
-14.350894 14.706489 -2.0204697
-14.230005 14.762745 -2.0160842
-14.138469 14.84906 -2.0159845
-14.031412 14.91886 -2.0136921
-13.919291 14.982804 -2.0107021
-13.79548 15.033471 -2.0060179
-13.685603 15.098666 -2.0034266
-13.579429 15.167528 -2.0014331
-13.470288 15.232674 -1.9990412
-13.375259 15.31354 -1.9988419
-13.268698 15.381005 -1.9969481
-13.1702 15.457586 -1.9963502
-13.063575 15.524402 -1.9945562
-12.957898 15.592022 -1.9929615
-12.848097 15.654314 -1.9907688
-12.741778 15.720486 -1.9891741
-12.626428 15.775065 -1.9861841
-12.518291 15.838191 -1.9843901
-12.403733 15.892739 -1.9815995
-12.288371 15.945691 -1.9787091
-12.184275 16.012873 -1.9777124
-12.076828 16.075399 -1.9762174
-11.971443 16.140406 -1.9751211
-11.869244 16.209543 -1.9746227
-11.74916 16.253841 -1.9711344
-11.638227 16.310238 -1.9692407
-11.525326 16.363443 -1.967048
-11.412778 16.416697 -1.9649551
-11.300012 16.469185 -1.962862
-11.187031 16.520906 -1.9607691
-11.063891 16.556973 -1.956882
-10.953876 16.612087 -1.955387
-10.839803 16.660637 -1.9531944
-10.727696 16.711761 -1.9514003
-10.618033 16.766342 -1.9501046
-10.509158 16.821894 -1.9490083
-10.406787 16.887754 -1.9492077
-10.297803 16.942789 -1.948211
-10.185466 16.992001 -1.9466163
-10.054687 17.009634 -1.9414335
-9.9345961 17.044359 -1.9383439
-9.6806126 16.84531 -1.9083441
-9.5133142 16.791843 -1.8953874
-9.4343576 16.893337 -1.9003707
-9.4816504 17.2255 -1.9317659
-9.4042425 17.335833 -1.9377459
-9.3005095 17.398474 -1.9383439
-9.1903334 17.449051 -1.9376463
-9.0711813 17.482149 -1.9350549
-8.9564972 17.523304 -1.9334602
-8.8331499 17.546822 -1.9299719
-8.7178068 17.585535 -1.9282776
-8.6014481 17.621706 -1.9263839
-8.4862661 17.659801 -1.9247892
-8.3743448 17.704344 -1.9239919
-8.2554789 17.733744 -1.9215999
-8.14361 17.777733 -1.9209021
-8.0245647 17.805593 -1.9185102
-7.911128 17.8454 -1.9175135
-7.789156 17.86533 -1.9144238
-7.6762538 17.90547 -1.9136264
-7.5681753 17.95682 -1.9141248
-7.4578519 18.002918 -1.9141248
-7.3464971 18.046497 -1.9139255
-7.2334108 18.085691 -1.9133275
-7.1197567 18.123251 -1.9126298
-6.998394 18.140602 -1.9098392
-6.8855443 18.17948 -1.9094405
-6.7728276 18.218588 -1.9091414
-6.6575036 18.250454 -1.9081448
-6.5390267 18.273161 -1.9062511
-6.4231582 18.30261 -1.9051548
-6.3058791 18.327564 -1.9036598
-6.1920333 18.362141 -1.9032611
-6.0773759 18.394119 -1.9026631
-5.9628658 18.426331 -1.9021648
-5.8472881 18.454981 -1.9013674
-5.7315831 18.48291 -1.9005702
-5.6197991 18.523443 -1.9011681
-5.5082994 18.565208 -1.9019655
-5.3964987 18.606302 -1.9027628
-5.2833157 18.642893 -1.9031614
-5.1693563 18.676878 -1.9033607
-5.0562167 18.714008 -1.9039588
-4.9387589 18.73506 -1.9029621
-4.8239574 18.765974 -1.9030617
-4.7055779 18.782673 -1.9017661
-4.587647 18.800558 -1.9006698
-4.4701338 18.819641 -1.8997728
-4.3514395 18.833141 -1.8983774
-3.2934325 14.662508 -1.4675167
-3.174355 14.549253 -1.4538622
-3.0234113 14.277395 -1.4240618
-2.9299474 14.267411 -1.4211714
-2.8446782 14.296831 -1.4223675
-2.7610393 14.335513 -1.4245601
-2.7101762 14.55174 -1.4448922
-2.5553277 14.203791 -1.4078161
-2.4740798 14.253516 -1.4113044
-2.383786 14.251744 -1.40961
-2.2858632 14.201265 -1.4030321
-2.1436534 13.859055 -1.3669525
-2.0384305 13.736119 -1.3531985
-1.9443133 13.679409 -1.3462218
-1.8590025 13.681222 -1.3452251
-1.7794954 13.726909 -1.3487135
-1.6984015 13.763245 -1.3513048
-1.6161184 13.792184 -1.3531985
-1.5312414 13.799863 -1.3529991
-1.445606 13.800092 -1.3521022
-1.3635358 13.835439 -1.3547932
-1.3217722 14.311208 -1.401836
-1.2378614 14.364651 -1.4064207
-1.3118726 16.40132 -1.6103395
-1.1622561 15.745193 -1.5436623
-1.0211452 15.09383 -1.4775831
-0.93418443 15.192175 -1.486852
-0.85258794 15.408244 -1.5079814
-0.71137428 14.46309 -1.4126997
-0.62261701 14.467183 -1.4126997
-0.56194687 15.234389 -1.4892441
-0.46525729 15.133122 -1.478779
-0.37236905 15.134698 -1.4786793
-0.28064975 15.199373 -1.4849584
-0.19976662 16.211676 -1.5862201
-0.093597911 15.118093 -1.4765863
-0.00083331688 15.116392 -1.476387
0.091569901 15.059398 -1.470706
0.18389751 15.052583 -1.4701079
0.27623662 15.050177 -1.4700083
0.36390939 14.858207 -1.4509718
0.45372686 14.811934 -1.4465865
0.54511565 14.822791 -1.4479818
0.63562888 14.809227 -1.4469852
0.7935977 16.170559 -1.5839278
0.77819425 14.092937 -1.3760222
0.86233282 14.050158 -1.3722349
0.9436934 13.973124 -1.3650589
1.0324883 14.008748 -1.3692449
1.1246109 14.079514 -1.3770189
1.2023555 13.972221 -1.3669525
1.2902601 13.98836 -1.3693446
1.3797737 14.017809 -1.3731319
1.4667957 14.018975 -1.3741286
1.539075 13.886091 -1.3616701
1.6272593 13.902081 -1.3642615
1.7098501 13.87011 -1.3620689
1.7933887 13.847515 -1.3608729
1.887831 13.906255 -1.3679492
1.970323 13.874706 -1.3659558
2.0554194 13.862356 -1.3659558
2.1439359 13.8721 -1.3682482
2.2369175 13.907803 -1.3732315
2.3135142 13.841802 -1.3679492
2.4075894 13.880285 -1.3733312
2.4888368 13.843707 -1.3711386
2.5746441 13.833066 -1.3716369
2.6643655 13.842412 -1.3742282
2.7601228 13.880453 -1.3798096
2.8448393 13.861306 -1.3796103
2.9327226 13.857218 -1.3810056
3.0352955 13.919652 -1.3892779
3.1226101 13.909503 -1.390175
3.2672541 14.146995 -1.4165868
3.3397415 14.066659 -1.4104074
3.4191499 14.017869 -1.4075171
3.512593 14.026546 -1.4106067
3.5933905 13.984491 -1.4085137
3.6887674 13.998742 -1.4123011
3.8052156 14.089193 -1.4240618
3.9149494 14.149969 -1.4328325
3.9859636 14.070156 -1.4270518
4.0686183 14.03301 -1.4257561
4.1880422 14.120345 -1.4375168
4.3543296 14.357181 -1.4650249
4.338903 13.99661 -1.4300418
4.4313145 13.990591 -1.4322345
4.531167 14.006685 -1.4368192
4.6379385 14.04192 -1.4434968
4.696033 13.930226 -1.4347261
4.8209114 14.015939 -1.4468856
4.9453702 14.095944 -1.4585466
5.04216 14.094377 -1.4616363
5.2294755 14.339867 -1.4911377
5.3097372 14.28699 -1.488945
5.4163313 14.30439 -1.4943271
5.4717684 14.187336 -1.485357
5.6096511 14.283152 -1.4993104
5.6886868 14.227214 -1.4970181
5.7672477 14.170844 -1.4947257
5.8224835 14.058891 -1.4864534
6.1486115 14.592306 -1.5483466
6.2584195 14.601859 -1.5535293
6.3220491 14.503897 -1.547051
6.40165 14.443911 -1.5447586
6.4545884 14.325436 -1.5360876
6.5527258 14.308178 -1.5385792
6.633677 14.253268 -1.5369846
