# .PCD v0.7 - Point Cloud Data file format
VERSION 0.7
FIELDS x y z
SIZE 4 4 4
TYPE F F F
COUNT 1 1 1
WIDTH 1545
HEIGHT 1
VIEWPOINT 0 0 0 1 0 0 0
POINTS 1545
DATA ascii
6.2441249 9.6032448 -1.9561293
6.287209 9.5408964 -1.9511533
6.2969313 9.4292288 -1.9358822
6.3866982 9.4377337 -1.9458342
6.4439297 9.3975554 -1.9456626
6.514401 9.3764467 -1.949609
6.5479908 9.3024654 -1.9424025
6.6066628 9.2645187 -1.9429172
6.6616535 9.2214108 -1.9424025
6.7076359 9.1660528 -1.9393139
6.769032 9.1318455 -1.9408582
6.8207955 9.0846252 -1.9396571
6.8883376 9.0582848 -1.9430888
6.9161329 8.9799471 -1.9351959
6.9601946 8.9233608 -1.9321073
7.0080981 8.8719826 -1.9302199
7.0470171 8.8095827 -1.9259303
7.0990782 8.7638817 -1.9254155
7.1508441 8.7178726 -1.9249008
7.197906 8.6662531 -1.923185
7.2388964 8.6076002 -1.9199249
7.2775221 8.5465212 -1.91615
7.3233919 8.4942455 -1.9144341
7.3721342 8.4454393 -1.9135761
7.4225106 8.3985701 -1.913233
7.4712758 8.3499317 -1.9125466
7.5197234 8.3010111 -1.9118603
7.5691838 8.2532625 -1.9115171
7.5955482 8.1806755 -1.9053401
7.6375031 8.1253033 -1.9032811
7.6844983 8.0754328 -1.9025947
7.7209158 8.0146503 -1.8993345
7.7568769 7.9537258 -1.8960744
7.8013811 7.9017749 -1.8950449
7.8538976 7.8579378 -1.8960744
7.8998628 7.8075223 -1.8955597
7.9462099 7.7575264 -1.8952166
7.9972057 7.7120423 -1.8960744
8.0429487 7.661468 -1.8957313
8.0567999 7.5809216 -1.8878384
8.0793476 7.509213 -1.882176
8.1107559 7.4461741 -1.8787444
8.1541023 7.3942823 -1.8782296
8.2007875 7.3454251 -1.8785728
8.2427521 7.292357 -1.8778864
8.2806644 7.2358093 -1.8763422
8.3211775 7.1816459 -1.8754842
8.3523397 7.1195898 -1.8725673
8.3800392 7.0548844 -1.868964
8.4080172 6.9907374 -1.8655323
8.4522762 6.9402657 -1.8658755
8.4908752 6.8851705 -1.8650175
8.5321932 6.8323264 -1.864846
8.5569525 6.7664037 -1.8610711
8.5750122 6.6955848 -1.8559235
8.6143742 6.6416407 -1.8555803
8.6628036 6.5946255 -1.8572962
8.7086172 6.5454898 -1.8584973
8.739913 6.4854751 -1.8566098
8.7684155 6.4235759 -1.8542076
8.7821169 6.3511815 -1.848717
8.8145065 6.2925973 -1.8473443
8.8118773 6.2094574 -1.8385934
8.8579006 6.1608963 -1.8403093
8.9329014 6.1320724 -1.8482022
8.9915667 6.0915103 -1.8526634
9.0164881 6.0280123 -1.8500897
9.0615292 5.9779987 -1.8518054
9.1244621 5.9394817 -1.8572962
9.1499577 5.8764634 -1.8550656
9.1750231 5.8133564 -1.8528349
9.2163687 5.7606044 -1.8540361
9.2624445 5.7106657 -1.8562667
9.3006773 5.6557717 -1.856953
9.3478794 5.6061964 -1.8595269
9.3744698 5.5442209 -1.8579825
9.4295893 5.499001 -1.8622721
9.4597368 5.4390745 -1.8615859
9.4972172 5.383357 -1.8624438
9.4922276 5.3038421 -1.854894
9.5435781 5.2559524 -1.8586689
9.592967 5.2066927 -1.8621006
9.6273403 5.1491265 -1.8626153
9.6613684 5.0913353 -1.8631301
9.6924257 5.0319581 -1.8631301
9.7204876 4.9710464 -1.8626153
9.7323284 4.9020047 -1.859012
9.7648706 4.8435087 -1.8595269
9.8121119 4.7921467 -1.8629586
9.8466587 4.7344112 -1.863988
9.8746328 4.6734824 -1.8638165
9.9254503 4.6232018 -1.8681061
9.9572134 4.5638552 -1.8687924
9.9419193 4.4832382 -1.8605564
9.9881525 4.4305382 -1.8641596
10.011539 4.3675933 -1.8634733
10.049014 4.3107409 -1.8655323
10.083445 4.2524447 -1.8670765
10.108438 4.1901164 -1.866905
10.138519 4.1298714 -1.8677629
10.177389 4.0730739 -1.8703367
10.21961 4.0173965 -1.8735968
10.206386 3.9400718 -1.8665618
10.22392 3.874929 -1.8653607
10.320452 3.8392513 -1.8789159
10.310497 3.763696 -1.8727388
10.33989 3.7026854 -1.87394
10.354048 3.6362343 -1.8723958
10.375233 3.572314 -1.8722241
10.378287 3.5022874 -1.8687924
10.456641 3.457401 -1.8792591
10.425171 3.3761833 -1.8696504
10.410004 3.3008406 -1.8631301
10.449821 3.2430336 -1.8667334
10.479893 3.1820011 -1.8686209
10.514331 3.1221232 -1.8713661
10.551267 3.0627658 -1.8746263
10.594504 3.0049536 -1.8790876
10.589006 2.9333179 -1.8747979
10.597296 2.8657191 -1.873082
10.633732 2.805666 -1.8765137
10.689866 2.7504263 -1.8835487
10.666405 2.6747229 -1.8763422
10.674959 2.6073554 -1.8749695
10.659127 2.5342894 -1.8693072
10.680236 2.4701698 -1.8703367
10.714416 2.4089105 -1.8737684
10.699157 2.3366098 -1.8684492
10.726786 2.2737756 -1.8708514
10.769485 2.2138627 -1.875999
10.773205 2.1458173 -1.8742832
10.848081 2.091604 -1.8852646
10.863615 2.0255435 -1.8857794
10.887475 1.9609418 -1.8878384
10.878919 1.8905606 -1.8842351
10.949585 1.8336928 -1.8947018
10.941177 1.7633399 -1.89127
6.2474623 0.96808815 -1.0621703
6.0223317 0.89544159 -1.0215046
5.924325 0.84376794 -1.0033165
5.9137721 0.80527735 -1.0005713
5.8844075 0.76454002 -0.99456573
5.883121 0.72769511 -0.99353617
5.888454 0.69169801 -0.99370778
5.8710461 0.65316188 -0.98993289
5.8759232 0.61722827 -0.9901045
5.8678346 0.58000207 -0.98804545
5.8732452 0.54416817 -0.98838866
5.8588061 0.50659627 -0.98530012
5.8500199 0.46969396 -0.98324108
5.8390369 0.43277332 -0.98083889
5.8376508 0.39667115 -0.98015255
0 0 -0
0 0 -0
5.8518348 0.28953981 -0.98152524
0 0 -0
0 0 -0
5.8374639 0.18120058 -0.97826511
5.8266473 0.14508723 -0.97620612
5.8343229 0.10946085 -0.97740722
0 0 -0
0 0 -0
0 0 -0
0 -0 -0
0 -0 -0
0 -0 -0
0 -0 -0
0 -0 -0
0 -0 -0
0 -0 -0
0 -0 -0
0 -0 -0
0 -0 -0
0 -0 -0
0 -0 -0
0 -0 -0
0 -0 -0
0 -0 -0
0 -0 -0
9.8446646 -1.027958 -1.6850246
9.7333994 -1.0767415 -1.6666651
9.7432432 -1.1383898 -1.669582
9.77812 -1.203331 -1.6769601
9.7832537 -1.2649494 -1.6791908
9.7626171 -1.3232329 -1.6769601
9.7523632 -1.3828335 -1.676617
9.7534399 -1.4440908 -1.6783328
9.7239494 -1.5007516 -1.6747296
9.6882954 -1.5561669 -1.6700968
9.6387243 -1.6089287 -1.6630617
9.6131401 -1.6653481 -1.6603163
9.5881958 -1.7216884 -1.6577426
9.5493631 -1.775263 -1.6527666
9.5247469 -1.8312176 -1.6503644
9.4785452 -1.8827121 -1.6441873
9.4494438 -1.9372724 -1.6410989
9.43256 -1.9941971 -1.6402409
8.3449554 -1.817687 -1.4485803
9.4054556 -2.1093676 -1.6398977
9.4124937 -2.1716924 -1.643501
9.4028254 -2.2303154 -1.6441873
9.4090633 -2.2928686 -1.6477907
9.3900385 -2.3493621 -1.6469327
7.4145746 -1.9032741 -1.2943251
7.4056149 -1.949486 -1.2948399
9.3994179 -2.5364406 -1.6567131
9.3836775 -2.5940666 -1.6567131
9.3855934 -2.6566951 -1.6599733
9.3691158 -2.7142341 -1.6599733
9.3598413 -2.7739112 -1.6613458
7.9652262 -2.4136841 -1.4106599
7.9229765 -2.4540555 -1.4056839
7.9087086 -2.5029211 -1.4058555
7.900701 -2.5538261 -1.4072282
8.7567625 -2.8901384 -1.5671456
9.195384 -3.0976641 -1.6510508
9.1771364 -3.1543479 -1.6512223
9.1603975 -3.2115765 -1.6517371
9.1330986 -3.2650692 -1.6503644
9.1175203 -3.3227346 -1.6512223
9.0960369 -3.378273 -1.6510508
7.6368828 -2.8895912 -1.3832062
9.0345917 -3.4821982 -1.6474475
9.0020514 -3.5332472 -1.6453885
8.9317188 -3.5690358 -1.6362945
8.8822756 -3.6126342 -1.6311469
8.8253527 -3.6527457 -1.6246266
8.7764444 -3.6957374 -1.6196507
8.7472639 -3.746803 -1.6184496
8.6906929 -3.7858429 -1.612101
8.6853132 -3.8470788 -1.6155326
8.6831026 -3.9100091 -1.6196507
8.7019434 -3.9828997 -1.6278868
8.7416525 -4.0661421 -1.6402409
8.754837 -4.1378098 -1.6476191
8.7337227 -4.1935835 -1.648477
8.7051706 -4.2457976 -1.6479622
8.6507072 -4.2851348 -1.6424716
8.5960903 -4.3239641 -1.6369808
8.5334272 -4.3582511 -1.6299458
8.506525 -4.4105291 -1.6299458
8.4705849 -4.4580517 -1.62823
8.4300375 -4.5029783 -1.6256561
8.3866606 -4.5461664 -1.6225677
8.3206291 -4.5766449 -1.6150179
8.3113155 -4.6381774 -1.6187928
8.2758417 -4.6852036 -1.6174201
8.2469378 -4.7358952 -1.6174201
8.2364511 -4.7973189 -1.621195
8.1898966 -4.8377433 -1.6177633
8.144002 -4.878284 -1.6145031
8.0987606 -4.9189553 -1.6114146
8.0734587 -4.9716558 -1.612444
8.0319386 -5.0143166 -1.6102135
7.9926958 -5.0582356 -1.6084976
7.9590211 -5.1055865 -1.6079829
7.91433 -5.1457324 -1.6052375
7.893301 -5.2012453 -1.6074681
7.8333845 -5.2309747 -1.6016343
7.8084831 -5.2839108 -1.6031785
7.7694149 -5.3272657 -1.6018058
7.6848044 -5.3388572 -1.5908244
7.6599569 -5.3915811 -1.5925403
7.6259284 -5.4379082 -1.5923686
7.5820374 -5.477097 -1.5901381
7.550673 -5.5252619 -1.5906528
7.5039663 -5.5620999 -1.5879074
7.444488 -5.589108 -1.5824167
7.4233837 -5.6448202 -1.5853336
7.3893886 -5.6908641 -1.5855052
7.3263683 -5.714282 -1.5793282
7.3267269 -5.7872224 -1.587221
7.2772326 -5.820991 -1.5841326
7.2375512 -5.8624325 -1.5832746
7.1679316 -5.8792367 -1.5757248
7.1483936 -5.9369574 -1.5794997
7.0929828 -5.9648533 -1.5752101
7.0517497 -6.0044298 -1.5741806
7.0088058 -6.0424385 -1.5728079
6.9404292 -6.0581169 -1.5656013
6.90977 -6.1064606 -1.5671456
6.8824487 -6.1579413 -1.5695478
6.8292036 -6.1861639 -1.5659446
6.7903914 -6.2272849 -1.5657729
6.7405033 -6.2581062 -1.5630275
6.7055664 -6.3027215 -1.5638855
6.6724763 -6.3491812 -1.5652581
6.6248794 -6.3818002 -1.5631992
6.5933542 -6.4298964 -1.5650866
6.5516739 -6.4681549 -1.5645719
6.5125594 -6.5089302 -1.5647434
6.4690366 -6.5452638 -1.5638855
6.4294419 -6.5855389 -1.5640571
6.3772883 -6.6128087 -1.5611401
6.3162103 -6.6304121 -1.5559926
6.3435864 -6.7415166 -1.5733227
6.2853365 -6.7622709 -1.569033
6.2930226 -6.8544178 -1.5817304
2.2130873 -2.4392889 -0.53471732
2.1974213 -2.4520884 -0.53454572
2.1810288 -2.4640493 -0.53420258
6.0269833 -6.8969884 -1.5563357
5.9362807 -6.8778982 -1.5434668
5.9144154 -6.9381871 -1.5489576
5.8825169 -6.9871602 -1.5518745
5.8294573 -7.0110011 -1.5491291
5.7713265 -7.0283632 -1.5450112
5.7094803 -7.0406852 -1.5398636
5.6969571 -7.1140385 -1.5484428
5.6574759 -7.1542702 -1.5496439
2.0397701 -2.6110156 -0.538149
1.9924356 -2.5829082 -0.5292266
1.9699864 -2.5864615 -0.52733916
1.9517119 -2.5953503 -0.52665281
1.9328154 -2.6033208 -0.52579486
1.822502 -2.4863749 -0.49799809
1.7973986 -2.4839389 -0.49508113
1.7901361 -2.5061469 -0.49748331
5.22787 -7.4185829 -1.541751
5.176065 -7.4416237 -1.5398636
5.1236172 -7.4634957 -1.5378045
5.081593 -7.5005031 -1.5390056
5.0365701 -7.5331798 -1.5393488
4.9907947 -7.5647645 -1.5395204
4.9491205 -7.6026764 -1.5410646
4.8901358 -7.6138334 -1.5371182
4.8375268 -7.634541 -1.5352308
4.776495 -7.6415224 -1.5305979
4.7212467 -7.657268 -1.5278525
1.7493389 -2.8751707 -0.54724306
1.7357171 -2.8926098 -0.54861569
1.7124201 -2.8938773 -0.54672831
4.5582047 -7.8159342 -1.5369467
4.5037785 -7.8326526 -1.534716
4.445919 -7.8429976 -1.5312843
4.3948293 -7.8649693 -1.5302547
4.3403106 -7.880568 -1.5280242
4.286706 -7.8975263 -1.5261368
4.2377028 -7.9228115 -1.5259651
4.1908464 -7.9521508 -1.5266515
4.1519585 -7.996953 -1.5304264
4.0924969 -8.0021029 -1.52648
4.0437632 -8.0279436 -1.5266515
4.0036197 -8.0711393 -1.5302547
3.9514272 -8.0902414 -1.5292252
3.9123821 -8.1365328 -1.5335149
3.8564847 -8.1479177 -1.5311127
3.8039222 -8.166069 -1.5300832
3.7438951 -8.1677608 -1.5259651
3.6884446 -8.1789036 -1.5237346
3.6314011 -8.1860714 -1.5208176
3.5956759 -8.2416115 -1.5271662
3.5485332 -8.2716675 -1.5287105
3.5000088 -8.2987318 -1.52974
3.4437428 -8.3073101 -1.5273378
3.3852742 -8.3100357 -1.5239061
3.3349528 -8.3324795 -1.5242493
3.2855647 -8.3573704 -1.5251073
3.2331588 -8.3746157 -1.5245925
3.1771746 -8.3823204 -1.5223619
3.1308327 -8.4155073 -1.5249356
3.0767732 -8.4280815 -1.5237346
3.0253336 -8.4477291 -1.5239061
2.9763794 -8.4744987 -1.5254503
2.9281723 -8.5037804 -1.5275095
2.8731048 -8.5131865 -1.5259651
2.8149405 -8.5128822 -1.5227051
2.7681153 -8.5468655 -1.5257936
2.7177043 -8.5702629 -1.5269947
2.6545584 -8.5529041 -1.5208176
2.588295 -8.5237808 -1.5125815
2.5471585 -8.57728 -1.5194449
2.494756 -8.5936937 -1.5196165
2.4438601 -8.6154737 -1.5208176
2.3980489 -8.655942 -1.5254503
2.3402646 -8.6533747 -1.5223619
2.2821 -8.6485195 -1.5189302
2.231199 -8.6709461 -1.5204744
2.1813064 -8.6978521 -1.5228766
2.1194847 -8.6766186 -1.5166996
2.0607395 -8.6664562 -1.5125815
2.0064149 -8.6741381 -1.5117235
1.9583375 -8.7093554 -1.5158416
1.8996086 -8.6971445 -1.511552
0.54962105 -2.5886524 -0.42198583
0.53233916 -2.5852208 -0.42078474
0.51704353 -2.5913372 -0.42129949
0.50132006 -2.5954282 -0.42147106
0.48628777 -2.6032979 -0.42232901
0.47397014 -2.6265941 -0.42593229
0.46526203 -2.6721611 -0.43348205
0.44820672 -2.6710789 -0.4327957
0.43541184 -2.6961493 -0.43674216
0.4202165 -2.7075324 -0.43828642
0.39664972 -2.6632845 -0.43005034
1.1600521 -8.1481314 -1.3945309
1.0345087 -7.5996461 -1.2968988
0.34756017 -2.6701345 -0.43005034
0.33141148 -2.6741722 -0.43039352
0.95663953 -8.147728 -1.3898981
0.90053868 -8.0986128 -1.3802893
0.85154867 -8.1108437 -1.3814903
0.79789692 -8.0767002 -1.374627
0.7420662 -8.0137558 -1.3627876
0.67586112 -7.8208718 -1.3282989
0.6280964 -7.8278179 -1.3288137
0.57998133 -7.8305416 -1.3286421
0.53538603 -7.8850646 -1.3375646
0.50031763 -8.1045284 -1.3753133
0.4462176 -8.0287533 -1.3615865
0.39190271 -7.9290066 -1.3437417
0.34243727 -7.9125614 -1.3404815
0.29784915 -8.0218239 -1.3591843
0.24962476 -8.055995 -1.3648466
0.20084625 -8.0839663 -1.3694794
0.15436678 -8.2534819 -1.3988205
0.10702626 -8.5202484 -1.4451485
0.05682661 -8.8517551 -1.5028012
0.0025142957 -8.8657303 -1.5052034
-0.051949687 -8.8764153 -1.5070908
-0.10662827 -8.8936605 -1.5101793
-0.16107085 -8.8859444 -1.5089782
-0.21511042 -8.8650913 -1.5055465
-0.27004281 -8.8813295 -1.508635
-0.32536307 -8.9021482 -1.5125815
-0.37947369 -8.8881731 -1.5105225
-0.43462983 -8.8984699 -1.5127531
-0.49014348 -8.9123573 -1.5156701
-0.54385525 -8.8934498 -1.5129247
-0.59821534 -8.8869963 -1.5124099
-0.65244436 -8.8792286 -1.5117235
-0.70801091 -8.8888063 -1.5141258
-0.76017576 -8.8568115 -1.5093213
-0.81785047 -8.888278 -1.5156701
-0.87314385 -8.8909359 -1.5170428
-0.93106127 -8.9177456 -1.5227051
-0.98619574 -8.915781 -1.5233914
-1.0419134 -8.9183683 -1.5249356
-1.0899913 -8.8580303 -1.5154984
-1.1460929 -8.8648539 -1.5179006
-1.2058948 -8.8976793 -1.5249356
-1.2612978 -8.8959656 -1.5259651
-1.3132595 -8.8705168 -1.5228766
-1.3693174 -8.8730021 -1.5247641
-1.421859 -8.8527603 -1.5227051
-1.4759895 -8.8428984 -1.5225334
-1.5335863 -8.8530884 -1.5259651
-1.5941513 -8.8784189 -1.5321422
-0.5569036 -3.0000088 -0.49250737
-0.57567304 -2.9984703 -0.49285051
-0.59674919 -3.0084093 -0.49525273
-0.61598909 -3.0085514 -0.49593905
-1.8765512 -8.8764248 -1.5412363
-1.9175532 -8.8031387 -1.5302547
-0.66824245 -2.9832456 -0.49353686
-0.68188113 -2.9589307 -0.48993358
-0.69706666 -2.94223 -0.48770297
-0.71674025 -2.9445975 -0.48890406
-2.1943407 -8.7707577 -1.5357455
-2.237577 -8.7160978 -1.5283673
-2.2804763 -8.6621914 -1.5211607
-0.78339601 -2.9061475 -0.48530078
-0.79491037 -2.8784974 -0.48118272
-0.80665201 -2.8527122 -0.47740784
-0.82441497 -2.848655 -0.47757944
-2.5512753 -8.608942 -1.5249356
-2.6109107 -8.6157522 -1.5290537
-2.6619771 -8.5939236 -1.5280242
-1.0091636 -3.1910405 -0.54398292
-1.0447909 -3.2344689 -0.55307692
-1.0683242 -3.2392232 -0.55513597
-2.8812048 -8.5530815 -1.5330001
-1.1079941 -3.2258694 -0.55513597
-1.1277667 -3.2190101 -0.55513597
-1.1375444 -3.1842008 -0.54998839
-3.074043 -8.4353695 -1.5247641
-3.1099606 -8.373868 -1.5168711
-1.1635268 -3.0770357 -0.53403097
-1.1760057 -3.0532928 -0.53094244
-1.1979587 -3.0542727 -0.53248674
-1.266408 -3.1712761 -0.55582231
-3.4028628 -8.3666954 -1.5342013
-3.4492366 -8.3338251 -1.5319706
-3.502984 -8.3188591 -1.5331718
-3.561722 -8.31532 -1.5366035
-3.620548 -8.3113718 -1.5400351
-3.6682847 -8.2817945 -1.5386624
-3.732384 -8.2887726 -1.5443248
-1.3179605 -2.8813798 -0.51292598
-1.329797 -2.8607337 -0.5105238
-3.8649514 -8.1776972 -1.5364318
-3.9235866 -8.1715899 -1.5398636
-3.9749486 -8.1500177 -1.5403783
-4.0323172 -8.140481 -1.5432953
-4.0640349 -8.079504 -1.5362602
-4.1099482 -8.0473967 -1.5348876
-4.1846485 -8.071002 -1.5444963
-4.2308803 -8.0390711 -1.5432953
-4.2819843 -8.0164356 -1.5439816
-4.3325005 -7.9926085 -1.5444963
-4.3881092 -7.9779587 -1.5468985
-4.4461021 -7.9672275 -1.5501586
-4.5031571 -7.95437 -1.5530757
-4.5685635 -7.9556346 -1.5589095
-4.6078696 -7.9112792 -1.5556494
-4.6598334 -7.8887939 -1.5568504
-4.6914411 -7.8321657 -1.5511882
-4.70258 -7.7426109 -1.5388341
-4.7251987 -7.6733475 -1.5305979
-4.7440143 -7.5990863 -1.5213324
-4.7974024 -7.5806561 -1.5235629
-4.8576589 -7.5726347 -1.5280242
-4.9185343 -7.5649848 -1.532657
-4.9805822 -7.5585175 -1.5376329
-5.0487552 -7.5605836 -1.5444963
-5.1116176 -7.5539384 -1.5496439
-5.1996627 -7.583365 -1.5625128
-5.2562151 -7.5658798 -1.5656013
-5.2787194 -7.4996533 -1.5583948
-5.319488 -7.4599037 -1.5568504
-5.3824711 -7.4510794 -1.561998
-5.4490361 -7.4465318 -1.5681751
-5.4693947 -7.3789277 -1.560797
-5.5246248 -7.3586211 -1.5637139
-5.577426 -7.3347778 -1.5659446
-5.6433687 -7.327733 -1.57195
-5.7003441 -7.3085032 -1.5753816
-5.7499671 -7.279573 -1.5767543
-5.7871399 -7.2349238 -1.5746953
-5.8351445 -7.2038708 -1.5757248
-5.8704886 -7.1572685 -1.5733227
-5.9237375 -7.1324801 -1.5758965
-5.9769025 -7.1073074 -1.5784702
-6.0242324 -7.0749998 -1.5794997
-6.0771809 -7.0490937 -1.5820736
-6.1261501 -7.0183516 -1.5836178
-6.1925879 -7.0072026 -1.5897949
-6.2295537 -6.9624667 -1.5882506
-6.2761264 -6.9284921 -1.5892801
-6.3198524 -6.891304 -1.5896232
-6.3646994 -6.8552837 -1.5903096
-6.4167652 -6.8268681 -1.5928833
-6.4646459 -6.7937899 -1.5944277
-4.1724987 -4.332006 -1.0086358
-4.221014 -4.3288894 -1.0141264
-4.262033 -4.3176289 -1.0177298
-4.3149123 -4.317872 -1.0242499
-4.3125935 -4.2629247 -1.017215
-3.4827857 -3.4009974 -0.80891049
-3.5007515 -3.3768282 -0.80822414
-3.3915663 -3.2316294 -0.77699566
-3.4156365 -3.2148085 -0.77802515
-4.5387559 -4.2191639 -1.0403789
-3.5070868 -3.2206161 -0.79037929
-3.5391898 -3.2102854 -0.79329628
-3.5705636 -3.1990244 -0.79604161
-3.4432778 -3.0471675 -0.76189613
-3.4188788 -2.988389 -0.75194418
-3.4274545 -2.9589882 -0.7497136
-4.6602473 -3.9730997 -1.0276817
-3.7672579 -3.1723678 -0.81886244
-3.832866 -3.187608 -0.82932913
-4.5589786 -3.7441237 -0.98856026
-4.5680914 -3.7049124 -0.98547173
-4.5984292 -3.6829705 -0.98718756
-4.6541724 -3.6809578 -0.99456573
-4.6751175 -3.6511185 -0.99422252
-4.7114773 -3.6331899 -0.99731106
-4.7783661 -3.6382215 -1.0070914
-4.8250151 -3.6271803 -1.0124105
-4.9033561 -3.6391823 -1.0245931
-4.7396116 -3.4728112 -0.98444217
-4.8239007 -3.4892654 -0.9979974
-4.8452196 -3.4596009 -0.9979974
-4.7954836 -3.3798757 -0.98289794
-4.8088522 -3.3453255 -0.98135364
-4.8796492 -3.3503189 -0.99199194
-4.913981 -3.3297069 -0.99490887
-4.8622427 -3.2513165 -0.9798094
-4.9067726 -3.2376938 -0.98495692
-4.9141607 -3.1994648 -0.98238319
-4.7778492 -3.0691819 -0.95012516
-4.9447308 -3.1336477 -0.98066729
-5.0156641 -3.135617 -0.99130559
-5.0658393 -3.1239092 -0.99765426
-5.0958552 -3.0994201 -0.99988484
-5.0716858 -3.0422573 -0.99113399
-4.9800143 -2.9458969 -0.9688279
-5.1205521 -2.9867375 -0.99353617
-5.0473919 -2.9027286 -0.97517657
-5.2022452 -2.9494188 -1.0026302
-5.2555075 -2.9371414 -1.0096653
-5.2345953 -2.8834565 -1.0019438
-5.2062964 -2.8263807 -0.99284989
-5.2113781 -2.7878788 -0.99044764
-5.2344871 -2.7590642 -0.99164879
-5.2906661 -2.7473171 -0.9993701
-5.3021607 -2.7121115 -0.99834061
-5.319582 -2.67997 -0.99851215
-5.3571086 -2.6577835 -1.0026302
-5.3582659 -2.6175146 -0.99971324
-5.3697863 -2.5824535 -0.99885535
-5.4879403 -2.5979118 -1.0185876
-5.3582044 -2.4964015 -0.99061924
-5.3984985 -2.474968 -0.99542361
-5.5096822 -2.4851198 -1.0137832
-5.450078 -2.4181187 -0.9995417
-5.4666185 -2.3854198 -0.99988484
-5.4947338 -2.3576567 -1.0024587
-5.4982033 -2.3193045 -1.0003996
-5.4950385 -2.2783587 -0.99713951
-5.5262508 -2.2516584 -1.0003996
-5.5591707 -2.2253926 -1.0040029
-5.5754714 -2.1923213 -1.0045177
-5.6577511 -2.1846719 -1.0173866
-5.6885533 -2.1565473 -1.0206467
-5.7256866 -2.1305306 -1.0251079
-5.7617884 -2.1038015 -1.0293975
-5.7458353 -2.058115 -1.0240784
-5.740694 -2.0166202 -1.0208182
-5.7231507 -1.9710978 -1.0153276
-5.7650089 -1.9460212 -1.0208182
-5.7609391 -1.9053551 -1.0179013
-5.7659607 -1.8678468 -1.0167003
-5.7528958 -1.824693 -1.012239
-5.9032416 -1.8325611 -1.0376337
-5.9850774 -1.8177643 -1.0505025
-6.1132293 -1.8157676 -1.071779
-6.3324075 -1.8386208 -1.1095278
-6.2999706 -1.78737 -1.1016349
-6.3744316 -1.766295 -1.113131
-6.4279461 -1.7387171 -1.1208525
-6.5166068 -1.7198442 -1.1349224
-6.876245 -1.7696363 -1.1977227
-6.9691563 -1.7480102 -1.212479
-7.2324142 -1.7669001 -1.2577775
-7.3466353 -1.7470895 -1.2763087
-7.7920313 -1.8024957 -1.3540368
-7.9154048 -1.7799227 -1.3741122
-7.9598646 -1.7386745 -1.3801177
-7.953999 -1.6863298 -1.3772007
-7.9584064 -1.6363037 -1.3761712
-9.623415 -1.9169272 -1.6700968
-9.8352413 -1.8964303 -1.7056149
-10.00359 -1.8652834 -1.7334117
-10.139923 -1.8263813 -1.7555462
-10.410099 -1.809139 -1.8013594
-11.057439 -1.8517431 -1.9137478
-11.134731 -1.7945133 -1.9254155
-11.218552 -1.7374591 -1.9382844
-11.242643 -1.6706165 -1.9406866
-11.297549 -1.6079826 -1.9485795
-11.263274 -1.5326589 -1.9408582
-11.205055 -1.4547747 -1.9290189
-11.225503 -1.3874433 -1.9310778
-11.244568 -1.319801 -1.9329653
-11.253433 -1.2508895 -1.9331368
-11.269715 -1.1827408 -1.9346812
-11.267937 -1.1126984 -1.9331368
-11.270628 -1.0431759 -1.9324505
-11.277798 -0.97408569 -1.9326221
-11.283563 -0.90486807 -1.9326221
-11.283008 -0.83518064 -1.9315926
-11.289886 -0.76606691 -1.9319358
-11.292407 -0.6966579 -1.9315926
-11.282698 -0.62659252 -1.9291904
-11.277474 -0.55691499 -1.9276462
-11.273789 -0.48741004 -1.926445
-11.311026 -0.41950062 -1.9324505
-11.31831 -0.35024142 -1.9333085
-11.313352 -0.28061667 -1.9321073
-11.31486 -0.21119398 -1.9321073
-11.27457 -0.14124924 -1.9249008
-11.28409 -0.072122887 -1.926445
-11.273483 -0.0028819991 -1.9245576
-11.273289 0.066290848 -1.9245576
-11.27267 0.1354612 -1.9245576
-11.292312 0.20500411 -1.9281609
-11.268189 0.27373594 -1.9242145
-11.261374 0.34272075 -1.9233565
-11.248229 0.41141558 -1.9214691
-11.240572 0.48021492 -1.9206111
-11.252173 0.54989958 -1.923185
-11.208257 0.61670798 -1.91615
-11.251462 0.68836147 -1.924386
-11.244077 0.75718731 -1.9238713
-10.540206 -0.26823881 -1.9264414
-10.516099 -0.20306581 -1.9216765
-10.458168 -0.13775727 -1.9106805
-10.522715 -0.074036583 -1.9225928
-10.546564 -0.0094911652 -1.9269912
-10.519881 0.055083551 -1.922043
-10.519345 0.11963129 -1.922043
-10.461404 0.1831785 -1.9114137
-10.493498 0.24815394 -1.9176446
-10.520274 0.31338394 -1.9229593
-10.495558 0.3771182 -1.9187442
-10.460633 0.44014806 -1.9126965
-10.498977 0.50631225 -1.9203936
-10.479966 0.56986982 -1.9174614
-10.49786 0.6354689 -1.9214932
-10.496706 0.70006675 -1.922043
-10.469663 0.76281798 -1.917828
-10.485365 0.82866997 -1.9216765
-10.464411 0.89165652 -1.9187442
-10.456784 0.95566928 -1.9183778
-10.421371 1.0169498 -1.9128797
-10.446225 1.084121 -1.9187442
-10.409084 1.1448668 -1.913063
-10.369639 1.204971 -1.9070153
-10.390348 1.2720385 -1.9123299
-10.310195 1.3264884 -1.8987683
-10.364213 1.3981344 -1.9104973
-10.378801 1.4649984 -1.9148957
-10.358919 1.5270772 -1.9128797
-10.31243 1.5849363 -1.9059157
-10.291834 1.6464745 -1.9038998
-10.287356 1.7105603 -1.9049994
-10.288292 1.775656 -1.9071985
-10.321717 1.8467129 -1.9156288
-10.257994 1.9003432 -1.9057324
-10.212348 1.9567757 -1.8993181
-10.233901 2.0260816 -1.9057324
-10.226092 2.0898213 -1.9066488
-10.16979 2.1434066 -1.8984019
-10.13339 2.2007606 -1.8940035
-10.172462 2.2746933 -1.904083
-10.137237 2.3322194 -1.9000512
-10.161959 2.4036524 -1.9075651
-10.122182 2.4599249 -1.9028002
-10.138374 2.5298402 -1.9088479
-10.070281 2.5785904 -1.8987683
-10.052368 2.6398327 -1.8984019
-10.054017 2.7063174 -1.9018838
-10.044805 2.7700472 -1.90335
-10.047486 2.8372383 -1.9071985
-9.975111 2.8830059 -1.8965691
-9.9930573 2.9547486 -1.9035332
-10.00391 3.0248282 -1.9092145
-9.9466534 3.0742538 -1.9017006
-9.946352 3.1411476 -1.9053659
-9.8969517 3.192462 -1.8995014
-9.8715744 3.2512834 -1.8984019
-9.8626204 3.3155518 -1.900601
-9.8383713 3.3747294 -1.8998679
-9.7998495 3.4288652 -1.8963859
-9.8110323 3.5004923 -1.9028002
-9.7616529 3.5505462 -1.8973023
-9.7138739 3.6008093 -1.8921708
-9.7081509 3.6665962 -1.8954695
-9.6781301 3.7232718 -1.8940035
-9.6660862 3.7868884 -1.8962027
-9.6463213 3.8475838 -1.8969357
-9.5797195 3.8893209 -1.8883222
-9.5647612 3.9517813 -1.8901548
-9.5793028 4.0267744 -1.8980353
-9.5318165 4.0758147 -1.8934537
-9.4994164 4.1310878 -1.8919876
-9.4837799 4.1936703 -1.8940035
-9.4444199 4.2457371 -1.8912544
-9.4423332 4.3146377 -1.8962027
-9.4130058 4.3712511 -1.8956529
-9.3708935 4.4217949 -1.8925374
-9.3480177 4.4813352 -1.8934537
-9.3185768 4.5377483 -1.8930871
-9.3108263 4.6048636 -1.8973023
-9.246377 4.6438189 -1.8897884
-9.2115784 4.69734 -1.8885055
-9.1537724 4.7388597 -1.8824577
-9.1393175 4.8027105 -1.8855733
-9.0940628 4.8503709 -1.8822745
-9.0857449 4.9177775 -1.8868561
-9.0321331 4.9606576 -1.8819079
-9.0015249 5.0159845 -1.8819079
-8.9825592 5.0778947 -1.8844737
-8.92906 5.1202011 -1.8797088
-8.9153204 5.1852713 -1.8835573
-8.8892641 5.2433729 -1.8848403
-8.8375187 5.2862115 -1.8806251
-8.7889462 5.3306527 -1.877143
-8.6966162 5.3479209 -1.8641312
-8.7270403 5.4407053 -1.8780594
-8.7259035 5.5146322 -1.8852067
-8.6364393 5.5325427 -1.872928
-8.6113997 5.5913196 -1.8749439
-8.5703602 5.63973 -1.8734778
-8.5315046 5.6894832 -1.8725615
-8.4744415 5.7268639 -1.8676133
-8.4529314 5.7881956 -1.8707287
-8.4616814 5.8707728 -1.8808084
-8.4592791 5.9463248 -1.8885055
-8.3745871 5.9639044 -1.8775096
-8.3314571 6.0105767 -1.8760434
-8.333313 6.0900049 -1.8850235
-8.2799854 6.1293249 -1.8813581
-8.2186241 6.1623235 -1.8758602
-8.215889 6.2393894 -1.8841071
-8.1953735 6.3034678 -1.8883222
-8.1898909 6.3796105 -1.8962027
-8.1251211 6.4096513 -1.8901548
-8.1002331 6.4710431 -1.8936369
-8.0603752 6.5206232 -1.8936369
-8.0399866 6.5861545 -1.8984019
-7.9744534 6.6146526 -1.892354
-7.920166 6.6520782 -1.8890553
-7.9091573 6.7260237 -1.8963859
-7.8625231 6.7699366 -1.8951031
-7.8475127 6.8413076 -1.9017006
-7.7862244 6.872417 -1.8969357
-7.7424431 6.9187531 -1.8965691
-7.7202573 6.9845958 -1.9017006
-7.6555066 7.0119162 -1.8962027
-7.6606364 7.1035399 -1.9084814
-7.5731835 7.1093698 -1.8973023
-7.562912 7.1875319 -1.9059157
-7.5179591 7.2331204 -1.9057324
-7.4748445 7.2804852 -1.906099
-7.4342318 7.3303542 -1.9071985
-7.3932881 7.3799987 -1.9082981
-7.3527069 7.4301152 -1.9095809
-7.2959828 7.4638433 -1.9066488
-7.2848749 7.5445356 -1.9159952
-7.2364101 7.5869589 -1.9154454
-7.1957884 7.6376572 -1.9170948
-7.1347246 7.666554 -1.9132463
-7.1168232 7.7420311 -1.9213099
-7.0658808 7.7819142 -1.9203936
-7.0153732 7.822196 -1.9196606
-6.9568148 7.8533211 -1.9167284
-6.9072022 7.8943796 -1.9163618
-6.8374205 7.9120679 -1.9103141
-6.8244853 7.9957447 -1.9205769
-6.7740283 8.035965 -1.9202104
-6.7378025 8.0932436 -1.9240589
-6.6686611 8.1108942 -1.9183778
-6.638598 8.1760807 -1.9242421
-6.6079855 8.2412024 -1.9301066
-6.5694995 8.2970066 -1.933772
-6.5093837 8.3255444 -1.931023
-6.4551725 8.3614378 -1.9301066
-6.4114938 8.4110518 -1.9324892
-6.3757257 8.4714403 -1.9374373
-6.3277307 8.5159254 -1.9387201
-6.2724514 8.5506277 -1.9378039
-6.2308235 8.6040812 -1.9412858
-6.1773405 8.6413517 -1.9411026
-6.1293035 8.6863213 -1.942752
-6.0663381 8.7100525 -1.9396365
-6.0177922 8.7544022 -1.9412858
-5.9656186 8.793602 -1.9418356
-5.9246759 8.8496466 -1.946234
-5.8686385 8.8833723 -1.9456842
-5.8005991 8.8986263 -1.9411026
-5.7623744 8.9596815 -1.9467838
-5.7020235 8.9865694 -1.9449512
-5.613914 8.9688911 -1.9334054
-5.5825348 9.041646 -1.9418356
-5.5157013 9.0572577 -1.9378039
-5.4640727 9.0976725 -1.9392699
-5.4076467 9.1301823 -1.9390867
-5.3713555 9.1971464 -1.9464172
-5.3467097 9.285305 -1.9583296
-5.2711921 9.2854509 -1.9513655
-5.2165189 9.321909 -1.9522817
-5.1905613 9.410553 -1.9643773
-5.1425815 9.4603624 -1.9682258
-5.0858297 9.494338 -1.9687756
-5.0196767 9.5105858 -1.9656601
-4.9607725 9.5403347 -1.9654769
-4.90483 9.5758438 -1.9665765
-4.8464241 9.606637 -1.9667597
-4.7764521 9.6141834 -1.9621781
-4.701818 9.6115208 -1.9555805
-4.6687765 9.6942158 -1.9667597
-4.6176291 9.7404461 -1.970425
-4.5590229 9.7712688 -1.9709748
-4.5026736 9.8070984 -1.9726242
-4.4545555 9.8614187 -1.9781221
-4.3927655 9.8858709 -1.9775723
-4.3359609 9.9216461 -1.9794049
-4.2850938 9.9715471 -1.9841698
-4.2180896 9.9840689 -1.9814209
-4.1488309 9.9906969 -1.9775723
-4.1019387 10.051462 -1.9847196
-4.0464067 10.091953 -1.9878352
-3.9948556 10.143117 -1.9931499
-3.9279327 10.155519 -1.9907675
-3.8721774 10.196891 -1.9942495
-3.8009529 10.19743 -1.9896678
-3.7359471 10.214097 -1.988385
-3.6831658 10.264586 -1.9938829
-3.6223986 10.293484 -1.9951658
-3.5537195 10.299719 -1.9920503
-3.4958091 10.337161 -1.9951658
-3.436645 10.371481 -1.9977314
-3.3844757 10.427904 -2.0046957
-3.3135788 10.426926 -2.0004804
-3.2489541 10.445184 -2.000114
-3.1827986 10.45834 -1.998831
-3.1255794 10.501227 -2.0034127
-3.0610862 10.520207 -2.0034127
-2.9962089 10.537847 -2.0032294
-2.9349136 10.568346 -2.0056119
-2.8754148 10.60608 -2.0094604
-2.812546 10.632077 -2.0111098
-2.755852 10.68245 -2.0175242
-2.6801839 10.659117 -2.0098269
-2.6088827 10.651491 -2.0052454
-2.5459857 10.677817 -2.0072613
-2.4855299 10.715263 -2.0114763
-2.4255753 10.756205 -2.0164244
-2.3572164 10.760323 -2.0144086
-2.293602 10.786122 -2.0166078
-2.2289653 10.807694 -2.018074
-2.1564424 10.79032 -2.0122094
-2.0918746 10.812036 -2.0138588
-2.0339937 10.870083 -2.0224724
-1.9656836 10.873652 -2.020823
-1.8968993 10.873887 -2.0186238
-1.8316101 10.894047 -2.0202732
-1.7597045 10.874026 -2.0144086
-1.6881137 10.853535 -2.0085442
-1.6187279 10.845215 -2.0050621
-1.564401 10.940581 -2.0211895
-1.5011047 10.97822 -2.026504
-1.4234092 10.908266 -2.0116596
-1.364817 10.984108 -2.0243049
-1.293014 10.955176 -2.0173409
-1.2256607 10.961927 -2.0171576
-1.160442 10.988794 -2.020823
-1.0901732 10.967339 -2.0155082
-1.0255965 11.003185 -2.0210061
-0.95678395 10.994581 -2.0182571
-0.89255381 11.04042 -2.0257711
-0.8158592 10.926087 -2.0034127
-0.75633144 11.040733 -2.0239384
-0.68826658 11.04026 -2.0230222
-0.61847013 11.007959 -2.0162413
-0.54811293 10.955583 -2.0057952
-0.48308015 11.008828 -2.0151417
-0.41448322 10.984078 -2.0100102
-0.34642577 10.965781 -2.0061617
-0.28091285 11.037475 -2.0191736
-0.21371536 11.066511 -2.0243049
-0.14565267 11.055819 -2.0221057
-0.077458039 11.00637 -2.0127592
-0.0099615008 11.047926 -2.0204563
0.057633318 11.010424 -2.0134923
0.12545832 11.033454 -2.0178907
0.19305292 11.02658 -2.0167911
0.26066071 11.023222 -2.0164244
0.32586664 10.939857 -2.0012136
0.39651242 11.035894 -2.0195401
0.46492186 11.049951 -2.0226555
0.5311529 11.014486 -2.0166078
0.59680629 10.975682 -2.0100102
0.66396248 10.96887 -2.0094604
0.73236519 10.981264 -2.0125759
0.79723221 10.942247 -2.0061617
0.86458981 10.94009 -2.0067115
0.9293648 10.907152 -2.00158
0.99976027 10.939425 -2.0087273
1.0658146 10.922322 -2.0067115
1.1300738 10.889175 -2.0017633
1.1991235 10.902557 -2.0056119
1.2676992 10.909642 -2.0083609
1.3385565 10.933859 -2.0144086
1.4054948 10.924465 -2.0142252
1.4742078 10.928301 -2.0166078
1.5424711 10.92781 -2.0182571
1.6104971 10.924948 -2.0195401
1.6621233 10.814779 -2.0006638
1.7298476 10.813113 -2.0023131
1.8009993 10.831388 -2.0078111
1.8675927 10.821103 -2.0079944
1.9351664 10.816214 -2.0092771
1.9886066 10.734539 -1.9960821
2.0647929 10.776203 -2.006345
2.12534 10.735365 -2.0010302
2.1805439 10.670112 -1.9911339
2.2567167 10.707514 -2.0008471
2.314656 10.65792 -1.9940662
2.3913763 10.694365 -2.0037792
2.4677489 10.726434 -2.0127592
2.5231111 10.667083 -2.004329
2.5794632 10.614145 -1.9971817
2.6447799 10.599072 -1.997365
2.7080581 10.575978 -1.9960821
2.7699041 10.547752 -1.9938829
2.8335497 10.526761 -1.9931499
2.8920774 10.487379 -1.9889348
2.9571736 10.472275 -1.9894845
3.0150976 10.432211 -1.9852694
3.0857406 10.43614 -1.9896678
3.15114 10.421715 -1.9905841
3.2153172 10.403123 -1.9907675
3.277313 10.377573 -1.9896678
3.3373058 10.346042 -1.9874686
3.4059525 10.341243 -1.9905841
3.4552464 10.278217 -1.9823372
3.5290909 10.288439 -1.9885682
3.5918283 10.265663 -1.988385
3.6497951 10.229543 -1.985636
3.6896462 10.144133 -1.973174
3.7648029 10.15633 -1.9801381
3.8235769 10.123842 -1.9783053
3.8799767 10.08551 -1.9753731
3.9403529 10.057852 -1.9746401
4.0078192 10.048095 -1.9775723
4.0690279 10.022403 -1.9773891
4.1203132 9.9727154 -1.972441
4.1711426 9.9227772 -1.9674927
4.228857 9.8897657 -1.9660267
4.2953401 9.8771544 -1.9687756
4.3614297 9.8632002 -1.9713414
4.4049392 9.7985935 -1.9636441
4.4604855 9.7615452 -1.9616283
4.5318899 9.7589588 -1.9667597
4.585392 9.7176313 -1.9640107
4.6402578 9.6795616 -1.9619948
4.685792 9.6226244 -1.9561303
4.7364674 9.5769491 -1.9526483
4.7951412 9.5477057 -1.9526483
4.8607793 9.5321159 -1.9555805
4.8775992 9.421793 -1.9387201
4.9549809 9.4291077 -1.9466006
5.0104303 9.3941898 -1.9456842
5.0562801 9.3416557 -1.9411026
5.1310129 9.3423367 -1.9478834
5.1724496 9.2823391 -1.9418356
5.2307591 9.2529936 -1.9423854
5.2757001 9.2002563 -1.9379871
5.3384771 9.1787596 -1.9403695
5.3877048 9.133976 -1.9378039
5.436584 9.0889339 -1.9352381
5.5060139 9.0781002 -1.9401863
5.5379262 9.0056238 -1.931756
5.6040006 8.9889936 -1.9356046
5.6564245 8.9502831 -1.9346883
5.6990404 8.896368 -1.9304732
5.7449551 8.8480396 -1.927541
5.8056216 8.8224773 -1.9297402
5.8492837 8.7711487 -1.9262581
5.8996902 8.7302055 -1.9251585
5.9703636 8.7189875 -1.9308398
6.0136633 8.6676502 -1.927541
6.0599504 8.6209373 -1.9253418
6.1007586 8.5667753 -1.9214932
6.1532083 8.5291805 -1.9214932
6.1874466 8.4666586 -1.915812
6.2398653 8.4293242 -1.9159952
6.2832131 8.3798666 -1.9134295
6.3321347 8.3380241 -1.9126965
6.3855739 8.3021307 -1.9134295
6.437603 8.2643452 -1.9137961
6.4833202 8.2185144 -1.9123299
6.5182872 8.1593761 -1.9077483
6.5608101 8.110055 -1.9055492
6.5961213 8.0521545 -1.901334
6.6441493 8.0100164 -1.9009675
6.6723094 7.9442558 -1.8949198
6.7311182 7.9151483 -1.8978521
6.7744265 7.8677382 -1.8963859
6.8232207 7.8267641 -1.8965691
6.862009 7.7744312 -1.8940035
6.903688 7.7255831 -1.892354
6.9423876 7.6736002 -1.8899716
6.9840298 7.6250582 -1.8885055
7.0226636 7.573411 -1.8863063
7.0690012 7.5301781 -1.8863063
7.1272621 7.4994888 -1.889605
7.1690545 7.451365 -1.8885055
7.1865187 7.3783617 -1.8809916
7.1881738 7.2900252 -1.8694459
7.2431865 7.2562189 -1.8721949
7.3050418 7.2289267 -1.8767766
7.3647256 7.1990867 -1.8808084
7.3811798 7.1271296 -1.873661
7.4098339 7.0674562 -1.8698125
7.445189 7.0144415 -1.8677965
7.495285 6.9753242 -1.8696291
7.5278115 6.919888 -1.8670635
7.5453849 6.8510985 -1.8608325
7.5858169 6.803359 -1.860466
7.5935702 6.7266984 -1.8520358
7.6420999 6.6864524 -1.8538684
7.6986027 6.6529346 -1.8577169
7.7437658 6.6094007 -1.8588165
7.8067226 6.5807705 -1.8643146
7.794826 6.4893436 -1.8516692
7.870945 6.4713631 -1.860466
7.8960047 6.4111719 -1.8569839
7.9244571 6.353992 -1.8544182
7.9579005 6.3009768 -1.8531353
8.0002851 6.2550573 -1.8540517
7.9972739 6.1740098 -1.8443387
8.0920773 6.1683302 -1.8577169
8.0975704 6.0943236 -1.8502032
8.133234 6.0433507 -1.8498366
8.2010746 6.0160108 -1.8569839
8.1924515 5.9327087 -1.8465378
8.2726831 5.9137745 -1.8566173
8.309617 5.8634696 -1.8568007
8.3526983 5.8174291 -1.8584501
8.3412504 5.7337675 -1.8478206
8.379529 5.6846867 -1.8485537
8.4167023 5.6348042 -1.8491035
8.479826 5.6020212 -1.8555177
8.5296869 5.5600848 -1.8589998
8.5686035 5.5108337 -1.8600994
8.5790148 5.4434061 -1.854968
8.6297512 5.4016175 -1.8588165
8.6752796 5.3563123 -1.8615656
8.7021046 5.2994013 -1.8602827
8.747098 5.253499 -1.8630316
8.7622519 5.1897092 -1.8593663
8.7769527 5.1259308 -1.8557011
8.8431683 5.0920944 -1.863215
8.8973284 5.0508423 -1.8681631
8.9109955 4.9865522 -1.8644978
8.9130182 4.9161124 -1.8584501
8.9853354 4.8843379 -1.86743
9.003871 4.8230777 -1.8650476
9.0350342 4.7686582 -1.8654141
9.0719738 4.7172127 -1.8670635
9.1156216 4.6690784 -1.8701789
9.1590195 4.6205859 -1.8732945
9.154624 4.5481157 -1.8665137
9.1735277 4.4875383 -1.864681
9.2380886 4.4490829 -1.8723782
9.258996 4.3893671 -1.8710953
9.2741737 4.3270683 -1.8687129
9.3327112 4.2848492 -1.8753104
9.3400135 4.2190051 -1.8714619
9.3684196 4.1628141 -1.8720117
9.4018927 4.1087956 -1.873661
9.4187984 4.0475359 -1.8720117
9.4570398 3.9954062 -1.8747606
9.4977188 3.9440906 -1.8780594
9.461669 3.861222 -1.8659639
9.4824457 3.801996 -1.8654141
9.5641336 3.766799 -1.877143
9.5999031 3.7130089 -1.8797088
9.5839062 3.6393759 -1.8720117
9.5894756 3.5743208 -1.8687129
9.5973787 3.5103478 -1.8659639
9.6474209 3.4616868 -1.8716451
9.6554976 3.3978572 -1.8690794
9.7374973 3.3597126 -1.8811749
9.7728291 3.3049405 -1.8841071
9.7779932 3.2399654 -1.8811749
9.7930136 3.1783903 -1.8802586
9.7645512 3.1030555 -1.8709121
9.848177 3.0632319 -1.8835573
9.8545609 2.9990256 -1.8811749
9.8181295 2.9222353 -1.8705455
9.9170513 2.8855605 -1.8863063
9.888237 2.8114808 -1.8773264
9.9877081 2.773643 -1.8932704
9.9447641 2.6960995 -1.8817247
9.9592199 2.634526 -1.8813581
10.009465 2.5822096 -1.8879557
9.9679184 2.5063584 -1.8769598
9.9764252 2.443512 -1.875677
10.018005 2.3886368 -1.8808084
10.00949 2.3217905 -1.87641
10.0878 2.274821 -1.8886888
10.14094 2.2215073 -1.8962027
10.141879 2.1565831 -1.8938202
10.167438 2.096895 -1.8962027
10.134805 2.0254128 -1.8875892
10.148972 1.9635623 -1.8879557
10.184019 1.9055927 -1.892354
10.143282 1.8336235 -1.8824577
10.130131 1.7671266 -1.8778762
10.198951 1.7147179 -1.888872
10.189871 1.6489644 -1.8852067
6.1248636 0.95245826 -1.1164097
6.0547543 0.90353656 -1.102115
0 0 -0
0 0 -0
0 0 -0
0 0 -0
0 0 -0
0 0 -0
0 0 -0
0 0 -0
0 0 -0
0 0 -0
0 0 -0
0 0 -0
0 0 -0
0 0 -0
0 0 -0
0 0 -0
0 0 -0
0 0 -0
0 0 -0
0 0 -0
0 0 -0
0 0 -0
0 0 -0
0 0 -0
0 -0 -0
0 -0 -0
0 -0 -0
0 -0 -0
0 -0 -0
0 -0 -0
0 -0 -0
0 -0 -0
0 -0 -0
0 -0 -0
5.9336205 -0.39591199 -1.0694938
5.9369621 -0.43274096 -1.0705935
5.9714355 -0.47210303 -1.0775574
0 -0 -0
0 -0 -0
6.0478349 -0.59033632 -1.0936848
9.5867252 -0.99495447 -1.7576542
9.2931509 -1.0221717 -1.7037743
9.1910067 -1.0680579 -1.6858143
9.073041 -1.1108186 -1.6649221
9.187933 -1.1821446 -1.6878302
9.2009659 -1.2412577 -1.6916788
9.2252998 -1.3022233 -1.6977265
9.2404766 -1.3622442 -1.702125
9.2086248 -1.4153339 -1.6977265
9.1415234 -1.4624949 -1.6867306
9.1149216 -1.5156569 -1.6834319
9.0977001 -1.5702193 -1.6819657
9.0578957 -1.620646 -1.6762846
9.0071831 -1.6686743 -1.6685874
8.9523611 -1.7154018 -1.6601572
8.9358807 -1.7691549 -1.6590576
8.9373789 -1.8265095 -1.66144
8.3680792 -1.763747 -1.5551463
8.8134203 -1.9141443 -1.6421973
8.898407 -1.9898499 -1.660707
8.8726177 -2.0413268 -1.6581413
8.8513145 -2.0936935 -1.6564919
8.8411674 -2.1486611 -1.6570417
8.8030176 -2.1966817 -1.6522768
7.3732319 -1.8880969 -1.3797616
8.7839556 -2.3067899 -1.6539261
8.8171005 -2.3734181 -1.6630894
8.7777309 -2.4206803 -1.6583246
8.7409534 -2.4683502 -1.6541095
8.7161989 -2.519208 -1.6522768
8.6826649 -2.5673468 -1.6487948
7.9779367 -2.4123306 -1.5146447
7.914144 -2.4461439 -1.5051149
7.8858619 -2.4905138 -1.5025492
7.8938222 -2.5463977 -1.5071309
7.8967237 -2.6009352 -1.5107962
8.6195583 -2.8977206 -1.6561254
8.6090546 -2.9531059 -1.6575915
8.5935564 -3.0068483 -1.6581413
8.5508718 -3.0509326 -1.6533763
8.5264473 -3.1013265 -1.6522768
8.4980392 -3.1501689 -1.6504441
8.4895868 -3.2064202 -1.6526433
7.5971885 -2.9228058 -1.4783583
8.3937635 -3.2884867 -1.6414641
8.387125 -3.3453906 -1.6442132
8.3655291 -3.3964202 -1.6440299
8.3327198 -3.4428067 -1.6416475
8.3250322 -3.4995842 -1.6443964
8.2907476 -3.5451891 -1.6418307
8.2309752 -3.579529 -1.6341336
8.1782875 -3.6164498 -1.6279025
8.1469765 -3.6625323 -1.6260699
8.1198797 -3.7104096 -1.6251535
8.0818024 -3.7531242 -1.622038
8.041729 -3.7946725 -1.618556
7.9385109 -3.8057008 -1.6020622
7.9583192 -3.8754263 -1.6110421
7.9863811 -3.9498954 -1.6218548
8.0252476 -4.0305891 -1.6350499
8.0818129 -4.1212845 -1.6520935
8.0109758 -4.1472964 -1.6425637
7.9392548 -4.1721373 -1.6328506
7.8718696 -4.1985683 -1.624054
7.9574881 -4.3071513 -1.6476952
7.8783479 -4.3270307 -1.636516
7.8190165 -4.3571072 -1.6295519
7.7570467 -4.3851681 -1.622038
7.7751932 -4.4585981 -1.6317511
7.7221951 -4.491396 -1.6262531
7.6851768 -4.5332003 -1.6242373
7.6470928 -4.5742149 -1.622038
7.5835786 -4.5996399 -1.6143409
7.6062956 -4.6774955 -1.6255201
7.6108217 -4.7448807 -1.6328506
7.5142503 -4.7489529 -1.6180062
7.5081482 -4.8098168 -1.6231377
7.4710736 -4.8509774 -1.6214882
7.4107823 -4.8767343 -1.6147075
7.3610902 -4.9090247 -1.6103091
7.3511939 -4.9678593 -1.6148907
7.3067837 -5.0034304 -1.6117753
7.254137 -5.03304 -1.606827
7.2046204 -5.0644541 -1.602612
7.1654019 -5.1028628 -1.6007793
7.1682391 -5.1714635 -1.6086597
7.1165295 -5.2008495 -1.6040781
7.0757918 -5.2379842 -1.6020622
7.0608234 -5.2942753 -1.606094
6.9882765 -5.3071795 -1.5967475
6.9212937 -5.3235888 -1.5886838
6.9117651 -5.3840795 -1.5941818
6.9025259 -5.445262 -1.5998629
6.8705206 -5.4887395 -1.6002295
6.8183699 -5.515955 -1.5958312
6.788959 -5.5614252 -1.5969307
6.7554636 -5.6036043 -1.597114
6.6961112 -5.6240864 -1.5910662
6.6539874 -5.6586986 -1.5892336
6.6146708 -5.6955719 -1.5881341
6.5677423 -5.7257161 -1.5852017
6.5310125 -5.764606 -1.5848353
6.4911199 -5.8006411 -1.5837357
6.4699864 -5.8535504 -1.5874009
6.4419222 -5.9004431 -1.5894169
6.3947835 -5.9298329 -1.5866679
6.3647294 -5.9750142 -1.5883173
6.3022933 -5.9895759 -1.5817198
6.279592 -6.0417647 -1.5853851
6.2304301 -6.0685215 -1.5822695
6.1930771 -6.1066365 -1.5822695
6.1673193 -6.1563277 -1.5853851
6.0996938 -6.1640081 -1.5775046
6.0624442 -6.2020221 -1.5776879
6.0249581 -6.2398109 -1.5778712
5.9682379 -6.2574558 -1.5729231
5.941865 -6.3068371 -1.5762218
5.8628702 -6.3000002 -1.5652258
2.2287076 -2.4249067 -0.57486135
2.212465 -2.4370806 -0.57449484
2.196157 -2.4491465 -0.57412827
5.7019315 -6.4368339 -1.563943
5.6785126 -6.4901948 -1.5685247
5.6372972 -6.5234275 -1.5681581
5.5978022 -6.5586424 -1.5683414
5.5523844 -6.5868535 -1.5668752
5.5093479 -6.6177764 -1.5661422
5.456151 -6.6362696 -1.5624769
5.378767 -6.6245971 -1.5516642
5.4044375 -6.7403054 -1.5714569
5.4002051 -6.8203521 -1.5826361
2.0241597 -2.5893641 -0.57357848
1.9962181 -2.5861728 -0.56991321
1.9701802 -2.5850821 -0.56679767
1.953099 -2.5955513 -0.56643116
1.9353771 -2.6051192 -0.56588137
1.8048009 -2.4607959 -0.52977812
1.7827482 -2.4622693 -0.52757895
1.7613175 -2.464365 -0.52556306
4.8630505 -6.8919578 -1.5333377
4.8734865 -6.9974942 -1.5505646
4.8432679 -7.045898 -1.5547798
4.7878013 -7.0575862 -1.550748
4.7542515 -7.1015344 -1.5540468
4.6916208 -7.1018648 -1.5476325
4.6624517 -7.1527534 -1.5525806
4.6365566 -7.2093382 -1.5588117
4.5885468 -7.2318416 -1.5575287
4.5466948 -7.2640266 -1.5584451
4.4793124 -7.2549839 -1.5503814
4.4209056 -7.2596626 -1.5454333
1.7360095 -2.8909869 -0.58952254
1.711725 -2.8905888 -0.58714014
1.692469 -2.8984907 -0.58659035
4.2433758 -7.3693781 -1.5461663
4.2208896 -7.4354563 -1.5547798
4.169426 -7.4509211 -1.5525806
4.0932407 -7.4212732 -1.5408516
4.0546703 -7.4592047 -1.5436006
4.020895 -7.5064735 -1.5483655
3.9582403 -7.4997063 -1.541768
3.9089735 -7.5177469 -1.5404851
3.8708394 -7.5573397 -1.5437839
3.8319235 -7.5958691 -1.5468994
3.7869937 -7.6227598 -1.5476325
3.7375579 -7.6405544 -1.5465329
3.6893263 -7.660687 -1.5459831
3.6359346 -7.6698556 -1.5432341
3.5842321 -7.6822214 -1.5412182
3.5353866 -7.7004957 -1.5404851
3.4929273 -7.7327943 -1.5426843
3.4418211 -7.7459955 -1.5410349
3.3855665 -7.7471514 -1.537003
3.3414605 -7.7759075 -1.5386524
3.290242 -7.7881141 -1.537003
3.2378683 -7.7972612 -1.5348039
3.1925647 -7.8233533 -1.5360868
3.1470625 -7.8491821 -1.5373696
3.0919964 -7.8509655 -1.5338875
3.0469575 -7.8780417 -1.5355369
3.0030987 -7.9085364 -1.5379194
2.9462752 -7.904707 -1.5335211
2.9078491 -7.9503331 -1.539019
2.8633287 -7.9800544 -1.5414014
2.8068037 -7.9761453 -1.5371864
2.750114 -7.9709139 -1.5327879
2.7002087 -7.9848447 -1.5322381
2.6579671 -8.0217924 -1.53627
2.6129456 -8.0510406 -1.5388358
2.5626028 -8.0641108 -1.538286
2.5101538 -8.0702963 -1.5364532
2.4588706 -8.0799036 -1.5353537
2.4067228 -8.086359 -1.5337043
2.3523908 -8.0849276 -1.5305887
2.301125 -8.0935364 -1.5294892
2.2472112 -8.0923481 -1.526557
2.1998308 -8.1145229 -1.5282063
2.1593027 -8.1630316 -1.5349871
2.1067188 -8.1666088 -1.5331545
2.0625637 -8.2032156 -1.5377362
2.0054076 -8.1880274 -1.5324215
1.9544449 -8.1973095 -1.5318717
1.8965566 -8.1765881 -1.5256406
1.8398616 -8.1593018 -1.5201427
1.7876585 -8.1608343 -1.5183101
1.7340742 -8.155303 -1.5151945
0.52932996 -2.5681086 -0.4496913
1.6321313 -8.1672926 -1.5135452
1.581987 -8.1771536 -1.5135452
0.48685268 -2.6035066 -0.45463946
0.47506663 -2.6296618 -0.45903781
0.45892239 -2.6325271 -0.45903781
1.3811593 -8.2154531 -1.5139116
1.3313525 -8.2276554 -1.5146447
1.2441212 -7.9996243 -1.4701113
1.1797714 -7.9050174 -1.4508685
1.0999274 -7.6931467 -1.4096339
1.0520364 -7.694881 -1.4087175
1.0154896 -7.7830739 -1.4241117
0.9684419 -7.7950115 -1.4252113
0.91264111 -7.7334437 -1.4125661
0.86823201 -7.766253 -1.4176975
0.81973666 -7.7636132 -1.4162314
0.76799905 -7.7274108 -1.4085343
0.72130024 -7.7398081 -1.4100003
0.67413712 -7.7480059 -1.4107335
0.62325501 -7.7108421 -1.4030362
0.57204878 -7.6625638 -1.3933232
0.52582806 -7.6776986 -1.3955225
0.4786475 -7.6797996 -1.3953391
0.42986068 -7.6531463 -1.3898412
0.38112408 -7.6202936 -1.3832437
0.33418715 -7.6185603 -1.3825105
0.28791663 -7.6332383 -1.3848931
0.24352962 -7.7124844 -1.399371
0.19880706 -7.8160391 -1.4184306
0.15141551 -7.8465981 -1.4239285
0.10517576 -7.9918771 -1.4508685
0.057722103 -8.2165051 -1.4926529
0.0074004787 -8.3179598 -1.5115292
-0.043642811 -8.3188314 -1.5117124
-0.094796799 -8.3282375 -1.5135452
-0.14606784 -8.337328 -1.5153778
-0.19685072 -8.32055 -1.5124456
-0.24848562 -8.3388386 -1.5161109
-0.30035233 -8.3568048 -1.5197761
-0.35203597 -8.3646269 -1.5216088
-0.40193427 -8.3328514 -1.5161109
-0.4535895 -8.340045 -1.5179435
-0.50600111 -8.3577108 -1.5217921
-0.55701202 -8.3505259 -1.521059
-0.60616881 -8.3185167 -1.5157443
-0.65634733 -8.3038607 -1.5137284
-0.70845449 -8.3133907 -1.5162941
-0.75703645 -8.2824545 -1.511346
-0.8104192 -8.3040705 -1.5162941
-0.86561728 -8.3400106 -1.5239912
-0.91806358 -8.3462677 -1.5261904
-0.96540135 -8.3072767 -1.5199594
-1.0196995 -8.3285189 -1.5250908
-1.068902 -8.3074799 -1.5223418
-1.122352 -8.3192749 -1.525824
-1.1742011 -8.3180723 -1.5269235
-1.2237844 -8.3009853 -1.5250908
-1.286042 -8.3671665 -1.539019
-1.3334763 -8.3348503 -1.5344373
-1.3845929 -8.3265114 -1.5344373
-1.4374961 -8.3285151 -1.5364532
-1.4868408 -8.3098602 -1.5346206
-1.5354737 -8.2880154 -1.5322381
-1.5846344 -8.2697477 -1.5305887
-1.6160678 -8.1624689 -1.512079
-0.61267686 -2.9965808 -0.53106099
-0.63145745 -2.994689 -0.5314275
-0.6502378 -2.9926796 -0.53179407
-0.66730136 -2.982877 -0.53069448
-0.68537098 -2.9777684 -0.5305112
-0 -0 -0
-0.71698684 -2.9490731 -0.52666265
-0.73387867 -2.9398491 -0.52574629
-2.0946109 -8.1798706 -1.5349871
-2.1539996 -8.2020454 -1.541768
-0.78148013 -2.9021106 -0.52116466
-0.79927248 -2.8972609 -0.52116466
-0.81516486 -2.8856795 -0.51988184
-0.93547237 -3.2357256 -0.58878952
-1.0528561 -3.5598798 -0.65293229
-2.4680898 -8.1623726 -1.5505646
-2.5152242 -8.1376829 -1.548732
-2.5597806 -8.1052227 -1.5454333
-1.0442455 -3.2363825 -0.59483725
-1.0628538 -3.2261791 -0.59410417
-2.6897445 -8.0008221 -1.5344373
-1.1071479 -3.2268419 -0.59685314
-1.1249789 -3.2144203 -0.59575355
-2.8540645 -7.9990306 -1.5441504
-2.8936841 -7.9554996 -1.539019
-1.14774 -3.0954592 -0.5763275
-1.1705321 -3.098475 -0.57834339
-1.1919925 -3.0976572 -0.57962626
-1.2579486 -3.2101943 -0.603634
-1.2575929 -3.1521935 -0.59355438
-3.1789968 -7.829937 -1.53627
-3.2536304 -7.8747935 -1.5492818
-3.306459 -7.8655562 -1.551481
-3.3612289 -7.8604865 -1.5545965
-3.4015565 -7.8216844 -1.5509312
-3.4367642 -7.7718945 -1.5450667
-1.3127861 -2.9195454 -0.55763441
-1.3302668 -2.9105413 -0.55745119
-3.6181548 -7.791131 -1.5622936
-3.646596 -7.7278867 -1.5538634
-3.7003186 -7.7186632 -1.5566124
-3.7544956 -7.7099547 -1.5595447
-3.8039112 -7.6911788 -1.560461
-3.8444142 -7.6545157 -1.5577121
-3.891309 -7.6307831 -1.5577121
-3.9561341 -7.6416836 -1.5650426
-3.99929 -7.6103039 -1.5635765
-4.0528498 -7.5986323 -1.5663254
-4.1022053 -7.5788088 -1.567425
-4.1372738 -7.5328155 -1.5630267
-4.190115 -7.5193105 -1.5655924
-4.2429461 -7.5054402 -1.5681581
-4.2766943 -7.4579439 -1.5635765
-4.2986526 -7.3907719 -1.5547798
