# .PCD v0.7 - Point Cloud Data file format
VERSION 0.7
FIELDS x y z
SIZE 4 4 4
TYPE F F F
COUNT 1 1 1
WIDTH 1508
HEIGHT 1
VIEWPOINT 0 0 0 1 0 0 0
POINTS 1508
DATA ascii
-6.8536568 0.79654485 -1.9260747
-6.8534131 0.83916724 -1.9274454
-6.853858 0.88193929 -1.9290901
-6.8387866 0.92269188 -1.9263489
-6.8282351 0.96396464 -1.9249783
-6.8250461 1.0062644 -1.9258006
-6.800683 1.0453482 -1.9205922
-6.7979393 1.0876642 -1.9216887
-6.8053679 1.1317207 -1.9258006
-6.7982955 1.1734563 -1.9258006
-6.7938075 1.2156558 -1.926623
-6.7748733 1.2552173 -1.9233335
-6.7679882 1.2969444 -1.9236076
-6.7306581 1.3326589 -1.9151096
-6.730834 1.3756649 -1.9175768
-6.7109742 1.4145591 -1.9142873
-6.6965294 1.4544859 -1.9126425
-6.6978025 1.4978558 -1.9156579
-6.6809883 1.5371999 -1.9134649
-6.6770453 1.5794927 -1.9151096
-6.6634903 1.6195242 -1.9140131
-6.6571598 1.6613114 -1.9151096
-6.658021 1.7049899 -1.9183992
-6.6344113 1.7423915 -1.9145614
-6.6449547 1.788815 -1.9208664
-6.6255097 1.8272535 -1.9183992
-6.6123219 1.8673497 -1.917851
-6.6062832 1.9094889 -1.9194957
-6.5962868 1.9505337 -1.9200439
-6.5823531 1.9904144 -1.9194957
-6.5626659 2.0284939 -1.9173027
-6.5372567 2.0646694 -1.9134649
-6.5153127 2.1017904 -1.9107237
-6.4895053 2.1375167 -1.9068859
-6.5072613 2.1877134 -1.9162061
-6.4673343 2.2185521 -1.9082565
-6.4644928 2.2620039 -1.911546
-6.4350934 2.2961335 -1.9068859
-6.4181724 2.3345892 -1.9060634
-6.4136457 2.3776028 -1.9090788
-6.3962374 2.4158921 -1.9082565
-6.3956547 2.4606175 -1.9126425
-6.3705864 2.4959557 -1.9096271
-6.3471122 2.5317917 -1.9071599
-6.3403683 2.5743065 -1.9099013
-6.3306751 2.6157322 -1.9118202
-6.2994347 2.6481924 -1.9071599
-6.2768774 2.6841486 -1.9052411
-6.2708726 2.7272141 -1.9085306
-6.2381887 2.7586401 -1.9035963
-6.2246532 2.7984421 -1.9046929
-6.2082396 2.8369827 -1.904967
-6.1915879 2.8754275 -1.9052411
-6.1833949 2.9178782 -1.9082565
-6.1558356 2.9511912 -1.9052411
-6.1514459 2.9956434 -1.9096271
-6.126915 3.0303473 -1.9077083
-6.1099243 3.0687475 -1.9082565
-6.080699 3.1009374 -1.904967
-6.0658278 3.1403999 -1.9063376
-6.0421877 3.1753235 -1.904967
-6.0183477 3.2100751 -1.9035963
-5.9934635 3.2441962 -1.9019516
-5.9768162 3.2827618 -1.903048
-5.9506803 3.3160965 -1.9011291
-5.9419422 3.3591721 -1.904967
-5.9095387 3.388871 -1.9011291
-5.8886337 3.4250674 -1.9011291
-5.8791041 3.4679747 -1.904967
-5.8692689 3.5108938 -1.9088048
-5.8500829 3.548337 -1.9096271
-5.82902 3.5846694 -1.9099013
-5.7987537 3.6152806 -1.9071599
-5.7780876 3.6518204 -1.9077083
-5.7426147 3.678906 -1.9033222
-5.7159004 3.7114542 -1.9019516
-5.689003 3.7438135 -1.9005809
-5.6771259 3.7861195 -1.9044187
-5.6322732 3.8063447 -1.8970172
-5.6040511 3.8375721 -1.8953725
-5.5930414 3.8806565 -1.8997586
-5.5636172 3.9110305 -1.8978397
-5.5301142 3.9384007 -1.8945501
-5.5206633 3.9829485 -1.8997586
-5.4914618 4.0133433 -1.8981137
-5.4620953 4.04353 -1.896469
-5.4402595 4.0792761 -1.8975655
-5.4135952 4.1114168 -1.8970172
-5.3882661 4.1445565 -1.8970172
-5.3801842 4.1911325 -1.9033222
-5.3498363 4.2204919 -1.9016775
-5.3268447 4.2556396 -1.902774
-5.2939034 4.2828007 -1.9003068
-5.2764525 4.322516 -1.9035963
-5.2520514 4.3566518 -1.9044187
-5.223011 4.3869405 -1.9035963
-5.1989255 4.4213977 -1.9046929
-5.1687832 4.4507046 -1.9035963
-5.1486263 4.4886551 -1.9063376
-5.1202664 4.5195255 -1.9060634
-5.1017613 4.5591879 -1.9096271
-5.0686984 4.5858898 -1.9077083
-5.0411739 4.6175542 -1.9079823
-5.0141563 4.6497068 -1.9085306
-4.9792213 4.6744618 -1.9060634
-4.9490514 4.7036009 -1.9055152
-4.9055438 4.7198777 -1.8997586
-4.8668456 4.7404952 -1.8959208
-4.8397212 4.7722936 -1.8967432
-4.8151126 4.8066554 -1.8986621
-4.7814698 4.8320088 -1.8970172
-4.7436638 4.853004 -1.8937278
-4.7137971 4.8820195 -1.8937278
-4.686408 4.9136343 -1.8948243
-4.6462779 4.931798 -1.8907124
-4.6119981 4.9559903 -1.8890676
-4.5886617 4.9919834 -1.892083
-4.569582 5.0328603 -1.8970172
-4.5232038 5.043622 -1.8904382
-4.4915342 5.0705614 -1.8901641
-4.4590707 5.0965776 -1.8896159
-4.4333739 5.1303906 -1.892083
-4.3968163 5.1516452 -1.88989
-4.3651237 5.1785264 -1.88989
-4.3221908 5.1919098 -1.8849556
-4.2969708 5.2265034 -1.887971
-4.2727017 5.262476 -1.8915347
-4.2457461 5.2953463 -1.8940018
-4.2149653 5.3235598 -1.8948243
-4.1845908 5.3523526 -1.8959208
-4.1311007 5.3512855 -1.8863263
-4.1156788 5.399477 -1.8945501
-4.0720611 5.4107981 -1.8896159
-4.0370636 5.4333663 -1.8887935
-4.0059242 5.4611363 -1.88989
-3.9808013 5.4972968 -1.8940018
-3.9363689 5.5067549 -1.8887935
-3.9208043 5.5567336 -1.8978397
-3.8679466 5.5538564 -1.8885193
-3.8359752 5.5806551 -1.8896159
-3.8022006 5.6048827 -1.88989
-3.7725534 5.6352992 -1.8923571
-3.7320735 5.6495147 -1.8893417
-3.6931369 5.665863 -1.8871487
-3.6583023 5.688417 -1.8871487
-3.6259065 5.714817 -1.8885193
-3.58567 5.728806 -1.8857781
-3.5484302 5.7474265 -1.8846816
-3.5070949 5.7592344 -1.881392
-3.4751573 5.7864161 -1.8833109
-3.4454684 5.8175597 -1.8866005
-3.4145579 5.8468952 -1.8893417
-3.384377 5.877737 -1.8926313
-3.3340039 5.8733034 -1.8844074
-3.2814653 5.8642774 -1.874813
-3.268646 5.9264054 -1.8885193
-3.2335987 5.948885 -1.8893417
-3.20294 5.9796338 -1.8929054
-3.1392539 5.9481454 -1.8764577
-3.0969296 5.9562035 -1.872894
-3.0541863 5.9631109 -1.8690563
-3.0192726 5.9851732 -1.8701528
-3.0051711 6.0492325 -1.8846816
-2.9772949 6.0865626 -1.8907124
-2.9403098 6.1055827 -1.8909864
-2.8982594 6.1139507 -1.887971
-2.8537772 6.1168036 -1.8833109
-2.806159 6.11235 -1.8764577
-2.7753322 6.144352 -1.8811179
-2.7379694 6.1621442 -1.881392
-2.7004929 6.1797094 -1.8816662
-2.6587267 6.1873274 -1.8789248
-2.6147232 6.1893506 -1.8745389
-2.584074 6.2230406 -1.8800215
-2.549839 6.2485733 -1.8830369
-2.5508227 6.3622875 -1.9131907
-2.5039828 6.3581343 -1.9071599
-2.4552081 6.3482647 -1.8994844
-2.414161 6.3578157 -1.8978397
-2.378464 6.3815203 -1.9005809
-2.3339767 6.3815436 -1.8961949
-2.2941267 6.3939342 -1.8956467
-2.248785 6.3906546 -1.8904382
-2.221451 6.4388781 -1.9008551
-2.1646464 6.4013715 -1.8855039
-2.1334956 6.4391804 -1.8929054
-2.0983992 6.4658709 -1.8970172
-2.0484903 6.4465466 -1.8874228
-2.0111818 6.4663405 -1.8896159
-1.9720274 6.4803996 -1.8901641
-1.9377148 6.5108118 -1.8956467
-1.9047154 6.546587 -1.902774
-1.8634583 6.554451 -1.9016775
-1.8286105 6.5852203 -1.9074341
-1.7866598 6.5907474 -1.9057894
-1.7407748 6.5811329 -1.8997586
-1.6938736 6.5665479 -1.8923571
-1.642761 6.5339155 -1.8797473
-1.6136222 6.5887079 -1.8929054
-1.5713795 6.591001 -1.8907124
-1.5296043 6.5948977 -1.8890676
-1.4943997 6.6276126 -1.8959208
-1.4512353 6.6253843 -1.8926313
-1.4145566 6.6529775 -1.8981137
-1.3754567 6.6700082 -1.9005809
-1.3307344 6.6594615 -1.8950984
-1.2894821 6.6656132 -1.8945501
-1.2515661 6.6894698 -1.8992103
-1.208101 6.6837745 -1.8953725
-1.1697123 6.7062192 -1.8997586
-1.1293391 6.7180123 -1.9011291
-1.0877895 6.7229166 -1.9005809
-1.0477008 6.7370667 -1.902774
-1.0047811 6.7329059 -1.8997586
-0.96263289 6.733232 -1.8981137
-0.92156112 6.7409177 -1.8986621
-0.88092911 6.7521667 -1.9003068
-0.83995646 6.7612624 -1.9014033
-0.79867983 6.7681994 -1.9019516
-0.75713593 6.7729726 -1.9019516
-0.71374494 6.7602758 -1.8970172
-0.67510605 6.7932372 -1.9052411
-0.63341081 6.7972517 -1.9052411
-0.59210879 6.8058009 -1.9066117
-0.54793459 6.7795901 -1.8981137
-0.50668371 6.7876201 -1.8994844
-0.4649604 6.7896414 -1.8992103
-0.42430899 6.8086839 -1.9038705
-0.38268566 6.8140397 -1.9046929
-0.34082019 6.815299 -1.9044187
-0.29937565 6.8259087 -1.9068859
-0.25665215 6.8055143 -1.9005809
-0.2154063 6.8233013 -1.9052411
-0.17324121 6.8129582 -1.9019516
-0.13109957 6.7965856 -1.8970172
-0.089521065 6.8068781 -1.8997586
-0.047705542 6.8005676 -1.8978397
-0.0059672212 6.7901535 -1.8948243
0.035746478 6.7996793 -1.8975655
0.077751234 6.8243341 -1.9046929
0.11911912 6.7948823 -1.896469
0.16119537 6.8103681 -1.9011291
0.20323735 6.8179021 -1.9035963
0.24517088 6.8194098 -1.9044187
0.28688818 6.8148947 -1.9035963
0.3298091 6.83606 -1.9101753
0.3708089 6.8166227 -1.9052411
0.4119311 6.8026996 -1.9019516
0.45251262 6.7827721 -1.8970172
0.49174762 6.7472563 -1.887697
0.53359312 6.7498646 -1.8893417
0.57606041 6.7589202 -1.8929054
0.61410946 6.7179079 -1.8822144
0.65606511 6.7216706 -1.8844074
0.70364726 6.778738 -1.9019516
0.74449182 6.7676015 -1.9000326
0.78289598 6.7361584 -1.8923571
0.82573223 6.7436371 -1.8959208
0.86648148 6.7336745 -1.8945501
0.90816784 6.7310905 -1.8953725
0.94864565 6.7196779 -1.8937278
0.98368943 6.6718683 -1.8816662
1.0288442 6.6932721 -1.8896159
1.0694383 6.6839848 -1.8887935
1.1094842 6.6716046 -1.8871487
1.1528523 6.6788869 -1.8912606
1.1948276 6.6773672 -1.8929054
1.2343755 6.6623454 -1.8907124
1.2766792 6.6622024 -1.8929054
1.3141724 6.6372623 -1.887971
1.3556432 6.6328425 -1.8890676
1.3933417 6.6102843 -1.8849556
1.4395891 6.6279244 -1.8926313
1.4772927 6.6058273 -1.8887935
1.5186597 6.6003876 -1.88989
1.5617863 6.6021752 -1.8931795
1.6065814 6.6102238 -1.8983879
1.6485075 6.6058397 -1.9000326
1.6921099 6.6077118 -1.9035963
1.7296914 6.5860429 -1.9003068
1.7805673 6.6143088 -1.9118202
1.8050139 6.5448523 -1.8945501
1.8474902 6.5419831 -1.8970172
1.8779849 6.4972639 -1.8871487
1.9107271 6.4616404 -1.8800215
1.9550701 6.4654441 -1.8846816
1.9859023 6.4248428 -1.8761836
2.0200746 6.3960295 -1.8712493
2.0687282 6.4128027 -1.8800215
2.1131513 6.4155169 -1.8846816
2.1451225 6.3805523 -1.8781025
2.1786165 6.3508959 -1.8731682
2.2213547 6.3483014 -1.8764577
2.2583265 6.3291173 -1.874813
2.3020492 6.3286982 -1.8789248
2.3291399 6.2828927 -1.8693304
2.3669679 6.2666836 -1.8687822
2.4071012 6.2565303 -1.8701528
2.4394822 6.2264199 -1.8654927
2.4872599 6.2354531 -1.872894
2.5193236 6.204926 -1.8682339
2.5665286 6.2115717 -1.8750871
2.598259 6.180635 -1.8704269
2.6357555 6.163692 -1.8701528
2.6758265 6.1526947 -1.8717976
2.707695 6.1229668 -1.8676857
2.7546768 6.1272893 -1.8742647
2.7814305 6.0866542 -1.8668633
2.8162949 6.0642395 -1.8652185
2.8530412 6.0459752 -1.8649445
2.8900847 6.0283556 -1.8649445
2.9257567 6.007915 -1.864122
2.9527607 5.9700227 -1.8578171
2.9901996 5.9535112 -1.8583654
3.0262365 5.934195 -1.8580912
3.0590541 5.9086823 -1.8558983
3.0992775 5.8974628 -1.8583654
3.1381207 5.8834262 -1.8600101
3.1796546 5.8742099 -1.8632996
3.2202673 5.8630185 -1.8660409
3.2599263 5.8498697 -1.8682339
3.295759 5.8297572 -1.8682339
3.3314676 5.8094249 -1.8682339
3.3675344 5.7897053 -1.8685081
3.3937132 5.7531948 -1.8632996
3.4314184 5.7363901 -1.8646703
3.4645569 5.7119379 -1.8635738
3.5126364 5.7118721 -1.8707011
3.5445652 5.6853147 -1.8690563
3.5793829 5.6634588 -1.8690563
3.6057663 5.6284323 -1.8646703
3.6475654 5.6174946 -1.8685081
3.6846082 5.5990243 -1.8698786
3.7183602 5.5755105 -1.8696046
3.7562699 5.5581679 -1.8715235
3.7788939 5.5183516 -1.8657668
3.813231 5.495851 -1.8660409
3.8535173 5.4817915 -1.8693304
3.8837333 5.4533434 -1.8676857
3.9216223 5.4356499 -1.8698786
3.9560359 5.4130383 -1.8704269
3.9931803 5.394073 -1.8723458
4.0302405 5.374856 -1.8742647
4.05791 5.343133 -1.8717976
4.1058617 5.3379536 -1.8789248
4.1314464 5.3035555 -1.8756354
4.1585498 5.2713099 -1.8731682
4.1920161 5.2471972 -1.8737165
4.2307868 5.2296014 -1.8767319
4.2737641 5.2169347 -1.8816662
4.2903457 5.1721077 -1.874813
4.3349881 5.1611505 -1.8805697
4.3615909 5.1285934 -1.8783766
4.403017 5.1133952 -1.8827627
4.4330454 5.0848327 -1.8822144
4.4488893 5.0402312 -1.8756354
4.5060034 5.0422406 -1.8868746
4.4871798 4.9595828 -1.8657668
4.5532508 4.970963 -1.8808438
4.5764737 4.935174 -1.8778284
4.6152253 4.9161158 -1.881392
4.6307287 4.8723679 -1.8753612
4.6752062 4.8591094 -1.881392
4.6707134 4.7951951 -1.8674116
4.716928 4.7835665 -1.8742647
4.753664 4.7620211 -1.8772801
4.7821102 4.7320871 -1.8770061
4.8151817 4.7066889 -1.8786508
4.8370528 4.6703749 -1.8759094
4.8781443 4.6525555 -1.8808438
4.9003005 4.6166005 -1.8783766
4.932055 4.5897217 -1.8797473
4.9502125 4.550261 -1.8759094
4.9751916 4.5172153 -1.874813
5.0028148 4.4866033 -1.874813
5.0309701 4.4564595 -1.8750871
5.0755892 4.4407053 -1.8816662
5.1012859 4.4082208 -1.8811179
5.1443305 4.3905725 -1.8871487
5.1674972 4.3558259 -1.8857781
5.1808238 4.3129606 -1.8808438
5.2049618 4.2792583 -1.8800215
5.2348533 4.2502713 -1.881392
5.2653356 4.2216806 -1.8830369
5.2903862 4.1886969 -1.8827627
5.3220487 4.1608958 -1.8849556
5.3467183 4.1275744 -1.8846816
5.3811216 4.101686 -1.887971
5.4038825 4.0668559 -1.8871487
5.4318223 4.0359163 -1.8882452
5.4564838 4.002511 -1.8882452
5.4941812 3.978545 -1.8929054
5.4895434 3.9240644 -1.8827627
5.5331612 3.9041696 -1.8896159
5.5570126 3.8701453 -1.8896159
5.5806551 3.8359752 -1.8896159
5.6072702 3.8038204 -1.8907124
5.6337008 3.7714834 -1.8918089
5.6567364 3.7368448 -1.8918089
5.6706967 3.6962881 -1.8887935
5.6876082 3.6577821 -1.8868746
5.714005 3.625391 -1.8882452
5.7532606 3.6009781 -1.8940018
5.7736111 3.5645986 -1.8934536
5.7961955 3.5296054 -1.8937278
5.8177438 3.4939742 -1.8937278
5.8465195 3.4626224 -1.8961949
5.8576908 3.4208634 -1.8929054
5.8927379 3.3930156 -1.8975655
5.9067559 3.3529961 -1.8953725
5.9230223 3.3143415 -1.8940018
5.944931 3.2788651 -1.8945501
5.9649382 3.242326 -1.8945501
5.9898067 3.2083895 -1.8961949
5.9974732 3.1652915 -1.8923571
6.0440855 3.1426303 -1.9011291
6.0401444 3.0936472 -1.8937278
6.0736094 3.0638916 -1.8983879
6.0931559 3.0269949 -1.8986621
6.1202531 2.9937773 -1.9014033
6.1298428 2.9519947 -1.8986621
6.1530542 2.9167991 -1.9003068
6.1577635 2.8728898 -1.8961949
6.1831408 2.8386641 -1.8986621
6.1943073 2.7979002 -1.8967432
6.2227831 2.7649169 -1.9003068
6.2422748 2.727838 -1.9011291
6.270381 2.6944213 -1.9046929
6.2823663 2.6540248 -1.9033222
6.2949805 2.6139514 -1.9022257
6.3100104 2.5749135 -1.9019516
6.321228 2.534358 -1.9005809
6.3089213 2.4845982 -1.892083
6.3473678 2.4548612 -1.8992103
6.3551188 2.4131367 -1.8970172
6.3860259 2.3801436 -1.9019516
6.4059291 2.3428972 -1.9035963
6.4410033 2.3110182 -1.9099013
6.4577832 2.2724111 -1.9107237
6.4716053 2.2327442 -1.9107237
6.4906492 2.1948419 -1.9123684
6.4903011 2.1504369 -1.9082565
6.4859943 2.1049314 -1.903048
6.5162015 2.0706289 -1.9082565
6.5297022 2.0308931 -1.9085306
6.5402007 1.9902292 -1.9079823
6.5568981 1.9514337 -1.909353
6.5853696 1.9160016 -1.9142873
6.5831265 1.8716127 -1.9101753
6.608386 1.8350446 -1.9142873
6.6232338 1.7954684 -1.9153838
6.6220398 1.7515976 -1.9118202
6.6410432 1.7130949 -1.9142873
6.650497 1.6720794 -1.9140131
6.6615658 1.6314702 -1.9142873
6.6742573 1.5912341 -1.9151096
6.6726532 1.5476435 -1.9118202
6.6829619 1.5068834 -1.9120942
6.6836276 1.4639966 -1.9096271
6.694366 1.4233593 -1.9101753
6.7180433 1.3853651 -1.9145614
6.7207594 1.3429869 -1.9129167
6.7298174 1.3019066 -1.9131907
6.7528033 1.2634194 -1.9175768
6.761375 1.2221322 -1.917851
6.7668514 1.1802917 -1.9173027
6.7739663 1.1387488 -1.9173027
6.7438021 1.0911702 -1.9066117
6.6287365 1.0308475 -1.8715235
6.6263766 0.98887694 -1.8690563
6.6142316 0.94561249 -1.8638479
6.6380129 0.90748662 -1.8690563
0 0 -0
6.7326322 0.83639795 -1.8931795
6.7662892 0.79845428 -1.9014033
6.7844415 0.75841868 -1.9052411
6.8023562 0.71819025 -1.9090788
6.810463 0.67681891 -1.9101753
6.8173604 0.63528579 -1.9109977
6.8211298 0.59344333 -1.9109977
6.8256016 0.55165601 -1.9112719
6.8250217 0.50947791 -1.9101753
6.8299384 0.46772233 -1.9107237
6.8298001 0.42562619 -1.9099013
6.8274822 0.38344139 -1.9085306
6.8297062 0.34154153 -1.9085306
6.8355165 0.29979759 -1.9096271
6.8362665 0.25781372 -1.909353
6.8454094 0.21610554 -1.911546
6.8514132 0.17422134 -1.9129167
6.8600454 0.13232741 -1.9151096
6.86169 0.090245172 -1.9153838
6.8717313 0.048208963 -1.918125
6.8709359 0.0060430043 -1.917851
6.8660355 -0.036091387 -1.9164803
6.8627996 -0.078187212 -1.9156579
6.863152 -0.12031189 -1.9159321
6.8613234 -0.16239843 -1.9156579
6.8640428 -0.20461005 -1.9167545
6.8655415 -0.24682666 -1.9175768
6.8667803 -0.28906935 -1.9183992
6.8591137 -0.33091998 -1.9167545
6.8550334 -0.37289611 -1.9162061
6.8516564 -0.41489273 -1.9159321
6.7021685 -0.44713998 -1.8739907
6.6714835 -0.48622972 -1.8660409
6.6463242 -0.52541423 -1.859736
6.6257272 -0.5647164 -1.8548017
6.5962791 -0.60299826 -1.8474003
6.7034845 -0.65429115 -1.879199
6.8724809 -0.71337235 -1.928816
6.9281983 -0.76214916 -1.946086
6.925302 -0.80486739 -1.9466343
6.9125962 -0.84641045 -1.9444413
6.9015498 -0.88807333 -1.9427965
6.9102669 -0.93233174 -1.9469084
6.8948932 -0.97337103 -1.9441671
6.8650055 -1.0121535 -1.9373139
6.852963 -1.0533811 -1.9356692
6.7523575 -1.0803739 -1.9085306
6.5634561 -1.0915056 -1.8558983
6.4258537 -1.1091914 -1.8180686
6.2542067 -1.1191344 -1.7703706
6.1848121 -1.1459291 -1.7522782
6.1106033 -1.1710101 -1.7328151
6.0344357 -1.1948506 -1.7128038
6.0062618 -1.2276193 -1.706773
5.9553289 -1.2553283 -1.6941632
5.997323 -1.3026614 -1.708692
5.9892173 -1.3394357 -1.708692
5.9612045 -1.3716325 -1.7029353
5.9554834 -1.4088478 -1.7037576
5.9523339 -1.4467258 -1.7054025
5.9489436 -1.4846183 -1.7070472
5.9406538 -1.5213308 -1.7073214
5.9358582 -1.5589746 -1.708692
5.9020357 -1.5888687 -1.7015647
5.8782692 -1.6212186 -1.6974528
5.8367434 -1.6483719 -1.6881324
5.8237476 -1.6833535 -1.6873101
5.7967091 -1.714148 -1.6823758
5.7750354 -1.7463441 -1.6790862
5.7844253 -1.787993 -1.685117
5.7614236 -1.8196874 -1.6815534
5.733675 -1.8496909 -1.6766192
5.7112565 -1.8812276 -1.6733296
5.7105451 -1.9199127 -1.6766192
5.7113924 -1.9592837 -1.6804569
5.671123 -1.9844465 -1.6719589
5.6497822 -2.0159752 -1.6692177
5.6264606 -2.0466595 -1.6659281
5.6110911 -2.0801415 -1.6651058
5.6135168 -2.1203072 -1.6697659
5.6012988 -2.1550565 -1.67004
5.5781202 -2.1855264 -1.6670246
5.5494194 -2.2136555 -1.6623645
5.4991984 -2.2328336 -1.6511253
5.4987268 -2.2720418 -1.6552372
5.4740434 -2.3012669 -1.6519477
5.4739685 -2.3408608 -1.6563337
5.4621477 -2.3755548 -1.6571561
5.4439507 -2.4074697 -1.6560596
5.4369707 -2.4443765 -1.6585268
5.4218698 -2.4776909 -1.6585268
5.4196486 -2.5169876 -1.6626387
5.4154096 -2.5555294 -1.6662023
5.4039631 -2.5907879 -1.667573
5.3853707 -2.6226342 -1.6667506
5.363143 -2.6526449 -1.6648316
5.3622351 -2.6932709 -1.6697659
5.336184 -2.7213171 -1.6667506
5.3040133 -2.7460501 -1.6618162
5.2768478 -2.7731755 -1.6585268
5.2843409 -2.8186252 -1.6664764
5.2855539 -2.8610663 -1.6725072
5.2603126 -2.8892779 -1.67004
5.2357645 -2.9177554 -1.667847
5.2286468 -2.9559786 -1.6714107
5.2037363 -2.9841783 -1.6692177
5.188653 -3.0179856 -1.6703142
5.1609254 -3.0443916 -1.6672988
5.1611309 -3.0873547 -1.6736038
5.1240001 -3.1079936 -1.667573
5.1040139 -3.1388717 -1.6672988
5.0862904 -3.1711476 -1.667847
5.0569811 -3.1961319 -1.6645576
5.0194592 -3.2156889 -1.6585268
4.9972138 -3.2448564 -1.6577044
4.9555182 -3.2611847 -1.6503029
4.9138117 -3.2771244 -1.6429015
4.916719 -3.3228281 -1.6508511
4.8986187 -3.3545637 -1.6516736
4.8763628 -3.3834617 -1.6511253
4.8555107 -3.4133186 -1.6511253
4.8305583 -3.4402583 -1.6497546
4.8226175 -3.4793978 -1.6544148
4.7732244 -3.4884968 -1.6445463
4.7401352 -3.5091369 -1.6404344
4.7231307 -3.5416172 -1.6420791
4.7020769 -3.5711126 -1.6423532
4.6976094 -3.6133814 -1.6486582
4.6912827 -3.6545472 -1.6544148
4.6793413 -3.691602 -1.6582526
4.6460824 -3.7118413 -1.6544148
4.6262102 -3.7426987 -1.6555114
4.5986948 -3.7673576 -1.6538665
4.5814137 -3.8004153 -1.6560596
4.5499077 -3.8216517 -1.6530442
4.5161161 -3.8407755 -1.6492064
4.4822617 -3.8596292 -1.6453686
4.4519706 -3.8813717 -1.6429015
4.4129295 -3.8952518 -1.6371448
4.3609776 -3.8972654 -1.6264539
4.3319902 -3.9194343 -1.624535
4.3028951 -3.9413943 -1.6226161
4.2729888 -3.9624913 -1.6204231
4.2955737 -4.0327334 -1.6387895
4.2630801 -4.0517278 -1.6357741
4.2339807 -4.0738087 -1.6341294
2.3494461 -2.2887418 -0.89426047
2.3360434 -2.3037899 -0.89453459
2.3218637 -2.3180802 -0.89453459
4.125288 -4.1689696 -1.631114
4.1426554 -4.2382154 -1.6486582
4.1225843 -4.2697806 -1.6511253
4.0836959 -4.281774 -1.6459169
4.0692177 -4.3193498 -1.6508511
4.0472245 -4.3491645 -1.65277
4.0276217 -4.3817034 -1.6557854
3.9916091 -4.3963666 -1.6519477
3.9915276 -4.4508443 -1.663461
3.9641426 -4.4752522 -1.663461
3.9321752 -4.4944253 -1.6615422
3.9013798 -4.5148301 -1.6601715
3.8611166 -4.5240541 -1.654689
3.8277061 -4.5410428 -1.6522218
3.7800801 -4.5407939 -1.6434498
3.7484825 -4.5594454 -1.6418049
3.7155857 -4.5763874 -1.639612
3.7229316 -4.6433654 -1.6557854
3.7110868 -4.6872315 -1.663461
2.0022807 -2.5613828 -0.88603663
1.9865266 -2.5736203 -0.88603663
1.9689487 -2.5834665 -0.88521427
1.9501681 -2.5916574 -0.8838436
1.9313612 -2.599715 -0.88247299
1.8857927 -2.5711956 -0.86821836
1.7227535 -2.3794298 -0.79667121
1.6969352 -2.3743091 -0.79118866
1.6668091 -2.3626757 -0.78351313
3.4238241 -4.9162364 -1.6670246
3.4028559 -4.9506245 -1.6716849
3.3497381 -4.9379864 -1.6601715
3.3001149 -4.9296784 -1.6503029
3.262383 -4.9386015 -1.6464652
3.229918 -4.9553037 -1.6453686
3.196851 -4.9709845 -1.643998
3.1740184 -5.0026865 -1.6481099
3.1402011 -5.0171771 -1.6464652
3.107336 -5.0330772 -1.6453686
3.0733938 -5.0471206 -1.6437238
3.046824 -5.0733032 -1.646191
3.0058353 -5.0753541 -1.6407084
2.9741518 -5.0928717 -1.6404344
2.9380472 -5.1026912 -1.637693
2.9142792 -5.1340036 -1.6420791
2.8827229 -5.1517887 -1.6420791
2.8566318 -5.1794844 -1.6453686
2.818826 -5.1859312 -1.6418049
2.7874067 -5.2039771 -1.6420791
2.7527297 -5.2158794 -1.6404344
2.7162368 -5.2241397 -1.637693
1.5441505 -3.0152955 -0.9249627
1.5243204 -3.0221376 -0.92414033
1.5053203 -3.0305727 -0.92386615
2.6020038 -5.3194609 -1.6472875
2.5572131 -5.3101997 -1.6393378
2.5184023 -5.3127561 -1.6352259
2.4837232 -5.3237514 -1.6338553
2.4510105 -5.338891 -1.6338553
2.4205811 -5.3590879 -1.6355001
2.3919489 -5.3835068 -1.6385155
2.3557901 -5.3910322 -1.6363224
2.3211482 -5.4018517 -1.6352259
2.2860878 -5.4115629 -1.6338553
2.2484138 -5.4148302 -1.6305658
2.2180538 -5.4356475 -1.6327587
2.1753533 -5.4259472 -1.6256315
2.13779 -5.4284554 -1.622342
2.1155438 -5.4701724 -1.631114
2.0809152 -5.4803529 -1.6302916
2.0408669 -5.4758968 -1.6250832
2.0128455 -5.5036697 -1.6297433
1.9777384 -5.5122962 -1.6286469
1.949306 -5.5397491 -1.633307
1.9143369 -5.5488782 -1.6324847
1.8790212 -5.5568762 -1.6313882
1.8430743 -5.5628238 -1.6297433
1.8103913 -5.5786014 -1.631114
1.7732147 -5.5804396 -1.6283728
1.7386546 -5.5902963 -1.6280986
1.7026403 -5.5953393 -1.6264539
1.6696478 -5.6102896 -1.6278245
1.6338487 -5.6158118 -1.6264539
1.6006752 -5.6303563 -1.6278245
1.5632669 -5.629879 -1.6248091
1.5274347 -5.6347241 -1.6234385
1.4972595 -5.6607251 -1.6283728
1.4622575 -5.6688743 -1.6280986
1.430261 -5.6889319 -1.6313882
1.3932681 -5.6891937 -1.628921
1.3601183 -5.7051196 -1.631114
1.3231307 -5.704926 -1.6286469
1.2895821 -5.7195044 -1.6305658
1.2552869 -5.7310672 -1.6316622
0.78996873 -3.7162549 -1.042289
0.77239704 -3.7464626 -1.0496905
0.74807513 -3.74453 -1.0477716
0.72380602 -3.7424405 -1.0458528
0.69021434 -3.6900942 -1.0294051
0.65968823 -3.650728 -1.0167953
0.63628352 -3.6490226 -1.0151505
0.62313175 -3.707864 -1.0310498
0.59791034 -3.6964283 -1.0266638
0.57610524 -3.705729 -1.0283086
0.5539245 -3.7129986 -1.0294051
0.52377874 -3.6649194 -1.0146022
0.50440902 -3.690932 -1.0211813
0.48125449 -3.6901431 -1.0200847
0.46121272 -3.7140222 -1.0261155
0.4374004 -3.7081866 -1.0236484
0.4164564 -3.7270482 -1.0283086
0.3938829 -3.7324026 -1.0291309
0.37116423 -3.7366631 -1.0296792
0.34805092 -3.7369549 -1.0291309
0.32453099 -3.7323139 -1.0272121
0.30154631 -3.7332761 -1.026938
0.27863368 -3.7350562 -1.026938
0.25669697 -3.7510872 -1.0310498
0.23415487 -3.7602704 -1.0332428
0.21177964 -3.7741187 -1.0368066
0.18828148 -3.7686236 -1.0348877
0.16435239 -3.7514532 -1.0296792
0.14078633 -3.7379761 -1.0255673
0.11736146 -3.7233901 -1.0211813
0.094414949 -3.7201946 -1.0200847
0.071828336 -3.7332034 -1.0236484
0.04857748 -3.7076106 -1.016247
0.025759067 -3.6982222 -1.0135057
0.0030820547 -3.7146592 -1.0181659
-0.019780707 -3.7280719 -1.0220037
-0.042611755 -3.7240338 -1.0209072
-0.065830782 -3.7448561 -1.026938
-0.089216135 -3.7616875 -1.0318723
-0.11263891 -3.7726045 -1.0351617
-0.13640597 -3.7891417 -1.040096
-0.15949158 -3.78439 -1.0389996
-0.18076511 -3.7429957 -1.0274862
-0.20357175 -3.7389352 -1.0266638
-0.22499974 -3.7126575 -1.0195365
-0.24726427 -3.7035306 -1.0173435
-0.26998404 -3.7019436 -1.0173435
-0.29375389 -3.7136393 -1.0211813
-0.31816706 -3.7309313 -1.0266638
-0.34157857 -3.7346551 -1.0283086
-0.36523446 -3.7401462 -1.0305016
-0.39026067 -3.7579224 -1.0362582
-0.41236556 -3.7468536 -1.0337912
-0.4542124 -3.9066489 -1.0803927
-0.46135163 -3.76633 -1.0409185
-0.4821218 -3.7453055 -1.03571
-0.5061217 -3.7499013 -1.0379031
-0.53180867 -3.7657702 -1.0433856
-0.55686808 -3.7757561 -1.0472233
-0.58367652 -3.7960317 -1.0540766
-0.6069575 -3.7923789 -1.0540766
-0.62643075 -3.765815 -1.0474975
-0.64739972 -3.7495804 -1.0439339
-0.67310393 -3.7606843 -1.0483198
-0.69774264 -3.7649937 -1.050787
-0.72571647 -3.7861435 -1.0581884
-0.74015772 -3.7372801 -1.0453044
-0.77635902 -3.7976818 -1.0642192
-0.80182779 -3.8031981 -1.0672346
-0.82086331 -3.7784708 -1.061478
-0.84004539 -3.7555311 -1.0562695
-0.85186279 -3.7015705 -1.042015
-0.87632978 -3.7037611 -1.0442079
-0.89926618 -3.6992488 -1.0444821
-0.92241305 -3.6955276 -1.0450304
-0.7733379 -3.0190132 -0.84765887
-0.78842843 -3.001189 -0.84382105
-0.80657864 -2.9953661 -0.84354693
-0.82289767 -2.982944 -0.84135395
-0.84092385 -2.976913 -0.84107983
-0.86050892 -2.9763167 -0.84245044
-1.0854222 -3.6700349 -1.0502387
-1.1265668 -3.7249823 -1.0686053
-1.1496856 -3.7189186 -1.0688794
-1.1736411 -3.7154624 -1.0699759
-1.1869704 -3.6789026 -1.0612038
-1.1920744 -3.6185708 -1.0453044
-1.0702434 -3.1827481 -0.91646475
-1.0891281 -3.1743019 -0.9159165
-1.1365311 -3.2474411 -0.94003969
-1.2013514 -3.3663099 -0.97814333
-1.1197624 -3.0777993 -0.8928898
-1.1396291 -3.073576 -0.89371222
-1.1673003 -3.0899169 -0.90083951
-1.1834756 -3.0755157 -0.89864647
-1.2047796 -3.0744643 -0.90056539
-1.2286091 -3.07952 -0.90440315
-1.4590936 -3.5931993 -1.0647675
-1.4631212 -3.540626 -1.0513352
-1.4844458 -3.5306952 -1.0510612
-1.4913372 -3.4870343 -1.0403702
-1.5169234 -3.487519 -1.0433856
-1.5406272 -3.4834232 -1.0450304
-1.5749835 -3.5028505 -1.0540766
-1.5932497 -3.4861228 -1.0518836
-1.6182553 -3.4841316 -1.0543506
-1.644117 -3.4837036 -1.057366
-1.6600577 -3.4622762 -1.0538024
-1.6816915 -3.4528897 -1.0540766
-1.6964519 -3.4295754 -1.0499647
-1.7174635 -3.4191017 -1.0499647
-1.7357893 -3.4033587 -1.0483198
-1.7411659 -3.3627522 -1.0387254
-1.7635559 -3.3554106 -1.039822
-1.7818483 -3.3402836 -1.0384513
-1.8064301 -3.3368993 -1.0409185
-1.8250192 -3.3223808 -1.039822
-1.8346046 -3.2917981 -1.033517
-1.8538218 -3.2788048 -1.0329688
-1.8691216 -3.2590253 -1.0302275
-1.8886 -3.246664 -1.0299534
-1.9031113 -3.2259028 -1.026938
-1.9480447 -3.2562568 -1.0409185
-1.9136308 -3.154613 -1.0110385
-1.9334549 -3.143631 -1.0113127
-1.9776359 -3.1716976 -1.024745
-2.0186369 -3.1936483 -1.0362582
-2.0475318 -3.1957784 -1.0411925
-2.0686731 -3.1855748 -1.042015
-2.0881805 -3.1728215 -1.042015
-2.1028075 -3.1527479 -1.0395478
-2.1431117 -3.1708624 -1.0502387
-2.1630709 -3.1584463 -1.0505129
-2.1829581 -3.1459048 -1.050787
-2.20222 -3.1324511 -1.050787
-2.2213988 -3.1188796 -1.050787
-2.2562478 -3.1270289 -1.0584626
-2.2714205 -3.1076908 -1.0565437
-2.2538283 -3.0442245 -1.0389996
-2.2903483 -3.0541909 -1.0474975
-2.3468492 -3.0898635 -1.0653157
-2.3798349 -3.0937009 -1.0718948
-2.3757255 -3.0494509 -1.0612038
-2.3997524 -3.0416119 -1.063671
-2.3811567 -2.9802437 -1.0466751
-2.3975837 -2.9633338 -1.0458528
-2.4486287 -2.9887412 -1.0606556
-2.4607816 -2.9662583 -1.0579144
-2.493161 -2.9680414 -1.0642192
-2.5007348 -2.9402332 -1.0595591
-2.4861002 -2.8869364 -1.0453044
-2.4810178 -2.8455303 -1.0354359
-2.5073402 -2.840348 -1.0392736
-2.5522745 -2.8557458 -1.0510612
-2.5858779 -2.8578608 -1.0579144
-2.6364908 -2.8781097 -1.0718948
-2.5828292 -2.7850113 -1.042015
-2.588022 -2.7564898 -1.0370806
-2.5922997 -2.7273126 -1.0318723
-2.6129858 -2.7155135 -1.033517
-2.6262438 -2.6959846 -1.0321463
-2.6366599 -2.6736562 -1.0296792
-2.6625268 -2.6669569 -1.033517
-2.6911447 -2.6627464 -1.0384513
-2.7074323 -2.6461837 -1.0384513
-4.1265788 -3.9843006 -1.594381
-2.7348299 -2.6081135 -1.0365324
-2.7514815 -2.5919435 -1.0368066
-2.7659256 -2.5737014 -1.0362582
-2.7809575 -2.5560308 -1.0359842
-2.7973006 -2.5395656 -1.0362582
-2.8113987 -2.5210695 -1.03571
-2.8210561 -2.4986699 -1.033517
-2.8421245 -2.4863796 -1.03571
-2.8747897 -2.4839859 -1.042289
-2.870959 -2.4500663 -1.0351617
-2.882262 -2.4293051 -1.0337912
-2.9074607 -2.4201889 -1.0376289
-2.9125991 -2.3943632 -1.0340652
-2.9414206 -2.387965 -1.0392736
-2.9560175 -2.3698716 -1.0392736
-2.9705031 -2.3516893 -1.0392736
-2.9916952 -2.3387496 -1.0417408
-2.9823916 -2.3021297 -1.0332428
-3.0132866 -2.2966137 -1.0392736
-3.0457625 -2.2919612 -1.0458528
-3.0829256 -2.2904377 -1.0540766
-3.1124294 -2.2828553 -1.0595591
-3.1925831 -2.3116624 -1.0828599
-3.2536469 -2.3255875 -1.0993075
-3.2018526 -2.2590027 -1.0762808
-3.1769857 -2.2123806 -1.0628486
-3.1413662 -2.1590676 -1.0458528
-3.1465969 -2.1343527 -1.0431114
-3.1428523 -2.1037695 -1.0373548
-3.2110662 -2.1210244 -1.0562695
-3.2344933 -2.108109 -1.0598332
-3.2489851 -2.0892634 -1.0603814
-3.2536232 -2.064136 -1.0576402
-3.2727485 -2.0482154 -1.0598332
-3.3343508 -2.0584116 -1.0762808
-3.3740227 -2.0544212 -1.085327
-3.3651304 -2.0208051 -1.0781997
-4.6277142 -2.7406828 -1.4924058
-3.3547976 -1.9589864 -1.0666864
-3.3509204 -1.9292463 -1.061478
-3.3735669 -1.9148216 -1.0650417
-3.3944838 -1.8992521 -1.0680571
-3.410284 -1.8807106 -1.0694276
-3.4513314 -1.8758266 -1.079022
-3.4737966 -1.8605181 -1.0825858
-3.4911005 -1.8423107 -1.0845046
-3.5006325 -1.8199676 -1.0839564
-3.5391233 -1.8124844 -1.0927285
-3.6197248 -1.8258233 -1.1149328
-3.6463621 -1.8112813 -1.1198671
-3.6660457 -1.7930998 -1.1226083
-3.6769791 -1.7705716 -1.1226083
-3.6625736 -1.7360289 -1.1146586
-3.7280602 -1.7391423 -1.1319287
-3.842663 -1.763989 -1.1645497
-3.9130104 -1.7673007 -1.1831903
-3.9967229 -1.7756727 -1.205943
-4.0313354 -1.7615147 -1.2133443
-5.2887568 -2.2725427 -1.6001377
-4.1111155 -1.7366152 -1.2314367
-4.1749825 -1.7334886 -1.2478844
-4.2701273 -1.7423619 -1.2739265
-4.2985897 -1.7232866 -1.2794089
-4.3350315 -1.7070996 -1.2873586
-4.374126 -1.6915705 -1.2961308
-4.3799281 -1.6629924 -1.2947601
-4.4215884 -1.6478435 -1.3043545
-4.5481243 -1.6633013 -1.3397169
-4.625227 -1.6594011 -1.3600024
-4.7278509 -1.6635559 -1.3879633
-4.8088784 -1.6589837 -1.4093453
-5.0029888 -1.6916856 -1.4647189
-5.2825718 -1.7502 -1.5455863
-5.2502203 -1.7037988 -1.5327024
-5.4374633 -1.7277724 -1.585609
-5.6509032 -1.7575088 -1.646191
-5.7011418 -1.7348436 -1.6579784
-5.8010859 -1.726444 -1.6845688
-5.8540459 -1.7031777 -1.6971786
-5.9254375 -1.6845869 -1.715271
-6.0172048 -1.6708455 -1.7393942
-6.1090231 -1.6560407 -1.7635174
-6.217618 -1.6445985 -1.7925749
-6.400795 -1.6511064 -1.8435625
-6.5581646 -1.6488593 -1.8868746
-6.6942582 -1.6394788 -1.9238818
-6.7434812 -1.6077423 -1.9353951
-6.7541561 -1.5665522 -1.9356692
-6.7730222 -1.5271959 -1.9384105
-6.7747502 -1.4839621 -1.9362174
-6.7790251 -1.4413646 -1.9348468
-6.7981019 -1.4018794 -1.9378622
-6.8009176 -1.3590096 -1.9362174
-6.7996864 -1.3154273 -1.9334762
-6.8047938 -1.2731496 -1.9326538
-6.8389754 -1.2361634 -1.9403293
-6.8274841 -1.1908709 -1.9348468
-6.820437 -1.1465635 -1.9307349
-6.8159518 -1.1028486 -1.9274454
-6.8377943 -1.0633713 -1.9318314
-6.8517995 -1.0225314 -1.9340245
-6.8750811 -0.98292124 -1.9389588
-6.8924165 -0.94228184 -1.9422482
-6.8971148 -0.89984858 -1.9419742
-6.8977346 -0.85691869 -1.9406035
-6.8742108 -0.81119609 -1.9323797
-6.9239783 -0.77402556 -1.9452636
-6.9094701 -0.72950566 -1.9397811
-6.913816 -0.68709624 -1.9397811
-6.915029 -0.64439303 -1.9389588
-6.9188528 -0.60195106 -1.9389588
-6.909955 -0.55847859 -1.9353951
-6.9257188 -0.51700079 -1.9389588
-6.933558 -0.47482446 -1.9403293
-6.9545774 -0.43340957 -1.9455378
-6.9542255 -0.39056697 -1.9447154
-6.956491 -0.3478893 -1.9447154
-6.9575338 -0.30515635 -1.9444413
-0 -0 -0
-6.9453754 -0.21926729 -1.9400553
-6.6129017 0.48561805 -1.9307932
-6.6260405 0.52748084 -1.9356385
-6.6217241 0.56804544 -1.9353535
-6.6238413 0.60919261 -1.9370637
-6.6133013 0.6491676 -1.9350685
-6.6072865 0.68953454 -1.9344984
-6.6172218 0.73164564 -1.9387738
-6.5916634 0.76978475 -1.9325033
-6.590621 0.81068468 -1.9336435
-6.5655603 0.84852523 -1.927658
-6.56213 0.88905251 -1.928228
-6.5451632 0.92768407 -1.9248078
-6.5478811 0.96909148 -1.9273731
-6.5086565 1.0041293 -1.9173973
-6.527925 1.0481541 -1.9250928
-6.4778814 1.0809243 -1.9119819
-6.5098491 1.1273642 -1.9236678
-6.4896011 1.1649134 -1.9196775
-6.4908123 1.2062887 -1.9222426
-6.4644632 1.2424712 -1.9165423
-6.4952636 1.2897741 -1.928228
-6.4599972 1.324018 -1.9199625
-6.4508138 1.3634324 -1.9196775
-6.4516916 1.4050295 -1.9225277
-6.4242439 1.4403925 -1.9168273
-6.4208889 1.4810774 -1.9185374
-6.4135456 1.52089 -1.9191074
-6.3929176 1.5574896 -1.9156872
-6.4139252 1.6043676 -1.9250928
-6.3844643 1.6386847 -1.9191074
-6.3687277 1.6763633 -1.9173973
-6.3786807 1.7209059 -1.9236678
-6.3393621 1.7520916 -1.9148321
-6.3377147 1.793568 -1.9176823
-6.3284316 1.8329554 -1.9182523
-6.3308501 1.8758384 -1.9225277
-6.3228903 1.9157609 -1.9236678
-6.307354 1.9533864 -1.9225277
-6.2934222 1.9914722 -1.9219576
-6.2774363 2.0288706 -1.9208175
-6.2566772 2.0646453 -1.9182523
-6.2438912 2.1029966 -1.9182523
-6.2199926 2.1375287 -1.9148321
-6.2094736 2.1766055 -1.9156872
-6.1987085 2.2156334 -1.9165423
-6.1714892 2.2487016 -1.912267
-6.1467929 2.2825208 -1.9088467
-6.1129503 2.3127284 -1.9025763
-6.1540937 2.3715727 -1.9202476
-6.1144443 2.3994801 -1.912267
-6.1191874 2.4447796 -1.9185374
-6.0792117 2.4721658 -1.9105569
-6.069242 2.5116205 -1.912267
-6.0272164 2.5376503 -1.9037164
-6.012413 2.5749624 -1.9040014
-6.0193467 2.6217613 -1.9114119
-5.9926305 2.6539862 -1.9079916
-5.9814768 2.6930685 -1.9097018
-5.9552531 2.7253301 -1.9065666
-5.9375496 2.7614152 -1.9062816
-5.9334927 2.8039408 -1.9105569
-5.9084001 2.8365602 -1.9079916
-5.8848538 2.869818 -1.9059966
-5.8825936 2.913533 -1.9111269
-5.8620372 2.9482806 -1.9102719
-5.8267646 2.9754722 -1.9045714
-5.8075471 3.0107274 -1.9042864
-5.8152575 3.0601473 -1.9131221
-5.7921443 3.0935128 -1.9116969
-5.7738962 3.1294513 -1.9119819
-5.7478671 3.161124 -1.9097018
-5.725852 3.194931 -1.9088467
-5.7053065 3.2295318 -1.9085617
-5.686214 3.2649555 -1.9088467
-5.6677299 3.3007491 -1.9094168
-5.6432443 3.3330255 -1.9079916
-5.6177535 3.3646331 -1.9062816
-5.6043754 3.4035189 -1.9088467
-5.5711446 3.4303021 -1.9045714
-5.5678782 3.4755909 -1.9108418
-5.5513067 3.5127654 -1.912552
-5.5280352 3.5457261 -1.9119819
-5.4925146 3.5706949 -1.9071367
-5.480906 3.6111867 -1.9108418
-5.4474859 3.6372952 -1.9068516
-5.4306221 3.674413 -1.9088467
-5.394536 3.6984489 -1.9040014
-5.3638697 3.7260096 -1.9011512
-5.3440418 3.7610588 -1.9022913
-5.3411527 3.8082502 -1.9097018
-5.309916 3.8353374 -1.9068516
-5.2870564 3.8684123 -1.9071367
-5.2424312 3.8853667 -1.8994411
-5.2092948 3.9105535 -1.8960209
-5.2012234 3.9546294 -1.9020063
-5.1745825 3.9847143 -1.9011512
-5.1455007 4.0128522 -1.8994411
-5.1433444 4.0621758 -1.9079916
-5.1070962 4.0846758 -1.9037164
-5.0849156 4.1183491 -1.9048564
-5.0558453 4.1464319 -1.9034314
-5.0288334 4.1761513 -1.9028614
-5.0082488 4.2112479 -1.9048564
-4.9772067 4.2375484 -1.9028614
-4.9540157 4.2705116 -1.9040014
-4.9313293 4.3039808 -1.9054265
-4.8890281 4.3201914 -1.8991561
-4.8817129 4.3673677 -1.9068516
-4.8420377 4.3856544 -1.9017212
-4.8206873 4.4204655 -1.9040014
-4.7639737 4.4225664 -1.8920306
-4.7535081 4.4674721 -1.8988711
-4.724618 4.4952331 -1.898301
-4.700398 4.5274634 -1.8997262
-4.6821356 4.5655899 -1.9037164
-4.6499414 4.5901918 -1.9020063
-4.6264343 4.6233807 -1.9040014
-4.5939364 4.6475902 -1.9022913
-4.5552902 4.6654015 -1.898016
-4.5299044 4.6967144 -1.8994411
-4.5089331 4.7327499 -1.9028614
-4.4732409 4.753346 -1.9000112
-4.4426861 4.7792993 -1.8994411
-4.40874 4.8015261 -1.8974459
-4.3830581 4.8327479 -1.8991561
-4.3577986 4.8645492 -1.9011512
-4.3297734 4.8933506 -1.9020063
-4.2958832 4.9154944 -1.9002962
-4.264389 4.9403095 -1.8997262
-4.2184525 4.948144 -1.8926007
-4.2188735 5.0106015 -1.9068516
-4.1727314 5.0179658 -1.8997262
-4.1406469 5.0419931 -1.8991561
-4.1084247 5.0658154 -1.898586
-4.0754666 5.0886841 -1.8977309
-4.0507054 5.1218662 -1.9008662
-4.0133038 5.1390691 -1.898016
-3.9635549 5.1400633 -1.8891804
-3.9429712 5.1787786 -1.8945957
-3.9203336 5.2151351 -1.8991561
-3.8682716 5.2121487 -1.8891804
-3.8345184 5.2334657 -1.8883253
-3.7905405 5.2405839 -1.88234
-3.7566428 5.2614026 -1.8814849
-3.7303612 5.2929735 -1.8846201
-3.7054751 5.3267803 -1.8886104
-3.6689243 5.3438845 -1.8866153
-3.6360657 5.3662958 -1.8866153
-3.6025376 5.3877087 -1.8863302
-3.5789108 5.4241147 -1.8914605
-3.5481761 5.4499893 -1.8928857
-3.5110435 5.4660115 -1.8908905
-3.4728222 5.4801645 -1.8883253
-3.4564016 5.5290074 -1.898016
-3.4083283 5.5272646 -1.8900355
-3.3708639 5.5423403 -1.8880403
-3.333343 5.5571647 -1.8860452
-3.3011336 5.5808134 -1.8871853
-3.2615175 5.591855 -1.88405
-3.2257121 5.6092691 -1.883195
-3.1855626 5.6189489 -1.8797748
-3.1496232 5.635879 -1.8789197
-3.1251535 5.6735711 -1.8851901
-3.0925682 5.6968527 -1.8866153
-3.0561986 5.7131848 -1.8857602
-3.0197453 5.7292857 -1.8849051
-2.9752614 5.7298412 -1.8789197
-2.9452839 5.7582302 -1.88234
-2.9228294 5.801877 -1.8908905
-2.8982463 5.8420291 -1.898301
-2.8644485 5.8640094 -1.8997262
-2.8267527 5.8780193 -1.898586
-2.7824335 5.8779244 -1.8928857
-2.7398407 5.8809838 -1.8883253
-2.7045028 5.8994274 -1.8888954
-2.6733749 5.9272704 -1.8926007
-2.6385098 5.9470673 -1.8937408
-2.6084836 5.9780812 -1.898586
-2.5694871 5.9886885 -1.896876
-2.5293415 5.9963927 -1.8943107
-2.4943354 6.0162268 -1.8957359
-2.4382136 5.9843683 -1.8806298
-2.4003801 5.9965467 -1.8797748
-2.3635409 6.0111623 -1.8797748
-2.3290284 6.0318112 -1.8817699
-2.2940116 6.0513663 -1.8834801
-2.2571721 6.0662265 -1.8837651
-2.2212224 6.0835638 -1.8849051
-2.1906366 6.1160297 -1.8908905
-2.149893 6.1203122 -1.8880403
-2.1110511 6.1297631 -1.8869003
-2.0715616 6.1371512 -1.8851901
-2.0344675 6.151567 -1.8857602
-1.9975694 6.1666703 -1.8866153
-1.9611419 6.1833797 -1.8880403
-1.9243006 6.1989584 -1.8891804
-1.8856715 6.2088146 -1.8886104
-1.8472667 6.2193489 -1.8883253
-1.8090706 6.2305665 -1.8883253
-1.7726368 6.2480049 -1.8903205
-1.7332431 6.2550688 -1.8891804
-1.6960807 6.2702127 -1.8906054
-1.6590421 6.2860627 -1.8923156
-1.6128005 6.266418 -1.883195
-1.5717566 6.2659683 -1.8800598
-1.5285058 6.25594 -1.8740743
-1.4945236 6.2838521 -1.8797748
-1.4537796 6.283565 -1.8769246
-1.4126751 6.2811446 -1.8735044
-1.3771744 6.3037415 -1.8777796
-1.3386681 6.3130107 -1.8780646
-1.2991353 6.3173499 -1.8769246
-1.2708282 6.3778467 -1.8928857
-1.2302197 6.3779945 -1.8906054
-1.1954516 6.4089808 -1.8977309
-1.1508404 6.386951 -1.8888954
-1.1129413 6.4014473 -1.8911755
-1.0739582 6.4100466 -1.8917456
-1.0382646 6.4392271 -1.898586
-0.99638903 6.4303207 -1.8940257
-0.95987111 6.456224 -1.9000112
-0.91767401 6.4439616 -1.8945957
-0.87953794 6.459919 -1.8977309
-0.83951408 6.4623423 -1.896876
-0.80290055 6.4921055 -1.9042864
-0.76327389 6.4988136 -1.9048564
-0.72169083 6.488132 -1.9002962
-0.68626457 6.5343833 -1.912837
-0.64389908 6.5155778 -1.9059966
-0.60311395 6.5108156 -1.9034314
-0.56570691 6.5439982 -1.912267
-0.52615523 6.5549898 -1.9145471
-0.48352224 6.5255938 -1.9048564
-0.44425035 6.5399137 -1.9082767
-0.40511551 6.5587807 -1.9131221
-0.36343157 6.5353022 -1.9054265
-0.32356077 6.5421963 -1.9068516
-0.28617984 6.6082196 -1.9259479
-0.24194279 6.5102329 -1.8963059
-0.20231724 6.5221338 -1.8994411
-0.16208135 6.5146284 -1.896876
-0.12247887 6.5356255 -1.9028614
-0.082231812 6.5247526 -1.8994411
-0.042321719 6.5452628 -1.9054265
-0.0021597971 6.5444407 -1.9051415
0.037944563 6.5357046 -1.9025763
0.078232035 6.550684 -1.9071367
0.11851229 6.5548725 -1.9085617
0.15868324 6.5521054 -1.9079916
0.19888322 6.5510082 -1.9079916
0.23882976 6.5429597 -1.9059966
0.2774137 6.5049806 -1.8951658
0.31896329 6.536664 -1.9051415
0.35859066 6.52597 -1.9025763
0.39698485 6.4968586 -1.8945957
0.43593836 6.4809117 -1.8906054
0.47400746 6.4551721 -1.8837651
0.51574123 6.4788957 -1.8917456
0.55614197 6.4832492 -1.8940257
0.59661561 6.4873509 -1.8963059
0.63247013 6.4435034 -1.884335
0.67309105 6.4499879 -1.8874702
0.71181077 6.4381146 -1.8851901
0.75074416 6.4288659 -1.8837651
0.79404396 6.4555321 -1.8931707
0.83228618 6.4400821 -1.8900355
0.87165725 6.4339042 -1.8897505
0.91165727 6.4322305 -1.8908905
0.9511075 6.4265156 -1.8908905
0.98935145 6.4129806 -1.8886104
1.0306598 6.4190922 -1.8923156
1.0695534 6.409811 -1.8914605
1.1109916 6.4154053 -1.8951658
1.1506739 6.4103546 -1.8957359
1.190336 6.4050579 -1.8963059
1.2205602 6.3505707 -1.8820549
1.2611853 6.3514233 -1.8846201
1.2964734 6.3257246 -1.8792048
1.3376434 6.3289037 -1.882625
1.378697 6.3308787 -1.8857602
1.4139488 6.3064008 -1.8809148
1.4493835 6.283597 -1.8766396
1.4883543 6.2764506 -1.8772095
1.5306977 6.283031 -1.8820549
1.572014 6.2846785 -1.8854752
1.6131694 6.2851267 -1.8886104
1.6365664 6.2176423 -1.8709391
1.6666917 6.1778708 -1.8618186
1.7089106 6.1832333 -1.8666639
1.7486463 6.1790872 -1.868659
1.787328 6.1710029 -1.8695141
1.8276112 6.168191 -1.8720793
1.8698738 6.1715374 -1.8766396
1.9116786 6.1727657 -1.8806298
1.9460459 6.1499543 -1.8772095
1.9855143 6.1433697 -1.8789197
2.0258768 6.1392627 -1.8814849
2.0592229 6.1140003 -1.8774946
2.0976338 6.1039691 -1.8783497
2.1306064 6.0783205 -1.8743594
2.1656027 6.058815 -1.8723643
2.2030663 6.0463138 -1.8726493
2.2411258 6.0353775 -1.8735044
2.2845635 6.0385451 -1.8789197
2.3215723 6.0244136 -1.8789197
2.3584938 6.0100555 -1.8789197
2.3924801 5.9883504 -1.8766396
2.430985 5.9779968 -1.8780646
2.4632194 5.9523406 -1.8746444
2.4956028 5.9273977 -1.8715092
2.5364559 5.9225464 -1.8749294
2.5708337 5.9024777 -1.8735044
2.6011777 5.8734469 -1.8692291
2.6411042 5.8661156 -1.8720793
2.6770482 5.8497996 -1.8720793
2.7189569 5.8462992 -1.8763546
2.7564168 5.832972 -1.8774946
2.7921555 5.815949 -1.8774946
2.8298903 5.8030148 -1.8789197
2.8599112 5.7743764 -1.8752145
2.8995967 5.7652817 -1.8780646
2.9296842 5.7371387 -1.8746444
2.9661553 5.7216072 -1.8754995
3.0016532 5.7041478 -1.8757845
3.036145 5.6847773 -1.8754995
3.0654862 5.6559291 -1.8720793
3.1075256 5.6504502 -1.8766396
3.1393344 5.6262546 -1.8749294
3.1766312 5.6118903 -1.8766396
3.2114828 5.5931244 -1.8769246
3.2539442 5.5873938 -1.8817699
3.2906044 5.5714488 -1.883195
3.3153679 5.535531 -1.8777796
3.3502662 5.5167222 -1.8783497
3.3805342 5.4903488 -1.8763546
3.4075584 5.4589334 -1.8726493
3.4445784 5.4435916 -1.8746444
3.4789503 5.4239669 -1.8752145
3.5137334 5.4049292 -1.8760695
3.5494688 5.387269 -1.8774946
3.580328 5.3622003 -1.8763546
3.6206844 5.351244 -1.8803449
3.6507401 5.3249745 -1.8789197
3.678422 5.2953897 -1.8763546
3.7113965 5.2735033 -1.8766396
3.7414577 5.24751 -1.8754995
3.7752695 5.2267847 -1.8763546
3.8033066 5.1981077 -1.8743594
3.8511143 5.1962323 -1.88234
3.8811986 5.1702051 -1.8814849
3.9157507 5.1501079 -1.88291
3.9478624 5.1267438 -1.883195
3.9827828 5.1069579 -1.8849051
4.0051303 5.0711427 -1.8806298
4.0361705 5.0464721 -1.8806298
4.0761104 5.032783 -1.8849051
4.1050901 5.0054545 -1.88405
4.128376 4.9713244 -1.8806298
4.1736102 4.9635038 -1.8874702
4.1946645 4.926856 -1.883195
4.2273197 4.9039288 -1.884335
4.2503958 4.8699555 -1.8811998
4.2808318 4.8445024 -1.8814849
4.3277359 4.837429 -1.8891804
4.357336 4.8107834 -1.8891804
4.3789973 4.7754807 -1.8857602
4.399085 4.7386885 -1.8817699
4.4372702 4.721384 -1.8857602
4.459548 4.6871257 -1.88291
4.4948745 4.6665764 -1.8857602
4.5160613 4.631361 -1.882625
4.5524759 4.6117482 -1.8860452
4.5671339 4.5701699 -1.8803449
4.6148624 4.5615983 -1.8886104
4.6420794 4.5325265 -1.8883253
4.6573825 4.4919829 -1.883195
4.6751394 4.4540663 -1.8792048
4.7121549 4.4344912 -1.883195
4.7491064 4.4146295 -1.8871853
4.7626877 4.3730912 -1.8817699
4.7986622 4.3521552 -1.8854752
4.8302746 4.3271055 -1.8874702
4.8538623 4.2948456 -1.8863302
4.8801236 4.2649822 -1.8863302
4.9221668 4.248734 -1.8926007
4.9547095 4.2240477 -1.8951658
4.9783349 4.1917152 -1.8943107
5.0260739 4.1794715 -1.9028614
5.0508833 4.1479454 -1.9025763
5.0553918 4.0999737 -1.8945957
5.0744672 4.0640845 -1.8923156
5.1030684 4.0358443 -1.8937408
5.1247134 4.0020971 -1.8926007
5.1355085 3.9600439 -1.8874702
5.1597099 3.9284585 -1.8874702
5.1975107 3.9070897 -1.8926007
5.2352428 3.8854048 -1.8977309
5.247385 3.8447132 -1.8934557
5.2794213 3.8186214 -1.8965909
5.2972913 3.7822576 -1.8945957
5.3368545 3.7612758 -1.9005812
5.3456674 3.7186086 -1.8954508
5.3652225 3.6835687 -1.8943107
5.4028025 3.6607919 -1.8997262
5.414803 3.6206477 -1.8960209
5.440918 3.5899937 -1.8974459
5.460433 3.5549726 -1.8965909
5.4756904 3.5172582 -1.8943107
5.4939299 3.4815419 -1.8931707
5.5103116 3.4447186 -1.8914605
5.5329762 3.411849 -1.8920306
5.5628161 3.3833125 -1.8951658
5.5777168 3.3456657 -1.8931707
5.616292 3.3221111 -1.8994411
5.6216655 3.2788975 -1.8943107
5.6474957 3.2476859 -1.8963059
5.6806593 3.2205336 -1.9008662
5.7111921 3.191694 -1.9045714
5.7189131 3.1501184 -1.9005812
5.7229695 3.1067398 -1.8954508
5.7622108 3.0824132 -1.9022913
5.7691431 3.0407441 -1.898301
5.7859907 3.0044048 -1.8977309
5.812851 2.9732094 -1.9005812
5.8241358 2.9340377 -1.898301
5.8583455 2.906337 -1.9037164
5.8777905 2.8711774 -1.9042864
5.8546939 2.8155406 -1.8908905
5.8909211 2.7885828 -1.897161
5.8861976 2.7422686 -1.8900355
5.9194694 2.7136865 -1.8954508
5.9534855 2.6851928 -1.9011512
5.9724779 2.6497781 -1.9020063
6.006196 2.6207454 -1.9077066
6.0300922 2.5872428 -1.9102719
6.0387878 2.5472152 -1.9079916
6.0728993 2.5178199 -1.9139771
6.0722547 2.4740028 -1.9088467
6.0748615 2.4317129 -1.9048564
6.0959125 2.3968465 -1.9068516
6.1060333 2.357672 -1.9054265
6.1150064 2.3181241 -1.9037164
6.1363025 2.2832322 -1.9059966
6.1555991 2.2475092 -1.9077066
6.183713 2.2148657 -1.912267
6.1962824 2.176564 -1.9119819
6.2077084 2.1378794 -1.9114119
6.2198009 2.099443 -1.9111269
6.2380261 2.0630443 -1.912837
6.257863 2.0270915 -1.9151171
6.2528224 1.983153 -1.9097018
6.2767744 1.9484411 -1.9134071
6.3023696 1.9140667 -1.9176823
6.3048067 1.8726325 -1.9148321
6.3235426 1.8360485 -1.9171124
6.3310003 1.7961676 -1.9159722
6.3520637 1.7601012 -1.9191074
6.3599682 1.7203422 -1.9182523
6.3778186 1.6832412 -1.9205326
6.3685322 1.6390624 -1.9145471
6.392416 1.6034507 -1.9188224
6.3835106 1.5596507 -1.9131221
6.3873653 1.5191231 -1.9114119
6.4152441 1.4842201 -1.9171124
6.4354525 1.4473509 -1.9205326
6.4385934 1.40661 -1.9188224
6.4339752 1.3642957 -1.9148321
6.4469194 1.3257564 -1.9162573
6.453053 1.2857996 -1.9156872
6.4692917 1.2478126 -1.9182523
6.4900184 1.2105526 -1.9222426
6.4954376 1.1703682 -1.9216726
6.4939971 1.1290147 -1.9191074
6.5083652 1.0904127 -1.9213876
6.5518403 1.0564018 -1.9325033
6.5259924 1.011196 -1.9228127
6.5140595 0.96845931 -1.9173973
6.5341139 0.93049604 -1.9216726
6.5520477 0.89206487 -1.9253778
6.5631013 0.85258532 -1.927088
6.5501347 0.81006676 -1.9216726
6.5188055 0.76561832 -1.9108418
6.5710139 0.7308951 -1.9250928
6.5477295 0.68766385 -1.9168273
6.5384712 0.64615738 -1.912837
6.5919442 0.61061454 -1.927658
6.6022515 0.57073236 -1.9296532
6.6075401 0.53036398 -1.9302232
6.6288323 0.49115342 -1.9356385
6.6192889 0.44962811 -1.9319333
6.6133127 0.40847415 -1.9293681
6.5984678 0.36693302 -1.9242377
6.594851 0.3261556 -1.9225277
6.5938549 0.28556031 -1.9216726
6.6194296 0.24598145 -1.9287981
6.6083598 0.20497663 -1.9250928
6.6315322 0.16496904 -1.9316483
6.6305027 0.12424004 -1.9310782
6.6244311 0.083470337 -1.9290831
6.6248188 0.042822022 -1.9290831
6.6115375 0.0021700438 -1.9250928
6.6344304 -0.038535267 -1.9319333
6.6446118 -0.079370424 -1.9350685
6.6468749 -0.12019199 -1.9359236
6.6584697 -0.16127808 -1.9396288
6.6621451 -0.20227693 -1.9410539
6.6492839 -0.24272966 -1.9376336
