# .PCD v0.7 - Point Cloud Data file format
VERSION 0.7
FIELDS x y z
SIZE 4 4 4
TYPE F F F
COUNT 1 1 1
WIDTH 1546
HEIGHT 1
VIEWPOINT 0 0 0 1 0 0 0
POINTS 1546
DATA ascii
7.4030881 5.1540799 -1.8647004
7.4434438 5.1146541 -1.8669724
7.4965501 5.083714 -1.8725492
7.5406122 5.0463276 -1.875854
7.5730667 5.0010424 -1.8762671
7.5806575 4.9395237 -1.8704838
7.6445661 4.9146118 -1.8789521
7.6770563 4.8691854 -1.8795718
7.6802468 4.8053799 -1.8729624
7.731235 4.7715259 -1.8783325
7.7386379 4.7107697 -1.8729624
7.7556529 4.656146 -1.8700707
7.766396 4.5980024 -1.8657333
7.7927728 4.5492754 -1.8653201
7.8281717 4.5057673 -1.867179
7.8735414 4.4677911 -1.8715165
7.9008069 4.4193959 -1.8715165
7.9294887 4.371779 -1.8719296
7.9449883 4.3169689 -1.8692445
7.977365 4.2713714 -1.8706903
7.9809237 4.2104716 -1.8653201
8.0604343 4.1894011 -1.8781259
8.0920839 4.1429858 -1.8795718
8.1051226 4.0870876 -1.8766801
8.1212845 4.0329266 -1.8746147
8.14324 3.9817297 -1.8739951
8.2036638 3.9490905 -1.8824635
8.2020988 3.886528 -1.8764735
8.2523937 3.8485351 -1.8826699
8.2491751 3.785583 -1.8764735
8.309701 3.7518077 -1.8851485
8.3182583 3.6943948 -1.8818438
8.3470459 3.6460271 -1.8832896
8.3539772 3.588177 -1.8797783
8.4100885 3.5513153 -1.887627
8.4064178 3.4891417 -1.8818438
8.4539413 3.4482129 -1.8878336
8.5058184 3.4086516 -1.8948562
8.494709 3.3438518 -1.887627
8.4995518 3.2856684 -1.8841158
8.4893656 3.2219958 -1.8772998
8.5502348 3.1852176 -1.8865943
8.5732937 3.1340382 -1.8874205
8.5877571 3.0797229 -1.8863878
8.6286449 3.0347636 -1.8913449
8.6286039 2.9753819 -1.8872139
8.6374283 2.9192486 -1.8851485
8.6607513 2.8680413 -1.8863878
8.7051764 2.8236015 -1.8923776
8.7260675 2.7713194 -1.8932039
8.7447767 2.7183058 -1.8936169
8.7481861 2.6606114 -1.8907253
8.7924814 2.6152532 -1.8969216
8.7952089 2.5574291 -1.89403
8.8013239 2.5007401 -1.8919646
8.8155594 2.4464273 -1.891758
8.8455153 2.3963842 -1.8950627
8.8562689 2.3410637 -1.8942366
8.9055223 2.295717 -1.9018787
8.90236 2.2367382 -1.8981609
8.9064131 2.1797459 -1.8960954
8.9062948 2.121881 -1.8932039
8.9086618 2.0647624 -1.8909318
8.9211636 2.010061 -1.8909318
8.9447985 1.9577949 -1.8934103
9.0121527 1.9146696 -1.90539
9.0170231 1.8579535 -1.9039441
8.9985094 1.796651 -1.8975413
9.0237741 1.7441893 -1.9006394
9.0160332 1.6853709 -1.896715
9.0531645 1.6348877 -1.9024984
9.0707369 1.5806518 -1.9041507
9.0696507 1.523182 -1.9018787
9.0179749 1.4576643 -1.8888663
0 0 -0
5.890038 0.87789726 -1.2175927
0 0 -0
0 0 -0
0 0 -0
0 0 -0
0 0 -0
0 0 -0
0 0 -0
0 0 -0
0 0 -0
0 0 -0
0 0 -0
0 0 -0
0 0 -0
0 0 -0
0 0 -0
0 0 -0
0 0 -0
0 0 -0
0 0 -0
0 0 -0
0 0 -0
0 0 -0
0 0 -0
0 0 -0
0 -0 -0
0 -0 -0
0 -0 -0
0 -0 -0
0 -0 -0
0 -0 -0
0 -0 -0
0 -0 -0
0 -0 -0
0 -0 -0
5.878365 -0.39325672 -1.2041672
5.8904791 -0.43038678 -1.2072654
5.8994322 -0.46744862 -1.209744
5.9062018 -0.50447011 -1.2118094
0 -0 -0
5.9463086 -0.58147794 -1.2217236
6.0856886 -0.63281947 -1.2520858
8.9954729 -0.9910289 -1.8708968
8.6578112 -1.0076491 -1.8004647
8.3970184 -1.0295677 -1.7463498
8.31388 -1.0711975 -1.7300327
8.1539488 -1.1015022 -1.6973984
8.0685625 -1.1404253 -1.6806682
8.1456251 -1.2023376 -1.6986377
8.179678 -1.2586925 -1.7075192
8.1582747 -1.3066926 -1.7046275
8.1510687 -1.3568869 -1.7048341
8.1483746 -1.4078746 -1.7060734
8.1386194 -1.4576731 -1.7058668
8.1420288 -1.509902 -1.7085519
8.1124315 -1.5559627 -1.7042145
8.0710583 -1.5994353 -1.6973984
8.0400038 -1.6446155 -1.6928544
8.0230598 -1.6925037 -1.6914086
8.0106115 -1.7412848 -1.6909956
7.9864087 -1.7874132 -1.6881039
7.9619417 -1.8333101 -1.6852123
7.9210267 -1.8751434 -1.6788093
7.8827515 -1.9172374 -1.6730261
7.2984142 -1.8226483 -1.548479
7.5344748 -1.9307765 -1.6023874
7.7940788 -2.0483327 -1.661666
7.7605786 -2.0905197 -1.657122
7.7136507 -2.1287298 -1.6496863
7.6703129 -2.1675069 -1.6430769
7.6333709 -2.2077355 -1.6379132
7.5943484 -2.2470372 -1.6323365
7.5785446 -2.2930264 -1.6319234
7.5549846 -2.3365939 -1.629858
7.5283766 -2.3790741 -1.6271729
7.5266733 -2.4294295 -1.6300645
7.4911804 -2.4688301 -1.6255205
7.4786735 -2.5156844 -1.6261401
7.4769783 -2.5662892 -1.6292384
7.4647851 -2.6134117 -1.6300645
7.4495306 -2.6594946 -1.6302711
7.4367499 -2.7064922 -1.6310973
7.4429379 -2.7605774 -1.6362609
7.4469104 -2.8141484 -1.6410115
7.4505053 -2.867872 -1.645762
7.4783168 -2.931385 -1.6560893
7.462007 -2.9779413 -1.6565024
7.4481268 -3.0255122 -1.6575351
7.4285178 -3.0707822 -1.6573286
7.3842821 -3.105685 -1.6515453
7.374083 -3.1547837 -1.6536107
7.3303618 -3.1894324 -1.648034
7.3097591 -3.2339547 -1.6478275
7.2781777 -3.2735288 -1.6451423
7.2214699 -3.3014476 -1.636674
7.1851044 -3.3382754 -1.6329561
7.1724491 -3.3860586 -1.6348151
7.1400685 -3.424504 -1.63213
7.1057272 -3.461823 -1.6290318
7.0773363 -3.5018866 -1.6273794
7.053093 -3.5439286 -1.6267598
7.0172696 -3.5800252 -1.623455
6.9856138 -3.6180656 -1.621183
6.9650145 -3.6617711 -1.6215961
6.932056 -3.6989117 -1.6191176
6.9083691 -3.7409105 -1.618911
6.8861427 -3.7837002 -1.6191176
6.8636513 -3.8263578 -1.6193242
6.7889423 -3.8395033 -1.6069314
6.7881713 -3.8942318 -1.6125082
6.7844462 -3.9476187 -1.6174653
6.7204905 -3.9658039 -1.6077576
6.8631139 -4.1069384 -1.6488602
6.8536787 -4.1586151 -1.6527846
6.8255329 -4.1990523 -1.6521649
6.8062811 -4.2449961 -1.6538173
6.7809334 -4.2872014 -1.6540239
6.7693286 -4.3382297 -1.6577417
6.7278123 -4.370091 -1.6540239
6.6935158 -4.4064479 -1.6521649
6.6264687 -4.4208302 -1.6420442
6.6089454 -4.4679818 -1.6445228
6.6298399 -4.5416245 -1.6569154
6.5656762 -4.5571151 -1.6476209
6.5271854 -4.5899997 -1.6449358
6.4901328 -4.6237187 -1.6426638
6.4537058 -4.6577287 -1.6405984
6.3626037 -4.6516242 -1.6242813
6.3929172 -4.7342458 -1.6397722
6.3786201 -4.7845373 -1.6436965
6.3203149 -4.8016868 -1.6360544
6.2744484 -4.827848 -1.6317168
6.2200093 -4.8470125 -1.6251074
6.1525145 -4.8553872 -1.6149867
6.1317787 -4.9003768 -1.6174653
6.0985527 -4.9354463 -1.616639
6.0923729 -4.9926181 -1.6232486
6.0540943 -5.0236583 -1.621183
6.014915 -5.0537877 -1.618911
6.0046597 -5.1083503 -1.6246943
5.9694958 -5.1419058 -1.6236616
5.9348836 -5.1758647 -1.6228354
5.8934779 -5.2037644 -1.6201503
5.8621669 -5.2404804 -1.6203569
5.8045101 -5.2533731 -1.6131278
5.7692809 -5.2862458 -1.6123016
5.7453446 -5.3295307 -1.6147802
5.6961303 -5.3492785 -1.6100296
5.6780925 -5.3982854 -1.614367
5.6208925 -5.409956 -1.6073445
5.5840874 -5.4409294 -1.6063118
5.5687094 -5.4929538 -1.6116819
5.525207 -5.5173411 -1.6087903
5.4767985 -5.5365324 -1.6044528
5.4673429 -5.5952249 -1.6118885
5.4485378 -5.6448574 -1.616639
2.254478 -2.3649142 -0.65021157
2.2399247 -2.3787029 -0.65021157
2.2246206 -2.3916855 -0.65000498
2.2105656 -2.4060111 -0.65021157
5.2123165 -5.7426825 -1.5976368
5.1750226 -5.7723713 -1.5970172
5.1602645 -5.8274555 -1.6036267
5.1392274 -5.875947 -1.6083772
5.085166 -5.8866391 -1.6025939
5.0756245 -5.9489908 -1.6112689
5.0011954 -5.9351311 -1.5988761
4.9684396 -5.9702187 -1.6001154
4.9186664 -5.9847188 -1.595778
4.8775358 -6.0094686 -1.5943321
4.868721 -6.0744019 -1.6038332
4.8034229 -6.068871 -1.5943321
2.006397 -2.5675659 -0.64835262
1.987018 -2.5751812 -0.64711338
1.9682143 -2.5834336 -0.64608061
1.9517373 -2.5946798 -0.64587408
1.9311123 -2.6003232 -0.64422172
1.7745152 -2.4203944 -0.5940311
1.7504501 -2.4185565 -0.59072638
1.7020122 -2.3822844 -0.57854021
4.4566159 -6.3183494 -1.5926797
4.390368 -6.3062305 -1.582559
4.3515911 -6.3330503 -1.582559
4.3088059 -6.3539639 -1.5811132
4.255044 -6.3583279 -1.5755365
4.20894 -6.373703 -1.5728514
4.1681499 -6.3969493 -1.5722318
4.1267042 -6.4191122 -1.5714055
4.0877633 -6.4451385 -1.5716121
4.0450258 -6.4651227 -1.5703728
4.0006552 -6.4823275 -1.5685139
3.9562259 -6.4992313 -1.566655
3.97369 -6.6190124 -1.5902013
3.8881366 -6.5674968 -1.5716121
3.8457925 -6.5878506 -1.5707859
1.6833881 -2.9251652 -0.67293161
1.6644422 -2.9337373 -0.67251849
1.6478428 -2.9464567 -0.67313814
3.6947715 -6.7016673 -1.5759495
3.6479752 -6.7138953 -1.573471
3.579921 -6.6861248 -1.5614914
3.5872269 -6.7996941 -1.5833852
3.5598779 -6.8493576 -1.5899947
3.4941494 -6.8249135 -1.5790477
3.4632213 -6.8680658 -1.5842113
3.4005594 -6.8479996 -1.5745038
3.3610559 -6.8740096 -1.575743
3.3264542 -6.9103723 -1.5794609
3.2622018 -6.8846755 -1.5687205
3.2112117 -6.885941 -1.564383
3.1688998 -6.9055152 -1.564383
3.1437833 -6.9631739 -1.5732645
3.0811396 -6.937623 -1.5629371
3.0537891 -6.9913659 -1.5709925
3.0058131 -6.9982848 -1.5683074
2.9723322 -7.0391302 -1.573471
2.9118295 -7.015667 -1.5639699
2.8524663 -6.9935393 -1.5548819
2.817873 -7.0317988 -1.5596324
2.7653546 -7.0252857 -1.5542623
2.7232547 -7.0448589 -1.5548819
2.6733799 -7.0440559 -1.5509576
2.6243007 -7.0447397 -1.5474463
2.5857291 -7.073575 -1.5503379
2.5429385 -7.0911493 -1.550751
2.5019774 -7.1140032 -1.5524033
2.4557278 -7.1218214 -1.550751
2.4079096 -7.1247053 -1.5480659
2.3561497 -7.1151967 -1.5426956
2.3311665 -7.1872225 -1.5555015
2.2852454 -7.195796 -1.5542623
2.2477307 -7.2311721 -1.5590128
2.2104373 -7.26823 -1.5641764
2.1674726 -7.2872829 -1.5654157
2.1208053 -7.2938685 -1.5639699
2.0768135 -7.3095675 -1.5645895
2.0248582 -7.2967176 -1.5590128
1.9721156 -7.2797289 -1.5526099
1.9261605 -7.2869625 -1.5515771
1.8823894 -7.302434 -1.5524033
1.8346856 -7.3024597 -1.5499247
1.7947294 -7.3335376 -1.5542623
1.7512854 -7.3510742 -1.5557081
1.6990764 -7.3311801 -1.5490986
1.6544914 -7.3433766 -1.5495117
1.6073097 -7.343832 -1.5474463
1.5658793 -7.3707833 -1.551164
1.525956 -7.4061265 -1.5567408
1.4758854 -7.3923225 -1.5517837
1.4316136 -7.4070029 -1.553023
1.3825415 -7.3964124 -1.548892
1.3388711 -7.4143848 -1.5509576
1.2930161 -7.4205327 -1.5505444
1.2377347 -7.3704319 -1.5381516
1.1817114 -7.3112411 -1.5239
1.1363776 -7.315454 -1.5232804
1.0926238 -7.3300304 -1.5249327
1.0485955 -7.3433771 -1.5263785
1.0019287 -7.3380399 -1.5239
0.95536685 -7.3324065 -1.5214214
0.90855038 -7.323566 -1.5183233
0.86394042 -7.3319178 -1.518943
0.81861055 -7.3341637 -1.5183233
0.7739014 -7.3419676 -1.518943
0.72816086 -7.3397622 -1.5174971
0.68093514 -7.3207107 -1.51254
0.63591856 -7.3237762 -1.5123335
0.59167713 -7.3363175 -1.5141923
0.54701483 -7.3446889 -1.5152251
0.50193834 -7.3479066 -1.5152251
0.45611405 -7.3391299 -1.5127466
0.41145667 -7.3486285 -1.5141923
0.36635861 -7.3510151 -1.5141923
0.32107568 -7.3492146 -1.5133662
0.27630657 -7.3598461 -1.5152251
0.23126523 -7.3653145 -1.5160513
0.18614243 -7.3695292 -1.5166709
0.14095786 -7.372489 -1.517084
0.095794983 -7.3790855 -1.5183233
0.050542969 -7.3834481 -1.5191494
0.0053157322 -7.4853764 -1.5406302
-0.040624287 -7.4872251 -1.5410433
-0.086215213 -7.4565053 -1.5346404
-0.13307068 -7.518446 -1.5478593
-0.17878172 -7.4998813 -1.5441415
-0.22491382 -7.5025549 -1.5449677
-0.27126181 -7.5098338 -1.5468266
-0.31832656 -7.5314898 -1.5517837
-0.36358765 -7.5098491 -1.5476527
-0.40902126 -7.4957528 -1.5451742
-0.45340681 -7.4667325 -1.5395975
-0.49699497 -7.4306173 -1.5325749
-0.54663932 -7.4830508 -1.544348
-0.59231251 -7.4766297 -1.5437285
-0.63967472 -7.4904027 -1.5474463
-0.68838763 -7.516542 -1.5538491
-0.73297274 -7.4965959 -1.5505444
-0.78189009 -7.5201797 -1.5565343
-0.82748276 -7.5103779 -1.5555015
-0.87648982 -7.5304279 -1.5608717
-0.92339331 -7.5307355 -1.562111
-0.96883374 -7.5191054 -1.5608717
-1.0178325 -7.5343509 -1.5654157
-1.0636326 -7.5250573 -1.5647961
-1.1023585 -7.4680557 -1.5540557
-1.1564916 -7.5153065 -1.5656222
-1.2001078 -7.4926109 -1.5623175
-1.2489501 -7.5024791 -1.5660354
-1.2961267 -7.5014238 -1.5674812
-1.3409231 -7.4865875 -1.5660354
-1.3877264 -7.4830294 -1.5670681
-1.4345366 -7.479178 -1.5681008
-1.4815419 -7.4759936 -1.5693401
-1.5295422 -7.4773073 -1.5716121
-1.5727684 -7.4553356 -1.568927
-1.6180683 -7.4436326 -1.5685139
-1.6624292 -7.427835 -1.5672746
-0.6936537 -3.0113826 -0.61282676
-0.71166742 -3.0051656 -0.6124137
-0.72916865 -2.9969394 -0.61158752
-1.8304698 -7.329741 -1.555295
-1.8676391 -7.2880411 -1.5486856
-0.7774955 -2.9574594 -0.60601079
-0.79537302 -2.9516885 -0.6058042
-0.81164759 -2.9401503 -0.60435838
-0.8304708 -2.9379394 -0.60497802
-2.1025503 -7.2696185 -1.5579801
-2.1476712 -7.2584572 -1.5583931
-2.2006671 -7.2732382 -1.5645895
-1.0783535 -3.4859464 -0.73076439
-2.2953563 -7.2634115 -1.5685139
-2.3428855 -7.2585025 -1.5705794
-2.3824794 -7.2291217 -1.5672746
-1.072814 -3.1885617 -0.6706596
-1.0933112 -3.1846952 -0.67127919
-1.1105686 -3.1714625 -0.66983342
-2.5808821 -7.2292938 -1.5809066
-2.6241879 -7.2105632 -1.580287
-1.1667155 -3.144979 -0.66859412
-1.1759619 -3.1112177 -0.66260427
-1.2287678 -3.1916053 -0.68243271
-1.2586819 -3.2104237 -0.6884225
-2.844861 -7.1284914 -1.5807
-2.8911242 -7.1172471 -1.5821459
-2.9283869 -7.0840011 -1.5786346
-2.9585235 -7.0343318 -1.5714055
-1.2807612 -2.9930842 -0.64773303
-1.2959797 -2.9779916 -0.64608061
-1.3102698 -2.9610355 -0.64401519
-1.3280123 -2.9520478 -0.64380866
-3.1806366 -6.9571772 -1.5753299
-3.2269752 -6.9455166 -1.5771888
-3.2720373 -6.9308944 -1.5784281
-3.3170414 -6.9159803 -1.5796673
-3.3594146 -6.8954973 -1.5796673
-3.4042647 -6.8800163 -1.5809066
-3.4455371 -6.8572502 -1.5804936
-3.4804337 -6.8220339 -1.5771888
-3.5109787 -6.7788291 -1.5720252
-3.5584254 -6.7684174 -1.5747102
-3.6127846 -6.770627 -1.5804936
-3.6575215 -6.754355 -1.5819393
-3.6970119 -6.7283554 -1.5811132
-3.7549002 -6.7354565 -1.5883423
-3.8014553 -6.7216587 -1.5906143
-3.8591795 -6.7270632 -1.5976368
-3.8959551 -6.6956458 -1.595778
-3.9568541 -6.7053218 -1.6040398
-3.9858656 -6.6607661 -1.5990827
-4.0687842 -6.705615 -1.616226
-4.0867839 -6.6430206 -1.6069314
-2.6146147 -4.1918936 -1.0034047
-2.6397638 -4.1749449 -1.0031983
-2.651078 -4.136426 -0.99762148
-2.7019897 -4.1594682 -1.0075357
-2.7274609 -4.1428108 -1.0075357
-2.7316535 -4.0942531 -0.99948037
-2.813163 -4.1609077 -1.0207546
-2.7551506 -4.0216761 -0.98956621
-2.8489499 -4.1043692 -1.0151778
-2.9061587 -4.1324329 -1.026951
-2.9110236 -4.0858345 -1.0195153
-2.9572237 -4.0972524 -1.0271575
-2.9915471 -4.0916681 -1.0304623
-3.0346465 -4.0976119 -1.0368651
-3.0538611 -4.0710869 -1.0347997
-3.0527418 -4.0179906 -1.0257117
-3.0737584 -3.9945307 -1.0244725
-3.1721797 -4.0705276 -1.0498775
-3.2189159 -4.0786386 -1.0573132
-3.2084548 -4.0144773 -1.0453335
-3.1720943 -3.919415 -1.0248855
-3.1483331 -3.8416028 -1.0089815
-3.1755941 -3.8267307 -1.0102208
-3.2204134 -3.8326447 -1.0172434
-3.2616205 -3.8336802 -1.0230266
-3.3010452 -3.8321292 -1.0281903
-3.3540773 -3.8457243 -1.0376914
-3.4009237 -3.8514769 -1.045127
-3.425796 -3.8319957 -1.0455401
-3.4512136 -3.8130796 -1.0461597
-3.4606652 -3.7766817 -1.0418223
-3.4365315 -3.7044435 -1.0271575
-3.5087595 -3.7360692 -1.042442
-3.5268986 -3.7095056 -1.0409961
-3.546201 -3.6842701 -1.0399634
-3.5796649 -3.6736548 -1.0432681
-3.5890844 -3.6383855 -1.0393437
-3.5975149 -3.602447 -1.0352128
-3.6480696 -3.6085188 -1.0436811
-3.6848378 -3.6004276 -1.0480187
-3.4808896 -3.359616 -0.98171747
-3.4674487 -3.3057842 -0.97180325
-3.4463573 -3.2455366 -0.95982361
-3.4927113 -3.2489886 -0.96746582
-3.4880867 -3.2049863 -0.96044326
-3.5026152 -3.17892 -0.95899743
-3.4098668 -3.0567799 -0.92718941
-3.4117115 -3.0208797 -0.92243886
-3.582629 -3.1332355 -0.96519381
-3.647691 -3.1508524 -0.97799963
-3.7116139 -3.1665173 -0.99039239
-3.9576738 -3.3347311 -1.0529758
-3.960012 -3.2953625 -1.0480187
-3.9771338 -3.268517 -1.0471925
-3.9910369 -3.2391193 -1.0455401
-4.0116 -3.2151816 -1.0457467
-4.0320196 -3.1911137 -1.0459532
-4.0361066 -3.1542625 -1.0418223
-3.960887 -3.056505 -1.0166237
-4.0161433 -3.0600171 -1.0263313
-3.981678 -2.9953151 -1.0122862
-3.9355757 -2.9229844 -0.99534947
-3.9652717 -2.9074605 -0.99844766
-3.9957178 -2.8922555 -1.0017524
-4.049211 -2.8932843 -1.011047
-4.0684867 -2.8695123 -1.0114601
-4.0787907 -2.8394628 -1.0096011
-4.2130623 -2.8947339 -1.0395503
-4.2234569 -2.8638859 -1.0376914
-4.1230469 -2.7590065 -1.0077422
-4.1276512 -2.7255681 -1.004644
-4.1434774 -2.6996558 -1.0044374
-4.1607876 -2.67471 -1.004644
-4.1795993 -2.650702 -1.0052637
-4.2190094 -2.6395388 -1.011047
-4.2018218 -2.5930452 -1.0027851
-4.2469044 -2.5850224 -1.0100142
-4.2937231 -2.5775506 -1.0176564
-4.2993546 -2.5451741 -1.0151778
-4.284472 -2.5009861 -1.0077422
-4.3463759 -2.5014973 -1.0191022
-4.3446236 -2.4651229 -1.0149714
-4.3596678 -2.4384186 -1.0149714
-4.3771176 -2.4130394 -1.0155909
-4.3944206 -2.3875382 -1.0162106
-4.4305515 -2.3720767 -1.0213742
-4.4112735 -2.3270397 -1.013319
-4.4246006 -2.2994776 -1.0131124
-4.4987192 -2.303055 -1.027364
-4.4874306 -2.2626312 -1.0213742
-4.5389109 -2.2537684 -1.0302557
-4.5385909 -2.2189984 -1.026951
-4.4868832 -2.1597009 -1.0116665
-4.5433755 -2.1526606 -1.0217873
-4.5290093 -2.1119215 -1.0153844
-4.4814138 -2.0563395 -1.0013393
-4.657135 -2.1024911 -1.0391371
-4.5957298 -2.0409095 -1.0219939
-4.6225123 -2.0189393 -1.0252986
-4.7831483 -2.0542583 -1.0593786
-4.79386 -2.0241094 -1.0589656
-4.8170338 -1.9991583 -1.0614442
-4.8663535 -1.9847162 -1.0699124
-4.7449336 -1.9013108 -1.0395503
-4.7647042 -1.8753865 -1.0414091
-4.8281403 -1.8662269 -1.0531822
-4.8349266 -1.8348308 -1.0521495
-4.8167543 -1.7941983 -1.0455401
-4.8212399 -1.7622577 -1.0440943
-4.8043327 -1.7227321 -1.0378979
-4.9117274 -1.7273113 -1.0595852
-4.9795818 -1.7169191 -1.072391
-5.19209 -1.7546365 -1.1174181
-5.3950243 -1.7864242 -1.1601729
-5.5082598 -1.7864988 -1.182893
-5.5536213 -1.7636267 -1.1905352
-5.5662069 -1.7300981 -1.1909482
-5.5945034 -1.701322 -1.1948726
-5.7989655 -1.7247139 -1.2376276
-5.9174829 -1.7205212 -1.2613804
-6.2187505 -1.7668254 -1.3252031
-6.2568154 -1.7362235 -1.3311929
-7.5309343 -2.0401828 -1.6075511
-6.7685905 -1.7891099 -1.4383901
-6.8107066 -1.7556063 -1.445206
-7.1297536 -1.7912848 -1.5123335
-7.4865484 -1.8321841 -1.5875161
-7.5262032 -1.7930171 -1.5937124
-7.5637517 -1.7529902 -1.5994958
-7.7757645 -1.7519343 -1.6430769
-8.1486168 -1.7834939 -1.7213577
-8.2866964 -1.7605104 -1.7488283
-8.4966679 -1.7507111 -1.7917899
-8.8219633 -1.7613937 -1.8595369
-9.089098 -1.7568187 -1.9146845
-9.172801 -1.7146828 -1.930382
-9.1600409 -1.654193 -1.9254249
-9.1806211 -1.5998051 -1.9276969
-9.1873703 -1.5429575 -1.9270773
-9.2140503 -1.4893669 -1.9307951
-9.255888 -1.4379107 -1.9378177
-9.2132463 -1.3734423 -1.9268707
-9.2515268 -1.3211744 -1.9332737
-9.2691536 -1.2657074 -1.9353391
-9.1952467 -1.1981858 -1.9179893
-9.2810755 -1.1515038 -1.9347194
-9.3054571 -1.0965965 -1.9384373
-9.3158998 -1.0399129 -1.9392635
-9.3298893 -0.98355305 -1.9409158
-9.3386698 -0.92657733 -1.9415355
-9.3412571 -0.86898685 -1.9409158
-9.3317919 -0.81038326 -1.9378177
-9.3053799 -0.7505905 -1.9312083
-9.3059072 -0.69318879 -1.930382
-9.3041286 -0.63567531 -1.9291427
-9.3342209 -0.58021438 -1.9347194
-9.3141594 -0.52161574 -1.9297624
-9.3240252 -0.4647966 -1.9312083
-9.2739162 -0.40526775 -1.9200548
-9.3182716 -0.34993714 -1.9289362
-9.3231773 -0.29284698 -1.9295559
-8.7793217 0.64201456 -1.9295577
-8.7664614 0.69517595 -1.9275929
-8.7406397 0.74712157 -1.9227901
-8.7465811 0.80172032 -1.9251914
-8.6977921 0.85109079 -1.9153674
-8.7186127 0.90717375 -1.9212618
-8.7109423 0.96043891 -1.9208251
-8.7010078 1.0134181 -1.9199519
-8.6665363 1.0633372 -1.9136208
-8.676302 1.1186175 -1.9173322
-8.6760445 1.1727493 -1.9188603
-8.6715841 1.2263727 -1.9195153
-8.6484499 1.2772741 -1.9160223
-8.656846 1.3328427 -1.9197336
-8.6118898 1.3800623 -1.9114376
-8.6090355 1.4338406 -1.9127476
-8.6327696 1.4922938 -1.9201702
-8.6109629 1.542996 -1.9173322
-8.5907793 1.5938433 -1.9149307
-8.5597534 1.6424768 -1.9101278
-8.5772743 1.7004747 -1.9164588
-8.5561619 1.7509184 -1.9140575
-8.5185223 1.7977393 -1.9079447
-8.5311708 1.8551613 -1.9134026
-8.5120087 1.905766 -1.911656
-8.4887438 1.9553287 -1.9090363
-8.4965277 2.0121031 -1.9136208
-8.4963484 2.0671997 -1.9164588
-8.456048 2.1124306 -1.9101278
-8.4627781 2.1693676 -1.9147124
-8.4370384 2.2180262 -1.9118743
-8.4119635 2.2667048 -1.9092546
-8.4035406 2.3198359 -1.9105644
-8.3760023 2.3676374 -1.907508
-8.3481932 2.4151883 -1.9044516
-8.349124 2.4710767 -1.908163
-8.37957 2.5361173 -1.9188603
-8.3340197 2.5782523 -1.9118743
-8.3105993 2.6269865 -1.9101278
-8.2581072 2.6662314 -1.9016136
-8.2573471 2.722048 -1.9053249
-8.2497377 2.7757764 -1.907508
-8.2131691 2.8196864 -1.9029235
-8.1874237 2.8671246 -1.9009587
-8.2027617 2.9291265 -1.9088179
-8.2093925 2.9884188 -1.9147124
-8.1817522 3.0353389 -1.9125292
-8.1337643 3.0744388 -1.9055432
-8.1038189 3.1200798 -1.9029235
-8.0845213 3.1697452 -1.9029235
-8.0785151 3.2247198 -1.9061981
-8.0296469 3.2624691 -1.8992121
-8.0536642 3.3299537 -1.9099095
-8.0339804 3.3796859 -1.9101278
-7.9960461 3.4216211 -1.9059799
-7.982059 3.4737358 -1.9077264
-7.9561324 3.5206723 -1.9066348
-7.9139123 3.5602129 -1.9016136
-7.8910308 3.6082988 -1.9013953
-7.870512 3.6574719 -1.9018319
-7.8549809 3.7090302 -1.9035784
-7.8250365 3.7537799 -1.9018319
-7.7922068 3.7970192 -1.8994304
-7.7713861 3.8460586 -1.9000853
-7.7589755 3.899369 -1.9029235
-7.7236037 3.9411359 -1.9000853
-7.7018752 3.9898 -1.9007403
-7.6763859 4.0365281 -1.900522
-7.6308126 4.0725236 -1.8952825
-7.6339955 4.1346092 -1.9024868
-7.5947995 4.1738505 -1.8989938
-7.5698986 4.2208486 -1.8992121
-7.5430083 4.2667365 -1.8989938
-7.538692 4.3255696 -1.90467
-7.4850206 4.3560333 -1.897684
-7.4556303 4.4003901 -1.897029
-7.4661679 4.4686122 -1.9068531
-7.4135823 4.4991474 -1.9003037
-7.3633976 4.5307403 -1.8944092
-7.36692 4.5954671 -1.9027052
-7.2948732 4.6129341 -1.8911345
-7.2910767 4.6734099 -1.897684
-7.2516265 4.7111464 -1.8948458
-7.2176929 4.7523322 -1.893536
-7.189209 4.7970715 -1.8937542
-7.1758065 4.8520279 -1.8981205
-7.1378503 4.8904495 -1.8959374
-7.1053038 4.9324846 -1.8952825
-7.0469699 4.956336 -1.8876415
-6.9917903 4.9819236 -1.8808738
-6.9998589 5.0527229 -1.8915712
-6.9632106 5.0915451 -1.8900429
-6.9530096 5.1498599 -1.8959374
-6.9298658 5.1988692 -1.8983389
-6.9071589 5.2483783 -1.9009587
-6.8663192 5.2841129 -1.8985572
-6.8091388 5.3069444 -1.8915712
-6.7450447 5.3238311 -1.8826203
-6.7427397 5.3894939 -1.8913529
-6.7087851 5.430151 -1.8911345
-6.6760945 5.4718318 -1.8913529
-6.6386399 5.5095758 -1.8902613
-6.5815511 5.5307403 -1.8834935
-6.5207376 5.5482502 -1.8756343
-6.5324059 5.6276531 -1.8891697
-6.5124588 5.6804605 -1.893536
-6.4694362 5.7132068 -1.8911345
-6.4451699 5.7625527 -1.8944092
-6.4046264 5.7974062 -1.892881
-6.3459139 5.8154936 -1.885895
-6.3258481 5.868926 -1.890698
-6.2911406 5.9089665 -1.8911345
-6.2505226 5.9434218 -1.8898246
-6.2160459 5.9836931 -1.8904796
-6.1771169 6.0196776 -1.8898246
-6.1240883 6.0417013 -1.8848034
-6.1145177 6.1067524 -1.893536
-6.0494862 6.1163983 -1.8848034
-6.0118432 6.1534019 -1.8848034
-5.987525 6.2042198 -1.8891697
-5.9601159 6.2521453 -1.8926628
-5.9162903 6.2829137 -1.8909162
-5.8709822 6.3119502 -1.888733
-5.8440247 6.3607922 -1.8926628
-5.8022628 6.3936396 -1.8917894
-5.7863688 6.4552846 -1.8996488
-5.7634678 6.5096669 -1.9053249
-5.7182784 6.5390306 -1.9035784
-5.6729455 6.5680852 -1.9018319
-5.6319046 6.6020279 -1.9016136
-5.5900321 6.6349673 -1.9011769
-5.5560803 6.6773949 -1.9035784
-5.5187206 6.7158852 -1.9048883
-5.49155 6.7670512 -1.9099095
-5.454196 6.8059502 -1.9114376
-5.4062781 6.8316355 -1.9092546
-5.3684635 6.8700624 -1.9107827
-5.3226323 6.8982368 -1.9094728
-5.2819791 6.933095 -1.9101278
-5.2346468 6.9591346 -1.9083813
-5.1860309 6.9832873 -1.9061981
-5.1413536 7.0126157 -1.9055432
-5.0947962 7.0392866 -1.9042333
-5.0424328 7.0577092 -1.9007403
-5.0119658 7.1068606 -1.9057615
-4.9782982 7.1518979 -1.9096912
-4.9420557 7.1935716 -1.9127476
-4.9120603 7.2447624 -1.9184238
-4.8734827 7.2836885 -1.9208251
-4.8243985 7.3069391 -1.9190787
-4.7693543 7.3208666 -1.9149307
-4.7285647 7.3565607 -1.9166772
-4.6995344 7.4109869 -1.923445
-4.6539731 7.439683 -1.923445
-4.6164341 7.4813881 -1.9269379
-4.578558 7.5229125 -1.930431
-4.5448651 7.571784 -1.9358888
-4.482914 7.5734925 -1.9291211
-4.4334087 7.5957994 -1.9278113
-4.4022903 7.6499276 -1.9347973
-4.3316779 7.6352019 -1.9240999
-4.295701 7.6812282 -1.9291211
-4.2480178 7.7065864 -1.9289027
-4.2174172 7.7633796 -1.9367621
-4.1572704 7.7658796 -1.9308676
-4.1295691 7.8292241 -1.9404734
-4.062108 7.8171773 -1.9310859
-4.048296 7.9088483 -1.947896
-3.9777319 7.889966 -1.9369804
-3.9392235 7.9343295 -1.9420016
-3.8626144 7.90136 -1.9278113
-3.833945 7.9662433 -1.938072
-3.7778921 7.9746246 -1.9343606
-3.7445557 8.0312672 -1.9426565
-3.7061908 8.078042 -1.9485509
-3.6549494 8.0970726 -1.9476777
-3.6119285 8.13451 -1.9513891
-3.5662429 8.166357 -1.9537905
-3.5210721 8.1997433 -1.9566286
-3.4760051 8.2337809 -1.959685
-3.4119577 8.2225037 -1.9518257
-3.3636513 8.2487068 -1.9531356
-3.3118863 8.2664728 -1.9524807
-3.2532425 8.2666588 -1.9476777
-3.2024579 8.2864647 -1.9476777
-3.1570902 8.3205585 -1.9511708
-3.1069982 8.3425169 -1.9518257
-3.0614433 8.3770065 -1.9555371
-3.0073516 8.3882847 -1.9537905
-2.9610028 8.4213095 -1.9572835
-2.9083211 8.436552 -1.9566286
-2.8621213 8.4708805 -1.9605583
-2.805799 8.4753122 -1.9575019
-2.7531409 8.4905119 -1.9570652
-2.6968596 8.4942226 -1.9540088
-2.6464262 8.516202 -1.9553187
-2.5963919 8.5397501 -1.9570652
-2.5417199 8.5480366 -1.9553187
-2.4837768 8.5447292 -1.9509524
-2.4384966 8.5851555 -1.956847
-2.3855124 8.5990152 -1.9566286
-2.3349998 8.6219683 -1.9585934
-2.280308 8.629529 -1.9570652
-2.2297492 8.6528082 -1.9592483
-2.1770899 8.6682205 -1.959685
-2.1189942 8.6615086 -1.9551004
-2.0617411 8.657259 -1.9511708
-2.0167272 8.7049236 -1.9592483
-1.9619911 8.711422 -1.9579384
-1.9064174 8.7137623 -1.9557554
-1.8492681 8.7081127 -1.9518257
-1.7973752 8.726943 -1.9535722
-1.7445573 8.7416353 -1.9544455
-1.6871871 8.7330112 -1.9500792
-1.6375109 8.7643042 -1.9548821
-1.5824908 8.7674637 -1.9533539
-1.5321785 8.7971983 -1.9579384
-1.4778483 8.8045092 -1.9575019
-1.4223974 8.8047409 -1.9555371
-1.3672986 8.8065519 -1.9540088
-1.3156793 8.8311853 -1.9577202
-1.2726252 8.917347 -1.9754035
-1.2156445 8.9085493 -1.9716922
-1.1588198 8.8993893 -1.9679809
-1.1083903 8.9402294 -1.9756218
-1.0487252 8.9061556 -1.9664527
-0.99276179 8.9007845 -1.963833
-0.93966037 8.9212656 -1.9671077
-0.88134569 8.8909321 -1.95903
-0.83038253 8.9350405 -1.9677626
-0.77436352 8.9263563 -1.9647062
-0.71942133 8.9289942 -1.9642695
-0.66396999 8.9244814 -1.9623047
-0.61125338 8.9585695 -1.9690725
-0.55603182 8.9582558 -1.9681993
-0.50230461 8.9839087 -1.9732205
-0.4462035 8.9673281 -1.9688542
-0.38977367 8.9377241 -1.9616498
-0.33514395 8.9457989 -1.9629596
-0.28097743 8.971096 -1.9681993
-0.2260976 8.9794807 -1.9697274
-0.17136534 9.0002127 -1.9740937
-0.11583868 8.9776754 -1.9688542
-0.060575619 8.951869 -1.9629596
-0.0056316624 8.9218197 -1.956192
0.049304139 8.955842 -1.963833
0.10428968 8.9582987 -1.9644879
0.15918492 8.9535866 -1.9636146
0.21395588 8.945612 -1.9620864
0.26925331 8.9577875 -1.9651428
0.32470822 8.9696198 -1.9681993
0.38015279 8.9772081 -1.9703823
0.43437564 8.9571619 -1.9664527
0.48783308 8.9270439 -1.9603399
0.54265857 8.9248571 -1.9605583
0.59616899 8.9028597 -1.9564103
0.65185422 8.9136324 -1.959685
0.704835 8.8880634 -1.9548821
0.76043999 8.8962116 -1.9577202
0.8151902 8.893322 -1.9581568
0.86869645 8.8774691 -1.9557554
0.92143208 8.8554707 -1.952044
0.97907031 8.8797197 -1.9588118
1.0309372 8.8512506 -1.9537905
1.0867747 8.8573503 -1.9566286
1.1444745 8.876647 -1.9625231
1.1934234 8.8288412 -1.9533539
1.2503093 8.8406773 -1.9577202
1.3063864 8.8453894 -1.9605583
1.3597443 8.8314199 -1.9592483
1.4120528 8.811347 -1.9566286
1.4660915 8.8025169 -1.9566286
1.5209069 8.7981634 -1.9577202
1.5678005 8.7492838 -1.9487693
1.6239495 8.7529316 -1.9518257
1.670633 8.7063847 -1.9435297
1.7293402 8.7227716 -1.9496425
1.7802845 8.6995678 -1.9468045
1.8404862 8.7209444 -1.9542271
1.8923023 8.7018585 -1.9524807
1.9392601 8.6615162 -1.9459312
1.9932464 8.6532574 -1.9468045
2.0503545 8.6579571 -1.9507341
2.0997467 8.6300421 -1.9472411
2.1436677 8.5810194 -1.9389452
2.2064624 8.6074066 -1.9481144
2.2706542 8.6371193 -1.9581568
2.3050635 8.5542412 -1.9422199
2.3673806 8.5756817 -1.9505159
2.3997717 8.4896269 -1.933924
2.4607718 8.5056763 -1.9411284
2.5201194 8.5147457 -1.9468045
2.5607221 8.4608288 -1.9378536
2.6172051 8.4598732 -1.9413466
2.6723015 8.4538898 -1.9437481
2.7094254 8.3918304 -1.9330508
2.7636166 8.3833885 -1.9350156
2.8075321 8.3440762 -1.9297761
2.8558245 8.3183861 -1.9278113
2.9045529 8.2942591 -1.926283
2.9639266 8.3001757 -1.9319592
3.008455 8.26441 -1.9278113
3.0499399 8.2210932 -1.9219167
3.1048133 8.2140903 -1.9247549
3.1642752 8.2185621 -1.930431
3.222127 8.21807 -1.9350156
3.2703199 8.1927071 -1.9337057
3.3028898 8.1290922 -1.9232266
3.3403978 8.0789146 -1.9160223
3.3880136 8.0537682 -1.9149307
3.4369826 8.0319309 -1.9147124
3.5025616 8.0482712 -1.9238815
3.534498 7.9873648 -1.9142758
3.581038 7.9601879 -1.9129659
3.6277838 7.9336276 -1.9118743
3.6805091 7.9200683 -1.9140575
3.7407069 7.9220428 -1.9201702
3.7732012 7.8655081 -1.9118743
3.8051436 7.8088741 -1.9035784
3.8503883 7.7801318 -1.9022685
3.888849 7.73805 -1.897684
3.9402487 7.7218652 -1.8996488
3.9992287 7.7200708 -1.9053249
4.0442514 7.6910682 -1.9042333
4.1060739 7.6936564 -1.9112194
4.1341443 7.6331377 -1.9022685
4.1935959 7.6307168 -1.908163
4.2298803 7.586092 -1.9033601
4.2763481 7.5599952 -1.9033601
4.3207116 7.5302281 -1.9024868
4.3633981 7.4976711 -1.9009587
4.4122977 7.4757991 -1.9022685
4.4520698 7.4385371 -1.8996488
4.4915509 7.4010696 -1.897029
4.5322747 7.365891 -1.8950641
4.5820355 7.3453941 -1.897029
4.6416268 7.3402333 -1.9031417
4.6607685 7.2713604 -1.8924444
4.6967888 7.2295332 -1.8889514
4.7346187 7.1907983 -1.8863317
4.788403 7.1762223 -1.8902613
4.8476539 7.1693397 -1.8963741
4.8672791 7.1040411 -1.8867682
4.9079938 7.0700345 -1.8856767
4.940052 7.0238237 -1.8813105
4.9722948 6.9782805 -1.8771625
5.0532942 7.0006499 -1.8917894
5.069653 6.9332786 -1.881747
5.1161656 6.9075303 -1.8832753
5.1572819 6.8744469 -1.8828386
5.2011371 6.8450041 -1.8834935
5.2108946 6.7712035 -1.8717046
5.2685442 6.7598825 -1.8775991
5.3256454 6.7473421 -1.8832753
5.3760872 6.7259707 -1.8865499
5.3822536 6.6496253 -1.874106
5.4130545 6.6044002 -1.8706131
5.450983 6.5680585 -1.8697398
5.4962044 6.5404649 -1.8714863
5.5324378 6.5021586 -1.8701764
5.5722299 6.4680896 -1.8701764
5.6066799 6.4278946 -1.8684299
5.6473074 6.3948345 -1.8688666
5.6903424 6.3644276 -1.8701764
5.7332168 6.3337326 -1.8714863
5.7633991 6.289083 -1.8686482
5.7819648 6.232142 -1.8620988
5.8167548 6.1929908 -1.8610072
5.8593526 6.1621332 -1.8625355
5.8902836 6.1190352 -1.8603523
5.9304433 6.0855732 -1.8612256
5.9628739 6.0442076 -1.8596973
6.0039864 6.0116487 -1.8610072
6.0588021 5.9925356 -1.8666834
6.0968537 5.9566107 -1.86712
6.1199446 5.9062147 -1.862972
6.1412339 5.854414 -1.8583875
6.1962256 5.8346825 -1.864282
6.2283363 5.7932305 -1.8631904
6.2637658 5.7549052 -1.8631904
6.3011274 5.7183304 -1.8638453
6.3375497 5.6808619 -1.864282
6.3715568 5.641222 -1.8640636
6.4097242 5.6052322 -1.8651552
6.4432578 5.5651593 -1.8649369
6.4839664 5.531219 -1.8669018
6.535697 5.5064182 -1.8721412
6.5551062 5.4543548 -1.8679932
6.6005149 5.4239421 -1.8714863
6.6268506 5.3778067 -1.8695215
6.6780019 5.3516879 -1.874761
6.7244892 5.3215103 -1.8786906
6.7623982 5.2843547 -1.8802189
6.7962403 5.2439542 -1.8806555
6.837605 5.20925 -1.8832753
6.8522806 5.1542935 -1.8784723
6.8861284 5.1138968 -1.8791273
6.8898287 5.0513568 -1.8714863
6.9372964 5.0209999 -1.8760709
6.9973564 4.9993253 -1.8841485
7.0127459 4.945612 -1.8800006
7.0365515 4.8980303 -1.8782541
7.0873876 4.8691273 -1.8839302
7.1462116 4.8452597 -1.8917894
7.1320052 4.7720213 -1.8800006
7.1635947 4.7297831 -1.8806555
7.2096539 4.6969233 -1.8852401
7.221097 4.6415186 -1.8806555
7.2659254 4.6075735 -1.8850218
7.3106084 4.5732527 -1.889388
7.3269038 4.5211363 -1.8863317
7.376183 4.4892826 -1.8920078
7.3232579 4.3957353 -1.8710496
7.429038 4.3974338 -1.8915712
7.4339652 4.3389797 -1.885895
7.4612947 4.2937708 -1.8861133
7.4866514 4.247427 -1.885895
7.5474958 4.2209349 -1.8948458
7.5484667 4.1608863 -1.8885148
7.5438404 4.0981908 -1.8808738
7.5817504 4.0587325 -1.8841485
7.5978794 4.0075836 -1.8819654
7.6084704 3.9536908 -1.8784723
7.6291118 3.9051533 -1.8775991
7.6782017 3.8710055 -1.8839302
7.692194 3.8190477 -1.8815287
7.6961932 3.7623508 -1.8767258
7.7718973 3.7404425 -1.8898246
7.7788262 3.6851661 -1.885895
7.802176 3.637779 -1.8861133
7.8145928 3.5853622 -1.8837118
7.8426719 3.5401549 -1.8852401
7.8571105 3.4887993 -1.8834935
7.9177217 3.4577024 -1.8930993
7.8894672 3.3878834 -1.8810921
7.9208956 3.3439639 -1.8837118
7.9719129 3.308012 -1.8911345
8.0092306 3.2660341 -1.8952825
8.0191545 3.2128379 -1.892881
8.0423498 3.1650019 -1.8937542
8.0470533 3.1099684 -1.8902613
8.0915327 3.0702243 -1.8963741
8.1257668 3.0263059 -1.9000853
8.1423492 2.9757204 -1.8996488
8.1705599 2.9293253 -1.9020503
8.197587 2.8823724 -1.9042333
8.1966658 2.8256602 -1.8998671
8.1981316 2.7700047 -1.8961557
8.2436943 2.7291539 -1.9029235
8.2621412 2.679122 -1.9033601
8.2663326 2.6245384 -1.900522
8.3083754 2.5818732 -1.9066348
8.3063211 2.525454 -1.9024868
8.3123064 2.4716597 -1.9003037
8.3357496 2.4230602 -1.9022685
8.3664198 2.3763983 -1.9059799
8.365797 2.3208461 -1.9024868
8.3732862 2.2676861 -1.9009587
8.4153481 2.2237415 -1.907508
8.3806372 2.1596508 -1.8963741
8.4173937 2.1141274 -1.9018319
8.4605417 2.0698564 -1.9088179
8.5044117 2.0253613 -1.9160223
8.4938622 1.967858 -1.9107827
8.4657898 1.9067032 -1.9016136
8.5173712 1.863477 -1.9107827
8.5525103 1.8162452 -1.9162406
8.5453329 1.7599958 -1.9120927
8.5511856 1.7065753 -1.9110011
8.5538301 1.6525941 -1.9092546
8.6031408 1.607421 -1.9182054
8.5869112 1.549926 -1.912311
8.5808773 1.4945314 -1.9088179
8.6062479 1.4445962 -1.9125292
8.6322908 1.3945612 -1.9164588
5.8845882 0.91402447 -1.2925187
5.8466501 0.87143469 -1.2826946
5.8171072 0.83058488 -1.2748353
5.806623 0.79276705 -1.2713423
5.7949266 0.75498337 -1.2676309
5.7878284 0.71797282 -1.2650112
5.7804942 0.68107784 -1.2623914
5.7622576 0.64311141 -1.2573702
5.7544489 0.60651761 -1.2547505
5.7629175 0.57167828 -1.2558421
5.7575712 0.53549528 -1.2538773
5.7461653 0.49889418 -1.2506025
5.7432818 0.46315747 -1.2492926
5.7547746 0.42855915 -1.2512574
5.7602167 0.39343938 -1.2519124
0 0 -0
0 0 -0
0 0 -0
0 0 -0
0 0 -0
0 0 -0
0 0 -0
0 0 -0
0 0 -0
0 0 -0
0 0 -0
0 -0 -0
0 -0 -0
0 -0 -0
0 -0 -0
0 -0 -0
0 -0 -0
0 -0 -0
0 -0 -0
0 -0 -0
0 -0 -0
0 -0 -0
0 -0 -0
0 -0 -0
0 -0 -0
0 -0 -0
0 -0 -0
0 -0 -0
8.688632 -0.95797616 -1.9158039
8.631217 -1.0052801 -1.9042333
8.3720818 -1.0271697 -1.8472534
7.9997745 -1.0313034 -1.7647309
7.9149632 -1.0697709 -1.7470475
7.7633133 -1.0977989 -1.7143005
7.6608582 -1.1312852 -1.6926875
7.5756483 -1.1662312 -1.6750041
7.7244473 -1.2377285 -1.7103709
7.7215204 -1.2859037 -1.7114625
7.6952143 -1.3300971 -1.7073145
7.6801844 -1.3760833 -1.7057863
7.6763935 -1.4240727 -1.7068778
7.6646361 -1.4705954 -1.7062229
7.6487679 -1.5162677 -1.7046947
7.6469684 -1.5647373 -1.7064413
7.60285 -1.6043699 -1.6985819
7.5909557 -1.6505749 -1.6981454
7.5797324 -1.6969076 -1.697927
7.5530119 -1.7396581 -1.6942157
7.5089598 -1.7780944 -1.6865747
7.4391208 -1.8098236 -1.6730393
7.2839694 -1.8194652 -1.6398556
7.3842115 -1.8927336 -1.6656166
7.4017162 -1.9457022 -1.6723844
7.4047141 -1.995146 -1.6758773
7.3951545 -2.0413225 -1.6765323
7.379673 -2.0858631 -1.6758773
7.3629856 -2.1300194 -1.6750041
7.334806 -2.1707244 -1.6715111
7.3194809 -2.2151234 -1.6710745
7.2721906 -2.2496059 -1.6632152
7.2684851 -2.2974215 -1.6656166
7.2496085 -2.3404772 -1.664525
7.2378912 -2.3858328 -1.66518
7.2101674 -2.4258401 -1.6621236
7.1766882 -2.4636953 -1.6577573
7.1632781 -2.5083294 -1.6581939
7.1440763 -2.5509222 -1.6573207
7.122788 -2.5927057 -1.6560109
7.1122346 -2.6383989 -1.6573207
7.0949988 -2.6816437 -1.6571023
7.0793219 -2.7254782 -1.6573207
7.0597401 -2.7677958 -1.6566658
7.0217795 -2.8027375 -1.6516446
6.9881768 -2.8391554 -1.6477149
6.961607 -2.8782506 -1.6455318
6.9348207 -2.9171267 -1.6433486
6.9114079 -2.9573188 -1.6420387
6.8859739 -2.9965546 -1.6402923
6.8674579 -3.0387497 -1.6402923
6.8460135 -3.0796289 -1.6396374
6.8216639 -3.1191416 -1.6383274
6.8032813 -3.1613512 -1.6385458
6.7784615 -3.2005351 -1.6372359
6.7622151 -3.2437556 -1.6381091
6.7360439 -3.2821934 -1.6365809
6.7122798 -3.3217313 -1.6357076
6.6917715 -3.3628547 -1.6357076
6.6597118 -3.3980834 -1.6328696
6.626606 -3.4325969 -1.6298132
6.6140561 -3.4777353 -1.6319963
6.5908709 -3.5173337 -1.6315597
6.5571523 -3.5512002 -1.6285033
6.5292525 -3.5880764 -1.6269751
6.4985909 -3.623318 -1.624792
6.4847298 -3.6679304 -1.6269751
6.4460206 -3.6984208 -1.6228272
6.4459777 -3.7511594 -1.6287216
6.4329238 -3.7965941 -1.6313413
6.4053206 -3.833488 -1.6302499
6.364994 -3.8625901 -1.6258836
6.3287077 -3.8938994 -1.6226088
6.3560276 -3.9646881 -1.6361443
6.2952924 -3.9806592 -1.6265385
6.296216 -4.0355401 -1.6333061
6.4178066 -4.1692824 -1.6723844
6.3863988 -4.2048254 -1.6708561
6.3499265 -4.2368894 -1.6680181
6.3464437 -4.2910805 -1.6741308
6.2910151 -4.3100801 -1.6662716
6.2492208 -4.3380246 -1.6621236
6.2208891 -4.3751645 -1.661687
6.1780329 -4.4019246 -1.6573207
6.1485333 -4.4380355 -1.6566658
6.1345768 -4.4854727 -1.6603771
6.0849833 -4.506763 -1.6542643
6.0470691 -4.5364003 -1.6514262
6.0121279 -4.5681043 -1.6494614
5.9839854 -4.604908 -1.6494614
5.9471517 -4.6349382 -1.6470599
5.9017496 -4.6580386 -1.6422571
5.8418064 -4.6691775 -1.6333061
5.9055786 -4.779851 -1.6599405
5.8421788 -4.7881551 -1.6501163
5.8171945 -4.8276515 -1.6514262
5.7717752 -4.8500681 -1.6468416
5.7240715 -4.8702116 -1.6416022
5.6741204 -4.888042 -1.6357076
5.6506391 -4.9285398 -1.6376724
5.6356511 -4.976686 -1.6422571
5.5984621 -5.0053172 -1.6402923
5.5712614 -5.0428495 -1.6413838
5.5207911 -5.059135 -1.6354893
5.4910755 -5.0942421 -1.635926
5.4483352 -5.1171474 -1.6324329
5.4132986 -5.147119 -1.6313413
5.3619313 -5.1612849 -1.6252286
5.3147874 -5.1791019 -1.6204257
5.2947173 -5.223268 -1.624137
5.2763762 -5.2694516 -1.6285033
5.243258 -5.3010335 -1.6282851
5.2201791 -5.3428798 -1.6313413
2.2872365 -2.3689861 -0.69695932
2.2726574 -2.3829756 -0.69695932
2.2573242 -2.3961651 -0.69674098
2.2439082 -2.4113998 -0.69717765
5.0115819 -5.4544959 -1.6173693
4.9616261 -5.4670749 -1.6119114
4.9325461 -5.5025029 -1.6134397
4.8999844 -5.5341268 -1.6138763
4.8659353 -5.5640883 -1.6138763
4.8227739 -5.5834994 -1.6108199
4.7751255 -5.5973935 -1.6062353
4.7256026 -5.608674 -1.6009958
4.6929717 -5.6398149 -1.6016507
4.665092 -5.6767988 -1.6040522
4.6418538 -5.7197156 -1.6082002
4.6066709 -5.7480898 -1.6082002
4.5567832 -5.7578797 -1.6029606
1.9908934 -2.5465806 -0.68342388
1.9782106 -2.5626121 -0.68451542
1.9618582 -2.5739255 -0.68429714
1.9489605 -2.5898147 -0.68538868
1.9347782 -2.604075 -0.68604362
1.855304 -2.5293171 -0.66202915
1.7608045 -2.4315476 -0.63190186
1.7469862 -2.4438941 -0.63233852
1.7184621 -2.4354255 -0.62709898
4.2079506 -6.0448928 -1.6079818
4.1464715 -6.0352039 -1.598376
4.1011486 -6.0484157 -1.5951014
4.0758958 -6.091311 -1.5999042
4.043282 -6.1235356 -1.6018691
4.0093603 -6.1539536 -1.6033973
3.9657221 -6.1694078 -1.6009958
3.9377201 -6.2092848 -1.6051438
3.8886805 -6.2159538 -1.6005591
3.8520038 -6.2421889 -1.6012141
3.8126154 -6.2640395 -1.6007775
3.7670786 -6.2756004 -1.5977211
3.7220407 -6.2876787 -1.594883
3.6779802 -6.3011265 -1.5924816
3.6251354 -6.2990451 -1.5861505
1.6592333 -2.9231918 -0.71224129
1.6412657 -2.9333174 -0.71224129
1.6227654 -2.9424782 -0.71202296
3.442445 -6.3363738 -1.5734882
3.4384959 -6.4227686 -1.5900801
3.3767185 -6.4014478 -1.5793828
3.3243303 -6.3969321 -1.5730517
3.2943523 -6.4354534 -1.5776362
3.2596343 -6.4651318 -1.5800377
3.221205 -6.4876332 -1.5806926
3.1796231 -6.5037689 -1.5798193
3.1320415 -6.5073271 -1.5758897
3.1050024 -6.5537639 -1.5826575
3.0894668 -6.6257639 -1.5957563
3.0414307 -6.6286287 -1.5918267
2.9922719 -6.6284862 -1.587242
2.9527318 -6.6493974 -1.5878969
2.9142189 -6.6727562 -1.5892068
2.8732207 -6.6905122 -1.5892068
2.8313556 -6.7062178 -1.5887703
2.7901537 -6.723464 -1.5887703
2.7462683 -6.7341318 -1.587242
2.7048967 -6.7508559 -1.587242
2.6648521 -6.7709584 -1.5881153
2.6211462 -6.7817202 -1.5868055
2.5659881 -6.7620897 -1.5782912
2.5190008 -6.7630744 -1.5747982
2.4864969 -6.8031526 -1.5806926
2.4503036 -6.8338985 -1.584404
2.4151206 -6.8681388 -1.5889885
2.3703897 -6.8754473 -1.587242
2.3403363 -6.9259205 -1.5957563
2.2876782 -6.9095764 -1.5885519
2.2398229 -6.9067736 -1.5846223
2.1976967 -6.9213171 -1.5848405
2.1592398 -6.9477186 -1.5878969
2.1205411 -6.9739089 -1.5909534
2.0791001 -6.991466 -1.5920449
2.0342562 -6.9975319 -1.5905167
1.9795552 -6.968576 -1.5809109
1.933109 -6.9674253 -1.5778545
1.8951659 -6.9970531 -1.5820025
1.8330094 -6.9358983 -1.5651923
1.7911472 -6.9498501 -1.5658473
1.7434806 -6.9408326 -1.5612627
1.7059587 -6.9722548 -1.5660657
1.6742178 -7.0291095 -1.576763
1.6270941 -7.0221372 -1.5728333
1.5876194 -7.0481734 -1.5765446
1.5389231 -7.0329952 -1.5708685
1.4987794 -7.0566244 -1.5741432
1.454469 -7.0609088 -1.5730517
1.4080628 -7.054388 -1.5695586
1.3590167 -7.0331912 -1.5627909
1.3222841 -7.0759325 -1.5706502
1.2788421 -7.0839124 -1.5706502
1.2325075 -7.0752816 -1.5669389
1.1919767 -7.1000347 -1.5708685
1.1473007 -7.100471 -1.5693403
1.0995228 -7.0803757 -1.5632275
1.0574945 -7.0966415 -1.5654107
1.0126907 -7.0943012 -1.5634458
0.96993268 -7.1061831 -1.5647558
0.92543048 -7.105227 -1.5632275
0.88253587 -7.1165824 -1.5645374
0.83919477 -7.1247711 -1.5651923
0.79578632 -7.1326957 -1.5658473
0.75057662 -7.123857 -1.5627909
0.70492852 -7.1089058 -1.5584246
0.6636405 -7.1383615 -1.5641009
0.62387019 -7.1889668 -1.5745798
0.5784958 -7.1770954 -1.5710869
0.53415793 -7.1766171 -1.5702136
0.48752707 -7.1417885 -1.5616994
0.44538596 -7.1719174 -1.5678121
0.39952353 -7.141387 -1.5603895
0.35671312 -7.1641722 -1.5649741
0.31359568 -7.1857252 -1.5693403
0.26920775 -7.1797128 -1.5675938
0.22511835 -7.180254 -1.5673755
0.18159457 -7.2029624 -1.5721784
0.13678567 -7.1717429 -1.5649741
0.092915222 -7.1831813 -1.5673755
0.048844781 -7.1845918 -1.5675938
0.004759545 -7.1837807 -1.5673755
-0.039407365 -7.1992884 -1.5708685
-0.083362393 -7.1803703 -1.5667206
-0.12769832 -7.1953354 -1.5702136
-0.17121226 -7.1680751 -1.5643191
-0.2158982 -7.1903005 -1.5695586
-0.26033187 -7.1976171 -1.5715234
-0.30490485 -7.2056346 -1.5737066
-0.34920684 -7.2055774 -1.5741432
-0.39357299 -7.2062221 -1.5747982
-0.43671376 -7.1861386 -1.5708685
-0.48040688 -7.1774812 -1.5695586
-0.52572149 -7.1919174 -1.5734882
-0.57030398 -7.1943932 -1.5747982
-0.61510313 -7.1985369 -1.5765446
-0.66095585 -7.2130914 -1.5806926
-0.70406008 -7.1972451 -1.5780729
-0.74942178 -7.2044373 -1.5806926
-0.79222131 -7.1870933 -1.5778545
-0.83506227 -7.1714349 -1.5754532
-0.88273776 -7.1962023 -1.5822208
-0.93112326 -7.2235575 -1.5896435
-0.96849364 -7.1664538 -1.5780729
-1.0099859 -7.1429839 -1.5741432
-1.055936 -7.1511331 -1.577418
-1.107226 -7.1927443 -1.5883336
-1.1425301 -7.1308918 -1.5758897
-1.1947669 -7.1747646 -1.5874604
-1.236938 -7.1567211 -1.5850589
-1.2753154 -7.118259 -1.5780729
-1.3276973 -7.1573143 -1.5887703
-1.3669881 -7.1250739 -1.5833124
-1.4078324 -7.1021934 -1.5800377
-1.4519714 -7.0962896 -1.5806926
-1.4954861 -7.0872469 -1.5806926
-1.5457917 -7.109405 -1.5878969
-1.5893852 -7.0997863 -1.5878969
-1.6305077 -7.0794401 -1.5854956
-0.71358055 -3.0164762 -0.65373325
-0.73138338 -3.0091963 -0.65307826
-0.74723059 -2.9942377 -0.65067685
-1.7911475 -6.9881387 -1.5741432
-1.8295238 -6.9600286 -1.5702136
-0.79764557 -2.9630163 -0.64674717
-0.81347305 -2.9496002 -0.64478236
-0.83129054 -2.9436142 -0.64456403
-2.0079203 -6.9411559 -1.576763
-2.058785 -6.9567761 -1.5833124
-2.1031291 -6.9496169 -1.5846223
-2.1367869 -6.9076819 -1.5778545
-1.0812685 -3.422899 -0.76332664
-2.2306926 -6.9097276 -1.5846223
-2.2693801 -6.884789 -1.5820025
-1.0815121 -3.2165146 -0.71944559
-1.0879139 -3.1710536 -0.71027642
-1.1063827 -3.1615558 -0.70962149
-2.4704878 -6.9189219 -1.6038339
-2.462471 -6.7651711 -1.5708685
-1.1379038 -3.069293 -0.69259304
-1.1798412 -3.1234107 -0.70722008
-1.2277459 -3.1907871 -0.72512174
-1.2644053 -3.2268014 -0.73560083
-2.6966991 -6.7562361 -1.5876787
-2.7355316 -6.7332339 -1.5861505
-2.7738106 -6.7091079 -1.584404
-1.2701585 -3.0212007 -0.69346631
-1.2825278 -2.998996 -0.68997329
-1.2966202 -2.9812279 -0.68757182
-1.3129132 -2.9687541 -0.68648028
-2.9887185 -6.6440024 -1.5900801
-3.0375478 -6.6432881 -1.5944464
-3.0860693 -6.6413383 -1.5985943
-3.1438503 -6.6584558 -1.6075453
-3.1922464 -6.6548772 -1.6114749
-3.2377234 -6.644814 -1.6138763
-2.0418704 -4.1270456 -0.99037278
-2.0794282 -4.1388526 -0.99648553
-2.1176512 -4.1512218 -1.0028167
-2.1448786 -4.1416159 -1.0036899
-2.1461728 -4.082602 -0.99211925
-2.1891067 -4.102931 -1.0006335
-2.2137759 -4.0885634 -1.0004152
-2.2486937 -4.0928617 -1.0049998
-2.2894516 -4.1071119 -1.0122041
-2.3213375 -4.1048775 -1.0152605
-2.3474524 -4.0922494 -1.0156971
-2.3695719 -4.0727086 -1.0143872
-2.412874 -4.0891852 -1.0224649
-2.458472 -4.1086321 -1.0314157
-2.4846487 -4.0951385 -1.0318524
-2.5127983 -4.0848022 -1.0331622
-2.5295491 -4.0560603 -1.0296692
-2.5423903 -4.0214939 -1.024648
-2.553323 -3.9844589 -1.0189718
-2.6165416 -4.028451 -1.0349088
-2.6449678 -4.0180254 -1.0364369
-2.6110618 -3.9140584 -1.012859
-2.6328421 -3.8947303 -1.0119858
-2.663862 -3.8889668 -1.0148239
-2.6737587 -3.852509 -1.009366
-2.7136309 -3.8591769 -1.0156971
-2.7434897 -3.8511951 -1.0180986
-2.7962036 -3.87464 -1.0292326
-2.9086468 -3.9787116 -1.0628529
-2.9173198 -3.9396183 -1.0569584
-2.9355805 -3.9138384 -1.0547752
-2.9453678 -3.8771057 -1.0495358
-2.8887401 -3.754565 -1.0200634
-2.879323 -3.6952093 -1.0082744
-2.8686829 -3.6353459 -0.9962672
-2.9329836 -3.6702683 -1.0113308
-2.9474659 -3.6423428 -1.0084928
-2.9524355 -3.6030581 -1.00238
-3.0243545 -3.6449435 -1.0198451
-3.0366156 -3.6143653 -1.0163521
-3.0758133 -3.6157303 -1.0222465
-3.1259711 -3.629317 -1.0318524
-3.1930912 -3.6615419 -1.0471343
-3.2316496 -3.6601653 -1.0525922
-3.2475417 -3.6329932 -1.050409
-3.2769773 -3.6209559 -1.0528104
-3.2569301 -3.5547407 -1.0388384
-3.3384247 -3.5990679 -1.0584866
-3.3577724 -3.575671 -1.0576134
-3.3971355 -3.5733857 -1.0632895
-3.4277968 -3.5616128 -1.0661275
-3.4591224 -3.5502965 -1.0691839
-3.5569272 -3.6061072 -1.0934168
-3.5272589 -3.5324347 -1.0770432
-3.4995983 -3.4620085 -1.061543
-3.5012274 -3.4213774 -1.0554302
-3.4884446 -3.367306 -1.0449511
-3.5153983 -3.3518972 -1.046916
-3.442816 -3.2426362 -1.0183169
-3.469794 -3.2280958 -1.0205001
-3.4967232 -3.2133462 -1.0226831
-3.5055327 -3.1819944 -1.0194085
-3.4007154 -3.0490568 -0.98207682
-3.4135139 -3.0229585 -0.98033035
-3.614203 -3.1612492 -1.0344721
-3.6556907 -3.1581471 -1.0410215
-3.7886062 -3.232543 -1.0744234
-3.8135941 -3.2136364 -1.0759517
-3.796479 -3.159596 -1.0652543
-3.7554703 -3.0866842 -1.0477892
-3.6758199 -2.983655 -1.0194085
-3.7854497 -3.0342648 -1.0456061
-3.8376708 -3.037622 -1.0552119
-3.7078145 -2.8980672 -1.0130774
-3.7695708 -2.9092367 -1.0255213
-3.8479054 -2.9321733 -1.0425497
-3.7410314 -2.8146644 -1.0076195
-3.7684174 -2.7992194 -1.0104576
-3.7674191 -2.7627752 -1.0054364
-3.8182969 -2.7642055 -1.0148239
-3.7851565 -2.7049911 -1.0010701
-3.8272054 -2.6997092 -1.0080562
-3.8557136 -2.6845362 -1.0113308
-3.8873971 -2.6713247 -1.0154788
-3.9101772 -2.6518023 -1.0172253
-3.9709876 -2.6576016 -1.0292326
-4.0580773 -2.6799562 -1.0482259
-3.9223454 -2.5559459 -1.0076195
-3.9888558 -2.564539 -1.021155
-4.0424304 -2.5640509 -1.0311974
-4.0043058 -2.5055652 -1.017007
-4.0785742 -2.5173249 -1.0325073
-4.0781031 -2.4826143 -1.0283593
-4.1083217 -2.466583 -1.0322889
-4.1158204 -2.4368556 -1.0303241
-4.1011939 -2.3943419 -1.0226831
-4.1183462 -2.3705924 -1.0233381
-4.1379075 -2.3481667 -1.024648
-4.1539412 -2.3236852 -1.0250846
-4.1647019 -2.2962694 -1.0242114
-4.1469827 -2.2534401 -1.0161338
-4.1306171 -2.2118361 -1.0084928
-4.1510167 -2.1900909 -1.0102392
-4.1496544 -2.1569319 -1.0065279
-4.1593361 -2.1296513 -1.0056547
-4.1810398 -2.1084819 -1.0078379
-4.2000175 -2.085825 -1.009366
-4.2109833 -2.0591578 -1.0089294
