# .PCD v0.7 - Point Cloud Data file format
VERSION 0.7
FIELDS x y z
SIZE 4 4 4
TYPE F F F
COUNT 1 1 1
WIDTH 1499
HEIGHT 1
VIEWPOINT 0 0 0 1 0 0 0
POINTS 1499
DATA ascii
6.0558305 14.406752 -1.7177434
6.1636481 14.415009 -1.7233255
6.2658505 14.408814 -1.7272329
6.3481154 14.356463 -1.7255584
6.4515676 14.351685 -1.7298007
6.5333118 14.29827 -1.7281262
6.6987653 14.425559 -1.7488916
6.810051 14.432716 -1.7549202
6.8903189 14.373633 -1.752799
6.9792542 14.332871 -1.7530223
7.0683894 14.29245 -1.7533573
7.1702237 14.277228 -1.7569299
7.2712345 14.259522 -1.7602792
7.3722973 14.241115 -1.7636284
7.4442868 14.16658 -1.7599442
7.5834455 14.218843 -1.7724482
7.661561 14.155439 -1.770327
7.8200254 14.238819 -1.7870733
7.9241753 14.220951 -1.7909808
8.0161743 14.180713 -1.7920972
8.1163807 14.154536 -1.7951115
8.2210636 14.135394 -1.7991307
8.3354082 14.131762 -1.805271
8.4199219 14.07694 -1.8048245
8.5215979 14.050502 -1.8081737
8.634716 14.041968 -1.8139791
8.7659235 14.061248 -1.8235804
8.8791113 14.05004 -1.8292741
9.0058899 14.05889 -1.8377589
9.1260757 14.055877 -1.8447924
9.2367296 14.036973 -1.8498163
9.3728552 14.055271 -1.8599758
9.5012054 14.060073 -1.8684605
9.6316509 14.066287 -1.8772804
9.7642269 14.073877 -1.886435
9.8892574 14.068984 -1.8940266
10.016323 14.065514 -1.9019533
10.15767 14.080354 -1.9125593
10.282571 14.070718 -1.9199277
10.416012 14.071259 -1.9288591
10.534346 14.050019 -1.9348878
10.67144 14.052388 -1.9443774
10.81017 14.055177 -1.9540902
10.94567 14.052086 -1.9631333
11.106155 14.079067 -1.976642
11.242572 14.073547 -1.9856851
11.389962 14.080016 -1.996626
11.545408 14.094428 -2.0089066
11.701458 14.10746 -2.0211873
11.847236 14.106167 -2.0315702
11.958029 14.061975 -2.0358126
12.036305 13.979301 -2.0344727
12.125119 13.90893 -2.0350311
12.174068 13.793291 -2.0288906
12.241258 13.699066 -2.0259879
12.302416 13.598641 -2.0221922
12.355421 13.489922 -2.0171683
12.417691 13.391994 -2.013819
12.469024 13.282944 -2.008795
12.535232 13.190337 -2.0063388
12.587683 13.083813 -2.0017617
12.638606 12.97643 -1.9970726
12.686593 12.866793 -1.9920487
12.742137 12.765496 -1.9883645
12.789146 12.656315 -1.9834522
12.850219 12.561626 -1.9808844
12.913472 12.469426 -1.9787632
12.97392 12.374866 -1.9763072
13.032248 12.278671 -1.9736277
13.090612 12.182904 -1.9710599
13.145366 12.084193 -1.9680456
13.196459 11.982598 -1.9645847
13.246061 11.880168 -1.9610121
13.300856 11.782852 -1.9583327
13.347476 11.678768 -1.9545369
13.402343 11.582355 -1.9520807
13.439146 11.470869 -1.9470568
13.489523 11.371538 -1.9441541
13.536132 11.269479 -1.9408048
13.586604 11.171062 -1.9381254
13.633292 11.069946 -1.9349995
13.678476 10.968058 -1.9317619
13.719808 10.863564 -1.9280776
13.774465 10.769994 -1.9264029
13.814331 10.665232 -1.9227188
13.858964 10.564603 -1.9198161
13.891768 10.455463 -1.9153504
13.926945 10.34869 -1.9113313
13.991783 10.264216 -1.9115546
14.041622 10.168845 -1.9097682
14.092436 10.074405 -1.9082053
14.132875 9.9728489 -1.9053025
14.186462 9.8808308 -1.9042978
14.234539 9.7851543 -1.9026232
14.272109 9.6825647 -1.8996089
14.300698 9.5743542 -1.895478
14.334302 9.4699926 -1.8921288
14.37216 9.3688354 -1.8894494
14.407645 9.2664967 -1.8865466
14.436543 9.1603479 -1.8828624
14.454573 9.0478668 -1.8778385
14.474304 8.9370766 -1.8731495
14.498315 8.8294868 -1.8691305
14.519847 8.7209167 -1.8648881
14.561969 8.6250763 -1.8634367
14.603462 8.529048 -1.8619853
14.642603 8.4318438 -1.8603107
14.68283 8.3354616 -1.8588593
14.706816 8.2301674 -1.8553984
14.753558 8.1378536 -1.8549519
14.794482 8.0424271 -1.8538355
14.827784 7.9430518 -1.8518258
14.851635 7.838932 -1.8486999
14.867715 7.7311511 -1.8446808
14.870649 7.6171255 -1.8390987
14.899363 7.5167847 -1.8368658
14.924735 7.4150524 -1.834298
14.963704 7.3202796 -1.8335165
15.010129 7.2291884 -1.8337398
15.035347 7.1280117 -1.8313953
15.031973 7.0137715 -1.8255899
15.039505 6.9052329 -1.8212359
15.073442 6.8091402 -1.8202311
15.10404 6.7116804 -1.8188914
15.144938 6.6188774 -1.8188914
15.188004 6.5270023 -1.8192263
15.219529 6.4302068 -1.8182216
15.256862 6.335938 -1.8179983
15.294531 6.2418289 -1.8178866
15.33531 6.1489754 -1.8182216
15.39864 6.0649614 -1.8213475
15.450393 5.976099 -1.8231338
15.483054 5.8797736 -1.8226873
15.516047 5.7836194 -1.8223523
15.53911 5.6838675 -1.8209009
15.569016 5.5867362 -1.8203428
15.619876 5.4970398 -1.8223523
15.669281 5.4066052 -1.8242502
15.706867 5.3119507 -1.8248085
15.726902 5.211411 -1.8233571
15.764254 5.1166553 -1.8240269
15.772622 5.0126076 -1.8213475
15.801185 4.9151435 -1.8211242
15.871925 4.8305392 -1.8259249
15.912696 4.7364626 -1.8272645
15.944321 4.6395679 -1.8275995
15.964842 4.5394735 -1.8267063
15.977075 4.4371743 -1.8249201
16.047161 4.3507605 -1.829944
16.106218 4.2608566 -1.8337398
16.126286 4.1604609 -1.8330699
16.1544 4.062161 -1.8334049
16.183847 3.9641449 -1.833963
16.196266 3.8620019 -1.8326234
16.237083 3.7665935 -1.834633
16.265705 3.6682055 -1.8353028
16.298586 3.5706716 -1.8365309
16.332823 3.4732854 -1.8379822
16.361614 3.3746099 -1.8388754
16.399553 3.2776594 -1.8408849
16.414476 3.176028 -1.8403267
16.442448 3.0768962 -1.8413315
16.439503 2.9720595 -1.8388754
16.479946 2.8750613 -1.8414432
16.474737 2.7700975 -1.8388754
16.513987 2.6726105 -1.8414432
16.545786 2.5736763 -1.8432294
16.574043 2.4740126 -1.8446808
16.638098 2.3793046 -1.8502629
16.656322 2.277709 -1.8507094
6.6623654 0.86920762 -0.71686947
6.6320715 0.82389921 -0.71285033
6.5846968 0.77701467 -0.70693332
6.5656385 0.73394608 -0.70425391
6.5551944 0.69208026 -0.70257926
6.547451 0.65066534 -0.70123953
6.5325208 0.60872573 -0.69911832
6.5430627 0.56923479 -0.69989985
6.5404892 0.52859592 -0.69923002
6.5317178 0.48756585 -0.69789028
6.5226893 0.44666338 -0.69655055
6.5223317 0.4064469 -0.69621563
6.5207338 0.36619586 -0.69576907
6.5198808 0.32602942 -0.69543415
6.519773 0.28593084 -0.69521087
6.5273628 0.24614593 -0.69588071
6.5227909 0.20590167 -0.69521087
6.5139971 0.1656215 -0.69409442
6.5158844 0.12566847 -0.69420606
6.5224948 0.085764155 -0.69487596
6.5278668 0.045776412 -0.69543415
6.5170937 0.0057110596 -0.69420606
6.534893 -0.034370158 -0.69621563
6.5425086 -0.074556962 -0.69710881
6.544909 -0.11475172 -0.69744372
6.5609703 -0.15530711 -0.69934165
6.5628738 -0.19565021 -0.69967657
6.5833983 -0.23669976 -0.7021327
6.5848007 -0.27721548 -0.70246762
6.6018353 -0.3185226 -0.70458883
6.6225791 -0.36026487 -0.7071566
6.6351228 -0.40179357 -0.70883125
6.6870675 -0.4461334 -0.71497154
6.7040267 -0.4885996 -0.71720439
14.356742 -1.13448 -1.5799767
14.742606 -1.2560298 -1.6242987
14.669306 -1.3404983 -1.6169304
14.579702 -1.4225712 -1.6077757
14.568723 -1.5117986 -1.6075524
14.543367 -1.5994245 -1.6057661
10.580888 -1.2295102 -1.1587501
10.574131 -1.2945309 -1.1588616
10.570917 -1.3600219 -1.1594199
10.564342 -1.4251239 -1.1596432
10.555399 -1.4899187 -1.1596432
10.56867 -1.5579898 -1.1622109
13.879803 -2.1330712 -1.5396738
13.771269 -2.2029724 -1.5288445
13.840817 -2.3012817 -1.5383341
13.99781 -2.4157345 -1.5578715
13.945552 -2.4949286 -1.553629
13.885033 -2.572125 -1.5484935
14.140317 -2.7092514 -1.5795301
14.252106 -2.821434 -1.5942669
13.35144 -2.7283971 -1.4930073
14.227105 -2.9983709 -1.595495
14.20844 -3.0856104 -1.595495
14.195059 -3.1740346 -1.5961648
14.166599 -3.259069 -1.59516
14.133763 -3.3429592 -1.5937088
8.2640371 -2.0084288 -0.91749084
8.2428808 -2.0569332 -0.91648602
13.852266 -3.5468473 -1.5684775
13.873495 -3.6431332 -1.5735015
7.6317 -2.054384 -0.84994721
7.626615 -2.1032858 -0.85084033
14.04222 -3.9651165 -1.6013004
14.0224 -4.0525827 -1.6018586
8.0049639 -2.3669925 -0.89985132
7.9769726 -2.4120393 -0.89828837
7.952528 -2.4580057 -0.89717191
7.9401393 -2.5076528 -0.89750683
8.4551821 -2.7274518 -0.9601382
13.643808 -4.4935374 -1.575846
13.610329 -4.5752702 -1.5751761
13.575418 -4.6564388 -1.5743946
7.7441063 -2.7096717 -0.88377482
13.461097 -4.8026452 -1.567696
13.408027 -4.8766594 -1.5649049
13.368534 -4.9553838 -1.5637885
13.333228 -5.035563 -1.5632303
13.292805 -5.1137118 -1.5621139
13.240821 -5.1872044 -1.5596578
13.163514 -5.2503123 -1.5541873
13.124606 -5.3283668 -1.5534058
13.071459 -5.4004502 -1.5509497
13.023418 -5.4743924 -1.5491633
12.965825 -5.5440421 -1.5462607
12.909692 -5.6139841 -1.5435812
12.855007 -5.6842499 -1.5411252
12.793602 -5.7512045 -1.5378876
12.746322 -5.8242278 -1.5364362
12.701332 -5.8981428 -1.5353197
12.657713 -5.9725733 -1.5344266
12.61097 -6.0454021 -1.5331985
12.570065 -6.1209278 -1.5327519
12.535834 -6.1997032 -1.5331985
12.410528 -6.2328 -1.5222576
12.333982 -6.2894216 -1.517457
12.266036 -6.3499079 -1.5137727
12.246196 -6.4352202 -1.5162289
12.186313 -6.499485 -1.5136611
12.137464 -6.5694065 -1.5125448
12.089087 -6.6394515 -1.5115399
12.03857 -6.7081833 -1.5103118
11.985072 -6.7750783 -1.5087489
11.934654 -6.8435469 -1.5076324
11.880412 -6.9096532 -1.5060694
11.808689 -6.9652553 -1.5022736
11.781933 -7.0472727 -1.5043948
11.70873 -7.1013966 -1.5004873
11.646313 -7.1616549 -1.4980311
11.574321 -7.2156324 -1.494347
11.518909 -7.279614 -1.4928956
11.468166 -7.3464036 -1.4921142
11.404537 -7.4047279 -1.489658
11.345606 -7.4658256 -1.4878718
11.297929 -7.5341978 -1.4876485
11.240784 -7.5961456 -1.4861971
11.172644 -7.6503778 -1.4832944
11.13284 -7.723886 -1.4842992
11.052717 -7.7691922 -1.4798335
11.000791 -7.8339825 -1.4792752
10.96944 -7.9135432 -1.4816197
10.912653 -7.9748383 -1.4805033
10.861917 -8.0404644 -1.48028
10.802836 -8.0998077 -1.4789404
10.75056 -8.1641369 -1.4786054
10.695537 -8.2263126 -1.4779356
10.628396 -8.2789602 -1.4755911
10.574276 -8.3415575 -1.4751445
10.528329 -8.4106245 -1.475926
10.48116 -8.478817 -1.4765959
10.412793 -8.5297441 -1.4742514
10.330429 -8.5687332 -1.4698973
10.251023 -8.6095905 -1.4659898
10.188919 -8.6646023 -1.4646502
10.128031 -8.7204733 -1.4635336
10.078827 -8.7863712 -1.4642036
10.029196 -8.8519945 -1.4648734
9.9709873 -8.9100552 -1.4643152
9.911706 -8.9670677 -1.4636453
9.8469725 -9.0189905 -1.462194
9.7848892 -9.0731602 -1.4611892
9.7312059 -9.1350689 -1.4615241
9.6692085 -9.1891298 -1.460631
9.6097784 -9.2455301 -1.4601845
9.5421896 -9.2939205 -1.4585098
9.4729538 -9.3404341 -1.4566119
9.4316406 -9.4145298 -1.4591796
9.3778906 -9.4764624 -1.4598495
9.320262 -9.5345364 -1.4599612
9.258132 -9.5879707 -1.4594029
6.9960012 -7.3349237 -1.1008077
6.9753966 -7.4037499 -1.1048267
9.0726337 -9.7487564 -1.4581748
9.0166807 -9.8086309 -1.4588447
8.9623384 -9.8703928 -1.4598495
8.9042606 -9.9281578 -1.460296
6.7377572 -7.6060529 -1.1035987
6.677218 -7.6315465 -1.1012542
6.5262985 -7.5520749 -1.0833914
2.1301043 -2.4961123 -0.33069852
2.099376 -2.4909008 -0.32801908
2.0846884 -2.504499 -0.32813072
2.0673883 -2.5149405 -0.3277958
2.0556765 -2.532207 -0.32846567
2.0419655 -2.5470986 -0.32880059
2.0392535 -2.5759404 -0.33114508
2.0191247 -2.5829246 -0.33036357
1.9819825 -2.5677347 -0.3264561
1.9408863 -2.5466552 -0.32176712
1.9156619 -2.5458126 -0.31998083
1.8970414 -2.5535307 -0.31942263
1.8836889 -2.5683277 -0.31986919
1.8818839 -2.5991538 -0.3225486
1.8878621 -2.6413713 -0.32679102
1.8888085 -2.6772633 -0.33014029
1.8899529 -2.714081 -0.33360121
1.8800195 -2.7354534 -0.33494091
1.8704529 -2.757628 -0.33639225
1.8501799 -2.7640984 -0.33572242
1.8364717 -2.7803736 -0.33639225
1.8166635 -2.7874272 -0.33583406
7.2183208 -11.223285 -1.4611892
7.1312175 -11.238836 -1.4573934
7.0510502 -11.264692 -1.4550489
6.9781437 -11.301826 -1.4542674
6.907115 -11.341884 -1.4539324
6.8256235 -11.364458 -1.4513646
6.7496867 -11.395865 -1.450025
6.6841464 -11.444789 -1.4510298
6.6237154 -11.50281 -1.4532626
6.5554638 -11.547557 -1.4538208
6.4825449 -11.584094 -1.4533743
6.4166241 -11.633224 -1.4546024
6.3489199 -11.679361 -1.4554955
6.2635283 -11.692695 -1.4522578
6.1745014 -11.69839 -1.448127
6.0925188 -11.716659 -1.445671
6.0223241 -11.75736 -1.4461175
5.9473834 -11.788767 -1.4454477
5.8775897 -11.830377 -1.4461175
5.8459401 -11.950128 -1.4566119
5.7699184 -11.980401 -1.455942
5.709497 -12.043415 -1.4594029
5.6283488 -12.062912 -1.457505
5.5554705 -12.099929 -1.45784
5.4856224 -12.14375 -1.4590679
5.4005136 -12.15357 -1.4561653
5.2975826 -12.121827 -1.4482387
5.1932836 -12.084717 -1.4397539
5.0873199 -12.041292 -1.4305992
5.0102906 -12.064939 -1.4297061
4.9399223 -12.104655 -1.4308225
4.8607483 -12.122747 -1.4293711
4.7585945 -12.082074 -1.4208863
4.6718225 -12.078606 -1.4169788
4.5902123 -12.087535 -1.4146343
4.5121398 -12.10523 -1.4134063
4.4360719 -12.128022 -1.412848
4.3588867 -12.14753 -1.4119549
4.2839389 -12.173109 -1.4118433
4.2094898 -12.200106 -1.4119549
4.134552 -12.225705 -1.4119549
4.060709 -12.254617 -1.4124014
3.9854398 -12.279303 -1.4124014
3.9076123 -12.295949 -1.4115083
3.8264837 -12.301665 -1.4093871
3.7463002 -12.309701 -1.4076009
3.6704154 -12.331504 -1.4074892
3.5991242 -12.36906 -1.4092755
3.5228896 -12.389955 -1.4091638
3.4462681 -12.409423 -1.4089406
3.3731811 -12.441844 -1.4102802
3.3028762 -12.485364 -1.4129597
3.2336533 -12.534263 -1.416309
3.161531 -12.573143 -1.4185418
3.0843241 -12.592304 -1.4185418
3.0044656 -12.60036 -1.4173137
2.945286 -12.696968 -1.4263568
2.8627319 -12.694444 -1.4240123
2.7784057 -12.682649 -1.420663
2.6935053 -12.666409 -1.4168671
2.6129243 -12.669073 -1.4153042
2.5322175 -12.67025 -1.4136295
2.4474409 -12.649449 -1.4094988
2.3674028 -12.65153 -1.4080474
2.2911444 -12.673642 -1.4089406
2.2153869 -12.699209 -1.4102802
2.13693 -12.709623 -1.4099454
2.0565231 -12.707781 -1.4082707
1.9775944 -12.714269 -1.4076009
0.43072376 -2.8877814 -0.29006067
1.8247987 -12.761189 -1.4102802
0.40023634 -2.9292791 -0.29419145
0.25106344 -1.9265821 -0.18031622
0.23936 -1.9290725 -0.18042786
0.22705287 -1.9265573 -0.17998129
0.21379149 -1.9150755 -0.17852995
0.20234998 -1.9193161 -0.17886488
0.1922411 -1.9373323 -0.1807628
0.17951988 -1.9295703 -0.17975801
0.67947143 -7.8092775 -0.84269047
0.22792976 -2.8230906 -0.28023615
0.58336633 -7.8140545 -0.84235549
0.13204382 -1.9324033 -0.17964637
0.12092675 -1.945079 -0.18098608
0.1087108 -1.9408234 -0.18042786
0.096800081 -1.9414539 -0.18042786
0.086193755 -1.9717951 -0.18377714
0.089809582 -2.3883708 -0.2305553
0.11501855 -3.6493134 -0.37222946
0.091282666 -3.5972989 -0.36631241
0.070227198 -3.65045 -0.37222946
0.04768274 -3.6398818 -0.37100139
0.025115963 -3.6073132 -0.3673172
0.0029786357 -3.604418 -0.36698228
-0.019111887 -3.5993998 -0.36642405
-0.042030465 -3.6727474 -0.37468562
-0.23080038 -13.187103 -1.443773
-0.085314922 -3.5964513 -0.36620077
-0.10726252 -3.591887 -0.36575422
-0.13011976 -3.6140027 -0.36832199
-0.55398291 -13.168531 -1.4427682
-0.63635147 -13.19764 -1.4464524
-0.72093129 -13.259971 -1.4539324
-0.23101403 -3.8120756 -0.39109704
-0.25162426 -3.7689414 -0.38640806
-0.27409574 -3.7584064 -0.38540328
-0.29629093 -3.7457564 -0.38417521
-0.32103986 -3.7646613 -0.3865197
-0.3466647 -3.7903302 -0.38964567
-1.2994671 -13.317669 -1.46532
-1.3789023 -13.2877 -1.4628638
-1.458236 -13.259233 -1.460631
-1.5366991 -13.225358 -1.45784
-0.361485 -2.9503326 -0.29597771
-0.37552446 -2.9165189 -0.29240516
-1.7920933 -13.285436 -1.468111
-1.8805202 -13.32339 -1.4736931
-1.9623805 -13.312584 -1.4738048
-2.0559509 -13.377888 -1.4826245
-0.4849003 -3.0292308 -0.3066954
-0.5021745 -3.0183561 -0.30580226
-2.2984662 -13.318192 -1.4803917
-2.3752422 -13.276448 -1.4772657
-2.4619088 -13.289961 -1.4805033
-2.5363033 -13.237516 -1.4762609
-0.55323297 -2.7929168 -0.28191078
-0.57135427 -2.7943377 -0.282469
-0.58562058 -2.7771659 -0.28090599
-0.59948695 -2.7589536 -0.27923137
-0.6151033 -2.7494044 -0.2785615
-3.0478847 -13.248502 -1.4893231
-3.1227148 -13.202473 -1.4861971
-3.2158659 -13.233277 -1.4920025
-3.30422 -13.242222 -1.4953518
-3.3834388 -13.213997 -1.4944587
-0.73632652 -2.8027558 -0.28760454
-0.75170219 -2.7914679 -0.28682306
-3.6223938 -13.136068 -1.4928956
-3.7072475 -13.128896 -1.494682
-0.79799074 -2.7599742 -0.28481349
-0.80758548 -2.7302485 -0.28191078
-0.93647808 -3.0962207 -0.32545131
-4.0468149 -13.093777 -1.5017154
-4.1414437 -13.114185 -1.5070742
-4.2346444 -13.128249 -1.5117632
-4.3272405 -13.138831 -1.5161172
-4.4137936 -13.12993 -1.5182384
-4.5345736 -13.220099 -1.5321938
-4.6070728 -13.167639 -1.529291
-4.6644077 -13.073605 -1.521476
-1.1704792 -3.2172537 -0.34666336
-1.1566974 -3.1196263 -0.33583406
-1.1684446 -3.0929472 -0.33348957
-1.1824057 -3.0727346 -0.33192658
-5.1063757 -13.034482 -1.5347615
-1.3069025 -3.2758324 -0.35827416
-1.2368954 -3.045846 -0.33136836
-1.2358308 -2.9904392 -0.32556295
-5.4016166 -12.850272 -1.5280629
-1.3118929 -3.0673358 -0.33683884
-1.337822 -3.0756321 -0.33884841
-5.6026735 -12.670506 -1.5184617
-5.6994615 -12.678491 -1.5237089
-5.7775612 -12.644184 -1.5238205
-5.8512688 -12.600384 -1.5228158
-5.9267774 -12.560649 -1.5223693
-1.319539 -2.7518868 -0.30490911
-1.355976 -2.7839444 -0.30993304
-1.3651032 -2.7595379 -0.30792347
-1.3744283 -2.7360129 -0.30602553
-6.3250828 -12.403921 -1.5262767
-6.3864541 -12.336637 -1.5227041
-1.4652334 -2.7876642 -0.31585008
-1.4463034 -2.7111039 -0.3072536
-6.6327882 -12.254574 -1.5275048
-6.7451677 -12.281587 -1.5362129
-6.838779 -12.272955 -1.5404553
-6.9183569 -12.238548 -1.54146
-6.9933209 -12.195868 -1.54146
-4.94029 -8.4940729 -1.0659752
-7.1343789 -12.095435 -1.5396738
-7.2171326 -12.06593 -1.5415717
-7.2987614 -12.034164 -1.5432464
-7.3703823 -11.985768 -1.5427998
-7.4632378 -11.971521 -1.5469306
-5.173141 -8.1855087 -1.0498987
-5.2221971 -8.1519394 -1.0496753
-5.2699537 -8.1164093 -1.0492288
-5.3513374 -8.1320696 -1.0557041
-5.6420617 -8.4603882 -1.1044918
-8.0106525 -11.854209 -1.5693706
-8.0961504 -11.823693 -1.5719384
-8.177043 -11.786041 -1.573613
-8.2497787 -11.736459 -1.5737247
-8.3216372 -11.685618 -1.5737247
-8.3978329 -11.640785 -1.5746179
-8.5418043 -11.688529 -1.5884615
-1.7421318 -2.3529274 -0.29095381
-1.749383 -2.3326523 -0.28961411
-8.6918001 -11.445432 -1.5766274
-8.755806 -11.384007 -1.575511
-1.7388965 -2.2318494 -0.27990124
-1.6620871 -2.1064441 -0.26348978
-1.6662976 -2.085336 -0.2619268
-8.5600634 -10.5816 -1.4911094
-8.6575747 -10.568853 -1.4969147
-1.6485713 -1.9870012 -0.25210229
-1.693326 -2.0156584 -0.25779602
-8.8609457 -10.419818 -1.4987011
-1.6868113 -1.9585789 -0.2524372
-1.7203459 -1.972912 -0.2561214
-1.7094039 -1.9362415 -0.25221393
-9.108695 -10.193294 -1.4978079
-2.4043722 -2.657222 -0.36463779
-2.423316 -2.6453505 -0.36508435
-1.7537042 -1.8907927 -0.25176734
-2.4943631 -2.6567128 -0.37144798
-2.4935036 -2.6233487 -0.3686569
-9.524559 -9.8998184 -1.5053996
-9.5830441 -9.8390551 -1.5050646
-9.6585846 -9.7956371 -1.5075208
-3.2437148 -3.2492363 -0.47784317
-9.8225632 -9.7204123 -1.5145543
-3.2854755 -3.2112703 -0.47817808
-3.0992396 -2.9922431 -0.44602507
-3.3526793 -3.1974611 -0.48253214
-10.017653 -9.4382639 -1.5083023
-10.073921 -9.3752651 -1.5080791
-3.1680818 -2.9119201 -0.44546688
-3.5235722 -3.1990616 -0.49671072
-3.5423951 -3.1767178 -0.49659908
-3.5722342 -3.1641479 -0.49816206
-3.4322865 -3.0027831 -0.47438225
-3.4265869 -2.9608729 -0.4708097
-3.4371316 -2.9333403 -0.46969327
-10.608425 -8.942688 -1.5208062
-3.4545407 -2.8756802 -0.46701384
-3.8597515 -3.1731591 -0.52339327
-10.588401 -8.5974436 -1.494347
-10.671966 -8.5571795 -1.4988127
-10.70791 -8.4785814 -1.4964682
-10.686927 -8.355792 -1.4860854
-3.9544847 -3.0526614 -0.52328157
-10.749146 -8.1938944 -1.4805033
-10.849241 -8.1654339 -1.4875368
-10.876008 -8.081521 -1.4842992
-10.914974 -8.0069942 -1.4828478
-11.008165 -7.9719291 -1.4889882
-11.056872 -7.9042339 -1.4889882
-11.188793 -7.8952575 -1.5004873
-11.303893 -7.8730302 -1.509642
-11.409311 -7.8429298 -1.517457
-11.578105 -7.8547916 -1.5338684
-11.716916 -7.8444176 -1.546149
-11.871786 -7.8430419 -1.5605509
-11.930509 -7.7771053 -1.5620023
-5.709578 -3.6719131 -0.72468448
-5.7303228 -3.635746 -0.72446114
-3.1649044 -1.9807067 -0.38149577
-3.386693 -2.0907316 -0.40918308
-12.211833 -7.4369431 -1.5683659
-3.5015426 -2.1027415 -0.42090553
-12.404778 -7.3472996 -1.5817629
-7.6502624 -4.4678593 -0.95734715
-7.6301689 -4.3935585 -0.9512068
-7.7287111 -4.3873801 -0.96047312
-7.8699541 -4.4039364 -0.97520995
-7.9620886 -4.3915634 -0.98358309
-7.809032 -4.2448511 -0.96058476
-7.8419385 -4.2006097 -0.96147794
-8.0046635 -4.2247801 -0.97889411
-7.9202275 -4.1182742 -0.96493882
-7.9205828 -4.0569129 -0.96181285
-7.93468 -4.0028653 -0.96047312
-7.6680779 -3.8095105 -0.92396611
-7.7020202 -3.7676289 -0.92530578
-8.2102509 -3.9540238 -0.98581594
-8.2217865 -3.8976121 -0.98425299
-8.1653996 -3.8096924 -0.97431678
-8.232873 -3.7798378 -0.97978729
-5.7826543 -2.6119316 -0.67489195
-5.7804098 -2.5683296 -0.6726591
-8.105279 -3.5420914 -0.95578414
-8.3405027 -3.58411 -0.9819085
-8.2341824 -3.4787173 -0.96627855
-8.7417784 -3.6301386 -1.025449
-8.4289827 -3.4397447 -0.98481119
-8.3936663 -3.3653991 -0.978001
-8.2837887 -3.2624817 -0.96225941
-8.2573099 -3.1936662 -0.95667732
-8.49228 -3.2247946 -0.98257834
-8.5137691 -3.1733205 -0.98280162
-8.5321465 -3.1206799 -0.98268998
-8.3444233 -2.9940877 -0.95801699
-8.581048 -3.0197012 -0.98402971
-8.6163244 -2.972827 -0.98603922
-7.8323617 -2.6486359 -0.89091992
-7.804131 -2.585835 -0.88567275
-8.7612696 -2.8434858 -0.99686855
-8.7321453 -2.7749248 -0.9913981
-8.7252855 -2.7139134 -0.98860705
-8.7332172 -2.6577206 -0.98760223
-8.7445984 -2.6026671 -0.98704404
-8.8395987 -2.5720091 -0.99631035
-8.9249916 -2.5375643 -1.0044602
-8.9509258 -2.4856791 -1.0056883
-8.8000822 -2.3857195 -0.9863742
-8.8529825 -2.3418453 -0.9908399
-9.028841 -2.3291905 -1.0095958
-9.0352526 -2.2718077 -1.0087026
-9.0548134 -2.2177444 -1.0093725
-9.0933838 -2.1681368 -1.0122752
-9.2178402 -2.1381273 -1.0251141
-9.1028252 -2.0526669 -1.0103773
-9.4491768 -2.0699394 -1.0487822
-9.3285351 -1.9835995 -1.0334873
-9.419364 -1.942585 -1.0425303
-9.4681368 -1.8921541 -1.0467727
-9.671771 -1.8712171 -1.0687662
-10.123602 -1.8942852 -1.119117
-10.376574 -1.8758056 -1.1466926
-10.823524 -1.8881119 -1.1963735
-11.489538 -1.931752 -1.2709506
-12.098592 -1.9579175 -1.3389409
-13.220948 -2.0564203 -1.4652083
-13.566505 -2.0250025 -1.5030551
-14.657835 -2.0960717 -1.6255268
-15.568359 -2.1289062 -1.7273446
-15.796929 -2.0615082 -1.7517943
-16.780649 -2.0852733 -1.861762
-17.425728 -2.0569575 -1.9333248
-17.433083 -1.9494443 -1.9327666
-17.456575 -1.8436929 -1.9341063
-17.428993 -1.7327118 -1.9297522
-17.438307 -1.6256446 -1.9296407
-17.413303 -1.5155979 -1.9257331
-17.419304 -1.408483 -1.9253982
-17.461311 -1.3040909 -1.9291941
-17.474934 -1.1973335 -1.9298639
-17.481951 -1.0900867 -1.9298639
-17.474421 -0.98201799 -1.9283009
-17.463243 -0.87393373 -1.9264029
-17.449413 -0.76593643 -1.9242818
-17.439882 -0.65832931 -1.9227188
-17.440615 -0.55121356 -1.9223839
-15.574466 1.1480169 -1.9125522
-15.55427 1.2425303 -1.910941
-15.547341 1.3380313 -1.9110649
-15.541802 1.4336765 -1.9114368
-15.519876 1.5277475 -1.9098254
-15.490472 1.6208801 -1.9073465
-15.450647 1.7126155 -1.903628
-15.428021 1.8060013 -1.9021406
-15.401877 1.8988096 -1.9002814
-15.396825 1.9941707 -1.901149
-15.386266 2.0888734 -1.901397
-15.370212 2.1828237 -1.9010252
-15.345732 2.2754905 -1.8996617
-15.310887 2.3664229 -1.8970588
-15.295099 2.4601667 -1.8969349
-15.273844 2.5529873 -1.8961911
-15.252026 2.6456397 -1.8954475
-15.227692 2.7377694 -1.8944559
-15.202803 2.8297 -1.8934643
-15.171513 2.9203024 -1.891729
-15.156228 3.0139189 -1.8921009
-15.136477 3.1066597 -1.891977
-15.111305 3.1982436 -1.8912332
-15.092366 3.291116 -1.8913572
-15.065111 3.3821371 -1.8904896
-15.041175 3.4738412 -1.8901178
-15.008957 3.5635443 -1.8887542
-14.996449 3.6579227 -1.8899938
-14.969872 3.7489057 -1.889498
-14.936976 3.8382182 -1.8882585
-14.889157 3.9234746 -1.8851599
-14.860013 4.0134649 -1.8845401
-14.836063 4.1048331 -1.8846641
-14.802005 4.1933537 -1.8835485
-14.758842 4.2791228 -1.8813174
-14.709476 4.3628273 -1.8783426
-14.673884 4.450408 -1.8772272
-14.634928 4.5368352 -1.8757398
-14.589787 4.6211534 -1.8735087
-14.567766 4.7127261 -1.8743763
-14.510309 4.792685 -1.8706579
-14.507896 4.8908229 -1.8742524
-14.468231 4.9765215 -1.8730129
-14.428997 5.0622458 -1.8718973
-14.400467 5.1516886 -1.8722693
-14.372314 5.2413111 -1.8727651
-14.338953 5.3290534 -1.8726411
-14.309697 5.4183412 -1.8731369
-14.274329 5.5053277 -1.8728889
-14.244899 5.5946236 -1.8735087
-14.210302 5.6819234 -1.8735087
-14.188957 5.774621 -1.8753679
-14.172509 5.8695488 -1.8779708
-14.164575 5.9683456 -1.8818132
-14.14319 6.0617924 -1.8839203
-14.124832 6.1567869 -1.8865232
-14.101303 6.2497735 -1.8885064
-14.073545 6.3410721 -1.8899938
-14.047003 6.4330916 -1.891729
-14.031554 6.530468 -1.8950757
-14.017234 6.6287451 -1.8986701
-13.982557 6.7176371 -1.8995378
-13.975853 6.820281 -1.9043717
-13.947967 6.9129581 -1.9063549
-13.9239 7.0077806 -1.9089578
-13.904494 7.1052771 -1.9123044
-13.880013 7.2005138 -1.9150312
-13.858397 7.2975669 -1.9182539
-13.833487 7.3932219 -1.9211047
-13.802691 7.4860067 -1.9232118
-13.779968 7.583477 -1.9265584
-13.746173 7.6751437 -1.9284176
-13.712634 7.76717 -1.9304007
-13.676763 7.8580842 -1.9321361
-13.642006 7.9498501 -1.9341192
-13.613471 8.0455246 -1.937094
-13.597892 8.1493101 -1.9420519
-13.570528 8.2465067 -1.9453984
-13.546705 8.3462763 -1.9493648
-13.525536 8.4481668 -1.9538269
-13.505301 8.5511732 -1.958537
-13.480968 8.6521044 -1.9627512
-13.435945 8.7400703 -1.9639907
-13.398631 8.833272 -1.9664696
-13.351604 8.9202795 -1.9675851
-13.313052 9.0131626 -1.970064
-13.273045 9.1053467 -1.9724191
-13.240553 9.203043 -1.9760135
-13.201683 9.2966824 -1.9787405
-13.154892 9.385004 -1.9803518
-13.101884 9.4690323 -1.9810954
-13.066754 9.566246 -1.98469
-13.000638 9.6409216 -1.9835744
-12.979319 9.7491188 -1.9895239
-12.935839 9.8411932 -1.9921268
-12.882284 9.9258318 -1.9932424
-12.832089 10.013236 -1.9949776
-12.777414 10.097322 -1.9960932
-12.719091 10.178633 -1.9967129
-12.683378 10.278352 -2.0010509
-12.637714 10.370461 -2.003902
-12.582239 10.454785 -2.0052652
-12.517853 10.531792 -2.0052652
-12.498315 10.647014 -2.0127022
-12.438762 10.728686 -2.0136938
-12.395118 10.824389 -2.0174122
-12.341105 10.911416 -2.0195193
-12.291664 11.002819 -2.0224941
-12.235684 11.088695 -2.0244772
-12.181306 11.17631 -2.0268321
-12.129221 11.266376 -2.0296831
-12.080103 11.359622 -2.0331535
-12.01808 11.441056 -2.034517
-11.969085 11.535242 -2.0382354
-11.910154 11.620247 -2.0403426
-11.852042 11.706357 -2.0426974
-11.78841 11.787279 -2.0441849
-11.726322 11.869979 -2.0460441
-11.657427 11.945969 -2.0467877
-11.600434 12.034419 -2.0497625
-11.541427 12.121182 -2.0524895
-11.479072 12.204782 -2.0547204
-11.405319 12.276442 -2.0549684
-11.345879 12.36374 -2.0579431
-11.273801 12.437535 -2.0586867
-11.199921 12.509434 -2.0591826
-11.132812 12.58907 -2.0610418
-11.065148 12.668353 -2.062901
-10.985912 12.734507 -2.0626531
-10.904994 12.798654 -2.0621574
-10.830091 12.869881 -2.062901
-10.763602 12.951354 -2.0653801
-10.678267 13.010251 -2.0642645
-10.631973 13.117156 -2.0709577
-10.484325 13.098475 -2.0575712
-10.381608 13.134532 -2.0531092
-10.292274 13.187033 -2.051374
-10.202082 13.238147 -2.0495148
-10.115254 13.293389 -2.0483992
-10.031113 13.352032 -2.0479033
-9.9460421 13.409345 -2.0472836
-9.8829212 13.496541 -2.051374
-9.787715 13.540039 -2.0487709
-9.6998405 13.593378 -2.0477793
-9.5996809 13.629111 -2.0441849
-9.5119095 13.682055 -2.0433173
-9.4317083 13.745889 -2.0441849
-9.3321667 13.781316 -2.0408382
-9.2446747 13.834192 -2.0402186
-9.1536074 13.881543 -2.0388551
-9.0590601 13.923307 -2.0367479
-8.9809618 13.990322 -2.0384834
-8.8615065 13.992349 -2.0306747
-8.7838945 14.059924 -2.0326579
-8.6901722 14.101729 -2.0309224
-8.5952368 14.141218 -2.0289392
-8.4858608 14.156241 -2.0234857
-8.3892469 14.191813 -2.0211306
-8.2910175 14.22416 -2.0184038
-8.2016068 14.271323 -2.0179079
-8.10606 14.307565 -2.0159247
-8.0181179 14.357033 -2.0159247
-7.9236536 14.39466 -2.0143135
-7.828084 14.429924 -2.0124543
-7.7407994 14.480309 -2.0128262
-7.6541162 14.531923 -2.0134459
-7.5643487 14.577734 -2.0133219
-7.4530845 14.581461 -2.0073724
-7.3393831 14.579056 -2.0006793
-7.255959 14.636262 -2.0024145
-7.1603584 14.668915 -2.0008032
-7.0465813 14.663382 -1.993986
-6.9543548 14.701858 -1.9933662
-6.8661084 14.74875 -1.993986
-6.767632 14.77346 -1.991631
-6.6817479 14.825564 -1.9931184
-6.6023154 14.892591 -1.9967129
-6.5112081 14.933732 -1.9968368
-6.4120264 14.956074 -1.9944818
-6.3151274 14.983249 -1.9928705
-6.2268701 15.030883 -1.99411
-6.1476183 15.100975 -1.9984481
-6.0581603 15.146704 -1.9995637
-5.9622059 15.176202 -1.9985721
-5.8675456 15.208797 -1.9980763
-5.7811441 15.263073 -2.0005553
-5.6884198 15.301048 -2.0009272
-5.5849075 15.309561 -1.9974566
-5.4848475 15.326724 -1.9952255
-5.392344 15.364772 -1.9958452
-5.297966 15.39757 -1.9958452
-5.1979995 15.413802 -1.9937382
-5.101768 15.440696 -1.9931184
-5.0057077 15.467932 -1.9926226
-4.9101048 15.496464 -1.9923747
-4.809051 15.507344 -1.9898957
-4.7164016 15.545106 -1.9910113
-4.6234694 15.582314 -1.9921268
-4.5244551 15.598954 -1.9906394
-4.4245987 15.612101 -1.9887803
-4.3239579 15.621741 -1.9865491
-4.2231069 15.629778 -1.9841942
-4.1253548 15.64868 -1.9833266
-4.0299997 15.67658 -1.9836984
-3.9325287 15.6962 -1.9830786
-3.8267376 15.681474 -1.9781207
-3.4901862 14.692875 -1.8482233
-3.3946068 14.69081 -1.8452486
-3.293967 14.664889 -1.8392991
-3.1445067 14.412396 -1.8044697
-3.0369039 14.341137 -1.7929426
-2.9277008 14.256467 -1.7798041
-2.8411374 14.279029 -1.7804239
-2.7508433 14.282551 -1.7786885
-2.6380935 14.164538 -1.7615838
-2.5223305 14.020292 -1.7412564
-2.4320157 14.011063 -1.7381576
-2.3219473 13.881852 -1.7199373
-2.2621017 14.053568 -1.739893
-2.1849239 14.126022 -1.7473298
-2.1015556 14.161738 -1.7501806
-1.9487525 13.710661 -1.6916772
-1.8599155 13.687946 -1.6873391
-1.7747455 13.690244 -1.6862235
-1.6944752 13.731405 -1.6900659
-1.6113429 13.7514 -1.6913054
-1.544541 13.919813 -1.7112609
-1.4546598 13.886592 -1.7059312
-1.3681618 13.882419 -1.7043198
-1.2923465 13.992325 -1.7170866
-1.2959218 15.039043 -1.8473557
-1.1989559 14.988353 -1.8400428
-1.1068206 14.993448 -1.8397949
-1.0152031 15.005898 -1.8405386
-0.92438686 15.032643 -1.8431414
-0.83191192 15.034069 -1.8426456
-0.71001029 14.435314 -1.7671615
-0.62129575 14.436424 -1.7667896
-0.55285281 14.987338 -1.8352088
-0.45495057 14.797042 -1.811039
-0.36548725 14.854115 -1.8178561
-0.27450141 14.865006 -1.8189716
-0.18363878 14.895185 -1.8225662
-0.09196718 14.851379 -1.8169885
-0.00083896244 14.857618 -1.8177322
0.085046455 14.000023 -1.7106413
0.182597 14.946801 -1.8290114
0.27494544 14.980124 -1.8333496
0.36678344 14.975179 -1.8329778
0.45854068 14.968679 -1.832482
0.55052429 14.96955 -1.8329778
0.64223748 14.962916 -1.832606
0.73296452 14.93689 -1.829879
0.77315277 14.001774 -1.713492
0.85217321 13.884849 -1.6994859
0.93835717 13.894209 -1.7013451
1.0620737 14.409708 -1.7666657
1.1574299 14.489964 -1.7775731
1.1985437 13.927969 -1.7080383
1.2907319 13.993471 -1.7172104
1.3743324 13.962575 -1.7143596
1.4619428 13.972631 -1.7167146
1.550494 13.989039 -1.7199373
1.6327212 13.94871 -1.716095
1.714512 13.9079 -1.7122525
1.7975215 13.879405 -1.7100215
1.8881261 13.908428 -1.7151034
1.9809693 13.949632 -1.7217965
2.0666709 13.938195 -1.7219205
2.1460896 13.886026 -1.7169626
2.2525356 14.004854 -1.7336955
2.3268054 13.921282 -1.7248952
2.4109931 13.899899 -1.7240276
2.5222337 14.029384 -1.7423719
2.5866528 13.897556 -1.727622
2.6703768 13.873628 -1.7266304
2.7711356 13.935812 -1.7366703
2.8667703 13.96812 -1.7429916
2.9421463 13.901728 -1.7367942
3.0303512 13.896986 -1.7385294
3.1364379 13.971075 -1.7504284
3.2254543 13.96607 -1.7522877
3.3480048 14.101451 -1.7722433
3.4864495 14.293688 -1.7996358
3.5832512 14.308603 -1.8043458
3.6771553 14.310373 -1.8074445
3.7433946 14.205982 -1.796909
3.8408427 14.221064 -1.8018669
3.9248531 14.185753 -1.8003795
3.9950478 14.102213 -1.7926947
4.1063776 14.163205 -1.8038501
4.1948972 14.143451 -1.8045937
4.2813129 14.116495 -1.8044697
4.3505101 14.034041 -1.7971568
4.4368391 14.008029 -1.7972808
4.5407314 14.036242 -1.8045937
4.634553 14.031672 -1.8076924
4.7196112 14.00015 -1.8073206
4.8054256 13.970927 -1.8073206
4.9019022 13.972077 -1.8114108
4.996233 13.966028 -1.8146335
5.0808129 13.932312 -1.8142617
5.1724277 13.917617 -1.8164927
5.27284 13.92552 -1.8218224
5.3760428 13.939194 -1.8280199
5.4687271 13.924416 -1.8304988
5.5699072 13.930216 -1.8358285
5.6627593 13.914159 -1.8383075
5.7647371 13.919487 -1.8437612
5.8704619 13.932317 -1.8503305
5.9601388 13.906066 -1.8516939
6.0703363 13.926538 -1.8595026
6.1749763 13.932572 -1.8654521
6.2742105 13.92518 -1.8696663
6.3739986 13.917995 -1.8740045
6.482729 13.929001 -1.8809456
6.5965004 13.94906 -1.88925
6.7047439 13.955726 -1.8958193
6.802 13.9384 -1.8991659
6.9107547 13.943521 -1.9057351
7.0149193 13.938081 -1.910941
7.115212 13.923933 -1.9150312
7.2352462 13.946953 -1.9244512
7.3456569 13.949706 -1.9311445
7.4559045 13.950751 -1.9377137
7.5640755 13.946608 -1.9436632
7.6806092 13.956437 -1.9517198
7.7941604 13.959295 -1.9589088
7.9060788 13.95783 -1.9656019
8.0232153 13.964119 -1.9735346
8.137228 13.963493 -1.9805996
8.2449703 13.950887 -1.9860533
8.3691874 13.964718 -1.9954734
8.4732695 13.943629 -1.9999355
8.6112432 13.976698 -2.0124543
8.7452087 14.001021 -2.0238574
8.8622751 13.99656 -2.0311704
8.9865828 14.002043 -2.0400946
9.1096678 14.004029 -2.0486469
9.2331133 14.00503 -2.0571995
9.3359623 13.973689 -2.0610418
9.4382191 13.940791 -2.0647602
9.5005636 13.84907 -2.0596783
9.6063175 13.820661 -2.0642645
9.6566553 13.712782 -2.0568275
9.7238998 13.629847 -2.0532331
9.8003721 13.560275 -2.0517457
9.8499775 13.454251 -2.0446806
9.9270248 13.386386 -2.0435653
10.001227 13.31491 -2.0419538
10.061708 13.225654 -2.0376158
10.111779 13.123582 -2.0312943
10.171357 13.034694 -2.0270801
10.236993 12.954132 -2.0242293
10.303264 12.874806 -2.0216265
10.372071 12.79901 -2.0196433
10.440967 12.723622 -2.0177841
10.505523 12.643291 -2.0151811
10.565653 12.558093 -2.0118346
10.628351 12.47641 -2.0091076
10.692389 12.396686 -2.0067527
10.751935 12.31216 -2.003654
10.807558 12.223656 -1.9999355
10.857206 12.129019 -1.9952255
10.914099 12.043056 -1.9920028
10.975712 11.962701 -1.9897718
11.040127 11.885679 -1.9881605
11.105371 11.809764 -1.9867971
11.165993 11.729183 -1.98469
11.222601 11.644732 -1.981963
11.270971 11.552216 -1.9778728
11.320722 11.461662 -1.9741544
11.369786 11.370934 -1.970436
11.421694 11.283525 -1.9673373
11.476508 11.19937 -1.9648583
11.530722 11.114968 -1.9623793
11.582893 11.028955 -1.9596524
11.639505 10.94748 -1.9577932
11.694826 10.865049 -1.9558101
11.745918 10.778999 -1.9532071
11.80816 10.703393 -1.9525875
11.852172 10.611545 -1.948993
11.898476 10.522188 -1.9458942
11.936656 10.426138 -1.9415561
11.974106 10.330015 -1.937218
12.016115 10.238331 -1.9337474
12.05745 10.146522 -1.9302769
12.108796 10.063469 -1.9285415
12.154208 9.9757614 -1.9259386
12.199771 9.8885021 -1.9234596
12.240849 9.7979584 -1.920361
12.286723 9.7115908 -1.9181299
12.326525 9.6207571 -1.9150312
12.36253 9.5273771 -1.9114368
12.396275 9.4327173 -1.9075943
12.430911 9.3391943 -1.9039999
12.467259 9.2473755 -1.9007772
12.498945 9.1525326 -1.8969349
12.550044 9.0721807 -1.8961911
12.58851 8.9829016 -1.8935883
12.628788 8.8952065 -1.8913572
12.64891 8.7937632 -1.8861514
12.684628 8.7036352 -1.8834245
12.715608 8.6106195 -1.880078
12.7451 8.5170002 -1.8766074
12.778066 8.426075 -1.8737566
12.809564 8.3345251 -1.8707819
12.847937 8.2477303 -1.8689226
12.881535 8.1581249 -1.8664436
12.916201 8.0694685 -1.8642126
12.948575 7.9796543 -1.8617337
12.955743 7.8748016 -1.8556602
13.011477 7.7997499 -1.8567758
13.036026 7.7061338 -1.8534292
13.05906 7.6120114 -1.8499587
13.087453 7.5213575 -1.8473557
13.128177 7.4379783 -1.846612
13.171835 7.356318 -1.8463641
13.218463 7.2763152 -1.846612
13.246288 7.1860824 -1.844257
13.279631 7.0990567 -1.8427696
13.293966 7.002183 -1.8386793
13.313779 6.9085994 -1.8354567
13.347083 6.8222623 -1.8342172
13.352352 6.7219462 -1.8291354
13.383566 6.6350441 -1.8277719
13.413325 6.5475764 -1.8262845
13.463981 6.4703074 -1.8277719
13.515986 6.3935113 -1.8295072
13.555861 6.3108773 -1.8296312
13.597036 6.2288208 -1.830003
13.637713 6.1464968 -1.8303748
13.6788 6.0643101 -1.8308706
13.709385 5.9774885 -1.830003
13.756748 5.8979483 -1.8314904
13.798164 5.8157392 -1.832234
13.838174 5.7328644 -1.8328538
13.879522 5.6504655 -1.8337214
13.920382 5.5677752 -1.8345891
13.951512 5.4811683 -1.8342172
13.987659 5.3965316 -1.8345891
14.021436 5.3109546 -1.834713
14.050969 5.2237835 -1.8343412
14.092079 5.1408701 -1.8355807
14.13924 5.0599885 -1.8376877
14.184067 4.9780645 -1.839547
14.215282 4.8912616 -1.8396709
14.236565 4.8010931 -1.8385555
14.287427 4.7208076 -1.8414062
14.337838 4.6400781 -1.844257
14.382121 4.5571094 -1.8463641
14.415499 4.4705396 -1.8471078
14.433163 4.3791237 -1.8458683
14.45215 4.2882233 -1.8448768
14.462941 4.195044 -1.8428936
14.485545 4.1054111 -1.8425218
14.508551 4.0159225 -1.8422738
14.536751 3.9278593 -1.8427696
14.568254 3.8406126 -1.8437612
14.600195 3.7533741 -1.8448768
14.628725 3.6651647 -1.8456204
14.658651 3.5772171 -1.846612
14.68129 3.4874351 -1.846736
14.701446 3.3970635 -1.846612
14.72298 3.3070107 -1.846736
14.734269 3.2147067 -1.8456204
14.739156 3.121156 -1.8437612
14.793022 3.0378428 -1.8482233
14.833768 2.9514692 -1.8510741
14.855495 2.8611457 -1.8515699
14.875698 2.7704852 -1.8519418
14.886558 2.6781037 -1.8511981
14.917376 2.5892553 -1.8530573
14.945705 2.4998024 -1.8546686
14.964681 2.4086807 -1.8551644
14.983101 2.3174202 -1.8556602
15.002928 2.2263155 -1.8564039
15.023183 2.1351941 -1.8572716
7.0912247 0.96411997 -0.85577285
6.4829507 0.84103978 -0.77842939
6.4673076 0.79869497 -0.77582645
6.417881 0.75265026 -0.76900935
6.4115295 0.71205389 -0.7676459
6.4128175 0.67239016 -0.76727408
6.4079347 0.63215405 -0.76615852
6.4018121 0.59191203 -0.76491904
6.3944483 0.55168384 -0.76355565
6.3888111 0.51172644 -0.76244009
6.4106331 0.47390234 -0.76479512
6.3856993 0.43268526 -0.76132458
6.3961573 0.39398181 -0.76231617
6.3954821 0.35456407 -0.76194429
6.3737507 0.31414741 -0.75896955
6.3616791 0.27443671 -0.75723428
6.3632436 0.23539701 -0.75723428
6.3665514 0.19640929 -0.75748217
6.3676367 0.15734117 -0.75748217
6.3744349 0.11837658 -0.75822586
6.3809948 0.079334483 -0.75896955
6.3853307 0.040204205 -0.75946534
6.3943877 0.0010236015 -0.7605809
6.3992348 -0.038242195 -0.76120061
6.4127707 -0.07767722 -0.76293588
6.4151497 -0.11707864 -0.76330775
6.4549823 -0.15743837 -0.76838958
6.4548864 -0.19707289 -0.76851356
6.4466143 -0.23641981 -0.7676459
6.4549561 -0.27639732 -0.76888537
6.4680052 -0.31672966 -0.77074462
6.4708939 -0.3566846 -0.77136433
6.4794779 -0.39705208 -0.77272779
6.4848399 -0.43733752 -0.77371937
6.5354729 -0.48106253 -0.78041255
13.602713 -1.0864866 -1.6663918
13.526586 -1.1639698 -1.6577154
13.472749 -1.242658 -1.6518899
13.349332 -1.3139198 -1.637388
13.262068 -1.3875378 -1.6274722
13.217799 -1.4649481 -1.62301
10.588968 -1.2391754 -1.2935567
10.589045 -1.3050966 -1.2945483
10.582805 -1.3703003 -1.2947961
10.58698 -1.4369457 -1.2964075
10.589753 -1.5035543 -1.2978948
10.595052 -1.5706878 -1.299754
12.94756 -2.0009699 -1.5983444
12.920343 -2.078012 -1.5964853
12.867224 -2.1505404 -1.5914034
12.834232 -2.2260585 -1.5889244
12.837911 -2.3079278 -1.5911555
12.841067 -2.389926 -1.5933865
12.824213 -2.468297 -1.5931387
12.816611 -2.5484874 -1.5941303
12.828921 -2.6328683 -1.5977247
12.811554 -2.7113299 -1.5976008
12.784982 -2.7877743 -1.5963613
12.778286 -2.8685608 -1.5977247
12.780747 -2.9516037 -1.6003276
12.755638 -3.0283642 -1.59946
8.2744265 -2.0177553 -1.0257053
12.801256 -3.2056456 -1.6102434
12.819788 -3.2940133 -1.6152014
12.818525 -3.3776705 -1.6176803
7.5872993 -2.0486252 -0.94352794
12.660394 -3.5026932 -1.6026826
12.610023 -3.5721939 -1.5989642
12.468739 -3.6149511 -1.5834707
8.0008774 -2.3725049 -1.0042623
7.9643297 -2.4149272 -1.0014116
7.9275632 -2.4569907 -0.99856079
7.9378791 -2.5136788 -1.0019073
8.482152 -2.7434967 -1.0754085
12.573148 -4.1526861 -1.6158211
12.542729 -4.2281704 -1.6152014
12.431164 -4.2756743 -1.6039221
12.385032 -4.3449702 -1.6013192
7.7175884 -2.7603519 -0.98567021
12.318661 -4.4922061 -1.5997078
12.275054 -4.5618296 -1.5976008
12.228272 -4.630033 -1.5951219
12.185746 -4.6996198 -1.5932626
12.155757 -4.7739387 -1.5931387
12.104124 -4.839592 -1.5901639
12.053062 -4.9051657 -1.5873131
12.004403 -4.9714346 -1.5848341
11.952641 -5.0361347 -1.5819833
11.896891 -5.098824 -1.5786368
11.84537 -5.1630015 -1.5759099
11.800767 -5.2299562 -1.5741746
11.763027 -5.2998195 -1.5734309
11.723069 -5.3685904 -1.5724393
11.675514 -5.4337206 -1.5704561
11.620425 -5.4950752 -1.5674814
11.572179 -5.5593972 -1.5654982
11.525365 -5.6242046 -1.563763
11.463967 -5.6815953 -1.5600445
11.399641 -5.7371068 -1.5559543
11.33595 -5.7924943 -1.551988
11.280817 -5.8518872 -1.5492611
11.238552 -5.917758 -1.5483935
11.19853 -5.9847341 -1.5478977
11.140664 -6.0419788 -1.5449229
11.081649 -6.0982609 -1.5418242
11.038824 -6.163239 -1.5410806
11.00857 -6.2352581 -1.542196
10.960639 -6.2972493 -1.5408326
10.892646 -6.3473954 -1.5366185
10.832993 -6.4019938 -1.5336437
10.763719 -6.4504876 -1.5293055
10.723088 -6.5158958 -1.5291816
10.655027 -6.5643902 -1.5250913
10.595193 -6.6175528 -1.5222405
10.551874 -6.6808462 -1.5218686
10.531559 -6.7588663 -1.5249673
10.463273 -6.8060431 -1.521001
10.417172 -6.8673849 -1.5203812
10.371539 -6.9289694 -1.5198854
10.343618 -7.0024915 -1.5221165
10.290638 -7.0590906 -1.5206292
10.239798 -7.117002 -1.5195136
10.201614 -7.1836982 -1.5203812
10.15169 -7.2421246 -1.5195136
10.095803 -7.2961392 -1.5177784
10.026026 -7.339776 -1.5139359
9.9513121 -7.3792849 -1.5093499
9.8820457 -7.4223261 -1.5056314
9.8315792 -7.4792161 -1.5048878
9.7839308 -7.5381894 -1.5046399
9.7288885 -7.5913649 -1.5032765
9.6595488 -7.6330738 -1.4996819
9.6156301 -7.6946802 -1.5001777
9.5636101 -7.7497869 -1.4994341
9.5112762 -7.8045454 -1.4986904
9.4616833 -7.8614902 -1.4984425
9.3973236 -7.9059811 -1.4958396
9.3524132 -7.966711 -1.4964594
9.3071108 -8.0271873 -1.497079
9.2472191 -8.0750046 -1.4953438
9.1841173 -8.1197605 -1.4931127
9.1259899 -8.1686802 -1.4917493
9.0727549 -8.2218571 -1.4912535
9.0133629 -8.2693205 -1.4897661
8.9508219 -8.3136644 -1.487783
8.8916903 -8.3609505 -1.4864196
8.8402214 -8.4153519 -1.4864196
8.7834177 -8.4646158 -1.485552
8.7270536 -8.5141916 -1.4848082
8.6725292 -8.5654879 -1.4844364
8.6134949 -8.6122255 -1.4833208
8.5521212 -8.6564426 -1.4818335
8.4905291 -8.7002325 -1.4803461
8.4335423 -8.7485933 -1.4797263
6.9750252 -7.3247313 -1.2252614
8.3262291 -8.85215 -1.4798503
8.2636518 -8.8943472 -1.4783629
8.1921501 -8.9266062 -1.4752642
8.1292267 -8.9678812 -1.4737768
8.074048 -9.0175924 -1.4737768
6.732903 -7.6129246 -1.2313348
6.6573448 -7.6212082 -1.2258811
2.1513934 -2.4923921 -0.37311986
2.1412079 -2.5115886 -0.37411144
2.1225624 -2.5208831 -0.3734917
2.1045179 -2.5308068 -0.37299591
7.6347089 -9.3014994 -1.4649765
7.5318842 -9.291894 -1.4559283
2.0228562 -2.5257304 -0.36605483
1.9980916 -2.526417 -0.36419562
1.9776684 -2.5323713 -0.36320403
1.9469514 -2.5248082 -0.36010534
1.9206079 -2.5224919 -0.35787427
1.8955586 -2.5215349 -0.35589111
1.8765045 -2.5283363 -0.35514742
1.8550937 -2.5317962 -0.35390794
1.837199 -2.5399144 -0.35341215
1.8233087 -2.5535629 -0.35378399
6.9440451 -9.858223 -1.4680753
6.8800273 -9.8957567 -1.4673315
6.8023381 -9.9132385 -1.4636132
6.7280316 -9.93507 -1.4606384
6.6608806 -9.9670897 -1.459275
1.835138 -2.781317 -0.37807778
1.8185786 -2.7933567 -0.37820172
1.8137324 -2.8236694 -0.38105252
1.842026 -2.9068432 -0.39171204
6.4781756 -10.368703 -1.4890225
6.422761 -10.421774 -1.4910057
6.3726072 -10.483882 -1.4943522
6.3168316 -10.537255 -1.4964594
6.253572 -10.57838 -1.4968312
6.1900454 -10.619123 -1.497203
6.1218047 -10.651743 -1.4964594
6.047039 -10.6727 -1.4941043
5.9804716 -10.70787 -1.4938564
5.9108291 -10.73741 -1.4928648
5.8367915 -10.758648 -1.4907577
5.7716031 -10.796009 -1.4910057
5.703402 -10.827708 -1.4905099
5.6304598 -10.850168 -1.4887745
5.5633268 -10.883629 -1.4886506
5.4951029 -10.914901 -1.4882787
5.4187727 -10.929742 -1.4856758
5.3489957 -10.957435 -1.4849322
5.2769341 -10.98021 -1.4835688
5.2107344 -11.015074 -1.4839406
5.1614733 -11.086422 -1.4893943
5.1045074 -11.142241 -1.4927409
5.0287061 -11.157068 -1.4905099
4.9468837 -11.157778 -1.4864196
4.8700004 -11.168818 -1.4838166
4.7986417 -11.192106 -1.482949
4.7210155 -11.200308 -1.4800982
4.6461272 -11.214396 -1.4781151
4.5719924 -11.229826 -1.4763798
4.493422 -11.233713 -1.4731572
4.4138885 -11.234288 -1.4695626
4.3405881 -11.250051 -1.4680753
4.2648001 -11.25884 -1.4657203
4.1876855 -11.263404 -1.4628694
4.1198559 -11.292616 -1.4633652
4.0514908 -11.320485 -1.4637371
3.9793253 -11.337641 -1.4627455
3.9061334 -11.351522 -1.461382
3.8370421 -11.377157 -1.46163
3.7624924 -11.386353 -1.4597708
3.6931672 -11.411114 -1.4600186
3.6203835 -11.425046 -1.4589031
3.5478618 -11.439463 -1.4579115
3.47962 -11.467664 -1.4587792
3.4120121 -11.498311 -1.4600186
3.3447118 -11.530467 -1.461506
3.279309 -11.569867 -1.463985
3.2156658 -11.616549 -1.4674555
3.14381 -11.634145 -1.4672077
3.0834918 -11.695435 -1.4726614
2.9998164 -11.668004 -1.4667119
2.9226215 -11.664052 -1.463861
2.8580525 -11.710686 -1.4675795
2.7953134 -11.76662 -1.4725374
2.7232854 -11.784516 -1.4726614
2.6420128 -11.761309 -1.4675795
2.5636652 -11.749184 -1.463985
2.4884429 -11.750131 -1.4621258
2.4137046 -11.752542 -1.4605144
2.3432889 -11.77589 -1.46163
2.2683632 -11.776405 -1.4598947
2.1902504 -11.758884 -1.4559283
2.1138432 -11.748664 -1.4529536
2.0432415 -11.770212 -1.4540691
1.9714732 -11.785463 -1.454441
1.9033774 -11.823791 -1.4577876
1.8342788 -11.857801 -1.4606384
1.7708032 -11.931652 -1.4685711
0.39400196 -2.7654457 -0.31077409
0.37635848 -2.7628949 -0.31015435
0.36182082 -2.7838495 -0.31250936
0.34108928 -2.7564721 -0.30879092
0.33224747 -2.827502 -0.31746727
0.3166416 -2.8452673 -0.31945044
0.20228465 -1.9214469 -0.20318736
0.18844903 -1.9019141 -0.20058446
0.17686674 -1.9040227 -0.2007084
0.67475891 -7.8240099 -0.94278425
0.24779049 -3.0860882 -0.34857818
0.57701701 -7.8089399 -0.93993342
0.53083086 -7.8380742 -0.94315606
0.12330491 -1.9887763 -0.21074818
0.11016897 -1.9726523 -0.20864107
0.097527586 -1.9623891 -0.20727764
0.1603501 -3.7057869 -0.42517796
0.13786431 -3.7136424 -0.4260456
0.11206399 -3.6162279 -0.41377476
0.090797678 -3.6545432 -0.41848478
0.066456579 -3.5508587 -0.40547025
0.043986976 -3.4956357 -0.39852917
0.022070177 -3.419435 -0.38898519
0.0010892394 -3.3857682 -0.38477096
-0.073919751 -12.193099 -1.4849322
-0.14830686 -12.157688 -1.480594
-0.22308511 -12.166471 -1.4818335
-0.29812294 -12.180745 -1.4838166
-0.3732225 -12.190588 -1.485304
-0.44794244 -12.186086 -1.4850562
-0.52598882 -12.259443 -1.4946001
-0.60217565 -12.275806 -1.497079
-0.67754203 -12.272871 -1.497203
-0.75265163 -12.265512 -1.4968312
-0.252702 -3.754343 -0.43187115
-0.27471119 -3.7388675 -0.43013588
-0.29472095 -3.7005136 -0.42554981
-1.0605888 -12.326391 -1.5072428
-1.1351075 -12.307795 -1.5057554
-1.213232 -12.327261 -1.509102
-1.2829574 -12.263331 -1.5020369
-1.3591642 -12.264105 -1.5031525
-1.4363524 -12.272288 -1.5052596
-1.5113837 -12.261274 -1.5050117
-1.5763867 -12.173045 -1.4950958
-0.39380798 -2.9077306 -0.32837468
-0.41150245 -2.9042771 -0.32825074
-1.812709 -12.22638 -1.5057554
-1.8869363 -12.210124 -1.5051357
-1.9626089 -12.203215 -1.5057554
-0.50703877 -3.0391297 -0.34671897
-0.525168 -3.0330284 -0.34634712
-2.1974373 -12.223619 -1.5131923
-2.2711272 -12.203077 -1.5123247
-2.3467116 -12.192809 -1.5128205
-2.4243851 -12.192779 -1.5146797
-2.4991531 -12.177673 -1.5146797
-0.59698671 -2.8252554 -0.32254913
-0.61071557 -2.805058 -0.32044202
-0.62639356 -2.7944806 -0.31957439
-0.86332381 -3.7419364 -0.44153908
-0.88214028 -3.7191911 -0.43930802
-2.9597988 -12.135276 -1.5221165
-3.0247998 -12.079347 -1.5172826
-3.1013308 -12.07017 -1.518522
-0.74728948 -2.8395758 -0.32862258
-0.76004022 -2.8176942 -0.32639152
