# .PCD v0.7 - Point Cloud Data file format
VERSION 0.7
FIELDS x y z
SIZE 4 4 4
TYPE F F F
COUNT 1 1 1
WIDTH 1507
HEIGHT 1
VIEWPOINT 0 0 0 1 0 0 0
POINTS 1507
DATA ascii
12.441225 9.3469419 -1.9056112
12.478417 9.2556515 -1.9025126
12.506951 9.1583939 -1.8981743
12.529938 9.0576487 -1.8930925
12.565084 8.9661884 -1.8899938
12.597147 8.8729239 -1.8865232
12.638317 8.7863998 -1.8845401
12.675627 8.6974602 -1.8820611
12.718073 8.6122885 -1.8804498
12.7451 8.5170002 -1.8766074
12.780551 8.4277134 -1.8741285
12.815387 8.3383131 -1.8716495
12.848771 8.2482662 -1.8690466
12.877343 8.1554708 -1.865824
12.906943 8.0636864 -1.8628492
12.945195 7.977572 -1.8612379
12.988813 7.8948998 -1.8604941
13.031054 7.8114824 -1.8596265
13.070196 7.7263293 -1.8583871
13.109642 7.64149 -1.8572716
13.147678 7.555963 -1.856032
13.172209 7.4629216 -1.8529334
13.192628 7.3679285 -1.8493389
13.211509 7.2724876 -1.8456204
13.2428 7.1841903 -1.8437612
13.273504 7.0957823 -1.841902
13.301867 7.0063438 -1.8397949
13.316422 6.9099703 -1.8358285
13.354152 6.8258743 -1.8352088
13.392238 6.742022 -1.834713
13.426242 6.6561966 -1.8337214
13.447212 6.5641146 -1.8309946
13.481869 6.4789019 -1.8302509
13.522266 6.396481 -1.8303748
13.561259 6.3133898 -1.8303748
13.597036 6.2288208 -1.830003
13.638618 6.1469045 -1.8304988
13.681521 6.0655165 -1.8312424
13.736673 5.9893842 -1.8337214
13.778637 5.9073305 -1.8344651
13.827426 5.8280697 -1.8362004
13.857426 5.7408385 -1.8354567
13.894228 5.6564507 -1.8357046
13.945258 5.577723 -1.8379357
13.970907 5.4887862 -1.8368201
13.999694 5.4011736 -1.8362004
14.039067 5.3176312 -1.8370681
14.078873 5.2341547 -1.8380597
14.120046 5.1510701 -1.8392991
14.162598 5.0683451 -1.8407865
14.20092 4.9839783 -1.841778
14.228419 4.8957806 -1.8414062
14.257251 4.8080678 -1.8412822
14.285542 4.7201848 -1.8411583
14.319901 4.6342745 -1.841902
14.328201 4.540029 -1.8392991
14.367162 4.4555535 -1.8407865
14.39518 4.3676023 -1.8409104
14.429318 4.2814507 -1.841902
14.455317 4.1928334 -1.841902
14.485545 4.1054111 -1.8425218
14.509507 4.0161872 -1.8423978
14.530045 3.926048 -1.841902
14.550982 3.8360608 -1.8415302
14.575207 3.7469523 -1.8416541
14.595999 3.6569679 -1.8414062
14.626839 3.5694563 -1.8425218
14.642673 3.478265 -1.841778
14.674374 3.3908103 -1.8431414
14.693935 3.3004889 -1.8430176
14.709063 3.2092092 -1.8423978
14.736243 3.1205397 -1.8433894
14.780386 3.0352488 -1.846612
14.808464 2.9464366 -1.8478515
14.821392 2.8545802 -1.8472317
14.839603 2.7637656 -1.8473557
14.861166 2.6735377 -1.8479755
14.879246 2.5826402 -1.8482233
14.914387 2.4945667 -1.8507023
14.948027 2.4060013 -1.8530573
14.974276 2.3160558 -1.8545446
14.990168 2.2244229 -1.8547926
14.992728 2.130868 -1.8534292
7.0912247 0.96411997 -0.85577285
6.4799981 0.84065735 -0.77805752
6.4564743 0.79735911 -0.77446306
6.4237943 0.75334269 -0.76975304
6.4263234 0.71369416 -0.76950514
6.4118304 0.67228687 -0.7671501
6.4089222 0.63225132 -0.7662825
6.3968716 0.59145612 -0.76429933
6.3865395 0.55100292 -0.76256406
6.3759522 0.51069885 -0.76082879
6.3829241 0.47185901 -0.76132458
6.3827291 0.43248454 -0.76095271
6.3961573 0.39398181 -0.76231617
6.3746758 0.35341436 -0.75934142
6.3479824 0.31288207 -0.7557469
6.3795238 0.27520326 -0.75946534
6.3632436 0.23539701 -0.75723428
6.3606005 0.19622679 -0.75673848
6.3884687 0.1578521 -0.76008511
6.379396 0.11846779 -0.75884563
6.3859558 0.079395257 -0.75958931
6.3902917 0.04023454 -0.76008511
6.3914108 0.0010236665 -0.76020902
6.4121346 -0.038321625 -0.76281196
6.4177318 -0.077738211 -0.76355565
6.4260631 -0.11727979 -0.76467115
6.4361343 -0.15697527 -0.7660346
6.4439764 -0.19673784 -0.7671501
6.4634719 -0.23704107 -0.76975304
6.480732 -0.27750567 -0.77210802
6.4997201 -0.31828842 -0.77471095
6.5016079 -0.35838312 -0.77520674
6.5270181 -0.39997384 -0.77867728
6.5343413 -0.4406848 -0.77991676
6.5423999 -0.48157367 -0.78128016
13.578973 -1.0845884 -1.6634171
13.527575 -1.164055 -1.6578394
13.493499 -1.2445737 -1.6544929
13.332544 -1.312266 -1.635281
13.252198 -1.3865044 -1.6262327
13.198074 -1.4627601 -1.6205311
10.587983 -1.2390599 -1.2934327
10.592983 -1.3055826 -1.2950441
10.574933 -1.3692801 -1.2938045
10.544701 -1.4312024 -1.2910777
10.597612 -1.5046711 -1.2988864
10.580328 -1.5685035 -1.2978948
12.944618 -2.0005147 -1.5979726
12.917405 -2.077539 -1.5961134
12.886797 -2.1538138 -1.5938823
12.849875 -2.2287731 -1.5909076
12.851583 -2.3103871 -1.5928907
12.843019 -2.3902893 -1.5936345
12.832007 -2.4697981 -1.5941303
12.829264 -2.5510042 -1.5957415
12.829894 -2.6330678 -1.5978487
12.802817 -2.7094803 -1.5964853
12.785952 -2.7879858 -1.5964853
12.763763 -2.8652992 -1.5958655
12.741108 -2.9424455 -1.5952457
12.765292 -3.0306571 -1.6006994
8.2570744 -2.0135214 -1.0234743
12.808956 -3.2075746 -1.611235
12.836125 -3.2982128 -1.6173085
12.830039 -3.3807056 -1.6191677
7.5930467 -2.0501781 -0.94427162
12.662306 -3.5032227 -1.6029305
12.619569 -3.5748992 -1.6002036
12.463974 -3.6135693 -1.5828509
8.0256109 -2.3798432 -1.007485
7.973825 -2.4178081 -1.0026511
7.9484143 -2.4634562 -1.0012876
7.9322033 -2.5118806 -1.0011637
8.5019779 -2.749912 -1.0780114
12.550535 -4.1452155 -1.6128464
12.528625 -4.2234144 -1.6133422
12.431164 -4.2756743 -1.6039221
12.407503 -4.3528557 -1.6042939
7.7390766 -2.7680411 -0.98852098
12.33078 -4.4966264 -1.6013192
12.285285 -4.5656328 -1.5989642
12.237553 -4.6335473 -1.5963613
12.183895 -4.6989055 -1.5930147
12.120661 -4.7601519 -1.5884286
12.06727 -4.8248529 -1.585206
12.033762 -4.8973088 -1.5847102
12.00532 -4.9718142 -1.5849581
11.958128 -5.0384469 -1.5827271
11.903275 -5.1015606 -1.5795044
11.865381 -5.1717257 -1.5786368
11.816189 -5.2367926 -1.5762818
11.753076 -5.2953348 -1.5720675
11.707732 -5.3615656 -1.5703323
11.658422 -5.4257641 -1.5681012
11.593514 -5.482347 -1.563763
11.537298 -5.5426359 -1.5606643
11.497722 -5.6107116 -1.5599207
11.453299 -5.6763067 -1.5585572
11.406732 -5.7406759 -1.5569459
11.374827 -5.8123646 -1.5574417
11.319571 -5.8719954 -1.5547148
11.264892 -5.9316301 -1.5521119
11.209031 -5.9903474 -1.5493851
11.150258 -6.0471835 -1.5462863
11.097296 -6.1068735 -1.5440553
11.037091 -6.1622715 -1.5408326
10.993892 -6.226943 -1.540089
10.963221 -6.2987328 -1.5412045
10.870356 -6.3344035 -1.5333958
10.816763 -6.3923998 -1.5312886
10.751802 -6.4433455 -1.5275702
10.702737 -6.5035267 -1.5262069
10.690509 -6.5862536 -1.530297
10.628014 -6.6380563 -1.5270745
10.575347 -6.6957111 -1.5253391
10.561621 -6.778163 -1.5294294
10.510682 -6.8368878 -1.528066
10.427942 -6.874486 -1.5219926
10.376489 -6.9322772 -1.5206292
10.336223 -6.9974847 -1.521001
10.289001 -7.0579677 -1.5203812
10.237353 -7.115303 -1.5191418
10.188635 -7.1745558 -1.518398
10.137959 -7.2323265 -1.5174065
10.085349 -7.2885828 -1.516167
10.026026 -7.339776 -1.5139359
9.9672527 -7.3911071 -1.5118289
9.9018803 -7.4372258 -1.5087302
9.8323689 -7.4798169 -1.5050117
9.769783 -7.527287 -1.5024089
9.7069855 -7.5742707 -1.4998059
9.656435 -7.6306129 -1.4991862
9.6125317 -7.6922002 -1.4996819
9.5690069 -7.7541609 -1.5003017
9.5174122 -7.8095813 -1.4996819
9.4578676 -7.8583188 -1.4978228
9.4026384 -7.9104533 -1.4967072
9.356945 -7.970572 -1.497203
9.3041058 -8.0245943 -1.4965832
9.2427349 -8.0710888 -1.4946001
9.1633034 -8.1013556 -1.4896421
9.126729 -8.169342 -1.4918733
9.085989 -8.2338514 -1.4934846
9.0374899 -8.29146 -1.4938564
8.9762659 -8.3373022 -1.4921211
8.9112062 -8.3793058 -1.4897661
8.8402214 -8.4153519 -1.4864196
8.7819891 -8.4632378 -1.485304
8.7306042 -8.5176573 -1.485428
8.6774712 -8.5703697 -1.485304
8.6120911 -8.6108217 -1.483073
8.5563049 -8.6606789 -1.4825772
8.4905291 -8.7002325 -1.4803461
8.4314766 -8.7464495 -1.4793545
6.9907622 -7.3412609 -1.2281122
8.3337069 -8.8601007 -1.4812137
8.2751331 -8.9067068 -1.4804701
8.2042255 -8.9397669 -1.4774953
8.1418877 -8.9818506 -1.4761319
8.0859613 -9.0309 -1.4760079
6.7164707 -7.5943403 -1.2282362
6.6658301 -7.6309247 -1.2274925
2.155282 -2.4969003 -0.37386355
2.1418514 -2.5123439 -0.37423539
2.1270344 -2.5261981 -0.37435934
2.1076889 -2.5346227 -0.37361565
7.6403742 -9.308403 -1.4660921
7.5581241 -9.3242722 -1.4611342
2.0346365 -2.5404503 -0.36840984
2.0054748 -2.5357592 -0.36568299
1.9807208 -2.5362828 -0.36382377
1.9469514 -2.5248082 -0.36010534
1.9145998 -2.5145948 -0.3566348
1.887215 -2.5104277 -0.35415584
1.866456 -2.5147867 -0.35304031
1.8509904 -2.5261919 -0.35304031
1.8366177 -2.5391102 -0.3532882
1.812935 -2.5390229 -0.35155293
6.9166203 -9.8192816 -1.4621258
6.8517094 -9.8550177 -1.4611342
6.791111 -9.8968735 -1.4611342
6.7502847 -9.9679365 -1.4655963
6.6823802 -9.9992676 -1.4641089
1.8340455 -2.7796602 -0.37782988
1.8191197 -2.7941885 -0.37832567
1.8030126 -2.8069677 -0.37857357
1.7974343 -2.8364217 -0.38130042
6.4907923 -10.388901 -1.4919972
6.4206786 -10.418394 -1.4905099
6.3561168 -10.456747 -1.4903859
6.3020377 -10.512573 -1.4928648
6.2540765 -10.579233 -1.4969552
6.1960411 -10.629411 -1.4986904
6.1282315 -10.662928 -1.4980706
6.0533972 -10.683925 -1.4957156
5.9833741 -10.713069 -1.4946001
5.9136996 -10.742626 -1.4936085
5.8372645 -10.75952 -1.4908817
5.7725387 -10.79776 -1.4912535
5.7061763 -10.832976 -1.4912535
5.6359434 -10.860738 -1.4902619
5.5728092 -10.902184 -1.4912535
5.4928722 -10.910469 -1.487659
5.4196539 -10.93152 -1.4859238
5.3520422 -10.963676 -1.4857998
5.2893968 -11.006148 -1.4871632
5.2285523 -11.052749 -1.4891464
5.1669164 -11.098117 -1.4910057
5.1045074 -11.142241 -1.4927409
5.0372667 -11.176066 -1.4931127
4.9517088 -11.168663 -1.4879069
4.8747587 -11.179734 -1.485304
4.7959051 -11.185721 -1.4820814
4.7140794 -11.183848 -1.4778671
4.6415706 -11.203395 -1.4766277
4.5734887 -11.233502 -1.4768755
4.4919486 -11.230027 -1.4726614
4.4138885 -11.234288 -1.4695626
4.3352313 -11.236163 -1.4662161
4.2609348 -11.248632 -1.4643568
4.1921802 -11.275496 -1.4644808
4.1263161 -11.310328 -1.4657203
4.0558367 -11.332631 -1.4653484
3.9812965 -11.343259 -1.4634892
3.9103296 -11.363721 -1.4629934
3.8354571 -11.372456 -1.4610102
3.7668498 -11.399544 -1.461506
3.6977489 -11.425275 -1.4618778
3.6254776 -11.441127 -1.4610102
3.5475678 -11.438515 -1.4577876
3.4755876 -11.45437 -1.4570439
3.4103189 -11.492603 -1.459275
3.3430536 -11.524749 -1.4607624
3.2774158 -11.563184 -1.4631174
3.2079914 -11.588814 -1.463861
3.1427748 -11.630313 -1.4667119
3.0759053 -11.666649 -1.4689429
3.0027802 -11.679537 -1.4681993
2.9300952 -11.693892 -1.4677035
2.8599339 -11.718398 -1.4685711
2.7923331 -11.754068 -1.470926
2.7212756 -11.775815 -1.4715458
2.6430998 -11.76615 -1.4681993
2.5666254 -11.762756 -1.4657203
2.4894702 -11.754985 -1.4627455
2.4141037 -11.754486 -1.4607624
2.3378692 -11.74864 -1.4581594
2.2649865 -11.758866 -1.4576637
2.1900687 -11.75791 -1.4558045
2.1138432 -11.748664 -1.4529536
2.0423934 -11.765324 -1.4534494
1.9722914 -11.790358 -1.4550607
1.9010131 -11.809094 -1.4559283
1.8348852 -11.861724 -1.4611342
0.41664055 -2.8012567 -0.31560805
0.3921878 -2.7526741 -0.30916277
0.3719523 -2.7304471 -0.30606407
0.35174945 -2.7061083 -0.30271748
0.33501703 -2.7072308 -0.30259353
0.22215572 -1.8872821 -0.19922103
0.21111815 -1.8935409 -0.19984077
0.28523231 -2.7139256 -0.30271748
0.26662979 -2.6958745 -0.30023852
0.72439462 -7.8375077 -0.94501531
0.67399287 -7.8151121 -0.94166869
0.24589337 -3.0623488 -0.34560344
0.57825756 -7.8257632 -0.94204056
0.53076392 -7.8370843 -0.94303215
0.12257499 -1.9768913 -0.20926081
0.20915335 -3.7639775 -0.43273878
0.18328004 -3.7086976 -0.42567375
0.16052045 -3.7097523 -0.42567375
0.13779131 -3.7116592 -0.4257977
0.1142844 -3.6886311 -0.42282295
0.09014076 -3.6277595 -0.41513819
0.22424155 -12.131714 -1.4774953
0.043914042 -3.4896824 -0.39778548
0.021821434 -3.378752 -0.38390332
0.0010883735 -3.4254599 -0.38972887
-0.073919751 -12.193099 -1.4849322
-0.04213063 -3.5214598 -0.40175182
-0.22284739 -12.153573 -1.4802221
-0.29846418 -12.194633 -1.485552
-0.11053632 -3.6371226 -0.41637766
-0.44922149 -12.220792 -1.4893943
-0.52641511 -12.269357 -1.4958396
-0.60212696 -12.274816 -1.4969552
-0.67759687 -12.273862 -1.497327
-0.75265163 -12.265512 -1.4968312
-0.25310367 -3.7602832 -0.43261483
-0.27354288 -3.7230339 -0.42815271
-0.29551184 -3.7104049 -0.42678928
-1.0513918 -12.21962 -1.4938564
-1.1351075 -12.307795 -1.5057554
-1.2076869 -12.270973 -1.5020369
-1.2829574 -12.263331 -1.5020369
-1.3588361 -12.261147 -1.5027807
-1.4333508 -12.246664 -1.5020369
-1.5106547 -12.255365 -1.5042681
-0.37544894 -2.9061561 -0.32787889
-0.39527717 -2.9185464 -0.32973811
-1.7585944 -12.384636 -1.5243475
-1.814602 -12.239141 -1.5073668
-1.8896657 -12.227776 -1.5073668
-1.9607171 -12.191459 -1.5042681
-0.50883907 -3.0498953 -0.34808239
-0.52839166 -3.0516043 -0.34870213
-2.1974373 -12.223619 -1.5131923
-2.2684023 -12.188444 -1.5104654
-2.3461487 -12.189886 -1.5124485
-2.4241915 -12.191806 -1.5145557
-2.5039427 -12.201002 -1.5176544
-0.59246492 -2.8038986 -0.31982228
-0.6109271 -2.8060274 -0.32056597
-0.62334955 -2.7809262 -0.31783912
-0.85751623 -3.7167993 -0.43831643
-0.88443327 -3.7288454 -0.4405475
-2.9597988 -12.135276 -1.5221165
-3.0329983 -12.112073 -1.5214968
-3.1062713 -12.089391 -1.521001
-0.74147224 -2.817507 -0.32577178
-0.75512296 -2.7994931 -0.32403651
-0.76910996 -2.7833309 -0.32254913
-3.3947196 -11.983742 -1.5176544
-0.78938818 -2.7260323 -0.31635174
-0.81710708 -2.7582383 -0.32118571
-0.98640335 -3.2554872 -0.38675413
-0.98373073 -3.1763952 -0.37721014
-3.7679138 -11.896672 -1.5206292
-3.841145 -11.874273 -1.5207531
-3.9117529 -11.843885 -1.5198854
-3.9738891 -11.788631 -1.5157952
-1.0991039 -3.1982083 -0.38427517
-4.1557117 -11.845717 -1.5299252
-4.2299891 -11.824667 -1.530545
-1.172748 -3.2184527 -0.38972887
-4.3834214 -11.79512 -1.5336437
-1.1555712 -3.0544167 -0.36977327
-1.1935766 -3.0972614 -0.37646645
-4.5751171 -11.649634 -1.5252153
-1.2812388 -3.2067618 -0.39319941
-1.2335494 -3.0334091 -0.3708888
-1.2612529 -3.047785 -0.37386355
-1.2833983 -3.0482185 -0.37497908
-1.3055965 -3.0484943 -0.37609461
-5.0515676 -11.589772 -1.5410806
-5.1233902 -11.560372 -1.5413284
-5.1921883 -11.524195 -1.5407087
-5.2599092 -11.485804 -1.5398411
-5.327354 -11.447017 -1.5389735
-5.4008856 -11.421289 -1.539965
-1.3385903 -2.7883854 -0.34820634
-1.3622031 -2.7934954 -0.35006556
-1.3700629 -2.7664144 -0.34746265
-1.4106582 -2.8049312 -0.35403189
-1.4346163 -2.8094764 -0.35589111
-1.4454298 -2.7882898 -0.35415584
-5.803545 -11.021695 -1.5177784
-5.8705955 -10.985003 -1.5176544
-5.9279518 -10.930458 -1.5150515
-5.9862957 -10.878232 -1.5128205
-6.0500274 -10.836098 -1.5120767
-6.1120009 -10.791001 -1.5109612
-4.8911633 -8.5138054 -1.1883249
-6.200491 -10.640599 -1.5001777
-6.2717228 -10.612604 -1.5016651
-6.3229485 -10.550942 -1.4983186
-6.3849916 -10.507707 -1.4976988
-6.446743 -10.464108 -1.497079
-4.9520192 -7.9291029 -1.1295737
-5.1901059 -8.1978512 -1.173823
-5.2242284 -8.1407995 -1.1701046
-5.2794929 -8.1169081 -1.171344
-5.3499546 -8.1158409 -1.1760541
-5.6582131 -8.4698076 -1.2341857
-6.9145875 -10.213798 -1.5025327
-6.984426 -10.181815 -1.5041441
-7.0439367 -10.134694 -1.5035243
-7.100276 -10.08317 -1.5022849
-7.1677747 -10.047491 -1.5035243
-5.6283951 -7.7885685 -1.162172
-1.7120479 -2.340142 -0.32403651
-1.7228278 -2.324811 -0.32329282
-1.7299081 -2.3046758 -0.32180545
-1.7386091 -2.2869108 -0.32068992
-1.7465516 -2.2683399 -0.31945044
-1.7634896 -2.2614918 -0.32007018
-1.7748715 -2.2475147 -0.31957439
-7.7486253 -9.6830292 -1.5109612
-7.8435068 -9.6792431 -1.5180262
-7.8945665 -9.6209621 -1.5164149
-7.9521823 -9.5708151 -1.516167
-8.0082026 -9.5188036 -1.5156713
-8.0638838 -9.466466 -1.5151755
-8.1133909 -9.4070415 -1.5135641
-1.710035 -1.9596671 -0.2867282
-8.2084999 -9.2844687 -1.5098457
-8.3275299 -9.303422 -1.5214968
-8.3804588 -9.2477379 -1.5207531
-8.4336901 -9.1924868 -1.5201334
-8.4858828 -9.1362038 -1.5193896
-8.5546989 -9.0976973 -1.5217447
-8.6185703 -9.0536594 -1.5232321
-8.6746492 -9.0013208 -1.523356
-8.7602091 -8.9791737 -1.5288097
-8.8360605 -8.9464302 -1.5325282
-8.8858767 -8.8871336 -1.5316606
-3.4280932 -3.3877673 -0.56387562
-3.2804918 -3.2024341 -0.5345
-3.34009 -3.2208068 -0.54144108
-3.3935673 -3.2324095 -0.5472666
-3.2875593 -3.0932436 -0.52569968
-3.1574383 -2.9345691 -0.50029039
-3.175385 -2.9151404 -0.50029039
-3.5373101 -3.2074602 -0.55829799
-3.5598814 -3.1883426 -0.55879378
-3.6031656 -3.1874728 -0.56276011
-3.4746721 -3.0360661 -0.53821844
-3.437633 -2.966728 -0.5290463
-3.3757052 -2.8773685 -0.51590782
-3.4008896 -2.8629899 -0.5171473
-3.7999856 -3.1591582 -0.57912123
-3.8791294 -3.1848822 -0.58878917
-9.9625864 -8.0754309 -1.563763
-10.00885 -8.0116692 -1.5632672
-3.8787065 -3.0667961 -0.57949305
-10.128316 -7.9053349 -1.5667378
-10.182134 -7.8472795 -1.5676054
-10.247465 -7.797874 -1.5703323
-10.312574 -7.747961 -1.5730591
-10.378252 -7.6981335 -1.5759099
-10.438102 -7.6436877 -1.577893
-10.518583 -7.60391 -1.5830989
-10.572312 -7.5444126 -1.5842144
-10.620838 -7.4811144 -1.5845863
-10.664098 -7.4141064 -1.5842144
-10.69466 -7.3384285 -1.5819833
-10.792895 -7.3088303 -1.59004
-10.827638 -7.2358532 -1.5885526
-10.909941 -7.1944051 -1.5942541
-10.985486 -7.1478891 -1.5989642
-5.7055211 -3.6634264 -0.80879658
-5.7337604 -3.6320651 -0.80966425
-6.9897118 -4.3674908 -0.99137181
-6.9445705 -4.2802758 -0.98083621
-6.9808788 -4.2437682 -0.98232359
-6.9982753 -4.1957531 -0.98108411
-6.912837 -4.0870981 -0.96497089
-7.0569525 -4.1140547 -0.98219967
-7.0596933 -4.0578227 -0.97897702
-7.122448 -4.0359483 -0.98443073
-7.0760355 -3.9525008 -0.97426701
-7.0497336 -3.8812587 -0.96707803
-7.1911688 -3.9017982 -0.98381096
-7.1895957 -3.8440361 -0.9802165
-7.4316649 -3.9149778 -1.0110795
-7.2027559 -3.7381544 -0.97550648
-7.1469173 -3.6537004 -0.9644751
-7.4475145 -3.7498622 -1.0033947
-7.2996821 -3.6194842 -0.97959673
-7.3021345 -3.5650516 -0.97686988
-7.2854123 -3.5017006 -0.97154015
-7.2565279 -3.4331748 -0.96459907
-7.3116422 -3.4044967 -0.96930909
-7.3450246 -3.3653541 -0.97104436
-7.343823 -3.3104386 -0.96806961
-5.7864308 -2.5660696 -0.75252426
-5.7929707 -2.5265512 -0.75128478
-7.5512629 -3.2380333 -0.98814917
-7.5216107 -3.170831 -0.98145598
-7.5161719 -3.1143672 -0.97810936
-7.7612329 -3.1602139 -1.0086006
-7.3225646 -2.9294209 -0.94699848
-7.7606378 -3.0494974 -1.0033947
-7.6023741 -2.9336154 -0.97972071
-7.6554947 -2.9002666 -0.98443073
-7.7094212 -2.8667216 -0.98926467
-7.6373725 -2.7867236 -0.97736567
-7.6347075 -2.7327895 -0.9747628
-7.6138787 -2.6727509 -0.96980488
-7.559761 -2.6017742 -0.96050876
-7.7062826 -2.5994048 -0.97773755
-7.6646123 -2.5330853 -0.9701767
-7.6903958 -2.4893684 -0.97154015
-7.9344482 -2.5146511 -1.0015355
-7.9696317 -2.4720898 -1.0041385
-7.8631058 -2.3862751 -0.98827308
-7.8994799 -2.3444736 -0.99112391
-7.8917966 -2.289603 -0.98827308
-7.921927 -2.2457352 -0.99038023
-7.9059105 -2.1888812 -0.98653781
-7.8827901 -2.1304972 -0.9818278
-8.0434809 -2.1210327 -1.0009158
-8.0774879 -2.0770726 -1.0036427
-8.124732 -2.0361502 -1.0081048
-8.1457491 -1.9883759 -1.0092202
-8.158762 -1.9385864 -1.0093442
-8.2749205 -1.912608 -1.0227306
-8.3116732 -1.8674502 -1.0259533
-8.355938 -1.8236047 -1.0301675
-8.6349049 -1.8290155 -1.0643771
-9.2301493 -1.8959173 -1.1388698
-9.3243332 -1.8556995 -1.1494054
-9.8412552 -1.8958105 -1.2137343
-10.201941 -1.9004054 -1.2581075
-10.726138 -1.9299711 -1.3231802
-11.05357 -1.9189084 -1.3632153
-11.803081 -1.9744184 -1.4566721
-12.499777 -2.0121295 -1.5433116
-12.664868 -1.9590436 -1.5626475
-13.738689 -2.0388114 -1.6967591
-14.09086 -2.0027592 -1.739645
-14.890478 -2.0232122 -1.8389273
-15.650502 -2.028697 -1.9331276
-15.677427 -1.934451 -1.9349868
-15.719554 -1.841797 -1.9388292
-15.702945 -1.7422472 -1.9353586
-15.665968 -1.6409047 -1.9294091
-15.679691 -1.5451381 -1.9299049
-15.69777 -1.4497209 -1.9310205
-15.705381 -1.3532888 -1.9308965
-15.709433 -1.2565807 -1.9304007
-15.717836 -1.1602387 -1.9305247
-15.72565 -1.063841 -1.9306487
-15.732872 -0.96739101 -1.9307727
-15.722659 -0.86996174 -1.9287895
-15.727701 -0.77347296 -1.9287895
-15.722238 -0.67652917 -1.92755
-15.698327 -0.57902455 -1.9240794
-15.710511 -0.48296431 -1.925195
-15.707227 -0.38641134 -1.9244512
-15.721208 -0.29024526 -1.9259386
-15.722692 -0.19377628 -1.9259386
-15.729539 -0.097336404 -1.9266824
-15.71694 -0.00082021492 -1.925071
-15.701765 0.095525481 -1.9232118
-15.687984 0.19170932 -1.9216005
-15.6756 0.28776422 -1.9202371
-15.662627 0.38367438 -1.9188737
-15.669896 0.48007584 -1.9201131
-15.653765 0.5757404 -1.9185017
-15.635067 0.67113978 -1.9166425
-15.640566 0.76754928 -1.9178821
-15.631598 0.86328435 -1.9173863
-15.619074 0.95875567 -1.9165186
-15.598047 1.0535703 -1.9146594
-14.293396 -0.36140406 -1.9176936
-14.291383 -0.27361864 -1.9171515
-14.269015 -0.18561326 -1.9138985
-14.255025 -0.097954199 -1.9118652
-14.262293 -0.010490461 -1.9128141
-14.284876 0.077143945 -1.9159316
-14.262339 0.164542 -1.9129497
-14.272947 0.25226074 -1.9145762
-14.253303 0.33940908 -1.9121364
-14.24402 0.42665187 -1.9111875
-14.250044 0.5143649 -1.9124075
-14.236721 0.60137397 -1.911052
-14.208023 0.68752104 -1.9076635
-14.219365 0.77554983 -1.9098321
-14.20445 0.86218357 -1.9084767
-14.212732 0.95024914 -1.9103743
-14.190824 1.0362848 -1.9082056
-14.167407 1.1220093 -1.9059014
-14.120769 1.2055477 -1.9004797
-14.124946 1.2932521 -1.9021062
-14.091106 1.3773915 -1.8985821
-14.077462 1.4633149 -1.8979044
-14.011099 1.5433748 -1.8900429
-14.039746 1.6337814 -1.8953291
-14.033391 1.7203791 -1.8958713
-13.98523 1.8016446 -1.8907206
-13.976858 1.8878202 -1.8911272
-14.000328 1.9785351 -1.8960068
-13.997726 2.0658486 -1.8973622
-13.970098 2.1494384 -1.8953291
-13.898926 2.2258749 -1.8873321
-13.879143 2.3101392 -1.8865188
-13.880328 2.3979547 -1.8886875
-13.844872 2.4794106 -1.8858411
-13.831347 2.5646758 -1.8861122
-13.814377 2.6493084 -1.8859767
-13.775508 2.7295933 -1.8828591
-13.78665 2.8198235 -1.8867899
-13.780722 2.9068174 -1.8884164
-13.773276 2.993634 -1.8899074
-13.761416 3.0796032 -1.8908561
-13.730675 3.1613164 -1.8892297
-13.696557 3.242084 -1.8871965
-13.673518 3.3253613 -1.8867899
-13.619212 3.4007976 -1.8820459
-13.59233 3.4828241 -1.8812326
-13.551539 3.5611238 -1.8785218
-13.529433 3.6442075 -1.8785218
-13.493447 3.7234645 -1.8766242
-13.478928 3.8086131 -1.8778441
-13.460063 3.8926227 -1.8785218
-13.458727 3.9818842 -1.8817748
-13.416023 4.0589395 -1.8791995
-13.373827 4.1359138 -1.8767598
-13.319856 4.2089415 -1.8726934
-13.319238 4.2988071 -1.8763531
-13.297315 4.3820019 -1.8770308
-13.291776 4.4707742 -1.8801483
-13.241603 4.544529 -1.8768953
-13.210664 4.6247101 -1.8764887
-13.153111 4.6953568 -1.8722868
-13.125916 4.7766523 -1.8725579
-13.061989 4.8443551 -1.8675429
-13.055189 4.9331656 -1.8709314
-13.020975 5.011754 -1.8703892
-13.006582 5.0980625 -1.872829
-12.936407 5.1623516 -1.8671362
-12.913668 5.2453589 -1.8684916
-12.907793 5.3354721 -1.8724223
-12.830974 5.3961377 -1.8659164
-12.786692 5.4700894 -1.8642899
-12.692924 5.5223579 -1.8553441
-12.768436 5.6486344 -1.8717446
-12.710947 5.7167149 -1.8683561
-12.674729 5.794188 -1.8682206
-12.583228 5.8459697 -1.8598169
-12.631342 5.9628239 -1.8725579
-12.602557 6.0440717 -1.8737779
-12.570579 6.123889 -1.8745911
-12.550528 6.2096925 -1.8773019
-12.524584 6.2928109 -1.8791995
-12.491914 6.3726935 -1.8801483
-12.471052 6.4587903 -1.8829947
-12.457497 6.5490198 -1.887061
-12.432813 6.6337295 -1.8895007
-12.397102 6.7127213 -1.890314
-12.378258 6.8010659 -1.8938382
-12.32764 6.8720655 -1.8924826
-12.320601 6.9675722 -1.8980399
-12.275898 7.0420532 -1.8977689
-12.259862 7.1331878 -1.9021062
-12.236342 7.2203622 -1.9053593
-12.192659 7.2958155 -1.9054948
-12.171381 7.3848805 -1.90929
-12.141029 7.4687676 -1.9117297
-12.116831 7.5567541 -1.9152539
-12.07861 7.6362538 -1.9166093
-12.055719 7.7257247 -1.92054
-12.031354 7.8146625 -1.9243352
-11.981522 7.8872485 -1.9240642
-11.927956 7.9573188 -1.9232509
-11.908456 8.0503321 -1.9281304
-11.905428 8.1551628 -1.9358563
-11.859235 8.2308846 -1.936534
-11.8466 8.3302803 -1.9429046
-11.807368 8.4114361 -1.9449377
-11.761961 8.4883642 -1.946022
-11.713655 8.5632982 -1.9466997
-11.685575 8.6532879 -1.9509016
-11.661587 8.7468214 -1.9559166
-11.594285 8.8080225 -1.9536124
-11.575358 8.9061852 -1.9597118
-11.531435 8.985568 -1.9616095
-11.486972 9.0647469 -1.9635071
-11.43578 9.1387691 -1.9643203
-11.395664 9.2218542 -1.9671667
-11.347296 9.2985106 -1.9686576
-11.299177 9.3755531 -1.9702842
-11.249782 9.4517174 -1.9717752
-11.206669 9.5334063 -1.974486
-11.147962 9.6019888 -1.974486
-11.077634 9.6604433 -1.9724529
-11.043403 9.7505274 -1.9770613
-10.993709 9.8273497 -1.978959
-10.942752 9.9032631 -1.980721
-10.911002 9.9969912 -1.9861426
-10.862532 10.07588 -1.9885825
-10.803391 10.145054 -1.9891247
-10.730168 10.200912 -1.9870914
-10.688077 10.286483 -1.9910222
-10.621211 10.348413 -1.9903445
-10.538468 10.394604 -1.9866848
-10.513051 10.497574 -1.9941397
-10.4575 10.571039 -1.9959017
-10.396595 10.639258 -1.9967149
-10.311163 10.682178 -1.9927843
-10.282346 10.783965 -2.0001035
-10.232965 10.864884 -2.0034921
-10.172856 10.934722 -2.0048475
-10.113615 11.00569 -2.006474
-10.048559 11.070473 -2.0070162
-10.000285 11.154051 -2.0110824
-9.9355984 11.219652 -2.0118957
-9.8783102 11.293828 -2.0143356
-9.8204851 11.367723 -2.0167754
-9.762125 11.441332 -2.0192151
-9.6898232 11.498743 -2.0188084
-9.6171846 11.555698 -2.0184019
-9.5454702 11.613725 -2.0182662
-9.4796495 11.678999 -2.0194862
-9.4257812 11.759364 -2.023417
-9.3700523 11.837954 -2.0270765
-9.3155441 11.918642 -2.0311427
-9.251318 11.987342 -2.0331759
-9.1763897 12.042305 -2.0329049
-9.1059008 12.103134 -2.0337181
-9.040328 12.170709 -2.0357513
-8.9766121 12.241131 -2.0383265
-8.9077244 12.304808 -2.0398176
-8.8406963 12.371324 -2.0418508
-8.767477 12.429384 -2.0425284
-8.6899137 12.48132 -2.0422573
-8.617095 12.540122 -2.0432062
-8.5472174 12.603419 -2.0449681
-8.4741316 12.662213 -2.0460525
-8.4022846 12.723065 -2.0475435
-8.3224363 12.771892 -2.0471368
-8.2455206 12.825216 -2.0475435
-8.1751623 12.888955 -2.0497122
-8.0974998 12.941394 -2.0501187
-8.0085735 12.975659 -2.0476789
-7.9102578 12.994089 -2.0427995
-7.8512888 13.077208 -2.0483568
-7.7597957 13.10638 -2.0453749
-7.6692395 13.136634 -2.0426641
-7.6003532 13.204052 -2.045917
-7.5123453 13.238375 -2.0440195
-7.4217844 13.267792 -2.0414441
-7.3254046 13.286185 -2.0372422
-7.2432714 13.330012 -2.0371068
-7.1739717 13.397788 -2.0407662
-7.1008763 13.45908 -2.0434773
-7.0140467 13.494485 -2.0422573
-6.9270501 13.529331 -2.0410376
-6.8198137 13.523809 -2.0337181
-6.7490444 13.590246 -2.0375133
-6.670752 13.642083 -2.0391397
-6.5804734 13.669367 -2.0371068
-6.4655027 13.644128 -2.0272121
-6.3921318 13.70599 -2.0306005
-6.3008876 13.729646 -2.0282965
-6.2087784 13.750892 -2.0257211
-6.1206679 13.780581 -2.0245013
-6.0288572 13.801534 -2.0220616
-5.9413218 13.831894 -2.0211127
-5.845161 13.84162 -2.0171819
-5.7669573 13.893696 -2.0196216
-5.6905804 13.950837 -2.0228748
-5.6004491 13.974455 -2.0212481
-5.5142355 14.007634 -2.0211127
-5.4406872 14.073549 -2.0258567
-5.3538795 14.105742 -2.0257211
-5.2637682 14.129043 -2.0243657
-5.1715317 14.146186 -2.022197
-5.0812898 14.168325 -2.0208416
-4.9919577 14.192695 -2.0198927
-4.9060712 14.226804 -2.0204349
-4.8199539 14.260393 -2.020977
-4.7289362 14.279354 -2.0194862
-4.6384792 14.29962 -2.0182662
-4.5506511 14.327811 -2.0182662
-4.4647107 14.362086 -2.0192151
-4.3773675 14.392055 -2.0196216
-4.2847395 14.404398 -2.0175886
-4.1924019 14.417099 -2.015691
-4.099257 14.42635 -2.0133867
-4.0106616 14.451231 -2.0133867
-3.9128456 14.442098 -2.0086427
-3.8380854 14.518517 -2.0160975
-3.7518976 14.553307 -2.017724
-3.6649444 14.585663 -2.0190794
-3.5558269 14.528 -2.0078294
-3.385777 14.210292 -1.9601185
-3.2658539 14.089884 -1.9403292
-3.1575568 14.013004 -1.926775
-3.0450299 13.911133 -1.9098321
-2.943552 13.853963 -1.8992598
-2.843291 13.798015 -1.8889586
-2.7490671 13.767593 -1.8823169
-2.64498 13.683035 -1.8682206
-2.5615189 13.701929 -1.8686272
-2.4696481 13.674488 -1.8626633
-2.3765097 13.636678 -1.8553441
-2.2950897 13.664681 -1.8572416
-2.2146807 13.700025 -1.8602235
-2.1311858 13.717272 -1.8607657
-2.0411332 13.690892 -1.8553441
-1.9465806 13.629598 -1.8451784
-1.8623781 13.637359 -1.8446361
-1.7786658 13.648529 -1.8446361
-1.6948864 13.659186 -1.8446361
-1.6097674 13.658505 -1.8431451
-1.5238409 13.649417 -1.8405699
-1.438814 13.646687 -1.8389434
-1.3563247 13.668075 -1.8407054
-1.2734433 13.686992 -1.8421963
-1.191067 13.713302 -1.8447716
-1.106184 13.711464 -1.8435518
-1.0218104 13.715029 -1.8431451
-0.93844819 13.732902 -1.8447716
-0.85976446 13.828388 -1.8571061
-0.78072017 13.937271 -1.871338
-0.69721222 13.98237 -1.8768953
-0.6109286 13.975497 -1.8754044
-0.52449501 13.961162 -1.8729645
-0.44121945 14.040368 -1.8834014
-0.35483542 14.033897 -1.8821814
-0.26486275 13.834721 -1.8546664
-0.18140306 13.946052 -1.8697115
-0.097154409 14.139108 -1.8960068
-0.010371686 14.106742 -1.8915339
0.076169878 14.103568 -1.8911272
0.16120127 13.972061 -1.8732356
0.247104 13.980716 -1.8745911
0.33429691 14.038365 -1.8827236
0.42137676 14.06774 -1.887061
0.50747257 14.058949 -1.8862478
0.57989591 13.727918 -1.8413831
0.66502726 13.742904 -1.8439584
0.7506339 13.762308 -1.8472115
0.83434373 13.745575 -1.845585
0.91932994 13.750083 -1.8469404
1.0053406 13.766911 -1.8500578
1.0908103 13.773322 -1.8518199
1.1749643 13.762422 -1.8512777
1.2600189 13.761859 -1.8522265
1.3452073 13.761758 -1.8533108
1.4323876 13.779852 -1.8569705
1.5172375 13.773758 -1.8573772
1.6042421 13.78584 -1.8603591
1.6877154 13.766887 -1.8591392
1.7711432 13.74841 -1.8580549
1.8565292 13.745139 -1.8591392
1.9449911 13.762919 -1.8632054
2.0314271 13.764448 -1.8651031
2.1165991 13.756621 -1.8657808
2.2030046 13.756093 -1.8675429
2.2907846 13.76284 -1.8703892
2.3780553 13.765122 -1.8726934
2.4663136 13.771728 -1.8756754
2.5538392 13.772897 -1.8779796
2.6418452 13.775455 -1.8805549
2.730556 13.780367 -1.8835369
2.8166475 13.771119 -1.8846213
2.9041593 13.768119 -1.8866544
2.9938443 13.774244 -1.8900429
3.0850117 13.785587 -1.8942448
3.1759863 13.794399 -1.8981755
3.2646747 13.792006 -1.9006152
3.3513463 13.780379 -1.9018351
3.4423182 13.785511 -1.9054948
3.5342166 13.792923 -1.909561
3.6273425 13.803557 -1.9141695
3.713002 13.784867 -1.9147117
3.8070011 13.796208 -1.9195912
3.8977771 13.794518 -1.9227087
3.9889507 13.793185 -1.9259617
4.0819407 13.796952 -1.930028
4.1788564 13.812425 -1.9358563
4.274066 13.8206 -1.9407359
4.3653541 13.814898 -1.9437178
4.459167 13.816139 -1.9477841
4.5565705 13.8271 -1.9533414
4.6571178 13.845835 -1.9601185
4.755815 13.857295 -1.9659468
4.8479538 13.848426 -1.9689287
4.9434929 13.848278 -1.9732661
5.0412455 13.853065 -1.9784167
5.1368308 13.850669 -1.9826186
5.2315254 13.84484 -1.9864137
5.3288326 13.844842 -1.9911578
5.4270592 13.846016 -1.9961728
5.5357819 13.87227 -2.0049832
5.6353364 13.873841 -2.0102692
5.7336044 13.87105 -2.0150132
5.8343544 13.873054 -2.0205705
5.9361234 13.876163 -2.0263989
6.0405211 13.883996 -2.0330405
6.1460395 13.89288 -2.039953
6.2490487 13.894667 -2.045917
6.3502512 13.891204 -2.0512033
6.4533157 13.890615 -2.0570314
6.5595717 13.895555 -2.0638087
6.592443 13.746056 -2.0472724
6.7547631 13.865675 -2.0716701
6.8515763 13.847944 -2.0753298
6.9275212 13.787937 -2.072619
7.0327015 13.785769 -2.0788538
7.1203465 13.748516 -2.0798028
7.1340375 13.57039 -2.0590646
7.2255645 13.542095 -2.0615044
7.3089929 13.498376 -2.06164
7.3969274 13.462827 -2.0631309
7.4504514 13.365262 -2.0549984
7.5030575 13.26755 -2.0468657
7.5872822 13.226418 -2.0476789
7.6528497 13.153067 -2.0434773
7.7263622 13.093916 -2.0415797
7.795877 13.028407 -2.0387332
7.8479195 12.934586 -2.0314138
7.932847 12.895472 -2.0329049
8.0107746 12.844872 -2.0326338
8.0783205 12.77789 -2.0297873
8.1405354 12.703056 -2.0257211
8.2069941 12.635419 -2.0228748
8.2740183 12.5691 -2.0202994
8.3454876 12.509852 -2.018944
8.4104366 12.441173 -2.0160975
8.4849367 12.386881 -2.015691
8.5534382 12.324004 -2.0139289
8.6283255 12.270478 -2.0137935
8.688508 12.196324 -2.0102692
8.7492647 12.123501 -2.0070162
8.8077011 12.047992 -2.0033567
8.8673105 11.974612 -2.0001035
8.9192171 11.891444 -1.995224
8.9800282 11.820714 -1.9925132
9.0548058 11.768532 -1.9930553
9.1256275 11.711188 -1.9927843
9.1868811 11.641751 -1.9904801
9.2445335 11.568134 -1.987498
9.2985125 11.490398 -1.9838384
9.3569107 11.418567 -1.9812632
9.4103479 11.341114 -1.977739
9.4708366 11.272539 -1.9758414
9.5289125 11.201385 -1.9735372
9.5845318 11.127692 -1.9708264
9.6155128 11.02611 -1.9631004
9.6718397 10.954276 -1.9607962
9.7362309 10.891769 -1.9602541
9.8008833 10.82962 -1.9598475
9.8551006 10.75613 -1.9574076
9.8986797 10.671486 -1.9529347
9.9558334 10.601881 -1.9513083
10.009093 10.528386 -1.9490039
10.064574 10.457493 -1.9472419
10.11818 10.384896 -1.9452088
10.173362 10.314152 -1.9435823
10.225956 10.241018 -1.9415492
10.277331 10.166931 -1.9393804
10.323933 10.088445 -1.9363985
10.363542 10.003577 -1.9321967
10.402499 9.9186039 -1.9279948
10.442968 9.8355684 -1.9241997
10.480635 9.7503853 -1.9199978
10.522757 9.6698036 -1.9167448
10.55915 9.5844116 -1.9125431
10.592679 9.496954 -1.9079345
10.612182 9.3976221 -1.9008863
10.681577 9.3427668 -1.9030551
10.692968 9.2375393 -1.894787
10.766029 9.1859026 -1.8977689
10.810068 9.1094551 -1.8956002
10.852813 9.0321798 -1.893296
10.904967 8.9629021 -1.8927537
10.938989 8.8789625 -1.8890941
10.991716 8.8104353 -1.888823
11.027702 8.7286825 -1.8857056
11.059977 8.6443796 -1.8820459
11.072023 8.5448751 -1.8749977
11.123457 8.4761772 -1.8748622
11.171298 8.4047871 -1.8741845
11.232998 8.3437634 -1.8759465
11.284782 8.2752686 -1.8760821
11.322505 8.1965742 -1.8739134
11.354852 8.1142731 -1.8709314
11.388234 8.0330257 -1.8682206
11.410477 7.9443154 -1.8637476
11.432878 7.8561959 -1.8594103
11.466928 7.7764435 -1.8571061
11.488903 7.6888542 -1.8529042
11.515196 7.6045647 -1.8495157
11.559979 7.5326834 -1.8492446
11.607649 7.4626827 -1.8495157
11.637323 7.3812356 -1.8469404
11.683235 7.3102169 -1.8470759
11.713537 7.2295456 -1.8447716
11.755137 7.1559911 -1.844365
11.792029 7.079648 -1.8432807
11.842067 7.0111985 -1.844365
11.833528 6.9084325 -1.8362325
11.861096 6.8272905 -1.8339282
11.903626 6.7548728 -1.8340638
11.922368 6.6691298 -1.8305397
11.954389 6.5910659 -1.8291843
11.978935 6.5090761 -1.8267446
12.0038 6.4275007 -1.8244402
12.028116 6.3458662 -1.822136
12.046608 6.2614336 -1.8190186
12.108612 6.1995912 -1.8226782
12.165886 6.1349921 -1.8256601
12.20685 6.0619912 -1.8262024
12.235806 5.9830599 -1.8249824
12.255325 5.899704 -1.8224071
12.352177 5.8532476 -1.831624
12.405817 5.7857218 -1.8343349
12.448287 5.7127981 -1.8354192
12.507486 5.6473184 -1.8390789
12.542808 5.5708699 -1.8392144
12.573122 5.4922175 -1.8386723
12.599302 5.4118385 -1.837588
12.61493 5.327105 -1.8350126
12.65104 5.2511201 -1.8355548
12.678434 5.171525 -1.834877
12.719125 5.0973201 -1.8362325
12.750162 5.0191813 -1.8362325
12.777022 4.939424 -1.8356904
12.808942 4.8616357 -1.8359615
12.820891 4.7763777 -1.8333861
12.865776 4.7034039 -1.8356904
12.898124 4.6257105 -1.8362325
12.933742 4.5491118 -1.8373169
12.970777 4.4728966 -1.8386723
13.009241 4.3970327 -1.8402988
13.035975 4.3171268 -1.8402988
13.042429 4.2306376 -1.8374524
13.051146 4.1451325 -1.8350126
13.107555 4.0746808 -1.8394855
13.149372 3.9993675 -1.8419253
13.175564 3.9191742 -1.8421963
13.19746 3.8377032 -1.8419253
13.213135 3.7544863 -1.8408409
13.265518 3.6815557 -1.8450428
13.291684 3.6011271 -1.845585
13.320234 3.5212758 -1.8465338
13.353103 3.4424465 -1.8481603
13.397996 3.3664854 -1.8515488
13.395304 3.2785597 -1.8482958
13.430589 3.1999805 -1.8504645
13.449971 3.1175117 -1.8504645
13.474646 3.0362325 -1.8512777
13.474633 2.9494708 -1.8487024
13.493445 2.8669424 -1.848838
13.508842 2.7836943 -1.8485669
13.50818 2.6972606 -1.8461272
13.515721 2.6126325 -1.8449072
13.581166 2.5389392 -1.8518199
13.604289 2.4569678 -1.8529042
13.63863 2.3768499 -1.8556151
13.651003 2.2927918 -1.8553441
13.683397 2.2119923 -1.8579193
13.702586 2.1289036 -1.8587326
13.775167 2.0536997 -1.8670007
6.5677319 0.9377948 -0.86927122
6.2945719 0.85939723 -0.83077711
6.233902 0.81217813 -0.82169574
6.2181201 0.77134967 -0.81884933
6.2119122 0.73190552 -0.81735837
6.1946239 0.69135708 -0.81437641
6.2243676 0.65603632 -0.81790054
6.1996837 0.61499387 -0.81396979
6.1895294 0.57565635 -0.81207222
6.1574111 0.53457993 -0.80719268
6.129961 0.49431798 -0.80299085
0 0 -0
0 0 -0
0 0 -0
0 0 -0
0 0 -0
0 0 -0
0 0 -0
0 0 -0
0 0 -0
0 0 -0
0 0 -0
0 0 -0
0 0 -0
0 -0 -0
0 -0 -0
0 -0 -0
0 -0 -0
0 -0 -0
6.2102075 -0.22438741 -0.81180114
6.2067337 -0.26240471 -0.81153005
6.2277679 -0.30158433 -0.8146475
6.2525115 -0.34124765 -0.81830716
6.2344766 -0.37864593 -0.81613851
6.3101325 -0.42211211 -0.82684636
6.3261986 -0.46219289 -0.8294217
6.3439846 -0.50264305 -0.83226806
6.5332818 -0.55798864 -0.8586989
12.367727 -1.1324146 -1.6607047
12.356602 -1.2078948 -1.6601626
12.31348 -1.280004 -1.6552831
12.256154 -1.3501114 -1.6485059
10.572643 -1.23042 -1.4178123
10.567844 -1.2956309 -1.418219
10.569523 -1.3617152 -1.4195744
10.568823 -1.4276036 -1.4206587
10.57458 -1.494505 -1.4226918
10.579913 -1.5615307 -1.4247251
11.96263 -1.8406277 -1.6174667
11.904152 -1.9064754 -1.6109606
11.895162 -1.97997 -1.6113672
11.878884 -2.0522454 -1.6108251
11.854365 -2.1229987 -1.6091986
11.82358 -2.1924448 -1.6067588
11.786552 -2.2604737 -1.6035057
11.761769 -2.3306341 -1.6020148
11.755983 -2.4045458 -1.6032346
11.758458 -2.480314 -1.6056744
11.758509 -2.5557823 -1.6078432
11.738738 -2.6270177 -1.607301
11.701157 -2.6941059 -1.604319
8.2925758 -1.9630809 -1.1274799
11.629668 -2.8283644 -1.5990329
11.618824 -2.9013493 -1.5999817
11.597923 -2.971849 -1.599575
7.5557985 -1.9857237 -1.0304314
7.5511255 -2.0341091 -1.0315157
11.546988 -3.1864064 -1.6003883
11.520544 -3.2553117 -1.5994395
11.523196 -3.3325446 -1.6026925
11.512032 -3.4059973 -1.6040479
7.9821005 -2.4151073 -1.1025401
7.9463072 -2.4575996 -1.0995582
7.935802 -2.5078037 -1.1002359
7.9438372 -2.5640569 -1.1036245
8.6158276 -2.839411 -1.2027061
11.393891 -3.8324687 -1.6062167
11.476056 -3.9386482 -1.6215329
11.46009 -4.0119357 -1.6227528
7.7252131 -2.7578979 -1.0838352
7.7314215 -2.8137167 -1.0872238
11.337853 -4.2049742 -1.6159757
11.29423 -4.2678094 -1.6134003
11.243789 -4.3277764 -1.6098763
11.172745 -4.3793316 -1.6033702
11.130019 -4.4415617 -1.601066
11.086952 -4.5034328 -1.5987618
11.082002 -4.5808372 -1.6021503
11.055512 -4.6495171 -1.6024214
10.991249 -4.7020683 -1.5971353
10.933118 -4.756773 -1.5927979
10.878355 -4.8125453 -1.5890027
10.83326 -4.8722949 -1.5866984
10.818479 -4.9456768 -1.5890027
10.777146 -5.0069556 -1.5873762
10.72203 -5.0615697 -1.5837165
10.65593 -5.1105556 -1.5784304
10.595869 -5.1619587 -1.574093
10.55778 -5.2238007 -1.5731442
10.521987 -5.2867045 -1.572602
10.469051 -5.3408122 -1.5694846
10.441362 -5.4076819 -1.5702978
10.406231 -5.4707255 -1.5700268
10.354111 -5.5246797 -1.5671803
10.313918 -5.5848055 -1.5662315
10.260352 -5.6374898 -1.5632496
10.213452 -5.6935863 -1.561352
10.160214 -5.7459064 -1.5585057
10.107578 -5.7982807 -1.5557947
10.073524 -5.861187 -1.5560658
10.035664 -5.9218793 -1.5557947
9.9719315 -5.9670668 -1.5514574
9.9258137 -6.0224881 -1.5499665
9.8625126 -6.0671864 -1.5457646
9.7906303 -6.106092 -1.5402074
9.7621918 -6.171875 -1.5416983
9.7191334 -6.2284513 -1.5408851
9.6815643 -6.2885089 -1.5410206
9.6535549 -6.3548775 -1.5427827
9.5706968 -6.3848505 -1.5355989
9.5165653 -6.4334674 -1.5331591
9.4589281 -6.4794216 -1.5301772
9.4010859 -6.5249109 -1.5271952
9.3819456 -6.5972886 -1.5307194
9.343709 -6.6564555 -1.531126
9.2761774 -6.6945295 -1.5266531
9.1989326 -6.7250099 -1.5205537
9.148737 -6.7748413 -1.5190626
9.0760832 -6.8076649 -1.5137765
9.0633326 -6.8854012 -1.5187916
9.0295515 -6.9475288 -1.5202826
8.9765921 -6.9948859 -1.5185205
8.9583931 -7.0694733 -1.5228579
8.9086542 -7.11936 -1.5217736
8.8571014 -7.1676559 -1.5204182
8.7907305 -7.2036567 -1.5164874
8.7654266 -7.2732759 -1.5198759
8.7107716 -7.3186378 -1.5181139
8.6558905 -7.3636031 -1.5163518
8.6105452 -7.4165759 -1.5163518
8.5484476 -7.4549437 -1.5133699
8.4906607 -7.4967642 -1.5112013
8.438592 -7.5434384 -1.5101168
8.3855362 -7.5890913 -1.5088969
8.3154354 -7.6189837 -1.5045596
8.2670765 -7.6685152 -1.5042886
8.2047005 -7.7048545 -1.5014422
8.148653 -7.746861 -1.4998156
8.1123877 -7.8077068 -1.5019844
8.0877466 -7.8801522 -1.5064572
8.0604048 -7.9505014 -1.5105236
7.9862294 -7.9746075 -1.505644
7.9246054 -8.0107822 -1.5032042
7.8607612 -8.0443754 -1.5003577
7.0274944 -7.28054 -1.3459747
7.7587171 -8.1373653 -1.4998156
7.7398896 -8.2179947 -1.5060506
7.1581931 -7.6944585 -1.3993785
7.1390033 -7.7688746 -1.4050713
7.1458058 -7.8726883 -1.4161859
7.1172075 -7.9385161 -1.4202521
6.8043022 -7.6838651 -1.3657639
2.1543577 -2.4635425 -0.40937498
2.1430874 -2.4812133 -0.41018826
2.1316812 -2.4988384 -0.4110015
6.716475 -7.9705133 -1.3875864
6.5711036 -7.8958235 -1.3669839
6.4986253 -7.9069095 -1.3618332
6.4343767 -7.9274044 -1.3584447
6.3856139 -7.9667358 -1.3584447
6.3458347 -8.0174198 -1.3604778
2.0102165 -2.5724523 -0.40829065
1.9865247 -2.574542 -0.40652859
1.9652855 -2.5795903 -0.40530872
1.9464421 -2.5876422 -0.40463099
1.9051231 -2.5653367 -0.39880267
1.8424733 -2.5130618 -0.38795924
1.8299237 -2.5283322 -0.38863698
1.8310817 -2.5628893 -0.39256769
6.3385344 -8.9861393 -1.4660655
6.3472505 -9.1167421 -1.4813818
6.2693071 -9.1236706 -1.4760957
6.2148757 -9.1644268 -1.4765023
6.1552205 -9.1974478 -1.4756891
6.0926642 -9.2259483 -1.4741981
5.9456053 -9.1245356 -1.4515624
1.8113574 -2.8179917 -0.41994733
1.7988087 -2.8365829 -0.42116719
1.7787421 -2.8433673 -0.42048949
5.8317719 -9.448967 -1.4807041
5.7577128 -9.4583378 -1.4765023
5.6822286 -9.4646072 -1.4718938
5.6285911 -9.5069675 -1.4731138
5.565156 -9.5327692 -1.4717582
5.4946966 -9.5461283 -1.4685053
5.4345522 -9.5770788 -1.4680986
5.3824577 -9.6223497 -1.4699962
5.3237934 -9.6560621 -1.4701318
5.267756 -9.6946402 -1.4710805
5.2119136 -9.7337675 -1.472165
5.1530147 -9.7673168 -1.4724361
5.0920725 -9.7969933 -1.472165
5.0296059 -9.8236437 -1.4714872
4.967896 -9.8516655 -1.4710805
4.9073539 -9.8819628 -1.4710805
4.8474975 -9.9136677 -1.4713516
4.7904449 -9.9512587 -1.4725716
4.7275977 -9.9768839 -1.4720293
4.6729922 -10.020071 -1.4741981
4.6167951 -10.060261 -1.4759601
4.5765901 -10.136258 -1.4831439
4.5501041 -10.244735 -1.4952072
4.530787 -10.372332 -1.5101168
4.4873929 -10.447274 -1.5171651
4.4228196 -10.473699 -1.5170295
4.363409 -10.512536 -1.5187916
4.2962036 -10.532689 -1.5178428
4.2244921 -10.541379 -1.5152675
4.1502957 -10.543132 -1.5117434
4.0844541 -10.565627 -1.5113368
4.0160317 -10.581227 -1.5099813
3.9451504 -10.589887 -1.5076771
3.8834999 -10.623199 -1.5090325
3.818913 -10.648693 -1.5093036
3.7512007 -10.665382 -1.5083548
3.67729 -10.663846 -1.5048307
3.609885 -10.680577 -1.5040175
3.5492663 -10.717575 -1.5061861
3.4800746 -10.728785 -1.5046952
3.4048803 -10.720663 -1.5004933
3.333447 -10.723377 -1.497918
3.266145 -10.73889 -1.4972403
3.1976485 -10.750181 -1.4960204
3.1299663 -10.763891 -1.4952072
3.0600698 -10.769551 -1.4933096
2.9886317 -10.769031 -1.4905987
2.9193885 -10.775691 -1.4889722
2.8560009 -10.803937 -1.4904631
2.7901502 -10.823176 -1.4907342
2.7198243 -10.824718 -1.4885656
2.6535895 -10.842166 -1.4887011
2.5890803 -10.866918 -1.489921
2.518326 -10.865227 -1.4874812
2.4522643 -10.883374 -1.4878879
2.3860745 -10.901119 -1.4882945
2.3177001 -10.908771 -1.4873457
2.2449217 -10.894646 -1.483415
2.1725984 -10.881011 -1.4796197
0.50873053 -2.6334715 -0.32859159
0.49656835 -2.657969 -0.33157352
0.47972167 -2.658041 -0.33116689
0.46765646 -2.6853359 -0.33455545
0.45018592 -2.6822922 -0.3337422
0.43783081 -2.710434 -0.3372663
0.42469075 -2.7355869 -0.3403838
0.40643629 -2.7283418 -0.33902836
0.38422358 -2.6925325 -0.3337422
0.36635441 -2.6850228 -0.33238676
0.3519215 -2.7029395 -0.33455545
0.33642825 -2.713897 -0.33577535
1.3122363 -11.134653 -1.4954783
0.91665882 -8.2121744 -1.0921034
1.1695751 -11.093756 -1.4877523
1.1008959 -11.094808 -1.4869391
1.0305952 -11.077678 -1.4836861
0.67994189 -7.8304658 -1.0369375
0.62885362 -7.7969632 -1.0317868
0.28202152 -3.7892692 -0.4814837
0.53630161 -7.8505511 -1.0381573
0.23377787 -3.7647567 -0.47768849
0.62432045 -11.146684 -1.4889722
0.38573393 -7.7393579 -1.0217566
0.15859619 -3.6347954 -0.45939022
0.1337221 -3.5673852 -0.45003778
0.10899606 -3.4780228 -0.4377034
0.086625338 -3.4380176 -0.43214616
0.064996623 -3.410748 -0.42835096
0.043925378 -3.4001849 -0.42686
0.023061408 -3.4003904 -0.42686
0.0082768407 -11.363297 -1.5162163
-0.060994759 -11.278919 -1.5046952
-0.130519 -11.306072 -1.5084903
-0.20025639 -11.325861 -1.5113368
-0.269629 -11.319467 -1.5106591
-0.33913815 -11.31958 -1.5109302
-0.40930164 -11.337089 -1.513641
-0.48002699 -11.362081 -1.5174361
-0.55050015 -11.374755 -1.5196048
-0.61936712 -11.354345 -1.5173006
-0.68968445 -11.36121 -1.5187916
-0.76063776 -11.375546 -1.521367
-0.8302061 -11.367701 -1.5209603
-0.89978498 -11.360417 -1.5206892
-0.97132778 -11.376401 -1.5236712
-1.0418363 -11.378119 -1.5247555
-1.1129805 -11.385318 -1.5266531
-1.1848667 -11.397984 -1.5293639
-1.256408 -11.405272 -1.5313971
-1.3300295 -11.42884 -1.5357344
-1.3994074 -11.414563 -1.5349212
-1.4672679 -11.389056 -1.532617
-1.5230677 -11.275762 -1.5182494
-0.40987298 -2.8980391 -0.36207062
-0.43314317 -2.9327154 -0.36722124
-1.76109 -11.445584 -1.5459001
-1.821887 -11.375865 -1.5377675
-0.50168955 -3.0122056 -0.37942007
-0.52606499 -3.0432417 -0.38416407
-0.54053706 -3.0165503 -0.38091102
-2.0802879 -11.21862 -1.5225868
-2.1373303 -11.144342 -1.5140476
-2.1989315 -11.097002 -1.5093036
-2.2608261 -11.05321 -1.5051018
-2.312248 -10.961575 -1.4942584
-0.61690569 -2.8367984 -0.35881758
-0.63213694 -2.8232911 -0.35746217
-0.64300257 -2.7913592 -0.35353142
-2.5956228 -10.96516 -1.5032042
-0.8963272 -3.6843619 -0.48039934
-0.91867709 -3.6778314 -0.4802638
-2.8176711 -10.996146 -1.5145898
-0.75350261 -2.8661461 -0.3670857
-0.76875585 -2.8528585 -0.3658658
-0.7828204 -2.8356719 -0.36410373
-3.1198149 -11.040959 -1.5312616
-0.8104037 -2.8011057 -0.36057964
-0.80846381 -2.7314756 -0.35136274
-3.350055 -11.072703 -1.5442736
-1.0061244 -3.2523637 -0.42740217
-1.0102412 -3.196058 -0.42021841
-3.5313907 -10.941276 -1.5345145
-3.5965984 -10.913755 -1.5337013
-3.6729712 -10.919654 -1.5377675
-3.7283266 -10.863175 -1.5328881
-1.1294085 -3.2252839 -0.42916423
-1.148178 -3.2154939 -0.42875758
-1.1672087 -3.2065263 -0.4284865
-3.9617612 -10.682014 -1.5202826
-1.1693499 -3.0937183 -0.41411898
-1.1858195 -3.0800126 -0.41317019
-4.0756426 -10.397883 -1.4895144
-1.2158158 -3.0459042 -0.4103238
-1.2419387 -3.0567458 -0.41303465
-1.2640773 -3.0573084 -0.41425452
-4.3368893 -10.312083 -1.4920897
-4.399302 -10.283457 -1.4918187
-4.4575744 -10.245367 -1.4901921
-4.5191526 -10.215105 -1.4897854
-4.5866222 -10.198027 -1.491412
-4.6474624 -10.166087 -1.4908698
-4.7164316 -10.151756 -1.4930385
-1.3389807 -2.8357017 -0.39067012
-1.3537844 -2.8220725 -0.38985685
-1.3775833 -2.8270733 -0.39188999
-1.39754 -2.8238957 -0.39270324
-5.0318422 -10.014698 -1.4949361
-5.0922961 -9.9818697 -1.494665
-5.152081 -9.9477968 -1.4942584
-5.2134833 -9.9168739 -1.4943939
-5.2798309 -9.8951874 -1.4960204
-5.3442211 -9.8695745 -1.4971048
-5.4094496 -9.8452816 -1.4984602
-5.4716868 -9.8153658 -1.4990023
-4.8475795 -8.5716181 -1.308836
-4.8867722 -8.518508 -1.3051764
-4.9593763 -8.5234747 -1.3107337
-4.9984918 -8.4706984 -1.3072095
-5.8164887 -9.7202721 -1.5113368
-5.8744802 -9.681859 -1.5109302
-5.9233942 -9.6287537 -1.5082192
-4.9217606 -7.8915029 -1.2340165
-5.1813278 -8.195302 -1.288098
-5.2112031 -8.1316566 -1.2829474
-5.2663965 -8.1078367 -1.2843028
-5.3509097 -8.128335 -1.2929776
-5.6711922 -8.500864 -1.3596646
-5.6205964 -8.3140526 -1.3345891
-5.6507888 -8.2491655 -1.3295741
-6.487628 -9.3473644 -1.5182494
-6.5482793 -9.3122444 -1.5190626
-6.6070194 -9.2743101 -1.5194693
-6.6655407 -9.2360058 -1.5198759
-5.6836638 -7.7744026 -1.2791522
-1.700205 -2.2954512 -0.35244709
-0 -0 -0
