# .PCD v0.7 - Point Cloud Data file format
VERSION 0.7
FIELDS x y z
SIZE 4 4 4
TYPE F F F
COUNT 1 1 1
WIDTH 1611
HEIGHT 1
VIEWPOINT 0 0 0 1 0 0 0
POINTS 1611
DATA ascii
-0.72184098 -3.4237626 -1.1700087
-0.84168541 -3.8735535 -1.3309999
-0.84498614 -3.7770288 -1.2986053
-0.73189348 -3.1806145 -1.0885314
-0.76054639 -3.2146823 -1.1022745
-0.80618471 -3.3164587 -1.1402318
-0.82331091 -3.2986152 -1.1356508
-0.88180196 -3.442699 -1.1889873
-0.82911378 -3.1566672 -1.0885314
-0.80689663 -2.9973295 -1.0332316
-0.81998968 -2.9731944 -1.02636
-0.83436006 -2.9544678 -1.0214517
-0.85509992 -2.9583695 -1.0247239
-0.88691914 -2.9992762 -1.041412
-0.97787601 -3.2334428 -1.1281247
-1.0044031 -3.2490466 -1.135978
-1.0872891 -3.4419367 -1.2082932
-0.99046487 -3.0701239 -1.0754427
-0.99951732 -3.0343742 -1.0646445
-1.0554986 -3.139235 -1.1052195
-1.0655321 -3.1058884 -1.095403
-1.0808203 -3.0885904 -1.0914763
-1.0946648 -3.0676625 -1.0862409
-1.112497 -3.0582242 -1.0852592
-1.1305833 -3.0495687 -1.0846047
-1.3397809 -3.5463793 -1.271119
-1.3645726 -3.5460279 -1.2740639
-1.5753893 -4.0196643 -1.4533794
-1.6459308 -4.1248832 -1.4962449
-1.2929798 -3.1841562 -1.1484122
-1.3117708 -3.1744163 -1.1477579
-1.238492 -2.9459529 -1.0649717
-1.3413303 -3.1363623 -1.1395774
-1.8912554 -4.3471036 -1.599973
-1.9362531 -4.376893 -1.6156794
-0 -0 -0
-1.3164835 -2.8807967 -1.0551552
-1.3735706 -2.9574964 -1.0875497
-1.3065343 -2.7687287 -1.0185068
-1.4269308 -2.9761992 -1.1012928
-1.4430953 -2.9631405 -1.0996568
-1.4746655 -2.9813294 -1.1101278
-1.4330854 -2.8531835 -1.0639901
-1.5038366 -2.9487004 -1.104565
-1.4710338 -2.8412554 -1.0662806
-1.4831609 -2.8221402 -1.062354
-1.4888785 -2.7913132 -1.0538464
-1.500576 -2.7721548 -1.0499197
-1.5521544 -2.8258286 -1.0747882
-1.5515126 -2.7840664 -1.0620267
-1.5685662 -2.7744942 -1.0620267
-1.5912052 -2.774652 -1.0659534
-1.6101019 -2.7681029 -1.0672623
-1.6265759 -2.7573576 -1.0669351
-1.6327854 -2.7294886 -1.0597363
-1.6431279 -2.7089179 -1.0554824
-1.6631857 -2.7044179 -1.0577729
-1.6762468 -2.6885502 -1.0554824
-1.6917015 -2.6766171 -1.0548279
-1.7126834 -2.673346 -1.0577729
-1.725965 -2.6580327 -1.0558096
-1.7375641 -2.64029 -1.0528647
-1.7589779 -2.6374383 -1.0561368
-1.7751278 -2.6265957 -1.0561368
-1.7853347 -2.6070802 -1.0525374
-1.8039926 -2.5999575 -1.0541735
-1.8122996 -2.5780196 -1.0495925
-1.8324716 -2.5730069 -1.0522102
-1.8343956 -2.5425618 -1.0440297
-1.8555405 -2.5388854 -1.0473019
-1.8677088 -2.5228965 -1.0453386
-1.8831538 -2.511389 -1.0453386
-1.8990997 -2.5005391 -1.0456659
-1.9161363 -2.4910858 -1.0466475
-1.9296422 -2.477046 -1.0456659
-1.9377781 -2.4562595 -1.0417392
-1.9693356 -2.4649887 -1.0509013
-1.9766934 -2.4433112 -1.0466475
-2.0012338 -2.4428287 -1.051883
-2.0095456 -2.4225054 -1.0482836
-2.0182917 -2.4028962 -1.0450114
-2.0415721 -2.4005413 -1.0495925
-2.048244 -2.3786633 -1.0453386
-2.0491333 -2.3503861 -1.0381398
-2.0603886 -2.3342276 -1.0365038
-2.0803416 -2.3278806 -1.0394487
-2.1079049 -2.329782 -1.0463203
-2.1164138 -2.3105352 -1.0433754
-2.1254089 -2.2919643 -1.0407575
-2.1549606 -2.2954085 -1.0486108
-2.1703069 -2.2835121 -1.0492653
-2.1790342 -2.2647069 -1.0466475
-2.1889315 -2.2472339 -1.0446842
-2.2132988 -2.2445221 -1.0499197
-2.232372 -2.2362475 -1.0525374
-2.2534425 -2.2298162 -1.0561368
-2.254914 -2.2040625 -1.050247
-2.257515 -2.1796875 -1.0450114
-2.2790554 -2.1736176 -1.048938
-2.3033581 -2.1699562 -1.0541735
-2.2917175 -2.1326168 -1.0423937
-2.3305094 -2.1421661 -1.0545007
-2.3534074 -2.1367154 -1.0590818
-2.3629551 -2.1190817 -1.0574456
-2.3752055 -2.1039166 -1.0571185
-2.3958957 -2.0961444 -1.0607178
-2.4072819 -2.080169 -1.0600635
-2.4106534 -2.0573878 -1.0558096
-2.4282908 -2.0468187 -1.0581001
-2.4197369 -2.0143557 -1.0486108
-2.4335115 -2.0006702 -1.0492653
-2.460418 -1.9976077 -1.0558096
-2.4807408 -1.9889724 -1.059409
-2.4928982 -1.9737134 -1.059409
-2.5146425 -1.9659427 -1.0636629
-2.5341399 -1.9562477 -1.0669351
-2.5513577 -1.9446696 -1.0692255
-2.5692837 -1.9335216 -1.0718433
-2.6152413 -1.9430683 -1.0865681
-2.5920556 -1.9012883 -1.071516
-2.6029072 -1.884794 -1.0711888
-2.6136541 -1.8682382 -1.0708616
-2.6065331 -1.839098 -1.0630084
-2.614666 -1.820911 -1.0616995
-2.6148846 -1.7973437 -1.0571185
-2.614913 -1.7738426 -1.0525374
-2.6304605 -1.7609167 -1.0545007
-2.6609318 -1.7577571 -1.0626812
-2.7587674 -1.7981241 -1.0986751
-2.7999573 -1.8005744 -1.1111094
-2.7159801 -1.7231528 -1.0721705
-2.7577481 -1.7259959 -1.084932
-2.7666781 -1.7080499 -1.0842775
-2.8037462 -1.7072504 -1.0950757
-2.8741286 -1.7259941 -1.1192899
-2.8415637 -1.6828213 -1.1019473
-2.8861148 -1.6853557 -1.1156905
-2.9062307 -1.6732696 -1.1196171
-2.9230187 -1.6591352 -1.1222348
-2.9496398 -1.6503911 -1.1287792
-2.9820564 -1.6445749 -1.1376141
-3.0012257 -1.631207 -1.1412135
-3.0236752 -1.6194491 -1.1461217
-3.141382 -1.6577216 -1.1883329
-3.1716197 -1.6488698 -1.1961861
-3.2228966 -1.6504703 -1.2122197
-3.3013139 -1.6651118 -1.2387245
-3.3317831 -1.6549063 -1.2465776
-3.3783815 -1.6522722 -1.260648
-3.4480627 -1.6601893 -1.2835532
-3.5265062 -1.6713569 -1.3097306
-4.1859117 -1.9522797 -1.5577619
-3.7966964 -1.7425907 -1.4049511
-4.0889692 -1.8463529 -1.5119513
-3.7892931 -1.683217 -1.3941529
-3.7900233 -1.655776 -1.3905535
-3.8270299 -1.6440446 -1.4006972
-3.9058228 -1.6495563 -1.4265475
-3.963877 -1.6454725 -1.4445444
-4.0552778 -1.654292 -1.4749757
-4.1188622 -1.6508085 -1.494936
-4.2449884 -1.6711669 -1.5381287
-4.3265605 -1.6726712 -1.5646335
-4.3915215 -1.6668692 -1.584921
-4.4964228 -1.6751679 -1.6199332
-4.5998125 -1.6815923 -1.6542912
-4.6554112 -1.669595 -1.6709793
-4.7395616 -1.6670046 -1.6981384
-4.7899036 -1.6517451 -1.7128632
-4.8482928 -1.6386513 -1.7305329
-4.9183626 -1.6287616 -1.7524565
-4.9857941 -1.6171991 -1.7733985
-5.0559688 -1.6057272 -1.7953221
-5.155066 -1.6024238 -1.8277166
-5.2579255 -1.5990628 -1.86142
-5.3210797 -1.5826539 -1.880726
-5.4323225 -1.5795025 -1.9173744
-5.4500933 -1.5484632 -1.9203193
-5.4931836 -1.5243349 -1.9324263
-5.5142908 -1.4938103 -1.9366802
-5.5343165 -1.4628427 -1.9406068
-5.5376978 -1.4274431 -1.9386435
-5.5500178 -1.3943578 -1.9399524
-5.5584693 -1.3602773 -1.9399524
-5.5667109 -1.3261455 -1.9399524
-5.5775051 -1.2926034 -1.9409341
-5.5659719 -1.2539986 -1.9340625
-5.569869 -1.2190155 -1.9327536
-5.5763192 -1.1846203 -1.9324263
-5.5881109 -1.1513348 -1.9340625
-5.5746827 -1.1129591 -1.9268637
-5.6046023 -1.0832107 -1.9350441
-5.6111431 -1.0488012 -1.9350441
-5.615613 -1.0140166 -1.9343897
-5.625453 -0.98018891 -1.9356985
-5.6313615 -0.94565332 -1.9356985
-5.6333261 -0.91047978 -1.9343897
-5.6341381 -0.87517291 -1.9327536
-5.63099 -0.83933395 -1.9298086
-5.6117115 -0.80129904 -1.921301
-5.6240125 -0.76787227 -1.9239187
-0 -0 -0
-0 -0 -0
-0 -0 -0
-0 -0 -0
-0 -0 -0
-0 -0 -0
-0 -0 -0
-0 -0 -0
-0 -0 -0
-0 -0 -0
-0 -0 -0
-0 -0 -0
-0 -0 -0
-0 -0 -0
-0 -0 -0
-0 -0 -0
-0 -0 -0
-0 -0 -0
-0 -0 -0
-0 -0 -0
-0 -0 -0
-0 -0 -0
-0 0 -0
-0 0 -0
-0 0 -0
-0 0 -0
-0 0 -0
-0 0 -0
-0 0 -0
-0 0 -0
-0 0 -0
-0 0 -0
-0 0 -0
-0 -0 -0
-0 -0 -0
-0 -0 -0
-0 -0 -0
-0 -0 -0
-0 0 -0
-0 0 -0
-0 0 -0
-0 0 -0
-0 0 -0
-0 0 -0
-0 0 -0
-0 0 -0
-0 0 -0
-0 0 -0
-0 0 -0
-0 0 -0
-0 0 -0
-0 0 -0
-0 0 -0
-0 0 -0
-0 0 -0
-0 0 -0
-0 0 -0
-0 0 -0
-0 0 -0
-0 0 -0
-0 0 -0
-0 0 -0
-0 0 -0
-0 0 -0
-0 0 -0
-0 0 -0
-0 0 -0
-5.3997555 0.99955297 -1.9276358
-5.3842754 1.030897 -1.92426
-5.3667674 1.0617236 -1.9202089
-5.373064 1.0972693 -1.9249351
-5.3754411 1.1321564 -1.928311
-5.3656335 1.1645194 -1.9272983
-5.3528752 1.1961892 -1.9252727
-5.3426824 1.2283787 -1.92426
-5.3414574 1.262653 -1.9266231
-5.3235474 1.2929608 -1.9229096
-5.3182535 1.3262842 -1.9239224
-5.3027201 1.357025 -1.9212216
-5.2997565 1.3909696 -1.9232472
-5.2893038 1.4229733 -1.922572
-5.2750282 1.4539008 -1.9205465
-5.2705379 1.4875184 -1.9222344
-5.2631202 1.5203521 -1.9229096
-5.2509842 1.5518173 -1.9218968
-5.2251444 1.5791072 -1.9158202
-5.2261491 1.6144716 -1.9198713
-5.2134514 1.6456584 -1.9188585
-5.2014642 1.6770389 -1.9181833
-5.1964407 1.7106886 -1.9202089
-5.1822772 1.7413421 -1.9188585
-5.1777282 1.7752438 -1.9212216
-5.1720691 1.8088443 -1.9232472
-5.1653061 1.8421261 -1.9249351
-5.142405 1.8696049 -1.9205465
-5.1290712 1.9004689 -1.9198713
-5.1190748 1.9325694 -1.9205465
-5.0992131 1.9609029 -1.9175082
-5.089715 1.9931837 -1.9185209
-5.084384 2.0271645 -1.9212216
-5.0657444 2.0558462 -1.9188585
-5.0539045 2.0872495 -1.9191961
-5.0470772 2.1207726 -1.9215592
-5.0296416 2.1498513 -1.9198713
-4.9990897 2.1731682 -1.9131196
-4.9882445 2.2049425 -1.9141324
-4.988359 2.2416806 -1.9195337
-4.962523 2.266772 -1.9148074
-4.943398 2.2948012 -1.912782
-4.9326301 2.3266962 -1.9141324
-4.9182606 2.3569183 -1.9141324
-4.9028602 2.3866398 -1.9137948
-4.889811 2.4175127 -1.91447
-4.8715205 2.4457812 -1.9131196
-4.8547444 2.4747715 -1.9124444
-4.8336163 2.5014851 -1.9100813
-4.8198428 2.5319719 -1.9107565
-4.807539 2.5632694 -1.9121068
-4.7942042 2.5940633 -1.9131196
-4.781498 2.6252429 -1.91447
-4.7644773 2.6540742 -1.9141324
-4.7530193 2.6860368 -1.9161578
-4.7339988 2.7137461 -1.915145
-4.7172585 2.7427423 -1.915145
-4.6954756 2.7687669 -1.9131196
-4.6735506 2.7946274 -1.9110941
-4.6547055 2.8222754 -1.9104189
-4.6340928 2.8488114 -1.9090685
-4.6157269 2.8766942 -1.9087309
-4.6083345 2.9114966 -1.9131196
-4.5856266 2.9366727 -1.9110941
-4.575417 2.9698784 -1.91447
-4.5571084 2.9978969 -1.91447
-4.540194 3.0268464 -1.915145
-4.508276 3.0456908 -1.9094061
-4.4848423 3.0701056 -1.9073806
-4.4728818 3.1023941 -1.9104189
-4.4730163 3.1433094 -1.9188585
-4.4360075 3.1581414 -1.9110941
-4.4165459 3.1853006 -1.9110941
-4.3900771 3.2073431 -1.9080558
-4.3771248 3.2392588 -1.9110941
-4.3436089 3.2558939 -1.9050175
-4.3295469 3.2870376 -1.9077182
-4.3055654 3.3106725 -1.9060302
-4.2866559 3.3381853 -1.9067054
-4.2623968 3.3615108 -1.9050175
-4.2416906 3.3876011 -1.9050175
-4.2164335 3.4100127 -1.9029919
-4.2019854 3.4411871 -1.9060302
-4.1807914 3.4669051 -1.9060302
-4.15944 3.4924927 -1.9060302
-4.1400838 3.5197778 -1.907043
-4.1248298 3.5506408 -1.9100813
-4.1022563 3.5752652 -1.9097437
-4.0809474 3.6009915 -1.9100813
-4.0615835 3.6284723 -1.9114317
-4.0455265 3.6590075 -1.91447
-4.0195279 3.6805835 -1.912782
-3.9975588 3.7058175 -1.9131196
-3.9733722 3.7289879 -1.9124444
-3.9476869 3.7507048 -1.9110941
-3.9245987 3.7748566 -1.9110941
-3.9027116 3.8001797 -1.9117692
-3.8759687 3.820751 -1.9100813
-3.8491204 3.8411374 -1.9083933
-3.8294528 3.8686965 -1.9104189
-3.7997196 3.8860638 -1.9073806
-3.7744956 3.9079514 -1.9067054
-3.7471967 3.9276326 -1.9050175
-3.7191529 3.9464412 -1.9029919
-3.6910195 3.9650536 -1.9009664
-3.667258 3.9883194 -1.901304
-3.6408186 4.008656 -1.9002912
-3.6136389 4.0281177 -1.8989408
-3.5907276 4.0523281 -1.8999536
-3.5645554 4.0728674 -1.8992784
-3.5419602 4.0975108 -1.9006288
-3.5167518 4.1191669 -1.9006288
-3.4956586 4.1457047 -1.9029919
-3.4737697 4.1714153 -1.9050175
-3.4516966 4.1970129 -1.907043
-3.4276597 4.220305 -1.9080558
-3.3999331 4.2390547 -1.907043
-3.3721054 4.2576232 -1.9060302
-3.3453376 4.277492 -1.9056926
-3.3224807 4.3024082 -1.9077182
-3.2920234 4.3174744 -1.905355
-3.2581093 4.3278165 -1.9009664
-3.2298083 4.3454604 -1.8999536
-3.1975152 4.3576078 -1.8965777
-3.1690605 4.3748584 -1.8955649
-3.1427047 4.3949866 -1.8959025
-3.1124213 4.4095736 -1.893877
-3.0847678 4.4278154 -1.8935394
-3.0586081 4.4482112 -1.8942146
-3.0328426 4.4692311 -1.8952274
-3.0090296 4.4932308 -1.8975905
-2.983479 4.5147505 -1.8989408
-2.9577777 4.5361252 -1.9002912
-2.9319263 4.5573549 -1.9016416
-2.9069345 4.5800271 -1.9036671
-2.8727822 4.5882044 -1.899616
-2.8495221 4.6137533 -1.9029919
-2.8196898 4.6287394 -1.9019791
-2.7854176 4.6362715 -1.8979281
-2.7569175 4.653275 -1.8979281
-2.7273638 4.668478 -1.8972529
-2.7028961 4.6924658 -1.9002912
-2.6749825 4.7105989 -1.9009664
-2.6487877 4.7318516 -1.9029919
-2.6183393 4.745543 -1.9019791
-2.5860238 4.7557311 -1.899616
-2.5554605 4.7690201 -1.8986033
-2.522634 4.7779512 -1.8959025
-2.4945729 4.795845 -1.8969153
-2.4625232 4.806035 -1.8948898
-2.4278977 4.8109708 -1.8908387
-2.3995895 4.8283062 -1.8918515
-2.3695047 4.8420935 -1.8915139
-2.3372977 4.8514533 -1.8894883
-2.3082926 4.8674045 -1.8901635
-2.2815688 4.8882995 -1.8928642
-2.2550681 4.909905 -1.8959025
-2.2295513 4.9339423 -1.8999536
-2.2 4.9492502 -1.9006288
-2.1699677 4.9635186 -1.9009664
-2.1364968 4.9698215 -1.8982657
-2.1059623 4.9828372 -1.8982657
-2.0688472 4.9800191 -1.8921891
-2.0446565 5.0083055 -1.8982657
-2.0124857 5.0172625 -1.8969153
-1.9837332 5.034771 -1.8989408
-1.9483864 5.0354362 -1.8945522
-1.9137751 5.0376177 -1.8908387
-1.8834866 5.0510292 -1.8915139
-1.8553704 5.0704465 -1.8945522
-1.8274047 5.0905948 -1.8979281
-1.7955098 5.099936 -1.8972529
-1.7611114 5.1019592 -1.893877
-1.7267557 5.1037531 -1.8905011
-1.6903708 5.0990634 -1.8847622
-1.6628318 5.1209779 -1.8891507
-1.631664 5.1319814 -1.8894883
-1.6004238 5.1427951 -1.8898259
-1.5696608 5.1552196 -1.8908387
-1.537462 5.1629496 -1.8901635
-1.5047011 5.1686711 -1.8888133
-1.4737313 5.1805224 -1.8898259
-1.4421685 5.1903749 -1.8901635
-1.4098009 5.197309 -1.8894883
-1.3795706 5.2122312 -1.8918515
-1.3459157 5.2142181 -1.8894883
-1.3148154 5.2260299 -1.8908387
-1.282052 5.231256 -1.8898259
-1.2518961 5.2472644 -1.8928642
-1.2181857 5.2484288 -1.8905011
-1.1855445 5.2539682 -1.8898259
-1.1530828 5.2602243 -1.8894883
-1.1215689 5.2708831 -1.8908387
-1.0914901 5.2887278 -1.8948898
-1.0601265 5.3008637 -1.8969153
-1.029371 5.3165097 -1.9002912
-0.99603689 5.319025 -1.8989408
-0.9635489 5.3259625 -1.8992784
-0.93020344 5.3280659 -1.8979281
-0.90046251 5.3513093 -1.9043423
-0.86384642 5.3335047 -1.8959025
-0.83197355 5.344285 -1.8979281
-0.79874849 5.3464966 -1.8969153
-0.76592797 5.3512969 -1.8969153
-0.73307866 5.3558955 -1.8969153
-0.69983572 5.3574929 -1.8959025
-0.66567063 5.3514113 -1.8921891
-0.63160664 5.3451123 -1.8884757
-0.59869295 5.3479519 -1.8881381
-0.56537205 5.3468442 -1.8864501
-0.53348684 5.3595791 -1.8898259
-0.50006568 5.3571286 -1.8878005
-0.46767637 5.3657227 -1.8898259
-0.43588483 5.3825641 -1.8948898
-0.40320131 5.3898306 -1.8965777
-0.36973515 5.386569 -1.8945522
-0.33685312 5.3915544 -1.8955649
-0.30365881 5.3916402 -1.8948898
-0.2700983 5.3840008 -1.8915139
-0.23651858 5.373332 -1.8871253
-0.20329413 5.3680978 -1.8847622
-0.17041211 5.3711257 -1.8854374
-0.13747644 5.3730111 -1.885775
-0.10446893 5.3718715 -1.8850998
-0.071606569 5.379941 -1.8878005
-0.038642287 5.386868 -1.8901635
-0.0055904528 5.388886 -1.8908387
0.027479965 5.3897605 -1.8911763
0.06053989 5.3885489 -1.8908387
0.093618549 5.3890171 -1.8911763
0.12657291 5.383636 -1.8894883
0.15954824 5.3808765 -1.8888133
0.19242728 5.3760333 -1.8874629
0.22544974 5.3756919 -1.8878005
0.2582947 5.371387 -1.8867877
0.29114622 5.3678212 -1.8861125
0.3247005 5.3762689 -1.8898259
0.35768256 5.3741755 -1.8898259
0.38969633 5.358736 -1.8850998
0.42323524 5.3646894 -1.8881381
0.45638353 5.3648052 -1.8891507
0.48869446 5.3553424 -1.8867877
0.5209977 5.3466215 -1.8847622
0.55408508 5.3461332 -1.885775
0.58667248 5.3407612 -1.8850998
0.62029934 5.3445411 -1.8878005
0.65285277 5.3387656 -1.8871253
0.68619812 5.3393278 -1.8888133
0.7186954 5.3331509 -1.8881381
0.75088 5.3249125 -1.8867877
0.78395015 5.3229985 -1.8878005
0.81716788 5.3218098 -1.8891507
0.849361 5.3139071 -1.8881381
0.88179636 5.3076668 -1.8878005
0.91434699 5.3021564 -1.8878005
0.94603527 5.2918129 -1.8861125
0.97780234 5.2822065 -1.8847622
1.0094872 5.272409 -1.8834118
1.0418191 5.2661157 -1.8834118
1.0726056 5.2522459 -1.8807111
1.1048125 5.2455659 -1.8807111
1.1381754 5.2442074 -1.8827366
1.1688954 5.2306943 -1.8803735
1.2049744 5.2408538 -1.8867877
1.2375419 5.2351937 -1.8874629
1.2676424 5.2192693 -1.8844246
1.299871 5.2123065 -1.8847622
1.3318287 5.2042322 -1.8847622
1.3632584 5.1941414 -1.884087
1.3963257 5.1902237 -1.885775
1.4283961 5.182466 -1.8861125
1.4601682 5.173604 -1.8861125
1.4916242 5.1636429 -1.885775
1.5222129 5.1507821 -1.8844246
1.5529721 5.1386418 -1.8834118
1.5841951 5.1281171 -1.8830742
1.6159141 5.1191978 -1.8834118
1.6464282 5.1064987 -1.8823991
1.6774359 5.0954061 -1.8820615
1.7101679 5.089479 -1.8837494
1.7401432 5.0753279 -1.8823991
1.7721841 5.0672207 -1.8834118
1.8060877 5.0642309 -1.8864501
1.8384136 5.0565925 -1.8878005
1.8674437 5.0399208 -1.885775
1.9003273 5.0336514 -1.8878005
1.9338797 5.0289254 -1.8905011
1.9647002 5.0169644 -1.8905011
1.9954468 5.0048151 -1.8905011
2.0275338 4.995966 -1.8918515
2.0549171 4.9756007 -1.8888133
2.0879602 4.9689732 -1.8911763
2.1198895 4.9595304 -1.8925266
0 0 -0
2.177547 4.9262547 -1.8898259
2.2119763 4.9222455 -1.8935394
2.2401819 4.9042997 -1.8918515
2.2690432 4.8879004 -1.8908387
2.3038101 4.8841019 -1.8948898
2.333735 4.869874 -1.8948898
2.3656318 4.859695 -1.8965777
2.3933201 4.8408689 -1.8948898
2.4221334 4.82441 -1.8942146
2.4465609 4.7993937 -1.8901635
2.4750981 4.7826195 -1.8894883
2.5022087 4.763176 -1.8878005
2.5278454 4.7410879 -1.8850998
2.5564408 4.7246599 -1.8847622
2.5862885 4.7105355 -1.8854374
2.6128531 4.6904659 -1.8837494
2.6457515 4.6817212 -1.8867877
2.6781728 4.6719322 -1.8894883
2.7086811 4.6586666 -1.8908387
2.7338686 4.6362824 -1.8884757
2.7670951 4.6274996 -1.8918515
2.7959249 4.611239 -1.8921891
2.8167727 4.5819678 -1.8871253
2.8453319 4.5653968 -1.8874629
2.8768101 4.5534229 -1.8898259
2.9041877 4.534893 -1.8894883
2.9350331 4.5217252 -1.8915139
2.9637573 4.5052042 -1.8921891
2.9908228 4.4861507 -1.8918515
3.0182929 4.4677148 -1.8918515
3.0424595 4.4444504 -1.8898259
3.065918 4.4202838 -1.8874629
3.0897357 4.3967676 -1.8854374
3.118839 4.380794 -1.8867877
3.1445594 4.3600478 -1.8861125
3.1779156 4.349792 -1.8901635
3.202306 4.3271842 -1.8888133
3.2333131 4.3134794 -1.8915139
3.2585809 4.2920594 -1.8908387
3.2814128 4.2675071 -1.8888133
3.3110058 4.2517486 -1.8908387
3.3405287 4.2357874 -1.8928642
3.3646941 4.2130041 -1.8918515
3.3904812 4.1922793 -1.8918515
3.4155445 4.1706686 -1.8915139
3.4440749 4.1532555 -1.8932018
3.4676783 4.1298823 -1.8921891
3.4929533 4.1085272 -1.8921891
3.5217812 4.0912981 -1.8942146
3.5443451 4.0667734 -1.8928642
3.5654953 4.0407138 -1.8908387
3.5977461 4.0271845 -1.8948898
3.6217575 4.0043354 -1.8945522
3.6462593 3.9820373 -1.8945522
3.6719038 3.9609699 -1.8952274
3.697427 3.9397378 -1.8959025
3.7215312 3.9169767 -1.8959025
3.7494102 3.8981388 -1.8979281
3.7706316 3.8723617 -1.8965777
3.7910171 3.8458006 -1.8948898
3.8225214 3.8304632 -1.8989408
3.8459527 3.8069365 -1.8989408
3.8692393 3.7832663 -1.8989408
3.889672 3.7568381 -1.8975905
3.9112883 3.731601 -1.8969153
3.9382212 3.7114055 -1.8989408
3.9554086 3.6820397 -1.8962401
3.975848 3.6557889 -1.8952274
3.9954176 3.6287932 -1.893877
4.0127039 3.5998092 -1.8915139
4.0354209 3.5757442 -1.8918515
4.0594101 3.5527759 -1.8928642
4.0854058 3.5314946 -1.8948898
4.1163034 3.5143068 -1.8992784
4.1349111 3.4865561 -1.8979281
4.1497169 3.4556975 -1.8948898
4.1773849 3.4355519 -1.8979281
4.1998477 3.4110422 -1.8986033
4.2162929 3.3816743 -1.8965777
4.2399144 3.3580778 -1.8979281
4.2626638 3.3337388 -1.8989408
4.2837839 3.3080962 -1.8992784
4.3092408 3.2857447 -1.9016416
4.3285685 3.2586756 -1.901304
4.3515038 3.2343009 -1.9026543
4.3515368 3.1930597 -1.893877
4.3893414 3.1795533 -1.9019791
4.4072371 3.1514659 -1.901304
4.4111114 3.113507 -1.8945522
4.4424891 3.0949924 -1.8999536
4.4644985 3.069809 -1.901304
4.489481 3.0465865 -1.9040047
4.50809 3.0189822 -1.9040047
4.5312409 2.9943783 -1.9060302
4.5463753 2.964462 -1.9046799
4.5628958 2.9354916 -1.9040047
4.580822 2.907439 -1.9040047
4.5993733 2.8797765 -1.9043423
4.6177573 2.8519957 -1.9046799
4.63517 2.8236079 -1.9046799
4.6483741 2.7926898 -1.9029919
4.6621828 2.7621958 -1.9016416
4.6774182 2.7325876 -1.9009664
4.7014375 2.708065 -1.9040047
4.7253318 2.6833503 -1.907043
4.7302089 2.6478679 -1.9023167
4.7381258 2.6142461 -1.8989408
4.7598653 2.5882723 -1.901304
4.7806354 2.5616856 -1.9033295
4.7979279 2.5331831 -1.9040047
4.8242369 2.5093434 -1.9083933
4.8437314 2.4818418 -1.9100813
4.8613896 2.453347 -1.9110941
4.8771944 2.4238908 -1.9114317
4.8945117 2.3951607 -1.9124444
4.9108119 2.3659008 -1.9131196
4.9260869 2.3361273 -1.9134572
4.9369164 2.3042648 -1.9121068
4.9501071 2.2735362 -1.9117692
4.9648218 2.2435076 -1.9121068
4.9707532 2.2095602 -1.9090685
4.9928417 2.1827898 -1.9124444
5.0104647 2.1539724 -1.9141324
5.0235868 2.1231883 -1.9141324
5.0495586 2.0977418 -1.9191961
5.0736637 2.0713449 -1.9235848
5.0862775 2.0401745 -1.9235848
5.1039548 2.010998 -1.9256103
5.1170759 1.9799826 -1.9259479
5.1247287 1.9468758 -1.92426
5.1383419 1.9160523 -1.9249351
5.1455822 1.8828703 -1.9232472
5.1570382 1.8512622 -1.9232472
5.1629734 1.8177084 -1.9212216
5.1784782 1.7875308 -1.9229096
5.1857824 1.7545156 -1.9215592
5.203598 1.7250333 -1.92426
5.2113986 1.6921998 -1.9232472
5.2189927 1.6593356 -1.9222344
5.2299747 1.627561 -1.922572
5.2398629 1.5954399 -1.922572
5.2468472 1.5624526 -1.9215592
5.2554317 1.5299659 -1.9212216
5.2674365 1.4984632 -1.9222344
5.2810664 1.4673749 -1.9239224
5.2936044 1.4359293 -1.9252727
5.3050451 1.404144 -1.9262855
5.3172064 1.3725078 -1.9276358
5.327354 1.3403157 -1.928311
5.3345633 1.3073783 -1.9279734
5.3388224 1.2737473 -1.9266231
5.3401194 1.2394748 -1.92426
5.3421149 1.2054415 -1.9222344
5.352169 1.1732451 -1.9232472
5.3592672 1.1403826 -1.9232472
5.3744602 1.1091903 -1.9262855
5.3820877 1.076377 -1.9266231
5.3922877 1.0440489 -1.9279734
5.4022932 1.011636 -1.9293238
5.4102511 0.97880447 -1.929999
5.4143004 0.94526541 -1.9293238
5.4246397 0.9128074 -1.9310117
0 0 -0
0 0 -0
0 0 -0
0 0 -0
0 0 -0
0 0 -0
0 0 -0
0 0 -0
0 0 -0
0 0 -0
0 0 -0
0 0 -0
0 0 -0
0 0 -0
0 0 -0
0 0 -0
0 0 -0
0 0 -0
0 0 -0
0 0 -0
0 0 -0
0 0 -0
0 0 -0
0 0 -0
0 0 -0
0 0 -0
0 0 -0
0 -0 -0
0 -0 -0
0 -0 -0
0 -0 -0
0 -0 -0
0 -0 -0
0 -0 -0
0 -0 -0
0 -0 -0
0 -0 -0
0 -0 -0
5.5267849 -0.40190437 -1.945528
5.5185843 -0.43536475 -1.9435025
0 -0 -0
5.5100141 -0.50279707 -1.9424897
5.5086989 -0.53677887 -1.9431649
5.4931302 -0.56930894 -1.9387763
5.4942117 -0.603517 -1.9404641
0 -0 -0
0 -0 -0
0 -0 -0
5.4861417 -0.73930067 -1.9435025
5.4945512 -0.7747882 -1.9482287
5.496213 -0.80944711 -1.9505918
5.494864 -0.84372717 -1.9519422
5.4914427 -0.87772411 -1.9526174
5.4794536 -0.91032308 -1.9502542
5.4746923 -0.94408715 -1.9505918
5.4632368 -0.97666794 -1.9485663
5.459918 -1.0106852 -1.9495791
5.4323502 -1.040098 -1.9418145
5.4064741 -1.0695758 -1.9347252
5.4071879 -1.1042354 -1.9374259
5.3726778 -1.1315746 -1.9272983
5.2874422 -1.1475555 -1.8986033
5.1562839 -1.1522728 -1.8530289
5.0757265 -1.1670215 -1.8260218
4.9851084 -1.1784444 -1.7953013
4.9402804 -1.1999046 -1.7814602
4.8652377 -1.2133452 -1.7564787
4.8075452 -1.2303433 -1.7379113
4.7671285 -1.2512187 -1.7257581
4.7175479 -1.2692 -1.710229
4.6978741 -1.2948718 -1.7058405
4.6726279 -1.3188164 -1.6994263
4.7340817 -1.3675718 -1.7254206
4.7256017 -1.3965939 -1.7254206
4.7151413 -1.4250189 -1.7247454
4.6964154 -1.4508682 -1.7210319
4.6919131 -1.481074 -1.7227198
4.6800494 -1.5089687 -1.7217071
4.6680198 -1.5367738 -1.7206943
4.6540413 -1.5638885 -1.7190064
4.6452479 -1.592721 -1.7193439
4.6371651 -1.6218151 -1.7200191
4.6288996 -1.6508698 -1.7206943
4.6027589 -1.6734531 -1.7146177
4.6029963 -1.7055874 -1.7186688
4.5942059 -1.7344636 -1.7193439
4.5790839 -1.7609315 -1.717656
4.5603042 -1.7859064 -1.7146177
4.5361443 -1.8086262 -1.7095538
4.5197282 -1.8343019 -1.7075284
4.508388 -1.862 -1.7075284
4.486464 -1.8852528 -1.7034773
4.4618287 -1.9071974 -1.6984135
4.4595385 -1.9386659 -1.702127
4.4466982 -1.9656122 -1.7017894
4.422533 -1.9874588 -1.6970631
4.3974113 -2.008692 -1.6919993
4.3815885 -2.0340512 -1.6906489
4.3656197 -2.0592918 -1.6892986
4.3469596 -2.0831928 -1.6869355
4.3222466 -2.1040592 -1.6822093
4.3075671 -2.1297061 -1.6815341
4.2750692 -2.1463842 -1.6737696
4.2853012 -2.1845434 -1.6832221
4.2768326 -2.2133918 -1.6852475
4.2498374 -2.2325892 -1.6798462
4.2410421 -2.2612805 -1.6818717
4.2378502 -2.293083 -1.6862603
4.2360778 -2.3258371 -1.6913241
4.2217269 -2.3517854 -1.6913241
4.1965632 -2.3716257 -1.6869355
4.2023487 -2.4090323 -1.6953752
4.1809778 -2.4309876 -1.6926745
4.1554418 -2.450381 -1.6882858
4.1306334 -2.4700358 -1.6842347
4.1178145 -2.4967985 -1.6852475
4.1008129 -2.5210321 -1.6845723
4.0892615 -2.5486357 -1.6862603
4.0759339 -2.5751872 -1.687273
4.0608487 -2.6006558 -1.6876106
4.0432358 -2.6244988 -1.6869355
4.016046 -2.6420164 -1.6822093
3.9989762 -2.6660867 -1.6818717
3.9887824 -2.6947887 -1.6845723
3.9752793 -2.7213392 -1.6859227
3.9732032 -2.7558718 -1.6923369
3.9469764 -2.7737052 -1.6882858
3.9214475 -2.7918668 -1.6845723
3.8981352 -2.8114712 -1.6818717
3.8762505 -2.8320055 -1.6798462
3.8595572 -2.8562963 -1.6801838
3.8374393 -2.8765371 -1.6781582
3.8219662 -2.9017365 -1.679171
3.8048358 -2.9257066 -1.6795086
3.7972102 -2.9570937 -1.6842347
3.7804728 -2.981503 -1.6849099
3.7687275 -3.0099297 -1.6879482
3.7465281 -3.0300381 -1.6862603
3.7278657 -3.0529695 -1.6862603
3.7083383 -3.0751848 -1.6859227
3.6857948 -3.0948546 -1.6842347
3.6667359 -3.1174121 -1.6842347
3.6404042 -3.1337118 -1.6808589
3.6282043 -3.1621737 -1.6842347
3.6122625 -3.1874902 -1.6859227
2.4441373 -2.1837208 -1.1336285
2.4362776 -2.2037275 -1.1363292
2.430347 -2.2256267 -1.1400427
3.5094776 -3.2534237 -1.6744447
3.4949403 -3.2800491 -1.6771455
3.4774783 -3.3040252 -1.6784958
3.4571395 -3.3253002 -1.6784958
3.4427409 -3.35236 -1.6815341
3.4174135 -3.3687959 -1.679171
3.4046748 -3.3976796 -1.6832221
3.3917098 -3.4265335 -1.687273
3.323236 -3.3988254 -1.6629667
3.3088584 -3.4259224 -1.6663426
3.2858257 -3.4441178 -1.6653298
3.2639854 -3.4635293 -1.6649922
3.2439551 -3.4848695 -1.6656674
3.2269714 -3.5095584 -1.6680305
3.2085409 -3.5327764 -1.6697185
3.1868038 -3.552397 -1.6697185
3.1680684 -3.5754063 -1.6714064
3.1491704 -3.5983193 -1.6730944
3.1307259 -3.6218472 -1.6751199
3.1225023 -3.6574528 -1.6828845
3.0927198 -3.6679084 -1.6788334
3.0707581 -3.6875393 -1.679171
3.0397024 -3.6961341 -1.6744447
3.0169661 -3.7147157 -1.6744447
2.9917603 -3.7302206 -1.6730944
2.948359 -3.7226827 -1.6612788
1.9969792 -2.5536888 -1.1208001
1.9755187 -2.5584443 -1.1174242
1.9552169 -2.5645297 -1.1147236
1.9428415 -2.5809903 -1.116749
1.928653 -2.595129 -1.1177619
1.8987702 -2.5879426 -1.1093222
1.7674335 -2.4402313 -1.0387663
1.6555077 -2.3155122 -0.97901309
1.6363831 -2.3187056 -0.9759748
2.7322915 -3.9219587 -1.6724192
2.6969743 -3.9223626 -1.6653298
2.6659842 -3.9287119 -1.6609412
2.638685 -3.9403038 -1.6589156
2.6108251 -3.9509232 -1.6565526
2.585505 -3.9652917 -1.6558774
2.5611258 -3.9810815 -1.6558774
2.531101 -3.9879797 -1.6521639
2.4990897 -3.9914684 -1.6471001
2.4621842 -3.986707 -1.6386604
2.4435532 -4.0113854 -1.6427114
2.4227722 -4.0327582 -1.6454121
2.3907843 -4.0354013 -1.6403483
2.3792751 -4.072751 -1.6498008
2.3626983 -4.1019545 -1.6558774
2.3333008 -4.1090083 -1.6528391
2.3149424 -4.1355677 -1.657903
2.2840657 -4.1398044 -1.6538519
2.2653673 -4.1661448 -1.6589156
2.2406509 -4.1816258 -1.6595908
2.2167091 -4.1986251 -1.6609412
2.1896017 -4.2096419 -1.6599284
2.1650186 -4.2255111 -1.6609412
2.1386263 -4.2378755 -1.6606036
2.1130021 -4.251761 -1.6609412
2.0881152 -4.2671824 -1.6619539
2.0586243 -4.2731309 -1.6592532
2.0343831 -4.2899342 -1.6609412
2.0012531 -4.2878366 -1.6552022
1.4267621 -3.1068113 -1.1842667
1.4119366 -3.1249425 -1.1879802
1.3931183 -3.1344073 -1.1883178
1.3787622 -3.154108 -1.1927065
1.8676674 -4.3446126 -1.6541895
1.8505036 -4.3785329 -1.6629667
1.8228801 -4.3880663 -1.6622915
1.7987679 -4.4061403 -1.6649922
1.769946 -4.4127264 -1.6633043
1.7438722 -4.4261303 -1.6643171
1.7224567 -4.4516706 -1.6700561
1.693772 -4.4586363 -1.6687057
1.6667113 -4.4698267 -1.6690433
1.6363418 -4.472014 -1.666005
1.6155514 -4.5005746 -1.6730944
1.5875933 -4.5095148 -1.6727568
1.5617367 -4.5245094 -1.6747823
1.533342 -4.5322237 -1.6741072
1.5031339 -4.534399 -1.6714064
1.4767369 -4.5480132 -1.6730944
1.4453797 -4.5462246 -1.6690433
1.4174573 -4.5550075 -1.6690433
1.3900301 -4.5654202 -1.6697185
1.3676342 -4.5928078 -1.6768079
1.335743 -4.5884604 -1.6720816
1.3140042 -4.6192036 -1.6805214
1.28362 -4.6199241 -1.6778206
1.2530301 -4.6195374 -1.6747823
1.2268298 -4.6353283 -1.6778206
1.1997769 -4.6482372 -1.6798462
1.1719224 -4.6582499 -1.6808589
0.73159802 -2.9859271 -1.0607095
1.1161999 -4.6786895 -1.6832221
0.70107484 -3.0212703 -1.0704995
0.67153865 -2.976851 -1.0526073
0.65789771 -3.0020628 -1.0603719
0.62947017 -2.959089 -1.0431548
0.61244363 -2.9684267 -1.0451804
0.5971728 -2.9868968 -1.0505818
0.57704437 -2.9812636 -1.0472059
0.55856746 -2.9838231 -1.0468683
0.54108679 -2.9918253 -1.0485562
0.51996583 -2.9793258 -1.0428172
0.50464427 -3.0000966 -1.0492314
0.48697937 -3.0077822 -1.0509194
0.46706617 -3.0014129 -1.0475435
0.45893833 -3.0731127 -1.072525
0.42793059 -2.9910781 -1.0418046
0.40829247 -2.9843216 -1.0384287
0.38741148 -2.9671702 -1.0313393
0.36931422 -2.9704256 -1.0316769
0.35086003 -2.9707663 -1.0310017
0.33231077 -2.9700568 -1.0299889
0.31427869 -2.973912 -1.0306641
0.2961185 -2.976721 -1.0310017
0.2794241 -2.9953518 -1.0370783
0.2607125 -2.993259 -1.0357279
0.24371018 -3.0116904 -1.0418046
0.22628056 -3.027209 -1.0468683
0.20834699 -3.0379312 -1.0502442
0.19128935 -3.0645177 -1.0593591
0.17248222 -3.0656338 -1.0593591
0.15423541 -3.0779157 -1.0634102
0.13513945 -3.0741022 -1.0617222
0.11552501 -3.0551207 -1.0546329
0.09644784 -3.045423 -1.0509194
0.077638924 -3.0412526 -1.0492314
0.058829699 -3.0341427 -1.0465307
0.039934278 -3.0137401 -1.0391037
0.021366511 -3.0035744 -1.0353904
0.0029291923 -2.9970598 -1.0330272
-0.01538955 -2.9829021 -1.0279634
-0.033366386 -2.9535732 -1.0174981
-0.052009471 -2.9834299 -1.028301
-0.070204206 -2.9783494 -1.026613
-0.089173369 -3.0013845 -1.0350528
-0.10866303 -3.0308831 -1.0458555
-0.12643135 -3.0104096 -1.0387663
-0.14494564 -3.0105174 -1.0391037
-0.16412781 -3.0227301 -1.04383
-0.18006478 -2.9784451 -1.028301
-0.1974002 -2.9631958 -1.0232371
-0.2150327 -2.9544184 -1.0205364
-0.23345245 -2.9567969 -1.0218868
-0.25135148 -2.9524951 -1.020874
-0.27014667 -2.9583964 -1.0235747
-0.28756422 -2.9491882 -1.020874
-0.30516982 -2.9426868 -1.0191861
-0.32219297 -2.9314022 -1.0158103
-0.34472853 -2.968641 -1.0299889
-0.36396495 -2.974879 -1.0330272
-0.38293111 -2.9781916 -1.0350528
-0.40207723 -2.982316 -1.0374159
-0.4229961 -2.9984345 -1.0441676
-0.44248283 -3.0032327 -1.0468683
-0.45990244 -2.9939482 -1.0445052
-0.4773733 -2.9854929 -1.0424796
-0.49614555 -2.9852934 -1.0434924
-0.51381409 -2.9784825 -1.042142
-0.53340465 -2.9826865 -1.0448428
-0.55375123 -2.9904644 -1.0488938
-0.57279772 -2.9907086 -1.0502442
-0.59679848 -3.0157633 -1.0607095
-0.61340892 -3.0028219 -1.0573336
-0.63065875 -2.993475 -1.055308
-0.65280646 -3.0070269 -1.0617222
-0.66303623 -2.9662187 -1.0482187
-0.68101329 -2.9611773 -1.0478811
-0.69678873 -2.9468663 -1.0441676
-0.71552348 -2.9452794 -1.0451804
-0 -0 -0
-0.74741334 -2.9198625 -1.0391037
-0.76292628 -2.9061167 -1.0357279
-0.7861219 -2.9213786 -1.0431548
-0.80328226 -2.9137776 -1.042142
-0.82958084 -2.9386895 -1.0532825
-0.85934901 -2.9742391 -1.0684739
-0.87811583 -2.9707158 -1.0691491
-1.1878971 -3.9303129 -1.430706
-1.2367117 -4.002995 -1.4607514
-1.2564347 -3.9800711 -1.4550124
-1.2652382 -3.923908 -1.4367826
-1.0023757 -3.0443106 -1.1076342
-1.0294294 -3.063087 -1.1170866
-1.0216506 -2.9792449 -1.0877165
-1.035562 -2.9604807 -1.0829903
-1.0673012 -2.9921956 -1.0975065
-1.0743862 -2.954627 -1.085691
-1.0954381 -2.9559233 -1.0887293
-1.1148843 -2.9526687 -1.0900797
-1.1326427 -2.9448936 -1.0897421
-1.1572112 -2.9545422 -1.0961562
-1.1495258 -2.8826816 -1.0711746
-1.1643606 -2.8685961 -1.0684739
-1.1743959 -2.8431268 -1.0613846
-1.1852565 -2.8202465 -1.055308
-1.2006893 -2.808593 -1.0536201
-1.2152735 -2.7951298 -1.051257
-1.2301183 -2.7824547 -1.0492314
-1.250254 -2.7817233 -1.0519321
-1.2618245 -2.7620122 -1.0472059
-1.285881 -2.7695866 -1.0532825
-1.2936161 -2.742063 -1.0455179
-1.9335183 -4.0345693 -1.562703
-1.3222249 -2.7158253 -1.041467
-1.3396982 -2.7093489 -1.042142
-1.3689656 -2.7263153 -1.0522697
-1.3972089 -2.7405078 -1.0613846
-1.4187564 -2.7410791 -1.065098
-1.4456155 -2.7514892 -1.0728626
-1.4686704 -2.7541962 -1.0775888
-1.4850943 -2.7443049 -1.0772513
-1.5141349 -2.7574196 -1.0863662
-1.5273615 -2.7414985 -1.0836655
-1.5348933 -2.7156847 -1.0769137
-1.5356132 -2.6784489 -1.0654356
-1.5562766 -2.6763 -1.0684739
-1.5540245 -2.635077 -1.055308
-1.5716128 -2.6279159 -1.0563208
-1.5994191 -2.6375415 -1.064423
-1.6318384 -2.6541414 -1.0755633
-1.630172 -2.615319 -1.0634102
-1.6476967 -2.6076546 -1.064423
-1.6636659 -2.5974956 -1.064423
-1.6780353 -2.5848696 -1.0634102
-1.6969677 -2.5792434 -1.0654356
-1.7059747 -2.5586004 -1.0610471
-1.7205881 -2.5465245 -1.0603719
-1.7303326 -2.5273747 -1.0566584
-1.7447349 -2.5151629 -1.0559832
-1.7660874 -2.5128822 -1.0596967
-1.7825646 -2.5035322 -1.0603719
-1.7995442 -2.494838 -1.0613846
-1.8031584 -2.467787 -1.0542953
-1.816027 -2.45365 -1.0529449
-1.8287901 -2.4394479 -1.0515946
-1.8425856 -2.4266813 -1.0509194
-1.8528509 -2.4093597 -1.0482187
-1.862395 -2.3912611 -1.0451804
-1.8729526 -2.3746147 -1.0428172
-1.886313 -2.3616066 -1.042142
-1.9001762 -2.349256 -1.0418046
-1.9223076 -2.3470204 -1.0461931
-1.9420797 -2.3417027 -1.0492314
-1.9527801 -2.3254166 -1.0472059
-1.963354 -2.3090878 -1.0451804
-1.9701169 -2.2884359 -1.0411294
-1.9810294 -2.2727563 -1.0394413
-1.9980512 -2.2640874 -1.0411294
-2.0043809 -2.2433608 -1.0370783
-2.0256846 -2.2393978 -1.0411294
-2.0571847 -2.2463658 -1.0505818
-2.0690098 -2.2316296 -1.049569
-2.0775111 -2.2134011 -1.0468683
-2.0891082 -2.1985648 -1.0458555
-2.0986443 -2.1816342 -1.04383
-2.1119909 -2.168716 -1.04383
-2.1160076 -2.1463306 -1.0391037
-2.1317968 -2.135972 -1.0404541
-2.1421871 -2.1202023 -1.0391037
-2.1524642 -2.1043856 -1.0377535
-2.1619508 -2.0878689 -1.0360655
-2.1788073 -2.0784631 -1.0380911
-2.1894643 -2.063118 -1.0370783
-2.2124162 -2.0592661 -1.042142
-2.243717 -2.062856 -1.051257
-2.279325 -2.069936 -1.0623974
-2.2975879 -2.0609403 -1.065098
-2.305259 -2.0424335 -1.062735
-2.3255389 -2.0350699 -1.0664485
-2.3144836 -2.000447 -1.055308
-2.3324413 -1.9910979 -1.0580088
-2.3424559 -1.9749283 -1.056996
-2.3501899 -1.9569037 -1.0549704
-2.3730576 -1.9514157 -1.0600343
-2.3966765 -1.946314 -1.0654356
-2.4129791 -1.9351056 -1.0674613
-2.4329236 -1.9266926 -1.0711746
-2.4491484 -1.9152079 -1.0732002
-2.4668136 -1.9047471 -1.0759009
-2.4747119 -1.8867213 -1.0742129
-2.4764664 -1.8641406 -1.0698243
-2.4803038 -1.8432945 -1.0664485
-2.4938438 -1.8297118 -1.0674613
-2.4897785 -1.8033302 -1.0607095
-2.4962027 -1.7847339 -1.0586839
-2.5132587 -1.7737267 -1.0613846
-2.5310454 -1.7631155 -1.064423
-2.5526743 -1.7550194 -1.0691491
-2.5742986 -1.7467241 -1.0738754
-2.5904424 -1.7345624 -1.0762385
-2.6143863 -1.7274584 -1.0819775
-2.6273019 -1.7129269 -1.0829903
-2.6353881 -1.6952457 -1.0819775
-2.664813 -1.6911508 -1.0900797
-2.6743417 -1.6742684 -1.0897421
-2.6933737 -1.6632689 -1.0934554
-2.706744 -1.6486704 -1.0948058
-2.7127748 -1.6296071 -1.093118
-2.7437775 -1.6254075 -1.1018952
-2.7878337 -1.6284864 -1.1160738
-2.7969577 -1.61088 -1.1157364
-2.8346179 -1.6094936 -1.1272143
-2.8740079 -1.6086247 -1.1393675
-2.9308 -1.6168832 -1.15861
-2.9679537 -1.6137106 -1.1697505
-3.0275786 -1.622148 -1.1900057
-3.0782609 -1.6250784 -1.2065475
-3.1432872 -1.6348325 -1.2288283
-3.2051964 -1.6421314 -1.2497588
-4.0698128 -2.0537961 -1.593086
-3.3034964 -1.641641 -1.2811545
-3.3726892 -1.6503067 -1.3047857
-3.9771857 -1.9160185 -1.541435
-4.1317468 -1.9593503 -1.5981498
-4.1385736 -1.9315724 -1.5961243
-3.8056383 -1.7477896 -1.4600762
-3.7579639 -1.6980436 -1.4371202
-3.782074 -1.6810718 -1.4425217
-3.8492391 -1.6827239 -1.4648025
-3.8914871 -1.6728313 -1.4772933
-3.9649696 -1.6756774 -1.5019372
-4.0777473 -1.6939371 -1.5417726
-4.0889359 -1.6692405 -1.5421102
-4.2021866 -1.6854777 -1.5819455
-4.2387218 -1.6700156 -1.5920732
-4.2989259 -1.6633413 -1.6113157
-4.3486471 -1.651978 -1.6265072
-4.4742365 -1.6683561 -1.6707313
-4.5400782 -1.6612536 -1.6919993
-4.6086564 -1.6543593 -1.7142801
-4.6719913 -1.6448094 -1.7345355
-4.7202554 -1.6293213 -1.7490517
-4.7854443 -1.6190355 -1.7699822
-4.8346004 -1.6026776 -1.7848361
-4.9490886 -1.6070033 -1.8243339
-5.1050706 -1.6231058 -1.8793608
-5.1338077 -1.5976262 -1.8864501
-5.19484 -1.5817276 -1.9056926
-5.2432384 -1.5613776 -1.9202089
-5.272603 -1.5349662 -1.9276358
-5.2882595 -1.5043886 -1.929999
-5.3119016 -1.4759451 -1.9354004
-5.3344846 -1.4470216 -1.9404641
-5.3505421 -1.4161899 -1.9431649
-5.3691564 -1.3859215 -1.9468783
-5.3784723 -1.3531806 -1.9472159
-5.3857598 -1.3199294 -1.9468783
-5.3818545 -1.2840174 -1.9424897
-5.3841305 -1.2496935 -1.9404641
-5.3770061 -1.2133174 -1.9350628
-5.388947 -1.1813099 -1.9367508
-5.393332 -1.1476338 -1.935738
-5.4168653 -1.1179452 -1.9418145
-5.4042401 -1.080809 -1.9347252
-5.4135423 -1.0481658 -1.935738
-5.4374504 -1.0182223 -1.9421521
-5.4435959 -0.98483962 -1.9421521
-5.4708633 -0.95514482 -1.9499167
-5.4831185 -0.92265213 -1.9522798
-5.49611 -0.89019549 -1.9549805
-5.4903078 -0.8547169 -1.9509294
-5.5056891 -0.82254356 -1.9546429
-0 -0 -0
-0 -0 -0
-0 -0 -0
-0 -0 -0
-0 -0 -0
-0 -0 -0
-0 -0 -0
-0 -0 -0
-0 -0 -0
-0 -0 -0
-0 -0 -0
-0 -0 -0
-0 -0 -0
-0 -0 -0
-0 -0 -0
-0 -0 -0
-0 -0 -0
-0 -0 -0
-5.4670892 -0.17346403 -1.9198713
-0 0 -0
-0 0 -0
-0 0 -0
-0 0 -0
-0 0 -0
-0 0 -0
-0 0 -0
-0 0 -0
-0 0 -0
-0 0 -0
-0 0 -0
-0 0 -0
-0 0 -0
-0 0 -0
-0 0 -0
-0 0 -0
-0 0 -0
-0 0 -0
-0 0 -0
-0 0 -0
-0 0 -0
-0 0 -0
-5.1914058 1.0941838 -1.9268386
-5.1772656 1.1244236 -1.9240553
-5.1675239 1.1555551 -1.9230115
-5.1658182 1.1885031 -1.9250991
-5.1648145 1.2216897 -1.9275346
-5.1590428 1.2538006 -1.9282304
-5.1530719 1.2858866 -1.9289262
-5.1496258 1.3186449 -1.9306657
-5.1432509 1.3506943 -1.9313616
-5.1384873 1.3832028 -1.9327533
-5.1262889 1.4137082 -1.9313616
-5.1166158 1.4448808 -1.9310137
-5.0995483 1.473904 -1.9278824
-5.0850148 1.5035703 -1.925795
-5.0694118 1.5328423 -1.9233595
-5.0554328 1.5625336 -1.9216199
-5.0359168 1.5904158 -1.9177928
-5.0296321 1.6224377 -1.9191844
-5.0178013 1.6526815 -1.9184886
-5.0075665 1.683439 -1.9184886
-5.0042367 1.7165682 -1.921272
-4.9998035 1.7494102 -1.9237075
-4.9872093 1.7794249 -1.9230115
-4.9885311 1.8144816 -1.9278824
-4.9773035 1.8450565 -1.9278824
-4.961504 1.8739047 -1.9261428
-4.9516625 1.9049863 -1.9268386
-4.9372621 1.9343067 -1.925795
-4.9165931 1.9610895 -1.9223157
-4.9053359 1.9915731 -1.9226637
-4.8999548 2.0244997 -1.925447
-4.8857121 2.0538001 -1.9247512
-4.8695703 2.0822644 -1.9233595
-4.8524041 2.110234 -1.9216199
-4.8393645 2.1399679 -1.9216199
-4.8141727 2.1642373 -1.9167491
-4.7999496 2.1933458 -1.9164011
-4.791503 2.2251267 -1.9184886
-4.8023453 2.2660928 -1.9285783
-4.7705989 2.2870021 -1.921272
-4.7497334 2.3129458 -1.9184886
-4.7236886 2.3362248 -1.9136178
-4.7025633 2.3617971 -1.9108344
-4.6921582 2.3927374 -1.9125741
-4.6848807 2.4253638 -1.9157053
-4.6624427 2.4501374 -1.9125741
-4.6589007 2.4848788 -1.9174449
-4.6386199 2.5107398 -1.9153574
-4.6099806 2.5319304 -1.9097908
-4.6025467 2.5647345 -1.9132699
-4.5818267 2.5901575 -1.9111824
-4.5723534 2.6219547 -1.9139657
-4.5456452 2.643831 -1.9094428
-4.5357966 2.6754847 -1.9122262
-4.5192947 2.7032654 -1.9122262
-4.5058284 2.7328899 -1.9136178
-4.4929676 2.7629421 -1.9153574
-4.4759297 2.7904584 -1.9153574
-4.4547615 2.8153644 -1.9136178
-4.4350352 2.8411276 -1.9125741
-4.4175186 2.8682871 -1.9125741
-4.3967037 2.8932762 -1.9111824
-4.3804283 2.9212401 -1.9118782
-4.3631978 2.9485881 -1.9122262
-4.3473439 2.9768944 -1.9132699
-4.3266854 3.0019093 -1.9122262
-4.3135529 3.032176 -1.9146615
-4.2918124 3.0564103 -1.9132699
-4.2744985 3.0837843 -1.9139657
-4.2585235 3.1121674 -1.9153574
-4.2401009 3.1387966 -1.9157053
-4.2245116 3.1675673 -1.9174449
-4.1848407 3.1781149 -1.9080511
-4.171205 3.2083068 -1.9108344
-4.1529198 3.234993 -1.9115303
-4.1278405 3.2563481 -1.9090949
-4.1077824 3.2816148 -1.9090949
-4.0831971 3.3032191 -1.9070073
-4.0693779 3.3335593 -1.9101386
-4.0466828 3.3566697 -1.9090949
-4.0245748 3.3802302 -1.9083991
-4.0144691 3.4139736 -1.9136178
-3.9984181 3.4428248 -1.9160533
-3.9793377 3.4691427 -1.917097
-3.965004 3.4996996 -1.9205762
-3.9413588 3.5220881 -1.9195324
-3.9148078 3.5418015 -1.917097
-3.8895462 3.5625887 -1.9153574
-3.8634894 3.5825617 -1.9132699
-3.8305001 3.5959311 -1.9077032
-3.8049667 3.6161368 -1.9059637
-3.7874351 3.6439667 -1.9083991
-3.7603047 3.6625574 -1.9059637
-3.739763 3.6875365 -1.9070073
-3.7170663 3.7104137 -1.9070073
-3.6942298 3.7331514 -1.9070073
-3.6751852 3.7597718 -1.9090949
-3.6539998 3.7842755 -1.9101386
-3.6358864 3.8120532 -1.912922
-3.6104994 3.8322432 -1.9118782
-3.5869172 3.8543248 -1.9118782
-3.5549538 3.8672864 -1.9073553
-3.5273774 3.884861 -1.9052678
-3.4997191 3.9022429 -1.9031802
-3.4726019 3.9201338 -1.9014407
-3.4472487 3.9399562 -1.9007449
-3.4248471 3.9631622 -1.9017886
-3.4059415 3.9905212 -1.9049199
-3.3777676 4.0070429 -1.9028324
-3.355516 4.0305758 -1.904224
-3.3265548 4.0460186 -1.9017886
-3.3016663 4.0663538 -1.9017886
-3.2778261 4.0879989 -1.9024844
-3.2550082 4.1109753 -1.9038761
-3.2279906 4.128654 -1.9028324
-3.2066061 4.1535783 -1.9052678
-3.1827643 4.1754127 -1.9063115
-3.1559575 4.1933646 -1.9056157
-3.130168 4.2126503 -1.9056157
-3.1020434 4.2287531 -1.904224
-3.0771372 4.2492261 -1.9049199
-3.0493715 4.265739 -1.9038761
-3.0242207 4.2859015 -1.904572
-2.9973302 4.3036075 -1.904224
-2.972991 4.3250089 -1.9056157
-2.9453449 4.3416171 -1.9049199
-2.9217782 4.3642831 -1.9070073
-2.8933947 4.3797812 -1.9059637
-2.8659546 4.396667 -1.9056157
-2.8358815 4.4094377 -1.9035282
-2.8102787 4.4291306 -1.904572
-2.7795684 4.4407268 -1.9021366
-2.7527606 4.4584961 -1.9024844
-2.7268143 4.4777055 -1.9035282
-2.6983232 4.4927449 -1.9028324
-2.670228 4.5084105 -1.9024844
-2.648186 4.5344257 -1.9066595
-2.618443 4.547339 -1.9052678
-2.5867903 4.5567966 -1.9024844
-2.5596972 4.5742197 -1.9031802
-2.535203 4.5964079 -1.9059637
-2.4988959 4.5970488 -1.8997011
-2.4724119 4.6156011 -1.9010928
-2.4436071 4.6298556 -1.9007449
-2.4155853 4.6455936 -1.9010928
-2.3831899 4.6528172 -1.8979615
-2.3554401 4.6690269 -1.8986573
-2.3234117 4.6766744 -1.895874
-2.2930253 4.6874733 -1.8944824
-2.2658467 4.704834 -1.895874
-2.2365344 4.7178011 -1.8955261
-2.2119026 4.7407818 -1.8993531
-2.185509 4.7602296 -1.9017886
-2.1574168 4.7761135 -1.9028324
-2.1292121 4.7918315 -1.9038761
-2.1020215 4.8099608 -1.9059637
-2.0702486 4.8175993 -1.9038761
-2.0384614 4.8250294 -1.9017886
-2.0077393 4.8348484 -1.9007449
-1.9776813 4.8462086 -1.9003969
-1.9465134 4.8547711 -1.8990053
-1.9146283 4.8613892 -1.8969178
-1.8840873 4.8712964 -1.896222
-1.8548274 4.8845186 -1.8969178
-1.8258034 4.8984432 -1.8979615
-1.7979656 4.9157176 -1.9003969
-1.7627065 4.9125371 -1.8948302
-1.7343967 4.9285669 -1.8969178
-1.7032062 4.9364576 -1.895874
-1.6707836 4.940598 -1.8934386
-1.6407319 4.9516468 -1.8937865
-1.6146566 4.9749975 -1.8990053
-1.5843838 4.9857049 -1.8993531
-1.5523711 4.9908562 -1.8976136
-1.5209002 4.9975967 -1.8965698
-1.4888707 5.0023413 -1.8948302
-1.4576255 5.0095825 -1.8941344
-1.4278846 5.0220394 -1.8955261
-1.3962911 5.0279961 -1.8944824
-1.366394 5.0400882 -1.895874
-1.3366407 5.0529094 -1.8976136
-1.3021016 5.0473981 -1.8923949
-1.2731626 5.0634761 -1.8955261
-1.2414012 5.0684609 -1.8944824
-1.2109301 5.0787182 -1.8955261
-1.1793216 5.0842261 -1.8948302
-1.1497514 5.0986838 -1.8976136
-1.1186453 5.1065583 -1.8979615
-1.0878754 5.1160769 -1.8990053
-1.0568415 5.1244926 -1.8997011
-1.0253783 5.1308808 -1.8997011
-0.99441016 5.1398373 -1.9007449
-0.96233732 5.1430774 -1.8997011
-0.9312616 5.1516528 -1.9007449
-0.90076041 5.1637354 -1.9031802
-0.86999083 5.1747127 -1.9052678
-0.83717608 5.1734748 -1.9028324
-0.80484098 5.1748085 -1.9014407
-0.77362657 5.1833587 -1.9028324
-0.74021751 5.1768708 -1.8986573
-0.70729768 5.172955 -1.8955261
-0.67518044 5.1744084 -1.8944824
-0.64307195 5.1756625 -1.8934386
-0.61053479 5.1729932 -1.8910031
-0.57909435 5.1794376 -1.8920469
-0.54799074 5.1894197 -1.8944824
-0.51613873 5.1926847 -1.8944824
-0.48444089 5.1976209 -1.8951782
-0.45245871 5.1995611 -1.8948302
-0.42084762 5.2059774 -1.896222
-0.38903561 5.2103319 -1.8969178
-0.35699445 5.2116852 -1.8965698
-0.32495129 5.212842 -1.896222
-0.29316932 5.218482 -1.8976136
-0.26100388 5.2173734 -1.8965698
-0.22894487 5.2179403 -1.896222
-0.19685361 5.2173729 -1.8955261
-0.16489547 5.2203569 -1.896222
-0.13269538 5.2147098 -1.8937865
-0.10078547 5.2201123 -1.8955261
-0.068838544 5.2271948 -1.8979615
-0.036814872 5.2350187 -1.9007449
-0.0046952455 5.2388964 -1.9021366
0.027475698 5.2435141 -1.9038761
0.059583552 5.2376218 -1.9017886
0.091586895 5.2296586 -1.8990053
0.12360663 5.2261868 -1.8979615
0.15555908 5.2215815 -1.8965698
0.18739192 5.2149072 -1.8944824
0.21950534 5.2164693 -1.8955261
0.25146347 5.2140875 -1.8951782
0.28319621 5.2077661 -1.8934386
0.31474715 5.1993794 -1.8910031
0.34676921 5.1992211 -1.891699
0.37866449 5.1969957 -1.891699
0.41054553 5.1945744 -1.891699
0.4422515 5.1900892 -1.8910031
0.47451666 5.191946 -1.8927428
0.50709498 5.1964016 -1.8955261
0.538679 5.1903944 -1.8944824
0.57020843 5.184196 -1.8934386
0.60233259 5.1833935 -1.8944824
0.63412595 5.1795998 -1.8944824
0.66541606 5.1718922 -1.8930907
0.69650996 5.1630664 -1.8913511
0.72857058 5.1614804 -1.8923949
0.76022708 5.1569128 -1.8923949
0.79242551 5.1558576 -1.8937865
0.82404631 5.1508985 -1.8937865
0.85517418 5.1429706 -1.8927428
0.88703406 5.1394744 -1.8934386
0.91822195 5.1320891 -1.8927428
0.94935262 5.1245146 -1.8920469
0.98113143 5.1204348 -1.8927428
1.0118022 5.1106396 -1.8913511
1.0435174 5.1061721 -1.8920469
1.0730866 5.0914173 -1.8889157
1.1053027 5.0893178 -1.8906553
1.1352805 5.0769506 -1.8885678
1.1662003 5.0689754 -1.8882198
1.197281 5.0617242 -1.8882198
1.230311 5.0624814 -1.8913511
1.2633953 5.0630231 -1.8944824
1.2914118 5.0433698 -1.8899595
1.3225714 5.0362573 -1.8903073
1.3536922 5.0289526 -1.8906553
1.3850226 5.0223594 -1.8913511
1.4155582 5.0128641 -1.8910031
1.448374 5.0112891 -1.8937865
1.4796275 5.0041056 -1.8944824
1.5119336 5.0003166 -1.8965698
1.5420324 4.9891543 -1.895874
1.5751591 4.9876442 -1.8990053
1.6042929 4.973424 -1.8972657
1.6356596 4.9661579 -1.8983095
1.6661005 4.9560285 -1.8983095
1.6946524 4.9403915 -1.896222
1.7233851 4.9254761 -1.8944824
1.7529444 4.913043 -1.8937865
1.7872257 4.9136477 -1.8983095
1.8163635 4.8999519 -1.8972657
1.8477206 4.8922224 -1.8986573
1.8756831 4.8755431 -1.8965698
1.9093275 4.8735437 -1.9003969
1.9398901 4.8634782 -1.9010928
1.9661666 4.8427978 -1.8976136
1.9962027 4.8315091 -1.8979615
2.0232661 4.8131204 -1.8955261
2.0505481 4.7954435 -1.8934386
2.0799339 4.7827711 -1.8934386
2.108103 4.7673469 -1.8923949
2.1400075 4.7603073 -1.8948302
2.1683962 4.7453814 -1.8941344
2.2033985 4.7447405 -1.8993531
2.2308691 4.7277403 -1.8979615
2.2586195 4.7114267 -1.8969178
2.2846112 4.6915798 -1.8944824
2.3162661 4.6833553 -1.8969178
2.3432751 4.6657043 -1.8955261
2.3705809 4.6487327 -1.8944824
2.4020789 4.6399269 -1.8969178
2.4265769 4.6176324 -1.8937865
2.4539816 4.6010022 -1.8930907
2.4808273 4.583385 -1.8920469
2.5107098 4.5713634 -1.8934386
2.5391684 4.5566907 -1.8937865
2.5698493 4.5459208 -1.895874
2.5976942 4.530067 -1.895874
2.6263843 4.5156631 -1.8965698
2.65166 4.4954262 -1.8948302
2.6801562 4.48068 -1.8955261
2.7061398 4.4617462 -1.8944824
2.7373958 4.4514456 -1.8972657
2.759696 4.4266109 -1.8937865
2.7878075 4.4111791 -1.8944824
2.8133037 4.3916225 -1.8934386
2.8417294 4.376636 -1.8944824
2.8659527 4.3552022 -1.8927428
2.9014676 4.3507929 -1.8986573
2.9218075 4.3235879 -1.8944824
2.9477518 4.3048053 -1.8941344
2.971437 4.2827864 -1.8923949
2.9955025 4.2614055 -1.8910031
3.0248578 4.2475266 -1.8930907
3.05635 4.2364883 -1.8965698
3.0778604 4.2116008 -1.8937865
3.1075501 4.1979098 -1.896222
3.1383128 4.185513 -1.8993531
3.1679058 4.1714034 -1.9017886
3.1951566 4.1541162 -1.9028324
3.2148225 4.127038 -1.8993531
