# .PCD v0.7 - Point Cloud Data file format
VERSION 0.7
FIELDS x y z
SIZE 4 4 4
TYPE F F F
COUNT 1 1 1
WIDTH 1595
HEIGHT 1
VIEWPOINT 0 0 0 1 0 0 0
POINTS 1595
DATA ascii
-2.7378771 5.1115227 -1.8964696
-2.7033629 5.1223545 -1.8942508
-2.6723194 5.1396871 -1.8945677
-2.643327 5.1610522 -1.8964696
-2.6116097 5.1771741 -1.8964696
-2.5743077 5.1820593 -1.8923489
-2.5453804 5.203721 -1.8945677
-2.517107 5.2269316 -1.8974205
-2.4780805 5.2277088 -1.8920319
-2.4435508 5.237659 -1.8901302
-2.4153249 5.2611728 -1.8932998
-2.3837783 5.2776227 -1.8939338
-2.3490398 5.2869496 -1.8920319
-2.3195939 5.3082161 -1.8945677
-2.2839837 5.3153777 -1.8920319
-2.2513263 5.3292923 -1.8920319
-2.2171288 5.3395019 -1.8907641
-2.1868334 5.3591523 -1.8929828
-2.153203 5.3707089 -1.8923489
-2.1181228 5.3785253 -1.8904471
-2.0857654 5.3931894 -1.8910811
-2.052634 5.4058862 -1.8910811
-2.0147874 5.4059372 -1.8866434
-1.9832085 5.4226518 -1.8882283
-1.9566259 5.453465 -1.8948847
-1.9177744 5.4501586 -1.8894962
-1.8839874 5.460927 -1.8891792
-1.8501405 5.4714856 -1.8888623
-1.8141464 5.4755325 -1.8863264
-1.7743658 5.467617 -1.87967
-1.7433692 5.486536 -1.8825227
-1.7116438 5.5034695 -1.8847415
-1.6808807 5.523849 -1.8882283
-1.648579 5.5395126 -1.8901302
-1.6105829 5.5358639 -1.8853755
-1.5799576 5.5575018 -1.8894962
-1.5486197 5.5771437 -1.8929828
-1.5096539 5.5691485 -1.8869604
-1.4747261 5.5755563 -1.8860095
-1.4404874 5.5844998 -1.8860095
-1.4096642 5.6070304 -1.8907641
-1.3664325 5.5796475 -1.8784021
-1.3400911 5.621139 -1.8898132
-1.3047178 5.6255603 -1.8885453
-1.2697581 5.6316099 -1.8879113
-1.2323375 5.6263247 -1.8834736
-1.1983837 5.6365633 -1.8844246
-1.1641591 5.645668 -1.8850585
-1.1287524 5.6489844 -1.8837906
-1.0955111 5.6632533 -1.8863264
-1.0607414 5.6698689 -1.8863264
-1.0269443 5.6818705 -1.8882283
-0.99287677 5.6927361 -1.8898132
-0.95887184 5.7043333 -1.8917149
-0.92430729 5.7129178 -1.8926659
-0.88865286 5.7147331 -1.8913981
-0.85427141 5.7247686 -1.8929828
-0.81953168 5.7327189 -1.8939338
-0.78446949 5.7385793 -1.8942508
-0.74875242 5.7395229 -1.8929828
-0.71305335 5.7402444 -1.8917149
-0.67748487 5.7416859 -1.8907641
-0.64139837 5.7381945 -1.8882283
-0.60557961 5.7363629 -1.8863264
-0.57037055 5.7399707 -1.8863264
-0.53381914 5.729197 -1.8815719
-0.4989022 5.7351995 -1.8825227
-0.46331999 5.7334256 -1.8809379
-0.42841426 5.739944 -1.8822057
-0.39260289 5.7339487 -1.879353
-0.35758978 5.7390895 -1.880304
-0.32279456 5.7487512 -1.8828397
-0.28760967 5.7525182 -1.8834736
-0.25230744 5.7541742 -1.8834736
-0.21695995 5.7546663 -1.8831567
-0.18173584 5.7587333 -1.8841076
-0.14656666 5.766377 -1.8863264
-0.11123712 5.7700124 -1.8872774
-0.075805843 5.7686896 -1.8866434
-0.040421817 5.7709432 -1.8872774
-0.0049978695 5.756856 -1.8825227
0.030310839 5.753933 -1.8815719
0.065518998 5.7451034 -1.8787191
0.10080219 5.7464895 -1.879353
0.13612725 5.7486076 -1.880304
0.17170772 5.7580924 -1.8837906
0.20693341 5.7540865 -1.8828397
0.24247494 5.7583942 -1.8847415
0.27871621 5.7757449 -1.8910811
0.31430465 5.7767668 -1.8920319
0.34985885 5.7766232 -1.8926659
0.38403538 5.7554412 -1.8863264
0.41810295 5.7359495 -1.880621
0.45231929 5.7209849 -1.8765002
0.48628727 5.7048717 -1.8720626
0.5224905 5.7150035 -1.8765002
0.55874431 5.7239614 -1.880621
0.59414893 5.7232552 -1.8815719
0.62935865 5.7204447 -1.8818887
0.66597891 5.7296648 -1.8863264
0.70135337 5.7273531 -1.8869604
0.73599857 5.7191792 -1.8856925
0.77031636 5.7089162 -1.8837906
0.80480105 5.7003255 -1.8825227
0.83962411 5.6943417 -1.8822057
0.87382793 5.6843953 -1.880621
0.90898991 5.6808 -1.8812549
0.94429612 5.6779222 -1.8822057
0.9796012 5.6748252 -1.8831567
1.0155718 5.6752429 -1.8853755
1.0498571 5.6661067 -1.8844246
1.0837117 5.654901 -1.8828397
1.1187575 5.6500058 -1.8834736
1.1539738 5.6458225 -1.8844246
1.1887897 5.6395636 -1.8847415
1.224176 5.6358705 -1.8860095
1.2560439 5.6162205 -1.8818887
1.2923943 5.6167264 -1.8847415
1.3274884 5.6114597 -1.8856925
1.3621186 5.6041303 -1.8860095
1.3980863 5.6021085 -1.8882283
1.4300816 5.5842366 -1.8850585
1.4686545 5.5918689 -1.8907641
1.5002265 5.5726776 -1.8872774
1.5333833 5.5597105 -1.8860095
1.5643756 5.5392442 -1.8822057
1.5985976 5.5304523 -1.8825227
1.6327707 5.5214486 -1.8828397
1.6663444 5.5104184 -1.8825227
1.6987242 5.4955592 -1.8809379
1.7315556 5.4823194 -1.879987
1.7666174 5.4761047 -1.8815719
1.7978116 5.4579554 -1.8790361
1.8300585 5.4432254 -1.8777682
1.8621923 5.4283051 -1.8765002
1.902355 5.4364719 -1.8834736
1.9337646 5.4193373 -1.8815719
1.9621183 5.3940001 -1.8768172
1.9981449 5.389863 -1.87967
2.0341945 5.3854866 -1.8825227
2.0637958 5.3640518 -1.879353
2.102205 5.365417 -1.8844246
2.1354384 5.3532982 -1.8847415
2.1700292 5.3444886 -1.8863264
2.2049541 5.3363323 -1.8882283
2.2365534 5.3200793 -1.8872774
2.2680361 5.3036399 -1.8863264
2.3024268 5.2939725 -1.8879113
2.3352504 5.2806129 -1.8882283
2.3676076 5.2661848 -1.8882283
2.3998756 5.2515583 -1.8882283
2.4256625 5.2229705 -1.8831567
2.4568551 5.2062731 -1.8825227
2.487524 5.1885343 -1.8815719
2.5193133 5.1731734 -1.8815719
2.5522692 5.1601682 -1.8825227
2.5860116 5.1486483 -1.8841076
2.6240168 5.1453581 -1.8888623
2.6524868 5.1232648 -1.8866434
2.6816666 5.102695 -1.8850585
2.7124796 5.0853076 -1.8847415
2.7422769 5.0660663 -1.8837906
2.7710276 5.0449877 -1.8822057
2.8028541 5.0295472 -1.8828397
2.8355289 5.0155573 -1.8841076
2.8700244 5.0046463 -1.8866434
2.9002016 4.9861221 -1.8863264
2.937005 4.9788532 -1.8904471
2.9689598 4.9631801 -1.8913981
2.9973903 4.9416256 -1.8901302
3.0291452 4.9255648 -1.8910811
3.0552971 4.9004469 -1.8885453
3.0873349 4.8848147 -1.8898132
3.1167378 4.8649807 -1.8894962
3.148596 4.848947 -1.8907641
3.1756825 4.8255749 -1.8891792
3.2036536 4.8036308 -1.8882283
3.2288196 4.7775965 -1.8856925
3.2575378 4.7569122 -1.8853755
3.2893674 4.7407312 -1.8869604
3.3205755 4.7235627 -1.8882283
3.3483961 4.7015538 -1.8875943
3.3766263 4.680151 -1.8872774
3.4041605 4.6578126 -1.8866434
3.4326761 4.6368375 -1.8866434
3.4565113 4.6096168 -1.8841076
3.4858773 4.5898318 -1.8847415
3.5197566 4.5758748 -1.8879113
3.5413563 4.5459609 -1.8844246
3.5656588 4.5196781 -1.8825227
3.5968757 4.502161 -1.8844246
3.6262221 4.4822183 -1.8853755
3.6500502 4.4554815 -1.8834736
3.6779253 4.4337316 -1.8837906
3.7044511 4.4103541 -1.8834736
3.7363579 4.3933215 -1.8860095
3.7638633 4.3710318 -1.8863264
3.8005841 4.3592935 -1.8913981
3.8303986 4.339447 -1.8929828
3.8518972 4.3102045 -1.8904471
3.8795443 4.2878952 -1.8910811
3.8968132 4.2542181 -1.8866434
3.9241328 4.2316189 -1.8872774
3.9519711 4.2095356 -1.8882283
3.979686 4.1872702 -1.8891792
4.0112214 4.1689239 -1.8920319
4.0545926 4.1625781 -1.9005903
4.060081 4.1173601 -1.8910811
4.0859385 4.0930414 -1.8913981
4.1049085 4.0618892 -1.8885453
4.1290765 4.0359626 -1.8882283
4.1558099 4.0125275 -1.8891792
4.1817245 3.9882617 -1.8898132
4.2068076 3.9631784 -1.8901302
4.2268806 3.9334145 -1.8882283
4.2558231 3.9118979 -1.8904471
4.2853632 3.8908117 -1.8929828
4.307744 3.8631775 -1.8923489
4.3292375 3.8347862 -1.8913981
4.3541131 3.8093994 -1.8920319
4.3781228 3.7832315 -1.8923489
4.4063034 3.7606068 -1.8945677
4.4365463 3.7396126 -1.8977375
4.4557643 3.7092857 -1.8961526
4.4799056 3.6830807 -1.8967866
4.4957938 3.6501424 -1.8939338
4.5351243 3.6361346 -1.9012241
4.555119 3.606473 -1.9002733
4.5823922 3.5825448 -1.902492
4.602036 3.5526214 -1.9015411
4.6229935 3.523742 -1.9012241
4.646801 3.4970205 -1.9021751
4.671216 3.4707053 -1.903443
4.6832471 3.4352458 -1.8996394
4.7019329 3.4047763 -1.8986884
4.7204208 3.374207 -1.8977375
4.7340617 3.3402579 -1.8948847
4.7311206 3.2948849 -1.8853755
4.7746954 3.2819121 -1.8948847
4.7923884 3.2509558 -1.8939338
4.8098812 3.2199061 -1.8929828
4.8335042 3.1929467 -1.8945677
4.8561831 3.1653006 -1.8958356
4.8850856 3.1416008 -1.8996394
4.9050708 3.1120756 -1.8999563
4.9264855 3.0834298 -1.9009073
4.9436984 3.0521467 -1.9002733
4.9655733 3.0237286 -1.9015411
4.9807811 2.99125 -1.9002733
5.0072012 2.965466 -1.903443
5.0302167 2.9375565 -1.9053448
5.0407495 2.9023767 -1.902492
5.0733094 2.8798211 -1.9081976
5.0917115 2.8491008 -1.9085146
5.1032844 2.8145983 -1.9062958
5.0954604 2.7696424 -1.8967866
5.1349316 2.7504177 -1.9053448
5.1567435 2.7215149 -1.9072467
5.1952233 2.7011995 -1.915488
5.1678052 2.6467862 -1.8990054
5.183948 2.6150274 -1.8990054
5.2049923 2.5857022 -1.9009073
5.2301311 2.558301 -1.9043939
5.2628198 2.5343926 -1.9107335
5.2774148 2.5016465 -1.9104165
5.2986813 2.4720252 -1.9126352
5.3146114 2.4398623 -1.9129522
5.3320751 2.4083779 -1.9139031
5.3450189 2.3748453 -1.9132692
5.3629665 2.3435235 -1.9145371
5.3816018 2.3124452 -1.916122
5.3904476 2.2771661 -1.9142201
5.4034429 2.2436843 -1.9139031
5.4267673 2.2144294 -1.9173899
5.4384918 2.1803837 -1.9167559
5.4491205 2.1459298 -1.915805
5.4683771 2.1148496 -1.9180238
5.491004 2.0849605 -1.9215105
5.5010276 2.0502353 -1.9205596
5.5010343 2.0118814 -1.916122
5.525773 1.9825747 -1.9205596
5.5405178 1.9495765 -1.9215105
5.549686 1.9146156 -1.9205596
5.5532436 1.8777926 -1.9177068
5.5628605 1.8430865 -1.9170729
5.5686522 1.8071618 -1.915171
5.5868669 1.7752573 -1.9177068
5.5958428 1.7403802 -1.9170729
5.6091385 1.7068404 -1.9180238
5.627687 1.6748266 -1.9208765
5.6424108 1.6415893 -1.9224614
5.6523771 1.6069373 -1.9224614
5.6529922 1.5696865 -1.9192917
5.6625175 1.5349709 -1.9192917
5.6681619 1.499227 -1.9180238
5.6662335 1.4615762 -1.9142201
5.6594586 1.4228491 -1.9088316
5.6763735 1.3901274 -1.9116843
5.6958671 1.3579118 -1.915488
5.7003961 1.3220797 -1.9142201
5.7185779 1.2893732 -1.9177068
5.7291613 1.2548693 -1.9186578
5.7423191 1.2208761 -1.9205596
5.7562046 1.1869601 -1.9227784
5.7624493 1.1514325 -1.9224614
5.7638187 1.1149719 -1.9205596
5.776145 1.0806316 -1.9224614
5.7798672 1.0446633 -1.9215105
5.7917743 1.0101572 -1.9234123
5.7950573 0.97412866 -1.9224614
0 0 -0
0 0 -0
0 0 -0
0 0 -0
0 0 -0
0 0 -0
5.8465991 0.72627228 -1.927533
5.845294 0.68971729 -1.9256312
0 0 -0
0 0 -0
0 0 -0
0 0 -0
0 0 -0
5.8591571 0.47348922 -1.9230953
0 0 -0
0 0 -0
0 0 -0
0 0 -0
0 0 -0
5.9114628 0.25921521 -1.9360913
0 0 -0
0 0 -0
0 0 -0
0 0 -0
0 0 -0
0 0 -0
0 0 -0
0 -0 -0
0 -0 -0
0 -0 -0
0 -0 -0
0 -0 -0
0 -0 -0
5.9081144 -0.2487689 -1.9348234
5.9150028 -0.28542656 -1.9376762
0 -0 -0
0 -0 -0
5.9201031 -0.39501101 -1.9414798
5.9147301 -0.431122 -1.9405289
5.9063005 -0.46695787 -1.9386271
0 -0 -0
0 -0 -0
5.8967047 -0.57559443 -1.9386271
5.9326835 -0.61587554 -1.9519399
5.9203081 -0.65133333 -1.9490873
0 -0 -0
0 -0 -0
0 -0 -0
5.8771625 -0.7930063 -1.9405289
5.8627949 -0.82772774 -1.9373592
5.8641739 -0.86465353 -1.9395781
5.856883 -0.90033108 -1.9389441
5.8353276 -0.93370491 -1.9335555
5.8304243 -0.96964777 -1.9338725
5.8234301 -1.0052431 -1.9335555
5.8115506 -1.0399539 -1.9316536
5.7817459 -1.0712752 -1.9237293
5.756434 -1.1031623 -1.9173899
5.7086201 -1.1303594 -1.903443
5.5817051 -1.1408733 -1.8625534
5.4706578 -1.1531976 -1.8270524
5.3856249 -1.1698382 -1.8004266
5.3117032 -1.1879624 -1.7776045
5.2451591 -1.2069249 -1.7573181
5.1795073 -1.2253344 -1.7373488
5.1322618 -1.247463 -1.723719
5.0794196 -1.2676806 -1.7081872
5.0449004 -1.2920018 -1.698995
5.1121001 -1.3426832 -1.7249869
5.1010175 -1.3732858 -1.724036
5.0559225 -1.394475 -1.711357
5.0335798 -1.4216057 -1.7066025
5.0247622 -1.4524645 -1.7066025
5.0075698 -1.4808484 -1.7037497
5.000205 -1.5120953 -1.7043836
4.980865 -1.5396672 -1.7008969
4.9532361 -1.5644886 -1.6945574
4.9534721 -1.5980541 -1.6980441
4.9570861 -1.6328678 -1.7027987
4.9442768 -1.6623466 -1.7018478
4.9339838 -1.6926528 -1.7018478
4.9154477 -1.7200767 -1.698995
4.8994412 -1.7482928 -1.6970932
4.8921871 -1.7796189 -1.698361
4.8722825 -1.8063071 -1.6951914
4.8637691 -1.8371741 -1.6961423
4.8444381 -1.8639184 -1.6932895
4.8223128 -1.8894571 -1.6894858
4.8282475 -1.9260375 -1.6958253
4.8093085 -1.952773 -1.6932895
4.7911 -1.9797107 -1.6910707
4.7823601 -2.010541 -1.6923386
4.7803984 -2.0443215 -1.6961423
4.7677646 -2.0736151 -1.6961423
4.7011709 -2.0790515 -1.6764899
4.7134123 -2.1191347 -1.6856822
4.7115355 -2.1531396 -1.6898028
4.6965146 -2.1812098 -1.6891688
4.6615987 -2.1998684 -1.6812445
4.6420259 -2.2255602 -1.6790257
4.6197557 -2.2498493 -1.675856
4.5557046 -2.2533484 -1.6571546
4.5595913 -2.2901974 -1.663811
4.5302444 -2.3103766 -1.6581055
4.5277748 -2.3442342 -1.6625431
4.5158243 -2.3732953 -1.663494
4.4936452 -2.3969426 -1.6606412
4.5047107 -2.4384642 -1.6704674
4.4929891 -2.467885 -1.6717353
4.4727907 -2.4926372 -1.6698334
4.4631915 -2.5233016 -1.6720523
4.4369287 -2.5445068 -1.6679317
4.4089341 -2.5645313 -1.663177
4.4045525 -2.5982814 -1.6676147
4.3958526 -2.6296399 -1.6704674
4.3747692 -2.6536119 -1.6685655
4.3632517 -2.6833856 -1.6704674
4.362802 -2.7201421 -1.6768069
4.3436241 -2.7453406 -1.675856
4.3266973 -2.7719409 -1.675856
4.3135848 -2.8010192 -1.6774409
4.2979016 -2.8284767 -1.6780747
4.3017707 -2.8690019 -1.6866331
4.2825141 -2.8942809 -1.6859992
4.2388496 -2.9028213 -1.675539
4.2030354 -2.9163415 -1.6682485
4.1842861 -2.9415305 -1.6679317
4.1762018 -2.9743013 -1.6720523
4.1501813 -2.9943213 -1.6688825
4.1279016 -3.016932 -1.6672977
4.1138864 -3.0455892 -1.6691995
4.1156101 -3.0861354 -1.6777579
4.0762024 -3.0958436 -1.6691995
4.0511155 -3.1161706 -1.6666638
4.0356603 -3.1438832 -1.6682485
4.0259743 -3.1762226 -1.6723692
4.0064092 -3.2008655 -1.6723692
3.9911182 -3.2289672 -1.6742711
3.9800351 -3.2606072 -1.6780747
3.9577634 -3.2831504 -1.6771239
3.9419014 -3.3110328 -1.6790257
3.9222336 -3.3357718 -1.6793426
3.9052856 -3.3628695 -1.6809275
3.8910124 -3.3923776 -1.6837803
3.863724 -3.4105401 -1.6809275
3.8441391 -3.4354472 -1.6815615
3.8398674 -3.4742403 -1.6891688
2.4161336 -2.2133856 -1.0536368
2.4059844 -2.2313933 -1.0552217
2.3908646 -2.2448158 -1.0545877
3.7128854 -3.5288818 -1.6704674
3.7014151 -3.5614605 -1.675222
3.6951199 -3.5993247 -1.6825124
3.656081 -3.6052825 -1.6745881
3.6285205 -3.622288 -1.6720523
3.5935504 -3.6316755 -1.6660298
3.5625801 -3.6448402 -1.6619091
3.5381722 -3.6645844 -1.6609582
3.5136564 -3.6841664 -1.6600072
3.49944 -3.7146301 -1.6641279
3.4571967 -3.7152042 -1.6546187
3.4471734 -3.7503119 -1.6609582
3.4272847 -3.7749033 -1.6625431
3.3951921 -3.7859771 -1.6581055
3.3674955 -3.801769 -1.6558867
3.3466032 -3.8252149 -1.6571546
3.3298907 -3.8535707 -1.6606412
3.3067989 -3.8746514 -1.6609582
3.284796 -3.8970439 -1.6619091
3.2620361 -3.9185836 -1.6625431
3.2373285 -3.9377925 -1.6622261
3.2107141 -3.9546373 -1.6609582
3.1852019 -3.9727836 -1.6603242
3.1519337 -3.9810996 -1.6555697
2.0151148 -2.5777965 -1.0520519
1.9894065 -2.5773504 -1.0466633
1.9637797 -2.5766861 -1.0412748
1.9456511 -2.5856559 -1.0400069
1.9297491 -2.5975456 -1.0400069
1.9132136 -2.6085727 -1.0396899
1.699681 -2.3475718 -0.92716432
1.6681454 -2.3340387 -0.91733813
1.6450431 -2.3318319 -0.91226655
0 -0 -0
2.8751814 -4.1830506 -1.6549357
2.8537204 -4.2068925 -1.6574715
2.8267984 -4.2227468 -1.6568376
2.8039718 -4.2447605 -1.6587393
2.7789094 -4.2634745 -1.6593733
2.7598801 -4.2916126 -1.663811
2.7319708 -4.3060637 -1.66286
2.7095237 -4.3291769 -1.6653959
2.6829093 -4.3457208 -1.6653959
2.6670473 -4.3799219 -1.6723692
2.6371922 -4.391326 -1.6704674
2.610198 -4.4074244 -1.6704674
2.5902805 -4.4356422 -1.675222
2.5289371 -4.3922758 -1.6523999
2.5290978 -4.4555478 -1.6707844
2.5068064 -4.4800863 -1.6742711
2.4696498 -4.4779439 -1.6676147
2.4525461 -4.5121779 -1.6749051
2.424366 -4.5263057 -1.6745881
2.3934481 -4.5352244 -1.6723692
2.3603246 -4.5397277 -1.6685655
2.3285332 -4.5465279 -1.6657128
2.2971747 -4.5539556 -1.663177
2.2666566 -4.5628691 -1.6612751
2.2302809 -4.5596519 -1.6549357
2.203496 -4.5758142 -1.6558867
1.4594561 -3.0792258 -1.0973791
1.4449463 -3.0975771 -1.1008658
1.4267043 -3.1081085 -1.1014998
2.0862412 -4.6190052 -1.6523999
2.0543938 -4.623919 -1.6495471
2.0316808 -4.6494732 -1.6543018
1.9997435 -4.6540093 -1.651449
1.9748408 -4.6749287 -1.6546187
1.9468462 -4.6887097 -1.6552527
1.9183986 -4.7014451 -1.6555697
1.890221 -4.7148881 -1.6562036
1.8622981 -4.7290449 -1.6571546
1.8363258 -4.7483439 -1.6600072
1.8115335 -4.7710485 -1.6641279
1.7769241 -4.7678547 -1.6590563
1.7466582 -4.7759962 -1.6581055
1.7157186 -4.7821598 -1.6565206
1.6822501 -4.7809672 -1.6523999
1.6476237 -4.7759576 -1.6470114
1.6167685 -4.7814851 -1.6454265
1.5865045 -4.7886147 -1.6444756
1.5635343 -4.8181052 -1.651449
1.5408362 -4.8493013 -1.6590563
1.5059813 -4.8423634 -1.6533508
1.4696127 -4.8297367 -1.6457435
1.437515 -4.830482 -1.6428907
1.4075837 -4.8383007 -1.6425737
1.3877279 -4.8815126 -1.6546187
1.3564802 -4.8853664 -1.6530339
1.3364068 -4.930213 -1.6657128
1.3058879 -4.9374032 -1.6653959
1.2691703 -4.9205275 -1.6568376
1.2394172 -4.9300618 -1.6574715
1.208241 -4.9338889 -1.6562036
1.1797045 -4.9485903 -1.6587393
1.1463175 -4.942801 -1.6543018
0.72846508 -3.2316563 -1.0656818
0.70740438 -3.2305067 -1.06378
0.70414239 -3.312712 -1.0904057
0.66540855 -3.2277977 -1.0599762
0.63610953 -3.1843879 -1.0438106
0.62682956 -3.2413073 -1.0618781
0.60518467 -3.23577 -1.0587083
0.5746876 -3.1806242 -1.038739
0.55010712 -3.1551268 -1.0289128
0.52727693 -3.1378663 -1.0219394
0.51134741 -3.1616399 -1.0289128
0.49120936 -3.1600323 -1.0273279
0.47741228 -3.2005081 -1.0400069
0.46313679 -3.2409325 -1.0526859
0.43900084 -3.2127037 -1.0422257
0.41363311 -3.1720757 -1.0276449
0.39732033 -3.1999662 -1.0362033
0.37834546 -3.2079952 -1.038105
0.35833818 -3.2074287 -1.0371541
0.33894992 -3.2123966 -1.038105
0.32129732 -3.2351789 -1.0450785
0.30311364 -3.2550321 -1.051101
0.28428707 -3.2700586 -1.0555387
0.2649816 -3.2811949 -1.0587083
0.24668071 -3.3073497 -1.0669496
0.22962524 -3.3561118 -1.0827984
0.20719776 -3.3281133 -1.0729722
0.18379164 -3.2762933 -1.0552217
0.16226244 -3.2489419 -1.0457125
0.14149198 -3.230926 -1.0393729
0.12109196 -3.2165692 -1.0343014
0.10096341 -3.2049282 -1.0301807
0.080958128 -3.1922135 -1.0257431
0.06124112 -3.1860125 -1.0235243
0.041741077 -3.1901217 -1.0247922
0.022239873 -3.2007501 -1.0282788
0.0026169254 -3.2188466 -1.0343014
-0.017163174 -3.2244925 -1.0362033
-0.03700171 -3.2290685 -1.037788
-0.056582253 -3.2155046 -1.0333505
-0.076445475 -3.2207859 -1.0352523
-0.09592437 -3.2107761 -1.0320826
-0.11582763 -3.2158141 -1.0339844
-0.135876 -3.2226236 -1.0365202
-0.15656006 -3.2406759 -1.0428597
-0.17680176 -3.2462835 -1.0450785
-0.19614454 -3.2356706 -1.0419087
-0.21612071 -3.2362988 -1.0425427
-0.23376991 -3.2046421 -1.0323995
-0.25454912 -3.2173295 -1.0371541
-0.27291721 -3.1996419 -1.0317656
-0.29271728 -3.1997962 -1.0323995
-0.3145552 -3.2205946 -1.0400069
-0.33137447 -3.1903028 -1.0304977
-0.34938875 -3.1740682 -1.0257431
-0.36852956 -3.1690383 -1.0247922
-0.38865879 -3.1723659 -1.0266941
-0.40860069 -3.1736841 -1.0279619
-0.4294607 -3.1814566 -1.0314486
-0.45135912 -3.1956658 -1.0371541
-0.47427768 -3.2153554 -1.0447615
-0.49601433 -3.2255087 -1.0491991
-0.51999038 -3.2486274 -1.0580744
-0.54364657 -3.2678299 -1.0656818
-0.56755787 -3.2868636 -1.0732892
-0.57819593 -3.2301033 -1.0552217
-0.60370457 -3.2572696 -1.0656818
-0.61493558 -3.2078607 -1.05015
-0.63571203 -3.2096095 -1.0520519
-0.65558368 -3.2065775 -1.0523689
-0.67622435 -3.207135 -1.0539538
-0.69870776 -3.2159009 -1.0583913
-0.72380733 -3.2356184 -1.0666326
-0.75767934 -3.29212 -1.0875529
-0.7909618 -3.3427875 -1.1065713
-0.81324941 -3.3452442 -1.1091071
-0.84799451 -3.3972452 -1.1287595
-0.86200202 -3.3653328 -1.1195673
-0.82362366 -3.1352322 -1.0419087
-0.81400663 -3.0229657 -1.0048229
-0.82573313 -2.9932275 -0.99626452
-0.8409912 -2.9771516 -0.99246085
-0.85450333 -2.9555345 -0.98675531
-0.92881984 -3.1403253 -1.0530028
-0.9719494 -3.2135503 -1.0805795
-0.99780977 -3.2274616 -1.0875529
-1.0221636 -3.235749 -1.0926245
-1.0492768 -3.2519822 -1.1005489
-1.0677276 -3.2409787 -1.098964
-1.0658365 -3.1696377 -1.0761418
-1.0775726 -3.1406097 -1.0682175
-1.0821027 -3.0918629 -1.0533198
-1.0943613 -3.066406 -1.0466633
-1.1151007 -3.0649812 -1.0485651
-1.1394897 -3.0731997 -1.0539538
-1.4146526 -3.7449155 -1.2964386
-1.3378359 -3.4768007 -1.2035652
-1.3594898 -3.4694095 -1.2038822
-1.3480772 -3.3790734 -1.1744037
-1.3616506 -3.3531625 -1.1680642
-1.3738706 -3.3245831 -1.1607739
-1.432464 -3.407022 -1.1937391
-1.4033792 -3.2813113 -1.1512647
-1.4098712 -3.2413268 -1.1398536
-1.4147754 -3.1987853 -1.1274916
-1.4250438 -3.1692829 -1.1198843
-1.9166515 -4.1939416 -1.4996186
-1.4662251 -3.156718 -1.1217861
-1.657161 -3.5113499 -1.2561829
-1.7073722 -3.5609837 -1.2783711
-1.5780574 -3.2400489 -1.1629927
-1.5861365 -3.2065008 -1.1541173
-1.5495979 -3.0848296 -1.1122769
-1.5581571 -3.0549848 -1.1046696
-1.5489687 -2.9914608 -1.0843832
-1.5284727 -2.9080167 -1.0564895
-1.5427167 -2.8918884 -1.0539538
-1.5532091 -2.8690224 -1.0488821
-1.5685011 -2.8552814 -1.0472972
-1.5878378 -2.8489175 -1.0485651
-1.6178896 -2.861414 -1.0571234
-1.6240941 -2.8316863 -1.0495161
-1.6485906 -2.8339655 -1.0542707
-1.6755849 -2.8401353 -1.0606102
-1.676428 -2.8021262 -1.0498331
-1.6832618 -2.7747569 -1.0431767
-1.7226108 -2.8007329 -1.0574404
-1.7518048 -2.809427 -1.0650479
-1.744184 -2.7593389 -1.0495161
-1.7661978 -2.7565711 -1.0526859
-1.7763646 -2.7353408 -1.0485651
-1.7931149 -2.7243896 -1.0485651
-1.8145334 -2.7204378 -1.0514179
-1.8434048 -2.7273273 -1.0587083
-1.8676062 -2.7269211 -1.063146
-1.8816 -2.711514 -1.0615611
-1.9025652 -2.706125 -1.0640969
-1.923535 -2.7005808 -1.0666326
-1.9167647 -2.6564217 -1.0533198
-1.9548517 -2.6744754 -1.0656818
-1.9441404 -2.625839 -1.050467
-1.97387 -2.6320729 -1.0580744
-1.9934244 -2.6244438 -1.0599762
-1.9915659 -2.5888572 -1.05015
-2.0184867 -2.5908051 -1.0561726
-2.0220106 -2.5627334 -1.0495161
-2.0590069 -2.5769556 -1.0609272
-2.0664294 -2.5539496 -1.0564895
-2.0760512 -2.533885 -1.0533198
-2.104275 -2.5364292 -1.0599762
-2.1143091 -2.5169334 -1.0571234
-2.1125097 -2.4836822 -1.0482482
-2.1314225 -2.4749856 -1.05015
-2.1453223 -2.4604311 -1.0495161
-2.1584959 -2.4450879 -1.0485651
-2.1785138 -2.4374554 -1.051101
-2.1908834 -2.4212291 -1.0498331
-2.2101827 -2.4126365 -1.0520519
-2.236552 -2.4115484 -1.0577574
-2.2376757 -2.3832581 -1.051101
-2.2548704 -2.3722332 -1.0523689
-2.261493 -2.3501508 -1.0485651
-2.2672682 -2.3273976 -1.0444446
-2.2728498 -2.3046622 -1.0403239
-2.2889581 -2.2926867 -1.0412748
-2.3090498 -2.2846031 -1.0441276
-2.3243809 -2.271718 -1.0447615
-2.343734 -2.2626839 -1.0472972
-2.377476 -2.2672446 -1.0564895
-2.3968651 -2.2578173 -1.0590253
-2.406508 -2.2391908 -1.0571234
-2.4215987 -2.2256665 -1.0577574
-2.4359117 -2.2114034 -1.0580744
-2.4324896 -2.181217 -1.050467
-2.4394381 -2.1605902 -1.0476142
-2.4497943 -2.1430831 -1.0463464
-2.4621804 -2.1273909 -1.0460294
-2.4766302 -2.1134746 -1.0466633
-2.4960778 -2.1037405 -1.0495161
-2.510397 -2.0895989 -1.05015
-2.5239038 -2.0747583 -1.050467
-2.5402682 -2.0622222 -1.0520519
-2.5587933 -2.0513432 -1.0545877
-2.5780237 -2.0409033 -1.0574404
-2.6405568 -2.0641882 -1.0786777
-2.6381583 -2.036355 -1.0723382
-2.6611633 -2.0281792 -1.0767758
-2.6720421 -2.0106716 -1.0761418
-2.6873741 -1.9965013 -1.0774097
-2.6896327 -1.9726812 -1.0732892
-2.706295 -1.9594786 -1.075191
-2.7136378 -1.9395267 -1.0732892
-2.7053399 -1.9086217 -1.0650479
-2.7255609 -1.897949 -1.0685345
-2.7449708 -1.8865623 -1.0717043
-2.7643433 -1.8750089 -1.074874
-2.7647626 -1.8506247 -1.0704364
-2.7982228 -1.8482645 -1.0793116
-2.8158669 -1.8352036 -1.0818474
-2.8581841 -1.8379009 -1.0942094
-2.858196 -1.8132145 -1.0897717
-2.8652484 -1.7931266 -1.0881869
-2.866513 -1.7695324 -1.0843832
-2.8740766 -1.7499372 -1.0831153
-2.8912642 -1.7361761 -1.085651
-2.9149191 -1.7261367 -1.0907227
-2.9393783 -1.7163504 -1.0961112
-2.9638264 -1.7063286 -1.1014998
-2.9989839 -1.7021585 -1.111009
-3.0217862 -1.6906728 -1.1157635
-3.0379164 -1.6753063 -1.1179824
-3.0589712 -1.6625234 -1.1221031
-3.1125877 -1.6670121 -1.1385857
-3.1412106 -1.6576223 -1.1455591
-3.1959195 -1.6615088 -1.1623588
-3.2550137 -1.6669475 -1.1807432
-3.2728014 -1.6507887 -1.1835959
-3.3015549 -1.6399605 -1.1905694
-3.3183711 -1.623006 -1.1931051
-3.3658643 -1.6207231 -1.207052
-3.583138 -1.6983676 -1.2837596
-3.6751413 -1.7144493 -1.3138721
-3.6709392 -1.6851387 -1.3084836
-4.0615139 -1.8343889 -1.4479519
-4.2026992 -1.8672071 -1.4954979
-4.070683 -1.7787122 -1.4431974
-4.2043834 -1.806505 -1.4878906
-4.162096 -1.7581558 -1.4685552
-4.1938272 -1.7413151 -1.4761626
-4.167552 -1.7004972 -1.4628497
-4.1955137 -1.6819534 -1.4691892
-4.2604666 -1.677729 -1.4888415
-4.3237543 -1.6720856 -1.5078599
-4.517468 -1.7152278 -1.5734735
-4.5065789 -1.679526 -1.5658661
-4.5684605 -1.6707405 -1.5842506
-4.6830711 -1.6801591 -1.6213365
-4.7809672 -1.6822501 -1.6523999
-4.8700962 -1.6801082 -1.6802936
-4.9791417 -1.6836199 -1.7151607
-5.0343928 -1.6679543 -1.7310094
-5.0851269 -1.6502094 -1.7452732
-5.1313114 -1.6304679 -1.7579521
-5.1919346 -1.6147288 -1.7757026
-5.2770534 -1.6057632 -1.8020115
-5.4077058 -1.6093427 -1.8441689
-5.5304003 -1.6089928 -1.8834736
-5.6113253 -1.5952634 -1.9081976
-5.6648722 -1.5729861 -1.9234123
-5.6771636 -1.5389421 -1.9243633
-5.712172 -1.5108711 -1.9332385
-5.728682 -1.477689 -1.9357743
-5.7376413 -1.4425107 -1.9357743
-5.7380934 -1.405247 -1.9329215
-5.7512207 -1.3711123 -1.9345064
-5.7558298 -1.3349403 -1.9332385
-5.7740898 -1.3018935 -1.9367253
-5.7745576 -1.2648159 -1.9341894
-5.7784991 -1.2285708 -1.9329215
-5.791502 -1.1942412 -1.9348234
-5.7959304 -1.1581249 -1.9338725
-5.8019962 -1.1223599 -1.9335555
-5.8208928 -1.0890065 -1.9376762
-5.8367982 -1.0549572 -1.9408458
-5.8618479 -1.0223839 -1.9471854
-5.8642697 -0.98576784 -1.9459175
-5.8627176 -0.94855446 -1.9433817
-5.8890452 -0.91577119 -1.9503551
-0 -0 -0
-5.920495 -0.84638888 -1.9573286
-5.9443707 -0.81261593 -1.963668
-0 -0 -0
-0 -0 -0
-0 -0 -0
-0 -0 -0
-0 -0 -0
-0 -0 -0
-0 -0 -0
-0 -0 -0
-0 -0 -0
-0 -0 -0
-0 -0 -0
-0 -0 -0
-0 -0 -0
-0 -0 -0
-0 -0 -0
-0 -0 -0
-0 -0 -0
-0 0 -0
-0 0 -0
-0 0 -0
-0 0 -0
-0 0 -0
-0 0 -0
-0 0 -0
-0 0 -0
-0 0 -0
-0 0 -0
-0 0 -0
-0 0 -0
-0 0 -0
-0 0 -0
-0 0 -0
-0 0 -0
-0 0 -0
-0 0 -0
-0 0 -0
-5.606122 1.0753174 -1.9350441
-5.5947838 1.1087762 -1.933408
-5.578618 1.1411886 -1.9301358
-5.5696616 1.1750064 -1.9294814
-5.5605001 1.2087573 -1.9288269
-5.5520568 1.2426465 -1.9284997
-5.543407 1.2764777 -1.9281725
-5.5446649 1.3126462 -1.9314448
-5.5374246 1.3468664 -1.9317719
-5.5290561 1.380818 -1.9317719
-5.515903 1.4135438 -1.9301358
-5.4998145 1.4454391 -1.9275181
-5.4862804 1.4779283 -1.925882
-5.4698219 1.509551 -1.9232643
-5.4495449 1.5399989 -1.9193376
-5.4399934 1.5734076 -1.9193376
-5.4220819 1.6043426 -1.9163927
-5.4220843 1.640594 -1.9199921
-5.4146237 1.6746706 -1.9209738
-5.4051471 1.7081475 -1.921301
-5.392766 1.7406998 -1.9206465
-5.3774967 1.7722766 -1.9190104
-5.3772678 1.8088565 -1.922937
-5.3633866 1.8408959 -1.9219553
-5.3519902 1.8737704 -1.9219553
-5.3430619 1.907528 -1.922937
-5.3285933 1.9393064 -1.9219553
-5.3192511 1.9729519 -1.922937
-5.2973228 2.0018766 -1.9193376
-5.2814126 2.0329843 -1.9180288
-5.2661996 2.064317 -1.9170471
-5.2437811 2.092736 -1.9134477
-5.2299662 2.124516 -1.9131205
-5.2203245 2.1580112 -1.9144294
-5.21134 2.1918347 -1.9160655
-5.2003989 2.2248852 -1.9170471
-5.1953135 2.2605243 -1.9203193
-5.1571512 2.2816496 -1.9111573
-5.1301289 2.3074334 -1.9062489
-5.113296 2.3376884 -1.9052672
-5.1485553 2.3921227 -1.924246
-5.122673 2.418422 -1.9199921
-5.0975142 2.4449027 -1.9160655
-5.0773201 2.4736502 -1.9141022
-5.0569658 2.5022421 -1.9121388
-5.0389843 2.5319505 -1.9111573
-5.0208287 2.5615327 -1.9101756
-5.0083728 2.5940309 -1.9114844
-4.9839988 2.6203136 -1.9082122
-4.9869995 2.6610813 -1.9157382
-4.9672542 2.6898303 -1.9144294
-4.9423757 2.7157059 -1.9111573
-4.9379983 2.7528851 -1.9160655
-4.9037428 2.7733598 -1.9091939
-4.8948293 2.8081005 -1.912466
-4.8734236 2.8357046 -1.91083
-4.862442 2.8693972 -1.9134477
-4.8415012 2.8972371 -1.9121388
-4.8236332 2.9268894 -1.9121388
-4.8007545 2.9534597 -1.9101756
-4.7873521 2.9858623 -1.9121388
-4.7665453 3.0136654 -1.9111573
-4.7431912 3.0397954 -1.9091939
-4.719696 3.0657525 -1.9072306
-4.7015853 3.0951741 -1.9075578
-4.6817193 3.1234396 -1.9072306
-4.6640315 3.1531661 -1.9078851
-4.6516113 3.1865323 -1.91083
-4.6374049 3.218787 -1.9131205
-4.6152492 3.2455497 -1.9121388
-4.596787 3.2749043 -1.9127933
-4.5781379 3.3041542 -1.9134477
-4.5539646 3.3293936 -1.9118116
-4.5304127 3.3550234 -1.9105028
-4.5112529 3.3838928 -1.9111573
-4.492662 3.4132249 -1.9121388
-4.4618998 3.433234 -1.9078851
-4.4526739 3.4698429 -1.9131205
-4.4335246 3.4988554 -1.9141022
-4.4097581 3.5242226 -1.9131205
-4.3858476 3.5494304 -1.9121388
-4.370563 3.5816665 -1.9150838
-4.3477769 3.6078126 -1.9147565
-4.3233881 3.6325982 -1.913775
-4.3010173 3.6590576 -1.913775
-4.2749057 3.6822951 -1.9121388
-4.2508073 3.7072136 -1.9114844
-4.2208982 3.7269702 -1.9082122
-4.2007675 3.7553189 -1.9095211
-4.1867528 3.7892687 -1.913775
-4.1480985 3.8008392 -1.9065762
-4.1399374 3.8403611 -1.913775
-4.1121631 3.861809 -1.9118116
-4.077435 3.8765483 -1.9065762
-4.0624213 3.9100144 -1.91083
-4.0417366 3.9381654 -1.912466
-4.0121155 3.957581 -1.9098483
-3.9837456 3.9781172 -1.9078851
-3.9619191 4.0051742 -1.9091939
-3.9273651 4.0192685 -1.9042857
-3.9019732 4.0426106 -1.9039584
-3.875139 4.0644245 -1.9029768
-3.855309 4.0936298 -1.9055945
-3.8352661 4.1227441 -1.9082122
-3.806062 4.142024 -1.9062489
-3.7818453 4.1666989 -1.9069034
-3.7568383 4.1905293 -1.9072306
-3.729176 4.2113791 -1.9062489
-3.7051313 4.2363162 -1.9072306
-3.6809206 4.261116 -1.9082122
-3.6528661 4.2814646 -1.9072306
-3.6192217 4.295125 -1.903304
-3.5819218 4.3041749 -1.8974141
-3.5620425 4.3341036 -1.9010135
-3.5341914 4.3544106 -1.900359
-3.5127242 4.3826513 -1.903304
-3.4840076 4.4018993 -1.9023223
-3.4511151 4.4157472 -1.8990501
-3.4279957 4.4420772 -1.9013406
-3.405828 4.4697933 -1.9042857
-3.3703868 4.4800334 -1.8997046
-3.343961 4.5021467 -1.900359
-3.3134804 4.5187693 -1.8987229
-3.2851374 4.53825 -1.8983957
-3.2500894 4.5483255 -1.8941419
-3.2259316 4.5735879 -1.8964324
-3.2064438 4.6057062 -1.9016678
-3.1593993 4.598031 -1.8902153
-3.1443815 4.6368852 -1.8983957
-3.115871 4.6560917 -1.8983957
-3.0846403 4.6711793 -1.8967596
-3.0595303 4.6955609 -1.8990501
-3.0296395 4.7126555 -1.8983957
-2.9961128 4.7239738 -1.8954507
-2.9705777 4.7478766 -1.8977413
-2.9364283 4.7579722 -1.8944691
-2.9101257 4.7807441 -1.8964324
-2.8821955 4.800941 -1.8974141
-2.8512394 4.8160954 -1.8964324
-2.8197298 4.830235 -1.8951235
-2.7923951 4.851541 -1.8967596
-2.7593107 4.8628297 -1.8944691
-2.7303433 4.8813186 -1.8951235
-2.7049012 4.9062562 -1.8983957
-2.6738443 4.9211001 -1.8977413
-2.6431527 4.9365807 -1.8974141
-2.6132534 4.9535418 -1.8977413
-2.5849879 4.9736757 -1.8993773
-2.5548518 4.9902844 -1.8997046
-2.5178046 4.9932094 -1.8947963
-2.4917405 5.0178747 -1.8983957
-2.4584153 5.0279756 -1.8964324
-2.4295661 5.0472231 -1.8980684
-2.393698 5.0517874 -1.8941419
-2.3634541 5.0680928 -1.8947963
-2.3303428 5.0782046 -1.8931602
-2.3041921 5.1036048 -1.8974141
-2.2716835 5.115056 -1.8964324
-2.2425237 5.1340947 -1.8983957
-2.2094884 5.1442847 -1.8970869
-2.1760449 5.1533918 -1.8954507
-2.1389525 5.1535544 -1.8905425
-2.1094308 5.1718316 -1.8925058
-2.0776575 5.1846776 -1.8925058
-2.0503027 5.2087598 -1.8967596
-2.0193253 5.2238865 -1.8977413
-1.9845533 5.2291102 -1.8951235
-1.9530901 5.24296 -1.8957779
-1.9238013 5.2628336 -1.8987229
-1.8876475 5.263864 -1.8947963
-1.8493603 5.258409 -1.8885791
-1.8204468 5.2794847 -1.8921785
-1.778645 5.2628021 -1.8820348
-1.7501788 5.2852793 -1.8862886
-1.7232517 5.3129978 -1.8925058
-1.686046 5.3090606 -1.8872703
-1.6551203 5.3247204 -1.8892336
-1.6199445 5.3266387 -1.8862886
-1.5883071 5.3401017 -1.8875976
-1.5549837 5.3479319 -1.8869431
-1.5167207 5.3382831 -1.8800715
-1.4821696 5.3411145 -1.8777809
-1.4510975 5.3564935 -1.8800715
-1.4261661 5.3954458 -1.8908697
-1.3927977 5.4031801 -1.8905425
-1.3582379 5.4061251 -1.8885791
-1.3178589 5.3849845 -1.8781081
-1.2856677 5.3966465 -1.8794171
-1.2572197 5.4246864 -1.8866159
-1.2268158 5.4452047 -1.8911968
-1.190354 5.4387827 -1.8862886
-1.153821 5.4311948 -1.8810532
-1.1216171 5.4437256 -1.8830165
-1.0885636 5.4523582 -1.8836709
-1.0545506 5.4561515 -1.8826892
-1.0234804 5.4755239 -1.8872703
-0.99036717 5.4844909 -1.8882519
-0.9570204 5.4923263 -1.8889064
-0.92486513 5.5074143 -1.8921785
-0.89256066 5.5223141 -1.8954507
-0.85619706 5.5118127 -1.889888
-0.82319582 5.5225701 -1.8918513
-0.78956121 5.5293884 -1.8925058
-0.75472522 5.527575 -1.8902153
-0.72164768 5.538661 -1.8925058
-0.68695265 5.5373583 -1.8905425
-0.65241122 5.5367765 -1.8889064
-0.61758888 5.5331626 -1.8862886
-0.58481276 5.5481248 -1.8902153
-0.55029362 5.5469069 -1.8885791
-0.51572418 5.5445337 -1.8866159
-0.48136765 5.543828 -1.885307
-0.44719076 5.5447936 -1.8846525
-0.41351005 5.5521445 -1.8862886
-0.380077 5.5640049 -1.8895608
-0.34592974 5.5662327 -1.8895608
-0.31192738 5.5710807 -1.8905425
-0.27745694 5.5672269 -1.8885791
-0.24300453 5.5622163 -1.8862886
-0.20865931 5.5579371 -1.8843254
-0.1743463 5.5525012 -1.8820348
-0.14032084 5.5553555 -1.8826892
-0.10639198 5.5646152 -1.8856342
-0.072137512 5.5566592 -1.8826892
-0.038191665 5.5796757 -1.8905425
-0.0039471122 5.5646858 -1.885307
0.030175937 5.5608253 -1.8839982
0.064262584 5.5577011 -1.8830165
0.09843047 5.5609813 -1.8843254
0.13230027 5.5498815 -1.880726
0.16675039 5.5621881 -1.885307
0.20101342 5.5648375 -1.8866159
0.23483403 5.5559468 -1.8839982
0.27204096 5.6185818 -1.9062489
0.30403003 5.5715175 -1.8905425
0.33786565 5.5638876 -1.8885791
0.37111306 5.5485101 -1.8839982
0.40556535 5.5517831 -1.8859614
0.4386501 5.5369444 -1.8817075
0.47253531 5.5332074 -1.8813803
0.50682306 5.5339675 -1.8826892
0.54086143 5.5316939 -1.8830165
0.57547849 5.5348501 -1.885307
0.6089105 5.5265188 -1.8836709
0.64259022 5.5208015 -1.8830165
0.67645311 5.5167546 -1.8830165
0.70956481 5.5068769 -1.8810532
0.74283421 5.4986739 -1.8797443
0.77722168 5.4986906 -1.8813803
0.81067002 5.4919486 -1.880726
0.84435272 5.4868712 -1.880726
0.87935042 5.489984 -1.8836709
0.91550565 5.4993987 -1.8889064
0.94842666 5.4890223 -1.8872703
0.98342317 5.49054 -1.889888
1.0169215 5.4834738 -1.8895608
1.0510828 5.4799147 -1.8905425
1.0830323 5.4650202 -1.8875976
1.1173029 5.4619751 -1.8889064
1.1513816 5.4577899 -1.889888
1.1840447 5.4469295 -1.8885791
1.2166178 5.435873 -1.8872703
1.2495244 5.4264641 -1.8866159
1.2814897 5.413178 -1.8846525
1.3131156 5.3987861 -1.882362
1.347363 5.3952112 -1.8839982
1.381381 5.3905039 -1.885307
1.4139498 5.3800983 -1.8846525
1.4484107 5.3767958 -1.8866159
1.481878 5.3696289 -1.8872703
1.5158261 5.3640723 -1.8885791
1.5497619 5.3583012 -1.889888
1.5783179 5.3341942 -1.8846525
1.6151259 5.337975 -1.8895608
1.644496 5.317132 -1.8856342
1.6776602 5.3087435 -1.8862886
1.7128165 5.3064427 -1.8892336
1.7462319 5.2985253 -1.8902153
1.7796146 5.2903976 -1.8911968
1.8095866 5.2722287 -1.8885791
1.8409652 5.2583508 -1.8875976
1.8725593 5.2451758 -1.8869431
1.9047078 5.2335873 -1.8869431
1.9344832 5.2156005 -1.8846525
1.9711281 5.2160068 -1.8892336
2.0003788 5.1967597 -1.8866159
2.0311928 5.1817484 -1.8856342
2.0618978 5.1665549 -1.8846525
2.0917811 5.1494293 -1.8830165
2.1222546 5.1338778 -1.8820348
2.1544485 5.1225014 -1.8826892
2.1858392 5.1091852 -1.8826892
2.2190332 5.100009 -1.8843254
2.2518146 5.0897536 -1.8856342
2.2849414 5.0801497 -1.8872703
2.3129249 5.0591593 -1.8846525
2.343127 5.0431585 -1.8839982
2.37322 5.0269775 -1.8833437
2.4032028 5.0106173 -1.8826892
2.4347301 4.9974756 -1.8833437
2.4666059 4.984983 -1.8843254
2.4984202 4.9722872 -1.885307
2.5310304 4.961072 -1.8869431
2.5662057 4.9546771 -1.8905425
2.5934796 4.9329839 -1.8882519
2.6312644 4.931149 -1.8938147
2.6565204 4.9057717 -1.8902153
2.6865716 4.889379 -1.8902153
2.7169819 4.8736277 -1.8905425
2.7426467 4.849463 -1.8875976
2.7709396 4.8300848 -1.8866159
2.8000488 4.8121748 -1.8862886
2.8290427 4.7940898 -1.8859614
2.8613179 4.7815056 -1.8879247
2.8930545 4.7678976 -1.8895608
2.9207695 4.747642 -1.8885791
2.953347 4.7352428 -1.8908697
2.9823463 4.7170324 -1.8908697
3.0117435 4.69944 -1.8911968
3.0430965 4.6848335 -1.892833
3.073344 4.6684403 -1.8938147
3.0966854 4.6416354 -1.8905425
3.1314604 4.6319399 -1.8944691
3.1592884 4.6118588 -1.8941419
3.1864488 4.5908346 -1.8934875
3.2151012 4.5719695 -1.8938147
3.2425454 4.5513864 -1.8934875
3.2670922 4.5268083 -1.8915241
3.2914596 4.5021 -1.8895608
3.3167717 4.4787822 -1.8882519
3.3362503 4.4477654 -1.8836709
3.373771 4.4407525 -1.8895608
3.4032609 4.4229627 -1.8908697
3.4285927 4.3997617 -1.889888
3.4584522 4.38235 -1.8915241
3.4746552 4.3477616 -1.8856342
3.503051 4.3285632 -1.8866159
3.5277472 4.3047953 -1.8856342
3.5571125 4.2867036 -1.8872703
3.5949006 4.2785406 -1.8934875
3.6192484 4.2542434 -1.8925058
3.6477511 4.2348189 -1.8938147
3.6680756 4.2059488 -1.8908697
3.695065 4.1847792 -1.8915241
3.7225626 4.1641412 -1.8925058
3.7537513 4.1475258 -1.8954507
3.7778523 4.1230221 -1.8947963
3.7966518 4.0928373 -1.8915241
3.8242817 4.0722194 -1.892833
3.8439863 4.0431995 -1.8902153
3.856925 4.0072846 -1.8843254
3.8992496 4.0018134 -1.8931602
3.9257219 3.9798307 -1.8941419
3.9520714 3.9576735 -1.8951235
3.9601543 3.9174039 -1.8872703
3.9962845 3.904916 -1.8931602
4.0181293 3.8783534 -1.8921785
4.0445871 3.8562334 -1.8934875
4.0633559 3.8268096 -1.8911968
4.0853763 3.8005183 -1.8905425
4.1141863 3.780493 -1.8931602
4.1380057 3.7558126 -1.8934875
4.1539354 3.7240453 -1.8902153
4.1682167 3.6909716 -1.8862886
4.208571 3.6808751 -1.8944691
4.234653 3.6580703 -1.8961052
4.2634897 3.6375368 -1.8990501
4.28862 3.6137431 -1.900359
4.3092599 3.5861518 -1.8997046
4.3414054 3.5680408 -1.9042857
4.3610153 3.5395494 -1.903304
4.385601 3.5150874 -1.9046128
4.3944883 3.4781446 -1.8990501
4.4209599 3.4551873 -1.9013406
4.4398327 3.4262643 -1.900359
4.4630275 3.4006751 -1.9013406
4.4785228 3.369251 -1.8990501
4.4771094 3.3253725 -1.8895608
4.5004778 3.3000734 -1.8908697
4.5191107 3.2712889 -1.8902153
4.5613976 3.2594261 -1.8997046
4.5666375 3.2210312 -1.8934875
4.595623 3.1994271 -1.8974141
4.6175046 3.1727736 -1.8983957
4.6431427 3.148623 -1.9010135
4.6631603 3.1205993 -1.9013406
4.6774883 3.0888047 -1.8993773
4.7137733 3.0713913 -1.9065762
4.7388897 3.0464971 -1.9091939
4.7598877 3.0188804 -1.9101756
4.7751169 2.9876132 -1.9088666
4.7957716 2.9597456 -1.9098483
4.7928529 2.9174933 -1.9013406
4.8033714 2.8836541 -1.8983957
4.8413057 2.8661575 -1.9065762
4.8685951 2.8421125 -1.9105028
4.8916759 2.8154845 -1.9127933
4.8899546 2.7746947 -1.9052672
4.9002891 2.7409492 -1.9026495
4.9252911 2.7153907 -1.9059217
4.9476724 2.6882751 -1.9082122
4.989069 2.6712422 -1.9180288
4.956049 2.6145756 -1.8987229
4.9904466 2.5936999 -1.9059217
5.0071087 2.5634608 -1.9062489
5.0269628 2.534816 -1.9078851
5.041575 2.5035033 -1.9075578
5.0593882 2.4737663 -1.9085394
5.0659566 2.4385791 -1.9052672
5.087656 2.4106846 -1.9078851
5.1134863 2.3846116 -1.9121388
5.1305985 2.3543727 -1.9131205
5.1432257 2.3220704 -1.912466
5.1591039 2.2912352 -1.9131205
5.1721997 2.2591584 -1.9127933
5.1790175 2.2243979 -1.9101756
5.1890864 2.1911085 -1.9088666
5.2111616 2.1628482 -1.9121388
5.2234592 2.1304758 -1.9118116
5.2478371 2.1029522 -1.9160655
5.2632799 2.0717502 -1.9170471
5.2776556 2.0400975 -1.9177016
5.2989097 2.0110271 -1.9209738
5.315577 1.980124 -1.9226098
5.321414 1.9452013 -1.9203193
5.3350282 1.9131507 -1.9209738
5.3466668 1.8803796 -1.9209738
5.356317 1.8469219 -1.9203193
5.368444 1.8143238 -1.9206465
5.3803725 1.7816464 -1.9209738
5.3930011 1.7491821 -1.9216281
5.4000297 1.714915 -1.9203193
5.4104505 1.6817489 -1.9203193
5.4288049 1.650992 -1.9232643
5.4497023 1.620881 -1.9271909
5.4559155 1.5863571 -1.925882
5.4691825 1.5538827 -1.9271909
5.4749718 1.5192852 -1.925882
5.4878392 1.4866503 -1.9271909
5.4977717 1.4531909 -1.9275181
5.4983487 1.4173088 -1.9245732
5.5078583 1.3837749 -1.9249003
5.5153275 1.3497288 -1.9245732
5.5271826 1.3167372 -1.925882
5.5323958 1.2821589 -1.9249003
5.539237 1.2479811 -1.9245732
5.5449443 1.2135657 -1.9239187
5.5578322 1.1806967 -1.925882
5.5640464 1.1463819 -1.9255548
5.5746827 1.1129591 -1.9268637
5.5832624 1.0790908 -1.9275181
5.5897784 1.0448123 -1.9275181
5.5951543 1.0103266 -1.9271909
5.600317 0.9758144 -1.9268637
5.608995 0.94190204 -1.9278454
5.6156015 0.90761876 -1.9281725
5.6229324 0.87343466 -1.9288269
5.6281857 0.8389166 -1.9288269
5.6304212 0.80396676 -1.9278454
5.6352482 0.76940399 -1.9278454
5.6445484 0.73542172 -1.9294814
5.6489544 0.7007736 -1.9294814
5.6484556 0.66554713 -1.9278454
5.659946 0.63171333 -1.9304631
5.6561975 0.59618181 -1.9278454
5.6625705 0.56174409 -1.9288269
5.6668515 0.52707595 -1.9291542
5.666213 0.49196869 -1.9278454
5.6653576 0.45688912 -1.9265364
5.6661696 0.42197856 -1.925882
5.6658239 0.38701105 -1.9249003
0 0 -0
0 0 -0
0 0 -0
0 0 -0
0 0 -0
0 0 -0
0 0 -0
0 0 -0
0 0 -0
0 0 -0
0 0 -0
0 -0 -0
0 -0 -0
0 -0 -0
0 -0 -0
0 -0 -0
0 -0 -0
0 -0 -0
0 -0 -0
0 -0 -0
0 -0 -0
0 -0 -0
0 -0 -0
0 -0 -0
0 -0 -0
0 -0 -0
0 -0 -0
0 -0 -0
0 -0 -0
0 -0 -0
0 -0 -0
0 -0 -0
0 -0 -0
0 -0 -0
0 -0 -0
0 -0 -0
0 -0 -0
0 -0 -0
5.6687279 -0.97951573 -1.9504234
5.662611 -1.01428 -1.9504234
0 -0 -0
0 -0 -0
5.604053 -1.110615 -1.9366802
5.5554743 -1.1364493 -1.9219553
5.4651866 -1.1529436 -1.8925058
0 -0 -0
5.2007394 -1.1639408 -1.8038297
5.1299644 -1.1811861 -1.7812517
5.0738873 -1.2010932 -1.7639091
5.0168424 -1.2201335 -1.7462394
4.9762588 -1.2426442 -1.7344595
4.9538951 -1.2693983 -1.7292241
4.9058032 -1.2891943 -1.7148265
4.8914137 -1.3175497 -1.712536
4.8759503 -1.3455255 -1.7099181
4.8494172 -1.3702753 -1.7033738
4.8518105 -1.4031577 -1.7073004
4.8376727 -1.4312917 -1.7053372
4.8333216 -1.4623173 -1.7069732
4.8215499 -1.4911084 -1.7059916
4.8159137 -1.5218045 -1.7073004
4.8073845 -1.5516162 -1.7076277
4.8139267 -1.5864118 -1.7135175
4.7915645 -1.6116992 -1.7089366
4.769073 -1.636772 -1.7043555
4.7714252 -1.6703777 -1.7089366
4.7539673 -1.69708 -1.7063187
4.7381372 -1.7242777 -1.7043555
4.7265825 -1.7529892 -1.7040282
4.697176 -1.7749393 -1.6971567
4.6994238 -1.8088218 -1.702065
4.6908755 -1.838658 -1.7030466
4.6672196 -1.8625 -1.6984656
4.6548281 -1.8907466 -1.6981384
4.6509981 -1.9225231 -1.7010833
4.6295333 -1.9469931 -1.6974839
4.599257 -1.9675535 -1.6906123
4.5827656 -1.9938511 -1.6889763
4.585999 -2.0288179 -1.6948662
4.5648465 -2.0530407 -1.691594
4.5521636 -2.0810115 -1.691594
4.532454 -2.1057172 -1.6889763
4.5117583 -2.1298559 -1.6860313
4.4756026 -2.1464612 -1.6771964
4.4581008 -2.1718123 -1.6755604
4.4421506 -2.1978681 -1.6745787
4.4404006 -2.2310255 -1.6791598
4.4350443 -2.2625253 -1.6824319
4.4261122 -2.292304 -1.6843952
4.4102907 -2.3185394 -1.6837407
4.3568025 -2.3246403 -1.6683615
4.3474422 -2.3540304 -1.6703248
4.3312597 -2.379751 -1.6696703
4.3347321 -2.4164088 -1.6768692
4.3198237 -2.4429607 -1.6768692
4.3014746 -2.4675391 -1.6755604
4.2878866 -2.4948368 -1.6762147
4.2781935 -2.5244627 -1.6785053
4.264245 -2.5516365 -1.6791598
4.2582011 -2.5836377 -1.6830863
4.2382445 -2.6072402 -1.6814502
4.2189603 -2.6311955 -1.6801413
4.2083263 -2.6605692 -1.6824319
4.1943083 -2.687871 -1.6834135
4.1777372 -2.7135563 -1.6834135
4.154695 -2.7349811 -1.6807958
4.1409793 -2.7625208 -1.6821047
4.1302123 -2.7921126 -1.6847224
4.1106644 -2.8158 -1.6837407
4.0925331 -2.8404305 -1.6834135
4.0703907 -2.862226 -1.6814502
4.0504432 -2.8855023 -1.6804686
4.0211701 -2.9020035 -1.6755604
3.9895592 -2.9165809 -1.6696703
3.9882922 -2.9533811 -1.6768692
3.9738746 -2.980633 -1.6785053
3.9389601 -2.9923806 -1.6713065
3.9392447 -3.0309033 -1.6794869
3.9250448 -3.0585029 -1.6814502
3.8995295 -3.0772591 -1.6785053
3.8761461 -3.0975876 -1.6765419
3.8666141 -3.1290429 -1.6807958
3.8458803 -3.1515107 -1.6801413
3.8330142 -3.1804814 -1.6830863
3.8192136 -3.2088048 -1.6857041
3.7922568 -3.2260542 -1.6824319
3.77597 -3.2523465 -1.684068
3.7445502 -3.2655144 -1.6788325
3.7414401 -3.3034434 -1.6866857
3.7105348 -3.3168893 -1.6817775
2.4411583 -2.2087488 -1.0983479
2.4261665 -2.2224088 -1.0976934
2.4110992 -2.2359681 -1.0970391
3.6211298 -3.4004812 -1.6785053
3.6015661 -3.4239385 -1.6791598
3.5730016 -3.4387631 -1.6755604
3.5498047 -3.4586432 -1.6745787
3.5325515 -3.4843416 -1.6765419
3.5111055 -3.5059514 -1.6765419
3.467602 -3.5052552 -1.6657438
3.4381056 -3.5183542 -1.6618172
3.4243259 -3.547544 -1.6657438
3.4168365 -3.5835376 -1.6729425
3.3805344 -3.5892987 -1.6657438
3.3642385 -3.6162016 -1.6686888
3.3368728 -3.6312087 -1.6660709
3.3183389 -3.6558142 -1.6680343
3.3015206 -3.6824398 -1.6709793
3.2744792 -3.6976752 -1.6686888
3.2492414 -3.7148516 -1.6673799
3.2344146 -3.7440164 -1.6716337
3.2168994 -3.770263 -1.6745787
3.1955314 -3.7920988 -1.6755604
3.1776421 -3.8181729 -1.6785053
3.1613524 -3.8463604 -1.6824319
3.139478 -3.8678873 -1.6834135
3.0855536 -3.8494675 -1.6667254
3.0653934 -3.8727739 -1.6686888
2.0188806 -2.582406 -1.0934397
1.9891456 -2.5767879 -1.0855864
1.9647089 -2.5776684 -1.0806782
1.946584 -2.5866542 -1.0793693
1.930676 -2.5985496 -1.0793693
1.9163711 -2.6126335 -1.080351
1.8975345 -2.6205151 -1.0787148
1.6320713 -2.2830069 -0.93015796
1.6104093 -2.2821658 -0.92557687
1.60879 -2.3098435 -0.93310291
2.7603052 -4.016952 -1.6461107
2.7318943 -4.028338 -1.6438202
2.7249885 -4.0717297 -1.6549456
2.7009945 -4.0899506 -1.6556001
2.6743011 -4.1040711 -1.6546184
2.6460037 -4.115633 -1.652655
2.6232305 -4.1357818 -1.6542912
2.592293 -4.1429868 -1.6506917
2.5732729 -4.1692696 -1.6549456
2.5456777 -4.1817517 -1.6536367
2.5330985 -4.2191701 -1.6624717
2.4970567 -4.2175555 -1.6556001
2.474941 -4.239327 -1.6582178
2.4540658 -4.263443 -1.6618172
2.4245963 -4.2726669 -1.6595266
2.3997176 -4.289938 -1.6605083
2.375174 -4.3078918 -1.6618172
2.3473437 -4.3198934 -1.6608355
2.324806 -4.3417134 -1.6637805
2.2981219 -4.3558965 -1.6637805
2.2730937 -4.37327 -1.6650894
2.2475085 -4.3896585 -1.6660709
2.2192559 -4.400835 -1.6650894
2.1871698 -4.404212 -1.6611627
2.1625943 -4.4226432 -1.663126
2.1333685 -4.431572 -1.66149
2.1004744 -4.4326224 -1.6569089
1.4600679 -3.129864 -1.1543022
1.4361087 -3.1284568 -1.1503756
1.4157199 -3.1346257 -1.1493939
1.4010599 -3.1536176 -1.1533206
1.9782604 -4.5287428 -1.6696703
1.9534173 -4.5477428 -1.6722882
1.9214346 -4.5500665 -1.6686888
1.8909454 -4.5556607 -1.6663982
1.8629568 -4.5671773 -1.6663982
1.8313849 -4.5697503 -1.663126
1.8050406 -4.5852981 -1.6647621
1.7751691 -4.5918798 -1.663126
1.751652 -4.6150551 -1.6677071
1.7216531 -4.6212883 -1.6660709
1.6919681 -4.6282148 -1.6647621
1.665132 -4.6429572 -1.6663982
1.634732 -4.647738 -1.6644349
1.6015655 -4.6442804 -1.6595266
1.5727363 -4.6531243 -1.6591994
1.5420775 -4.6564074 -1.6569089
1.5123119 -4.6621861 -1.6556001
1.4831052 -4.6695762 -1.6549456
1.4547056 -4.679491 -1.6552728
1.4281634 -4.6955619 -1.6578906
1.4055169 -4.7250695 -1.6654166
1.3801889 -4.7463088 -1.6699976
1.3538789 -4.7646875 -1.673597
1.323103 -4.7674413 -1.6716337
1.2948132 -4.7791185 -1.6729425
1.2644994 -4.783319 -1.6716337
1.2344186 -4.7882423 -1.670652
1.2052454 -4.7966428 -1.6709793
1.1789331 -4.8167987 -1.6755604
1.1353525 -4.7651086 -1.6546184
0.7072804 -3.0495536 -1.0423937
0.69291294 -3.0731957 -1.0492653
0.67565787 -3.0847745 -1.051883
0.65652114 -3.0879378 -1.0515558
0.63813305 -3.0946848 -1.0525374
0.62042612 -3.1050289 -1.0548279
0.59992933 -3.1013548 -1.0522102
0.58019477 -3.1012619 -1.0509013
0.5596453 -3.0963941 -1.0479563
0.54063565 -3.0997696 -1.0479563
0.52223086 -3.1067562 -1.0492653
0.5018031 -3.1015062 -1.0463203
0.47870725 -3.0783811 -1.0371581
0.45897493 -3.0756526 -1.0351949
0.4394275 -3.0737333 -1.0335588
0.41979331 -3.0707541 -1.0315955
0.40057793 -3.070461 -1.0306138
0.38173041 -3.072861 -1.0306138
0.36353081 -3.0807762 -1.0325772
0.34734094 -3.1073666 -1.0410848
0.32362148 -3.0652704 -1.0257056
0.30694839 -3.0888264 -1.0332316
0.29183206 -3.1320517 -1.0476291
0.27326104 -3.1413147 -1.050247
0.25420845 -3.1457579 -1.0512285
0.29285142 -3.9275272 -1.322165
0.2137883 -3.1222432 -1.0420665
0.19544441 -3.1367002 -1.0466475
0.175668 -3.1284056 -1.0433754
0.170568 -3.4135046 -1.1418679
0.13759281 -3.1378782 -1.0459931
0.11805452 -3.131109 -1.0433754
