# .PCD v0.7 - Point Cloud Data file format
VERSION 0.7
FIELDS x y z
SIZE 4 4 4
TYPE F F F
COUNT 1 1 1
WIDTH 1503
HEIGHT 1
VIEWPOINT 0 0 0 1 0 0 0
POINTS 1503
DATA ascii
-17.824478 9.952651 -2.0071142
-17.788181 10.076056 -2.0100045
-17.752764 10.200381 -2.0130942
-17.731106 10.333168 -2.0178783
-17.718763 10.472149 -2.0238583
-17.684896 10.599088 -2.0274463
-17.635685 10.71722 -2.02934
-17.589077 10.837234 -2.0316324
-17.54841 10.961298 -2.0347221
-17.507723 11.085802 -2.0379114
-17.487938 11.224194 -2.0436921
-17.435421 11.342138 -2.0456853
-17.388758 11.464244 -2.048476
-17.347042 11.590072 -2.0519645
-17.304438 11.715819 -2.0554528
-17.252737 11.83585 -2.0579445
-17.216553 11.967046 -2.0624294
-17.177782 12.097096 -2.0667152
-17.13158 12.222498 -2.0702035
-17.084486 12.347787 -2.0736918
-17.040514 12.475896 -2.0776784
-16.978027 12.590889 -2.0794725
-16.913977 12.704988 -2.0811667
-16.824615 12.800096 -2.0797715
-16.726055 12.887904 -2.0772798
-16.615284 12.965803 -2.0732932
-16.510435 13.047765 -2.0701039
-16.406759 13.130173 -2.0671139
-16.308105 13.216186 -2.0648215
-16.2244 13.314108 -2.0645225
-16.133217 13.405777 -2.0633264
-15.988988 13.452623 -2.0552535
-15.878877 13.527246 -2.0516653
-15.781261 13.612074 -2.0497718
-15.665966 13.681158 -2.0455856
-15.554891 13.753297 -2.0419977
-15.458348 13.837862 -2.0404031
-15.329652 13.893026 -2.0345228
-15.258047 13.999608 -2.0364163
-15.162383 14.084162 -2.0351207
-15.052485 14.155117 -2.0319314
-14.948051 14.230744 -2.0295393
-14.846125 14.308385 -2.0275459
-14.743095 14.384617 -2.0254529
-14.641813 14.462221 -2.023659
-14.53521 14.5342 -2.0211673
-14.425478 14.602583 -2.0182769
-14.330743 14.685836 -2.0175793
-14.219647 14.751998 -2.0145893
-14.111025 14.820233 -2.0119979
-14.016416 14.902914 -2.0114996
-13.911165 14.974056 -2.0095062
-13.797498 15.03567 -2.0063169
-13.696294 15.110462 -2.0050211
-13.58341 15.171976 -2.0020311
-13.46897 15.231183 -1.9988419
-13.367405 15.304547 -1.9976459
-13.258299 15.36895 -1.9953535
-13.145035 15.428047 -1.9924631
-13.03667 15.492424 -1.9903702
-12.949632 15.582073 -1.9916658
-12.824741 15.625854 -1.9870812
-12.716092 15.688791 -1.9850878
-12.614614 15.760305 -1.9842905
-12.507185 15.82414 -1.9825962
-12.400673 15.888818 -1.9811012
-12.290194 15.948056 -1.9790081
-12.183069 16.011288 -1.9775131
-12.072644 16.06983 -1.9755198
-11.964331 16.130816 -1.9739251
-11.846908 16.179035 -1.9708354
-11.732257 16.230455 -1.9682441
-11.605865 16.264877 -1.9636594
-11.502982 16.331717 -1.963161
-11.384382 16.375845 -1.9599717
-11.276933 16.435543 -1.9587756
-11.16918 16.494541 -1.9575797
-11.06555 16.559454 -1.957181
-10.959901 16.621223 -1.9564834
-10.840345 16.66147 -1.953294
-10.736834 16.725996 -1.9530946
-10.622292 16.773067 -1.950902
-10.508104 16.820208 -1.948809
-10.407831 16.88945 -1.949407
-10.301937 16.949591 -1.9490083
-10.192627 17.00395 -1.9480116
-10.080506 17.053322 -1.9465166
-9.9601479 17.088203 -1.943427
-9.6811085 16.846174 -1.9084438
-9.5226326 16.808292 -1.8972811
-9.4464855 16.915056 -1.9028624
-9.4960432 17.25165 -1.9347559
-9.3809967 17.292974 -1.9328623
-9.2948809 17.387943 -1.937148
-9.1866245 17.442007 -1.9368489
-9.0652246 17.470667 -1.9337592
-8.9478941 17.50647 -1.9315666
-8.8358345 17.552155 -1.9305699
-8.7226677 17.595343 -1.9293739
-8.6093035 17.637802 -1.9281778
-8.4957466 17.679533 -1.9269819
-8.3820019 17.720535 -1.9257859
-8.263876 17.751785 -1.9235932
-8.1485825 17.788588 -1.9220982
-8.0347834 17.828274 -1.9210019
-7.9216113 17.869051 -1.9201049
-7.8094344 17.911848 -1.9195069
-7.6993823 17.959429 -1.9195069
-7.588654 18.005417 -1.9194071
-7.4749856 18.044287 -1.9186099
-7.3611264 18.082439 -1.9178125
-7.2456026 18.116179 -1.9166166
-7.1284871 18.145477 -1.9150218
-7.0098529 18.170309 -1.9130285
-6.895411 18.205534 -1.9122312
-6.7790675 18.235376 -1.9109355
-6.6639814 18.268215 -1.9100385
-6.5480771 18.298456 -1.9089421
-6.4280996 18.316694 -1.9066498
-6.3107343 18.341679 -1.9051548
-6.1952119 18.371569 -1.9042578
-6.0817456 18.407347 -1.9040585
-5.9686856 18.444317 -1.9040585
-5.852396 18.471107 -1.9030617
-5.737771 18.502867 -1.9026631
-5.6226873 18.532965 -1.9021648
-5.5080166 18.564255 -1.9018657
-5.3931732 18.594835 -1.9015667
-5.2822309 18.639065 -1.9027628
-5.1688256 18.674961 -1.9031614
-5.0569954 18.71689 -1.9042578
-4.9412947 18.74468 -1.9039588
-4.8269296 18.777538 -1.9042578
-4.71138 18.805838 -1.9041581
-4.595665 18.833426 -1.9040585
-4.4777198 18.851587 -1.9030617
-4.3659954 18.896158 -1.9048558
-3.3010621 14.696488 -1.471005
-3.1679943 14.520088 -1.4508722
-3.019496 14.2589 -1.4221681
-2.9257457 14.246943 -1.4190785
-2.8458428 14.302687 -1.4229654
-2.7649896 14.356031 -1.4266531
-2.7017992 14.506742 -1.4403075
-2.5507488 14.178329 -1.4052247
-2.4647248 14.199595 -1.4058228
-2.3778796 14.216414 -1.4060221
-2.2863374 14.204212 -1.403331
-2.129972 13.770554 -1.3579825
-2.0410581 13.753837 -1.3549925
-1.9465523 13.695171 -1.3478165
-1.8580652 13.67432 -1.3445275
-1.780646 13.735789 -1.3496104
-1.6970619 13.752382 -1.3502085
-1.6148455 13.781313 -1.3521022
-1.5298159 13.787006 -1.3517035
-1.446124 13.80504 -1.3526005
-1.367046 13.871087 -1.3583812
-1.3157378 14.245814 -1.3952579
-1.235301 14.33491 -1.4034307
-1.3128238 16.413221 -1.6115355
-1.1606462 15.723362 -1.5414696
-1.0221515 15.108722 -1.4790781
-0.93729508 15.242826 -1.491935
-0.84720784 15.310881 -1.4982141
-0.71122783 14.460109 -1.4124007
-0.62189108 14.450283 -1.4110054
-0.56136125 15.21848 -1.4876493
-0.46443379 15.10627 -1.476088
-0.37339374 15.176476 -1.4828653
-0.27805209 15.058105 -1.4708056
-0.19993727 16.225603 -1.5876155
-0.093792588 15.149933 -1.4797757
-0.00083236169 15.160173 -1.4807724
0.091698565 15.080293 -1.4727989
0.18328591 15.002835 -1.4651246
0.27649334 15.064104 -1.4714036
0.36471593 14.891032 -1.4542609
0.45516241 14.858678 -1.4512709
0.54555541 14.834723 -1.4491779
0.63579988 14.813203 -1.4473839
0.78661287 16.028442 -1.5696754
0.77874368 14.102873 -1.3770189
0.86349255 14.069027 -1.3741286
0.9477883 14.033682 -1.3711386
1.0349778 14.042487 -1.3726336
1.1217558 14.043807 -1.3734308
1.2052588 14.005928 -1.3703412
1.2908089 13.994306 -1.3699425
1.3788958 14.008897 -1.3722349
1.463376 13.986318 -1.3708396
1.5372102 13.869279 -1.3599758
1.6248283 13.881328 -1.3621686
1.7102156 13.873072 -1.3623679
1.7954348 13.863304 -1.3624675
1.8860898 13.893436 -1.3666536
1.9659836 13.844168 -1.3628662
2.0555656 13.86334 -1.3660555
2.1430235 13.866199 -1.3676502
2.2326493 13.881278 -1.3705405
2.3186016 13.872225 -1.3710389
2.4063985 13.873423 -1.3726336
2.4909506 13.855458 -1.3723346
2.5704546 13.810567 -1.3693446
2.6594737 13.817008 -1.3716369
2.7585695 13.872646 -1.3790122
2.842838 13.85156 -1.3786136
2.9314859 13.851377 -1.3804076
3.0270247 13.881738 -1.385391
3.1143248 13.872611 -1.3863876
3.3033156 14.303081 -1.4326332
3.3296247 14.024063 -1.4060221
3.4222162 14.030436 -1.4088128
3.5060647 14.000486 -1.4079157
3.5901701 13.971964 -1.4072181
3.6963758 14.027606 -1.4152911
3.8098869 14.106483 -1.4258558
3.9043331 14.11161 -1.4288458
3.9770112 14.038565 -1.4237628
4.0633526 14.014853 -1.4238625
4.203608 14.172811 -1.4429985
4.3609734 14.37908 -1.4673173
4.3394923 13.99851 -1.4302411
4.4364233 14.006717 -1.4339288
4.5323925 14.010472 -1.4372178
4.6295109 14.016411 -1.4408058
4.7138371 13.983027 -1.4403075
4.8354788 14.058279 -1.4513706
4.9381213 14.075289 -1.4563539
5.0300918 14.06065 -1.4580482
5.2199278 14.313693 -1.4883471
5.2996826 14.259943 -1.4860547
5.4180932 14.309042 -1.4948254
5.4749913 14.195691 -1.4862541
5.5980086 14.253516 -1.496121
5.6894259 14.229061 -1.4972174
5.7732501 14.18559 -1.4963204
5.8411427 14.103935 -1.4913371
6.0056319 14.253046 -1.5114698
6.2831182 14.659474 -1.5598084
6.3156867 14.489303 -1.5454563
6.3947949 14.428447 -1.5430642
6.4566326 14.329971 -1.5365859
6.5415373 14.283752 -1.5358882
6.6416554 14.270408 -1.5388782
6.7414298 14.255471 -1.5417686
6.8705754 14.300833 -1.5514363
6.9939837 14.33173 -1.5596091
7.0875349 14.300136 -1.5609047
7.73528 15.369115 -1.6856879
7.342638 14.368907 -1.5785458
7.4228754 14.308568 -1.5768514
7.5749822 14.385126 -1.5907052
7.8929486 14.768361 -1.639542
7.7367063 14.264848 -1.5877151
7.8351231 14.237156 -1.5900074
7.9208779 14.186207 -1.5897084
8.2598715 14.582331 -1.6409373
8.6079817 14.981713 -1.6929636
8.5689716 14.704243 -1.6669505
8.6438437 14.62569 -1.6639605
8.7574663 14.61249 -1.6686448
8.8908892 14.630754 -1.6771165
8.894887 14.437 -1.6607711
9.2052479 14.737427 -1.7027309
9.2970991 14.683188 -1.70303
9.3934679 14.635915 -1.7042259
9.507514 14.615534 -1.7087109
9.4869194 14.389952 -1.6886779
9.5612154 14.310787 -1.6861862
10.104081 14.924162 -1.7675146
10.194338 14.860243 -1.7673153
10.297254 14.814569 -1.7694082
10.40343 14.773071 -1.7720993
10.508328 14.729208 -1.774591
10.571112 14.626552 -1.7699065
10.642436 14.536527 -1.7668169
10.819751 14.590032 -1.7816672
10.970627 14.605309 -1.7919329
11.076304 14.5591 -1.794624
11.223128 14.565738 -1.8040924
11.320861 14.507581 -1.8054878
11.409048 14.437064 -1.8053881
11.476277 14.340375 -1.8019993
11.533979 14.232584 -1.7972153
11.649498 14.196157 -1.8017004
11.784718 14.182569 -1.809275
11.936223 14.186888 -1.8193414
12.073381 14.172459 -1.8271154
12.208859 14.154617 -1.8345906
12.364863 14.158878 -1.8451552
12.51808 14.158027 -1.8552216
12.676395 14.161015 -1.8659856
12.827197 14.153743 -1.8755536
12.993858 14.162013 -1.8874141
13.211892 14.223442 -1.9067495
13.35686 14.203717 -1.9152212
13.495907 14.176262 -1.9227959
13.67793 14.192049 -1.9365499
13.82938 14.174086 -1.9458189
14.012589 14.18665 -1.959573
14.228836 14.22986 -1.9779117
14.417111 14.242277 -1.9921641
14.596813 14.243882 -2.005121
14.746983 14.214814 -2.0138917
14.864914 14.153563 -2.0181773
14.926109 14.038229 -2.014689
15.041855 13.974144 -2.0187752
15.118518 13.873514 -2.0175793
15.170181 13.750418 -2.0130942
15.237216 13.641812 -2.0108018
15.275163 13.507856 -2.0047221
15.32778 13.387695 -2.0007355
15.389294 13.275846 -1.9980445
15.440924 13.156004 -1.9941576
15.492424 13.03667 -1.9903702
15.536156 12.911476 -1.9856858
15.572782 12.781188 -1.9802041
15.611487 12.653443 -1.9751211
15.643776 12.521355 -1.9693404
15.692207 12.402921 -1.9657524
15.74056 12.284976 -1.9622641
15.794361 12.171764 -1.959573
15.84816 12.058959 -1.9569817
15.903556 11.947744 -1.9546894
15.953389 11.832748 -1.951799
15.998396 11.714652 -1.9484103
16.04175 11.595867 -1.944922
16.078579 11.472946 -1.9407359
16.105556 11.343709 -1.9354535
16.146261 11.224796 -1.9319652
16.191036 11.10919 -1.9290749
16.239122 10.996245 -1.9266828
16.284777 10.882025 -1.9240916
16.331305 10.768754 -1.9216995
16.376221 10.654779 -1.9192078
16.414494 10.536898 -1.9160185
16.454458 10.420545 -1.9131281
16.478424 10.29461 -1.9084438
16.516714 10.178169 -1.9055535
16.557596 10.063714 -1.9030617
16.598551 9.9496527 -1.9006698
16.631021 9.8309116 -1.8973807
16.670397 9.7166557 -1.8949888
16.696056 9.5948524 -1.8911017
16.713058 9.4686861 -1.8863177
16.730011 9.3431587 -1.8816334
16.763489 9.227376 -1.8789424
16.79705 9.1120081 -1.876351
16.828074 8.9956388 -1.8735603
16.858301 8.8792334 -1.8707696
16.892151 8.7650862 -1.8684773
16.910173 8.6431608 -1.8644906
16.944225 8.5298452 -1.8623976
16.969498 8.4124594 -1.8594075
16.991287 8.2937765 -1.8561186
17.013159 8.1755743 -1.8529292
17.043213 8.0616713 -1.8507366
17.069805 7.9464474 -1.8482449
17.08658 7.8270574 -1.8447565
17.112513 7.7122583 -1.8423645
17.131311 7.5946131 -1.8392749
17.155699 7.4798117 -1.8368828
17.18115 7.3657813 -1.8346902
17.182926 7.2420607 -1.8300058
17.204977 7.1273537 -1.8276138
17.201384 7.002521 -1.8225307
17.217234 6.8861299 -1.8196404
17.248974 6.7763557 -1.8185441
17.282801 6.6675258 -1.8177468
17.324318 6.5617075 -1.8178464
17.364254 6.4552836 -1.8178464
17.40634 6.3496399 -1.8181454
17.452469 6.2453985 -1.8189428
17.500788 6.1418185 -1.8200392
17.545671 6.0369096 -1.8208364
17.588041 5.9310451 -1.8214345
17.632605 5.8258243 -1.8223314
17.67086 5.7184415 -1.8226304
17.70846 5.6108093 -1.8229295
17.735901 5.4999838 -1.8222318
17.76741 5.3904772 -1.8220325
17.791567 5.27881 -1.8211354
17.827444 5.1706524 -1.8215342
17.869366 5.0641513 -1.8226304
17.900103 4.954412 -1.8226304
17.928244 4.8439665 -1.8224311
17.959553 4.7343769 -1.8226304
17.997902 4.6265669 -1.8236271
18.043324 4.5203981 -1.8254211
18.101654 4.4171476 -1.8286104
18.144875 4.3099027 -1.8303049
18.190369 4.2029657 -1.8322982
18.223581 4.0930166 -1.8330954
18.248352 3.9811215 -1.8330954
18.275356 3.8696952 -1.8333945
18.304605 3.7586873 -1.8339925
18.336107 3.6480484 -1.8348895
18.354237 3.534719 -1.8344908
18.370689 3.4211226 -1.8339925
18.387417 3.3076334 -1.8335938
18.423054 3.1974695 -1.8351885
18.462934 3.0878129 -1.8372815
18.491358 2.9760487 -1.8382782
18.523037 2.8646603 -1.8396735
18.543219 2.751389 -1.8399725
18.565662 2.6383977 -1.8405706
8.6784019 1.1796492 -0.83951432
8.7239609 1.1313629 -0.84340137
6.834661 0.84399557 -0.65204054
6.7478018 0.79128122 -0.64277148
6.6931925 0.74328345 -0.63679147
6.6996064 0.70240802 -0.63699085
6.7047801 0.66138428 -0.6370905
6.6968226 0.6191349 -0.63589448
6.6895905 0.57709348 -0.63479817
6.6751523 0.53460932 -0.63300413
6.6654067 0.49268997 -0.63170844
6.6553984 0.45091042 -0.63041282
6.6530738 0.40976021 -0.62991446
6.6544695 0.36887509 -0.6298148
6.6526322 0.32784188 -0.62941611
6.6604834 0.28727216 -0.63001412
6.6611261 0.24636218 -0.62991446
6.6625123 0.20548564 -0.62991446
6.6537008 0.16435739 -0.62891781
6.6535892 0.12350966 -0.62881809
6.6502419 0.082632929 -0.62841946
6.6625638 0.04189926 -0.62961543
6.6696606 0.001017596 -0.6303131
6.6864562 -0.040010851 -0.63200748
6.6930494 -0.081123047 -0.63270515
6.7123227 -0.12255604 -0.63469845
6.7134337 -0.16378865 -0.63489783
6.7103133 -0.20491733 -0.63469845
6.723845 -0.24663687 -0.63619345
6.7381105 -0.28857291 -0.63778818
6.7362132 -0.32991174 -0.63778818
6.7420101 -0.3716777 -0.63858551
6.8418965 -0.41932571 -0.64885122
8.7442894 -0.59012091 -0.84011233
16.412155 -1.2098269 -1.6106385
16.265562 -1.2994043 -1.5966852
16.196812 -1.3939745 -1.5906055
16.11067 -1.4861952 -1.5828314
16.120062 -1.5868739 -1.5847251
16.058561 -1.6803664 -1.5795424
16.032125 -1.7771131 -1.5779477
10.584479 -1.2386495 -1.0296792
10.585567 -1.3046677 -1.0305761
10.577363 -1.3695951 -1.0305761
10.551999 -1.4321939 -1.0288818
10.568625 -1.5005522 -1.0314732
10.559219 -1.5653719 -1.0314732
13.835716 -2.1383097 -1.3645605
13.804652 -2.2203183 -1.3627665
13.791751 -2.3051443 -1.3628662
15.738083 -2.7299895 -1.5622003
15.717118 -2.8258007 -1.5618017
14.614653 -2.7201817 -1.4512709
15.725226 -3.0269279 -1.5662867
13.373962 -2.659364 -1.3280823
15.734657 -3.2294788 -1.5711704
15.731093 -3.3294678 -1.5728648
15.7337 -3.4310188 -1.5752567
15.657014 -3.5150666 -1.5695757
15.700107 -3.6260772 -1.5762534
15.772434 -3.7448759 -1.5860208
15.744326 -3.840404 -1.5855224
8.2353697 -2.0618446 -0.81260425
8.1994352 -2.1063921 -0.81021219
15.59111 -4.1085048 -1.5772501
15.53583 -4.1960473 -1.5741605
7.6558142 -2.1176221 -0.75788701
15.424771 -4.3698316 -1.5680807
15.399579 -4.4649482 -1.5682801
8.0114174 -2.3756318 -0.79924881
7.9671721 -2.4157896 -0.79615915
7.9550505 -2.4655139 -0.79645813
7.9587436 -2.5202892 -0.79845148
8.4297285 -2.7265332 -0.84968036
15.029229 -4.9641256 -1.5476489
14.988115 -5.0527525 -1.5465527
7.7909975 -2.6792393 -0.7874881
14.887426 -5.2231202 -1.5425659
14.84573 -5.311017 -1.5415692
14.806318 -5.399622 -1.5408716
14.758919 -5.4851694 -1.5393766
14.70079 -5.5664625 -1.5367852
14.644079 -5.647965 -1.5343932
14.586921 -5.7289815 -1.5320013
14.51731 -5.8047061 -1.5283135
14.458381 -5.8842945 -1.5258219
14.395344 -5.9618559 -1.5229316
14.352074 -6.0473666 -1.5222338
14.267141 -6.1149287 -1.5170512
14.180099 -6.180882 -1.5116692
14.117347 -6.2568855 -1.5089781
14.040588 -6.32622 -1.5047921
13.997889 -6.4105945 -1.5043935
13.942053 -6.4888048 -1.5025995
13.891183 -6.5691242 -1.5014035
13.853304 -6.6555281 -1.5017024
13.80237 -6.7356043 -1.5006061
13.750083 -6.8148637 -1.49941
13.686679 -6.8883672 -1.4970181
13.630864 -6.965425 -1.4955231
13.240767 -6.8688331 -1.4563539
13.024056 -6.8581395 -1.4366199
12.884326 -6.8858581 -1.4255568
12.722009 -6.8997865 -1.4119024
12.607954 -6.9383736 -1.4037297
12.458288 -6.9559317 -1.3914707
12.382475 -7.0136056 -1.3876833
12.294346 -7.0636711 -1.3825006
12.28344 -7.1580148 -1.3862879
12.244427 -7.2362876 -1.386886
12.170778 -7.2938886 -1.3834972
12.173411 -7.3973699 -1.3890786
12.17523 -7.5011573 -1.39466
12.177076 -7.6057715 -1.400341
12.169689 -7.7053657 -1.4050254
12.120506 -7.7788177 -1.404826
12.093399 -7.8666067 -1.4073178
12.037426 -7.9357328 -1.4064207
12.487379 -8.3427954 -1.46652
12.446665 -8.4265118 -1.4678156
12.389804 -8.4993467 -1.4672177
12.334151 -8.572938 -1.4668189
12.265046 -8.6369982 -1.4648256
12.186711 -8.6941767 -1.461736
12.115394 -8.7559652 -1.4595432
12.064651 -8.83249 -1.459942
11.991848 -8.8927183 -1.4576496
11.906827 -8.9434204 -1.4538622
11.831139 -9.0006456 -1.4512709
11.773324 -9.071249 -1.4509718
11.71509 -9.1414814 -1.4506729
11.657217 -9.2119579 -1.4504735
11.604358 -9.2864208 -1.4509718
11.544067 -9.3549423 -1.4505732
11.48568 -9.4249687 -1.4504735
11.426867 -9.4946299 -1.4503739
11.359259 -9.5568771 -1.4491779
11.297375 -9.6238155 -1.4487792
11.235851 -9.6910038 -1.4484802
11.17168 -9.7558355 -1.4478822
11.120554 -9.8321104 -1.4490782
11.372118 -10.179575 -1.4910381
11.212864 -10.161623 -1.4779817
11.098249 -10.182467 -1.4709053
10.940064 -10.161656 -1.4578489
10.874608 -10.225865 -1.4574503
10.803011 -10.284165 -1.4562542
10.721079 -10.332304 -1.4536629
10.643236 -10.383994 -1.4516696
10.575782 -10.445608 -1.4511713
10.4742 -10.473012 -1.4458889
10.397156 -10.524342 -1.4440949
10.305978 -10.560876 -1.4403075
10.226483 -10.608869 -1.4382145
10.144044 -10.653401 -1.4357228
6.9742198 -7.4144664 -0.98183894
9.9387321 -10.697618 -1.4248592
9.8668509 -10.751801 -1.4239621
9.7993574 -10.810666 -1.4237628
9.7414675 -10.880228 -1.4250585
6.7362509 -7.6167107 -0.98074257
6.6756439 -7.6421614 -0.97864956
6.5421896 -7.5827694 -0.96539384
9.5715361 -11.23342 -1.4405068
2.0995488 -2.4935312 -0.28875402
2.0873888 -2.5101933 -0.28925237
9.3839741 -11.433081 -1.4437959
9.3080063 -11.483487 -1.4428989
9.2653484 -11.575342 -1.4473839
2.064642 -2.6106267 -0.29563105
2.03022 -2.5997131 -0.29264104
1.9917592 -2.5829587 -0.28895336
1.9674382 -2.5840449 -0.28755802
1.9491553 -2.592886 -0.28715935
1.9320236 -2.6031985 -0.28696001
1.9154265 -2.6142013 -0.28686035
1.9226645 -2.6581624 -0.29084703
1.920188 -2.6893494 -0.29323906
8.2785692 -11.753189 -1.4022347
8.2028894 -11.798862 -1.4016367
8.1393452 -11.862101 -1.4032314
1.8831757 -2.7793317 -0.2985214
1.8671923 -2.7924891 -0.29872075
1.8461888 -2.7980783 -0.29802307
7.905468 -12.150024 -1.4141947
7.7490735 -12.071021 -1.3990453
7.6721997 -12.114138 -1.3985471
7.5987787 -12.162673 -1.3987464
7.53549 -12.227707 -1.400939
7.4556694 -12.266061 -1.4000421
7.3669662 -12.289387 -1.3974507
7.2899027 -12.331788 -1.3971517
7.20959 -12.368549 -1.3962547
7.1335621 -12.412553 -1.3962547
7.0597181 -12.460419 -1.396753
6.9816742 -12.500896 -1.396454
6.9005208 -12.535654 -1.395557
6.8267941 -12.583881 -1.3962547
6.753674 -12.63343 -1.3971517
6.6718569 -12.666709 -1.3962547
6.5880527 -12.695927 -1.394959
6.5027833 -12.721934 -1.3933643
6.4187846 -12.750041 -1.3920686
6.3364544 -12.781162 -1.3911717
6.2600932 -12.824272 -1.39167
6.1830106 -12.86603 -1.3920686
6.1090546 -12.914519 -1.3932647
6.0263386 -12.944545 -1.3924673
5.9438987 -12.974945 -1.3917696
5.8629479 -13.008451 -1.3914707
5.7999535 -13.082386 -1.3956567
5.7318983 -13.146004 -1.3987464
5.6479921 -13.17361 -1.397949
5.5701451 -13.215353 -1.3987464
5.4939022 -13.261232 -1.4000421
5.4019265 -13.268888 -1.3972514
5.3034139 -13.259284 -1.3926667
5.2110434 -13.263792 -1.3896767
5.1184597 -13.266738 -1.3865869
5.0024266 -13.206701 -1.3768196
4.9209509 -13.236215 -1.37672
4.8338466 -13.250268 -1.3750256
4.7497721 -13.272184 -1.3742282
4.6698933 -13.305773 -1.3747265
4.5894575 -13.33794 -1.3751253
4.5033984 -13.353592 -1.3738296
4.4132628 -13.356408 -1.3712382
4.3306136 -13.381342 -1.3710389
4.2532334 -13.422839 -1.3726336
4.1769805 -13.468642 -1.3747265
4.0754867 -13.432126 -1.3682482
3.9878983 -13.43971 -1.3664542
3.9025877 -13.45437 -1.3654575
3.8242996 -13.49338 -1.3670522
3.7462103 -13.533853 -1.3688462
3.6615407 -13.55082 -1.3682482
3.5851722 -13.59901 -1.3709393
3.5061207 -13.6381 -1.3727332
3.4221311 -13.658391 -1.3726336
3.3340156 -13.661731 -1.3708396
3.2542639 -13.699357 -1.3726336
3.1743999 -13.737487 -1.3745272
3.0900486 -13.756706 -1.3745272
3.006429 -13.779296 -1.3749259
2.9220302 -13.798457 -1.3750256
2.8371093 -13.815152 -1.3749259
2.7571402 -13.856698 -1.3774176
2.6756392 -13.891919 -1.3793112
2.5956306 -13.936443 -1.3822016
2.514472 -13.97659 -1.3846933
2.430537 -14.00254 -1.3857896
2.341784 -14.000505 -1.3840953
2.2542539 -14.004787 -1.3830986
2.1591589 -13.959355 -1.3771186
0.42317936 -2.8453443 -0.25038221
0.2765514 -1.9386109 -0.15838948
0.26384777 -1.9343555 -0.15779148
0.25580892 -1.9655412 -0.16078149
0.23984683 -1.9354726 -0.15759215
0.22808218 -1.937896 -0.15769181
0.21596788 -1.9372811 -0.15749247
0.20407689 -1.9385698 -0.15749247
0.19276324 -1.9457269 -0.15809049
0.18054657 -1.9439006 -0.15779148
0.16861562 -1.9449719 -0.15779148
0.15644053 -1.9429942 -0.15749247
0.14429606 -1.9409406 -0.15719348
0.13392696 -1.9646229 -0.15948582
0.12278464 -1.9803048 -0.16098082
0.10953343 -1.9611509 -0.15898749
0.12385088 -2.4984508 -0.21280771
0.12363512 -2.8510764 -0.24808986
0.12905194 -3.4742429 -0.31048146
0 -0 -0
0.087164231 -3.5064013 -0.31357113
0.067019723 -3.5814841 -0.32104617
0.045213528 -3.595757 -0.32244149
0.016822554 -2.5611646 -0.21878773
0.0010842178 -3.6159415 -0.32443485
-0.021623602 -3.7004554 -0.33290654
-0.033405457 -2.8117666 -0.24390385
-0.059550844 -3.2940118 -0.29224238
-0.078392722 -3.23788 -0.28666103
-0.10109907 -3.3298314 -0.29593006
-0.53357232 -14.509573 -1.4165868
-0.14340699 -3.3621395 -0.29931873
-0.70763046 -14.421432 -1.4085137
-0.80187428 -14.521137 -1.4189788
-0.89199686 -14.532827 -1.4206731
-0.98511243 -14.585652 -1.4265535
-0.27978754 -3.8076653 -0.34466726
-0.30314565 -3.805877 -0.34466726
-0.32606542 -3.7989886 -0.34416893
-0.27015385 -2.9388771 -0.25785723
-0.28788874 -2.9341936 -0.25755823
-1.5283488 -14.606804 -1.4333308
-0.3245323 -2.9363735 -0.25815624
-0.34161735 -2.9264209 -0.25735891
-1.8096229 -14.678901 -1.4436961
-1.8962041 -14.640878 -1.4410052
-1.9865389 -14.632912 -1.4414039
-2.0838463 -14.673643 -1.4467859
-2.1691701 -14.629085 -1.4435965
-0.47282031 -3.065264 -0.27290696
-0.48814157 -3.0406926 -0.27071428
-0.63020301 -3.7756481 -0.34566393
-0.65216714 -3.7648475 -0.34496626
-0.56111407 -3.1261849 -0.28038201
-0.56953859 -3.0649691 -0.27450162
-0.54073256 -2.8142178 -0.24928586
-2.8900025 -14.533329 -1.4464868
-2.9839258 -14.538714 -1.4488789
-0.5662666 -2.680161 -0.23662814
-0.57973212 -2.6630256 -0.2352328
-0.84854168 -3.7836502 -0.3506473
-0.87241369 -3.7812808 -0.35094628
-0.61830473 -2.6083395 -0.23074779
-0.63854313 -2.6218965 -0.2325418
-0.65292621 -2.6111727 -0.23184413
-0.67289913 -2.6225364 -0.23343879
-0.72397727 -2.7511358 -0.24719286
-0.75226301 -2.7889073 -0.25157821
-4.0057182 -14.477938 -1.4669186
-4.0942063 -14.452128 -1.4668189
-0.94592726 -3.2657883 -0.30280709
-0.80406493 -2.7142782 -0.24579751
-0.81694913 -2.6969154 -0.24450184
-4.4794736 -14.44994 -1.4775831
-4.5659485 -14.415543 -1.4768853
-4.6546211 -14.388202 -1.476985
-4.7440662 -14.36315 -1.4773836
-4.8289285 -14.324342 -1.476387
-4.9041052 -14.257748 -1.4725
-4.991497 -14.227388 -1.4725
-5.1021667 -14.262073 -1.4794767
-1.1868763 -3.2571852 -0.30948478
-5.2865081 -14.224502 -1.4822674
-1.1569784 -3.0581322 -0.2897507
-1.1753628 -3.0500472 -0.28965104
-1.1933278 -3.0409257 -0.28945169
-1.3035973 -3.2626672 -0.31416914
-1.3224666 -3.2518423 -0.31387013
-1.2487184 -3.0175259 -0.28935203
-1.289623 -3.0629883 -0.29513273
-1.3377967 -3.1236074 -0.30260774
-1.3597212 -3.1217248 -0.30330542
-1.3740112 -3.102407 -0.30210942
-1.393839 -3.0957322 -0.30230874
-6.3873897 -13.947229 -1.4988121
-6.4816661 -13.926718 -1.5009052
-6.5772076 -13.908273 -1.5032971
-6.6641474 -13.871242 -1.5036957
-1.3620095 -2.7930987 -0.27350497
-1.3738188 -2.7739911 -0.27230895
-1.3599437 -2.7041843 -0.26543194
-1.3783221 -2.699333 -0.26583061
-7.1259193 -13.736248 -1.5122671
-7.2109966 -13.694027 -1.5124664
-7.3005147 -13.660053 -1.5136625
-1.477363 -2.7259181 -0.2728073
-1.4945409 -2.7176735 -0.27290696
-7.5351906 -13.495561 -1.5104731
-7.6306076 -13.471581 -1.5130645
-7.7403913 -13.471956 -1.5185462
-7.8319268 -13.439682 -1.5203402
-5.0054626 -8.4703817 -0.94775277
-8.0213289 -13.384379 -1.5252239
-8.1451635 -13.403783 -1.5332969
-8.2538757 -13.396755 -1.5383799
-8.3385572 -13.350078 -1.5388782
-5.1101494 -8.0715923 -0.91914833
-5.2428918 -8.1698742 -0.93459672
-5.2907519 -8.1342144 -0.93419808
-5.3509703 -8.1173811 -0.93609172
-5.6218057 -8.4153223 -0.97595859
-8.8532963 -13.076956 -1.5440609
-8.9350567 -13.024848 -1.5443599
-9.0148077 -12.969779 -1.5443599
-9.1417751 -12.981741 -1.5526323
-5.6131797 -7.8687582 -0.93041068
-9.3546019 -12.943576 -1.5619013
-9.4403124 -12.894765 -1.5629977
-9.5056219 -12.818216 -1.5607053
-1.7370383 -2.314167 -0.25207654
-1.6867361 -2.2187359 -0.24141216
-9.8237686 -12.749842 -1.5744594
-1.7199582 -2.205714 -0.24240883
-1.726673 -2.186532 -0.24131249
-1.7226473 -2.1541448 -0.23852181
-1.719543 -2.1234362 -0.23593047
-10.169845 -12.393274 -1.5680807
-10.255873 -12.342884 -1.5696754
-1.6353339 -1.9452473 -0.21679439
-1.6498201 -1.9382061 -0.21719307
-10.467678 -12.136193 -1.5675824
-10.554384 -12.085976 -1.569476
-1.6799436 -1.9015468 -0.21639572
-1.6882612 -1.8874964 -0.2158974
-1.6964697 -1.8734156 -0.21539906
-1.7160057 -1.8717686 -0.21659505
-1.8033079 -1.9428512 -0.22775777
-10.944366 -11.638571 -1.5624994
-11.014886 -11.570478 -1.5623997
-2.4146674 -2.5068088 -0.31088012
-3.204138 -3.2852826 -0.42190924
-3.4214303 -3.4651811 -0.45001537
-3.4841404 -3.4856331 -0.45589572
-3.2619429 -3.2236507 -0.42161024
-3.3001781 -3.221642 -0.42420161
-3.4080048 -3.2862635 -0.43646064
-3.4086471 -3.2467659 -0.43376964
-11.167026 -10.503157 -1.4978154
-11.221785 -10.425636 -1.4965198
-3.1489062 -2.8908448 -0.39041445
-3.5256383 -3.196882 -0.43895233
-3.5311019 -3.1625793 -0.43705866
-3.4908071 -3.0881252 -0.42908528
-3.4662216 -3.028686 -0.42330459
-3.428231 -2.9586179 -0.41582957
-3.3758795 -2.877517 -0.40656051
-11.758659 -9.8951216 -1.5016028
-11.83905 -9.8393202 -1.5041941
-3.4351959 -2.8205717 -0.40745753
-3.9510448 -3.2035241 -0.47174278
-10.967058 -8.778532 -1.3693446
-10.982464 -8.6808443 -1.3644608
-11.057486 -8.630434 -1.3672515
-11.205602 -8.63591 -1.3793112
-3.9326293 -2.9934597 -0.45729107
-3.9493315 -2.9680779 -0.45709172
-11.239582 -8.3369102 -1.3639625
-11.410952 -8.3559589 -1.3789126
-11.459589 -8.2840366 -1.3786136
-11.535313 -8.2314806 -1.3817033
-11.604314 -8.1737242 -1.3839957
-11.661602 -8.1074781 -1.3848926
-11.666822 -8.0053749 -1.3795106
-3.10149 -2.1012959 -0.33749124
-3.1002603 -2.0728285 -0.33579689
-3.1095974 -2.0515759 -0.33539823
-3.1221273 -2.0324571 -0.33539823
-3.1471 -2.0213239 -0.33689323
-3.214927 -2.0371084 -0.34347126
-3.2704053 -2.0442281 -0.34855428
-3.4057202 -2.099807 -0.363006
-3.5630937 -2.166718 -0.37994942
-3.5916839 -2.154022 -0.38174343
-3.5791354 -2.116755 -0.37875339
-3.5903368 -2.0937519 -0.37855408
-3.6781745 -2.1148109 -0.38722512
-3.6737661 -2.0823936 -0.38523176
-13.95346 -7.792767 -1.5630974
-3.8925653 -2.1436617 -0.40735787
-3.9896111 -2.1652801 -0.41692591
-3.9659653 -2.1210601 -0.41273987
-3.9753838 -2.094831 -0.41234121
-14.349333 -7.4458523 -1.5815358
-14.424874 -7.3730617 -1.5849245
-8.9798088 -4.5211124 -0.9692809
-7.6487122 -3.7924857 -0.81738824
-7.6718383 -3.7454827 -0.81738824
-9.1045561 -4.3757415 -0.97406489
-9.1420279 -4.3248997 -0.97526091
-8.9951906 -4.188107 -0.95612484
-9.1518936 -4.1929135 -0.97057652
-5.7827983 -2.6070333 -0.59762233
-5.7995954 -2.5719047 -0.59772199
-5.8043218 -2.5314991 -0.59652597
-9.3069096 -3.9905725 -0.9765566
-9.2862902 -3.914458 -0.97167289
-9.3597755 -3.8779657 -0.97705489
-9.3483725 -3.8062079 -0.97326756
-9.3660078 -3.7465589 -0.97266954
-9.5573778 -3.7552264 -0.99080896
-9.3583622 -3.6109309 -0.9669885
-9.4547853 -3.5816314 -0.97496188
-9.4541998 -3.5152307 -0.97256988
-9.5821562 -3.496021 -0.98393196
-9.3139362 -3.333586 -0.95313483
-9.2224865 -3.2371709 -0.9412744
-9.1791353 -3.1588359 -0.93459672
-9.4670639 -3.1930532 -0.96300185
-7.8085003 -2.580616 -0.7859931
-9.3550081 -3.0279362 -0.94715476
-9.3421087 -2.960562 -0.94386578
-9.4598894 -2.934123 -0.9543308
-9.475811 -2.8754454 -0.95413148
-9.6792936 -2.8724282 -0.97356653
-9.55721 -2.7725246 -0.95901519
-9.7071123 -2.7515333 -0.97286892
-9.626955 -2.665118 -0.96280253
-9.7055655 -2.6228638 -0.9692809
-9.840785 -2.5947056 -0.98163956
-9.8054447 -2.5211484 -0.97635722
-9.8487206 -2.4679468 -0.97924757
-9.9149113 -2.4199681 -0.98452991
-9.858902 -2.3423042 -0.97725421
-9.8498211 -2.2763925 -0.97486222
-9.9490376 -2.2350953 -0.98363292
-10.020895 -2.1867287 -0.98961294
-10.257044 -2.1723878 -1.0124367
-10.141521 -2.0830002 -0.99928069
-10.296593 -2.049072 -1.0138321
-10.583531 -2.0387125 -1.0418385
-10.708336 -1.9946771 -1.0533003
-11.032774 -1.9851109 -1.085094
-11.065334 -1.9209496 -1.0871871
-11.089671 -1.8551507 -1.0884827
-12.059657 -1.9413234 -1.1857578
-13.269051 -2.0524445 -1.3071523
-13.481197 -2.000622 -1.3273847
-14.489187 -2.059341 -1.4281482
-15.945999 -2.1665459 -1.5741605
-16.773083 -2.1741276 -1.6563858
-17.327278 -2.1379042 -1.7110033
-18.512157 -2.168787 -1.8292085
-19.480452 -2.1610816 -1.9254869
-19.511158 -2.0433755 -1.9272809
-19.536201 -1.9248863 -1.9285766
-19.586287 -1.808544 -1.9324635
-19.60792 -1.6892695 -1.9335599
-19.626842 -1.5696392 -1.9344569
-19.633127 -1.4489621 -1.934158
-19.634699 -1.3279986 -1.9334602
-19.628574 -1.2066435 -1.9320649
-19.62468 -1.0855782 -1.9309685
-19.622026 -0.96470374 -1.9300716
-19.617636 -0.84386009 -1.9290749
-19.612501 -0.72310662 -1.9280782
-19.611595 -0.60260046 -1.9275799
-19.608955 -0.48210824 -1.9269819
-19.603586 -0.36163452 -1.9261845
-19.598471 -0.24125706 -1.9254869
-19.593613 -0.12096205 -1.9248888
-19.587021 -0.0007357829 -1.9241912
-19.578697 0.11939891 -1.9233938
-19.570631 0.23944367 -1.9226962
-19.559839 0.35935727 -1.9217992
-19.548315 0.47914746 -1.9209021
-19.534065 0.59874868 -1.9198059
-19.513121 0.71797317 -1.9181116
-19.52326 0.8383311 -1.9196066
-19.516754 0.95805895 -1.9195069
-19.509514 1.0777385 -1.9194071
-19.497568 1.1971211 -1.9189088
-19.47298 1.3155923 -1.9172145
-17.431747 -0.44388574 -1.9210441
-17.431162 -0.33686051 -1.9207093
-17.423958 -0.22978044 -1.9197044
-17.431002 -0.12290689 -1.9203743
-17.407578 -0.015927583 -1.9176949
-17.407349 0.090883605 -1.9176949
-17.398514 0.19760127 -1.9168017
-17.38505 0.3041445 -1.915462
-17.379877 0.41074109 -1.9151272
-17.375042 0.51731515 -1.9149038
-17.36459 0.62366718 -1.9141223
-17.360435 0.73020256 -1.9141223
-17.345703 0.83623213 -1.9130059
-17.320398 0.94156921 -1.910773
-17.251804 1.044047 -1.9037396
-17.282751 1.1523939 -1.907982
-17.269409 1.2579842 -1.9073122
-17.257402 1.3636106 -1.9068656
-17.238808 1.468631 -1.9057491
-17.225513 1.574017 -1.9053025
-17.193773 1.6775588 -1.9028465
-17.157455 1.78036 -1.8999437
-17.145222 1.8854941 -1.8998321
-17.109638 1.9879078 -1.8971527
-17.079365 2.0906801 -1.8951432
-17.068186 2.1956913 -1.8953664
-17.046513 2.2993159 -1.8944733
-17.0065 2.4002578 -1.8915706
-17.007183 2.5068808 -1.8933568
-16.963978 2.606962 -1.8902309
-16.978083 2.715867 -1.8936918
-16.960117 2.8198285 -1.8935801
-16.944454 2.9241788 -1.8938034
-16.910542 3.0252934 -1.8920171
-16.891661 3.1289976 -1.8920171
-16.85848 3.2299662 -1.8904542
-16.820797 3.3298738 -1.8884445
-16.800049 3.4330218 -1.8884445
-16.75922 3.5319421 -1.8862118
-16.722666 3.6315453 -1.8845371
-16.677763 3.7290983 -1.8819693
-16.607113 3.8204453 -1.8764988
-16.58626 3.9229589 -1.8768338
-16.591812 4.03193 -1.8802947
-16.560011 4.1319757 -1.8795131
-16.535309 4.2337546 -1.8796248
-16.511902 4.3358908 -1.8799597
-16.47731 4.4350581 -1.8790666
-16.42009 4.5278893 -1.8756057
-16.402517 4.631526 -1.8768338
-16.350878 4.7254615 -1.8741543
-16.303469 4.8203468 -1.8720331
-16.243145 4.9110894 -1.8684605
-16.207958 5.0091963 -1.8679024
-16.149437 5.0998745 -1.8646648
-16.119732 5.1994796 -1.8648881
-16.092245 5.2998447 -1.8654462
-16.065073 5.4003849 -1.866116
-16.038216 5.5011134 -1.8668976
-16.018229 5.6043406 -1.8685722
-16.004131 5.709867 -1.8710283
-15.992143 5.8164501 -1.8738195
-15.989697 5.9268999 -1.8778385
-15.973482 6.0326228 -1.8802947
-15.951934 6.1365862 -1.8821926
-15.929709 6.2405114 -1.8840905
-15.902196 6.3425546 -1.8854302
-15.890602 6.4512229 -1.8887795
-15.87368 6.5580902 -1.8915706
-15.857877 6.6657619 -1.8945849
-15.839521 6.7727056 -1.8973759
-15.814071 6.8769007 -1.8993856
-15.796117 6.9846544 -1.9023999
-15.772902 7.0904093 -1.904856
-15.749889 7.1965551 -1.9074237
-15.718054 7.2989182 -1.9089868
-15.691846 7.40413 -1.9113313
-15.69451 7.5234694 -1.9173599
-15.67843 7.634419 -1.9211558
-15.673157 7.7511802 -1.9264029
-15.6626 7.8659334 -1.9310919
-15.651223 7.9808483 -1.9357809
-15.627552 8.0899801 -1.9390186
-15.611927 8.2037439 -1.9433726
-15.583218 8.3110733 -1.9461637
-15.550282 8.4164667 -1.9485081
-15.523606 8.5255957 -1.9517457
-15.480551 8.6260061 -1.9529738
-15.461936 8.7403917 -1.9574395
-15.437325 8.8519058 -1.9612354
-15.431686 8.9749374 -1.967599
-15.384886 9.0745039 -1.9687154
-15.29992 9.1513901 -1.9649196
-15.286815 9.2713766 -1.9706134
-15.266039 9.3873825 -1.975414
-15.240197 9.5008535 -1.9796563
-15.196735 9.6037416 -1.981666
-15.140033 9.6984148 -1.9820008
-15.096076 9.8014116 -1.984122
-15.052255 9.9047794 -1.9863549
-15.03915 10.028929 -1.9928302
-15.001209 10.137154 -1.9960679
-14.954306 10.239676 -1.998189
-14.91324 10.346535 -2.0012033
-14.87793 10.457846 -2.0051107
-14.825624 10.557585 -2.0067854
-14.781519 10.66347 -2.0096881
-14.739882 10.771557 -2.0130374
-14.668718 10.858249 -2.0123677
-14.650318 10.984413 -2.0191779
-14.618258 11.101143 -2.0242016
-14.574286 11.209411 -2.0276625
-14.558544 11.34015 -2.0352542
-14.52848 11.460654 -2.0409482
-14.457885 11.549583 -2.0409482
-14.426149 11.669951 -2.0466418
-14.370417 11.771473 -2.0489862
-14.318569 11.876555 -2.0520008
-14.256842 11.973776 -2.0536752
-14.195973 12.071973 -2.0555732
-14.146485 12.180246 -2.0592575
-14.09096 12.283796 -2.06216
-14.039165 12.391068 -2.0657327
-13.985101 12.496841 -2.069082
-13.922896 12.595751 -2.0713148
-13.862937 12.697051 -2.0739942
-13.82339 12.817683 -2.0799112
-13.682895 12.844451 -2.0704217
-13.590858 12.915844 -2.0684121
-13.505624 12.993481 -2.0675189
-13.385064 13.036585 -2.0611553
-13.277931 13.091956 -2.0569129
-13.19102 13.166863 -2.0559082
-13.098098 13.235546 -2.0540102
-13.014556 13.313534 -2.0536752
-12.922956 13.383131 -2.0521123
-12.862545 13.485183 -2.0556848
-12.750256 13.532752 -2.0508842
-12.639898 13.581634 -2.0464184
-12.538166 13.639182 -2.0434041
-12.418836 13.676867 -2.037487
-12.307477 13.722479 -2.0329099
-12.2013 13.77319 -2.0292256
-12.119177 13.850789 -2.0296721
-12.019667 13.908349 -2.027216
-11.9341 13.981838 -2.027216
-11.872424 14.083673 -2.0314584
-11.757808 14.122653 -2.0265462
-11.65894 14.179948 -2.024425
-11.570461 14.249676 -2.0242016
-11.474727 14.310324 -2.0227504
-11.388556 14.382799 -2.0230854
-11.293968 14.444579 -2.0219688
-11.19966 14.506527 -2.0209641
-11.09839 14.559167 -2.0187311
-10.990321 14.602378 -2.0152702
-10.898145 14.666348 -2.0148237
-10.803246 14.726532 -2.0139306
-10.715597 14.796566 -2.0144887
-10.596864 14.823234 -2.00913
-10.495398 14.873362 -2.0071204
-10.385196 14.91057 -2.0034363
-10.300266 14.983839 -2.004776
-10.198091 15.031956 -2.0027664
-10.097371 15.081861 -2.0010917
-9.9909449 15.122805 -1.9983007
-9.8968801 15.182158 -1.9980774
-9.7761211 15.199974 -1.9923836
-9.6890612 15.269742 -1.9937234
-9.5983496 15.33396 -1.9943932
-9.4946833 15.377345 -1.9923836
-9.3892956 15.417491 -1.9900391
-9.2914486 15.469701 -1.9893693
-9.1705246 15.482815 -1.9836755
-9.0578098 15.508759 -1.979768
-8.9733896 15.582991 -1.9822242
-8.8726988 15.629115 -1.9811077
-8.7640152 15.660716 -1.9782051
-8.648078 15.67852 -1.9736277
-8.5379496 15.70597 -1.9703901
-8.4475193 15.769449 -1.9718415
-8.346426 15.813076 -1.9708366
-8.2460318 15.85782 -1.9700551
-8.1431379 15.897504 -1.9687154
-8.0306673 15.917892 -1.9650313
-7.9138322 15.928599 -1.9602306
-7.8093967 15.963469 -1.9585559
-7.7048311 15.997656 -1.9568814
-7.5967345 16.023977 -1.9543135
-7.4902864 16.053179 -1.9521924
-7.3891568 16.093418 -1.9515225
-7.2841339 16.12487 -1.9498479
-7.17981 16.157455 -1.9483966
-7.0749626 16.188457 -1.9468335
-6.9692211 16.216955 -1.9450473
-6.8711314 16.263075 -1.9454938
-6.7735004 16.310434 -1.9461637
-6.68118 16.371012 -1.9485081
-6.5820832 16.415388 -1.9489547
-6.4841499 16.462862 -1.9498479
-6.3801455 16.494923 -1.9489547
-6.2717581 16.515181 -1.9467219
-6.1741228 16.563595 -1.94795
-6.0689602 16.591835 -1.9468335
-5.9724112 16.643726 -1.9486198
-5.8866706 16.726929 -1.9542019
-5.7777662 16.744884 -1.9520807
-5.675231 16.780962 -1.9521924
-5.5709076 16.811695 -1.9517457
-5.466114 16.840836 -1.9511876
-5.3608718 16.868376 -1.9505178
-5.254612 16.892412 -1.949513
-5.1456547 16.907223 -1.9475034
-5.035296 16.916573 -1.9449356
-4.9316807 16.948103 -1.9450473
-4.820529 16.953194 -1.9421445
-4.7156177 16.97958 -1.9418097
-4.6105638 17.005318 -1.9414747
-4.5038466 17.024641 -1.94047
-4.397563 17.045219 -1.9396884
-4.2909536 17.064171 -1.9387953
-4.183332 17.078596 -1.9374555
-4.0729284 17.080744 -1.9347762
-3.9711902 17.118965 -1.9363391
-3.3312795 14.771864 -1.6632619
-3.1786859 14.509546 -1.630774
-3.0790541 14.479204 -1.6250802
-2.9389596 14.249644 -1.5966114
-2.8485482 14.252791 -1.5949367
-2.7627404 14.278783 -1.5959415
-2.6785488 14.314025 -1.5980628
-2.5675063 14.202086 -1.5834376
-2.4564021 14.080519 -1.5678077
-2.3806715 14.159025 -1.5750644
-2.2778699 14.075269 -1.5639002
-2.1772559 13.99766 -1.5535175
-2.041877 13.679534 -1.5158939
-1.9559329 13.678033 -1.514331
-1.8722385 13.691746 -1.5145543
-1.781504 13.651735 -1.5087489
-1.6929249 13.623949 -1.5043948
-1.6201341 13.725862 -1.5147775
-1.5822763 14.150332 -1.5616673
-1.4800752 14.014502 -1.5452559
-1.4011359 14.094518 -1.5532942
-1.3529162 14.513474 -1.5996257
-1.3275319 15.253115 -1.6821295
-1.1888117 14.703314 -1.6192749
-1.1544673 15.458527 -1.7035648
-1.0387325 15.160953 -1.6692905
-0.99907911 16.022982 -1.765638
-0.90398043 16.086357 -1.7721132
-0.72391349 14.46687 -1.5893546
-0.63517642 14.472033 -1.5894663
-0.60926789 16.140985 -1.7766906
-0.47707453 15.09654 -1.6589079
-0.38316894 15.049512 -1.6533257
-0.28930098 14.973088 -1.644506
-0.19761929 14.989487 -1.6461806
-0.1046225 14.846327 -1.6299925
-0.013801122 15.140839 -1.6630386
0.078982778 15.117783 -1.6604708
0.17322893 15.248179 -1.6752076
0.28025776 16.01786 -1.7618421
0.3847051 16.277122 -1.7912041
0.48011017 16.124466 -1.7743461
0.53166616 14.801374 -1.6259733
0.62251741 14.798827 -1.626085
0.71326178 14.793736 -1.6259733
0.79420769 14.608485 -1.6056545
0.85586548 14.141095 -1.553629
0.93296808 13.990811 -1.5373293
1.042109 14.304956 -1.5733898
1.1144468 14.103132 -1.5513963
1.1895761 13.962357 -1.5363245
1.2735978 13.936982 -1.534315
1.3593789 13.931871 -1.5346498
1.4461708 13.936118 -1.5361012
1.5426233 14.02675 -1.5473771
1.6168503 13.915348 -1.5358779
1.6996676 13.884451 -1.5335335
1.7914211 13.925014 -1.5393388
1.8708529 13.869442 -1.534315
1.9649446 13.921661 -1.5415717
2.0491703 13.901478 -1.5406786
2.1320148 13.872927 -1.5388923
2.2260432 13.915517 -1.5452559
2.3089409 13.886891 -1.5435812
2.398499 13.897924 -1.546484
2.8202167 15.764066 -1.7611723
2.571944 13.884055 -1.5483819
2.6557777 13.861181 -1.5476004
2.7444446 13.863147 -1.5497216
2.8344288 13.870387 -1.5525126
2.9213269 13.861485 -1.5535175
3.0286763 13.946239 -1.5653515
3.12113 13.958426 -1.5689241
3.5408711 15.391699 -1.7363876
3.3081958 13.986769 -1.5767391
3.7524786 15.441722 -1.7473286
3.8498027 15.429012 -1.7485567
3.8665168 15.100887 -1.7132777
3.7551858 14.300254 -1.6230706
3.862746 14.350833 -1.6316671
3.9560113 14.346021 -1.6338999
4.0364017 14.2947 -1.630774
4.1507974 14.362267 -1.6416032
4.2692719 14.43945 -1.6536607
4.3462868 14.374933 -1.649195
4.3680978 14.13342 -1.6239638
4.4376802 14.052337 -1.6176002
4.5531039 14.115638 -1.6283178
4.783236 14.523509 -1.6798966
4.8706775 14.489176 -1.6793385
4.9588451 14.457137 -1.6791152
4.9286666 14.086882 -1.6387006
5.0276976 14.091942 -1.642943
5.131731 14.10939 -1.6487484
5.5141869 14.876192 -1.7444259
5.5516467 14.699839 -1.7273446
5.5907202 14.532866 -1.7113798
5.5840974 14.254012 -1.6819062
5.6703491 14.216711 -1.6815712
5.863256 14.442229 -1.713166
5.9969134 14.515278 -1.7264515
6.0411983 14.371939 -1.713501
6.1366916 14.351961 -1.7156222
6.2547545 14.383298 -1.724107
6.356956 14.376459 -1.7280145
6.4491229 14.346247 -1.7291309
6.5357895 14.303694 -1.728796
6.6828618 14.391309 -1.7446492
6.812171 14.43721 -1.7554785
6.8993392 14.392451 -1.7551435
6.9822993 14.339126 -1.7538038
7.0767589 14.309375 -1.7554785
7.166656 14.270123 -1.7560368
7.2694292 14.255981 -1.7598325
7.3722973 14.241115 -1.7636284
7.4419756 14.162182 -1.7593859
7.589992 14.231119 -1.7740111
7.6696019 14.170297 -1.7722249
7.8214607 14.241432 -1.7874082
7.9207892 14.214874 -1.7901993
8.0225315 14.191959 -1.7935486
8.1119318 14.146777 -1.7941067
8.2230616 14.13883 -1.7995772
8.3152151 14.097524 -1.8008053
8.4071703 14.055618 -1.8020334
8.5221128 14.051352 -1.8082854
8.6326342 14.038583 -1.8135326
8.7464733 14.030046 -1.8194495
8.8631849 14.024837 -1.8259249
8.990346 14.034624 -1.8345213
9.1120062 14.034206 -1.8418897
9.2367296 14.036973 -1.8498163
9.3734064 14.056098 -1.8600874
9.4984236 14.055957 -1.8679024
9.6254749 14.057268 -1.8760523
9.7653599 14.07551 -1.8866583
9.8869715 14.065732 -1.8935801
10.003641 14.047706 -1.8994972
10.154181 14.075519 -1.9118894
10.267913 14.050659 -1.9171367
10.411873 14.065669 -1.9280776
10.549845 14.070691 -1.9377905
10.684662 14.069799 -1.9468335
10.833192 14.085111 -1.9583327
10.951166 14.059141 -1.9641382
11.100616 14.072045 -1.9756373
11.266761 14.103828 -1.9900391
11.403711 14.097013 -1.9990822
11.548557 14.098272 -2.009465
11.722394 14.132701 -2.0248716
11.835732 14.092469 -2.0295606
11.945153 14.046835 -2.0335796
12.057702 14.004153 -2.038157
12.118589 13.901439 -2.0339146
12.16552 13.783605 -2.0274394
12.247879 13.706476 -2.0271044
12.31975 13.617802 -2.0250947
12.372201 13.508242 -2.0199592
12.421069 13.395638 -2.0143771
12.487387 13.302507 -2.0118093
12.533862 13.188897 -2.0061157
12.589749 13.085961 -2.0020964
12.648313 12.986396 -1.9986356
12.709618 12.890144 -1.9957329
12.765304 12.788707 -1.9920487
12.820225 12.687072 -1.9883645
12.869406 12.580382 -1.9838988
12.92491 12.480472 -1.9805496
12.978234 12.378982 -1.976977
13.026462 12.273219 -1.9727346
13.081155 12.174103 -1.9696085
13.12415 12.06469 -1.964808
13.177331 11.965229 -1.961682
13.232006 11.86756 -1.9588909
13.286723 11.770331 -1.9562114
13.336258 11.668953 -1.9528623
13.389562 11.571308 -1.9501828
13.444437 11.475385 -1.9478383
13.494081 11.375381 -1.944824
13.551406 11.282195 -1.9430377
13.601955 11.183685 -1.9403583
13.641778 11.076838 -1.9362276
13.692431 10.979247 -1.9337714
13.73539 10.875901 -1.9303105
13.780727 10.774891 -1.9272962
13.823771 10.672519 -1.9240584
13.877932 10.579062 -1.9224955
13.912411 10.471001 -1.9182531
13.964434 10.376548 -1.9165784
14.020629 10.285378 -1.9155737
14.064158 10.185166 -1.9128942
14.096478 10.077294 -1.9087635
14.128816 9.9699831 -1.9047444
14.16363 9.8649282 -1.9011718
14.221437 9.7761469 -1.9008368
14.26224 9.675869 -1.8982691
14.316387 9.5848589 -1.8975992
14.345081 9.4771137 -1.8935801
14.37549 9.371007 -1.8898959
14.405973 9.2654209 -1.8863233
14.430669 9.156621 -1.8820809
14.460469 9.0515575 -1.87862
14.478533 8.9396868 -1.8737078
14.511045 8.8372402 -1.870805
14.547959 8.7378025 -1.8685722
14.583344 8.6377382 -1.8662277
14.617191 8.5370674 -1.8637716
14.649492 8.435811 -1.8612038
14.694928 8.34233 -1.8604224
14.731097 8.2437563 -1.8585244
14.754428 8.1383333 -1.8550636
14.778767 8.033884 -1.8518258
14.799753 7.9280353 -1.8482534
14.82527 7.8250155 -1.8453506
14.854489 7.7242737 -1.8430061
14.885685 7.6248279 -1.8409966
14.920656 7.5275278 -1.8395452
14.952324 7.4287601 -1.8377589
14.970845 7.3237729 -1.8344097
15.009233 7.2287574 -1.8336282
15.015593 7.1186457 -1.8289392
15.02657 7.0112505 -1.8249201
15.04673 6.9085503 -1.822129
15.082498 6.8132315 -1.8213475
15.124927 6.720962 -1.8214592
15.16406 6.6272349 -1.8212359
15.21083 6.5368118 -1.8220173
15.216783 6.4290462 -1.8178866
15.27797 6.3447046 -1.8205661
15.338695 6.2598534 -1.8232454
15.390651 6.1711669 -1.8249201
15.449492 6.0849919 -1.8274878
15.456881 5.9786086 -1.8239152
15.507209 5.888947 -1.8255899
15.540257 5.7926445 -1.825255
15.583907 5.7002544 -1.8262597
15.597076 5.596806 -1.823692
15.658309 5.5105662 -1.8269296
15.688068 5.4130883 -1.826483
15.718163 5.3157711 -1.8261482
15.7552 5.2207894 -1.8267063
15.785993 5.1237121 -1.8265947
15.819976 5.0276575 -1.8269296
15.842936 4.9281321 -1.8260365
15.889038 4.8357477 -1.8279344
15.921268 4.7390141 -1.8282694
15.971038 4.6473427 -1.8307254
16.006899 4.5514331 -1.8316185
16.048887 4.4571204 -1.8332932
16.089361 4.3622031 -1.8348563
16.114864 4.2631445 -1.8347446
16.148417 4.1661716 -1.8356377
16.176567 4.0677352 -1.8359727
16.197361 3.9674554 -1.8355261
16.231066 3.8703008 -1.8366425
16.262253 3.7724326 -1.8375356
16.290911 3.6738901 -1.8382055
16.319941 3.5753505 -1.838987
16.341572 3.4751461 -1.838987
16.379133 3.3782237 -1.8408849
16.40345 3.2784386 -1.8413315
16.432039 3.1794264 -1.8423363
16.466866 3.0814664 -1.8441225
16.504044 2.9837291 -1.8462437
16.522041 2.882406 -1.8462437
16.528637 2.7791617 -1.8450156
16.55715 2.6795969 -1.8463554
16.532038 2.5715377 -1.8416665
16.529814 2.4674094 -1.8396568
16.558414 2.3679078 -1.8412199
16.584448 2.2678785 -1.8425596
6.6387162 0.86612076 -0.71419007
6.627141 0.82328635 -0.71229213
6.5876575 0.77736419 -0.70726824
6.580452 0.73560297 -0.7059285
6.5660653 0.69322866 -0.70380735
6.5514064 0.65105867 -0.70168614
6.5493412 0.61029416 -0.70101625
6.5371227 0.56871766 -0.69923002
6.5325651 0.527955 -0.69833684
6.5138798 0.48623323 -0.69588071
6.5207062 0.44652748 -0.69632727
6.5233235 0.40650877 -0.69632727
6.5336323 0.36692101 -0.69722044
6.5347681 0.32677481 -0.69710881
6.5277152 0.28627965 -0.69610399
6.5184255 0.24580836 -0.69487596
6.5158381 0.20568176 -0.69442934
6.5120101 0.16557086 -0.69387114
6.509923 0.12555313 -0.69353622
6.5105705 0.085606627 -0.69353622
6.508986 0.045642849 -0.69331294
6.5200748 0.0057138563 -0.69454104
6.5319118 -0.034354661 -0.69588071
6.5494647 -0.074635804 -0.69789028
6.5558386 -0.11494267 -0.69867176
6.5748792 -0.15563549 -0.70090461
6.5847268 -0.19630033 -0.7021327
6.5893569 -0.23691362 -0.70280254
6.5947294 -0.27763286 -0.70358402
6.5988574 -0.31837913 -0.70425391
6.6186099 -0.36004919 -0.70671004
6.615284 -0.40059343 -0.7065984
6.6890507 -0.44626561 -0.71519482
6.705018 -0.48867175 -0.71731603
14.515248 -1.1470008 -1.5978395
14.721812 -1.2542589 -1.6219542
14.670296 -1.3405887 -1.6170419
14.624209 -1.4269125 -1.6127995
14.565757 -1.5114911 -1.6072174
14.535464 -1.5985557 -1.6048729
10.58681 -1.2301981 -1.1594199
10.58794 -1.2962209 -1.1604246
10.579787 -1.3611629 -1.1604246
10.579115 -1.4271162 -1.1613178
10.579015 -1.4932512 -1.1623225
10.581451 -1.5598735 -1.1636623
13.849354 -2.1283927 -1.5362129
13.776175 -2.203757 -1.5294027
13.821212 -2.2980223 -1.5361012
14.017396 -2.4191139 -1.5601044
13.966094 -2.4986033 -1.5559735
13.873307 -2.5699532 -1.5471538
14.252558 -2.7307532 -1.592369
14.248206 -2.8206623 -1.5938203
13.3086 -2.7196438 -1.488095
