# .PCD v0.7 - Point Cloud Data file format
VERSION 0.7
FIELDS x y z
SIZE 4 4 4
TYPE F F F
COUNT 1 1 1
WIDTH 1603
HEIGHT 1
VIEWPOINT 0 0 0 1 0 0 0
POINTS 1603
DATA ascii
-0.19694632 -3.2489243 -1.0463464
-0.21662533 -3.2438693 -1.0450785
-0.23576754 -3.232074 -1.0415918
-0.25537068 -3.22773 -1.0406408
-0.27517086 -3.2261024 -1.0406408
-0.29435667 -3.2177417 -1.038422
-0.31409481 -3.2158749 -1.038422
-0.33166805 -3.1931329 -1.0314486
-0.34990701 -3.178782 -1.0273279
-0.36929563 -3.175633 -1.027011
-0.38888922 -3.1742487 -1.0273279
-0.40884268 -3.1755655 -1.0285958
-0.42971423 -3.1833363 -1.0320826
-0.45202172 -3.2003615 -1.038739
-0.47483081 -3.2191086 -1.0460294
-0.498463 -3.2414451 -1.0545877
-0.52193767 -3.2608023 -1.0621951
-0.54504639 -3.2762504 -1.0685345
-0.55965567 -3.2410672 -1.0577574
-0.57919794 -3.2357049 -1.0571234
-0.59973186 -3.2358203 -1.0583913
-0.61725539 -3.2199702 -1.0542707
-0.63976347 -3.230078 -1.0590253
-0.65995055 -3.2279501 -1.0596592
-0.67289984 -3.1913581 -1.0485651
-0.70736158 -3.2557549 -1.0720212
-0.72442812 -3.2383952 -1.0675836
-0.75746673 -3.2911956 -1.0872359
-0.78965217 -3.3372495 -1.1046696
-0.81862384 -3.367363 -1.1167145
-0.85166794 -3.4119689 -1.1338311
-0.86952937 -3.3947346 -1.1297104
-0.84385616 -3.2122886 -1.0685345
-0.82657743 -3.0696738 -1.0209885
-0.82674152 -2.9968848 -0.99753243
-0.84331053 -2.9853663 -0.99531364
-0.86819512 -3.0029144 -1.003238
-0.91860205 -3.1057637 -1.0409578
-0.97524297 -3.2244446 -1.0843832
-1.00061 -3.2365229 -1.0907227
-1.0195934 -3.2276092 -1.0897717
-1.0460744 -3.2420533 -1.0970621
-1.0662442 -3.2364745 -1.0973791
-1.0670452 -3.1732337 -1.0774097
-1.0843419 -3.1603467 -1.075191
-1.0855478 -3.1017106 -1.0568064
-1.1013724 -3.0860584 -1.0536368
-1.1225563 -3.0854816 -1.0558556
-1.1447636 -3.0874288 -1.0590253
-1.4176681 -3.7529008 -1.2992913
-1.370865 -3.5626652 -1.2343117
-1.3466904 -3.4367349 -1.1921543
-1.3593202 -3.407264 -1.1845468
-1.3709259 -3.3760109 -1.1763055
-1.3582991 -3.2868903 -1.147144
-1.4203365 -3.3781688 -1.1832789
-1.3981591 -3.2691021 -1.146827
-1.4076021 -3.2361083 -1.1379517
-1.4205284 -3.2117968 -1.1322463
-1.4328208 -3.186584 -1.1262237
-1.8870904 -4.1292424 -1.4758456
-1.4881939 -3.2040303 -1.1392196
-1.6810385 -3.5619576 -1.2748843
-1.7450885 -3.639667 -1.3075327
-1.5460871 -3.1743891 -1.1385857
-1.5554456 -3.144439 -1.1309783
-1.548321 -3.0822868 -1.111326
-1.5555722 -3.0499151 -1.1027677
-1.5568167 -3.0066218 -1.0900887
-1.5518543 -2.9525146 -1.0732892
-1.5614614 -2.9270368 -1.0672666
-1.5568205 -2.8756952 -1.0514179
-1.5685011 -2.8552814 -1.0472972
-1.5855297 -2.844775 -1.0469803
-1.6080889 -2.844075 -1.050467
-1.6255095 -2.8341544 -1.050467
-1.6628947 -2.8585618 -1.06378
-1.6702849 -2.8311491 -1.0571234
-1.6827567 -2.8127074 -1.0539538
-1.6857208 -2.7788117 -1.0447615
-1.7191334 -2.7950773 -1.0552217
-1.7467875 -2.8013785 -1.0618781
-1.7457039 -2.761744 -1.050467
-1.7636399 -2.752578 -1.051101
-1.7763646 -2.7353408 -1.0485651
-1.7905083 -2.7204282 -1.0469803
-1.8050621 -2.7062342 -1.0457125
-1.8248193 -2.6998227 -1.0476142
-1.8418865 -2.6893575 -1.0479312
-1.8594347 -2.679564 -1.0485651
-1.8823858 -2.6774154 -1.0523689
-1.9048302 -2.6743133 -1.0558556
-1.9101063 -2.6471913 -1.0495161
-1.925194 -2.6338899 -1.0488821
-1.9356763 -2.6144042 -1.0457125
-1.9465612 -2.5956483 -1.0428597
-1.9716284 -2.595741 -1.0479312
-1.9805801 -2.5745728 -1.0441276
-1.9980885 -2.5646164 -1.0450785
-2.0055637 -2.541883 -1.0406408
-2.0371051 -2.5495372 -1.0491991
-2.0550964 -2.5399394 -1.050467
-2.0760512 -2.533885 -1.0533198
-2.1060915 -2.5386193 -1.0609272
-2.1216285 -2.5256488 -1.0609272
-2.1278696 -2.5017452 -1.0561726
-2.1524622 -2.499423 -1.0609272
-2.1584098 -2.4754446 -1.0561726
-2.1515925 -2.4372659 -1.0450785
-2.1886246 -2.4487712 -1.0561726
-2.1947012 -2.4254491 -1.0517349
-2.212745 -2.4154341 -1.0533198
-2.2352624 -2.4101574 -1.0571234
-2.2350793 -2.380492 -1.0498331
-2.2561769 -2.3736081 -1.0530028
-2.275959 -2.3651876 -1.0555387
-2.2719004 -2.3321538 -1.0466633
-2.2781768 -2.3100653 -1.0428597
-2.2943182 -2.2980568 -1.0438106
-2.3137686 -2.2892733 -1.0463464
-2.3406577 -2.2876301 -1.0523689
-2.3498745 -2.2686133 -1.05015
-2.3788486 -2.2685537 -1.0571234
-2.4010067 -2.2617197 -1.0609272
-2.4183106 -2.2501755 -1.062512
-2.4348648 -2.2378621 -1.06378
-2.4415288 -2.2165041 -1.0606102
-2.438844 -2.1869164 -1.0533198
-2.4543464 -2.1737974 -1.0542707
-2.4555044 -2.1480794 -1.0488821
-2.4614627 -2.1267707 -1.0457125
-2.472302 -2.1097801 -1.0447615
-2.4989784 -2.1061857 -1.050784
-2.510397 -2.0895989 -1.05015
-2.5217061 -2.0729513 -1.0495161
-2.5439494 -2.0652115 -1.0536368
-2.5632327 -2.0549033 -1.0564895
-2.5795109 -2.0420809 -1.0580744
-2.6188896 -2.0472462 -1.0694854
-2.6306512 -2.0305588 -1.0691684
-2.6498494 -2.0195544 -1.0720212
-2.6629488 -2.0038273 -1.0723382
-2.6828067 -1.9931071 -1.075508
-2.6980445 -1.9788523 -1.0767758
-2.7039907 -1.9578097 -1.0742401
-2.7136378 -1.9395267 -1.0732892
-2.6875169 -1.8960443 -1.0577574
-2.7434607 -1.9104167 -1.0758249
-2.7316842 -1.8774284 -1.0663157
-2.7651281 -1.8755414 -1.075191
-2.7576697 -1.8458757 -1.0675836
-2.7942662 -1.8456503 -1.0777267
-2.8269904 -1.842455 -1.086285
-2.8446236 -1.8291787 -1.0888208
-2.850188 -1.8081329 -1.086602
-2.8419349 -1.7785327 -1.0789946
-2.8390753 -1.7525904 -1.0736061
-2.8465357 -1.7331638 -1.0723382
-2.8619947 -1.7185953 -1.0742401
-2.8830943 -1.7072858 -1.0783607
-2.9107141 -1.6996084 -1.0850172
-2.9399915 -1.6926028 -1.0923076
-2.9758899 -1.6890473 -1.1021338
-3.0093715 -1.683725 -1.111009
-3.0437295 -1.6785131 -1.1202012
-3.0806358 -1.6743013 -1.1303444
-3.1318164 -1.6773131 -1.145876
-3.1797934 -1.6779882 -1.1601399
-3.2169559 -1.6724483 -1.1702831
-3.2634549 -1.6712716 -1.1839129
-3.2829626 -1.6559154 -1.1873996
-3.3091993 -1.6437587 -1.1934221
-3.3234825 -1.6255069 -1.195007
-3.3641555 -1.6199 -1.206418
-3.4674439 -1.6435155 -1.2409681
-3.6820171 -1.7176576 -1.3164079
-3.6907632 -1.6942413 -1.315774
-4.1220169 -1.8617216 -1.4701401
-4.2477679 -1.8872352 -1.5119807
-4.0489569 -1.7692163 -1.4352729
-4.2435951 -1.8233572 -1.5021545
-4.1420021 -1.7496656 -1.4612648
-4.18682 -1.738405 -1.4736269
-4.1798458 -1.7055146 -1.4672873
-4.1840696 -1.6773645 -1.4650685
-4.3345919 -1.7069263 -1.5154673
-4.3529449 -1.6833771 -1.5183201
-4.4580626 -1.6926668 -1.5522362
-4.5021353 -1.6778696 -1.5642812
-4.5622253 -1.6684598 -1.5820317
-4.6509342 -1.6686263 -1.6099254
-4.7711258 -1.6787865 -1.6489131
-4.8691998 -1.6797988 -1.6799766
-4.9719539 -1.6811889 -1.7126249
-5.0559993 -1.6751148 -1.7386167
-5.1013646 -1.6554801 -1.7509787
-5.1502929 -1.6365007 -1.7646086
-5.2172918 -1.6226172 -1.784578
-5.3051805 -1.6143245 -1.8118377
-5.3677092 -1.5974365 -1.8302221
-5.4648328 -1.5899119 -1.8606516
-5.6085887 -1.5944852 -1.9072467
-5.6328878 -1.5641025 -1.9123182
-5.6698403 -1.5369564 -1.9218274
-5.6947513 -1.5062619 -1.9272161
-5.7158251 -1.4743717 -1.9313366
-5.7210851 -1.438347 -1.9300689
-5.7344089 -1.4043443 -1.9316536
-5.7659817 -1.3746325 -1.9395781
-5.7706122 -1.3383698 -1.9383101
-5.7768655 -1.3025194 -1.9376762
-5.7930865 -1.2688757 -1.9405289
-5.7998357 -1.2331088 -1.9402119
-5.791502 -1.1942412 -1.9348234
-5.8005805 -1.1590545 -1.9354573
-5.8113079 -1.1241617 -1.9367253
-5.8274188 -1.0902278 -1.939895
-5.833065 -1.0542822 -1.9395781
-5.8431616 -1.0191234 -1.9408458
-5.8493047 -0.98325127 -1.9408458
-5.8636541 -0.94870603 -1.9436986
-5.8712392 -0.91300106 -1.9443326
-5.8945532 -0.87961942 -1.9503551
-5.9017177 -0.84370315 -1.950989
-0 -0 -0
-5.9341974 -0.77416259 -1.9585965
-0 -0 -0
-0 -0 -0
-0 -0 -0
-0 -0 -0
-0 -0 -0
-0 -0 -0
-0 -0 -0
-0 -0 -0
-0 -0 -0
-0 -0 -0
-0 -0 -0
-0 -0 -0
-0 -0 -0
-0 -0 -0
-0 -0 -0
-0 -0 -0
-0 0 -0
-0 0 -0
-0 0 -0
-0 0 -0
-0 0 -0
-0 0 -0
-0 0 -0
-0 0 -0
-0 0 -0
-0 0 -0
-0 0 -0
-0 0 -0
-0 0 -0
-0 0 -0
-0 0 -0
-0 0 -0
-0 0 -0
-0 0 -0
-0 0 -0
-5.6283937 1.079594 -1.9428973
-5.5984917 1.1095117 -1.9347169
-5.5897269 1.1434635 -1.9340625
-5.5650387 1.1740302 -1.9278454
-5.5540371 1.2073509 -1.9265364
-5.5474463 1.2416136 -1.9268637
-5.5323572 1.2739309 -1.924246
-5.5179996 1.3063277 -1.9219553
-5.5098805 1.3401608 -1.9219553
-5.4951363 1.3723396 -1.9196649
-5.4948502 1.4081442 -1.9226098
-5.4879346 1.4423143 -1.9232643
-5.4817185 1.4766984 -1.924246
-5.4743762 1.5108089 -1.9249003
-5.465003 1.5443705 -1.9249003
-5.4508853 1.5765605 -1.9232643
-5.4429212 1.6105134 -1.9239187
-5.4247975 1.6414156 -1.9209738
-5.4010835 1.6704797 -1.9160655
-5.406949 1.7087173 -1.9219553
-5.3837738 1.7377954 -1.9173744
-5.3739071 1.7710928 -1.9177016
-5.3638344 1.8043345 -1.9180288
-5.3455124 1.8347569 -1.915411
-5.338613 1.8690839 -1.9170471
-5.3323832 1.9037132 -1.9190104
-5.3232656 1.9373664 -1.9199921
-5.3165936 1.9719656 -1.9219553
-5.2990904 2.0025451 -1.9199921
-5.2849398 2.0343428 -1.9193376
-5.2697186 2.0656972 -1.9183559
-5.2516789 2.09589 -1.9163927
-5.2334676 2.1259394 -1.9144294
-5.2194514 2.15765 -1.9141022
-5.2095981 2.1911016 -1.915411
-5.2099547 2.2289755 -1.9206465
-5.194447 2.2601471 -1.9199921
-5.165792 2.2854745 -1.9144294
-5.1430545 2.3132503 -1.9111573
-5.1571212 2.3577354 -1.9219553
-5.1391296 2.3877411 -1.9206465
-5.1081481 2.411561 -1.9144294
-5.1051817 2.4485822 -1.9190104
-5.0722237 2.4711659 -1.9121388
-5.0620465 2.5047576 -1.9141022
-5.02632 2.525584 -1.9062489
-5.0275617 2.5649695 -1.9127933
-5.0125675 2.5962045 -1.9131205
-4.9865079 2.6216335 -1.9091939
-4.986166 2.6606362 -1.915411
-4.9655924 2.68893 -1.913775
-4.94486 2.7170715 -1.9121388
-4.9256191 2.7459807 -1.9111573
-4.9144344 2.7794094 -1.9134477
-4.8931899 2.8071597 -1.9118116
-4.8775067 2.8380816 -1.912466
-4.8575597 2.8665147 -1.9114844
-4.8358259 2.8938394 -1.9098483
-4.8187866 2.9239471 -1.9101756
-4.8031688 2.9549456 -1.9111573
-4.785749 2.9848619 -1.9114844
-4.771337 3.0166962 -1.9131205
-4.750351 3.0443857 -1.9121388
-4.7339582 3.0750208 -1.9131205
-4.7126336 3.1024506 -1.9121388
-4.691937 3.1302593 -1.9114844
-4.6726418 3.1589894 -1.9114844
-4.6539497 3.1881349 -1.9118116
-4.6374049 3.218787 -1.9131205
-4.6191134 3.2482684 -1.913775
-4.5983257 3.276001 -1.9134477
-4.5796704 3.3052607 -1.9141022
-4.5570154 3.331625 -1.9131205
-4.5326905 3.3567111 -1.9114844
-4.5074739 3.381057 -1.9095211
-4.4904051 3.4115095 -1.9111573
-4.4686389 3.4384215 -1.91083
-4.4482026 3.466357 -1.9111573
-4.4283328 3.4947565 -1.9118116
-4.4031157 3.5189118 -1.9101756
-4.3807068 3.5452681 -1.9098483
-4.356679 3.5702837 -1.9088666
-4.3332357 3.5957413 -1.9082122
-4.3060279 3.6180055 -1.9059217
-4.2751117 3.6370094 -1.9019951
-4.249136 3.6600883 -1.900359
-4.2301583 3.6891978 -1.9019951
-4.1975269 3.7063258 -1.8974141
-4.1803412 3.737051 -1.9000318
-4.1594338 3.7645333 -1.9010135
-4.1341672 3.7880688 -1.9000318
-4.1267772 3.8281484 -1.9075578
-4.110786 3.8605149 -1.9111573
-4.0767503 3.8758969 -1.9062489
-4.0535722 3.9014938 -1.9065762
-4.0302334 3.9269524 -1.9069034
-4.0127883 3.9582448 -1.9101756
-3.9824085 3.9767816 -1.9072306
-3.9519529 3.995095 -1.9042857
-3.9253843 4.0172405 -1.903304
-3.9045978 4.045331 -1.9052672
-3.8810065 4.070581 -1.9059217
-3.8566043 4.0950055 -1.9062489
-3.8301184 4.1172085 -1.9055945
-3.8175681 4.1545506 -1.9121388
-3.7805753 4.1652994 -1.9062489
-3.7562077 4.1898255 -1.9069034
-3.7335601 4.2163324 -1.9085394
-3.7051313 4.2363162 -1.9072306
-3.6809206 4.261116 -1.9082122
-3.6534793 4.2821836 -1.9075578
-3.6313968 4.3095794 -1.9098483
-3.6042809 4.3310537 -1.9095211
-3.5758388 4.3508973 -1.9085394
-3.5431213 4.365418 -1.9052672
-3.5062249 4.3745394 -1.8997046
-3.4763858 4.3922653 -1.8980684
-3.4458795 4.4090452 -1.8961052
-3.414144 4.4241204 -1.8934875
-3.3995299 4.461524 -1.9006863
-3.3743622 4.4853201 -1.9019951
-3.3467774 4.5059404 -1.9019951
-3.3257699 4.5355368 -1.9059217
-3.2934463 4.5497336 -1.903304
-3.2671154 4.5721626 -1.9042857
-3.2308321 4.5805387 -1.8993773
-3.2032053 4.6010523 -1.8997046
-3.1749136 4.6206203 -1.8997046
-3.1364286 4.6251526 -1.8934875
-3.1079903 4.64431 -1.8934875
-3.0856814 4.6727567 -1.8974141
-3.060046 4.696353 -1.8993773
-3.0281072 4.7102709 -1.8974141
-3.0052197 4.7383394 -1.9013406
-2.9745862 4.7542863 -1.900359
-2.9463506 4.7740569 -1.9010135
-2.9155285 4.7896237 -1.9000318
-2.8846266 4.8049922 -1.8990501
-2.8497958 4.8136559 -1.8954507
-2.8211586 4.8326836 -1.8961052
-2.7933376 4.8531795 -1.8974141
-2.7635064 4.8702273 -1.8974141
-2.7331102 4.8862677 -1.8970869
-2.7039893 4.9046011 -1.8977413
-2.678354 4.9294038 -1.9010135
-2.6485031 4.9465785 -1.9013406
-2.6167793 4.9602284 -1.900359
-2.5858591 4.9753528 -1.9000318
-2.557004 4.9944906 -1.9013406
-2.5233333 5.004179 -1.8990501
-2.4913204 5.0170283 -1.8980684
-2.4596598 5.0305223 -1.8974141
-2.4307952 5.0497775 -1.8990501
-2.3993602 5.0637436 -1.8987229
-2.3678453 5.0775142 -1.8983957
-2.3366456 5.0919471 -1.8983957
-2.3049695 5.1053276 -1.8980684
-2.2743671 5.1211019 -1.8987229
-2.2413895 5.1314964 -1.8974141
-2.2076247 5.1399426 -1.8954507
-2.1716361 5.1429448 -1.8915241
-2.1378665 5.1509356 -1.8895608
-2.1062207 5.1639566 -1.8895608
-2.0741441 5.1759057 -1.8892336
-2.0461516 5.1982079 -1.892833
-2.0176227 5.2194796 -1.8961052
-1.9882395 5.2388291 -1.8987229
-1.9577056 5.2553582 -1.900359
-1.9234771 5.2619462 -1.8983957
-1.8876475 5.263864 -1.8947963
-1.8512403 5.2637582 -1.8905425
-1.8219861 5.2839518 -1.8938147
-1.7883207 5.291451 -1.8925058
-1.7596785 5.3139868 -1.8967596
-1.7220863 5.3094025 -1.8911968
-1.689476 5.319869 -1.8911968
-1.6554006 5.325623 -1.8895608
-1.6108774 5.296803 -1.8754904
-1.5834614 5.3237972 -1.8817075
-1.5491836 5.3279686 -1.8797443
-1.5164626 5.3373737 -1.8797443
-1.4912591 5.3738961 -1.8895608
-1.461714 5.3957148 -1.8941419
-1.4273726 5.4000139 -1.8925058
-1.3953903 5.4132462 -1.8941419
-1.3598483 5.4125409 -1.8908697
-1.3239187 5.4097681 -1.8869431
-1.2926693 5.4260631 -1.889888
-1.2553014 5.4164009 -1.8836709
-1.2239108 5.4322987 -1.8866159
-1.190354 5.4387827 -1.8862886
-1.1565675 5.4441357 -1.8856342
-1.1240935 5.4557576 -1.8872703
-1.0913358 5.466259 -1.8885791
-1.0590287 5.4793472 -1.8908697
-1.026949 5.494102 -1.8938147
-0.99204445 5.4937901 -1.8915241
-0.95734441 5.4941883 -1.8895608
-0.9245525 5.5055504 -1.8915241
-0.89120543 5.5139184 -1.8925058
-0.85619706 5.5118127 -1.889888
-0.8230567 5.5216355 -1.8915241
-0.7888943 5.5247111 -1.8908697
-0.75446993 5.5257025 -1.8895608
-0.72067255 5.5311646 -1.889888
-0.68590736 5.5289183 -1.8875976
-0.65163851 5.5302072 -1.8866159
-0.61758888 5.5331626 -1.8862886
-0.58273667 5.5283899 -1.8833437
-0.54899031 5.533742 -1.8839982
-0.51616079 5.5492382 -1.8882519
-0.48095992 5.5391207 -1.8836709
-0.44802421 5.5551543 -1.8882519
-0.41288018 5.5436635 -1.8833437
-0.37885714 5.5460925 -1.8833437
-0.34464455 5.5454836 -1.882362
-0.3107695 5.550324 -1.8833437
-0.27731642 5.5643959 -1.8875976
-0.24275823 5.5565519 -1.8843254
-0.20876507 5.56077 -1.885307
-0.17496496 5.5723352 -1.8889064
-0.14088878 5.5780272 -1.8905425
-0.10655279 5.5731182 -1.8885791
-0.072487541 5.5840607 -1.8921785
-0.038128942 5.5702262 -1.8872703
-0.0039513796 5.5731902 -1.8882519
0.030197233 5.5646052 -1.885307
0.064418294 5.5709295 -1.8875976
0.098565824 5.5685396 -1.8869431
0.13268645 5.5659409 -1.8862886
0.16677889 5.5631328 -1.8856342
0.20070466 5.5563388 -1.8836709
0.23563606 5.5748286 -1.8905425
0.26970044 5.5704465 -1.8895608
0.30366826 5.5649128 -1.8882519
0.33780819 5.5629444 -1.8882519
0.37067026 5.5419106 -1.8817075
0.4056344 5.5527258 -1.8862886
0.43842566 5.5341187 -1.880726
0.46971425 5.5002546 -1.8699278
0.50552738 5.5198526 -1.8777809
0.54196721 5.5429792 -1.8869431
0.57635981 5.5433092 -1.8882519
0.60963625 5.5330935 -1.8859614
0.64445078 5.5367575 -1.8885791
0.68060035 5.550519 -1.8947963
0.71355629 5.5378041 -1.8918513
0.74663526 5.5267663 -1.8895608
0.77987063 5.5174031 -1.8879247
0.81495374 5.520927 -1.8908697
0.84953374 5.5204926 -1.8925058
0.88339084 5.5151758 -1.8925058
0.91752541 5.5115156 -1.8931602
0.95148724 5.5067134 -1.8934875
0.98475754 5.4979811 -1.8925058
1.019164 5.4955516 -1.8938147
1.0512611 5.4808426 -1.8908697
1.0828484 5.4640932 -1.8872703
1.1159759 5.4554949 -1.8866159
1.1490387 5.4466953 -1.8859614
1.1796246 5.4266157 -1.8813803
1.2135192 5.4220419 -1.882362
1.2457042 5.4098897 -1.880726
1.2793109 5.4039831 -1.8813803
1.3117745 5.3932776 -1.8803988
1.3448424 5.3851271 -1.8803988
1.37739 5.3749433 -1.8797443
1.4127479 5.3755293 -1.8830165
1.4425073 5.3548989 -1.8787626
1.4738277 5.3404818 -1.8767993
1.5099115 5.3431587 -1.8810532
1.5463464 5.3465014 -1.8856342
1.5769764 5.3296638 -1.8830165
1.6101966 5.3216963 -1.8836709
1.6428196 5.3117161 -1.8836709
1.674526 5.2988329 -1.8826892
1.7110738 5.3010473 -1.8872703
1.7397207 5.2787824 -1.8830165
1.771475 5.2662172 -1.882362
1.8031406 5.2534609 -1.8817075
1.8384657 5.2512164 -1.8849797
1.8722414 5.2442861 -1.8866159
1.8998575 5.2202687 -1.8820348
1.9367846 5.2218018 -1.8869431
1.9671174 5.2054005 -1.885307
1.9983408 5.1914687 -1.8846525
2.026017 5.1685529 -1.880726
2.0615473 5.1656775 -1.8843254
2.090358 5.1459279 -1.8817075
2.1226158 5.1347508 -1.882362
2.1570144 5.1285977 -1.8849797
2.1888142 5.1161351 -1.885307
2.2201648 5.1026082 -1.885307
2.2506671 5.0871615 -1.8846525
2.2845535 5.079288 -1.8869431
2.3156765 5.0651746 -1.8869431
2.3487039 5.0551548 -1.8885791
2.3820992 5.0457749 -1.8905425
2.4109704 5.026804 -1.8889064
2.4425969 5.0136147 -1.8895608
2.4720562 4.9959922 -1.8885791
2.5043623 4.984107 -1.889888
2.5284529 4.9560218 -1.8849797
2.5579453 4.9387364 -1.8843254
2.5886407 4.9237847 -1.8846525
2.6134634 4.8978052 -1.880726
2.6403155 4.8758612 -1.8784354
2.6692731 4.8579125 -1.8777809
2.7031732 4.8488698 -1.880726
2.7375278 4.8404164 -1.8839982
2.7751732 4.8374605 -1.8895608
2.8024259 4.8162584 -1.8879247
2.8367293 4.8071094 -1.8911968
2.8647156 4.7871809 -1.8902153
2.8925643 4.7670898 -1.8892336
2.9197788 4.7460327 -1.8879247
2.950846 4.7312346 -1.8892336
2.9767897 4.7082481 -1.8872703
3.0040929 4.6875076 -1.8862886
3.0286791 4.6626477 -1.8836709
3.0546329 4.6400309 -1.8820348
3.0846198 4.6235585 -1.8830165
3.1108136 4.6014137 -1.8817075
3.1437967 4.5892544 -1.8846525
3.1708186 4.568326 -1.8839982
3.2036831 4.5557394 -1.8869431
3.2359641 4.5421524 -1.8895608
3.2632201 4.5214453 -1.8892336
3.2925751 4.5036254 -1.8902153
3.3235221 4.4878936 -1.8921785
3.3487282 4.4643931 -1.8908697
3.373771 4.4407525 -1.8895608
3.4026845 4.422214 -1.8905425
3.4280117 4.3990169 -1.8895608
3.4531822 4.3756752 -1.8885791
3.4787858 4.3529282 -1.8879247
3.5131593 4.3410482 -1.8921785
3.5457203 4.3267179 -1.8954507
3.5722017 4.3048801 -1.8954507
3.6021969 4.2872205 -1.8974141
3.6265976 4.2628784 -1.8964324
3.6514523 4.2391143 -1.8957779
3.6724243 4.2109332 -1.8931602
3.6988187 4.1890287 -1.8934875
3.7150035 4.1556888 -1.8885791
3.7245765 4.1153035 -1.8803988
3.7599738 4.103518 -1.8856342
3.7927949 4.0886817 -1.8895608
3.8320458 4.0804834 -1.8967596
3.868082 4.0685339 -1.9023223
3.8883853 4.039958 -1.9000318
3.9117818 4.0146699 -1.8993773
3.9197483 3.9737773 -1.8911968
3.9547427 3.9603477 -1.8964324
3.9756088 3.9326851 -1.8947963
3.9908767 3.8996339 -1.8905425
4.015409 3.8757288 -1.8908697
4.0404825 3.8523216 -1.8915241
4.0709243 3.8339343 -1.8947963
4.0902205 3.8050227 -1.892833
4.1253214 3.7907207 -1.8983957
4.1275077 3.7462885 -1.8885791
4.1729364 3.7410724 -1.8990501
4.1908593 3.7110133 -1.8967596
4.2021685 3.6752775 -1.8915241
4.2210641 3.6463366 -1.889888
4.2598948 3.6344709 -1.8974141
4.2799473 3.6064379 -1.8964324
4.2918248 3.5716486 -1.8918513
4.3289928 3.5578437 -1.8987229
4.3544106 3.5341914 -1.900359
4.3730645 3.5050433 -1.8990501
4.3915243 3.4757996 -1.8977413
4.4075561 3.444716 -1.8954507
4.4330988 3.4210699 -1.8974141
4.4562616 3.3955221 -1.8983957
4.481544 3.3715227 -1.900359
4.4983535 3.3411446 -1.8987229
4.5393476 3.328563 -1.9075578
4.5497336 3.2934463 -1.903304
4.5760074 3.2698615 -1.9059217
4.5983019 3.2433555 -1.9069034
4.6142378 3.2123811 -1.9052672
4.6377563 3.1866832 -1.9069034
4.6494002 3.1528645 -1.9036312
4.6686583 3.1242769 -1.9036312
4.6798544 3.0903664 -1.900359
4.7042713 3.065203 -1.9026495
4.7198105 3.0342371 -1.9013406
4.7359452 3.0037019 -1.900359
4.75669 2.9760892 -1.9013406
4.7724485 2.9453585 -1.900359
4.7944674 2.9184756 -1.9019951
4.8203874 2.8938644 -1.9052672
4.8453722 2.8685637 -1.9082122
4.8685951 2.8421125 -1.9105028
4.8736563 2.8051178 -1.9055945
4.8726935 2.764905 -1.8983957
4.8928661 2.736799 -1.8997046
4.9145322 2.7094619 -1.9016678
4.9451814 2.6869223 -1.9072306
4.9732389 2.6627707 -1.9118116
4.9777818 2.626035 -1.9072306
4.9971552 2.5971849 -1.9085394
5.012156 2.5660436 -1.9082122
5.0320258 2.5373676 -1.9098483
5.0559645 2.5106449 -1.9131205
5.0721231 2.4799898 -1.9134477
5.0906506 2.45046 -1.9147565
5.0961967 2.4147291 -1.9111573
5.1211948 2.3882043 -1.9150838
5.1357522 2.3567364 -1.9150838
5.150116 2.3251796 -1.9150838
5.1694684 2.2958355 -1.9170471
5.1912522 2.2674756 -1.9199921
5.2050676 2.23558 -1.9199921
5.2169456 2.2028654 -1.9193376
5.2268724 2.1693652 -1.9180288
5.2357101 2.1354694 -1.9163927
5.2513461 2.1043575 -1.9173744
5.2615213 2.0710583 -1.9163927
5.2811818 2.0414596 -1.9190104
5.2971425 2.0103567 -1.9203193
5.3111491 1.9784757 -1.9209738
5.3285146 1.9477953 -1.922937
5.3332491 1.9125131 -1.9203193
5.3422093 1.8788129 -1.9193376
5.3500633 1.844767 -1.9180288
5.3603864 1.8116025 -1.9177016
5.3722987 1.7789745 -1.9180288
5.3840117 1.7462686 -1.9183559
5.3946257 1.7132001 -1.9183559
5.4068408 1.6806276 -1.9190104
5.4197636 1.6482445 -1.9199921
5.4279633 1.6144201 -1.9193376
5.437767 1.5810843 -1.9193376
5.451911 1.5489794 -1.9209738
5.4649553 1.5165079 -1.9222826
5.4604754 1.4792435 -1.9173744
5.4813266 1.4488477 -1.9216281
5.4882832 1.4147162 -1.9209738
5.5005264 1.3819344 -1.9222826
5.50982 1.3483822 -1.9226098
5.518909 1.314768 -1.922937
5.5323958 1.2821589 -1.9249003
5.532784 1.2465285 -1.9222826
5.5283275 1.2099326 -1.9180288
5.5439668 1.1777542 -1.9209738
5.5510888 1.1437149 -1.9209738
5.5672693 1.1114806 -1.924246
5.5795512 1.0783744 -1.9262092
5.6009254 1.0468935 -1.9314448
5.612823 1.0135134 -1.933408
5.6180053 0.97889274 -1.9330808
5.62111 0.94393396 -1.9320991
5.6333261 0.91047978 -1.9343897
5.6397405 0.87604207 -1.9347169
5.6375327 0.84030777 -1.9320991
5.6463242 0.80623424 -1.933408
5.648356 0.77119094 -1.9324263
5.639863 0.73481226 -1.9278454
5.6527057 0.70123816 -1.9307903
5.6503325 0.66576791 -1.9284997
5.6486764 0.63045782 -1.9265364
5.6552577 0.59608293 -1.9275181
5.6635108 0.56183714 -1.9291542
5.6772013 0.52803648 -1.9327536
5.6831589 0.49343652 -1.9337353
5.7030339 0.45991987 -1.9396251
5.7000942 0.42449811 -1.9376619
5.7110767 0.39009285 -1.9406068
0 0 -0
0 0 -0
0 0 -0
0 0 -0
0 0 -0
0 0 -0
0 0 -0
0 0 -0
0 0 -0
0 0 -0
0 0 -0
0 -0 -0
0 -0 -0
0 -0 -0
0 -0 -0
0 -0 -0
0 -0 -0
0 -0 -0
0 -0 -0
0 -0 -0
0 -0 -0
0 -0 -0
0 -0 -0
0 -0 -0
0 -0 -0
0 -0 -0
0 -0 -0
0 -0 -0
0 -0 -0
0 -0 -0
0 -0 -0
0 -0 -0
0 -0 -0
0 -0 -0
0 -0 -0
0 -0 -0
0 -0 -0
0 -0 -0
5.6780391 -0.98112655 -1.9536955
5.6598206 -1.0137795 -1.9494417
0 -0 -0
0 -0 -0
5.6096139 -1.1117184 -1.9386435
5.5165935 -1.1284875 -1.9082122
5.3542395 -1.1295141 -1.8532397
5.3287416 -1.1583276 -1.8466953
5.2136488 -1.1668328 -1.8084108
5.1419349 -1.1839451 -1.7855055
5.0711288 -1.2004396 -1.7629275
5.020515 -1.2210276 -1.7475482
4.9615908 -1.2389779 -1.7292241
4.9191132 -1.2604773 -1.7167897
4.8847842 -1.2836658 -1.7073004
4.8594809 -1.3089404 -1.7010833
4.8959889 -1.35106 -1.717117
4.8712401 -1.3764471 -1.7112271
4.8563485 -1.4044714 -1.7089366
4.8612304 -1.4382674 -1.7138448
4.8360348 -1.4631389 -1.7079549
4.8332849 -1.4947405 -1.7102454
4.8222203 -1.5237991 -1.7095909
4.8019896 -1.5498735 -1.7056644
4.8094397 -1.5849321 -1.7118815
4.7969375 -1.613508 -1.7108998
4.7762227 -1.6392276 -1.7069732
4.7669663 -1.6688156 -1.7073004
4.7504077 -1.6958084 -1.7050099
4.739913 -1.7249244 -1.7050099
4.7318978 -1.754962 -1.7059916
4.7157373 -1.781958 -1.7040282
4.7003055 -1.8091614 -1.7023922
4.6873569 -1.8372778 -1.7017378
4.6768727 -1.8663547 -1.702065
4.6688347 -1.8964396 -1.7033738
4.6588569 -1.9257737 -1.7040282
4.6269207 -1.9458935 -1.6965022
4.607944 -1.9712721 -1.6938845
4.6018267 -2.0021491 -1.696175
4.5946393 -2.0326428 -1.6981384
4.5743256 -2.0573065 -1.6951934
4.5556006 -2.0825839 -1.6929028
4.5384521 -2.1085055 -1.6912668
4.5203028 -2.1338918 -1.6893035
4.5028644 -2.1595435 -1.6876674
4.4648962 -2.1751246 -1.6781781
4.4506192 -2.2020605 -1.6778508
4.4336467 -2.2276299 -1.6765419
4.4224195 -2.2560811 -1.6775236
4.415205 -2.2866521 -1.6801413
4.3952374 -2.310621 -1.6778508
4.3893127 -2.3419964 -1.681123
4.3599048 -2.3607824 -1.6752331
4.3436809 -2.3865793 -1.6745787
4.3198776 -2.4081235 -1.6709793
4.3148894 -2.4401686 -1.6749059
4.3088508 -2.4717727 -1.6785053
4.2756367 -2.4877057 -1.6713065
4.2513409 -2.5086091 -1.6677071
4.2585697 -2.5482388 -1.6768692
4.248508 -2.5777533 -1.6791598
4.2382445 -2.6072402 -1.6814502
4.2382007 -2.6432014 -1.6879946
4.2123194 -2.663095 -1.684068
4.2046499 -2.6945014 -1.6876674
4.1769447 -2.7130413 -1.6830863
4.1752133 -2.7484949 -1.6893035
4.1543403 -2.7714388 -1.6876674
4.140388 -2.7989948 -1.6889763
4.1122231 -2.8168683 -1.6843952
4.0995188 -2.8452811 -1.6863585
4.0796647 -2.8687506 -1.6853769
4.0535212 -2.887696 -1.6817775
4.0349603 -2.9119604 -1.6814502
4.0147285 -2.9349902 -1.6804686
3.9715884 -2.9410055 -1.6696703
3.9587586 -2.9692895 -1.6719609
3.9622819 -3.0101063 -1.6814502
3.9459839 -3.0360909 -1.6824319
3.9213185 -3.055598 -1.6798141
3.8973043 -3.0755024 -1.6775236
3.8776221 -3.0987678 -1.6771964
3.8688173 -3.1308267 -1.6817775
3.8458803 -3.1515107 -1.6801413
3.8293788 -3.1774635 -1.6814502
3.8083634 -3.1996844 -1.6807958
3.7922568 -3.2260542 -1.6824319
3.7652326 -3.2430937 -1.6791598
3.7473984 -3.2679994 -1.6801413
3.7237349 -3.2878034 -1.6785053
3.7175782 -3.3231885 -1.6850497
2.4369555 -2.2049434 -1.0963846
2.4157178 -2.212831 -1.0927852
2.3993242 -2.2250407 -1.0914763
3.6424789 -3.4205389 -1.6886491
3.592665 -3.4154723 -1.6749059
3.592742 -3.4577703 -1.6850497
3.5660446 -3.4744732 -1.6824319
3.5291886 -3.4810228 -1.6749059
3.5004094 -3.4952657 -1.6713065
3.4749105 -3.5126464 -1.6693431
3.4513111 -3.5318739 -1.6683615
3.4282627 -3.5516243 -1.6677071
3.4018424 -3.5678046 -1.6654166
3.3863637 -3.5954909 -1.6686888
3.362308 -3.6141257 -1.6677071
3.3426259 -3.6374722 -1.669016
3.3246884 -3.6628125 -1.6713065
3.2996287 -3.6803286 -1.6699976
3.2751055 -3.6983826 -1.669016
3.2498631 -3.7155631 -1.6677071
3.2245336 -3.732573 -1.6663982
3.2107677 -3.763073 -1.6713065
3.1937051 -3.7899306 -1.6745787
3.1927495 -3.8363345 -1.6866857
3.1451569 -3.8266463 -1.673597
3.1091154 -3.8304625 -1.6667254
3.0997336 -3.8671665 -1.6745787
3.0519087 -3.8557293 -1.6611627
2.0113182 -2.5727255 -1.0891858
1.9845284 -2.5708022 -1.0829687
1.9584109 -2.5693994 -1.0770788
1.9409047 -2.5791018 -1.0760971
1.9244798 -2.5902038 -1.0757699
1.9113435 -2.6057742 -1.077406
1.8687299 -2.5807059 -1.0616995
1.6622787 -2.325299 -0.94815493
1.6419901 -2.3269594 -0.94455552
2.7962356 -4.0162277 -1.6529822
2.7603052 -4.016952 -1.6461107
2.7446189 -4.0471106 -1.6516734
2.7333944 -4.0842967 -1.660181
2.7077618 -4.1002026 -1.6598538
2.6825523 -4.1167402 -1.6598538
2.6628611 -4.1418672 -1.6634532
2.6394207 -4.1613207 -1.6647621
2.6033158 -4.1606126 -1.6578906
2.5688078 -4.1620317 -1.6520007
2.5579569 -4.2019334 -1.6618172
2.5180261 -4.1940517 -1.6523279
2.4970567 -4.2175555 -1.6556001
2.4854181 -4.2572827 -1.6654166
2.4606628 -4.27491 -1.6663982
2.4362507 -4.2932158 -1.6677071
2.4103234 -4.3089085 -1.6680343
2.3847511 -4.3252721 -1.6686888
2.3577158 -4.3389926 -1.6683615
2.3283727 -4.3483787 -1.6663982
2.3034108 -4.3659272 -1.6677071
2.2791922 -4.3850098 -1.6696703
2.2548261 -4.4039593 -1.6716337
2.2273362 -4.4168677 -1.6713065
2.2010331 -4.4321442 -1.6719609
2.1704774 -4.4387741 -1.6693431
2.1411524 -4.4477506 -1.6677071
2.1126077 -4.4582429 -1.6667254
1.4433016 -3.0938914 -1.1405591
1.4246845 -3.103548 -1.1408863
1.407558 -3.116538 -1.1425223
1.379208 -3.1043873 -1.1346691
1.9782604 -4.5287428 -1.6696703
1.9515536 -4.5434012 -1.670652
1.9173932 -4.5404897 -1.6650894
1.8858767 -4.5434408 -1.6618172
1.8633134 -4.5680523 -1.6667254
1.8387625 -4.588172 -1.6699976
1.8095376 -4.5967298 -1.669016
1.7816391 -4.6086278 -1.6693431
1.7550031 -4.6238904 -1.6709793
1.7239609 -4.6274877 -1.6683615
1.695859 -4.6388659 -1.6686888
1.6625817 -4.6358409 -1.6637805
1.6319121 -4.6397147 -1.66149
1.6000262 -4.6398134 -1.6578906
1.5697126 -4.6441717 -1.6559272
1.5394058 -4.6483335 -1.6539639
1.5099812 -4.654995 -1.6529822
1.4831052 -4.6695762 -1.6549456
1.4538647 -4.6767836 -1.6542912
1.4292625 -4.6991782 -1.6591994
1.4009403 -4.709671 -1.6598538
1.3706977 -4.7136412 -1.6582178
1.3536208 -4.7637782 -1.6732697
1.3241129 -4.7710838 -1.6729425
1.290369 -4.7627001 -1.6670526
1.2548476 -4.7467737 -1.658545
1.2278196 -4.76262 -1.66149
1.2008742 -4.7792292 -1.6647621
1.17624 -4.8057837 -1.6716337
1.1333833 -4.756835 -1.6516734
0.71815127 -3.096504 -1.0590818
0.69810051 -3.0962427 -1.0574456
0.68009835 -3.1050837 -1.0590818
0.65612876 -3.0860891 -1.0509013
0.64003801 -3.1039402 -1.0558096
0.61839312 -3.0948353 -1.0512285
0.59903371 -3.0967157 -1.0505741
0.57828701 -3.0910439 -1.0473019
0.5596453 -3.0963941 -1.0479563
0.54079765 -3.1007006 -1.0482836
0.51988631 -3.0927773 -1.0443569
0.49894205 -3.0837817 -1.0401032
0.47885209 -3.0793149 -1.0374854
0.45716634 -3.0635021 -1.030941
0.43849382 -3.0671849 -1.0312682
0.41787869 -3.0567098 -1.0266873
0.3987495 -3.0564051 -1.0257056
0.37998825 -3.0587943 -1.0257056
0.36110231 -3.0601299 -1.0253783
0.3451438 -3.0876446 -1.0342132
0.32451123 -3.0737283 -1.0286505
0.30601746 -3.079423 -1.0299594
0.28903776 -3.1019425 -1.0371581
0.27163011 -3.1224861 -1.0437026
0.25398114 -3.1429322 -1.050247
0.28746235 -3.8549659 -1.2969692
0.21719113 -3.1722097 -1.059409
0.19556125 -3.1385865 -1.0473019
0.17719427 -3.1557665 -1.0528647
0.16152789 -3.2313535 -1.0787148
0.13820854 -3.1520391 -1.0509013
0.11893589 -3.1547163 -1.0515558
0.0991937 -3.1431084 -1.0473019
0.079125166 -3.1124842 -1.0365038
0.059900757 -3.1062977 -1.0342132
0.040393151 -3.0716465 -1.0221062
0.022059446 -3.1493206 -1.048938
0.0026996012 -3.0785255 -1.0243967
-0.016195251 -3.0794291 -1.0247239
-0.035123333 -3.0821064 -1.0257056
-0.054237153 -3.0931704 -1.0296322
-0.073987819 -3.1248984 -1.0407575
-0.093616635 -3.1394978 -1.0459931
-0.11462814 -3.1870251 -1.0626812
-0.13253707 -3.1475537 -1.0492653
-0.15033314 -3.1155345 -1.038467
-0.17146251 -3.1513515 -1.0512285
-0.19148527 -3.1615584 -1.0551552
-0.20733818 -3.1075256 -1.036831
-0.22598743 -3.1005402 -1.0348676
-0.24366093 -3.0821395 -1.0289778
-0.26152018 -3.068347 -1.0247239
-0.2821562 -3.0864453 -1.0315955
-0.30127326 -3.0865369 -1.0322499
-0.32001036 -3.0827506 -1.0315955
-0.33788294 -3.0713365 -1.0283233
-0.35781637 -3.0785913 -1.0315955
-0.37497151 -3.0622694 -1.0266873
-0.39556849 -3.0739686 -1.0315955
-0.41062149 -3.043391 -1.0217789
-0.43220145 -3.0613978 -1.0289778
-0.45539957 -3.0886016 -1.0394487
-0.47808415 -3.1100314 -1.0479563
-0.49955225 -3.1219676 -1.0531919
-0.50487125 -3.0358877 -1.0240694
-0.54426932 -3.1528471 -1.0662806
-0.56710726 -3.1689804 -1.0731522
-0.58947349 -3.1812353 -1.0787148
-0.60256708 -3.1441507 -1.0669351
-0.62221569 -3.1422479 -1.0675894
-0.64167398 -3.1392968 -1.0679166
-0.67166281 -3.186151 -1.0859137
-0.84268999 -3.8781703 -1.332636
-0.70988488 -3.1739805 -1.0846047
-0.73698699 -3.202714 -1.0963846
-0.75727826 -3.2008901 -1.0973663
-0.82406586 -3.3899095 -1.1664093
-0.83637214 -3.3508697 -1.1543022
-0.87687188 -3.4234772 -1.1821157
-0.85651672 -3.2608476 -1.1258342
-0.80123907 -2.9763451 -1.0257056
-0.82476956 -2.9905005 -1.0325772
-0.83847457 -2.9690163 -1.0266873
-0.85273534 -2.9502003 -1.0217789
-0.92367572 -3.1234064 -1.0862409
-0.96966052 -3.206311 -1.1183082
-0.98037517 -3.1714144 -1.1078372
-1.1172066 -3.5365384 -1.242651
-0.99162662 -3.0737207 -1.0767516
-1.0078043 -3.0595016 -1.0738066
-1.0536898 -3.1338615 -1.1032562
-1.0627695 -3.0978451 -1.092458
-1.0767586 -3.0769968 -1.0872226
-1.0956185 -3.0703321 -1.0872226
-1.112497 -3.0582242 -1.0852592
-1.1305833 -3.0495687 -1.0846047
-1.2238055 -3.239677 -1.1575744
-1.1689401 -3.0381105 -1.0855864
-1.6016126 -4.0865216 -1.4782479
-1.7433519 -4.3688469 -1.5872115
-1.2780356 -3.1473894 -1.1346691
-1.2951566 -3.1342492 -1.1327058
-1.250221 -2.9738238 -1.0754427
-1.3264557 -3.1016142 -1.1264887
-1.9512286 -4.4848619 -1.6520007
-1.9817704 -4.4797177 -1.6546184
-1.4570023 -3.2403979 -1.18866
-1.2799277 -2.8008804 -1.0247239
-1.3185998 -2.839246 -1.0423937
-1.3061306 -2.7678742 -1.0181795
-1.4118043 -2.9446776 -1.0891858
-1.4488919 -2.9750323 -1.1042379
-1.4784387 -2.988951 -1.1130728
-1.4504873 -2.8877983 -1.077406
-1.4986813 -2.9386008 -1.1006385
-1.4840767 -2.8664253 -1.0760971
-1.4818411 -2.8196313 -1.0613723
-1.4692973 -2.7546351 -1.0394487
-1.4956247 -2.7630155 -1.0463203
-1.5435052 -2.8100953 -1.0685711
-1.545989 -2.7741632 -1.0581001
-1.5564671 -2.7531111 -1.0535191
-1.5888534 -2.7705543 -1.0643172
-1.6024953 -2.7550364 -1.0620267
-1.6155264 -2.7386422 -1.059409
-1.6250192 -2.7165165 -1.0545007
-1.6495025 -2.7194188 -1.0597363
-1.6621951 -2.7028084 -1.0571185
-1.6737455 -2.6845417 -1.0538464
-1.6881655 -2.6710269 -1.0525374
-1.7060529 -2.6630046 -1.0535191
-1.7203012 -2.649317 -1.0522102
-1.7365246 -2.6387117 -1.0522102
-1.7558303 -2.6327226 -1.0541735
-1.776716 -2.6289439 -1.0571185
-1.7938818 -2.6195517 -1.0577729
-1.8109993 -2.6100476 -1.0584273
-1.8231741 -2.5934765 -1.0561368
-1.83302 -2.5737765 -1.0525374
-1.8404804 -2.5509889 -1.0476291
-1.8555405 -2.5388854 -1.0473019
-1.8671463 -2.5221372 -1.0450114
-1.8814523 -2.5091214 -1.0443569
-1.8968126 -2.49753 -1.0443569
-1.9069138 -2.4791052 -1.041412
-1.9290612 -2.4763007 -1.0453386
-1.9412915 -2.4607093 -1.0437026
-1.9646147 -2.4590843 -1.0482836
-1.9868017 -2.4557962 -1.0522102
-2.0018327 -2.4435594 -1.0522102
-2.0173922 -2.4319572 -1.0525374
-2.02194 -2.4072361 -1.0469748
-2.0329976 -2.3904669 -1.0450114
-2.0426922 -2.372221 -1.0423937
-2.0466485 -2.347538 -1.036831
-2.0647676 -2.339185 -1.0387943
-2.0727825 -2.3194282 -1.0355221
-2.1053681 -2.3269801 -1.0450114
-2.1215222 -2.3161077 -1.0459931
-2.1266944 -2.2933497 -1.041412
-2.1510787 -2.2912765 -1.0466475
-2.1703069 -2.2835121 -1.0492653
-2.1783786 -2.2640262 -1.0463203
-2.188272 -2.2465572 -1.0443569
-2.2086527 -2.239814 -1.0476291
-2.2263613 -2.2302308 -1.0495925
-2.2494111 -2.2258298 -1.0541735
-2.254914 -2.2040625 -1.050247
-2.2520747 -2.1744385 -1.0423937
-2.274267 -2.1690543 -1.0466475
-2.2902853 -2.1576495 -1.0479563
-2.2882574 -2.1293995 -1.0407575
-2.3277256 -2.1396093 -1.0531919
-2.3548069 -2.1379852 -1.0597363
-2.3509917 -2.108361 -1.051883
-2.3667145 -2.096401 -1.0531919
-2.389493 -2.0905471 -1.0577729
-2.4051361 -2.0783162 -1.0590818
-2.4077773 -2.054935 -1.0545007
-2.4369638 -2.0541239 -1.0620267
-2.4299073 -2.0228159 -1.0531919
-2.4393528 -2.0054688 -1.051883
-2.4618857 -1.9987984 -1.0564641
-2.4777911 -1.9866091 -1.0581001
-2.4877107 -1.9696094 -1.0571185
-2.5116637 -1.9636158 -1.062354
-2.5303988 -1.953362 -1.0652989
-2.5438404 -1.938944 -1.0659534
-2.5556896 -1.9232988 -1.0659534
-2.5773058 -1.9149039 -1.0702072
-2.5775747 -1.8906745 -1.0652989
-2.5975482 -1.8809165 -1.0688983
-2.5975063 -1.8567045 -1.0639901
-2.6057606 -1.8385535 -1.0626812
-2.5960507 -1.8079571 -1.0538464
-2.5985272 -1.7861092 -1.050247
-2.6016157 -1.7648294 -1.0469748
-2.6155372 -1.7509345 -1.0482836
-2.638061 -1.7426611 -1.0531919
-2.6692915 -1.7398498 -1.0616995
-2.7315898 -1.7566427 -1.0829687
-2.707201 -1.7175874 -1.0685711
-2.7305079 -1.7089605 -1.0738066
-2.7578316 -1.7025926 -1.0806782
-2.79971 -1.7047945 -1.0934397
-2.9178829 -1.7522494 -1.1369597
-2.8228593 -1.671753 -1.0944213
-2.857549 -1.6686877 -1.1042379
-2.8718295 -1.6534787 -1.1058739
-2.9000039 -1.6460823 -1.1130728
-2.9199471 -1.6337907 -1.1169994
-2.9572282 -1.6308932 -1.1277976
-3.0053775 -1.6334618 -1.1428496
-3.0570011 -1.6372837 -1.1592104
-3.1188135 -1.6458216 -1.179498
-3.1959379 -1.6615024 -1.2056754
-3.2397208 -1.6590793 -1.2187641
-3.2878125 -1.6583073 -1.2334889
-3.3283973 -1.6532259 -1.2452688
-3.3639486 -1.6452191 -1.2550853
-3.4684992 -1.6700217 -1.2914065
-3.5512726 -1.6830858 -1.3192201
-4.2227407 -1.9694452 -1.5718322
-4.1900816 -1.9230132 -1.554817
-3.8676095 -1.7464678 -1.4278563
-3.811749 -1.6931846 -1.4026606
-3.8116739 -1.6652275 -1.398734
-3.8417914 -1.6503812 -1.40626
-3.985918 -1.6833574 -1.4566516
-3.9952991 -1.6585065 -1.4563243
-4.0307765 -1.6443046 -1.4658136
-4.1416693 -1.6599426 -1.5034437
-4.259058 -1.6767017 -1.5433643
-4.3239164 -1.6716496 -1.5636518
-4.4047747 -1.6718959 -1.5898292
-4.5114775 -1.6807725 -1.625496
-4.5909367 -1.6783499 -1.651019
-4.6367307 -1.6629004 -1.6641077
-4.7324295 -1.664498 -1.6955206
-4.7854366 -1.6502059 -1.7112271
-4.8473978 -1.6383489 -1.7302057
-4.9004202 -1.6228244 -1.7459122
-4.9732094 -1.6131202 -1.7688174
-5.058671 -1.6065847 -1.7963037
-5.176724 -1.609151 -1.8355699
-5.3085566 -1.6144493 -1.8797443
-5.3699927 -1.5971909 -1.8983957
-5.4468412 -1.5837207 -1.9226098
-5.4719095 -1.5546569 -1.9281725
-5.4886308 -1.5230725 -1.9307903
-5.5106425 -1.4928228 -1.9353713
-5.5233531 -1.4599471 -1.9366802
-5.5267167 -1.4246149 -1.9347169
-5.5353537 -1.3906769 -1.9347169
-5.5538797 -1.3591552 -1.9383162
-5.5547605 -1.3233012 -1.9356985
-5.575664 -1.2921771 -1.9402796
-5.5890188 -1.2591861 -1.9422429
-5.5532522 -1.2153823 -1.9268637
-5.5744705 -1.1842279 -1.9317719
-5.5733023 -1.1482868 -1.9288269
-5.5932169 -1.1166555 -1.933408
-5.6148081 -1.0851811 -1.9386435
-5.6148586 -1.0494949 -1.936353
-5.6277022 -1.0161971 -1.9386435
-5.6338315 -0.98164701 -1.9386435
-5.6481361 -0.94846672 -1.9415885
-5.665977 -0.91575015 -1.9458423
-5.6705551 -0.88082224 -1.945515
-5.6758533 -0.84601182 -1.945515
-5.668776 -0.80943549 -1.9412613
-5.6829987 -0.77591372 -1.9445335
-0 -0 -0
-0 -0 -0
-0 -0 -0
-0 -0 -0
-0 -0 -0
-0 -0 -0
-0 -0 -0
-0 -0 -0
-0 -0 -0
-0 -0 -0
-0 -0 -0
-0 -0 -0
-0 -0 -0
-0 -0 -0
-0 -0 -0
-0 -0 -0
-0 -0 -0
-0 -0 -0
-0 -0 -0
-0 -0 -0
-0 -0 -0
-0 -0 -0
-0 0 -0
-0 0 -0
-0 0 -0
-0 0 -0
-0 0 -0
-0 0 -0
-0 0 -0
-0 0 -0
-0 0 -0
-0 0 -0
-0 0 -0
-0 -0 -0
-0 -0 -0
-0 -0 -0
-0 -0 -0
-0 -0 -0
-0 0 -0
-0 0 -0
-0 0 -0
-0 0 -0
-0 0 -0
-0 0 -0
-0 0 -0
-0 0 -0
-0 0 -0
-0 0 -0
-0 0 -0
-0 0 -0
-0 0 -0
-0 0 -0
-0 0 -0
-0 0 -0
-0 0 -0
-0 0 -0
-0 0 -0
-0 0 -0
-0 0 -0
-0 0 -0
-0 0 -0
-0 0 -0
-0 0 -0
-0 0 -0
-0 0 -0
-0 0 -0
-0 0 -0
-0 0 -0
-5.399992 1.033905 -1.929999
-5.3916998 1.0666541 -1.9293238
-5.3915091 1.1010348 -1.9316869
-5.3846521 1.1340957 -1.9316869
-5.3729925 1.166116 -1.929999
-5.3620615 1.1982414 -1.9286486
-5.3509388 1.2302763 -1.9272983
-5.3478694 1.2641683 -1.9289862
-5.3381829 1.2965143 -1.928311
-5.3346934 1.3303828 -1.929999
-5.3300776 1.364024 -1.9313493
-5.3206973 1.3964642 -1.9310117
-5.308393 1.4281071 -1.9296614
-5.3076973 1.4629024 -1.9326997
-5.2886562 1.4926306 -1.9289862
-5.2676415 1.5216579 -1.9245975
-5.2609138 1.554751 -1.9256103
-5.2404623 1.5837352 -1.9215592
-5.2288475 1.6153048 -1.9208841
-5.2143493 1.6459416 -1.9191961
-5.2068396 1.6787716 -1.9202089
-5.1955466 1.7103943 -1.9198713
-5.1858463 1.7425411 -1.9202089
-5.1688237 1.7721915 -1.9178458
-5.1694036 1.8079123 -1.9222344
-5.1555533 1.8386488 -1.9212216
-5.1406355 1.8689618 -1.9198713
-5.1246576 1.898834 -1.9181833
-5.1067457 1.9279158 -1.9158202
-5.0851555 1.9554983 -1.9121068
-5.0748143 1.9873497 -1.912782
-5.0616503 2.0181022 -1.9124444
-5.0535331 2.0508914 -1.9141324
-5.0434642 2.0829384 -1.915145
-5.0357952 2.1160328 -1.9171706
-5.0270448 2.1487417 -1.9188585
-5.0189452 2.1817977 -1.9208841
-4.9994369 2.2098889 -1.9185209
-4.9771972 2.2366657 -1.915145
-4.9710855 2.2706823 -1.9181833
-4.9468136 2.2963862 -1.9141324
-4.9258189 2.3234839 -1.9114317
-4.9106207 2.3532579 -1.9110941
-4.8977818 2.3841684 -1.9117692
-4.8822169 2.4137585 -1.9114317
-4.8647904 2.4424031 -1.9104189
-4.8455195 2.4700696 -1.9087309
-4.8311081 2.5001874 -1.9090685
-4.8223429 2.5332849 -1.9117692
-4.8108616 2.5650406 -1.9134572
-4.7933764 2.5936153 -1.912782
-4.7806726 2.62479 -1.9141324
-4.7644773 2.6540742 -1.9141324
-4.7481022 2.6832585 -1.9141324
-4.7290988 2.7109377 -1.9131196
-4.7115622 2.7394307 -1.912782
-4.691421 2.7663765 -1.9114317
-4.6792059 2.7980087 -1.9134572
-4.6603398 2.825691 -1.912782
-4.6437159 2.8547261 -1.9131196
-4.6253133 2.8826678 -1.912782
-4.6107221 2.9130049 -1.9141324
-4.5919685 2.9407332 -1.9137948
-4.5730486 2.9683414 -1.9134572
-4.5516033 2.994276 -1.9121068
-4.5394111 3.0263245 -1.9148074
-4.5207562 3.0541208 -1.9148074
-4.4957175 3.0775487 -1.9121068
-4.4914455 3.115268 -1.9185209
-4.4668546 3.1389802 -1.9161578
-4.454412 3.171242 -1.9191961
-4.4302888 3.1952107 -1.9171706
-4.4075594 3.2201135 -1.9158202
-4.3892317 3.2482169 -1.9164954
-4.3616862 3.2694423 -1.9131196
-4.3213 3.280777 -1.9040047
-4.3122816 3.3158362 -1.9090685
-4.2866559 3.3381853 -1.9067054
-4.2660923 3.3644249 -1.9067054
-4.2424264 3.3881884 -1.905355
-4.23034 3.421258 -1.9094061
-4.2056265 3.4441688 -1.9077182
-4.1873131 3.4723125 -1.9090685
-4.180347 3.5100446 -1.9158202
-4.1415181 3.520997 -1.9077182
-4.1184092 3.5451145 -1.907043
-4.0901918 3.5647523 -1.9040047
-4.0625954 3.5848002 -1.901304
-4.0335026 3.6033897 -1.8979281
-4.0092225 3.6261771 -1.8969153
-3.9834259 3.6475308 -1.8952274
-3.9678736 3.6783025 -1.8986033
-3.9472885 3.7045121 -1.899616
-3.9360852 3.7396836 -1.905355
-3.9076374 3.7585447 -1.9026543
-3.883153 3.7811375 -1.9019791
-3.8752983 3.8200903 -1.9097437
-3.8511195 3.843132 -1.9094061
-3.8268037 3.8660207 -1.9090685
-3.8010359 3.8874097 -1.9080558
-3.7659938 3.8991501 -1.9023167
-3.7458971 3.9262705 -1.9043423
-3.7210898 3.9484961 -1.9040047
-3.6987164 3.9733207 -1.9050175
-3.6723554 3.9938622 -1.9040047
-3.6534767 4.0225911 -1.907043
-3.6299829 4.0463338 -1.9077182
-3.6019652 4.0650086 -1.9060302
-3.5794349 4.0898662 -1.9073806
-3.5536571 4.1110401 -1.907043
-3.5265315 4.13062 -1.9060302
-3.498086 4.1485829 -1.9043423
-3.4773841 4.175755 -1.907043
-3.4457171 4.1897435 -1.9036671
-3.4187574 4.2093458 -1.9029919
-3.392276 4.2295094 -1.9026543
-3.3604157 4.242866 -1.8992784
-3.3325789 4.2611809 -1.8982657
-3.3046439 4.279314 -1.8972529
-3.2811782 4.3032532 -1.8989408
-3.2564108 4.325561 -1.8999536
-3.2163308 4.3273301 -1.8918515
-3.2069829 4.3705082 -1.9023167
-3.1790011 4.3885794 -1.9016416
-3.1525609 4.4087682 -1.9019791
-3.1069927 4.4018836 -1.8905011
-3.097683 4.4463506 -1.9016416
-3.0586081 4.4482112 -1.8942146
-3.0233276 4.4552121 -1.8891507
-3.0064104 4.4893203 -1.8959025
-2.980365 4.5100389 -1.8969153
-2.958806 4.5377021 -1.9009664
-2.9324355 4.5581465 -1.9019791
-2.9028986 4.5736694 -1.9009664
-2.8747804 4.5913954 -1.9009664
-2.8455646 4.6073465 -1.9002912
-2.8177307 4.625524 -1.9006288
-2.7888112 4.6419191 -1.9002912
-2.7593167 4.6573238 -1.899616
-2.7297382 4.6725416 -1.8989408
-2.6925588 4.6745219 -1.8928642
-2.6721933 4.705688 -1.8989408
-2.6437294 4.7228169 -1.8992784
-2.6156106 4.7405982 -1.8999536
-2.5828757 4.7499428 -1.8972529
-2.5536821 4.7657013 -1.8972529
-2.5138431 4.7613039 -1.8891507
-2.489794 4.7866597 -1.8932018
-2.4573717 4.7959828 -1.8908387
-2.4321394 4.8193736 -1.8942146
-2.4067123 4.8426352 -1.8975905
-2.379436 4.8623843 -1.899616
-2.3540509 4.8862205 -1.9033295
-2.3220084 4.8963203 -1.9016416
-2.2903287 4.907064 -1.9002912
-2.2597835 4.9201694 -1.8999536
-2.228776 4.9322271 -1.8992784
-2.1984704 4.9458098 -1.8992784
-2.1684592 4.9600687 -1.899616
-2.1372404 4.9715509 -1.8989408
-2.1066952 4.9845715 -1.8989408
-2.074626 4.993927 -1.8975905
-2.0432332 5.0048199 -1.8969153
-2.0110838 5.0137682 -1.8955649
-1.9806271 5.0268893 -1.8959025
-1.9490659 5.0371919 -1.8952274
-1.9197934 5.0534558 -1.8969153
-1.8917103 5.0730782 -1.8999536
-1.8589293 5.0801702 -1.8982657
-1.8293134 5.0959101 -1.8999536
-1.7948844 5.0981603 -1.8965777
-1.7623402 5.1055183 -1.8952274
-1.7273593 5.1055365 -1.8911763
-1.6965923 5.117826 -1.8918515
-1.657307 5.1039677 -1.8827366
-1.6293818 5.124805 -1.8867877
-1.5987452 5.1374025 -1.8878005
-1.5633532 5.1345091 -1.8830742
-1.5337 5.1503201 -1.8854374
-1.5023326 5.1605372 -1.885775
-1.4714127 5.1723742 -1.8867877
-1.4404041 5.1840262 -1.8878005
-1.4098009 5.197309 -1.8894883
-1.378366 5.2076817 -1.8901635
-1.3470924 5.2187753 -1.8911763
-1.315275 5.2278552 -1.8915139
-1.282052 5.231256 -1.8898259
-1.2503666 5.2408552 -1.8905011
-1.2211661 5.2612653 -1.8952274
-1.1892751 5.2704959 -1.8959025
-1.1573169 5.2795324 -1.8965777
-1.1245085 5.2846932 -1.8959025
-1.0909191 5.2859626 -1.893877
-1.0595726 5.2980947 -1.8959025
-1.0270441 5.3044963 -1.8959025
-0.99239707 5.2995958 -1.8918515
-0.95919013 5.3018804 -1.8905011
-0.92469686 5.2965388 -1.8864501
-0.89358687 5.3104672 -1.8894883
-0.86128676 5.3177085 -1.8901635
-0.82878661 5.3238235 -1.8905011
-0.7966612 5.3325324 -1.8918515
-0.76392645 5.3373199 -1.8918515
-0.73077971 5.3391089 -1.8908387
-0.6980058 5.3434925 -1.8908387
-0.66485679 5.3448725 -1.8898259
-0.63149613 5.3441777 -1.8881381
-0.59858817 5.3470163 -1.8878005
-0.56576824 5.3505888 -1.8878005
-0.53302032 5.3548961 -1.8881381
-0.49980304 5.3543167 -1.8867877
-0.46726736 5.3610339 -1.8881381
-0.43383154 5.3572326 -1.885775
-0.40130347 5.3644867 -1.8874629
-0.36812192 5.3630919 -1.8861125
-0.3356778 5.3727655 -1.8888133
-0.3023338 5.3681455 -1.8864501
-0.26972044 5.3764801 -1.8888133
-0.23651858 5.373332 -1.8871253
-0.2039009 5.384088 -1.8905011
-0.17047195 5.3730073 -1.8861125
-0.13757303 5.3767753 -1.8871253
-0.10459755 5.378459 -1.8874629
-0.07159397 5.3789997 -1.8874629
-0.038560409 5.3755727 -1.8861125
-0.0055799796 5.3794732 -1.8874629
0.02737594 5.3690519 -1.8837494
0.06042435 5.3781953 -1.8871253
0.093504593 5.3824291 -1.8888133
0.12661701 5.3855181 -1.8901635
0.15971521 5.3865218 -1.8908387
0.19296487 5.3910847 -1.8928642
0.22596157 5.387918 -1.8921891
0.25897181 5.3854899 -1.8918515
0.29140079 5.3725204 -1.8878005
0.32436046 5.3706312 -1.8878005
0.35680842 5.3610263 -1.8850998
0.38942352 5.3549809 -1.8837494
0.42160809 5.3440452 -1.8807111
0.45391229 5.3357301 -1.8786856
0.48672864 5.3337817 -1.8790232
0.51981187 5.3344426 -1.8803735
0.55321234 5.3377066 -1.8827366
0.58718604 5.3454394 -1.8867877
0.62019086 5.343606 -1.8874629
0.65308112 5.3406343 -1.8878005
0.68583834 5.3365269 -1.8878005
0.71970052 5.3406138 -1.8908387
0.75153685 5.3295727 -1.8884757
0.78422433 5.324861 -1.8884757
0.81659669 5.3180881 -1.8878005
0.84995502 5.317625 -1.8894883
0.88272154 5.3132381 -1.8898259
0.91482663 5.3049393 -1.8888133
0.94719434 5.2982993 -1.8884757
0.97831613 5.2849832 -1.885775
1.0107257 5.2788806 -1.885775
1.0420017 5.2670393 -1.8837494
1.0737352 5.2577796 -1.8827366
1.106558 5.2538557 -1.8837494
1.1403707 5.2543263 -1.8864501
1.1719736 5.2444744 -1.8854374
1.206872 5.2491102 -1.8898259
1.2399231 5.2452703 -1.8911763
1.2743051 5.2467108 -1.8945522
1.304425 5.2305732 -1.8915139
1.3409274 5.2397971 -1.8979281
1.3666029 5.2068882 -1.8888133
1.3965702 5.191133 -1.8861125
1.4271458 5.1779284 -1.8844246
1.458379 5.1672626 -1.8837494
1.4900572 5.1582165 -1.8837494
1.5251466 5.1607122 -1.8881381
1.5600504 5.1620698 -1.8921891
1.5928059 5.1559978 -1.8935394
1.6246958 5.1470251 -1.893877
1.6562468 5.1369591 -1.893877
1.6871468 5.1249118 -1.8932018
1.7182611 5.1135707 -1.8928642
1.7499104 5.1038218 -1.8932018
1.7811939 5.0929885 -1.8932018
1.813991 5.0863967 -1.8948898
1.8454878 5.076055 -1.8952274
1.8775802 5.0672841 -1.8962401
1.9073075 5.0521455 -1.8948898
1.9372576 5.0377111 -1.893877
1.968132 5.0257297 -1.893877
1.9957954 5.0056896 -1.8908387
2.0285954 4.9985824 -1.8928642
2.0603058 4.9886513 -1.893877
2.0919704 4.978519 -1.8948898
2.1217389 4.9638581 -1.8942146
2.1514063 4.9490194 -1.8935394
2.177547 4.9262547 -1.8898259
2.2065756 4.9102254 -1.8888133
2.2319703 4.8863187 -1.8847622
2.2591362 4.8665547 -1.8823991
2.2861438 4.846642 -1.8800359
2.3166525 4.8342209 -1.8807111
2.3462713 4.8199153 -1.8807111
2.3783042 4.8104911 -1.8827366
2.4090428 4.7983313 -1.8837494
