# .PCD v0.7 - Point Cloud Data file format
VERSION 0.7
FIELDS x y z
SIZE 4 4 4
TYPE F F F
COUNT 1 1 1
WIDTH 1548
HEIGHT 1
VIEWPOINT 0 0 0 1 0 0 0
POINTS 1548
DATA ascii
4.4145889 15.944466 -0.80979741
5.8307419 20.566439 -1.057147
5.9468055 20.495747 -1.0553069
4.3372669 14.613978 -0.74324459
6.1862683 20.383001 -1.0532622
7.801333 25.147215 -1.3106307
7.9621258 25.119818 -1.3117552
8.1268759 25.103745 -1.3135443
8.2867117 25.071423 -1.3145155
8.4525232 25.056065 -1.3164579
8.6230097 25.052832 -1.3191159
8.7993975 25.064468 -1.3226428
8.9648066 25.042913 -1.3244319
9.1295977 25.018394 -1.3261187
9.2992983 25.005899 -1.3285211
9.4783907 25.016544 -1.3322526
9.6475334 24.998909 -1.3345017
9.8208342 24.990364 -1.3373131
9.9873438 24.963015 -1.3391533
10.152004 24.929935 -1.3407378
10.325046 24.916073 -1.343447
10.498686 24.901943 -1.3462073
10.672542 24.886618 -1.3489676
6.3994055 14.674345 -0.7823993
11.056494 24.932711 -1.3589863
11.234719 24.920847 -1.3621554
11.402814 24.885036 -1.3640467
11.571734 24.849909 -1.3660402
11.772264 24.880445 -1.3718163
11.991342 24.946358 -1.3796881
12.176612 24.938719 -1.3834708
12.356471 24.918112 -1.3865888
12.538331 24.899803 -1.3899113
12.724977 24.88909 -1.3937451
12.923005 24.898294 -1.3988055
8.4150057 15.973323 -0.8870846
13.326943 24.923658 -1.409591
13.525826 24.926559 -1.4145492
13.743551 24.961201 -1.4214498
13.961721 24.993231 -1.4282993
8.3706827 14.771923 -0.8320328
11.89213 20.688347 -1.1843745
14.587921 25.021025 -1.4454231
14.829114 25.079763 -1.4542662
15.052571 25.104786 -1.461218
15.24991 25.083633 -1.4655117
15.46485 25.089056 -1.4714923
15.683604 25.097862 -1.4777795
10.044252 15.856897 -0.92373466
16.165253 25.175783 -1.494341
16.366274 25.148106 -1.498737
10.206846 15.47592 -0.91187578
10.308828 15.423794 -0.91254032
10.645232 15.71745 -0.93462235
17.409159 25.366314 -1.5376873
10.543087 15.162556 -0.90824658
17.827272 25.304251 -1.5472971
18.012371 25.236656 -1.5499551
18.265778 25.262428 -1.5585936
18.502472 25.261866 -1.5656987
18.79221 25.329924 -1.5773021
19.061275 25.365831 -1.5870141
19.297007 25.354088 -1.5938125
19.488188 25.281874 -1.5968283
19.653397 25.175201 -1.5976973
0 0 -0
0 0 -0
0 0 -0
12.072 14.705723 -0.93682033
0 0 -0
21.211777 25.201088 -1.6489666
17.921572 21.029116 -1.3771834
18.058748 20.928583 -1.377848
21.77916 24.928968 -1.6572984
22.007807 24.880888 -1.6631768
22.229351 24.822752 -1.6684928
22.432224 24.742117 -1.6723776
22.630217 24.654774 -1.6759046
22.787188 24.522038 -1.6763647
23.000866 24.449404 -1.6811184
23.198666 24.358433 -1.6846966
23.414932 24.285366 -1.6896547
15.819405 16.207817 -1.1222175
23.846668 24.133301 -1.6995201
24.102365 24.094551 -1.7073408
24.285286 23.981293 -1.7098967
24.475586 23.874367 -1.7130147
16.320639 15.72602 -1.1230354
16.577429 15.778428 -1.1343831
25.294357 23.780298 -1.7399528
25.462481 23.645714 -1.7415373
17.000469 15.594831 -1.1437885
23.494865 21.287676 -1.5857362
23.675648 21.1884 -1.5892121
23.798477 21.036777 -1.588752
24.044472 20.992819 -1.5967261
24.184175 20.854671 -1.5974928
26.367626 22.456774 -1.7357101
0 0 -0
26.496025 22.010904 -1.7260492
26.562635 21.792173 -1.7215511
26.661707 21.601116 -1.7193019
26.753975 21.405298 -1.7166951
26.862085 21.222782 -1.7152127
19.892273 15.519277 -1.2543521
19.998991 15.40607 -1.2551188
27.211611 20.696934 -1.7128613
27.371634 20.554764 -1.7150083
27.552597 20.427465 -1.7185352
27.637123 20.228529 -1.7159795
0 0 -0
23.182827 16.535484 -1.4204786
22.758759 16.023268 -1.3876112
22.898474 15.912384 -1.390218
28.53042 19.567244 -1.7337166
28.621826 19.372784 -1.7319787
28.749292 19.2029 -1.732541
28.828218 19.000856 -1.7301896
29.007055 18.864445 -1.7340233
0 0 -0
28.993338 18.353233 -1.7193019
29.138443 18.195618 -1.7212955
29.480833 18.158941 -1.735199
29.065918 17.658306 -1.7037116
26.438251 15.840781 -1.5404986
26.473042 15.641685 -1.5368183
26.493443 15.43522 -1.5323713
26.525301 15.236555 -1.5286909
28.57799 16.183161 -1.6439571
28.69768 16.019186 -1.6451839
28.831306 15.862535 -1.6472797
29.520716 16.006634 -1.6817828
29.675631 15.855786 -1.6851054
29.834223 15.705965 -1.6886835
30.293524 15.711112 -1.7096411
30.522762 15.593086 -1.7173084
30.81592 15.505153 -1.7286562
31.135094 15.427063 -1.7414862
31.370087 15.304476 -1.7495114
0 0 -0
31.590748 14.935011 -1.7515049
0 0 -0
32.678799 14.96151 -1.8025696
33.445644 15.065029 -1.8404976
33.643372 14.906453 -1.8464271
0 0 -0
35.3871 15.162259 -1.9334774
35.543896 14.971978 -1.9370555
35.632324 14.752458 -1.9369022
35.966393 14.632895 -1.9503968
0 0 -0
0 0 -0
35.794472 13.800627 -1.9265256
0 0 -0
35.628788 13.236873 -1.9083796
0 0 -0
0 0 -0
35.516758 12.45621 -1.8894155
0 0 -0
0 0 -0
35.290501 11.65195 -1.8651866
35.186485 11.378656 -1.8557813
35.311817 11.180326 -1.8587971
34.806431 10.785805 -1.8280765
0 0 -0
34.590508 10.255395 -1.8096237
0 0 -0
34.50235 9.7702875 -1.7983782
34.501007 9.5416317 -1.7951579
34.515518 9.3180456 -1.7928576
34.498642 9.0867577 -1.7889729
0 0 -0
34.17062 8.5533667 -1.7659196
0 0 -0
34.106846 8.0939703 -1.7571788
34.126675 7.8778038 -1.7556453
34.155857 7.6641045 -1.7546741
34.151497 7.4433265 -1.7520161
34.204342 7.2352901 -1.7524251
34.270596 7.0298948 -1.7536007
34.269005 6.8107228 -1.7513005
34.29348 6.5971174 -1.7504315
34.407932 6.4004507 -1.7543163
34.407238 6.1821437 -1.7522717
34.478966 5.9768777 -1.7540607
34.494305 5.7617517 -1.7529873
34.667053 5.5721741 -1.7601435
34.723293 5.3628616 -1.7613192
34.711086 5.143117 -1.759019
34.828018 4.9422412 -1.763466
34.879459 4.7314 -1.7645906
0 0 -0
34.987427 4.3094883 -1.7672998
35.007259 4.0940323 -1.766993
35.121059 3.8890443 -1.7715935
0 0 -0
35.355972 3.4764216 -1.7813566
35.359734 3.2578588 -1.7804877
0 0 -0
35.438862 2.8270292 -1.7826345
35.389805 2.6046913 -1.7792609
35.355297 2.3841364 -1.776705
35.374245 2.1674609 -1.7769606
35.420784 1.9522352 -1.7786986
35.437084 1.7351047 -1.7789541
35.5658 1.5227139 -1.7850369
35.460697 1.3002894 -1.7792097
35.46701 1.0826517 -1.7791586
35.700619 0.87055326 -1.7908131
35.614422 0.649827 -1.7861615
35.722595 0.43255499 -1.7915287
0 0 -0
0 -0 -0
31.178547 -0.19626781 -1.5588492
27.342073 -0.33975804 -1.3625643
27.327492 -0.5072965 -1.361951
27.310886 -0.67464411 -1.3612864
27.27429 -0.84122133 -1.3596507
26.181782 -0.96831328 -1.3039856
25.456959 -1.0979273 -1.2671821
27.309046 -1.3458152 -1.3624622
27.31922 -1.5144061 -1.3634334
25.729483 -1.5846287 -1.2824147
25.681412 -1.739905 -1.2804723
25.644358 -1.8955352 -1.2791432
19.633352 -1.5721338 -0.97111911
25.494791 -2.1993532 -1.2727538
19.934782 -1.8427497 -0.98768061
19.917137 -1.964444 -0.98737395
19.904709 -2.0866163 -0.98737395
30.718658 -3.4115679 -1.5449457
10.596482 -1.2419276 -0.50908279
10.588662 -1.306923 -0.50908279
10.57153 -1.3707125 -0.50862277
10.560942 -1.4352832 -0.50852054
10.582587 -1.5044175 -0.51010513
10.579084 -1.5702032 -0.5104118
13.868576 -2.1458666 -0.68129212
13.848247 -2.2298105 -0.68093431
14.301188 -2.3928981 -0.70516324
13.704718 -2.3795829 -0.67495376
13.776353 -2.4792016 -0.679452
29.229876 -5.446929 -1.4848335
28.968395 -5.5823259 -1.4729747
28.843487 -5.7420254 -1.468272
28.884993 -5.9347792 -1.4723101
28.681944 -6.0767069 -1.4636204
28.581673 -6.2389479 -1.460349
28.479519 -6.3999691 -1.4570265
28.30349 -6.5430984 -1.4498702
28.093748 -6.6764574 -1.440976
28.007624 -6.8378139 -1.4386247
27.93511 -7.0020084 -1.4370402
27.86454 -7.166317 -1.4356089
24.82649 -6.5475173 -1.2771498
8.1448412 -2.2007766 -0.39483887
8.1513958 -2.2563086 -0.39591229
7.924098 -2.2457974 -0.38456458
7.9303102 -2.3002217 -0.385638
7.9754057 -2.3664596 -0.38880718
7.9760256 -2.4199927 -0.38962504
7.9829645 -2.4756939 -0.39080071
8.1542158 -2.5837824 -0.40081942
7.893075 -2.5543976 -0.38763154
26.45204 -8.7431068 -1.3889401
26.435745 -8.9180193 -1.3909848
26.335201 -9.064455 -1.3885312
26.670139 -9.3631802 -1.4097443
26.670483 -9.5475206 -1.4129134
18.894062 -6.8944302 -0.99243438
25.824003 -9.6035786 -1.3731965
18.23369 -6.9081316 -0.96099812
18.593454 -7.1752315 -0.98308021
18.468214 -7.257401 -0.97863311
18.802568 -7.5223279 -0.99953949
25.204639 -10.263883 -1.3559192
18.251234 -7.5628452 -0.974186
25.040897 -10.557277 -1.3539258
24.960045 -10.704034 -1.3530568
24.817919 -10.823844 -1.3488141
24.693521 -10.950412 -1.3455939
24.57033 -11.076683 -1.3424758
24.461048 -11.208512 -1.3401756
24.385475 -11.35544 -1.3398178
24.296383 -11.495882 -1.3387444
24.202887 -11.633928 -1.3374665
24.041306 -11.738393 -1.3323549
23.92588 -11.864388 -1.3299013
23.832117 -12.00064 -1.3287257
23.737583 -12.136188 -1.3275499
23.63785 -12.268727 -1.3261187
23.547989 -12.406087 -1.3253009
23.423866 -12.52491 -1.3225406
23.369396 -12.680785 -1.3238696
12.892041 -7.0976706 -0.71625537
23.278286 -13.003627 -1.3277545
23.311878 -13.210723 -1.3344506
12.5012 -7.1854401 -0.70102286
12.600091 -7.3455172 -0.70950812
12.584869 -7.4404831 -0.71129715
22.849604 -13.700265 -1.3266299
12.400455 -7.5383234 -0.70577663
22.272543 -13.728603 -1.3021454
21.957529 -13.721044 -1.2882419
21.805433 -13.812757 -1.2841526
21.690016 -13.926866 -1.2823124
21.587414 -14.048796 -1.2812902
21.483299 -14.169441 -1.2802167
21.442448 -14.332074 -1.2830791
21.453327 -14.530583 -1.2892131
21.388466 -14.6789 -1.2907466
21.317675 -14.823545 -1.2919734
21.192844 -14.930485 -1.2898775
21.087015 -15.050377 -1.2890086
20.897158 -15.109259 -1.2828747
20.581688 -15.074316 -1.2687668
20.433466 -15.159259 -1.2652397
19.041908 -14.30877 -1.1821253
18.969646 -14.437437 -1.1831477
19.982498 -15.402929 -1.2543521
19.795509 -15.453343 -1.2483715
19.166815 -15.152704 -1.2135617
19.047752 -15.249426 -1.2118748
18.941414 -15.355949 -1.2110569
18.780453 -15.417383 -1.206661
18.588736 -15.451884 -1.2002203
18.417934 -15.501981 -1.1951599
18.266224 -15.566761 -1.1913773
18.135584 -15.648534 -1.189026
17.903101 -15.640583 -1.179774
17.70207 -15.657503 -1.1726178
17.464314 -15.639234 -1.1629058
17.299217 -15.683712 -1.158152
17.112165 -15.706494 -1.1518648
16.864767 -15.671146 -1.1413349
16.832304 -15.834553 -1.1458331
16.825947 -16.024323 -1.1522737
16.721556 -16.121717 -1.1518648
16.537989 -16.141697 -1.1458331
16.033728 -15.842743 -1.1166971
15.937628 -15.942239 -1.1167992
15.481643 -15.677303 -1.0907302
15.347502 -15.733396 -1.0879699
15.149508 -15.722267 -1.080507
14.975641 -15.733902 -1.074782
14.736536 -15.674144 -1.06415
14.557857 -15.675719 -1.0579649
14.437096 -15.738255 -1.0561248
6.8926153 -7.6060944 -0.48838088
14.424689 -16.117405 -1.0700794
6.7379088 -7.6212621 -0.48367822
6.6864209 -7.6571951 -0.48332042
6.6217031 -7.6776567 -0.4819403
14.849741 -17.435217 -1.135201
14.78298 -17.574156 -1.1384213
6.5500941 -7.883513 -0.48761415
6.4768953 -7.8934422 -0.48562062
14.1194 -17.426575 -1.110972
14.08645 -17.605682 -1.1170548
14.015924 -17.739586 -1.120173
2.0237055 -2.5922935 -0.1313366
1.9974011 -2.5912118 -0.13046762
1.9681637 -2.5859306 -0.12934308
1.9540588 -2.6003542 -0.12949643
1.9386612 -2.6130974 -0.12954754
1.9225911 -2.6249437 -0.12954754
1.9117124 -2.6439767 -0.13000758
1.9389454 -2.7166383 -0.13384128
13.016566 -18.487789 -1.1202751
12.922257 -18.595194 -1.1220131
10.050979 -14.654033 -0.87251657
12.833594 -18.959965 -1.1348432
12.690947 -18.999321 -1.1324407
12.552696 -19.044312 -1.1304473
12.433429 -19.117626 -1.1302427
12.312117 -19.187672 -1.129885
12.25344 -19.356525 -1.1355588
11.936086 -19.113678 -1.1163903
11.813344 -19.178053 -1.1158792
11.697002 -19.252737 -1.1160326
11.527837 -19.239332 -1.110972
11.451734 -19.381071 -1.1152147
11.349187 -19.47945 -1.1169015
11.601012 -20.195629 -1.1550851
11.45178 -20.222111 -1.1524781
11.101149 -19.886494 -1.1287093
10.892752 -19.797607 -1.1195595
10.773927 -19.869339 -1.1198663
10.671574 -19.972069 -1.1220131
10.422294 -19.796797 -1.1081096
10.411889 -20.074924 -1.1204796
10.24899 -20.061056 -1.1160326
10.101018 -20.074497 -1.1132212
9.9869642 -20.15489 -1.1142946
9.8420906 -20.172707 -1.1118411
9.7081833 -20.212011 -1.1106654
9.6249571 -20.357876 -1.1155725
6.8989358 -14.826035 -0.7999832
9.2896051 -20.289211 -1.1051449
8.8893328 -19.73391 -1.0707951
9.1127415 -20.566038 -1.1143457
8.3141956 -19.07885 -1.0282155
8.2555752 -19.266285 -1.0358318
8.1406927 -19.324862 -1.0362918
8.2844 -20.008375 -1.0714084
8.0233603 -19.719328 -1.0526489
7.867002 -19.680088 -1.0477929
7.8402572 -19.967831 -1.0609808
7.7682424 -20.146952 -1.0681881
7.7123518 -20.373571 -1.0780023
7.5496368 -20.319403 -1.0724819
7.3988228 -20.294033 -1.0685971
7.3319993 -20.500795 -1.077389
7.1221266 -20.306021 -1.0644056
7.0357118 -20.460783 -1.0704372
6.9180069 -20.527227 -1.0717151
6.7869143 -20.554115 -1.0708972
6.6631274 -20.602976 -1.0713061
6.5504498 -20.687269 -1.0736575
6.3704839 -20.556314 -1.0645077
6.2645125 -20.661919 -1.0680859
5.654223 -19.069336 -0.98103553
6.0927658 -21.02117 -1.0832162
5.9653001 -21.063925 -1.0835229
5.526114 -19.9797 -1.024024
4.0143886 -14.867385 -0.75121862
3.9218168 -14.886908 -0.75096309
5.2505717 -20.440773 -1.0431924
5.005754 -19.995951 -1.0180434
4.8642817 -19.949636 -1.0140053
4.9029465 -20.658335 -1.0497353
4.7783432 -20.697762 -1.0502465
0.53610432 -2.3842499 -0.088092573
0.52316588 -2.3953009 -0.088501506
0.50825208 -2.3974888 -0.088450387
0.49453506 -2.4054539 -0.088705964
0.48073938 -2.4133408 -0.088961542
0.46384743 -2.4054573 -0.088399269
0.44871387 -2.4062943 -0.088297039
0.43605965 -2.4207978 -0.088910431
0.42102715 -2.4224439 -0.088859312
0.4737666 -2.8298376 -0.10986793
0.45639411 -2.8326912 -0.10986793
0.44174773 -2.8532043 -0.11078802
0.42057386 -2.8311632 -0.10951012
0.40403593 -2.8396232 -0.10981682
0.38579947 -2.8361111 -0.10951012
0.36710879 -2.8285205 -0.10899896
0.34608471 -2.8009837 -0.10746548
0.33515418 -2.8566191 -0.11022574
0.32531181 -2.9281058 -0.11380386
0.20489796 -1.9496746 -0.063352495
0.19293112 -1.9508952 -0.063352495
0.18077382 -1.9500533 -0.063250266
0.2475412 -2.8675456 -0.11032797
0.24589756 -3.0691125 -0.12060227
0.14360346 -1.9361184 -0.062381297
0.13205676 -1.9419452 -0.062636875
0.11861259 -1.9177983 -0.061358981
0.10678805 -1.9174927 -0.061307862
0.094532445 -1.908137 -0.060796704
0.082822561 -1.908681 -0.060796704
0.071146116 -1.9101514 -0.060847823
0.059211235 -1.9035643 -0.060490008
0.04791908 -1.9198662 -0.061307862
0.03657458 -1.9440887 -0.062534645
0.024464296 -1.9292972 -0.061767906
0.012376756 -1.8874667 -0.05962104
0.00080191257 -1.8535515 -0.057883102
-0.010381562 -1.8235613 -0.056349624
-0.021545626 -1.8214661 -0.056247395
-0.034040615 -1.8921945 -0.059876621
-0.045773789 -1.896942 -0.060132198
-0.056857392 -1.8786575 -0.059212115
-0.069270469 -1.9022255 -0.060438894
-0.18182977 -4.2385259 -0.18015224
-0.20680025 -4.2163835 -0.1790788
-0 -0 -0
-0.18375823 -3.000421 -0.11687081
-0.20034112 -2.9723341 -0.11549067
-0.27743274 -3.7668309 -0.15633225
-1.6846148 -21.03701 -1.0431924
-0.30422768 -3.5382743 -0.14478007
-0.26761448 -2.9058611 -0.11237261
-0.28416437 -2.8912442 -0.1117081
-0.30512896 -2.9202366 -0.11329269
-0.39251345 -3.5436387 -0.14549568
-0.45195049 -3.8625362 -0.16205722
-0.47637674 -3.8656373 -0.16236392
-0.50085801 -3.8685837 -0.16267061
-0.33803144 -2.4938786 -0.091824032
-0.54576176 -3.8443489 -0.16175053
-0.45195386 -3.0506442 -0.12085784
-0.47127491 -3.0517614 -0.12106231
-0.4911032 -3.0557141 -0.12142012
-0.63400632 -3.794338 -0.15991037
-0.539846 -3.1143985 -0.12479376
-3.6158531 -20.089447 -1.0077691
-4.1689029 -22.373095 -1.1278403
-3.9418731 -20.457394 -1.02934
-0.51762563 -2.6055822 -0.098980255
-0.53219622 -2.5955093 -0.098622441
-0.91062582 -4.302918 -0.18812631
-0.90633553 -4.1567473 -0.18076563
-0.9624846 -4.2875218 -0.18792185
-4.8352695 -20.917284 -1.0618497
-5.2755337 -22.199884 -1.1309073
-0.68683207 -2.8176789 -0.11145253
-0.69973671 -2.7959747 -0.11053244
-0.72359675 -2.8177431 -0.11191256
-0.73628747 -2.7958684 -0.11099248
-0.61789465 -2.2899756 -0.084412232
-0.61194253 -2.2139564 -0.080578543
-0.62742275 -2.2168856 -0.080936357
-0.74873263 -2.5841737 -0.10071819
-0.76173246 -2.569957 -0.10020704
-0.6718933 -2.2173843 -0.08160086
-0.79143673 -2.5546927 -0.099900343
-0.7995522 -2.5259886 -0.098622441
-0.8248806 -2.551439 -0.10025815
-0.869672 -2.6345148 -0.10501193
-0.72395068 -2.1493628 -0.079096183
-0.62009996 -1.8049296 -0.060694475
-0.6678884 -1.9056855 -0.066368334
-1.2043815 -3.3673968 -0.14605796
-1.5153733 -4.1555066 -0.18940422
-0.7582081 -2.0419002 -0.074495755
-0.72011727 -1.903663 -0.067186192
-7.9088311 -20.494127 -1.0873566
-1.2004362 -3.0574603 -0.13113213
-1.2113825 -3.0305655 -0.13005869
-1.3361832 -3.2839046 -0.14447337
-1.397603 -3.3752844 -0.14999388
-1.1815962 -2.8053031 -0.11881321
-1.7565992 -4.0985723 -0.19124438
-1.2794182 -2.9361408 -0.12694062
-1.3180594 -2.9747949 -0.12954754
-1.7861791 -3.9644866 -0.18557052
-1.7376599 -3.7945702 -0.17662525
-0.85061896 -1.829234 -0.066266105
-0.86139971 -1.8230776 -0.066214986
-0.87256974 -1.8177577 -0.066214986
-0.88545972 -1.8159592 -0.066419452
-0.89791673 -1.813176 -0.0665728
-0.9184584 -1.8263638 -0.067646228
-0.92373687 -1.8091342 -0.066981725
-0.96518743 -1.8619339 -0.070355371
-0.96029997 -1.8250524 -0.068566315
-0.97195113 -1.8200065 -0.068617433
-0.98071843 -1.8096195 -0.068361856
-0.98746806 -1.7956945 -0.067901812
-0.99749351 -1.7878579 -0.067799576
-1.4792026 -2.6123271 -0.11666634
-1.4688231 -2.5573134 -0.1139572
-1.4527947 -2.4939001 -0.1107369
-1.4680697 -2.4849389 -0.1107369
-1.495102 -2.4955838 -0.11191256
-1.1010182 -1.8130785 -0.071582153
-1.2897823 -2.094486 -0.088910431
-1.5069106 -2.413439 -0.10864116
-2.5708435 -4.0602207 -0.20898159
-5.1746016 -8.0603971 -0.4532643
-1.6921759 -2.6020815 -0.12188016
-5.3572602 -8.1238403 -0.46108502
-1.4259412 -2.135263 -0.094430946
-1.4496579 -2.1421835 -0.095402144
-1.3520046 -1.9718618 -0.085383438
-1.3446916 -1.9356518 -0.083645493
-1.3542424 -1.9240988 -0.083441034
-1.3631219 -1.9116888 -0.083185449
-1.3631223 -1.8871033 -0.082163133
-1.3664136 -1.8674242 -0.081447512
-1.3772511 -1.8582029 -0.081396401
-1.4192263 -1.8904344 -0.084003307
-1.4525746 -1.9102991 -0.085843481
-1.4435375 -1.8744578 -0.084105536
-1.4722201 -1.8876066 -0.085536785
-1.5729681 -1.9913487 -0.092897467
-1.6338445 -2.0424681 -0.096884504
-1.685971 -2.0812767 -0.1001048
-1.689204 -2.0593145 -0.099338062
-2.4028149 -2.8921449 -0.15546328
-2.50541 -2.9782004 -0.16221057
-2.4880068 -2.9209669 -0.1593992
-2.5463357 -2.9525235 -0.16256839
-2.4441557 -2.7992146 -0.15321419
-2.1132329 -2.3907025 -0.12632725
-2.1758339 -2.4312556 -0.13000758
-2.1162491 -2.3357356 -0.12433372
-2.1852448 -2.3822999 -0.1284741
-2.1094005 -2.2715487 -0.1216757
-2.1698332 -2.3080246 -0.12515157
-2.3898997 -2.5108938 -0.14043522
-3.0021112 -3.1151769 -0.18444598
-2.4602957 -2.5221126 -0.14334883
-3.0780199 -3.1164615 -0.18720622
-3.2538874 -3.2542582 -0.19855395
-2.6008177 -2.5697248 -0.15014723
-2.629405 -2.5662699 -0.15106732
-3.1255257 -3.0129604 -0.18521272
-2.6491241 -2.522794 -0.15024947
-3.1389794 -2.9524891 -0.183577
-3.1665502 -2.9420075 -0.1842415
-2.7032077 -2.4810305 -0.15081173
-3.2127764 -2.9123151 -0.18495713
-3.2677963 -2.9258461 -0.18751292
-2.8389602 -2.5108829 -0.15699676
-2.852056 -2.4914455 -0.15684341
-3.6304438 -3.1319387 -0.20841931
-3.6442704 -3.1050713 -0.2080615
-3.303272 -2.7798743 -0.18398593
-4.2298431 -3.5151091 -0.2445071
-3.3471742 -2.7473631 -0.18465044
-3.4710562 -2.813529 -0.19170442
-3.4196286 -2.7372758 -0.18720622
-3.5578258 -2.8122013 -0.19512919
-11.045424 -8.6179228 -0.68006539
-3.2558119 -2.5093219 -0.17340495
-3.0104153 -2.2910006 -0.15663895
-3.0228188 -2.2712865 -0.15653671
-3.0342915 -2.250912 -0.15638337
-3.0440161 -2.2293022 -0.15612778
-3.1369698 -2.2679002 -0.16113715
-3.054882 -2.1801817 -0.15510547
-3.0600357 -2.1556473 -0.15459432
-3.0699244 -2.1345513 -0.15438984
-4.3414588 -2.9787354 -0.23249489
-4.5531893 -3.0830259 -0.24445599
-4.6060705 -3.0777719 -0.24655175
-4.6365433 -3.0571458 -0.24726737
-4.6141896 -3.001961 -0.24476269
-5.7723227 -3.7048836 -0.3140758
-5.7004352 -3.6095726 -0.30835083
-5.7258644 -3.5766432 -0.30855528
-23.744406 -14.625812 -1.3903713
-23.828581 -14.476732 -1.3900647
-3.7808912 -2.2665291 -0.18863748
-3.8531964 -2.2778311 -0.19211335
-3.8921258 -2.268724 -0.19359571
-3.9345515 -2.261214 -0.19528253
-3.8918641 -2.2050443 -0.19196001
-3.8355567 -2.1421833 -0.18787074
-3.8407536 -2.1142759 -0.1874107
-3.8870165 -2.108758 -0.18935309
-3.9351168 -2.1036923 -0.19139773
-3.9223225 -2.0660167 -0.18991537
-4.0005317 -2.0759332 -0.19369794
-4.0452113 -2.0677028 -0.19553812
-4.3843474 -2.2071214 -0.21424653
-4.4013872 -2.1819513 -0.21445099
-7.6145854 -3.7158983 -0.39667904
-4.3918214 -2.1104813 -0.21240635
-4.4146204 -2.0881889 -0.21296862
-5.7258272 -2.6651642 -0.28626877
-5.7339001 -2.6262398 -0.28580871
-26.492344 -11.933297 -1.450177
-26.57785 -11.776182 -1.4508926
-5.8627539 -2.5557566 -0.29035804
-5.818656 -2.4941709 -0.2870355
-5.7933536 -2.4413645 -0.2847864
-5.794383 -2.4000411 -0.28401968
-5.8191762 -2.368582 -0.28458196
-9.5310049 -3.810612 -0.48838088
-9.5960398 -3.768482 -0.49068111
-23.272356 -8.9731388 -1.2396307
-23.302691 -8.820982 -1.2383016
-28.308779 -10.517586 -1.5087045
-28.388733 -10.349504 -1.5095736
-28.468628 -10.181171 -1.5104936
-28.550354 -10.01324 -1.5115671
-28.664145 -9.8560524 -1.5144296
-11.525928 -3.884963 -0.58555216
-7.8348675 -2.5878122 -0.3853313
-7.810688 -2.5267847 -0.38318443
-28.777424 -9.1116514 -1.5079889
-28.824205 -8.9322443 -1.5075289
-28.84693 -8.7456541 -1.5058421
-28.883772 -8.5636625 -1.5049732
-29.532413 -8.5591688 -1.5367672
-9.7385559 -2.7586088 -0.48107132
-9.6792555 -2.6777744 -0.47703317
-12.958302 -3.4990664 -0.65000921
-9.6843462 -2.551672 -0.47560191
-9.7007875 -2.4924502 -0.47565302
-18.054453 -4.5198398 -0.91560727
-13.078111 -3.1892242 -0.65200275
-13.257766 -3.1469617 -0.66043687
-13.136698 -3.0332119 -0.65307617
-15.809517 -3.54808 -0.79231578
-11.52189 -2.5119891 -0.56658816
-11.499957 -2.433392 -0.56464577
-17.82 -3.6559708 -0.89408749
-17.825445 -3.5432518 -0.89321852
-17.849792 -3.434376 -0.89337188
-19.811659 -3.6858027 -0.99442792
-19.801464 -3.5583441 -0.99274111
-18.049715 -3.1294553 -0.9006303
-32.236565 -5.3847084 -1.6358297
-32.269985 -5.1869655 -1.6358808
-20.158197 -3.1138408 -1.0070025
-25.878166 -3.8346491 -1.3019921
-32.20871 -4.5706387 -1.6280601
-32.055042 -4.3483634 -1.6187059
-18.279362 -2.366025 -0.9064064
-18.252895 -2.2488163 -0.90431064
-23.931299 -2.7990911 -1.1962334
-32.204712 -3.5662074 -1.621415
-32.760376 -3.4243751 -1.6489154
-33.195229 -3.2640352 -1.6702307
-33.612423 -3.0969291 -1.690677
-33.706417 -2.897126 -1.6945618
-0 -0 -0
-38.034187 -2.7992308 -1.9149735
-38.126377 -2.5709088 -1.9188583
-38.129471 -2.3361888 -1.9182448
-38.074284 -2.0983968 -1.9147179
-38.105392 -1.8656652 -1.9156891
-0 -0 -0
-0 -0 -0
-0 -0 -0
-0 -0 -0
-38.030857 -0.6938386 -1.9098619
-38.041389 -0.46055695 -1.9102197
-37.82679 -0.2258435 -1.8991276
-37.816475 0.0062593911 -1.8985653
-0 0 -0
-0 0 -0
-0 0 -0
-0 0 -0
-0 0 -0
-0 0 -0
-0 0 -0
-0 0 -0
-0 0 -0
-0 0 -0
-0 0 -0
-30.856783 -0.78066772 -1.9101973
-30.812099 -0.59038192 -1.907112
-30.895973 -0.40236506 -1.9122121
-30.800058 -0.21210854 -1.9060416
-30.837706 -0.023147143 -1.9083712
-0 0 -0
-30.779783 0.35463753 -1.9048452
-30.757071 0.54313987 -1.9035859
-0 0 -0
-0 0 -0
-30.661076 1.1062711 -1.8984858
-30.619808 1.2929521 -1.896345
-0 0 -0
-30.540848 1.665293 -1.8925042
-30.514116 1.8516898 -1.8914968
-30.492222 2.0382204 -1.8908671
-30.462219 2.2240436 -1.8897967
-30.448 2.4109144 -1.8897967
-30.419706 2.5965912 -1.8889781
-0 0 -0
-30.312048 2.9625096 -1.8843187
-30.248631 3.1438029 -1.8814853
-0 0 -0
-30.091787 3.5012698 -1.8741184
-30.082615 3.687422 -1.8749371
-30.0228 3.867219 -1.8726074
-29.998507 4.0513625 -1.8726074
-30.00174 4.2394028 -1.8744333
-30.01663 4.4295292 -1.8770778
-29.92477 4.6037612 -1.8729851
-29.788542 4.7700901 -1.8661219
-29.940842 4.983089 -1.8777704
-29.80349 5.1483622 -1.8709702
-30.072933 5.3851385 -1.8903004
-30.083483 5.5777478 -1.8931338
-30.029089 5.7584724 -1.8918746
-29.980463 5.9400978 -1.8910559
-30.025583 6.1407394 -1.896345
-0 0 -0
-29.999655 6.5199699 -1.8996822
-30.228865 6.764286 -1.9171233
-30.25876 6.966208 -1.9217827
-30.228073 7.1547294 -1.9226013
-0 0 -0
-0 0 -0
-30.375492 7.7827396 -1.9411129
-30.514425 8.0181761 -1.953328
-30.742191 8.2800064 -1.9714619
-30.59845 8.4429979 -1.9654173
-0 0 -0
-31.027512 8.9725494 -2.0005517
-30.973787 9.1633282 -2.0006776
-30.755539 9.304369 -1.9900365
-0 0 -0
-30.90741 9.7658787 -2.0077925
-0 0 -0
-30.91036 10.185653 -2.016104
-30.922956 10.400575 -2.0211411
-0 0 -0
-0 0 -0
-31.250759 11.155214 -2.0562754
-31.332718 11.401699 -2.0664127
-31.278076 11.599638 -2.0674832
-31.468655 11.89046 -2.0851762
-31.371819 12.074363 -2.083602
-31.338955 12.283017 -2.0864356
-31.010868 12.374473 -2.069309
-30.84189 12.526964 -2.0630126
-30.829931 12.743037 -2.0674832
-30.496326 12.824802 -2.0500419
-30.272999 12.950059 -2.0401564
-30.095047 13.092966 -2.0334191
-29.957556 13.252348 -2.0295153
-29.827435 13.41422 -2.0261781
-29.603876 13.532674 -2.0164187
-29.512136 13.710281 -2.015852
-29.36067 13.859581 -2.0111926
-29.113096 13.961795 -1.999859
-28.989197 14.12181 -1.9972144
-28.844751 14.271095 -1.9931847
-28.704918 14.421828 -1.9895328
-28.582994 14.580907 -1.9872031
-28.423862 14.720217 -1.9822918
-28.322405 14.888772 -1.9815363
-28.147747 15.018115 -1.9756175
-27.998022 15.159657 -1.9715248
-27.852869 15.302811 -1.9678099
-27.659943 15.418516 -1.9606949
-27.496185 15.549135 -1.9557208
-27.35005 15.688754 -1.9520688
-27.218765 15.836201 -1.9495502
-27.10647 15.994291 -1.9484798
-26.987267 16.148014 -1.9469687
-26.857813 16.295183 -1.9447649
-26.72757 16.44137 -1.9425611
-26.597391 16.587103 -1.9404203
-26.457153 16.72599 -1.9375869
-26.297726 16.851938 -1.9333682
-26.165373 16.994497 -1.9312274
-26.04143 17.142105 -1.9297793
-25.90587 17.281631 -1.9275125
-25.769577 17.420139 -1.9252458
-25.639973 17.562704 -1.9235457
-25.494833 17.694092 -1.9207124
-25.344963 17.821489 -1.9175642
-25.198557 17.950611 -1.9147307
-25.034527 18.066343 -1.910575
-24.910311 18.210188 -1.9095676
-24.752388 18.32884 -1.9059786
-24.599539 18.450432 -1.9028304
-24.451693 18.575066 -1.9001229
-24.29929 18.695538 -1.8971006
-24.150267 18.817905 -1.8943931
-23.985773 18.927404 -1.8904893
-23.838778 19.049925 -1.8880336
-23.695839 19.175121 -1.8859558
-23.541454 19.290424 -1.8829964
-23.398069 19.414118 -1.8809816
-23.256346 19.538702 -1.8791556
-23.084328 19.63706 -1.874874
-22.919542 19.740559 -1.8712221
-22.786703 19.870979 -1.8702776
-22.599258 19.952955 -1.8647997
-22.48682 20.100559 -1.8656812
-22.340124 20.217398 -1.8637292
-22.341484 20.469379 -1.8744962
-22.249857 20.637978 -1.8774556
-22.00931 20.667538 -1.8676331
-21.924759 20.842764 -1.871348
-0 0 -0
-0 0 -0
-21.48979 21.195841 -1.8671293
-21.34803 21.316019 -1.8661219
-21.188759 21.418226 -1.8636034
-21.036015 21.526423 -1.8617144
-20.875116 21.625652 -1.8591329
-20.719303 21.729496 -1.8570551
-20.57053 21.840235 -1.8556699
-20.430695 21.960197 -1.8551661
-0 0 -0
-20.157658 22.207043 -1.8549773
-20.018354 22.327337 -1.8547254
-19.886272 22.455725 -1.855229
-19.729713 22.556288 -1.853466
-19.578543 22.662575 -1.8522698
-19.438473 22.781521 -1.8522067
-0 0 -0
-19.157444 23.018345 -1.8522067
-0 0 -0
-18.903723 23.288897 -1.855229
-18.765463 23.410679 -1.8557328
-18.640047 23.548857 -1.8576217
-18.456482 23.613249 -1.853655
-18.288074 23.696028 -1.8512623
-18.13084 23.792713 -1.8500659
-17.97191 23.886766 -1.8487437
-17.786917 23.945316 -1.8447139
-17.621359 24.029057 -1.842762
-17.465395 24.125408 -1.8418806
-17.287441 24.19071 -1.8386693
-17.100716 24.242502 -1.8345137
-16.919708 24.301109 -1.8309877
-16.771976 24.406937 -1.8311765
-16.616302 24.501127 -1.8305469
-0 0 -0
-16.292934 24.670712 -1.8280913
-16.149969 24.783598 -1.8290987
-15.983022 24.85956 -1.8273987
-0 0 -0
-11.394979 18.211105 -1.3181401
-11.309233 18.323143 -1.3212883
-11.455041 18.816719 -1.3526448
-11.472426 19.108261 -1.3689526
-11.449032 19.337168 -1.380601
-11.298967 19.353617 -1.3766973
-14.758906 25.639812 -1.8292876
-9.6178427 16.948488 -1.1922736
-14.414408 25.767609 -1.8255727
-14.253619 25.851198 -1.8252579
-14.076147 25.903971 -1.8228022
-11.204152 20.923897 -1.4602515
-10.961918 20.776875 -1.4448881
-10.954366 21.074867 -1.4613218
-10.812565 21.117701 -1.4596218
-10.937595 21.688906 -1.4953228
-10.830056 21.807453 -1.4989747
-0 0 -0
-0 0 -0
-10.400746 21.94809 -1.4951339
-9.3099594 19.961954 -1.3524559
-10.123966 22.059559 -1.4941264
-9.976099 22.093975 -1.4922376
-9.8261652 22.122849 -1.4900337
-9.7066174 22.220221 -1.4926153
-9.6681776 22.507692 -1.5082935
-0 0 -0
-10.259047 24.715179 -1.6510974
-10.069884 24.686178 -1.644864
-10.025525 25.015224 -1.6630608
-9.9288788 25.221138 -1.6728833
-10.206888 26.401419 -1.7486298
-10.118013 26.656693 -1.7616636
-10.231272 27.461767 -1.8117205
-10.073886 27.55496 -1.8137983
-9.9460659 27.731802 -1.821543
-9.9012327 28.149126 -1.8454065
-9.7240963 28.197083 -1.844588
-9.5508986 28.256218 -1.844588
-0 0 -0
-9.1843386 28.312437 -1.8406842
-9.0155802 28.384428 -1.8417546
-8.8276176 28.395374 -1.8388582
-8.650897 28.441366 -1.8383545
-8.3840199 28.183979 -1.8179539
-8.0699062 27.749985 -1.7860938
-7.5060868 26.414652 -1.6952987
-7.3273191 26.400589 -1.6913949
-7.175631 26.483583 -1.6939135
-6.8413153 25.87776 -1.6515383
-6.6497622 25.79265 -1.6432898
-6.4648633 25.727465 -1.6364267
-6.2556257 25.557259 -1.6228263
-6.0720873 25.483515 -1.6155853
-5.913806 25.512514 -1.6150817
-5.7608829 25.564873 -1.616152
-5.6056185 25.607538 -1.6166558
-5.4436169 25.618999 -1.6152076
-5.2857151 25.648985 -1.6150187
-5.1256952 25.668213 -1.6142001
-2.8488166 14.737362 -0.909814
-2.7161481 14.528932 -0.8953321
-2.6081445 14.441219 -0.88865781
-2.5114312 14.41074 -0.8856985
-2.404609 14.31663 -0.87870944
-2.311621 14.299587 -0.87669456
-2.2204654 14.291806 -0.87530929
-2.128315 14.275549 -0.87342036
-2.0224755 14.160889 -0.86529791
-1.9035366 13.938679 -0.85037529
-1.8231345 13.989682 -0.85289389
-1.7730321 14.288816 -0.8712166
-1.6880115 14.322223 -0.87266481
-1.5998788 14.330327 -0.87253886
-1.5134895 14.354761 -0.87348336
-1.4254805 14.364771 -0.8735463
-1.3395327 14.397097 -0.87505746
-1.2608438 14.516403 -0.88210952
-1.1791352 14.615386 -0.88790226
-1.0938113 14.681066 -0.89161718
-1.0182763 14.900579 -0.90509164
-1.5780871 25.376455 -1.5669136
-1.1284297 20.141333 -1.2355304
-0.71976292 14.434359 -0.87461668
-0.63249022 14.468415 -0.87650567
-0.55660033 14.815099 -0.89816552
-0.4590345 14.60676 -0.884817
-0.36975402 14.623269 -0.8856985
-0.28007776 14.628256 -0.88588738
-0.18789549 14.444084 -0.87417597
-0.099113226 14.42301 -0.87279075
-0.010618011 14.429335 -0.87316853
0.078047596 14.45308 -0.87467968
0.16692381 14.469294 -0.87575006
0.25561455 14.463008 -0.87543523
0.34693971 14.569921 -0.88229841
0.43555638 14.54158 -0.88066131
0.52650034 14.586508 -0.88368362
0.620327 14.685707 -0.89016896
0.71741545 14.826167 -0.89929885
0.81315416 14.909182 -0.90483975
1.5075535 24.841843 -1.5329757
1.6606839 24.843079 -1.5336683
1.8133048 24.835407 -1.5338572
1.964949 24.814859 -1.5332905
2.1164093 24.793386 -1.5327238
2.2672253 24.76602 -1.5318424
2.4174941 24.734756 -1.530772
2.5693212 24.720449 -1.5308349
2.7218287 24.712156 -1.5313386
2.8758304 24.715807 -1.5326608
3.0281579 24.70364 -1.5330386
3.1778948 24.670736 -1.5321572
3.3280098 24.641872 -1.5315905
2.2450049 15.886283 -0.97504538
2.3408365 15.861348 -0.97435278
3.7899749 24.634638 -1.5353054
2.3418522 14.62325 -0.89715809
4.0854411 24.546896 -1.5327868
4.2398882 24.543985 -1.534235
4.3933978 24.534208 -1.5353054
4.5460372 24.518564 -1.5360609
4.6982741 24.50001 -1.5366906
4.8529758 24.493238 -1.5381387
5.0063715 24.478643 -1.5391462
5.157711 24.453323 -1.539524
5.3127437 24.444622 -1.5410352
5.4678631 24.434938 -1.5425463
5.6194811 24.408709 -1.5430501
5.7673059 24.365999 -1.5425463
5.9141102 24.319485 -1.5418537
6.0593524 24.267246 -1.5408462
6.2061577 24.221876 -1.5403426
6.354917 24.184305 -1.5404055
4.2924204 15.936254 -1.0040722
4.410562 15.983695 -1.0089204
6.7886829 24.026739 -1.5380129
5.9243498 20.4862 -1.3082546
4.3328619 14.645152 -0.92637372
7.2719779 24.037178 -1.5472057
7.4275856 24.018803 -1.5489687
7.576025 23.976583 -1.5492206
7.7291303 23.948643 -1.5504799
7.8915477 23.94816 -1.5536281
8.0606127 23.965504 -1.5580356
8.2211161 23.95524 -1.5606802
8.3857536 23.955214 -1.5640802
8.5517054 23.956884 -1.5676693
8.7121916 23.941475 -1.5701878
8.8669109 23.90909 -1.571636
9.025794 23.886909 -1.5738398
9.1951332 23.890688 -1.5778695
9.3568459 23.872845 -1.5805141
9.5201654 23.857622 -1.5834104
9.6997976 23.881054 -1.5890143
9.8819809 23.907787 -1.5949329
10.047834 23.8927 -1.5980812
6.3189998 14.771232 -0.97643065
6.4051356 14.722115 -0.97573805
10.554151 23.857952 -1.6087222
10.718352 23.832794 -1.6114926
10.899653 23.843731 -1.6168447
11.068456 23.825279 -1.6202447
11.226791 23.783089 -1.6220708
11.398403 23.76775 -1.6258487
11.568937 23.748505 -1.6294376
8.2797451 16.73465 -1.1407685
11.967026 23.818777 -1.6445491
12.120206 23.759125 -1.6455566
12.273563 23.699375 -1.6466269
8.3823795 15.94514 -1.0993377
12.664001 23.735409 -1.6601014
12.866423 23.762573 -1.6676571
9.010849 16.400436 -1.1434131
13.179895 23.643866 -1.6706165
8.361063 14.784842 -1.0344211
9.291338 16.197168 -1.1408944
9.3774977 16.117424 -1.1392573
9.4564362 16.02606 -1.1368017
9.5725279 15.997709 -1.1390055
14.432591 23.78779 -1.7182178
14.604946 23.74214 -1.721429
9.9440594 15.94498 -1.1483872
14.965594 23.67248 -1.7297404
15.124025 23.601215 -1.7313145
15.289212 23.539776 -1.7337072
10.168852 15.447717 -1.1296238
10.294461 15.431525 -1.1331497
15.969748 23.623957 -1.7618524
16.123989 23.53952 -1.7629228
16.293728 23.477039 -1.7657562
10.52828 14.972588 -1.1175975
16.587549 23.285076 -1.7665118
16.688061 23.12459 -1.7619783
16.816679 23.004032 -1.7605931
16.962265 22.906832 -1.7610968
17.095312 22.79274 -1.7603413
17.236052 22.689005 -1.7604672
17.377378 22.585985 -1.7607191
17.510117 22.471848 -1.7601523
0 0 -0
11.903212 14.895252 -1.1657655
0 0 -0
0 0 -0
12.079777 14.558419 -1.1563208
17.468348 20.791996 -1.6760944
17.585896 20.673018 -1.67515
17.70134 20.551868 -1.6740795
18.002899 20.644457 -1.6909541
18.161598 20.570263 -1.6940393
18.41717 20.603535 -1.7063175
19.070936 21.073256 -1.7559338
19.194487 20.949955 -1.75543
19.293488 20.800322 -1.7527225
19.402308 20.661903 -1.7510225
19.535599 20.549698 -1.7516521
15.659913 16.271593 -1.3875902
19.802322 20.32486 -1.7531003
19.941378 20.217896 -1.7544225
20.043196 20.073263 -1.7524706
20.199331 19.982891 -1.75543
20.344406 19.880896 -1.7574449
16.304222 15.738235 -1.3925015
16.491491 15.724676 -1.400435
17.154333 16.156929 -1.4495474
20.807913 19.358637 -1.7558707
20.950552 19.252882 -1.7579486
17.247822 15.65598 -1.4324211
21.187468 18.996336 -1.7581375
21.298397 18.861341 -1.7576967
21.413727 18.730303 -1.7576967
21.50333 18.577026 -1.7556189
21.59869 18.429188 -1.7541077
21.704494 18.290525 -1.753541
21.742674 18.095715 -1.7474965
21.938879 18.032307 -1.7544855
22.10025 17.938866 -1.7586412
22.107115 17.720528 -1.7503299
22.077705 17.475529 -1.739248
0 0 -0
0 0 -0
22.149555 16.878666 -1.7197289
21.99671 16.549829 -1.6995174
22.042562 16.373486 -1.6951728
22.094326 16.202515 -1.6913949
22.171499 16.050838 -1.6896949
22.252518 15.902308 -1.6883726
22.378216 15.785605 -1.6905763
22.559015 15.706737 -1.6970617
22.67635 15.582718 -1.6986988
22.878914 15.516109 -1.7068841
23.068239 15.438715 -1.7140622
23.215 15.331531 -1.7180289
23.291077 15.177355 -1.7167068
23.7439 15.265707 -1.7437185
23.952579 15.192966 -1.7523447
24.090191 15.073769 -1.7556819
23.958023 14.787282 -1.7390592
24.170208 14.714214 -1.7480631
24.517584 14.720265 -1.7670155
24.820419 14.695654 -1.7826308
25.195402 14.709641 -1.803472
25.412333 14.627958 -1.8127279
25.840124 14.663863 -1.8372841
26.40169 14.769124 -1.871411
26.751381 14.74997 -1.8901114
27.277205 14.822382 -1.921405
27.73452 14.851195 -1.9476613
28.163193 14.859113 -1.9717767
28.263577 14.691091 -1.9724693
28.363848 14.52285 -1.9732249
28.544209 14.394828 -1.9797102
28.488979 14.148385 -1.969636
28.404015 13.889573 -1.9576097
0 0 -0
28.346855 13.433118 -1.9418685
28.284029 13.191435 -1.9317942
28.289152 12.983087 -1.926568
0 0 -0
28.204641 12.527597 -1.9098824
28.248055 12.339918 -1.9076157
28.186607 12.107666 -1.8982339
28.211641 11.91391 -1.8948969
28.19388 11.703085 -1.8887262
28.200472 11.503482 -1.8843187
28.203827 11.303498 -1.8797853
28.207647 11.104638 -1.8753778
28.093735 10.861172 -1.8630997
27.945246 10.607127 -1.8486178
27.903189 10.395737 -1.8414397
27.867092 10.188004 -1.8347656
28.010811 10.046137 -1.8402435
27.990017 9.8452644 -1.8347656
0 0 -0
27.850615 9.4137945 -1.8175762
28.053753 9.2910519 -1.8272728
27.742849 8.9995604 -1.8029053
27.792791 8.8276539 -1.8025906
27.873119 8.6652498 -1.8043536
28.001194 8.517005 -1.8093277
27.883612 8.2946634 -1.7981831
27.769152 8.0754805 -1.787353
27.778818 7.893755 -1.7847716
27.728642 7.6959329 -1.7783492
27.7108 7.5081606 -1.7741305
27.724508 7.3295708 -1.7720526
27.711941 7.1446171 -1.7683377
27.715574 6.9644728 -1.7657562
27.73258 6.7881122 -1.7641191
27.764973 6.6157384 -1.7635524
27.805042 6.4452515 -1.7635524
27.860619 6.2782516 -1.7646228
27.933714 6.1148672 -1.7668896
28.051735 5.9605722 -1.7721156
28.117104 5.7943811 -1.7740046
0 0 -0
28.302696 5.4714484 -1.7814974
28.323965 5.2954822 -1.7807418
28.334316 5.1176872 -1.7793566
28.431059 4.9552169 -1.7835752
28.455023 4.7796817 -1.7831974
28.477903 4.6040392 -1.7828196
28.523369 4.4319739 -1.783953
28.567793 4.2595239 -1.7850864
28.602283 4.0854254 -1.785653
28.642633 3.912009 -1.7866604
28.681932 3.7382514 -1.7876679
28.711264 3.5630524 -1.7881087
28.725647 3.3859985 -1.7876679
28.738939 3.2089021 -1.7872272
28.826571 3.0397255 -1.7915717
7.6273427 0.75670683 -0.44639373
7.590106 0.70600766 -0.44374922
7.5018282 0.65138847 -0.43789348
7.4121742 0.59779912 -0.4319748
7.3858452 0.55008227 -0.43008587
7.3781285 0.50400448 -0.42939326
7.3711214 0.45810404 -0.4287636
7.3718004 0.41275537 -0.42863768
7.3472815 0.36617234 -0.42693764
7.3105044 0.3193824 -0.42448202
7.3023534 0.27414504 -0.42385235
7.3088856 0.22949034 -0.42416719
7.3081608 0.18458903 -0.42404127
7.328115 0.14010704 -0.4252376
7.332828 0.09519197 -0.42548946
7.3662081 0.050424021 -0.42756727
7.3953214 0.0052469675 -0.42939326
7.39222 -0.040113885 -0.42920437
7.5006113 -0.086722821 -0.43606752
7.466011 -0.13214539 -0.43392673
7.6476445 -0.1822962 -0.44544926
7.7281828 -0.23166572 -0.45061237
7.7415762 -0.2796202 -0.45155683
25.071789 -1.058754 -1.5460094
24.997036 -1.2092934 -1.5417278
24.974197 -1.3618346 -1.5407833
20.322157 -1.2333444 -1.2473048
24.917765 -1.665675 -1.5383906
24.936935 -1.820716 -1.5402796
25.032743 -1.9821985 -1.5470798
25.032043 -2.1367776 -1.5478354
19.936848 -1.8252132 -1.2258968
19.889515 -1.9440147 -1.2236301
19.931808 -2.0716915 -1.2270931
25.117891 -2.7665102 -1.5570911
10.59531 -1.233057 -0.63579154
10.59745 -1.2992594 -0.6364212
10.575421 -1.3624749 -0.63553971
10.561917 -1.426671 -0.63522488
10.562846 -1.4928471 -0.63585454
10.562373 -1.5589427 -0.6364212
13.83835 -2.1291716 -0.84615666
13.847691 -2.2176712 -0.84760487
24.661095 -4.1044459 -1.5400907
14.397704 -2.4873211 -0.88462812
13.586433 -2.4331357 -0.83362669
13.595781 -2.5210028 -0.83520079
24.316721 -4.6631284 -1.5249162
24.180941 -4.7911043 -1.5180531
24.153044 -4.9397855 -1.5181789
24.082241 -5.0794482 -1.5155975
23.982353 -5.2122827 -1.5111899
23.938232 -5.3567224 -1.5104343
23.794039 -5.4779797 -1.5032563
23.734728 -5.617898 -1.5016192
23.646475 -5.7504559 -1.4981562
23.392879 -5.8410439 -1.4839891
23.379803 -5.9904146 -1.4855003
23.409208 -6.151258 -1.4898448
8.1988878 -2.2085667 -0.49852851
23.302135 -6.4298325 -1.487893
7.8196545 -2.2097003 -0.47548342
8.0139952 -2.3177993 -0.48914677
8.0130205 -2.370892 -0.49002826
7.9820824 -2.4151018 -0.48895788
7.9890432 -2.4708147 -0.49040607
8.233531 -2.6018736 -0.50759542
22.281775 -7.1911988 -1.4399768
7.8569007 -2.5893381 -0.48473924
22.17577 -7.4586806 -1.4389064
22.115427 -7.5897489 -1.4379619
22.046776 -7.71772 -1.4365138
18.974302 -6.7732 -1.2338933
21.88382 -7.9634566 -1.4320433
21.82893 -8.0955019 -1.4316654
18.27132 -6.9040146 -1.1951071
18.517353 -7.127121 -1.2146261
18.464911 -7.2373295 -1.2140595
18.612032 -7.4270554 -1.2270931
21.325294 -8.661768 -1.4149798
18.34609 -7.5832253 -1.2152557
21.165876 -8.901145 -1.4114538
21.065901 -9.0116167 -1.4083685
21.000143 -9.1363249 -1.4076759
20.929996 -9.2589512 -1.4067315
20.908289 -9.4031649 -1.4091871
20.99906 -9.5993242 -1.4195132
21.070101 -9.7885389 -1.4285802
20.999714 -9.9129524 -1.4278876
20.799011 -9.9747276 -1.418128
20.682686 -10.0755 -1.4142872
20.603477 -10.193809 -1.4130908
20.5343 -10.3169 -1.4126501
20.465275 -10.439981 -1.4122723
20.394629 -10.562145 -1.4118316
20.303818 -10.673618 -1.4100056
20.224735 -10.790953 -1.4090612
12.987896 -7.0325994 -0.89463949
19.984953 -10.980181 -1.4014424
19.872744 -11.077818 -1.3982311
19.778336 -11.184808 -1.3963423
12.494548 -7.1674728 -0.87159437
12.608197 -7.3358469 -0.88311696
12.59733 -7.4333582 -0.88563555
19.468773 -11.649402 -1.3942015
18.503565 -11.226636 -1.3282775
12.373365 -7.6116843 -0.87933904
18.855572 -11.759159 -1.364797
18.781376 -11.873567 -1.364671
18.65859 -11.956815 -1.3609561
18.543026 -12.043896 -1.3578079
18.449602 -12.144827 -1.3563597
18.339035 -12.233988 -1.3536522
18.202438 -12.304924 -1.3489928
18.118361 -12.41074 -1.3483632
17.959877 -12.464777 -1.3420666
17.840605 -12.544891 -1.3387926
17.709646 -12.615907 -1.3346368
17.551783 -12.666515 -1.3284034
17.406054 -12.724499 -1.3231143
17.252254 -12.775234 -1.3171957
17.15518 -12.867079 -1.3157475
17.033785 -12.940103 -1.3124104
16.911352 -13.011514 -1.3090103
16.808367 -13.097246 -1.3071842
16.713585 -13.189005 -1.3060509
16.594919 -13.261404 -1.3030286
16.462032 -13.321545 -1.2988729
16.311277 -13.366007 -1.293269
16.185179 -13.429515 -1.28968
16.04669 -13.481709 -1.2850837
15.910453 -13.53465 -1.2806761
15.802908 -13.611178 -1.2786613
15.684493 -13.677714 -1.2757648
15.513487 -13.697074 -1.268461
15.399387 -13.7654 -1.2659423
15.308715 -13.854273 -1.2654387
15.213852 -13.93918 -1.2646201
15.104622 -14.01055 -1.2626052
15.002364 -14.087936 -1.26122
14.899003 -14.163909 -1.2597718
14.785208 -14.229455 -1.2574421
14.674745 -14.297622 -1.2554272
14.54908 -14.350251 -1.2520901
14.39013 -14.368736 -1.2457937
14.308714 -14.463857 -1.2464232
14.211326 -14.542816 -1.2456677
14.089247 -14.595993 -1.2427083
13.93606 -14.615718 -1.2369156
13.840643 -14.695141 -1.2364119
13.771969 -14.803171 -1.2384268
6.9405851 -7.5529661 -0.60997605
6.8907561 -7.5917158 -0.60966122
12.972157 -14.46862 -1.1888106
6.746788 -7.6189213 -0.60487592
6.6828284 -7.6406446 -0.60323882
6.6162467 -7.6588497 -0.60134989
13.218872 -15.492465 -1.2476826
13.129995 -15.580914 -1.2483122
13.012438 -15.635104 -1.2461715
6.4966397 -7.9044938 -0.60833895
12.787514 -15.754091 -1.2429602
12.689983 -15.831478 -1.2428973
12.569686 -15.880091 -1.2405676
2.0217726 -2.5872371 -0.16997866
1.993664 -2.5837924 -0.16871937
1.9723284 -2.5888324 -0.16815269
1.9522063 -2.5953033 -0.16771194
1.940411 -2.6128409 -0.16815269
1.9385072 -2.6440132 -0.16966385
1.9345376 -2.6728342 -0.1709861
11.45445 -16.028704 -1.2057481
11.26959 -15.976357 -1.1963034
11.153671 -16.019815 -1.1943514
10.058652 -14.637845 -1.0833447
10.94672 -16.141439 -1.1932811
10.840811 -16.198351 -1.1925255
10.687865 -16.183784 -1.1864179
10.57365 -16.226482 -1.1847179
10.483064 -16.305326 -1.1857883
10.410617 -16.413166 -1.1890625
10.297006 -16.456432 -1.1875513
9.974102 -16.160063 -1.1609173
9.8763142 -16.223516 -1.1611061
10.082256 -16.792913 -1.1985701
9.6398735 -16.281662 -1.1565727
9.5579042 -16.371531 -1.1588393
9.4249067 -16.373648 -1.1547467
9.7887688 -17.24968 -1.2141224
9.2232676 -16.488073 -1.1547467
8.9296494 -16.195644 -1.1296238
8.9864063 -16.537754 -1.1502762
8.7076168 -16.261774 -1.1266015
8.568552 -16.240751 -1.1213124
8.4480257 -16.253172 -1.118479
8.519166 -16.638716 -1.1421537
8.5081406 -16.871571 -1.1549356
8.026679 -16.162792 -1.1013526
7.9273548 -16.211739 -1.1013526
7.8770857 -16.362587 -1.1085306
7.7850862 -16.42865 -1.1097898
6.9197364 -14.8372 -0.99569786
7.5171204 -16.379633 -1.0998415
7.5713177 -16.768362 -1.1235791
7.5128512 -16.914833 -1.1305053
7.4452796 -17.043837 -1.1362351
7.3370152 -17.080948 -1.1356684
7.3198209 -17.333427 -1.1498984
7.175447 -17.28676 -1.143665
7.2916517 -17.875673 -1.180814
7.2003956 -17.966396 -1.1839623
7.0980635 -18.030668 -1.1853476
6.9052405 -17.861645 -1.1709915
6.7239704 -17.7152 -1.1582727
6.6196752 -17.768282 -1.1590912
6.5739255 -17.981972 -1.1707398
6.4698682 -18.03982 -1.171936
6.1702905 -17.542542 -1.1360462
6.0036402 -17.4093 -1.1246495
5.8797674 -17.3957 -1.1213124
6.1218452 -18.484964 -1.1913291
5.9578023 -18.366493 -1.181003
5.7742963 -18.180126 -1.1662692
5.6282668 -18.104664 -1.1589653
5.5051646 -18.09971 -1.1563838
5.3866048 -18.108276 -1.1547467
5.2547693 -18.070072 -1.1500872
5.239552 -18.438936 -1.1721879
5.1463327 -18.542864 -1.1769103
4.0283451 -14.868354 -0.93468505
3.9375489 -14.894722 -0.93481094
4.6553922 -18.057503 -1.1393204
4.556911 -18.135092 -1.1425315
4.4391432 -18.136538 -1.1408315
4.3104253 -18.090622 -1.1361091
4.2119637 -18.171173 -1.1396352
4.1280336 -18.319349 -1.1475687
4.0625057 -18.558817 -1.1614209
3.9286397 -18.489677 -1.1553763
3.6676521 -17.797926 -1.1092862
0.4790532 -2.4008312 -0.1172772
0.46942788 -2.430182 -0.11897726
3.38712 -18.117485 -1.125657
0.5048548 -2.7971804 -0.14214827
0.4941943 -2.8375869 -0.14454092
0.4733018 -2.8198969 -0.14321867
0.45344159 -2.8069844 -0.14221123
0.43268505 -2.7870319 -0.14076304
0.40939388 -2.7481759 -0.13811852
0.39788675 -2.7881796 -0.14051118
0.37942064 -2.7806802 -0.13988154
0.36454454 -2.7997799 -0.14095193
0.24152091 -1.9492153 -0.086739324
0.22862145 -1.9427314 -0.086235605
0.21636449 -1.9411221 -0.086046711
0.20350786 -1.9334805 -0.085480027
0.19252764 -1.9436309 -0.086046711
0.17865594 -1.9239075 -0.084724456
0.16650215 -1.9209905 -0.084472597
0.15374863 -1.9100386 -0.083717018
0.1408391 -1.8950219 -0.082709581
0.12934496 -1.8978418 -0.08283551
0.11837914 -1.9095567 -0.083528124
0.10682763 -1.9132365 -0.083717018
0.095384605 -1.9198366 -0.084094808
0.083995447 -1.9293593 -0.084661491
0.072155543 -1.9298384 -0.084661491
0.060093287 -1.9232621 -0.084220737
0.048164967 -1.9186062 -0.083905913
0.035683826 -1.8819457 -0.081576221
0.024109734 -1.8801334 -0.081450291
0.012490369 -1.86827 -0.080694713
0.0010174995 -1.8563354 -0.079939134
-0.010362056 -1.8543106 -0.079813205
-0.022692967 -1.937042 -0.085039273
-0.070375606 -3.9655166 -0.21304652
-0.40026259 -16.811827 -1.0237801
-0.057448164 -1.9063691 -0.083150335
-0.070223525 -1.9359016 -0.085039273
-0.78292716 -18.537611 -1.1334016
-0.86787617 -17.937338 -1.0958117
-0.94988972 -17.417463 -1.0633219
-1.1195389 -18.446342 -1.1287422
-1.1539075 -17.260105 -1.0541921
-0.24693134 -3.3772786 -0.17646404
-0.24039672 -3.0314634 -0.15467824
-0.28343484 -3.3163188 -0.17281207
-0.35026255 -3.8223803 -0.20498705
-0.37613624 -3.8449914 -0.20656116
-0.30306339 -2.9124792 -0.14756323
-0.42700624 -3.8738146 -0.20870197
-0.45538071 -3.9107749 -0.21122055
-0.43990949 -3.5859611 -0.19075702
-0.46649382 -3.6188285 -0.19302376
-0.49189514 -3.6396351 -0.1945349
-0.37487292 -2.6503241 -0.13169612
-0.40176296 -2.7200487 -0.13629255
-0.46745759 -3.0361438 -0.15663014
-0.48655161 -3.0361748 -0.15681905
-0.65016532 -3.9043937 -0.2125428
-0.53736323 -3.1086516 -0.16185622
-0.54939133 -3.0660002 -0.15933762
-3.6693289 -19.789709 -1.2326341
-3.2121921 -16.749891 -1.0388286
-3.3193679 -16.752382 -1.0402769
-0.53788704 -2.6282156 -0.13207391
-0.5540033 -2.6248658 -0.13207391
-0.86618292 -3.9838436 -0.22003561
-4.0302258 -18.009903 -1.1271682
-3.8110838 -16.553202 -1.0344841
-4.2281756 -17.862944 -1.1209346
-4.3570375 -17.916183 -1.1260978
