# .PCD v0.7 - Point Cloud Data file format
VERSION 0.7
FIELDS x y z
SIZE 4 4 4
TYPE F F F
COUNT 1 1 1
WIDTH 1534
HEIGHT 1
VIEWPOINT 0 0 0 1 0 0 0
POINTS 1534
DATA ascii
10.873531 6.3383112 -1.8447002
10.901927 6.2655602 -1.8429245
10.927259 6.1912374 -1.8407047
10.951226 6.1163583 -1.8383371
11.025806 6.0695524 -1.8447002
11.068057 6.0046144 -1.8455881
11.115159 5.942183 -1.8473639
11.161036 5.8789392 -1.8489918
11.195142 5.8094344 -1.8486958
11.227936 5.7392831 -1.8482518
11.260289 5.6689477 -1.8478079
11.305495 5.6050196 -1.8495836
11.338785 5.535111 -1.8494357
11.373425 5.4658618 -1.8495836
11.401385 5.393436 -1.8486958
11.437851 5.3250461 -1.8492876
11.46941 5.2543526 -1.8491397
11.502336 5.1842852 -1.8492876
11.519464 5.1071982 -1.84692
11.582314 5.0502524 -1.8520993
11.624901 4.9841547 -1.8540231
11.63886 4.9058189 -1.8513595
11.690671 4.8433948 -1.854911
11.722002 4.7723165 -1.855207
11.731779 4.6925907 -1.8520993
11.744702 4.6143708 -1.8495836
11.755263 4.5354576 -1.846772
11.79212 4.4667454 -1.8482518
11.844335 4.4036093 -1.8522474
11.871132 4.3308511 -1.8522474
11.939385 4.272922 -1.8589065
11.991508 4.2087512 -1.86305
12.00495 4.1309114 -1.8611263
12.004767 4.0486412 -1.8571308
12.019053 3.971493 -1.855503
12.041314 3.8970618 -1.855207
12.085741 3.829675 -1.8584626
12.092009 3.7501745 -1.8557988
12.111953 3.6750474 -1.8553549
12.145652 3.6040359 -1.8571308
12.170387 3.5302699 -1.8575747
12.182303 3.4528315 -1.8560948
12.202308 3.3777535 -1.8559469
12.227577 3.3041074 -1.8566868
12.273441 3.2358234 -1.8606822
12.31318 3.1656234 -1.8637899
12.338129 3.0914533 -1.8646778
12.32708 3.0084236 -1.8600904
12.381872 2.9414122 -1.8657137
12.404506 2.8664958 -1.8664536
12.43151 2.792496 -1.8679334
12.453241 2.7172189 -1.8686733
12.455167 2.6376839 -1.8664536
12.47693 2.5624042 -1.8673415
12.483687 2.4840624 -1.8660097
12.506463 2.4089131 -1.8671935
12.533648 2.3344824 -1.8691173
12.556497 2.2591088 -1.8704491
12.567199 2.181514 -1.8700051
12.580348 2.104362 -1.8700051
12.593023 2.0271308 -1.8700051
12.59545 1.9483124 -1.8685254
6.4596004 0.95922303 -0.93860632
6.1510544 0.87492228 -0.8911041
5.9740276 0.81241125 -0.86357939
5.9563417 0.77281755 -0.86017585
5.9168015 0.73080873 -0.85351664
5.9221568 0.69460517 -0.85366464
5.9184432 0.65738255 -0.85248077
5.9135132 0.62012869 -0.8511489
5.9024434 0.58237863 -0.84892923
5.8793159 0.5436973 -0.84493369
5.8677611 0.50633979 -0.84271395
5.874701 0.47064152 -0.84330589
5.8794508 0.43473163 -0.84360182
5.8642464 0.39744759 -0.84093815
0 0 -0
0 0 -0
5.8646417 0.28914762 -0.84005028
0 0 -0
0 0 -0
0 0 -0
5.8660164 0.14503802 -0.83945835
5.8559189 0.10884208 -0.83783054
0 0 -0
0 0 -0
0 -0 -0
0 -0 -0
0 -0 -0
0 -0 -0
0 -0 -0
0 -0 -0
0 -0 -0
0 -0 -0
0 -0 -0
0 -0 -0
0 -0 -0
0 -0 -0
0 -0 -0
0 -0 -0
0 -0 -0
6.167068 -0.56818569 -0.88814443
11.522574 -1.1339597 -1.6939065
11.50458 -1.2035065 -1.6922787
11.489116 -1.2732024 -1.6910949
10.596058 -1.2400057 -1.5577631
10.580398 -1.3040299 -1.5565792
10.572197 -1.3689255 -1.5565792
10.563598 -1.4337695 -1.5565792
10.56831 -1.5005074 -1.558651
10.570643 -1.5670667 -1.5604268
11.088611 -1.713511 -1.6403371
11.066171 -1.7796316 -1.6385612
11.041387 -1.8452152 -1.6364895
11.021088 -1.9114072 -1.6351577
11.010125 -1.9791704 -1.6353056
11.010413 -2.0490437 -1.6372294
10.993749 -2.1158156 -1.6366376
10.97668 -2.1824603 -1.6360456
10.966957 -2.2505665 -1.6366376
10.954876 -2.3182259 -1.6369334
10.925952 -2.3822384 -1.6347138
10.889899 -2.4444664 -1.6314582
8.2912655 -1.914377 -1.2347183
10.863894 -2.5790606 -1.6321981
10.852668 -2.6468439 -1.6329379
10.843898 -2.7153075 -1.6341218
10.81937 -2.7798235 -1.6329379
7.4769692 -1.9696739 -1.1184045
7.5019784 -2.0255744 -1.1241758
10.760651 -2.9769189 -1.63205
10.730763 -3.0396533 -1.6302743
10.714761 -3.1062653 -1.6307182
10.695499 -3.1719513 -1.6307182
7.9814391 -2.4201179 -1.2094134
7.9390454 -2.460551 -1.2051219
7.9115419 -2.5053346 -1.2031982
7.9167213 -2.5605304 -1.2064538
10.548092 -3.483649 -1.6236151
10.529329 -3.5492535 -1.6240591
10.49052 -3.6080019 -1.6213953
10.44672 -3.6647706 -1.6179918
10.381204 -3.713474 -1.6111846
7.6935396 -2.8051131 -1.1867721
10.426626 -3.8747036 -1.6258348
10.453524 -3.9578729 -1.6339738
10.453032 -4.0311947 -1.6378213
10.457557 -4.1068287 -1.6425568
10.431242 -4.1705508 -1.6424088
10.379807 -4.2240367 -1.6382654
10.321714 -4.2743993 -1.633086
10.27251 -4.3280492 -1.6293864
10.19122 -4.3676181 -1.6205075
10.149724 -4.4237442 -1.6181397
10.108828 -4.4799266 -1.6159201
10.055902 -4.5304914 -1.6117766
10.029713 -4.5929317 -1.6120725
9.9825134 -4.6456213 -1.6089649
9.9404106 -4.7004428 -1.6067451
9.9078159 -4.759634 -1.6061532
9.8810911 -4.8216391 -1.6065972
9.8327122 -4.8729534 -1.6034895
9.7876101 -4.9256344 -1.6009738
9.7545605 -4.9842467 -1.6005299
9.7273054 -5.0458279 -1.6011218
9.6716604 -5.0925145 -1.5969783
9.6585474 -5.1615534 -1.600086
9.5884447 -5.1999707 -1.5935748
9.5416288 -5.2505994 -1.5910591
9.5100956 -5.3095293 -1.591207
9.4756174 -5.366807 -1.590911
9.4365063 -5.4213982 -1.5898752
9.4005003 -5.4777031 -1.5894313
9.3462791 -5.5232024 -1.5858797
9.3079729 -5.5779037 -1.5851398
9.2321606 -5.6097426 -1.5778886
9.1925135 -5.6631713 -1.5770007
9.1282349 -5.7011294 -1.5718213
9.0897398 -5.7549152 -1.5712295
9.0242949 -5.791348 -1.5659021
8.9935637 -5.8498468 -1.56679
8.9525471 -5.9016538 -1.5659021
8.9219227 -5.9603209 -1.5669379
8.9113884 -6.0326967 -1.5716734
8.8546324 -6.0738339 -1.5681218
8.7920237 -6.1105504 -1.5635344
8.7462788 -6.1586876 -1.5620546
8.7051048 -6.20994 -1.5614626
8.6572199 -6.2562842 -1.5596869
8.6154766 -6.3069491 -1.5590949
8.6036243 -6.3797255 -1.5641264
8.531106 -6.4074473 -1.557911
8.4483423 -6.4267349 -1.549772
8.4048328 -6.4754338 -1.5490322
8.3626032 -6.5250573 -1.5485882
8.2968035 -6.5560093 -1.5437047
8.2996597 -6.6414022 -1.5519918
8.246459 -6.6822391 -1.5496241
8.2060671 -6.7333403 -1.549772
8.1394968 -6.7627053 -1.5448886
8.0819578 -6.799149 -1.5417811
8.0159969 -6.8280869 -1.5370456
7.9664607 -6.8706832 -1.5355657
7.9226632 -6.9181342 -1.5352699
7.8911786 -6.9764438 -1.5374895
7.8379073 -7.0154963 -1.5354178
7.7917824 -7.0608001 -1.5348259
7.7461257 -7.1064706 -1.534382
7.7016506 -7.153193 -1.5342339
7.6424856 -7.1860862 -1.5311264
7.5839233 -7.2192049 -1.5281667
7.5223951 -7.2491307 -1.5246152
7.479897 -7.2972231 -1.5250591
7.4349813 -7.3429813 -1.5250591
7.1380353 -7.1367021 -1.4717855
7.089941 -7.1761441 -1.4708977
7.0015726 -7.1742086 -1.4614269
6.9457536 -7.2049289 -1.4589111
6.8802743 -7.2252069 -1.4543236
6.8256488 -7.2564802 -1.452104
6.7783027 -7.2953267 -1.451512
6.7574825 -7.3630142 -1.4568393
6.6949091 -7.3852859 -1.4529918
6.5947175 -7.3650656 -1.4407094
2.1759117 -2.4591248 -0.45278132
2.1614323 -2.4731746 -0.45292929
2.1397569 -2.4789016 -0.45144948
6.4318657 -7.548028 -1.4452968
6.4077163 -7.6138377 -1.4504762
6.3760476 -7.6712666 -1.4540277
6.3068991 -7.6834869 -1.4488484
6.2365956 -7.6936121 -1.443373
6.2041025 -7.7502661 -1.4469246
6.1564307 -7.7881875 -1.4469246
2.0058105 -2.5684335 -0.44908178
1.9803548 -2.5681584 -0.44671404
1.9597689 -2.5739646 -0.44553021
1.9421566 -2.5835688 -0.44508624
1.9262675 -2.5954368 -0.44508624
1.8401973 -2.5114503 -0.42732841
1.8189595 -2.5146787 -0.4258486
1.8253226 -2.5563855 -0.43147191
5.979692 -8.488883 -1.5151442
5.9082999 -8.4978037 -1.5101129
5.8633208 -8.5444984 -1.5120367
5.7897124 -8.5491943 -1.5064133
5.7206635 -8.5598888 -1.5019739
5.6914415 -8.6303329 -1.5083371
5.6184254 -8.6344194 -1.5028617
5.5461087 -8.6387682 -1.4975344
1.7872577 -2.8203504 -0.4610683
1.766251 -2.825392 -0.46003243
1.7473251 -2.8336504 -0.4595885
5.2969923 -8.7139587 -1.4873236
5.2673206 -8.7861662 -1.4942788
5.2253876 -8.8387537 -1.4978304
5.16259 -8.8561239 -1.4953147
5.0958347 -8.8661966 -1.4916152
5.0252509 -8.8689003 -1.4867318
4.9818277 -8.9194279 -1.4901353
4.9422646 -8.9775534 -1.4948708
4.8941593 -9.02075 -1.4970905
4.8480406 -9.0680542 -1.5000501
4.7858572 -9.0853796 -1.4979783
4.7277431 -9.1101847 -1.4972384
4.6672544 -9.1302156 -1.4957587
4.6129231 -9.1622152 -1.4963505
4.5522261 -9.1814861 -1.4948708
4.4905987 -9.1985798 -1.4930949
4.4327879 -9.2232857 -1.492651
4.37146 -9.2404766 -1.4910232
4.3138447 -9.2653322 -1.4907272
4.2560887 -9.2898293 -1.4904313
4.2002263 -9.3184738 -1.4908752
4.1445732 -9.3476877 -1.4914671
4.0847673 -9.3675022 -1.4905792
4.0279918 -9.394208 -1.4908752
3.9706585 -9.4196577 -1.4910232
3.9086227 -9.4337931 -1.4893954
3.8499188 -9.4557667 -1.4890994
3.793663 -9.4838028 -1.4898393
3.7346768 -9.5050602 -1.4895434
3.6752169 -9.5250282 -1.4890994
3.6156526 -9.5446253 -1.4886554
3.5508177 -9.5499449 -1.4859918
3.4979141 -9.587347 -1.4885075
3.4426863 -9.6188726 -1.4901353
3.3826189 -9.6370153 -1.4896914
3.3231018 -9.6566544 -1.4895434
3.2650509 -9.6806116 -1.4901353
3.2052803 -9.6995239 -1.4899874
3.1475313 -9.7246542 -1.4908752
3.0851147 -9.7352991 -1.4895434
3.0197575 -9.7360973 -1.4867318
2.9576645 -9.7468719 -1.4855479
2.8989282 -9.7686291 -1.4861398
2.8433414 -9.8014307 -1.4885075
2.782069 -9.8148861 -1.4879156
2.7262774 -9.8479757 -1.4904313
2.6683791 -9.8740664 -1.4919111
2.6095071 -9.8969479 -1.492947
2.546762 -9.9051104 -1.4917631
2.4837749 -9.9119158 -1.4904313
2.4215035 -9.9212046 -1.4895434
2.3605826 -9.9358759 -1.4895434
2.2986822 -9.9463186 -1.4889514
2.2371762 -9.9583063 -1.4886554
2.1741345 -9.9631491 -1.4873236
2.1123464 -9.9733992 -1.4868797
0.5377152 -2.6136875 -0.36073649
0.52321118 -2.6246977 -0.36192036
0.50952703 -2.6404836 -0.36384413
0.49096271 -2.6309206 -0.36192036
0.4812867 -2.6698985 -0.3673957
0.47267213 -2.7176254 -0.37420288
0.45892358 -2.7380326 -0.37686655
0.4432143 -2.747632 -0.37790242
0.42226729 -2.7239106 -0.37390691
0.40394971 -2.7156892 -0.37227911
0.38560989 -2.7063665 -0.37050331
0.36952898 -2.7126017 -0.37109524
0.35503787 -2.7314916 -0.37361094
0.3448073 -2.7866225 -0.38160196
0.32206661 -2.7405541 -0.37435085
0.30328307 -2.7247853 -0.37168717
0.28686723 -2.7295458 -0.37213111
1.0048376 -10.192701 -1.4939828
0.72581196 -7.8528671 -1.1414896
0.6747297 -7.8236713 -1.1364583
0.62679064 -7.8286495 -1.1366062
0.57867044 -7.8313618 -1.1364583
0.53240758 -7.8614073 -1.1404538
0.224508 -3.6366472 -0.50664675
0.20088014 -3.6142569 -0.50309521
0.1770505 -3.5818362 -0.49806383
0.15574853 -3.5986643 -0.50043154
0.13093609 -3.5254283 -0.48933288
0.10821064 -3.4905784 -0.48400551
0.086499825 -3.4793122 -0.48222974
0.18819052 -10.171142 -1.4836241
0.12597185 -10.187928 -1.4859918
0.022043323 -3.4150429 -0.47246292
0.00094021816 -10.216398 -1.4901353
-0.061886508 -10.238958 -1.4935389
-0.12463746 -10.232452 -1.492651
-0.18736559 -10.228528 -1.4922071
-0.24992879 -10.219276 -1.4910232
-0.31250694 -10.213596 -1.4904313
-0.37506124 -10.208522 -1.4899874
-0.43748006 -10.201088 -1.4892474
-0.49972469 -10.191298 -1.4882115
-0.56252092 -10.192976 -1.4889514
-0.62590265 -10.203153 -1.4910232
-0.69009757 -10.222802 -1.4945748
-0.7595787 -10.310102 -1.5083371
-0.8489176 -10.631561 -1.5573192
-0.91523904 -10.638962 -1.559243
-0.98159224 -10.644963 -1.5610187
-1.0477626 -10.647598 -1.5623505
-1.1143113 -10.652772 -1.5641264
-1.1796546 -10.645734 -1.5641264
-1.2433425 -10.624543 -1.5620546
-1.3076625 -10.609844 -1.5610187
-1.3712134 -10.589851 -1.559243
-1.3754628 -10.134362 -1.4917631
-1.4391506 -10.136503 -1.4933909
-1.5010297 -10.125525 -1.4930949
-0.45560426 -2.9539304 -0.40868267
-0.47843456 -2.9803722 -0.41312215
-1.6912311 -10.120566 -1.4967945
-0.52055264 -3.0064325 -0.41800556
-0.54371703 -3.0294631 -0.42200106
-0.56301939 -3.029959 -0.422593
-1.9377838 -10.069216 -1.4957587
-2.0001099 -10.060046 -1.4962026
-2.0612028 -10.044678 -1.4957587
-2.1242309 -10.038614 -1.4967945
-2.1931641 -10.059211 -1.5019739
-0.63320404 -2.824806 -0.39462438
-0.6467402 -2.8044863 -0.39210868
-2.377264 -10.014251 -1.5015299
-2.4358525 -9.9879456 -1.4997542
-2.4963706 -9.9699335 -1.4993103
-0.9384352 -3.6555851 -0.52618039
-0.76397294 -2.9028685 -0.41060644
-0.78125435 -2.8962166 -0.41031048
-0.79426217 -2.8742115 -0.40764681
-0.81430978 -2.8778477 -0.40897864
-0.81597513 -2.8177056 -0.40039569
-2.9114704 -9.8175192 -1.4936869
-2.9791195 -9.8240767 -1.4975344
-1.0018548 -3.2348442 -0.46817145
-1.0207884 -3.2258077 -0.46772751
-3.1701009 -9.8005095 -1.5027138
-3.2143533 -9.7329817 -1.4951667
-3.2752774 -9.7168236 -1.4957587
-3.3358021 -9.6993494 -1.4962026
-1.1330134 -3.2321715 -0.47394276
-1.1524911 -3.2242274 -0.47379476
-3.4710679 -9.5192375 -1.4775568
-3.5673177 -9.5997314 -1.4938349
-1.1601515 -3.0665102 -0.45204142
-1.1796573 -3.0611794 -0.45233738
-3.7633016 -9.5830708 -1.5019739
-1.2009749 -3.0060687 -0.44582617
-1.2302105 -3.025207 -0.45011765
-3.9685793 -9.5834455 -1.5135164
-4.0054145 -9.5069666 -1.5050815
-4.0593863 -9.4722128 -1.5034537
-4.1312637 -9.4788561 -1.508633
-4.191752 -9.4587536 -1.509521
-4.2480855 -9.4292488 -1.508929
-4.2992725 -9.3886194 -1.5065613
-1.3174841 -2.8329852 -0.42895621
-1.3327279 -2.8203776 -0.42821631
-1.3714256 -2.8567178 -0.43561539
-1.3750465 -2.8198085 -0.43087998
-4.6072059 -9.296627 -1.5139604
-4.6650515 -9.269949 -1.5142564
-4.7339954 -9.2649279 -1.5182519
-4.79531 -9.2444839 -1.5197318
-4.8482556 -9.2078867 -1.5185479
-4.9074602 -9.183198 -1.5194358
-4.9641867 -9.1537828 -1.5195837
-4.7207704 -8.5790424 -1.426651
-4.7419786 -8.4937897 -1.4170322
-4.7608566 -8.4060192 -1.4069694
-4.7842584 -8.3277721 -1.3985344
-4.8138518 -8.2615185 -1.3921713
-4.8483491 -8.2045822 -1.3874358
-4.8924985 -8.1644993 -1.3856601
-4.9199018 -8.0971394 -1.3791488
-4.980907 -8.0853224 -1.3824044
-4.9319139 -7.8969193 -1.3545837
-5.0723433 -8.0118923 -1.3803327
-5.2084894 -8.1162796 -1.4044538
-5.2641249 -8.0932875 -1.4060816
-5.3283844 -8.083128 -1.4100771
-5.4421692 -8.1464911 -1.4273909
-5.3811512 -7.9491615 -1.3977945
-5.4343014 -7.9225178 -1.3989784
-5.4946656 -7.9060774 -1.402086
-5.5584488 -7.8940454 -1.4060816
-5.6205678 -7.8791122 -1.409633
-5.6722836 -7.8492861 -1.410521
-5.6887884 -7.771244 -1.40253
-6.3137398 -8.514657 -1.5475523
-6.3682418 -8.478919 -1.5481442
-6.49261 -8.5349188 -1.5660501
-1.7172309 -2.2302916 -0.38263783
-1.7394021 -2.230628 -0.3847096
-1.7677741 -2.2385349 -0.38826117
-1.7752963 -2.2199247 -0.38678133
-1.7839023 -2.2028434 -0.38559747
-6.7691035 -8.2496424 -1.558207
-6.8233876 -8.2125168 -1.5590949
-6.8666458 -8.1621704 -1.5574671
-6.9223709 -8.1266594 -1.558799
-6.9876089 -8.1020041 -1.5623505
-7.0391421 -8.0612106 -1.5627944
-7.0982995 -8.0289812 -1.5650142
-7.1619434 -8.0014858 -1.5682698
-7.2142258 -7.9610543 -1.5690098
-7.2455525 -7.8976932 -1.5651622
-7.2938757 -7.8530865 -1.5651622
-7.3568301 -7.8240337 -1.5684178
-7.404017 -7.7780294 -1.5682698
-7.4488573 -7.7296047 -1.5676779
-7.498908 -7.6865849 -1.5682698
-7.5570512 -7.6516852 -1.5706376
-7.5577025 -7.5590177 -1.5608708
-7.6405296 -7.5486426 -1.5685657
-3.5074642 -3.4238932 -0.69487989
-3.4066393 -3.2849474 -0.66957498
-3.3658469 -3.2060184 -0.65699649
-7.9056139 -7.4360991 -1.5854357
-7.9206586 -7.3591809 -1.5792205
-3.5146501 -3.2264316 -0.67534626
-3.2698371 -2.9650476 -0.62192476
-3.37713 -3.0247447 -0.63983059
-3.5601063 -3.1493998 -0.67268258
-3.455709 -3.0195053 -0.6481176
-3.4374757 -2.9665923 -0.64086646
-3.4277587 -2.9217141 -0.63539112
-3.7679999 -3.1718724 -0.69843149
-3.8026042 -3.161334 -0.7013911
-3.8754461 -3.1818595 -0.71174985
-5.2302866 -4.2402544 -0.96894264
-5.35813 -4.2896533 -0.98847628
-5.3401222 -4.2217422 -0.98004127
-5.3932142 -4.2101917 -0.98522067
-5.4643831 -4.2120318 -0.99380362
-5.4814668 -4.1718369 -0.99217582
-5.5077524 -4.1387186 -0.99232376
-5.5473423 -4.1154499 -0.99498743
-5.5405707 -4.0579648 -0.98906815
-5.7521257 -4.1588764 -1.023548
-5.7356715 -4.0936351 -1.0158529
-5.6337323 -3.9689605 -0.99261975
-5.8439441 -4.0635834 -1.0265076
-5.7554102 -3.9498808 -1.0059382
-5.6501455 -3.8268855 -0.98255694
-5.717926 -3.8218143 -0.99054801
-5.7313604 -3.7801254 -0.98877221
-5.7569337 -3.746505 -0.98921615
-5.6533041 -3.6299114 -0.96672291
-5.7155771 -3.6205513 -0.97382605
-5.7141986 -3.5707424 -0.96968251
-5.6400137 -3.4764707 -0.95281255
-5.7761803 -3.511651 -0.97293812
-5.9596434 -3.573252 -1.0012027
-5.9823074 -3.5371203 -1.0013506
-5.892817 -3.4356101 -0.982113
-5.9678097 -3.4304295 -0.99143589
-5.8020139 -3.2879698 -0.95932376
-5.8980665 -3.2947378 -0.97234619
-5.9510961 -3.2766063 -0.97796953
-5.9067574 -3.2051363 -0.96701884
-5.8853183 -3.1469219 -0.9600637
-5.9753971 -3.148078 -0.97205025
-5.9129581 -3.0689976 -0.95828789
-5.9845171 -3.0596619 -0.96716684
-5.8874531 -2.9646358 -0.94778121
-6.075666 -3.0127842 -0.97619373
-6.0033813 -2.9312036 -0.96109957
-6.1950836 -2.9778321 -0.98995608
-6.2650933 -2.9642878 -0.99853903
-6.4633851 -3.0096743 -1.0282834
-6.254241 -2.8657672 -0.99084395
-6.2626905 -2.8232751 -0.98936415
-5.7717619 -2.5595677 -0.90619826
-5.8662324 -2.5584874 -0.91907269
-6.2754188 -2.6911564 -0.98314887
-6.4102921 -2.702527 -1.0023866
-6.3609662 -2.6358948 -0.99173182
-6.5629725 -2.6725008 -1.0217721
-6.6545467 -2.662292 -1.0339067
-6.6330156 -2.6065862 -1.0278394
-6.5879841 -2.5423474 -1.0180726
-6.4869232 -2.4577458 -0.9994269
-6.5222759 -2.4254768 -1.0026826
-6.5565472 -2.3925276 -1.0057901
-6.5143018 -2.3319294 -0.99676323
-6.5620832 -2.3037024 -1.0020906
-6.548974 -2.2540653 -0.9977991
-6.6376543 -2.2391162 -1.0096377
-6.6071315 -2.1837664 -1.0026826
-6.6448717 -2.1511002 -1.00653
-6.7965393 -2.1541905 -1.0282834
-6.7576747 -2.0963395 -1.0201443
-6.8290877 -2.072634 -1.0293193
-6.8018541 -2.0188797 -1.0231041
-6.9062505 -2.0038233 -1.0374583
-6.8879666 -1.9527823 -1.0327228
-6.7225289 -1.8614233 -1.0051982
-6.854125 -1.8526353 -1.023844
-6.9303946 -1.8276829 -1.0339067
-6.932858 -1.7829089 -1.0325749
-7.1528068 -1.7927181 -1.064835
-7.3491087 -1.7940333 -1.0933955
-7.3840342 -1.7546186 -1.097095
-7.8167257 -1.8067701 -1.1619111
-8.1383829 -1.8285406 -1.2095613
-8.2103252 -1.7918468 -1.2188842
-8.2540617 -1.748399 -1.2239157
-8.9999456 -1.848662 -1.336234
-9.3447962 -1.8597695 -1.3871398
-9.8183022 -1.8913916 -1.4575793
-10.368368 -1.9313879 -1.5395613
-11.267745 -2.0273635 -1.674521
-11.284844 -1.9590331 -1.6752608
-11.535638 -1.9297074 -1.7115164
-11.763054 -1.8936062 -1.7442205
-12.317875 -1.9054018 -1.8264985
-12.92022 -1.9174215 -1.9158796
-13.03945 -1.8534081 -1.9321576
-13.000597 -1.7665776 -1.9246105
-13.146542 -1.7043087 -1.945032
-13.108655 -1.61768 -1.937781
-13.061362 -1.5305454 -1.929198
-13.075422 -1.4509184 -1.9299378
-13.119489 -1.3743682 -1.9352652
-13.137517 -1.2948118 -1.936745
-13.132412 -1.2129958 -1.9348212
-13.140594 -1.1324788 -1.9349693
-13.178842 -1.0543494 -1.9397047
-13.176187 -0.9728111 -1.9383729
-13.173027 -0.89134514 -1.937041
-13.162454 -0.8095302 -1.9346733
-13.156311 -0.72815144 -1.9330455
-13.153617 -0.64707261 -1.9320096
-13.155363 -0.56626642 -1.9317137
-13.156613 -0.48546323 -1.9314177
-13.144517 -0.4042719 -1.929198
-13.176411 -0.32433853 -1.9336374
-13.133656 -0.24266529 -1.9269782
-13.157642 -0.16235277 -1.9303819
-13.147512 -0.081549421 -1.9287541
-13.15271 -0.00087615778 -1.9294939
-13.123788 0.07965076 -1.9252025
-13.124041 0.16018747 -1.9253504
-13.132699 0.2408943 -1.9268303
-13.130974 0.3214705 -1.9268303
-13.114915 0.40160957 -1.9247586
-13.090461 0.48127228 -1.9215029
-13.075404 0.56107491 -1.9197271
-13.065788 0.64100224 -1.9188392
-13.091234 0.72279865 -1.9232787
-13.067797 0.80195862 -1.920467
-13.085325 0.88366067 -1.9238707
-12.12728 -0.30657384 -1.9195696
-12.128933 -0.23215649 -1.9195696
-12.096566 -0.15729286 -1.9141512
-12.110137 -0.083155304 -1.9162229
-12.104496 -0.0088428073 -1.9152668
-12.080629 0.065301865 -1.911442
-12.091847 0.13956231 -1.9133544
-12.090763 0.21375386 -1.9133544
-12.105016 0.28831297 -1.9159043
-12.125714 0.36326167 -1.9195696
-12.08182 0.43616232 -1.9128764
-12.067081 0.50978714 -1.910964
-12.101196 0.58563191 -1.9170198
-12.101318 0.66008735 -1.9176573
-12.08423 0.73355001 -1.9155855
-12.051921 0.80584043 -1.9111233
-12.025088 0.87819326 -1.9076173
-12.007664 0.95102632 -1.905705
-12.037997 1.0277922 -1.9116014
-12.012785 1.0999269 -1.9085735
-12.02153 1.1751515 -1.9111233
-11.993473 1.2467493 -1.9077767
-11.930645 1.3142648 -1.8988522
-11.958639 1.3916662 -1.9047488
-11.944975 1.4644163 -1.9039519
-11.942618 1.5385644 -1.9050674
-11.942737 1.6131352 -1.9066612
-11.897424 1.681412 -1.900924
-11.851724 1.7491935 -1.8951869
-11.861259 1.8250335 -1.8985336
-11.825467 1.8938764 -1.8945495
-11.829205 1.9689934 -1.8970993
-11.846085 2.0465801 -1.9018801
-11.823586 2.1174877 -1.9002866
-11.843374 2.1961145 -1.905705
-11.855854 2.2737625 -1.9100078
-11.76905 2.3320765 -1.8980554
-11.74388 2.4020705 -1.8963025
-11.695111 2.4669538 -1.8907247
-11.7222 2.5478919 -1.8977367
-11.727541 2.6245124 -1.9012427
-11.697748 2.6933212 -1.8990116
-11.67812 2.7643645 -1.8985336
-11.647509 2.8327024 -1.8963025
-11.653853 2.9100955 -1.9002866
-11.608045 2.9744418 -1.895665
-11.601033 3.0486219 -1.8975774
-11.553511 3.1120453 -1.8927964
-11.471389 3.1655476 -1.8822784
-11.48595 3.245538 -1.8880155
-11.514187 3.3299394 -1.8961431
-11.459457 3.3904445 -1.890406
-11.406311 3.4509757 -1.8849876
-11.35474 3.5115657 -1.8798879
-11.355573 3.5883093 -1.8837126
-11.370922 3.6700461 -1.8900872
-11.344439 3.7385118 -1.8894498
-11.321285 3.8080497 -1.8894498
-11.300508 3.8784053 -1.8899279
-11.290475 3.9525635 -1.8923184
-11.229749 4.0088229 -1.8861032
-11.193807 4.0736012 -1.8841908
-11.154716 4.1370597 -1.8818003
-11.125428 4.20403 -1.8811629
-11.112322 4.2771792 -1.8833939
-11.097817 4.349966 -1.8854656
-11.093841 4.4271259 -1.8894498
-11.061894 4.4932556 -1.8886529
-11.023168 4.5565205 -1.8867406
-10.991362 4.6225405 -1.8861032
-10.965514 4.6910601 -1.8865812
-10.901219 4.7428956 -1.880366
-10.850244 4.8001103 -1.8765413
-10.850299 4.8799577 -1.8818003
-10.767178 4.9222269 -1.8723978
-10.784225 5.0102444 -1.8808441
-10.721141 5.0611501 -1.875107
-10.705017 5.1340952 -1.8778162
-10.648462 5.1875782 -1.873354
-10.628819 5.2589469 -1.8755851
-10.577826 5.3147583 -1.8722384
-10.561726 5.3880858 -1.8752663
-10.541615 5.4595995 -1.8776568
-10.491314 5.5154514 -1.8746289
-10.446823 5.5741444 -1.8727165
-10.398534 5.6306195 -1.8701667
-10.390612 5.709054 -1.875107
-10.360559 5.7755857 -1.8760632
-10.312896 5.8322453 -1.8738321
-10.270921 5.8919759 -1.8727165
-10.223482 5.948432 -1.8706448
-10.205496 6.0220871 -1.8741508
-10.205627 6.1068964 -1.8811629
-10.151928 6.1596727 -1.878135
-10.110579 6.2197785 -1.8774974
-10.078926 6.2858782 -1.8787724
-10.031822 6.3423276 -1.8771788
-10.011835 6.4160132 -1.8808441
-10.056726 6.5321717 -1.8970993
-9.9859467 6.5736723 -1.8912028
-9.9314613 6.6255078 -1.8884935
-9.8906212 6.6863213 -1.8884935
-9.851038 6.7479987 -1.8888123
-9.8297234 6.8223882 -1.8927964
-9.8337078 6.9149404 -1.9018801
-9.7460661 6.9430733 -1.8929558
-9.7345018 7.0252733 -1.899171
-9.7717075 7.143714 -1.9152668
-9.6737394 7.1635885 -1.90443
-9.6493464 7.2376194 -1.9084141
-9.6220503 7.3098283 -1.9119202
-9.5762348 7.3681283 -1.9117608
-9.523057 7.4206805 -1.9101671
-9.4912958 7.4899807 -1.9130358
-9.4189377 7.5271239 -1.9076173
-9.4285975 7.6301088 -1.919251
-9.3548756 7.6659184 -1.9136732
-9.331975 7.7433467 -1.9187728
-9.2948694 7.809351 -1.9210039
-9.2354975 7.8566418 -1.9186134
-9.2185326 7.9402204 -1.9253068
-9.1480618 7.9778185 -1.9206852
-9.129281 8.0605888 -1.9272192
-9.0774422 8.1144791 -1.926741
-9.053833 8.1938715 -1.9324782
-9.0092096 8.2546062 -1.933753
-8.9779329 8.327857 -1.9380559
-8.9144306 8.3712988 -1.9353467
-8.8943806 8.4557676 -1.9423587
-8.8302364 8.4985456 -1.9396496
-8.7970161 8.5711679 -1.9439523
-8.7548018 8.6353827 -1.9463428
-8.6855841 8.6728945 -1.9426775
-8.6356764 8.7295341 -1.9434743
-8.60886 8.8098936 -1.9496895
-8.5546408 8.8625507 -1.9496895
-8.4980564 8.9127312 -1.9492114
-8.4493008 8.9711742 -1.9506457
-8.3880434 9.0163441 -1.9492114
-8.3145266 9.0480165 -1.9449086
-8.2807493 9.1229849 -1.9501675
-8.2213202 9.1699476 -1.9493707
-8.1936989 9.252739 -1.9563828
-8.1679688 9.3385077 -1.9640323
-8.1247139 9.4048843 -1.9675382
-8.0431442 9.4267731 -1.9616418
-7.966702 9.4540558 -1.9570203
-7.8908601 9.481514 -1.952558
-7.860116 9.5633097 -1.9595701
-7.833642 9.6512156 -1.967857
-7.7872424 9.7152767 -1.9712037
-7.7403512 9.77913 -1.9745504
-7.6789861 9.8248844 -1.9742316
-7.6270018 9.8827581 -1.9764627
-7.569809 9.934082 -1.9774189
-7.4986215 9.9669313 -1.9747096
-7.4255505 9.9969053 -1.9715225
-7.3786664 10.062181 -1.9755065
-7.3150506 10.104868 -1.9750284
-7.2569284 10.155184 -1.976144
-7.1853757 10.186613 -1.9735942
-7.1328907 10.245093 -1.9764627
-7.0866671 10.313076 -1.9812436
-7.0166044 10.34656 -1.9793313
-6.9645181 10.406648 -1.9826779
-6.9021654 10.451656 -1.983156
-6.8443727 10.503736 -1.9850683
-6.7829976 10.550517 -1.9860245
-6.7202487 10.595272 -1.986662
-6.6540632 10.634634 -1.9863433
-6.5866113 10.671902 -1.9857059
-6.5174122 10.706213 -1.9845903
-6.4505811 10.744308 -1.9842715
-6.3880544 10.789633 -1.9853871
-6.3227258 10.830331 -1.9857059
-6.2536907 10.864645 -1.9849091
-6.1854467 10.900236 -1.9844309
-6.1218214 10.944016 -1.9855465
-6.0588455 10.989153 -1.9869808
-5.9884748 11.020918 -1.9860245
-5.9146805 11.046141 -1.9839528
-5.8541622 11.096195 -1.9865026
-5.796895 11.152929 -1.9903274
-5.7378016 11.206742 -1.993674
-5.6720419 11.247908 -1.9947896
-5.6024799 11.281614 -1.9946302
-5.5344529 11.318439 -1.9951084
-5.471324 11.365527 -1.9974988
-5.4141665 11.425649 -2.0022798
-5.3339429 11.437181 -1.9984549
-5.2665482 11.475975 -1.9995705
-5.2005029 11.517971 -2.0013235
-5.1305332 11.551469 -2.0016422
-5.0643005 11.593587 -2.0035546
-4.9887824 11.614466 -2.0018017
-4.9231844 11.658499 -2.0041921
-4.8553414 11.697605 -2.0057857
-4.7823563 11.724435 -2.0053077
-4.7187738 11.774634 -2.0089731
-4.6453524 11.800611 -2.0084949
-4.5838938 11.857436 -2.0134351
-4.5117521 11.887185 -2.0137539
-4.4252868 11.878567 -2.0075388
-4.3655381 11.941656 -2.0137539
-4.2941833 11.973794 -2.0147102
-4.2327533 12.034374 -2.0206065
-4.1630163 12.072252 -2.0226784
-4.0920253 12.106921 -2.024272
-4.0173512 12.130864 -2.0241127
-3.9550273 12.192847 -2.0304873
-3.8804379 12.217827 -2.0306466
-3.7989497 12.220667 -2.0271406
-3.7405567 12.298527 -2.0363836
-3.6734688 12.349634 -2.0411646
-3.5998294 12.379525 -2.0424395
-3.5302789 12.424171 -2.0462642
-3.4603159 12.46843 -2.0500889
-3.3899424 12.512295 -2.0539138
-3.3148711 12.539541 -2.0550294
-3.2368815 12.55582 -2.0543919
-3.1619449 12.584063 -2.0558262
-3.084671 12.603227 -2.0558262
-3.0155194 12.656488 -2.0615633
-2.9398103 12.683409 -2.0629976
-2.8660545 12.719506 -2.0660255
-2.7767658 12.68574 -2.057579
-2.70893 12.749857 -2.065388
-2.6204846 12.716928 -2.0572603
-2.5383456 12.712437 -2.0539138
-2.4657302 12.755881 -2.0585353
-2.3926768 12.798912 -2.0631568
-2.3233998 12.864841 -2.0716033
-2.2535729 12.931374 -2.0802088
-2.1769655 12.961509 -2.0829179
-2.0918791 12.940513 -2.0773404
-2.0201693 13.002855 -2.0854678
-1.9321936 12.960327 -2.0765436
-1.8499817 12.95337 -2.0735157
-1.7696648 12.958609 -2.0725594
-1.6905018 12.972159 -2.0730374
-1.6050378 12.935263 -2.065388
-1.5333822 13.010556 -2.0760653
-1.4458526 12.951041 -2.0649099
-1.3669806 12.96556 -2.065866
-1.2920804 13.020858 -2.0735157
-1.2116127 13.022643 -2.0725594
-1.1362133 13.081959 -2.0810056
-1.0579079 13.113285 -2.0849898
-0.97860044 13.135281 -2.0875397
-0.89778346 13.138083 -2.0870614
-0.81672376 13.136448 -2.0859461
-0.73610467 13.141212 -2.0859461
-0.65516269 13.139565 -2.0849898
-0.5746569 13.146297 -2.0854678
-0.49212745 13.100248 -2.0774996
-0.41269869 13.133611 -2.0824399
-0.3321296 13.136883 -2.0825994
-0.25164941 13.145582 -2.083715
-0.17081761 13.134047 -2.0816431
-0.090225406 13.134847 -2.0816431
-0.0096003991 13.096652 -2.075428
0.0710086 13.142863 -2.0829179
0.15133224 13.114539 -2.0784559
0.23216447 13.134092 -2.0818026
0.31279632 13.134395 -2.0821211
0.39364734 13.141109 -2.0835555
0.47405875 13.132526 -2.0825994
0.55338043 13.09978 -2.0778184
0.63498861 13.121777 -2.0819619
0.71506047 13.109747 -2.080687
0.79279661 13.060769 -2.0735157
0.87417179 13.074374 -2.0765436
0.95286888 13.048088 -2.0731969
1.030653 13.013455 -2.0685751
1.1085519 12.984262 -2.0649099
1.1890107 12.986064 -2.0663443
1.2678052 12.969682 -2.0649099
1.3460354 12.948893 -2.0628381
1.4283806 12.966885 -2.0671411
1.5086015 12.96376 -2.0680971
1.59148 12.981696 -2.0725594
1.6689605 12.955042 -2.0698502
1.7526473 12.975863 -2.0749497
1.8338901 12.976596 -2.0768621
1.9123256 12.957286 -2.0755873
1.9920942 12.94726 -2.075906
2.0688462 12.918221 -2.0731969
2.1466134 12.896519 -2.0717626
2.2241921 12.87435 -2.0703282
2.3000138 12.842968 -2.0674598
2.3758941 12.813083 -2.0649099
0 0 -0
2.5294981 12.765531 -2.0620413
2.6065915 12.743967 -2.0610852
2.6822932 12.716142 -2.0591729
2.7655087 12.723561 -2.0631568
2.8288686 12.640842 -2.05232
2.8979621 12.586688 -2.0462642
2.987416 12.620546 -2.0548699
3.0578001 12.5732 -2.0500889
3.1289117 12.530256 -2.0461049
3.2030418 12.500302 -2.0443518
3.2857032 12.503328 -2.0481765
3.3877769 12.577305 -2.0639536
3.4281251 12.423048 -2.0416427
3.5067027 12.41033 -2.043077
3.5786715 12.374354 -2.0406866
3.6581724 12.36447 -2.0427582
3.7382581 12.355965 -2.0451486
3.8105028 12.321477 -2.0432363
3.8809781 12.281861 -2.0405271
3.9535363 12.249361 -2.0390928
4.0193539 12.196743 -2.034312
4.0997806 12.188694 -2.0371804
4.1639175 12.132495 -2.0319214
4.2324114 12.089945 -2.029053
4.304523 12.058169 -2.0280967
4.362226 11.987 -2.0204473
4.437068 11.963711 -2.0210848
4.4873629 11.875309 -2.0105667
4.5789375 11.896382 -2.0190129
4.6568894 11.880931 -2.021244
4.7300677 11.85305 -2.0214033
4.800107 11.817401 -2.020288
4.873281 11.789551 -2.0206065
4.9394054 11.744866 -2.0180569
5.0008945 11.689831 -2.0137539
5.072134 11.65802 -2.0135946
5.1387782 11.615845 -2.0116823
5.1969981 11.555284 -2.0065825
5.2731376 11.53485 -2.0086544
5.3321691 11.477208 -2.0041921
5.400806 11.440703 -2.0035546
5.4662075 11.397558 -2.0018017
5.5321479 11.355816 -2.0003674
5.5837731 11.285378 -1.9938334
5.6604476 11.265902 -1.9965426
5.7236357 11.219525 -1.9944708
5.7964554 11.192084 -1.9959052
5.8544545 11.136209 -1.9922397
5.9115219 11.079172 -1.988415
5.9751611 11.034879 -1.9869808
6.0289717 10.972916 -1.9823592
6.0952253 10.933991 -1.9820404
6.1471362 10.869746 -1.9771001
6.2294345 10.859227 -1.9821998
6.2934661 10.816533 -1.981403
6.3667397 10.789617 -1.9836341
6.4206586 10.730016 -1.9798093
6.4756227 10.672693 -1.9764627
6.5378833 10.627713 -1.9755065
6.5920005 10.569806 -1.9721599
6.6472363 10.514139 -1.9692913
6.7004395 10.455699 -1.9659446
6.7623172 10.411077 -1.9653072
6.8401837 10.390829 -1.9694507
6.8983335 10.34045 -1.967857
6.9610987 10.29711 -1.9676976
7.0046234 10.225697 -1.9621199
7.0509124 10.159005 -1.9574983
7.1108427 10.11232 -1.9568609
7.1727567 10.068498 -1.9568609
7.2292018 10.017093 -1.9554266
7.2928596 9.9757347 -1.9560641
7.3509951 9.9268312 -1.9552672
7.4064355 9.8744316 -1.953833
7.4603157 9.8201532 -1.95208
7.5156145 9.7679338 -1.9508051
7.5584183 9.6998301 -1.9463428
7.6232967 9.6602449 -1.9477772
7.6423688 9.5631571 -1.9374185
7.6959357 9.5099449 -1.9361435
7.7422543 9.4480362 -1.9331156
7.8158398 9.4193468 -1.9370997
7.8506279 9.3440008 -1.9313626
7.8982191 9.2843752 -1.9289721
7.942153 9.2207775 -1.9257848
7.9998789 9.1733599 -1.9261036
8.0468674 9.11374 -1.9238725
8.097374 9.0583048 -1.9225975
8.1475029 9.002594 -1.9213227
8.1912508 8.9400578 -1.9186134
8.2264824 8.868639 -1.9139919
8.2679052 8.8043213 -1.910964
8.3115692 8.742692 -1.9085735
8.3561573 8.6822815 -1.9065018
8.4072065 8.6287241 -1.9060236
8.4572201 8.5741644 -1.9053862
8.4915352 8.5039473 -1.9012427
8.5421515 8.4502954 -1.900924
8.5896044 8.3935823 -1.8999678
8.624608 8.3249502 -1.8963025
8.6590939 8.2562046 -1.892637
8.6952171 8.1893806 -1.8894498
8.7279558 8.1197348 -1.885625
8.7696171 8.0586796 -1.883872
8.8232851 8.0086994 -1.8848282
8.861969 7.9451838 -1.8825971
8.8869028 7.8697138 -1.8774974
8.9223919 7.803987 -1.8747883
8.9783249 7.7561927 -1.8765413
9.0099764 7.6875 -1.8731946
9.051692 7.6276178 -1.872079
9.1134996 7.5845652 -1.8752663
9.1476641 7.5184727 -1.8727165
9.182127 7.4528699 -1.870326
9.203805 7.3772478 -1.8653858
9.2179356 7.2961264 -1.8590112
9.2477512 7.2278776 -1.8559833
9.3013058 7.1782365 -1.8578956
9.3577385 7.1306033 -1.8604455
9.3658161 7.0463419 -1.8532741
9.417592 6.9952173 -1.8550271
9.4269009 6.9127798 -1.8483338
9.4675407 6.8536496 -1.8480151
9.5302982 6.8103528 -1.8521585
9.5533524 6.7386594 -1.8484931
9.5864182 6.674273 -1.8468995
9.631259 6.6181221 -1.8476963
9.6855755 6.5683212 -1.8504056
9.6912374 6.4857059 -1.8437122
9.7201414 6.4190469 -1.8416405
9.7436304 6.3490434 -1.8386126
9.7483578 6.2672482 -1.8320786
9.8199749 6.2284675 -1.8384532
9.8864613 6.1859007 -1.8438716
9.9091101 6.1157885 -1.8410031
9.9169359 6.0369048 -1.8354253
9.9343243 5.9642539 -1.8317599
9.9928198 5.9162631 -1.8359034
10.040869 5.8618054 -1.8381345
10.072369 5.7976227 -1.8373376
10.114622 5.7396088 -1.8386126
10.166018 5.6865964 -1.8416405
10.223197 5.6365051 -1.8457839
10.281878 5.5868692 -1.8502462
10.30291 5.516685 -1.8478557
10.377603 5.4750161 -1.8553458
10.37684 5.3934798 -1.8491306
10.407102 5.3283572 -1.8486525
10.466926 5.2781811 -1.8535929
10.507072 5.2178097 -1.8550271
10.51938 5.1437001 -1.8515211
10.515162 5.0619283 -1.8451465
10.588845 5.0176063 -1.852796
10.642695 4.9633894 -1.8569394
10.693586 4.9074645 -1.8606049
10.691106 4.8271317 -1.8548677
10.740373 4.7702579 -1.8583738
10.78301 4.7101946 -1.8607643
10.765448 4.6240706 -1.8526366
10.793617 4.5579281 -1.8526366
10.802234 4.4836655 -1.84929
10.845081 4.4236388 -1.8519992
10.850944 4.3485641 -1.8483338
10.849864 4.2710528 -1.8435528
10.884153 4.207603 -1.8449872
10.940224 4.1523013 -1.8502462
10.949769 4.0792356 -1.8475369
10.968102 4.0095992 -1.8464215
10.999003 3.9445579 -1.8475369
11.010893 3.8727365 -1.8454652
11.06338 3.8150797 -1.8504056
11.08284 3.7458599 -1.849768
11.111238 3.6796486 -1.8507242
11.099801 3.6004353 -1.8449872
11.195074 3.5555718 -1.8574176
11.259102 3.5000021 -1.864589
11.252975 3.4225202 -1.8599674
11.279441 3.3550978 -1.8609235
11.292232 3.2836196 -1.8596487
11.320713 3.2166989 -1.8610829
11.341189 3.1474397 -1.8612423
11.366005 3.0793414 -1.8621985
11.398047 3.0130756 -1.8644296
11.408673 2.9411099 -1.8631546
11.415015 2.868165 -1.8612423
11.3787 2.7849252 -1.8523179
11.426305 2.7223771 -1.8574176
11.475492 2.6597955 -1.862836
11.526267 2.5971463 -1.8685731
11.541021 2.5261626 -1.8684137
11.576583 2.4596097 -1.8717604
11.617563 2.3939114 -1.8760632
11.621384 2.3204556 -1.8743101
11.583062 2.2389851 -1.8657045
11.618902 2.1720438 -1.8693699
11.640754 2.1022902 -1.8708042
11.684556 2.0362489 -1.8759038
11.703646 1.9656602 -1.8770194
11.714512 1.8936534 -1.87686
11.808829 1.8346239 -1.890406
0 0 -0
0 0 -0
0 0 -0
5.9365296 0.77341598 -0.92768621
5.9176502 0.73405731 -0.9238615
5.8975325 0.69484395 -0.91987735
0 0 -0
0 0 -0
0 0 -0
0 0 -0
0 0 -0
0 0 -0
0 0 -0
0 0 -0
0 0 -0
0 0 -0
0 0 -0
0 0 -0
0 0 -0
0 0 -0
0 0 -0
0 0 -0
0 0 -0
0 0 -0
0 0 -0
0 -0 -0
0 -0 -0
0 -0 -0
0 -0 -0
0 -0 -0
0 -0 -0
0 -0 -0
0 -0 -0
0 -0 -0
0 -0 -0
5.9506912 -0.39809033 -0.92402083
5.9638901 -0.43574554 -0.92657065
5.9748821 -0.47342187 -0.92880177
5.9895701 -0.51158524 -0.93167031
0 -0 -0
6.0722528 -0.59378523 -0.94617248
10.388014 -1.0799119 -1.6472161
10.297783 -1.1344458 -1.6336701
10.350445 -1.2045695 -1.6433913
10.366377 -1.2709383 -1.6472161
10.377966 -1.3370434 -1.6504034
10.380328 -1.4021496 -1.6521564
10.366642 -1.4651251 -1.6513596
10.316438 -1.5226533 -1.6446662
10.304949 -1.5856251 -1.6443474
10.277479 -1.6460156 -1.6414789
10.284715 -1.7119632 -1.6443474
10.272072 -1.7747008 -1.6440288
10.236694 -1.8333455 -1.6400447
10.213605 -1.8939627 -1.6381323
10.195973 -1.9554811 -1.637176
10.174099 -2.0160871 -1.6355824
10.149931 -2.0761025 -1.6336701
10.123478 -2.1354902 -1.631439
10.099572 -2.1952603 -1.629686
8.3238583 -1.8629194 -1.3382087
10.087265 -2.3225758 -1.6322358
10.083392 -2.3869276 -1.6339889
10.081026 -2.4517856 -1.6360606
10.073456 -2.5155084 -1.6373354
10.007145 -2.5642848 -1.6288892
7.4581113 -1.9600562 -1.2060957
10.009241 -2.6961372 -1.6346263
9.9982195 -2.7590775 -1.6355824
9.9706516 -2.817421 -1.6338295
9.9645567 -2.8818376 -1.6357418
9.95994 -2.9468453 -1.637973
7.9875579 -2.4167583 -1.3084075
7.9348521 -2.4540577 -1.3020329
7.9139972 -2.5009141 -1.3010768
7.9003816 -2.5500329 -1.3013955
8.7162638 -2.8725054 -1.4427516
9.7970047 -3.2953963 -1.6298454
9.7822027 -3.3573701 -1.6308016
9.7474413 -3.412437 -1.6284111
9.7244596 -3.4715183 -1.6280923
9.6909151 -3.5267327 -1.6260206
7.6512375 -2.8378236 -1.2786064
9.6081209 -3.6307342 -1.6193273
9.5644712 -3.6814647 -1.6156619
9.5076933 -3.726753 -1.6097654
9.4461374 -3.7696543 -1.6030722
9.3789253 -3.8097122 -1.5954226
9.456645 -3.9090462 -1.6131121
9.5398645 -4.0121546 -1.6319171
9.5114365 -4.0690618 -1.6312796
9.4808588 -4.1249828 -1.6303234
9.4472446 -4.1794844 -1.6288892
9.4304256 -4.2414222 -1.6304828
9.3808784 -4.2885351 -1.6263393
9.3302145 -4.3347845 -1.6220365
9.2811213 -4.3814168 -1.6180524
9.2291384 -4.4263296 -1.6135901
9.194705 -4.4794164 -1.6123153
9.1528893 -4.5287457 -1.6097654
9.1258116 -4.5852647 -1.6099248
9.1282845 -4.6568742 -1.6155026
9.0916491 -4.7087107 -1.6140683
9.0520992 -4.7588949 -1.6121559
9.0018253 -4.803195 -1.6083312
8.9643707 -4.8541083 -1.6068969
8.9084606 -4.8947606 -1.602116
8.8946428 -4.9584622 -1.6051439
8.8202248 -4.9881625 -1.5970163
8.7937336 -5.0446444 -1.5978131
8.7574949 -5.0955281 -1.596857
8.7124605 -5.1411405 -1.5943071
8.6790562 -5.1934886 -1.5939884
8.636054 -5.2399874 -1.5919167
8.6205568 -5.3032236 -1.5951039
8.554347 -5.3351226 -1.5887294
8.5022583 -5.3753777 -1.5850639
8.4790897 -5.4338369 -1.5869763
8.4364815 -5.4798465 -1.5852233
8.3936281 -5.525538 -1.5834703
8.3349285 -5.5605006 -1.5786893
8.2859306 -5.6015868 -1.5758208
8.2351151 -5.6411653 -1.5726335
8.1930466 -5.686523 -1.5711993
8.1862659 -5.7565613 -1.576777
8.1081743 -5.7763257 -1.5683308
8.0797834 -5.8311672 -1.569765
8.0318975 -5.8718953 -1.5673746
7.9600143 -5.8946309 -1.5602031
7.9576559 -5.968832 -1.5670558
7.9287434 -6.0235186 -1.5686494
7.8822451 -6.0648313 -1.5667371
7.7958236 -6.0748549 -1.5566971
7.7917271 -6.1488709 -1.5635498
7.744597 -6.1891689 -1.5616374
7.6596613 -6.1986914 -1.5519162
7.6100287 -6.2361879 -1.5495257
7.595933 -6.3029366 -1.5546254
7.5435104 -6.3379951 -1.5517569
7.5052309 -6.3848019 -1.5519162
7.4905982 -6.451993 -1.5571752
7.4106894 -6.4627962 -1.5485696
7.3819957 -6.5179467 -1.5509601
7.3374472 -6.5591712 -1.5500038
7.2648554 -6.574923 -1.5429918
7.2010827 -6.5980353 -1.5378921
7.2284999 -6.7052031 -1.5528724
7.1555557 -6.7196956 -1.5458603
7.1113276 -6.7607541 -1.5452229
7.0761127 -6.8104219 -1.5466572
6.9790368 -6.7999768 -1.5342268
6.9266386 -6.832273 -1.5318363
6.8622308 -6.8523245 -1.5267366
6.821445 -6.8957047 -1.5270554
6.7679658 -6.9261336 -1.5245055
6.7116275 -6.9533253 -1.5213182
6.6681552 -6.9936614 -1.5211589
6.6664066 -7.0782819 -1.5308801
6.6046934 -7.0995378 -1.5265772
6.5296106 -7.1057663 -1.5190872
6.4135623 -7.066021 -1.5017165
2.1911318 -2.4443977 -0.49118739
2.1715105 -2.4526229 -0.49007183
2.1551206 -2.4644146 -0.48975313
6.1743279 -7.1473327 -1.4859394
6.122026 -7.1753201 -1.4838676
6.0950608 -7.2331314 -1.4881705
6.0644579 -7.2870874 -1.4916764
6.0503478 -7.3615313 -1.4994854
6.0318179 -7.4314756 -1.506338
6.0373549 -7.53228 -1.5195652
6.0038915 -7.5854383 -1.5229119
2.0121634 -2.5749433 -0.48879692
1.9908974 -2.5802076 -0.48736265
1.9714378 -2.5876637 -0.48640648
1.9555231 -2.5997117 -0.48640648
1.9365914 -2.6076989 -0.48560965
1.8248082 -2.4889739 -0.45947391
1.8181857 -2.5121186 -0.46186435
1.8388996 -2.5738287 -0.47190431
5.5857329 -7.9189749 -1.5256211
5.5477557 -7.9684925 -1.528649
5.4775109 -7.9714656 -1.5225931
5.4124265 -7.9812307 -1.5179716
5.3523707 -7.9978819 -1.5147843
5.3129888 -8.0454006 -1.5176529
5.2381907 -8.0389757 -1.5101627
5.2229357 -8.1241102 -1.520362
5.1576533 -8.1318283 -1.5157405
1.7765839 -2.8399184 -0.50202417
1.7591251 -2.8507659 -0.50202417
1.7410866 -2.8606627 -0.50186479
1.7641555 -2.9390023 -0.51461393
4.8952217 -8.2683725 -1.5123938
4.8443956 -8.298254 -1.5123938
4.774672 -8.29531 -1.506338
4.7256322 -8.3278847 -1.5069754
4.6850476 -8.3756781 -1.5104815
4.6492977 -8.4327965 -1.5157405
4.5800266 -8.4290705 -1.5098441
4.5226283 -8.4465714 -1.5079316
4.4601202 -8.4540806 -1.5042663
4.3981462 -8.4620171 -1.5007602
4.3569398 -8.5099335 -1.504585
4.2948618 -8.5171146 -1.501079
4.2442775 -8.5468445 -1.5017165
4.1891532 -8.5674047 -1.5007602
4.1377902 -8.5956154 -1.5012383
4.0811658 -8.6128139 -1.499804
4.0294933 -8.640377 -1.5002822
3.9731069 -8.6577616 -1.4990072
3.926816 -8.6972723 -1.5017165
3.8789871 -8.7338343 -1.5039475
3.8292763 -8.7665176 -1.5055412
3.7816482 -8.8043623 -1.508091
3.7022054 -8.7673769 -1.497573
3.6513681 -8.7972221 -1.4988478
3.5954561 -8.8148909 -1.498051
3.547545 -8.8523636 -1.5007602
3.4953308 -8.8794765 -1.5017165
3.4461217 -8.9145679 -1.5041069
3.3903069 -8.9327765 -1.5036288
3.3364668 -8.9561863 -1.5041069
3.2848396 -8.9857616 -1.5057006
3.2216432 -8.9834452 -1.5018758
3.1651509 -8.9993191 -1.5012383
3.1076193 -9.0120373 -1.5001228
3.0570061 -9.0449648 -1.5025133
2.990586 -9.0307512 -1.4969355
2.9369459 -9.0545654 -1.4978917
2.8792408 -9.0658293 -1.4967761
2.8200426 -9.0720129 -1.4948637
2.7689216 -9.1042576 -1.4974136
2.7127252 -9.1201296 -1.4972543
2.6567142 -9.1366024 -1.4972543
2.5981741 -9.1441851 -1.4958199
2.5446579 -9.1694679 -1.4974136
2.4883473 -9.1849089 -1.4974136
2.4271483 -9.1818705 -1.4943857
2.3599188 -9.1545277 -1.4873736
2.3075531 -9.1841555 -1.4899235
2.2481053 -9.1856756 -1.4878517
2.1976504 -9.2242651 -1.4919952
2.1427937 -9.2452698 -1.4932702
2.084506 -9.251502 -1.4921546
2.0222116 -9.2390442 -1.4880111
1.9784114 -9.3121147 -1.498051
0.53888035 -2.6167018 -0.3925409
0.52204108 -2.6160867 -0.39190343
0.50541705 -2.6163328 -0.39142534
0.48953548 -2.6203551 -0.39158469
0.47590485 -2.6369104 -0.39381582
0.45835996 -2.6320004 -0.3925409
0.44220167 -2.6347635 -0.3925409
0.42697218 -2.6432745 -0.39349708
0.41771841 -2.6907182 -0.40082783
0.40178302 -2.6971362 -0.4014653
0.39108965 -2.7405972 -0.4081586
0.37333104 -2.7360985 -0.40704304
0.35436636 -2.7216957 -0.40433386
0.33778128 -2.7247984 -0.40449321
1.1123216 -9.4388475 -1.4955013
0.92521048 -8.2887526 -1.3076108
0.99185282 -9.4085884 -1.4884892
0.81991452 -8.2641163 -1.3018736
0.7461372 -8.0212831 -1.2617137
0.67955875 -7.8260565 -1.2293628
0.63073206 -7.8202386 -1.2277693
0.583103 -7.8288841 -1.2285661
0.53774822 -7.8717113 -1.2349406
0.58394653 -9.3942194 -1.4806803
0.19715886 -3.5249858 -0.53118783
0.17532946 -3.5221851 -0.53055036
0.41377813 -9.4684706 -1.4911984
0.35478273 -9.447155 -1.4873736
0.25742441 -8.196991 -1.2851404
0.23902474 -9.4586926 -1.4886485
0.18067999 -9.4441881 -1.4860988
0.12256085 -9.4322863 -1.484027
0.064662695 -9.4298992 -1.4835489
0.0068127629 -9.4459143 -1.4860988
-0.051157013 -9.447752 -1.4864174
-0.10919453 -9.4531832 -1.4873736
-0.16752706 -9.4710894 -1.4904016
-0.22566089 -9.470871 -1.4905609
-0.2836507 -9.4653606 -1.4899235
-0.34200838 -9.4713345 -1.4911984
-0.40061659 -9.4808941 -1.4931108
-0.45897347 -9.4822016 -1.4937482
-0.51677036 -9.4723063 -1.4926326
-0.57500118 -9.4709282 -1.4929514
-0.63376117 -9.4770718 -1.494545
-0.69168389 -9.4700508 -1.494067
-0.75001174 -9.4685812 -1.494545
-0.8056612 -9.4352751 -1.4899235
-0.86506951 -9.446867 -1.4926326
-0.92244202 -9.4354858 -1.4916764
-0.98113602 -9.4375038 -1.4929514
-1.0407541 -9.4470062 -1.4955013
-1.0989283 -9.4424038 -1.4958199
-1.1573255 -9.4394026 -1.4964575
-1.2152228 -9.4321241 -1.4964575
-1.2759809 -9.4460135 -1.4999634
-1.3352977 -9.4477816 -1.5015571
-1.3938195 -9.4433174 -1.5021945
-1.449785 -9.4219027 -1.5001228
-1.4913368 -9.31145 -1.4835489
-0.49585027 -2.9771175 -0.44847777
-0.51696479 -2.990557 -0.45118695
-0.54348272 -3.0330017 -0.45867708
-0.55776364 -3.0063133 -0.45485234
-0.57898819 -3.0173779 -0.45724279
-1.8698915 -9.4361801 -1.5141468
-1.9200416 -9.3868084 -1.5079316
-1.9727123 -9.3516674 -1.5041069
-2.0319428 -9.3480692 -1.5055412
-0.64906996 -2.8989675 -0.44082826
-0.66418779 -2.8833857 -0.43891591
-0.6941455 -2.9311328 -0.44752157
-2.2556121 -9.2742834 -1.5020351
-2.3174977 -9.2803831 -1.5053818
-2.3761125 -9.2726831 -1.5064974
-0.76285946 -2.901757 -0.44560921
-0.78116345 -2.8989282 -0.44592792
-0.79210919 -2.8693373 -0.44178447
-0.80647928 -2.8530226 -0.43987209
-0.82561535 -2.8537107 -0.44082826
-2.7536108 -9.3067408 -1.5280116
-2.777791 -9.1810036 -1.5096847
-2.8299892 -9.1505823 -1.5074536
-1.0158584 -3.2138362 -0.5053708
-1.0373782 -3.2131796 -0.50632697
-3.0072107 -9.1250696 -1.5122344
-3.0603123 -9.0980244 -1.5108002
-3.1160791 -9.0790758 -1.5108002
-1.123749 -3.2091162 -0.51015174
-1.1417593 -3.1975117 -0.50935495
-3.2840176 -9.0238914 -1.5114377
-3.3379521 -8.9998684 -1.5108002
-1.1585497 -3.065134 -0.49023122
-1.1929373 -3.0985067 -0.49724323
-1.1903126 -3.0359797 -0.48768139
-1.2111138 -3.0341206 -0.48863757
-3.6202519 -8.9124508 -1.5141468
-3.6680818 -8.8736467 -1.5112783
-3.7243738 -8.8555231 -1.5120751
-3.7825229 -8.8415804 -1.5136688
-3.8374903 -8.820015 -1.5139875
-3.8843479 -8.7800522 -1.5111189
-3.9413874 -8.7632561 -1.5123938
-1.3224151 -2.8920274 -0.47461352
-1.3330647 -2.8686383 -0.47190431
-1.3573837 -2.8746889 -0.47445413
-4.1663604 -8.6870337 -1.5165373
-4.2286634 -8.679944 -1.519884
-4.2897229 -8.6697617 -1.5227525
-4.3477139 -8.6529808 -1.5245055
-4.4025202 -8.6296577 -1.525143
-4.4553876 -8.6024828 -1.525143
-4.4989004 -8.5575056 -1.5219557
-4.5536475 -8.5340948 -1.5227525
-4.6082759 -8.510334 -1.5235493
-4.6509004 -8.4645939 -1.520362
-4.667182 -8.3720865 -1.5085691
-4.6654963 -8.2496233 -1.4911984
-4.6983438 -8.1900129 -1.4854612
-4.7241821 -8.1192179 -1.4776524
-4.7583599 -8.0637207 -1.4727122
-4.7768283 -7.9826956 -1.4629909
-4.7965312 -7.9051256 -1.4539071
-4.8418422 -7.870501 -1.452951
-4.8853421 -7.8331046 -1.4515166
-4.9227629 -7.7862921 -1.4483294
-4.9518037 -7.7268476 -1.4427516
-5.0050364 -7.7054257 -1.4445046
-5.0516791 -7.6737456 -1.4443452
-5.106339 -7.6541023 -1.4465764
-5.1626062 -7.6365304 -1.4492856
-5.2305655 -7.6356597 -1.4553415
-5.3110905 -7.6520844 -1.4649032
-5.3783851 -7.6484241 -1.4706404
-5.4761906 -7.6868415 -1.4848238
-5.5405841 -7.6771116 -1.4896047
-5.5992379 -7.6589103 -1.492792
-5.6649261 -7.6497984 -1.4978917
-5.7277508 -7.636219 -1.5021945
-5.7936072 -7.6260862 -1.5072942
-5.9209571 -7.6952415 -1.528649
-6.0566516 -7.7724614 -1.5519162
-1.7622862 -2.2326732 -0.42042965
-1.7654755 -2.2087071 -0.41772044
-6.2005544 -7.6619639 -1.5523943
-6.3000093 -7.6879168 -1.5657809
-6.3514757 -7.6544342 -1.5668964
-6.3653016 -7.5760126 -1.5586095
-6.4007931 -7.5240302 -1.5559003
-6.4345984 -7.4704013 -1.5528724
-6.4997797 -7.4531007 -1.5576533
-6.5525761 -7.4212189 -1.5594063
-6.6275945 -7.4139953 -1.5665777
-6.707407 -7.411253 -1.5748646
-6.7487535 -7.3655901 -1.5739084
-6.8038912 -7.3348989 -1.576299
-6.8758006 -7.3217998 -1.5826735
-6.8893085 -7.2465591 -1.5753428
-6.9213209 -7.1913471 -1.5724742
-6.9818497 -7.1657138 -1.576299
-7.0395508 -7.1367965 -1.5794863
-7.0901842 -7.1004543 -1.5810798
-7.1413383 -7.0644536 -1.5828328
-3.499639 -3.4194431 -0.75111055
-3.4211156 -3.3019152 -0.72879958
-3.3912983 -3.2331722 -0.7176441
-3.424727 -3.2251635 -0.72067201
-7.4334612 -6.9153676 -1.6002036
-3.5105679 -3.2256463 -0.73087132
-3.5156744 -3.1907744 -0.72768402
-3.4756489 -3.1157606 -0.7147755
-3.3853199 -2.9975076 -0.69118959
-3.4088502 -2.9812291 -0.69230515
-3.4308136 -2.9634836 -0.69310194
-4.8037095 -4.0983796 -0.98059517
-3.7802064 -3.1851737 -0.75923812
-3.8133373 -3.1732864 -0.76210672
-4.9591746 -4.0757127 -0.99748778
-4.8614521 -3.9456589 -0.97198951
-4.876327 -3.9083459 -0.9700771
-4.8630614 -3.8489408 -0.96242762
-4.9060316 -3.8342283 -0.96641177
-4.9708862 -3.8360219 -0.97485805
-5.0398722 -3.8401544 -0.98410118
-5.0333633 -3.7866035 -0.97804534
