# .PCD v0.7 - Point Cloud Data file format
VERSION 0.7
FIELDS x y z
SIZE 4 4 4
TYPE F F F
COUNT 1 1 1
WIDTH 1522
HEIGHT 1
VIEWPOINT 0 0 0 1 0 0 0
POINTS 1522
DATA ascii
-3.2731042 5.6117287 -1.8908905
-3.2357435 5.6267204 -1.8891804
-3.2049384 5.6531401 -1.8914605
-3.1552324 5.6459208 -1.88234
-3.1343997 5.6903644 -1.8908905
-3.0994253 5.7094898 -1.8908905
-3.0507751 5.7030416 -1.88234
-3.0251067 5.7394624 -1.8883253
-2.9876254 5.7536621 -1.8869003
-2.9505198 5.7684717 -1.8857602
-2.9211049 5.7984529 -1.8897505
-2.8961172 5.8377357 -1.896876
-2.8438413 5.821804 -1.8857602
-2.8084812 5.8400078 -1.8860452
-2.7844832 5.882257 -1.8943107
-2.7463148 5.8948865 -1.8928857
-2.7037041 5.8976846 -1.8883253
-2.6725869 5.9255228 -1.8920306
-2.6354012 5.9400573 -1.8914605
-2.6035023 5.9666595 -1.8948808
-2.5706203 5.9913311 -1.8977309
-2.5226386 5.9804945 -1.8891804
-2.4822261 5.9870052 -1.8863302
-2.4523125 6.0189905 -1.8917456
-2.4089255 6.0179052 -1.8866153
-2.3723056 6.0334649 -1.8869003
-2.3335147 6.0434365 -1.8854752
-2.2977474 6.0612259 -1.8866153
-2.2722068 6.1066551 -1.8965909
-2.2340372 6.1186814 -1.8960209
-2.1806219 6.0880542 -1.8820549
-2.1502106 6.1212168 -1.8883253
-2.1144826 6.1397328 -1.8900355
-2.0740128 6.1444173 -1.8874702
-2.0395811 6.1670384 -1.8906054
-2.0014074 6.1785254 -1.8903205
-1.9620107 6.186121 -1.8888954
-1.9260045 6.2044516 -1.8908905
-1.886785 6.2124834 -1.8897505
-1.8497214 6.2276192 -1.8908905
-1.814947 6.2508187 -1.8945957
-1.7752513 6.2572265 -1.8931707
-1.7317084 6.2495265 -1.8874702
-1.6928293 6.2581835 -1.8869003
-1.6431538 6.2258186 -1.8737894
-1.6037282 6.231142 -1.8723643
-1.5715237 6.265039 -1.8797748
-1.5307791 6.2652516 -1.8769246
-1.4938588 6.2810545 -1.8789197
-1.4583133 6.3031769 -1.88291
-1.4261252 6.3409972 -1.8917456
-1.3835112 6.3327723 -1.8866153
-1.3517799 6.3748994 -1.896876
-1.3191977 6.4149966 -1.9065666
-1.2813083 6.430491 -1.9088467
-1.2278619 6.3657589 -1.8869003
-1.1963296 6.413692 -1.8991561
-1.1545762 6.4077048 -1.8951658
-1.1198299 6.4411116 -1.9031464
-1.0753821 6.4185548 -1.8943107
-1.0346067 6.4165154 -1.8917456
-0.99375015 6.4132705 -1.8888954
-0.95747775 6.4401059 -1.8951658
-0.91551453 6.4287782 -1.8900355
-0.87669677 6.4390235 -1.8914605
-0.83926749 6.4604411 -1.8963059
-0.79996359 6.4683232 -1.897161
-0.76059455 6.475966 -1.898016
-0.72042131 6.4767003 -1.896876
-0.68186682 6.4924383 -1.9002962
-0.64371091 6.51367 -1.9054265
-0.60134912 6.4917269 -1.8977309
-0.56208199 6.5019794 -1.8997262
-0.5222525 6.5062613 -1.9000112
-0.48288628 6.5169907 -1.9022913
-0.44437993 6.5418262 -1.9088467
-0.40511551 6.5587807 -1.9131221
-0.36295411 6.5266891 -1.9028614
-0.32195669 6.5096459 -1.897161
-0.28204951 6.5124564 -1.8974459
-0.24328902 6.5466318 -1.9071367
-0.20193312 6.5096788 -1.8957359
-0.16212869 6.5165448 -1.8974459
-0.12198076 6.5087914 -1.8948808
-0.082231812 6.5247526 -1.8994411
-0.042207193 6.5270514 -1.9000112
-0.0021562839 6.5214362 -1.898301
0.037824128 6.5155759 -1.8965909
0.078545675 6.5765619 -1.9148321
0.11809237 6.5318718 -1.9017212
0.15774816 6.5137758 -1.8965909
0.19847363 6.5375953 -1.9040014
0.23879462 6.5420017 -1.9057115
0.27954626 6.5547781 -1.9099869
0.31999481 6.5577259 -1.9114119
0.36054277 6.5613818 -1.9131221
0.40114766 6.5647864 -1.9148321
0.43980837 6.5382924 -1.9077066
0.48167747 6.5593691 -1.9148321
0.51482642 6.4674301 -1.8883253
0.55729127 6.4966192 -1.898016
0.59204215 6.4377179 -1.8814849
0.63368964 6.455904 -1.8880403
0.67010134 6.4213877 -1.8789197
0.71719152 6.4867024 -1.8997262
0.75196898 6.4393382 -1.8869003
0.79498148 6.4631429 -1.8954508
0.83609992 6.4695506 -1.8988711
0.87436318 6.4538503 -1.8957359
0.91421616 6.4502621 -1.8963059
0.95124805 6.427464 -1.8911755
0.99183881 6.4290843 -1.8934557
1.0312682 6.4228778 -1.8934557
1.0662369 6.389957 -1.8854752
1.1039513 6.3747945 -1.88291
1.1472836 6.3914862 -1.8900355
1.180519 6.3522863 -1.8803449
1.2232764 6.3646898 -1.8863302
1.2617458 6.3542438 -1.8854752
1.2972438 6.3294806 -1.8803449
1.3326839 6.3054595 -1.8754995
1.3752269 6.3149581 -1.8809148
1.4118501 6.2970481 -1.8780646
1.4608105 6.3330965 -1.8917456
1.4949943 6.3044291 -1.8857602
1.5329682 6.2923436 -1.8849051
1.5694536 6.2744503 -1.88234
1.6043464 6.2507768 -1.8780646
1.6363223 6.2167153 -1.8706541
1.6811821 6.2315435 -1.8783497
1.7089106 6.1832333 -1.8666639
1.7486463 6.1790872 -1.868659
1.7878617 6.1728444 -1.8700842
1.8344229 6.1911654 -1.8792048
1.8687613 6.1678681 -1.8754995
1.9079901 6.1608634 -1.8769246
1.9529901 6.1718855 -1.88405
1.9875789 6.149754 -1.8809148
2.0246747 6.135622 -1.8803449
2.0595288 6.1149087 -1.8777796
2.0923355 6.0885601 -1.8735044
2.1337788 6.0873656 -1.8772095
2.1717355 6.0759635 -1.8777796
2.2066779 6.0562196 -1.8757845
2.2454658 6.0470581 -1.8772095
2.2828667 6.0340629 -1.8774946
2.3177793 6.014576 -1.8757845
2.3560414 6.0038099 -1.8769246
2.3899896 5.98212 -1.8746444
2.4277339 5.9700065 -1.8754995
2.4643195 5.9549975 -1.8754995
2.4956028 5.9273977 -1.8715092
2.534946 5.9190221 -1.8737894
2.5761945 5.9147797 -1.8774946
2.6085553 5.8900976 -1.8746444
2.645041 5.874855 -1.8749294
2.6842308 5.8654866 -1.8772095
2.7173395 5.842823 -1.8752145
2.7547781 5.8295059 -1.8763546
2.7904954 5.8124933 -1.8763546
2.8269482 5.7969847 -1.8769246
2.8645926 5.783824 -1.8783497
2.8944266 5.7550068 -1.8746444
2.9309924 5.7396994 -1.8754995
2.9688032 5.7267127 -1.8772095
2.9971881 5.6956663 -1.8729343
3.0280142 5.66956 -1.8703692
3.0600035 5.6458178 -1.868659
3.1001327 5.6370134 -1.8720793
3.1351295 5.618722 -1.8723643
3.170491 5.6010475 -1.8729343
3.2086182 5.5881376 -1.8752145
3.2418809 5.5666885 -1.8746444
3.2774394 5.5491676 -1.8754995
3.3143826 5.5338864 -1.8772095
3.3393171 5.4987001 -1.8720793
3.3760097 5.4830036 -1.8737894
3.4121277 5.4662509 -1.8752145
3.4476547 5.448451 -1.8763546
3.483609 5.4312277 -1.8777796
3.5173914 5.4105539 -1.8780646
3.5436661 5.3784657 -1.8743594
3.5808604 5.3629975 -1.8766396
3.6018794 5.3234615 -1.8703692
3.6442344 5.3154888 -1.8754995
3.6751399 5.2906671 -1.8746444
3.7091892 5.2703686 -1.8754995
3.7414577 5.24751 -1.8754995
3.7713399 5.2213464 -1.8743594
3.8084018 5.2050686 -1.8769246
3.8334172 5.1723633 -1.8735044
3.8702624 5.1556425 -1.8760695
3.9140098 5.147819 -1.8820549
3.9466925 5.1252251 -1.882625
3.9721699 5.0933547 -1.8797748
3.9974053 5.0613651 -1.8769246
4.0343742 5.0442266 -1.8797748
4.0712833 5.026825 -1.882625
4.0935388 4.9913745 -1.8786347
4.1204133 4.9617395 -1.8769246
4.1532483 4.9392977 -1.8780646
4.1853418 4.9159102 -1.8789197
4.2210603 4.8966699 -1.8814849
4.2529173 4.8728437 -1.88234
4.2884502 4.8531203 -1.8849051
4.3366852 4.8474288 -1.8931707
4.3541183 4.8072319 -1.8877553
4.3640947 4.7592344 -1.8792048
4.4036508 4.7436051 -1.8837651
4.4379268 4.7220826 -1.8860452
4.472765 4.7010117 -1.8886104
4.506846 4.6790009 -1.8908905
4.5240932 4.6395946 -1.8860452
4.5410261 4.6001534 -1.8811998
4.5813651 4.5844054 -1.8863302
4.605999 4.5528402 -1.8849051
4.6297321 4.5204754 -1.883195
4.6856737 4.5192599 -1.8948808
4.6890216 4.4672875 -1.8849051
4.7156458 4.4377751 -1.8846201
4.7308497 4.397665 -1.8797748
4.7577443 4.3685541 -1.8797748
4.7986622 4.3521552 -1.8854752
4.8195639 4.3175135 -1.883195
4.861042 4.3011961 -1.8891804
4.8765144 4.2618289 -1.8849051
4.9170871 4.2443509 -1.8906054
4.9459553 4.2165871 -1.8917456
4.9761348 4.1898632 -1.8934557
4.9796362 4.1408696 -1.8849051
5.0034685 4.1090207 -1.884335
5.0360327 4.0842791 -1.8871853
5.0669847 4.058094 -1.8894655
5.0812626 4.0186052 -1.8854752
5.1224465 4.0003276 -1.8917456
5.147655 3.9694066 -1.8920306
5.1726766 3.9383271 -1.8923156
5.2044072 3.9122722 -1.8951658
5.2337031 3.8842626 -1.897161
5.2651711 3.8577399 -1.9000112
5.277091 3.8169365 -1.8957359
5.2957311 3.7811439 -1.8940257
5.3290186 3.7557554 -1.8977309
5.3480282 3.7202504 -1.8963059
5.3770771 3.6917045 -1.898586
5.3924851 3.6538041 -1.8960209
5.4179907 3.6227782 -1.897161
5.4417181 3.5905213 -1.8977309
5.4564161 3.5523586 -1.8951658
5.4660115 3.5110435 -1.8908905
5.487452 3.4774384 -1.8908905
5.5281949 3.4558935 -1.8977309
5.5248165 3.4068196 -1.8891804
5.5644546 3.3843083 -1.8957359
5.5810051 3.3476372 -1.8943107
5.6171174 3.3225989 -1.8997262
5.6249776 3.2808287 -1.8954508
5.6549745 3.2519851 -1.8988711
5.6673169 3.2129724 -1.8963059
5.6911087 3.180475 -1.8977309
5.7147145 3.1478069 -1.8991561
5.7263393 3.1085684 -1.8965909
5.7512221 3.0765376 -1.898586
5.7725353 3.042531 -1.8994411
5.7885432 3.0057294 -1.898586
5.8171182 2.9753911 -1.9020063
5.8232799 2.9336066 -1.898016
5.840312 2.8973947 -1.8977309
5.8622866 2.8636074 -1.8991561
5.8417354 2.8093116 -1.8866153
5.9021845 2.7939122 -1.9008662
5.8966246 2.7471242 -1.8934557
5.9194694 2.7136865 -1.8954508
5.9351349 2.6769202 -1.8951658
6.018918 2.6703722 -1.9171124
6.0255256 2.6291754 -1.9139771
6.0274496 2.5861094 -1.9094168
6.0290723 2.5431192 -1.9048564
6.0489907 2.5079124 -1.9062816
6.0660405 2.4714723 -1.9068516
6.0775313 2.432781 -1.9057115
6.093236 2.3957946 -1.9059966
6.11587 2.3614681 -1.9085617
6.1257629 2.3221993 -1.9071367
6.1372008 2.2835665 -1.9062816
6.1546988 2.2471805 -1.9074216
6.1728835 2.210989 -1.9088467
6.1863337 2.1730714 -1.9088467
6.2077084 2.1378794 -1.9114119
6.2261586 2.1015875 -1.9131221
6.2507677 2.0672557 -1.9168273
6.2624226 2.0285676 -1.9165423
6.2756653 1.9903934 -1.9168273
6.2850137 1.9509972 -1.9159722
6.2977834 1.9126747 -1.9162573
6.3020496 1.8718143 -1.9139771
6.3189397 1.834713 -1.9156872
6.3300786 1.7959062 -1.9156872
6.340055 1.756776 -1.9154022
6.3340592 1.7133389 -1.9102719
6.3527942 1.6766415 -1.912837
6.3778157 1.6414498 -1.9173973
6.3738208 1.5987897 -1.9131221
6.3844419 1.559878 -1.9134071
6.4069486 1.523777 -1.9173973
6.4283185 1.4872426 -1.9211025
6.4261007 1.4452493 -1.9176823
6.447958 1.4086541 -1.9216726
6.4583554 1.3694609 -1.9222426
6.4619422 1.328843 -1.9208175
6.478435 1.2908524 -1.9233828
6.4947042 1.2527096 -1.9259479
6.4871917 1.2100258 -1.9213876
6.4954376 1.1703682 -1.9216726
6.5166621 1.132951 -1.9259479
6.5140376 1.0913621 -1.9230977
6.5338597 1.0535059 -1.927088
6.5392537 1.0132486 -1.926803
6.539659 0.97226059 -1.9250928
6.5236754 0.9290114 -1.9185374
6.5340018 0.88961112 -1.9199625
6.5497932 0.85085893 -1.9230977
6.5301571 0.80759972 -1.9156872
6.5654535 0.77108866 -1.9248078
6.5833988 0.73227042 -1.9287981
6.5791883 0.69096214 -1.9262329
6.5775805 0.65001541 -1.9245228
6.583354 0.60982037 -1.9250928
6.5659623 0.56760174 -1.9188224
6.5874753 0.52875698 -1.9242377
6.5848603 0.48790309 -1.9225277
6.6020751 0.44846186 -1.926803
6.5932221 0.40723675 -1.9233828
6.6042099 0.36725131 -1.9259479
6.6235719 0.32757095 -1.9310782
6.6139655 0.28642768 -1.927658
6.6184721 0.24594603 -1.9285131
6.639976 0.20595175 -1.9344984
6.6468639 0.16534775 -1.9362086
6.6487117 0.12457804 -1.9364936
6.6483927 0.083768062 -1.9362086
6.6372795 0.042900383 -1.9327884
6.6383762 0.0021741425 -1.9330734
6.6315551 -0.038518064 -1.9310782
6.6292768 -0.079184562 -1.9305083
6.6392083 -0.12005202 -1.9336435
6.6287642 -0.1605534 -1.9307932
6.6391511 -0.20157479 -1.9342134
6.6397052 -0.24237832 -1.9347835
6.6285167 -0.28270411 -1.9319333
6.6438899 -0.32421455 -1.9370637
6.6389041 -0.36481631 -1.9362086
6.6365409 -0.405545 -1.9362086
6.6367965 -0.4464519 -1.9370637
6.639668 -0.48758835 -1.9387738
6.6451502 -0.52900547 -1.9413389
6.6398692 -0.56960523 -1.940769
6.65343 -0.61191905 -1.9458992
6.6400108 -0.6517942 -1.9430491
6.6730661 -0.69641089 -1.9541649
6.661046 -0.73649889 -1.9518846
6.6925788 -0.78158766 -1.9627154
6.6714845 -0.82064569 -1.95787
6.6596694 -0.86070454 -1.9558749
6.6466641 -0.90052044 -1.9535948
6.6324725 -0.94007456 -1.9510295
6.6294236 -0.98117441 -1.9518846
6.6109638 -1.0199312 -1.9481794
6.5695653 -1.0548476 -1.9376336
6.5298796 -1.0896103 -1.927658
6.4069057 -1.1095181 -1.8926007
6.2386532 -1.1198215 -1.8438623
6.0620408 -1.1265254 -1.7925589
0 -0 -0
5.9029799 -1.1720555 -1.7486659
5.8261933 -1.1939996 -1.7275745
5.7765579 -1.220799 -1.7147486
0 -0 -0
0 -0 -0
0 -0 -0
5.7383299 -1.3606458 -1.7127535
5.7447729 -1.3994627 -1.7173138
5.7137618 -1.4290994 -1.7104733
5.7206683 -1.4681853 -1.7153187
5.6744757 -1.493493 -1.7039179
5.6864891 -1.534029 -1.7104733
5.6455588 -1.5602044 -1.7007827
5.6192789 -1.5901145 -1.6956524
5.6130986 -1.6256311 -1.6967924
5.5975046 -1.658407 -1.6950823
5.6009827 -1.696893 -1.6993576
5.5831409 -1.7289582 -1.6970774
5.5541506 -1.7573963 -1.691377
5.5733595 -1.801176 -1.7007827
5.5403581 -1.8281268 -1.6939422
5.4836206 -1.8467818 -1.6796912
5.4776239 -1.882264 -1.6814014
5.4569268 -1.9126663 -1.6785512
5.4477954 -1.9470817 -1.6794063
5.4366465 -1.9808004 -1.6796912
5.423492 -2.013788 -1.6794063
5.4011722 -2.0432951 -1.6762711
5.3706465 -2.0695012 -1.6705706
5.3551702 -2.1013649 -1.6697155
5.342176 -2.1341841 -1.6697155
5.3334193 -2.1687291 -1.6711407
5.3005285 -2.1933465 -1.6648703
5.2728372 -2.2198751 -1.6603099
5.2890725 -2.2650223 -1.6700006
5.2504711 -2.2867112 -1.6620201
5.2354646 -2.3184962 -1.6617351
5.2333755 -2.3560882 -1.6657254
5.2284069 -2.3925443 -1.6688606
5.2240567 -2.4294326 -1.6722808
5.2255163 -2.4692252 -1.6776961
5.208539 -2.5004117 -1.677126
5.1939602 -2.5327442 -1.6774111
5.1800394 -2.5654171 -1.6779811
5.1787572 -2.6044769 -1.6828265
5.1814575 -2.645798 -1.6890969
5.1600204 -2.6748931 -1.6873868
5.132484 -2.7006993 -1.6836815
5.1065168 -2.7271719 -1.6805463
5.0669365 -2.7461176 -1.6728508
5.0651073 -2.7854729 -1.6779811
5.0571275 -2.8216386 -1.6811163
5.0155311 -2.838918 -1.6728508
5.0071597 -2.874891 -1.6759861
4.9662356 -2.8920496 -1.6680055
4.945096 -2.920517 -1.6668653
4.9287276 -2.9517899 -1.6674354
4.9375563 -2.9984002 -1.676841
4.9198813 -3.0291426 -1.677126
4.8922591 -3.0536888 -1.6739908
4.849133 -3.068269 -1.6654403
4.8318291 -3.0990002 -1.6660104
4.7974558 -3.1186604 -1.6605949
4.7622232 -3.1374884 -1.6548946
4.7755618 -3.1884782 -1.6665803
4.7662272 -3.2247052 -1.6702856
4.6846943 -3.2116022 -1.6480541
4.6601772 -3.2370045 -1.6463439
4.6637406 -3.2820921 -1.6548946
4.6458549 -3.3123162 -1.6557497
4.633213 -3.3463743 -1.6585999
4.6040845 -3.3685126 -1.6554646
4.5771694 -3.3921323 -1.6531844
4.5723653 -3.4322407 -1.6591699
4.5420642 -3.4532683 -1.6557497
4.5344582 -3.4916019 -1.66088
4.5038795 -3.512284 -1.6574597
4.482244 -3.5398531 -1.6574597
4.4581943 -3.5654926 -1.6566046
4.4563413 -3.6090724 -1.6643002
4.4348536 -3.636956 -1.6645852
4.3918099 -3.6469493 -1.6566046
4.3502784 -3.6577859 -1.6491942
4.3452659 -3.6993258 -1.6560347
4.3217597 -3.7252924 -1.6557497
4.2879896 -3.7422838 -1.6514744
4.2793097 -3.7812207 -1.6571747
4.2460289 -3.7984576 -1.6531844
4.209856 -3.8128545 -1.6480541
4.1885009 -3.8405578 -1.6489092
4.1796064 -3.8798833 -1.6548946
4.1627045 -3.9120214 -1.6577448
4.1233478 -3.9229512 -1.6514744
2.3666978 -2.2788236 -0.93607599
2.3526707 -2.2933025 -0.93607599
2.337873 -2.3070214 -0.93579096
3.9729571 -3.9701033 -1.6292429
3.9411116 -3.9869061 -1.6261076
3.9179132 -4.0123849 -1.6266776
3.9331374 -4.0777516 -1.6437788
3.9166362 -4.1108313 -1.6474841
3.8808305 -4.1236157 -1.6429237
3.871115 -4.1642022 -1.6497642
3.8513246 -4.194232 -1.6523294
3.8403244 -4.234117 -1.6588849
3.8181086 -4.2618856 -1.6605949
3.8020473 -4.2967205 -1.6651553
3.7737195 -4.3178029 -1.6643002
3.7515383 -4.3459568 -1.6662953
3.7192059 -4.3623281 -1.6637301
3.6942208 -4.3872666 -1.6645852
3.668457 -4.4113255 -1.6651553
3.6394958 -4.431529 -1.6643002
3.6134434 -4.4552665 -1.6648703
3.5920289 -4.4848366 -1.6677204
3.5763319 -4.521831 -1.6734208
1.9949114 -2.5535524 -0.92268008
1.9780352 -2.5642264 -0.92211008
1.9651667 -2.5801289 -0.92353517
1.9481467 -2.5906057 -0.92296511
1.9322144 -2.6025107 -0.92296511
1.912811 -2.6096778 -0.92125499
1.7030039 -2.353385 -0.82292336
1.6796223 -2.3513069 -0.81836307
1.6690277 -2.3670537 -0.82035816
3.2868474 -4.7247553 -1.6705706
3.2512863 -4.7353501 -1.6671504
3.2114189 -4.7393384 -1.66145
3.1652336 -4.7334533 -1.6523294
3.1313806 -4.745584 -1.6497642
3.1231163 -4.7968435 -1.661165
3.0889637 -4.8086572 -1.6585999
3.0737622 -4.850193 -1.6665803
3.044452 -4.8697748 -1.6668653
3.0039523 -4.8712282 -1.66088
2.9764962 -4.8936634 -1.6623051
2.9483848 -4.915123 -1.6634451
2.916707 -4.9306464 -1.6625901
2.880605 -4.9385133 -1.6591699
2.8445163 -4.9461231 -1.6557497
2.8060801 -4.949307 -1.6509043
2.7653749 -4.9480219 -1.6446339
2.7349622 -4.9648967 -1.6446339
2.7035325 -4.9798999 -1.6440638
2.6724734 -4.9955492 -1.6437788
2.6417711 -5.0118532 -1.6437788
2.6175928 -5.04073 -1.6480541
2.5783236 -5.0404806 -1.6426388
1.5355721 -3.0469179 -0.97369856
1.5189768 -3.0605764 -0.97512364
1.5081594 -3.0862045 -0.98053902
2.4513559 -5.0970545 -1.6409286
2.4352031 -5.1440578 -1.6514744
2.4019754 -5.1554275 -1.6503342
2.3655057 -5.1596117 -1.646914
2.329469 -5.1644168 -1.6437788
2.2934628 -5.1689744 -1.6406436
2.2647688 -5.1899786 -1.6429237
2.2419479 -5.2249193 -1.6497642
2.1878762 -5.1864667 -1.632948
2.1607816 -5.2113051 -1.6366533
2.1331031 -5.2351179 -1.6400735
2.094532 -5.232089 -1.6349432
2.0571303 -5.231461 -1.6306679
2.0243018 -5.2421961 -1.6300979
1.9904001 -5.2500367 -1.6286728
1.9634947 -5.276525 -1.6332331
1.9353532 -5.3001795 -1.6369383
1.9208864 -5.3624916 -1.6528994
1.8822315 -5.3578978 -1.6477691
1.8418336 -5.3475938 -1.6409286
1.8129698 -5.3706012 -1.6446339
1.7742668 -5.3643327 -1.6392186
1.7416137 -5.3760304 -1.6395035
1.7112008 -5.3948388 -1.6420687
1.6783506 -5.4061527 -1.6423538
1.6465393 -5.4209352 -1.6437788
1.6132461 -5.4309359 -1.6437788
1.5780224 -5.4342885 -1.6417837
1.5464787 -5.4503241 -1.6437788
1.5050775 -5.4310737 -1.6349432
1.4752264 -5.4531608 -1.6389335
1.4375832 -5.4463539 -1.6340882
1.4015118 -5.4448609 -1.630953
1.3699408 -5.4607959 -1.6332331
1.3377721 -5.4746861 -1.6349432
1.3012739 -5.4706683 -1.631238
1.2685456 -5.482285 -1.6323781
1.2353033 -5.4918361 -1.632948
1.1929975 -5.4599805 -1.6209773
0.73850423 -3.4801943 -1.0170214
0.72022271 -3.4996827 -1.0215818
0.69536698 -3.4871147 -1.0164515
0.67123681 -3.4771976 -1.0121762
0.64936173 -3.4784238 -1.0113211
0.62749684 -3.4795127 -1.010466
0.60941547 -3.5021851 -1.0161664
0.59313613 -3.5370557 -1.0255721
0.57629925 -3.5709112 -1.0346926
0.55511069 -3.5791163 -1.0361178
0.53567344 -3.5995212 -1.0412481
0.51492679 -3.6122301 -1.0440983
0.49714375 -3.6476142 -1.0537889
0.46562785 -3.5802548 -1.0326976
0.44000924 -3.5535541 -1.0238619
0.41685706 -3.5447631 -1.0204417
0.39509895 -3.5472541 -1.0204417
0.37902305 -3.6039495 -1.0366879
0.35671431 -3.6042995 -1.0361178
0.33609214 -3.6226461 -1.0409631
0.31435198 -3.6303701 -1.0426732
0.2926062 -3.6389189 -1.0446683
0.26935413 -3.6282189 -1.0409631
0.2455965 -3.6078076 -1.0344076
0.22257093 -3.5948961 -1.0301324
0.20130466 -3.6105499 -1.0344076
0.17905259 -3.6098022 -1.0338376
0.15665206 -3.6050873 -1.0321275
0.13470586 -3.61077 -1.0335525
0.11242986 -3.6076963 -1.0324125
0.090575367 -3.619817 -1.0358328
0.068202779 -3.6116793 -1.0332676
0.045754831 -3.5890272 -1.0264271
0.023720058 -3.5873232 -1.0258571
0.0017146497 -3.6295762 -1.0383979
-0.020515898 -3.6228089 -1.0364028
-0.04316283 -3.657119 -1.0466635
-0.065969117 -3.6769109 -1.0526489
-0.09086667 -3.7722607 -1.0811508
-0.11436219 -3.783129 -1.084571
-0.1344108 -3.696147 -1.0589193
-0.15827672 -3.7230244 -1.0671848
-0.1776482 -3.6511376 -1.0460935
-0.19893987 -3.6298802 -1.0401081
-0.2188634 -3.5903223 -1.0287073
-0.23824456 -3.5497015 -1.0170214
-0.26079467 -3.5586879 -1.0201566
-0.28277794 -3.5589318 -1.0207267
-0.30526656 -3.5647697 -1.0230069
-0.32968441 -3.5905094 -1.0312724
-0.35114631 -3.5826952 -1.0295624
-0.37491652 -3.5976331 -1.0346926
-0.39835569 -3.60765 -1.0383979
-0.42271131 -3.6241786 -1.0440983
-0.44822216 -3.648154 -1.0520788
-0.46826091 -3.6272738 -1.0466635
-0.48058692 -3.5511961 -1.024717
-0.53671074 -3.7901785 -1.0973969
-0.53199732 -3.5981286 -1.040678
-0.54689562 -3.5483794 -1.0267122
-0.5736779 -3.5761871 -1.0361178
-0.59718943 -3.5820541 -1.038968
-0.61228073 -3.538656 -1.0269971
-0.64822155 -3.6140792 -1.0509387
-0.66687882 -3.5911868 -1.0452384
-0.68944466 -3.5898509 -1.0460935
-0.70865577 -3.5714509 -1.0418181
-0.72901547 -3.5595238 -1.039538
-0.7494539 -3.5484192 -1.0375428
-0.76529282 -3.5165944 -1.0292773
-0.79797894 -3.5614014 -1.0443833
-0.82305038 -3.5704474 -1.0486586
-0.84870535 -3.5811846 -1.053504
-0.87543118 -3.5954657 -1.0594894
-0.91842443 -3.6737113 -1.0851411
-0.95907164 -3.7385643 -1.1068026
-0.78715909 -2.9929388 -0.87935716
-0.811005 -3.0084109 -0.88562757
-0.82459432 -2.9858251 -0.88021225
-0.84733939 -2.9963877 -0.88505757
-0.86277384 -2.9810052 -0.88192236
-1.0649663 -3.5959663 -1.0743103
-1.0939633 -3.6122966 -1.0814358
-1.1243354 -3.6320674 -1.0897014
-1.1578845 -3.6607389 -1.1008171
-1.1832739 -3.6626854 -1.1036674
-1.182284 -3.5843613 -1.0814358
-1.0655867 -3.1655669 -0.95232213
-1.0856135 -3.1607819 -0.95289212
-1.0989598 -3.1368756 -0.94747674
-1.1165727 -3.1255608 -0.94605166
-1.1248956 -3.0889328 -0.93664604
-1.1408232 -3.0738859 -0.93408084
-1.1644136 -3.0793784 -0.93807113
-1.1819071 -3.0685983 -0.93693107
-1.2007133 -3.0612884 -0.93693107
-1.3756617 -3.4445941 -1.0620545
-1.4025512 -3.450294 -1.0666149
-1.4240621 -3.4425089 -1.0668999
-1.4384602 -3.4178059 -1.0617695
-1.4680873 -3.4291794 -1.0683249
-1.483357 -3.4069262 -1.0640496
-1.5050101 -3.399513 -1.0646197
-1.5136372 -3.363122 -1.0557841
-1.5482103 -3.3842742 -1.0657598
-1.5790557 -3.3964372 -1.0728853
-1.5830688 -3.3511555 -1.0611994
-1.6231062 -3.3819883 -1.0745953
-1.6223923 -3.3280308 -1.0600594
-1.6359731 -3.3042715 -1.0554991
-1.6497544 -3.2813275 -1.0512238
-1.6620078 -3.2557786 -1.0460935
-1.6885732 -3.2582827 -1.0503687
-1.7071943 -3.245316 -1.0495137
-1.7239131 -3.2288618 -1.0475185
-1.7395805 -3.2106397 -1.0449533
-1.7703372 -3.2200606 -1.0517938
-1.8003402 -3.2275505 -1.0580642
-1.8215271 -3.2189453 -1.0589193
-1.8302629 -3.1885912 -1.0523639
-1.8570312 -3.1897242 -1.0566392
-1.8687664 -3.1650658 -1.0520788
-1.8950489 -3.165051 -1.0560691
-1.8701392 -3.0804558 -1.0307024
-1.8985568 -3.084429 -1.0361178
-1.9128774 -3.0654047 -1.0335525
-1.9249855 -3.043081 -1.0298474
-1.9575976 -3.052994 -1.0375428
-2.0139196 -3.0987794 -1.0580642
-2.047138 -3.1079726 -1.0657598
-2.0805445 -3.1168737 -1.0734553
-2.1087639 -3.1175432 -1.0783006
-2.1403227 -3.1227262 -1.084856
-2.0631735 -2.9710002 -1.0346926
-2.1023331 -2.9880676 -1.0455234
-2.1584768 -3.0281761 -1.0649047
-2.1843147 -3.0249748 -1.06861
-2.1937764 -2.9991398 -1.0640496
-2.2115664 -2.9848526 -1.0637646
-2.2022114 -2.9344363 -1.0500838
-2.1992853 -2.8934035 -1.0398231
-2.2175825 -2.8806138 -1.0401081
-2.2299094 -2.8601511 -1.0375428
-2.236721 -2.8328769 -1.0324125
-2.247474 -2.8108664 -1.0292773
-2.2616618 -2.7932994 -1.0278522
-2.2939577 -2.7978957 -1.0349777
-2.3221071 -2.7970388 -1.0401081
-2.3299706 -2.7717352 -1.0358328
-2.3419616 -2.7515488 -1.0335525
-2.3675644 -2.7472894 -1.0375428
-2.4001372 -2.7507617 -1.0446683
-2.4087176 -2.7266469 -1.0409631
-2.4273202 -2.7139587 -1.0418181
-2.4638786 -2.7210336 -1.0506537
-2.4759924 -2.7009199 -1.0486586
-2.5101295 -2.7046404 -1.0563542
-2.5338998 -2.6968696 -1.0594894
-2.5490782 -2.6798825 -1.0589193
-2.5455213 -2.6434839 -1.0503687
-2.556339 -2.6223261 -1.0480886
-2.5885451 -2.6229599 -1.054929
-2.5537651 -2.5561864 -1.0335525
-2.5946288 -2.5653961 -1.0440983
-2.6007178 -2.5400541 -1.0401081
-2.6203945 -2.5280404 -1.0418181
-2.6504331 -2.5257964 -1.0478035
-2.6714664 -2.5147402 -1.0500838
-2.6784203 -2.4904714 -1.0466635
-2.7049496 -2.4843605 -1.0512238
-2.7229829 -2.4702916 -1.0523639
-2.7309484 -2.4471428 -1.0495137
-2.7480664 -2.4322453 -1.0503687
-2.765826 -2.41786 -1.0515088
-2.7871411 -2.4064796 -1.0540739
-2.8003955 -2.3880892 -1.053504
-2.804729 -2.36222 -1.0495137
-2.8147478 -2.3412895 -1.0478035
-2.8268383 -2.32215 -1.0469484
-2.8499684 -2.3120048 -1.0503687
-2.8715835 -2.3004646 -1.053219
-2.8939159 -2.2893407 -1.0563542
-2.9033754 -2.2680018 -1.054644
-2.9096453 -2.2442927 -1.0517938
-2.921073 -2.2246556 -1.0509387
-2.926239 -2.2003562 -1.0478035
-2.9904921 -2.220053 -1.0666149
-3.0512288 -2.2362106 -1.0840009
-3.0105197 -2.1781332 -1.0640496
-3.1783047 -2.2698748 -1.1204835
-3.0581789 -2.1559308 -1.0717452
-3.0217714 -2.1026504 -1.0537889
-3.0741313 -2.1111889 -1.0680399
-3.0663934 -2.078311 -1.0606294
-3.0974166 -2.0717077 -1.0671848
-3.0812645 -2.0336642 -1.0569242
-3.0703869 -1.9995577 -1.0486586
-3.1455107 -2.021076 -1.0708901
-3.1529942 -1.9986597 -1.06918
-3.1383739 -1.9625133 -1.0597744
-3.1797314 -1.961326 -1.0700351
-3.1794202 -1.9343096 -1.0657598
-3.1764319 -1.9058924 -1.0606294
-3.1220596 -1.8473382 -1.0378278
-3.1846757 -1.8580791 -1.0554991
-3.2309191 -1.8585663 -1.0674698
-3.2814567 -1.860918 -1.0808657
-3.246789 -1.8150383 -1.0651897
-3.2864132 -1.8108008 -1.0748804
-3.2865098 -1.7846587 -1.0711751
-3.326983 -1.7802786 -1.0811508
-3.3581965 -1.7705537 -1.0879912
-3.4685357 -1.8015782 -1.1213385
-3.5460935 -1.814296 -1.1435701
-3.5708568 -1.7994009 -1.1481303
-3.5775368 -1.7753276 -1.1467053
-3.5952532 -1.7567072 -1.1489854
-3.6146035 -1.7387667 -1.1518356
-3.6858547 -1.7452519 -1.1717869
-3.7260375 -1.7363604 -1.1814775
-3.7723486 -1.7298361 -1.1931634
-3.828331 -1.7271415 -1.2079843
-3.9431279 -1.7498583 -1.2419016
-5.0845466 -2.2187867 -1.6087215
-3.9211388 -1.6828268 -1.2279357
-4.1627979 -1.756297 -1.3026108
-4.1708393 -1.7296206 -1.3017557
-4.2728105 -1.7412313 -1.3311127
-4.3466001 -1.7402607 -1.3513491
-4.3652248 -1.716713 -1.3539143
-4.4409561 -1.7150887 -1.3747207
-4.5042801 -1.7078443 -1.3915368
-4.5425253 -1.6905316 -1.4003724
-4.5762243 -1.6711706 -1.4077829
-4.6179776 -1.6543669 -1.4177586
-4.7655115 -1.6742619 -1.4610815
-4.8364196 -1.6658908 -1.4801778
-5.1471758 -1.7375983 -1.5745192
-5.2596712 -1.7396737 -1.6064413
-5.2620397 -1.7047113 -1.6038761
-5.3911839 -1.7100424 -1.6409286
-5.5169258 -1.7127154 -1.676841
-5.5924525 -1.6985972 -1.6970774
-5.6514711 -1.6787064 -1.7121835
-5.6975665 -1.6544152 -1.7232991
-5.7712407 -1.6374649 -1.7429656
-5.8809457 -1.6296477 -1.7737476
-6.0629425 -1.6400542 -1.8267612
-6.229526 -1.6441315 -1.8749294
-6.3666759 -1.6385849 -1.9139771
-6.4286766 -1.6125393 -1.9299382
-6.4626603 -1.578974 -1.9373487
-6.4806204 -1.5412847 -1.9399139
-6.4992943 -1.5036503 -1.942764
-6.5046573 -1.4629024 -1.9416239
-6.5210028 -1.4245983 -1.9439042
-6.5277457 -1.3841621 -1.9433341
-6.5351772 -1.3438896 -1.9430491
-6.54142 -1.303391 -1.942479
-6.5116458 -1.2559743 -1.9310782
-6.5145183 -1.2151179 -1.9296532
-6.5180783 -1.1744435 -1.9285131
-6.5364943 -1.1363953 -1.9319333
-6.5792685 -1.1022791 -1.942764
-6.5726595 -1.0597548 -1.9387738
-6.5818796 -1.0198457 -1.9396288
-6.5889616 -0.97958159 -1.9399139
-6.596746 -0.93940401 -1.9404839
-6.6052356 -0.89929688 -1.9413389
-6.619184 -0.85986084 -1.9439042
-6.6348 -0.82052237 -1.9470394
-6.6301894 -0.77868015 -1.9441891
-6.6348424 -0.73798341 -1.9441891
-6.6401992 -0.69735885 -1.9444741
-6.6433992 -0.65650809 -1.9441891
-6.6396666 -0.61502665 -1.941909
-6.6414056 -0.57411009 -1.9413389
-6.6419368 -0.53311884 -1.9404839
-6.6479506 -0.49256662 -1.9413389
-6.6403284 -0.45105356 -1.9382037
-6.6515813 -0.41083109 -1.940769
-6.6530199 -0.36995697 -1.9404839
-6.6781411 -0.33026013 -1.9473244
-6.6819572 -0.28936023 -1.9478943
-0 -0 -0
-6.6658435 -0.20674956 -1.942194
-0 -0 -0
-0 -0 -0
-0 -0 -0
-6.6861629 -0.043207798 -1.9473244
-6.6939702 -0.0021826327 -1.9496045
-6.6660609 0.038724523 -1.9413389
-0 0 -0
-6.6430416 0.120122 -1.9347835
-0 0 -0
-6.6161575 0.20087264 -1.9273731
-6.6262946 0.24188645 -1.9307932
-6.6122365 0.28200692 -1.927088
-6.620913 0.3230893 -1.9302232
-6.6264625 0.36413044 -1.9325033
-6.6422811 0.40589678 -1.9379187
-6.6243639 0.44561341 -1.9333584
-0 -0 -0
-0 -0 -0
-0 -0 -0
-0 -0 -0
-0 -0 -0
-0 0 -0
-6.4560409 0.074701101 -1.957541
-6.464057 0.1144649 -1.9602025
-0 0 -0
-6.446888 0.19332303 -1.955471
-0 0 -0
-6.4001265 0.2705684 -1.9418685
-6.3868961 0.30928001 -1.93832
-6.3648467 0.34737146 -1.9321102
-6.3540139 0.38589826 -1.9294487
-6.3572454 0.42526069 -1.931223
-6.3316507 0.46259087 -1.924126
-6.3334546 0.50180942 -1.9256046
-6.3274007 0.54041761 -1.9247174
-6.3154039 0.578448 -1.9220561
-0 0 -0
-0 0 -0
-6.3938928 0.70452988 -1.9501483
-0 0 -0
-0 0 -0
-6.372262 0.82112491 -1.9477826
-0 0 -0
-6.3399501 0.89618671 -1.9409814
-6.3059807 0.93088764 -1.9321102
-6.276546 0.96593183 -1.9247174
-6.2695575 1.0042747 -1.9244218
-6.2453732 1.0397456 -1.9188033
-6.2417002 1.0785347 -1.9196904
-6.2359052 1.1169811 -1.9199861
-6.2326913 1.1559194 -1.9211689
-6.2170377 1.1925217 -1.9185076
-6.2189741 1.2325027 -1.9214647
-6.2197175 1.272361 -1.924126
-6.2174015 1.3116833 -1.9259002
-6.2129703 1.3506194 -1.9270831
-6.191515 1.3857957 -1.9229432
-6.1903429 1.4254745 -1.9253088
-6.130352 1.4513301 -1.9090449
-6.1593885 1.4981722 -1.9211689
-6.1445193 1.5345489 -1.9193947
-6.1312861 1.5712737 -1.9182118
-6.0984316 1.602796 -1.9108192
-6.1050854 1.6446567 -1.9161419
-6.0884333 1.6803073 -1.9140719
-6.1037483 1.724906 -1.9223518
-6.098556 1.7639176 -1.924126
-6.0812058 1.7994075 -1.9220561
-6.0782795 1.8391765 -1.9247174
-6.0623169 1.8750266 -1.9232389
-6.0588956 1.9147792 -1.9259002
-6.0443053 1.9510397 -1.9250132
-6.0249619 1.9856983 -1.9226475
-6.0063267 2.0204978 -1.9205775
-5.9883947 2.0554535 -1.9188033
-5.9621453 2.0874248 -1.9143677
-5.940228 2.1207571 -1.9114106
-5.9244103 2.1561859 -1.9105234
-5.9227123 2.1968148 -1.9143677
-5.9073343 2.232439 -1.9137763
-5.8819351 2.2641833 -1.909932
-5.8759365 2.3033688 -1.9125934
-5.8084574 2.3181374 -1.894851
-5.841918 2.3731453 -1.9108192
-5.8272467 2.408946 -1.9108192
-5.8149977 2.4457669 -1.9117063
-5.8086643 2.485158 -1.9146633
-5.7950583 2.5215147 -1.9152548
-5.7768564 2.5558655 -1.9143677
-5.7601938 2.5908718 -1.9140719
-5.7450571 2.626564 -1.9143677
-5.7331643 2.6637781 -1.9158462
-5.7175756 2.6993136 -1.9161419
-5.6698966 2.7194748 -1.9054965
-5.6685619 2.7617435 -1.9108192
-5.654078 2.797744 -1.9117063
-5.6163187 2.8220918 -1.9046093
-5.6099591 2.8621428 -1.9084535
-5.5999265 2.9004645 -1.9111149
-5.5794873 2.9334371 -1.9102278
-5.5639114 2.968966 -1.9111149
-5.5539899 3.0075979 -1.9140719
-5.5253844 3.0361001 -1.9105234
-5.5008101 3.0666904 -1.9084535
-5.4818897 3.100385 -1.9084535
-5.4569626 3.1306357 -1.9063835
-5.442605 3.1669424 -1.9081578
-5.4304752 3.2046471 -1.9108192
-5.4074306 3.2359455 -1.9096364
-5.3907404 3.2710459 -1.9108192
-5.380332 3.3100674 -1.9143677
-5.3591099 3.3425126 -1.9140719
-5.3417296 3.3773744 -1.9152548
-5.3088412 3.4023561 -1.9108192
-5.2918706 3.4374681 -1.9122977
-5.2786584 3.475126 -1.9152548
-5.2365742 3.4936669 -1.9075664
-5.2118731 3.5235922 -1.9063835
-5.2067051 3.5668416 -1.9125934
-5.1894302 3.6019902 -1.9143677
-5.1633239 3.631017 -1.9128891
-5.1417251 3.6631844 -1.9131849
-5.1106305 3.6885152 -1.909932
-5.0894442 3.7209315 -1.9105234
-5.072659 3.7566376 -1.9128891
-5.0464563 3.7853994 -1.9117063
-5.0185704 3.8128254 -1.909932
-4.9928098 3.8417995 -1.9090449
-4.9781852 3.8794084 -1.9125934
-4.9370399 3.8962705 -1.9057921
-4.9055772 3.9205267 -1.902835
-4.8814287 3.9505529 -1.902835
-4.8615303 3.9840634 -1.9046093
-4.8362579 4.0132079 -1.9043136
-4.8144679 4.0452652 -1.9054965
-4.7910113 4.0759678 -1.9060879
-4.7803879 4.1177564 -1.912002
-4.7521515 4.1444998 -1.9108192
-4.7158904 4.1640964 -1.9063835
-4.7030711 4.2044134 -1.9117063
-4.6601853 4.2178082 -1.9046093
-4.6384439 4.250195 -1.9063835
-4.6059747 4.2727294 -1.9037222
-4.5747962 4.2963333 -1.9016522
-4.5504251 4.3262973 -1.9025394
-4.5231056 4.3534746 -1.9022436
-4.4963078 4.381146 -1.9022436
-4.4686608 4.4079814 -1.901948
-4.4408541 4.4346423 -1.9016522
-4.4122162 4.4604492 -1.9010608
-4.3927765 4.4956369 -1.9046093
-4.3611283 4.5183821 -1.902835
-4.3313441 4.5429821 -1.901948
-4.2994576 4.5653009 -1.9001737
-4.2752686 4.5957923 -1.901948
-4.2043271 4.5755157 -1.8824311
-4.2127709 4.6415448 -1.8992865
-4.1791096 4.6616163 -1.8969209
-4.1497946 4.6864557 -1.8966252
-4.1247344 4.7161446 -1.8983995
-4.0969682 4.7428102 -1.8989909
-4.0634494 4.7627726 -1.8969209
-4.0335336 4.7868857 -1.8966252
-4.0022526 4.8093419 -1.895738
-3.9793398 4.8419266 -1.8989909
-3.9405248 4.8551269 -1.8945552
-3.9148426 4.8844318 -1.8966252
-3.8711617 4.8911333 -1.8898239
-3.8510785 4.9275889 -1.894851
-3.8190198 4.9488573 -1.8939638
-3.7891614 4.9729571 -1.8942596
-3.7551305 4.9915333 -1.8924853
-3.7244325 5.0144806 -1.8924853
-3.6879447 5.0295353 -1.8895282
-3.6620564 5.0590334 -1.8921895
-3.6392772 5.0930662 -1.8966252
-3.6046543 5.1106172 -1.894851
-3.548665 5.0973601 -1.8815441
-3.5351753 5.1450195 -1.8913025
-3.5008585 5.1626611 -1.8898239
-3.4680526 5.182457 -1.8892325
-3.4456644 5.2179871 -1.8945552
-3.4203627 5.2494354 -1.8983995
-3.3849885 5.2655025 -1.8966252
-3.3546631 5.2894001 -1.897808
-3.3165708 5.3009763 -1.8945552
-3.2824769 5.3187881 -1.8936681
-3.2428253 5.3274055 -1.8895282
-3.2159767 5.3570304 -1.8930767
-3.1733119 5.3602228 -1.8871626
-3.1432524 5.3845425 -1.8889368
-3.1182561 5.4178023 -1.8939638
-3.0778821 5.4243712 -1.8895282
-3.0445409 5.4431548 -1.8895282
-3.011085 5.4617333 -1.8895282
-2.9756913 5.4767485 -1.8883454
-2.9424815 5.4957461 -1.8886411
-2.910042 5.516232 -1.8895282
-2.8734968 5.5288982 -1.887754
-2.8451781 5.5574794 -1.8915981
-2.8105943 5.5739799 -1.8913025
-2.7729406 5.5842757 -1.8889368
-2.741142 5.6063337 -1.8907111
-2.7021325 5.6135798 -1.8874582
-2.6684554 5.6317806 -1.8880496
-2.6290038 5.6376591 -1.8845011
-2.5903776 5.6450019 -1.8815441
-2.5509741 5.6503425 -1.8779956
-2.5232363 5.681603 -1.8833183
-2.4825909 5.6838474 -1.8788826
-2.4438982 5.690196 -1.8759257
-2.4126544 5.7138848 -1.8788826
-2.3676608 5.7047591 -1.8708986
-2.3347774 5.7244868 -1.8726728
-2.3013854 5.7431383 -1.8741513
-2.2643533 5.752707 -1.8726728
-2.2355578 5.7834215 -1.8782912
-2.2129116 5.8309679 -1.8895282
-2.1790929 5.8498073 -1.8913025
-2.1441422 5.8657594 -1.8921895
-2.0994024 5.854527 -1.8842055
-2.0739007 5.8970366 -1.8939638
-2.0432844 5.9259062 -1.8992865
-2.0026026 5.925662 -1.8951466
-1.9614002 5.9233289 -1.8904153
-1.9205967 5.9216228 -1.8859797
-1.8781531 5.914176 -1.8797698
-1.8418289 5.9255891 -1.8797698
-1.8037676 5.9312949 -1.8779956
-1.7722429 5.9587321 -1.8833183
-1.7316459 5.9557352 -1.8788826
-1.6945474 5.9644108 -1.8782912
-1.6589404 5.9783778 -1.8794742
-1.6262239 6.0031967 -1.8842055
-1.5791032 5.9742732 -1.8717858
-1.5417005 5.9810748 -1.8708986
-1.505438 5.9922748 -1.87149
-1.4675061 5.9967599 -1.8700114
-1.4313473 6.0084391 -1.8708986
-1.3951005 6.0199003 -1.8717858
-1.3596069 6.0348706 -1.8738557
-1.3241863 6.0505648 -1.8762213
-1.28922 6.0688548 -1.8794742
-1.2498369 6.066359 -1.8762213
-1.2137134 6.0795345 -1.8779956
-1.1758432 6.0840535 -1.8771085
-1.1411235 6.1052389 -1.8815441
-1.1005845 6.0952044 -1.8762213
-1.0631644 6.1018429 -1.8762213
-1.0252293 6.1054254 -1.8753341
-0.98942506 6.1219745 -1.878587
-0.95345628 6.1383133 -1.8818398
-0.91718322 6.1534967 -1.8847969
-0.88116497 6.1713023 -1.8886411
-0.84341127 6.1775393 -1.8889368
-0.80499685 6.1788092 -1.887754
-0.76765752 6.1883721 -1.8892325
-0.72967196 6.192966 -1.8892325
-0.69144684 6.1954279 -1.8886411
-0.6512152 6.1786537 -1.8821355
-0.6133858 6.1834836 -1.8824311
-0.57490194 6.1814237 -1.880657
-0.53597039 6.1734147 -1.8771085
-0.50000209 6.2003918 -1.8845011
-0.46187678 6.2023902 -1.8842055
-0.42328972 6.1974831 -1.8818398
-0.38519537 6.1990104 -1.8815441
-0.34779319 6.2127023 -1.8850926
-0.30923781 6.2061329 -1.8824311
-0.27136061 6.2126851 -1.8839097
-0.23323517 6.2142334 -1.8839097
-0.19495079 6.2107735 -1.8824311
-0.1567902 6.2099428 -1.8818398
-0.11866543 6.2098327 -1.8815441
-0.080647543 6.2171302 -1.8836141
-0.042511616 6.2194185 -1.8842055
-0.0043572034 6.2300706 -1.8874582
0.03381855 6.2204275 -1.8845011
0.071853817 6.2086401 -1.8809526
0.10993111 6.2071271 -1.880657
0.14765182 6.1910558 -1.8759257
0.18549378 6.1852589 -1.8744471
0.22313243 6.1754127 -1.8717858
0.26122129 6.178699 -1.8732642
0.29802069 6.1540799 -1.8661673
0.3358278 6.1530895 -1.8664629
0.37398109 6.157588 -1.8685329
0.41111928 6.1456456 -1.8655758
0.4484728 6.1382437 -1.8640972
0.48658025 6.1410899 -1.8658715
0.52433336 6.1389408 -1.8661673
0.56207836 6.136559 -1.8664629
0.59999973 6.1358471 -1.8673501
0.63734108 6.1291995 -1.8664629
0.67493713 6.1251736 -1.8664629
0.71305978 6.1256614 -1.8679415
0.75318938 6.1420307 -1.8744471
0.78866547 6.1202397 -1.8691243
0.82454181 6.1029782 -1.8652802
0.86290896 6.1044254 -1.8673501
0.90453219 6.127367 -1.8762213
0.94225723 6.1226459 -1.8765171
0.97859907 6.1092029 -1.8741513
1.0174774 6.1115642 -1.8768127
1.0543077 6.1014404 -1.8756299
1.0959349 6.1183648 -1.8830227
1.132585 6.1068287 -1.8815441
1.1667964 6.0828767 -1.8762213
1.2050265 6.0802884 -1.8776999
1.2434602 6.0783954 -1.8794742
1.2817187 6.075325 -1.8809526
1.3199865 6.0720134 -1.8824311
1.3593047 6.073122 -1.8853883
1.3976146 6.0693221 -1.8868668
1.4310887 6.0448289 -1.8818398
1.4661207 6.0275803 -1.8791784
1.5012264 6.0110559 -1.8768127
1.5383184 6.0026569 -1.8771085
1.575121 5.9931049 -1.8771085
1.6126096 5.9860945 -1.8779956
1.6503257 5.9797707 -1.8791784
1.6851677 5.9630966 -1.8771085
1.7193365 5.9443855 -1.8744471
1.7571331 5.9383039 -1.8759257
1.7921538 5.9228387 -1.8744471
1.8236644 5.8962159 -1.8694201
1.866428 5.9058657 -1.8762213
1.9014571 5.890666 -1.8750385
1.9360709 5.8743515 -1.87356
1.9705563 5.8578343 -1.8720814
2.0033615 5.8365974 -1.8691243
2.0463953 5.8449326 -1.8759257
2.0809362 5.8286676 -1.8747427
2.1196008 5.8238688 -1.8774042
2.1559598 5.8125448 -1.8779956
2.1919219 5.8001003 -1.8782912
2.2291851 5.7909994 -1.8797698
2.2657218 5.7798805 -1.880657
2.2993736 5.7614331 -1.8791784
2.3332441 5.7436757 -1.8779956
2.3589554 5.7062974 -1.8703072
2.4054036 5.7190137 -1.8794742
2.4408252 5.7050252 -1.8797698
2.4723549 5.6820574 -1.8771085
2.5106509 5.674643 -1.8797698
2.546598 5.6617446 -1.880657
2.5812898 5.6460123 -1.880657
2.6146772 5.6274686 -1.8797698
2.6491573 5.6113191 -1.8797698
2.6814725 5.590652 -1.8782912
2.7194908 5.5818229 -1.8809526
2.7503002 5.5581813 -1.878587
2.7770622 5.52669 -1.87356
2.8169982 5.5214596 -1.8776999
2.8508244 5.5040708 -1.8776999
2.8836539 5.4847836 -1.8771085
2.9190524 5.4703579 -1.8782912
2.9484694 5.4447837 -1.8756299
2.9804425 5.424078 -1.8747427
3.0173888 5.4123635 -1.8771085
3.051482 5.3954105 -1.8776999
3.0802524 5.3691273 -1.8750385
3.1150603 5.3534293 -1.8762213
3.1488206 5.3358603 -1.8768127
3.1819921 5.3172588 -1.8771085
3.2175312 5.3025346 -1.8788826
3.2505069 5.2835059 -1.8791784
3.2808428 5.2602196 -1.8779956
3.3130572 5.2399898 -1.8779956
3.3451467 5.2195625 -1.8779956
3.3713868 5.1901264 -1.8747427
3.4057956 5.1733317 -1.8762213
3.4300528 5.141211 -1.8720814
3.4743736 5.1390619 -1.8791784
3.505841 5.1176472 -1.8791784
3.5437121 5.1054568 -1.8827269
3.5777192 5.0875239 -1.8842055
3.578939 5.0234609 -1.8682373
3.6354094 5.0370398 -1.8818398
3.6510265 4.9938164 -1.8738557
3.6878524 4.9797649 -1.8771085
3.7240698 4.964685 -1.8800656
3.760241 4.949348 -1.8830227
3.7934515 4.9299679 -1.8845011
3.8248041 4.9081063 -1.8850926
3.8530724 4.8822956 -1.8842055
3.8740118 4.8473673 -1.8797698
3.9060855 4.8264761 -1.8809526
3.9416811 4.8098068 -1.8839097
3.9644096 4.7774439 -1.880657
3.9948778 4.7544913 -1.8812484
4.0153103 4.7197032 -1.8771085
4.0304794 4.6790528 -1.8706028
4.0785766 4.6765537 -1.8797698
4.1097236 4.654304 -1.8809526
4.1375675 4.6282878 -1.880657
4.1505051 4.5858135 -1.87356
4.1798553 4.5616689 -1.8741513
4.2058177 4.5338349 -1.8732642
4.2518673 4.527442 -1.8815441
4.2703524 4.4915748 -1.8774042
4.3077683 4.4756122 -1.8818398
4.3378153 4.4518328 -1.8830227
4.3690743 4.4292135 -1.8847969
4.3934693 4.3996181 -1.8836141
4.4088378 4.361156 -1.878587
4.4498615 4.348043 -1.8847969
4.4812679 4.3253012 -1.8868668
4.5077233 4.2977233 -1.8868668
4.5500026 4.285048 -1.8936681
4.5433378 4.2264662 -1.8797698
4.5572281 4.1875205 -1.8747427
4.6118369 4.1858039 -1.8868668
4.6224976 4.1440353 -1.880657
4.6521287 4.1193943 -1.8824311
4.666532 4.0813379 -1.8779956
4.7117271 4.0701141 -1.8862754
4.7446055 4.0479474 -1.8895282
4.7846942 4.0316868 -1.895738
4.7939229 3.9894192 -1.8895282
4.8249531 3.9653885 -1.8921895
4.8447433 3.9320962 -1.8904153
4.8620706 3.8969181 -1.887754
4.8918824 3.8717546 -1.8901196
4.9140415 3.8404891 -1.8895282
4.9443202 3.8155179 -1.8921895
4.9828348 3.7966886 -1.8981037
5.0121436 3.7706378 -1.9004694
5.0321178 3.7375343 -1.8992865
5.0503345 3.7031977 -1.8975123
5.0752831 3.6738203 -1.8983995
5.0953979 3.6409435 -1.8975123
5.1153007 3.6079583 -1.8966252
5.1349907 3.5748658 -1.895738
5.1552544 3.5422089 -1.8951466
5.1808448 3.513191 -1.8966252
5.1999221 3.4797418 -1.895738
5.2203784 3.4472437 -1.8954424
5.2398314 3.4141042 -1.894851
5.2566638 3.3793058 -1.8933724
5.2781067 3.3474996 -1.8936681
5.3042154 3.3185978 -1.895738
5.3301687 3.2895014 -1.897808
5.3535161 3.2587214 -1.8989909
5.3750486 3.226795 -1.8995823
5.4013224 3.1976471 -1.901948
5.4183664 3.1630001 -1.9010608
5.4393277 3.1306472 -1.9016522
5.4567733 3.0962701 -1.9010608
5.4806709 3.0655279 -1.902835
5.4993777 3.0318415 -1.902835
5.5086441 2.9930236 -1.8995823
5.5193262 2.9551082 -1.8969209
5.5373545 2.9211867 -1.8969209
5.5772119 2.8986106 -1.9046093
5.6110482 2.872607 -1.9102278
5.6063919 2.8269401 -1.9025394
5.6065207 2.7839885 -1.8966252
5.6337953 2.754571 -1.9001737
5.653173 2.721194 -1.9010608
5.6827121 2.6925919 -1.9054965
5.6748857 2.6463666 -1.8972166
5.6892805 2.6106994 -1.8966252
5.7226052 2.5836043 -1.9025394
5.7357311 2.5472791 -1.9016522
5.7530036 2.5128021 -1.9022436
5.7551475 2.4717994 -1.897808
5.7904463 2.444988 -1.9046093
5.8026929 2.4083138 -1.9037222
5.8235521 2.3751895 -1.9057921
5.8459969 2.3426106 -1.9084535
5.8647051 2.3084457 -1.909932
5.8734131 2.2703502 -1.9081578
5.892592 2.2363031 -1.909932
5.9008317 2.1981037 -1.9081578
5.9204884 2.1641514 -1.9102278
5.9336557 2.1277833 -1.9102278
5.9511056 2.0929201 -1.9117063
5.969254 2.058234 -1.9134805
5.9772458 2.0200391 -1.912002
5.9940619 1.984827 -1.9134805
6.0015845 1.946537 -1.912002
6.0079527 1.9079401 -1.9102278
6.0241075 1.8724581 -1.9117063
6.0382252 1.8362937 -1.9125934
6.0521255 1.8000264 -1.9134805
6.0456281 1.7577888 -1.9078621
6.0654888 1.7232717 -1.9108192
6.0759487 1.6860222 -1.9108192
6.0889454 1.6494586 -1.9117063
6.0961814 1.611334 -1.9108192
6.1115036 1.5753292 -1.9125934
6.1210546 1.5378001 -1.9125934
6.1266637 1.4993045 -1.9114106
6.1413231 1.4630125 -1.9131849
6.1613517 1.4278911 -1.9167334
6.1737247 1.3908989 -1.9179162
6.18121 1.3527873 -1.9176204
6.1921973 1.3154303 -1.9185076
6.2085724 1.2791463 -1.9211689
6.2209883 1.2419626 -1.9226475
6.2162991 1.2014107 -1.9188033
6.2348218 1.1653523 -1.9223518
6.2418547 1.1270744 -1.9223518
6.230772 1.0856371 -1.9167334
6.2401423 1.0478601 -1.9176204
6.2558846 1.0110763 -1.9205775
6.261971 0.97267199 -1.9205775
6.2508144 0.93169492 -1.9152548
6.2847838 0.89737576 -1.924126
6.2788138 0.85724479 -1.9205775
6.2773247 0.81783825 -1.9185076
6.2879128 0.78001183 -1.9202818
6.3115544 0.74365211 -1.926196
6.304606 0.70363891 -1.9226475
6.3202052 0.6661436 -1.926196
6.3194203 0.62687922 -1.9247174
6.3298059 0.58871186 -1.9267874
6.3352027 0.55002719 -1.9273788
6.3375058 0.51106793 -1.9270831
6.3281384 0.47124907 -1.9232389
6.3423471 0.43319333 -1.9267874
6.3401189 0.39397272 -1.9253088
6.3443246 0.35516998 -1.9259002
6.3368435 0.31575924 -1.9229432
6.3453422 0.27716339 -1.9250132
6.3440595 0.23811622 -1.924126
6.3492203 0.19930544 -1.9253088
6.3484139 0.16029526 -1.9247174
6.3464127 0.12128417 -1.9238303
6.3690066 0.082627431 -1.9306316
6.3693938 0.043546386 -1.9306316
6.3743176 0.0044673481 -1.9321102
6.3809118 -0.034680739 -1.9341801
6.3796234 -0.073821627 -1.9338844
6.3790507 -0.11296488 -1.9338844
6.3877873 -0.15233101 -1.9368415
6.3790936 -0.19129428 -1.9344758
6.3959384 -0.23108627 -1.9400942
6.3915367 -0.2702058 -1.9392072
6.3754458 -0.30872628 -1.9347715
6.392509 -0.34887943 -1.9406856
6.4074116 -0.38913786 -1.9460084
6.4144344 -0.42908266 -1.9489655
6.4135866 -0.46857193 -1.9495569
6.4172568 -0.50844389 -1.9516269
6.431149 -0.54927206 -1.9569496
6.4238524 -0.5883742 -1.9557668
6.4163184 -0.62740749 -1.954584
6.389544 -0.66439575 -1.947487
6.4214296 -0.70756233 -1.9587239
6.4084272 -0.7459566 -1.9560626
6.3951955 -0.78421801 -1.9534011
6.3845787 -0.82271129 -1.9516269
6.4002376 -0.86468333 -1.9581325
6.3673811 -0.90006244 -1.9495569
6.3579583 -0.93855721 -1.948374
6.3539681 -0.97784173 -1.9489655
6.3440752 -1.0162064 -1.9477826
6.3019123 -1.0491546 -1.9365457
6.3217139 -1.0923555 -1.9448256
6.188889 -1.1085626 -1.9052007
6.0175977 -1.116042 -1.8534518
5.8502064 -1.122182 -1.8028858
5.7644973 -1.1424625 -1.7780463
5.6974807 -1.1655619 -1.7591209
5.6360083 -1.1890652 -1.7419698
5.5959339 -1.2165244 -1.7316201
5.5240407 -1.2364447 -1.7112162
5.492146 -1.2647443 -1.7035278
5.4721975 -1.2955594 -1.6996837
5.5421162 -1.3480719 -1.7245231
5.5022283 -1.3741845 -1.7144691
5.4742594 -1.4029408 -1.7082591
5.4600048 -1.4350473 -1.7064849
5.4686222 -1.4732423 -1.7121034
5.4631634 -1.5077857 -1.7132862
5.4391003 -1.5371231 -1.7085549
5.4084597 -1.5643644 -1.7017536
5.4060874 -1.5996885 -1.7041192
5.3742256 -1.626191 -1.6970222
5.3632336 -1.6588539 -1.6967266
5.3374686 -1.6868382 -1.6916995
5.3161087 -1.7160358 -1.688151
5.2909627 -1.7438391 -1.6834197
5.2774467 -1.7753576 -1.6825325
5.2402511 -1.7987138 -1.673957
5.2696891 -1.845036 -1.6872638
5.2582688 -1.8773355 -1.6872638
5.2197199 -1.8997648 -1.6783926
5.2169218 -1.9350781 -1.6813498
5.1960139 -1.9636757 -1.6783926
5.1473145 -1.9814529 -1.6662686
5.1546268 -2.0206678 -1.6727742
5.1394691 -2.0511959 -1.671887
5.1312118 -2.0844898 -1.6733656
5.1112623 -2.1130159 -1.6709999
5.0849924 -2.1387837 -1.6665643
5.0638685 -2.166563 -1.663903
5.0715027 -2.2067397 -1.6709999
5.0526252 -2.2354975 -1.6692257
5.0370708 -2.2656741 -1.6686343
5.015255 -2.292964 -1.6659729
5.0305471 -2.3373778 -1.6760269
4.9996972 -2.3604529 -1.6704085
4.9842582 -2.3906729 -1.6701128
4.9574723 -2.415354 -1.6659729
4.9502645 -2.4495394 -1.6686343
4.9530668 -2.4888735 -1.6748441
4.8772845 -2.4883983 -1.6538489
4.8619242 -2.5182779 -1.6538489
4.8472261 -2.5485072 -1.6541445
4.8373971 -2.5813489 -1.6562146
4.8365884 -2.619169 -1.6615373
4.8296361 -2.6538563 -1.66479
4.8040829 -2.6783242 -1.6615373
4.8149991 -2.7232685 -1.6712956
4.7484808 -2.7242427 -1.6535531
4.7234187 -2.7485235 -1.6505961
4.71387 -2.7818232 -1.6532575
4.7221241 -2.8258996 -1.6624244
4.7071462 -2.8563073 -1.6633115
4.6968546 -2.8896406 -1.6659729
4.678225 -2.9179001 -1.6656772
4.6561956 -2.9439981 -1.6641986
4.6316094 -2.9683893 -1.661833
4.6068997 -2.9925897 -1.6594673
4.585259 -3.0186999 -1.6582845
4.5682397 -3.047838 -1.6588759
4.5367899 -3.067251 -1.6541445
4.5139437 -3.0923314 -1.6526661
4.4948845 -3.1199701 -1.6526661
4.5108209 -3.1722174 -1.6659729
4.481935 -3.1931844 -1.6624244
4.4359198 -3.2016187 -1.6523703
4.4077082 -3.2225754 -1.6491176
4.3970647 -3.2563818 -1.6526661
4.3624811 -3.2724099 -1.6470476
4.3316698 -3.2910261 -1.6429076
4.3212376 -3.3251154 -1.6467519
4.3135638 -3.3615489 -1.6517789
4.2936068 -3.3885448 -1.6520746
4.2846746 -3.4243677 -1.656806
4.2576418 -3.4457862 -1.6544403
4.2452855 -3.4791112 -1.6579888
4.2260637 -3.5069242 -1.6588759
4.2030029 -3.5315599 -1.6582845
4.1717954 -3.5492361 -1.6544403
4.1521106 -3.5766373 -1.6553274
4.1329665 -3.604558 -1.6565102
4.1057587 -3.6254239 -1.6544403
4.0934076 -3.659461 -1.6585802
4.0715847 -3.6851497 -1.6588759
4.0488963 -3.710063 -1.6588759
4.0281568 -3.7367857 -1.659763
3.9828682 -3.7405064 -1.6503004
2.3764138 -2.259629 -0.97401607
2.3638809 -2.2754927 -0.97460747
2.34919 -2.2892876 -0.97431177
3.895313 -3.8424907 -1.6526661
3.8770707 -3.8717194 -1.6550317
3.837117 -3.8791373 -1.6479347
3.8018923 -3.8909938 -1.6429076
3.7713115 -3.9073756 -1.6399506
3.7485838 -3.9318249 -1.640542
3.728318 -3.9589243 -1.6423162
3.6896408 -3.9663396 -1.6358107
3.6574776 -3.9804637 -1.6322622
3.6252804 -3.9943426 -1.6287137
3.6166461 -4.0342932 -1.6361064
3.5987909 -4.0642753 -1.6393592
3.5863638 -4.1006608 -1.6452733
