# .PCD v0.7 - Point Cloud Data file format
VERSION 0.7
FIELDS x y z
SIZE 4 4 4
TYPE F F F
COUNT 1 1 1
WIDTH 1517
HEIGHT 1
VIEWPOINT 0 0 0 1 0 0 0
POINTS 1517
DATA ascii
8.3079929 -1.9167173 -1.6566566
8.2865334 -1.9653934 -1.6547056
8.2504959 -2.0103936 -1.6498284
7.3217793 -1.8316258 -1.4619564
7.3208523 -1.8792009 -1.4641024
8.0205097 -2.1114533 -1.6104201
7.9572182 -2.1470776 -1.6000804
7.892848 -2.1817436 -1.5895455
7.882144 -2.2309339 -1.5901308
8.1480856 -2.3603442 -1.6480726
8.1118221 -2.403883 -1.6435856
7.951437 -2.4095037 -1.6133466
7.8896613 -2.4437315 -1.603592
7.8539476 -2.4855821 -1.5993
7.8012204 -2.5216546 -1.5914963
7.7027125 -2.5421059 -1.5741334
7.86449 -2.6491463 -1.6113956
7.7163839 -2.6520658 -1.5836928
7.7119975 -2.7035825 -1.586229
7.7663732 -2.7762828 -1.6012509
7.7851291 -2.8369856 -1.6088594
7.8117056 -2.9010968 -1.6182238
7.8368692 -2.9652932 -1.627393
7.6062193 -2.9314644 -1.5821321
7.7551565 -3.0436764 -1.6178336
7.817389 -3.1236036 -1.6351967
7.8107944 -3.176686 -1.6379279
7.7947803 -3.2260532 -1.6387082
7.7829733 -3.2772472 -1.6404641
7.7672257 -3.3268723 -1.6414396
7.7403722 -3.3717258 -1.6400739
7.7105713 -3.4151831 -1.638123
7.6903648 -3.4628329 -1.6383181
7.6591635 -3.5054636 -1.6361721
7.6303964 -3.5490832 -1.6346114
7.6058159 -3.5945783 -1.6340261
7.5783119 -3.6386311 -1.6328555
7.5505543 -3.682482 -1.631685
7.5304532 -3.7300482 -1.6322703
7.4802647 -3.7625182 -1.6262225
7.4552903 -3.8074529 -1.6258323
7.4082804 -3.840934 -1.6205648
7.3975916 -3.8931713 -1.6234912
7.3761592 -3.9398754 -1.6240765
7.3673654 -3.9934757 -1.6275882
7.4157643 -4.0787926 -1.6441708
7.4154329 -4.1380816 -1.6498284
7.3822217 -4.1791544 -1.6480726
7.3777013 -4.2365851 -1.6529498
7.3524146 -4.282268 -1.653145
7.3386669 -4.334785 -1.6560713
7.3186617 -4.3837652 -1.657632
7.2958164 -4.4311352 -1.6586075
7.2492838 -4.4639874 -1.6541204
7.2126055 -4.5026698 -1.6519744
7.1409211 -4.5190372 -1.6416346
7.1114073 -4.5617089 -1.6412444
7.0841055 -4.6057925 -1.6414396
7.0368767 -4.6367588 -1.6369524
6.9715929 -4.655334 -1.6281734
6.9826956 -4.7249618 -1.6377329
6.9535723 -4.7677178 -1.6377329
6.8984141 -4.7923841 -1.6314899
6.8239689 -4.8030033 -1.6205648
6.761632 -4.8214331 -1.6125661
6.7311258 -4.8622565 -1.6123711
6.7233253 -4.9196863 -1.6178336
6.7237387 -4.9836287 -1.6254421
6.6561728 -4.9971099 -1.6162729
6.6542692 -5.0598264 -1.6234912
6.5904646 -5.0754223 -1.6152974
6.5661578 -5.1211948 -1.6170533
6.5369196 -5.1632118 -1.6176385
6.5074134 -5.2050624 -1.6182238
6.444109 -5.2195787 -1.6102251
6.3839054 -5.2360039 -1.6030067
6.3493948 -5.2731957 -1.6024214
6.3214226 -5.3158436 -1.603592
6.2916732 -5.3570747 -1.6043724
6.2653689 -5.4013438 -1.6061282
6.2372808 -5.444201 -1.6074938
6.2177205 -5.4947119 -1.6112006
6.148808 -5.5013638 -1.6018362
6.1120291 -5.5363545 -1.6010559
6.0743299 -5.5704379 -1.6000804
6.0637522 -5.6296291 -1.6065184
6.0055146 -5.6445599 -1.6000804
5.9672151 -5.6779222 -1.5991049
5.9336762 -5.7157903 -1.5994951
5.8984933 -5.7520909 -1.5994951
5.8568072 -5.7819729 -1.5977393
5.806653 -5.8032393 -1.5936424
5.7888594 -5.8568978 -1.5987147
5.7411671 -5.8803754 -1.5953982
5.6872783 -5.8971343 -1.5903258
5.6563983 -5.9376016 -1.5918866
5.7125993 -6.0707793 -1.6188091
2.2382665 -2.4070096 -0.61448407
2.2214656 -2.4185305 -0.61389881
2.203949 -2.429209 -0.61311841
5.4578614 -6.0929728 -1.5877897
5.4242716 -6.1307549 -1.5889602
5.3788085 -6.1550589 -1.5866191
5.3473477 -6.1953721 -1.58857
5.3213205 -6.2422495 -1.5922768
5.261445 -6.2492704 -1.5856436
5.2204933 -6.2784195 -1.5848633
5.1632018 -6.2875919 -1.5790106
5.1269951 -6.3222017 -1.5797909
5.0930099 -6.3596663 -1.5813518
5.0429435 -6.3769479 -1.5778401
2.0325511 -2.601768 -0.61741042
1.9961904 -2.5877795 -0.61077738
1.9719585 -2.5890527 -0.60804611
1.9560353 -2.6011038 -0.60804611
1.934779 -2.6059675 -0.60629028
1.8376186 -2.5070143 -0.57897764
1.7814002 -2.461812 -0.56512624
1.7634124 -2.4687045 -0.56415075
4.6363945 -6.5790248 -1.5616475
4.6373744 -6.6669369 -1.5760843
4.5847249 -6.6782842 -1.5719874
4.5524616 -6.7192826 -1.5751088
4.4969769 -6.7258887 -1.5700364
4.4820833 -6.7934732 -1.5795959
4.4483395 -6.8331776 -1.5825223
4.4004989 -6.851265 -1.5803763
4.3578529 -6.8773084 -1.5801811
4.316092 -6.9047499 -1.5803763
4.2674685 -6.9210839 -1.5780351
4.2320542 -6.9588714 -1.5807664
4.1640582 -6.9426494 -1.5710119
1.715822 -2.8996308 -0.63087165
1.6984919 -2.9109516 -0.63106674
1.6810875 -2.922169 -0.63126183
1.6592573 -2.9256024 -0.62970114
3.9199569 -7.0148826 -1.5591114
3.8933973 -7.0688739 -1.5659395
3.8354495 -7.0659065 -1.5598918
3.7897093 -7.0849829 -1.5589163
3.7521083 -7.1193833 -1.5614525
3.7002213 -7.1266026 -1.5579408
3.655977 -7.1482992 -1.5577458
3.6133704 -7.1732254 -1.558331
3.5631883 -7.18296 -1.5555998
3.5246415 -7.2161455 -1.558136
3.479023 -7.2349844 -1.5575507
3.4177856 -7.2207332 -1.5497471
3.3874927 -7.2717981 -1.5563802
3.3379071 -7.2817469 -1.5540391
3.2931643 -7.3020906 -1.5540391
3.2439239 -7.3122973 -1.5518931
3.2005639 -7.33566 -1.5526735
3.1581988 -7.3614697 -1.5540391
3.1167803 -7.3897471 -1.55599
3.0679998 -7.4005775 -1.5542341
3.0173545 -7.4065461 -1.5515029
2.9638369 -7.4048877 -1.5472109
2.9154756 -7.4156313 -1.5456501
2.8727443 -7.440701 -1.5472109
2.8305099 -7.4673591 -1.5491618
2.7839541 -7.4827476 -1.5487716
2.7336175 -7.4877114 -1.5462354
2.6826639 -7.4904923 -1.5433091
2.6376274 -7.5095882 -1.5438944
2.5924573 -7.5284133 -1.5444796
2.5465286 -7.5451078 -1.5446748
2.5060327 -7.5782843 -1.5483814
2.4588821 -7.5916524 -1.5479913
2.419663 -7.6299706 -1.5528685
2.3620484 -7.610014 -1.5456501
2.3178735 -7.6328106 -1.547406
2.2634604 -7.6215029 -1.5421386
2.21556 -7.6314797 -1.5413582
2.176718 -7.6732383 -1.5472109
2.1282864 -7.6817241 -1.5462354
2.0823917 -7.6993723 -1.5472109
2.0381114 -7.7233849 -1.549552
1.9872632 -7.7224469 -1.5468208
1.944611 -7.7535224 -1.5507225
1.8874624 -7.7262435 -1.5427238
1.8529451 -7.792069 -1.553844
1.7852175 -7.7172894 -1.5362859
1.7423472 -7.7481933 -1.5403827
1.6954 -7.7616129 -1.5409681
1.6446944 -7.7574773 -1.5380417
1.5970645 -7.7674232 -1.5380417
1.5537786 -7.7992001 -1.5425287
1.5005126 -7.7806582 -1.5368711
1.4500481 -7.7752557 -1.5339447
1.4059614 -7.8042774 -1.5380417
1.3612375 -7.8311176 -1.5417484
1.3113803 -7.8286819 -1.5396024
1.2527148 -7.7707362 -1.5263362
1.1765091 -7.5941195 -1.489269
1.1284497 -7.5914941 -1.4873182
1.0701091 -7.515739 -1.4707355
1.0194805 -7.489121 -1.4641024
0.97060674 -7.4728646 -1.4596153
0.92461562 -7.4777064 -1.4594202
0.87483197 -7.450119 -1.4527872
0.82639611 -7.4309769 -1.44791
0.78180766 -7.445662 -1.4498608
0.73370016 -7.4259176 -1.4449836
0.68821204 -7.4312568 -1.4451786
0.64184308 -7.4265451 -1.4434228
0.59641916 -7.4322987 -1.4438131
0.54986429 -7.4231029 -1.4412769
0.50437295 -7.4273157 -1.4414719
0.4580065 -7.4175444 -1.4389358
0.41270182 -7.4241323 -1.4397161
0.36728525 -7.4294639 -1.4403014
0.32312894 -7.4648933 -1.4469345
0.27739164 -7.4686956 -1.4473246
0.23406887 -7.5516233 -1.4635172
0.18789811 -7.5597811 -1.4648827
0.14187269 -7.5804038 -1.4687846
0.096466415 -7.6703763 -1.4865378
0.050066177 -7.7767463 -1.5076076
0.0023623938 -7.8710628 -1.5263362
-0.045974661 -7.8777943 -1.5277019
-0.094287261 -7.8754025 -1.5273117
-0.14248273 -7.8678112 -1.525946
-0.19087562 -7.8716917 -1.5269215
-0.23971066 -7.8880181 -1.5304332
-0.28886107 -7.9069815 -1.53453
-0.33674252 -7.8903618 -1.5316037
-0.38582218 -7.9018617 -1.5343349
-0.43402991 -7.8944492 -1.5333595
-0.48354104 -7.9092584 -1.5368711
-0.53087425 -7.8885283 -1.5333595
-0.57883537 -7.8792539 -1.5321889
-0.62904269 -7.8990178 -1.5368711
-0.67985028 -7.9223704 -1.5423336
-0.72997814 -7.9346528 -1.5456501
-0.77922642 -7.9358811 -1.5468208
-0.82821131 -7.933877 -1.547406
-0.8776328 -7.9354696 -1.5487716
-0.91799015 -7.8588223 -1.53453
-0.96931136 -7.8783507 -1.5396024
-1.0222913 -7.9082441 -1.5468208
-1.0706643 -7.9008503 -1.5466256
-1.1202253 -7.9019008 -1.5481863
-1.167683 -7.8880873 -1.5468208
-1.2156123 -7.8778658 -1.5462354
-1.2675072 -7.8925309 -1.5507225
-1.3102552 -7.8507466 -1.5438944
-1.3615848 -7.8609204 -1.5476011
-1.4080583 -7.8427649 -1.5456501
-1.4604591 -7.8571191 -1.5503323
-1.5129037 -7.870162 -1.5548195
-1.5582976 -7.8463011 -1.5518931
-1.6070036 -7.8394742 -1.5524783
-1.6428964 -7.7718935 -1.5407729
-1.6884642 -7.7520833 -1.5388221
-0.67408365 -3.0092762 -0.57410038
-0.69231492 -3.0041277 -0.57390529
-0.71005541 -2.9969604 -0.57332003
-0.72657251 -2.9849243 -0.57175928
-0.74130148 -2.9661384 -0.56883293
-0.75655937 -2.9501348 -0.56649184
-0.77264827 -2.9378495 -0.56493115
-0.78989309 -2.9302127 -0.56434584
-0.80759621 -2.9243655 -0.56415075
-0.82151604 -2.9052 -0.5612244
-2.247858 -7.7599745 -1.5676954
-2.2756355 -7.6792727 -1.553844
-1.0729083 -3.5428495 -0.6970073
-2.3874099 -7.7079158 -1.5657445
-2.421041 -7.6501102 -1.5567703
-2.4697464 -7.6407104 -1.5579408
-1.0789629 -3.2714436 -0.64589363
-1.0808489 -3.2108548 -0.63457835
-1.0973408 -3.1948876 -0.63262749
-1.1110808 -3.1714351 -0.62911582
-2.6933835 -7.534574 -1.5522833
-2.7603922 -7.5750365 -1.5643789
-1.1525308 -3.1053967 -0.61955643
-1.1719106 -3.0991838 -0.61975151
-1.1997257 -3.1148126 -0.62462878
-1.2428313 -3.1685596 -0.63769984
-3.0045614 -7.5195832 -1.5714021
-3.0384464 -7.4710264 -1.5649642
-3.0842307 -7.4522424 -1.5649642
-3.131041 -7.4358892 -1.5655494
-3.1804707 -7.4255524 -1.5675004
-1.2908323 -2.9651186 -0.60394919
-1.3078096 -2.9544523 -0.60336393
-1.3234963 -2.9410067 -0.60219336
-1.3121201 -2.8686235 -0.58814687
-3.3943386 -7.2978206 -1.5616475
-3.4478567 -7.2954764 -1.5657445
-3.5188835 -7.3289971 -1.5778401
-3.5495954 -7.2781792 -1.5714021
-3.5854774 -7.2386861 -1.5675004
-3.6240947 -7.2051601 -1.5649642
-3.6771607 -7.2002554 -1.5688659
-3.7239807 -7.1827812 -1.5700364
-3.7693541 -7.1623998 -1.5706217
-3.8109198 -7.1348114 -1.5696462
-3.8532238 -7.108707 -1.569061
-3.9010246 -7.0926642 -1.5708169
-3.9535539 -7.084866 -1.5745236
-3.9926016 -7.052793 -1.5727677
-4.0382442 -7.0324144 -1.5737432
-4.0931678 -7.0278425 -1.5784254
-4.1486859 -7.023705 -1.5833026
-4.1886802 -6.9930692 -1.5821321
-4.234056 -6.971427 -1.5831075
-4.2834392 -6.956172 -1.5856436
-4.3255215 -6.9289265 -1.5854486
-4.3737254 -6.9113712 -1.5875946
-4.4086351 -6.8728476 -1.5848633
-4.468904 -6.8736224 -1.5914963
-4.5126147 -6.8485289 -1.5920817
-4.5589099 -6.8272357 -1.5936424
-4.6023645 -6.8015709 -1.5942277
-2.9232142 -4.2642136 -0.98905748
-4.7134681 -6.7848511 -1.6039822
-4.7521873 -6.7517924 -1.6030067
-4.7889695 -6.7161188 -1.601446
-3.0407691 -4.210269 -0.99373966
-3.0578561 -4.1796603 -0.99081331
-4.9415708 -6.6670127 -1.6113956
-4.9747295 -6.6263704 -1.6088594
-5.0331073 -6.6191406 -1.6147121
-5.1424584 -6.6774859 -1.6371475
-3.2534027 -4.1720495 -1.0130537
-3.3008296 -4.1797132 -1.0200769
-3.311708 -4.1410012 -1.0153947
-3.3456984 -4.1312718 -1.0181259
-3.4263501 -4.1781497 -1.035489
-3.4099317 -4.1065011 -1.0224179
-3.363091 -3.9999368 -1.0001776
-3.4505289 -4.0531468 -1.0194916
-3.4541967 -4.0073872 -1.0130537
-3.4613039 -3.9661694 -1.0077862
-3.512857 -3.9757199 -1.01598
-3.5646565 -3.984786 -1.0241737
-3.5409658 -3.9097812 -1.0099322
-3.5516293 -3.8735254 -1.0060303
-3.6153748 -3.8947809 -1.0177357
-3.6707797 -3.9061086 -1.0269051
-3.7014399 -3.8906159 -1.0288559
-3.7082293 -3.8501744 -1.0239787
-3.7146626 -3.8097966 -1.0191014
-3.7579544 -3.8071704 -1.0247591
-3.7119026 -3.7146776 -1.00525
-3.7255559 -3.6828704 -1.0027138
-3.5662982 -3.4825096 -0.95218539
-3.5078142 -3.3836377 -0.9301402
-3.4304984 -3.2687073 -0.90321773
-3.4483471 -3.2455804 -0.90263247
-3.532141 -3.2837801 -0.91999549
-3.5103149 -3.2235792 -0.90868026
-3.530755 -3.2026384 -0.90887535
-3.4093256 -3.0546348 -0.87122291
-3.4096384 -3.0174129 -0.8663457
-3.4435995 -3.0099859 -0.87044257
-3.7018509 -3.1957574 -0.93345672
-3.724376 -3.1755278 -0.93423712
-3.7993178 -3.1993523 -0.94867378
-4.0858746 -3.3979232 -1.0177357
-4.1695662 -3.4244413 -1.0339283
-4.1866899 -3.3957047 -1.0329528
-4.1546178 -3.3276567 -1.0194916
-4.2395864 -3.3531957 -1.0358791
-4.1905017 -3.2728014 -1.018321
-4.24546 -3.2739723 -1.0271001
-4.2350311 -3.2246952 -1.0194916
-4.2555218 -3.1992378 -1.0196867
-4.3239083 -3.2092974 -1.0317823
-4.3150334 -3.1618431 -1.0247591
-4.2365932 -3.0646234 -1.0007629
-4.2696872 -3.0488265 -1.0042745
-4.2682691 -3.0084491 -0.99939728
-4.295506 -2.9883621 -1.0015433
-4.3841147 -3.0102327 -1.0185162
-4.4747753 -3.0322268 -1.0358791
-4.4582338 -2.9812772 -1.0274903
-4.4625239 -2.9446857 -1.0241737
-4.4566693 -2.9017346 -1.0185162
-4.4661369 -2.8690352 -1.0165652
-4.4753714 -2.836329 -1.0146143
-4.5234652 -2.8280461 -1.0218327
-4.3762536 -2.6988537 -0.98339987
-4.3868647 -2.6683843 -0.98203427
-4.5394249 -2.7231219 -1.0136389
-4.5568924 -2.6957164 -1.013834
-4.4869232 -2.6173179 -0.99393475
-4.6168399 -2.6552343 -1.0200769
-4.5332098 -2.5702798 -0.99725127
-4.5848575 -2.5625052 -1.0054451
-4.623692 -2.5470972 -1.0107125
-4.6340613 -2.5158722 -1.009542
-4.6727633 -2.4998775 -1.0148094
-4.6654539 -2.4592729 -1.009737
-4.6691389 -2.4247262 -1.0072008
-4.6778159 -2.392906 -1.0058353
-4.6959147 -2.3659229 -1.0066156
-4.7059498 -2.3348861 -1.0056401
-4.6911035 -2.2917664 -0.99920219
-4.6918178 -2.2565656 -0.99627584
-4.7685208 -2.2575173 -1.0101272
-4.8952003 -2.2807972 -1.0349038
-4.9206939 -2.2560291 -1.0374399
-4.7162776 -2.1274412 -0.98983783
-4.7830372 -2.122318 -1.0015433
-5.0270138 -2.1936951 -1.0516815
-4.8510866 -2.0816312 -1.0107125
-4.8890729 -2.062495 -1.016175
-5.0393591 -2.0895286 -1.0458288
-5.0348263 -2.0515401 -1.042122
-5.0318394 -2.014415 -1.0388055
-5.0933976 -2.0028734 -1.0493404
-5.0671606 -1.9567523 -1.0411466
-5.2551665 -1.9923437 -1.078604
-5.3132563 -1.9771543 -1.0883585
-5.1023192 -1.863151 -1.0411466
-5.1155024 -1.8324697 -1.0415368
-5.1349783 -1.8039711 -1.0432926
-5.1886106 -1.7871127 -1.0522667
-5.3565354 -1.8082247 -1.085237
-5.4466848 -1.8014863 -1.1018198
-5.4856291 -1.7770945 -1.1076725
-5.5534616 -1.7614789 -1.1195729
-5.5960145 -1.7372508 -1.126206
-5.6337852 -1.7111423 -1.1318636
-5.6949515 -1.6916125 -1.1423985
-5.8870173 -1.7093862 -1.180051
-6.2068939 -1.760981 -1.2440405
-6.2998161 -1.7456337 -1.2610134
-6.1939511 -1.6754668 -1.2370173
-6.8167543 -1.7990031 -1.3630457
-6.8324142 -1.7583638 -1.3640211
-7.1237245 -1.7867526 -1.4215727
-7.1488457 -1.7464979 -1.424499
-7.2844291 -1.7323066 -1.450056
-7.8548937 -1.8170278 -1.5643789
-7.8582392 -1.7670766 -1.5628182
-8.2991762 -1.8127397 -1.6504136
-8.5509739 -1.8128057 -1.6993814
-8.7329445 -1.7954386 -1.7341074
-8.8188257 -1.7567567 -1.7493244
-9.1212482 -1.7588439 -1.8084369
-9.5156155 -1.7743526 -1.8860828
-9.7435093 -1.7550263 -1.9299781
-9.7840509 -1.7004107 -1.9360259
-9.788496 -1.6393735 -1.9348553
-9.8312931 -1.5845841 -1.9414884
-9.8941393 -1.5324811 -1.9522184
-9.8975353 -1.4708786 -1.9510479
-9.8180122 -1.3975533 -1.9332947
-9.8273745 -1.3374169 -1.9334897
-9.8460941 -1.2784801 -1.9356357
-9.8557005 -1.218282 -1.9360259
-9.8288965 -1.1537874 -1.9291978
-9.8367653 -1.093565 -1.9293928
-9.8510942 -1.0340053 -1.9309536
-9.8601809 -0.97382951 -1.9315388
-9.8620644 -0.91294909 -1.9307585
-9.8860464 -0.85402107 -1.9344652
-9.8627481 -0.79107463 -1.9288076
-9.8850231 -0.73184443 -1.9323192
-9.8883486 -0.67111099 -1.9321241
-9.9050064 -0.61120844 -1.9346603
-9.8840885 -0.5490638 -1.929783
-9.9176388 -0.48990238 -1.9358308
-9.9145784 -0.42878607 -1.9346603
-9.9013414 -0.3673633 -1.9315388
-9.8896847 -0.30617961 -1.9288076
-9.8894157 -0.24544343 -1.9284174
-9.9015226 -0.18495873 -1.9305633
-9.8965874 -0.12412754 -1.9293928
-9.9001045 -0.063419387 -1.9299781
-9.9042301 -0.0026728918 -1.9307585
-9.9001369 0.058074903 -1.9299781
-9.9270544 0.11915272 -1.9354407
-9.8976984 0.17954254 -1.929783
-9.8924885 0.24017462 -1.9290026
-9.8820057 0.30059984 -1.9272468
-9.8985977 0.3619121 -1.9309536
-9.892271 0.42247409 -1.9301732
-9.8718596 0.4823004 -1.9266616
-9.8971138 0.54442948 -1.9323192
-9.8593245 0.60304701 -1.9254911
-9.8847952 0.66551131 -1.9313438
-9.3551207 -0.23640306 -1.9359587
-9.3299818 -0.17849024 -1.930382
-9.3074207 -0.12093309 -1.9254249
-9.3344049 -0.064003818 -1.9310017
-9.3404922 -0.006732265 -1.932241
-9.3354654 0.050553765 -1.9312083
-9.3496552 0.10800305 -1.9343064
-9.3556652 0.16549027 -1.9357523
-9.3163252 0.22198509 -1.9276969
-9.3275013 0.27952528 -1.930382
-9.3001881 0.33583555 -1.9250119
-9.2764454 0.39198625 -1.9204679
-9.2973213 0.45003238 -1.9254249
-9.3266249 0.50882876 -1.932241
-9.2754717 0.5631429 -1.9221202
-9.2630558 0.61945832 -1.9202613
-9.2337084 0.67443162 -1.9148911
-9.2245197 0.73068982 -1.9138584
-9.2695818 0.79152 -1.9243922
-9.2664995 0.84856057 -1.9248053
-9.2309303 0.90245277 -1.9184024
-9.2583084 0.96251428 -1.9254249
-9.2298594 1.0168407 -1.9206743
-9.2467718 1.0761685 -1.9256315
-9.1982336 1.1277671 -1.91675
-9.2134609 1.1870599 -1.9215006
-9.1546125 1.2366306 -1.9105537
-9.1885118 1.2986649 -1.9194351
-9.1552038 1.3513067 -1.9140649
-9.1651134 1.410283 -1.9179893
-9.1273041 1.4618517 -1.9117929
-9.1162319 1.5175071 -1.9113798
-9.1086779 1.5737476 -1.9117929
-9.1046286 1.6306425 -1.9130322
-9.0627041 1.680591 -1.9062161
-9.0599089 1.7376411 -1.9078685
-9.0644331 1.7962414 -1.9111732
-9.0877504 1.8588833 -1.9186089
-9.0828753 1.916023 -1.9200548
-8.9982824 1.9559268 -1.9043573
-8.9383707 2.0004199 -1.89403
-8.9831381 2.0683973 -1.9064227
-8.9845591 2.126858 -1.9095209
-8.9200001 2.1694622 -1.8983674
-8.9331017 2.2307899 -1.9041507
-8.9164019 2.2848318 -1.9035311
-8.8842344 2.3347745 -1.8996067
-8.8801336 2.3920422 -1.9018787
-8.8898125 2.4532509 -1.9072489
-8.8924818 2.5128059 -1.9111732
-8.8656168 2.5640604 -1.9086947
-8.820632 2.6098063 -1.9022918
-8.811945 2.666146 -1.9039441
-8.808506 2.7242115 -1.9068358
-8.7832279 2.7755551 -1.904977
-8.7855864 2.8357065 -1.9093144
-8.7364264 2.8791492 -1.9022918
-8.7000475 2.9264627 -1.8981609
-8.6652689 2.9740734 -1.894443
-8.6560926 3.0304191 -1.8965086
-8.6327276 3.0818303 -1.8954757
-8.6256084 3.139091 -1.8981609
-8.627285 3.1997824 -1.9029114
-8.604743 3.2516208 -1.9022918
-8.6238947 3.319469 -1.9111732
-8.5377741 3.3466153 -1.896302
-8.4952688 3.3902364 -1.8913449
-8.4924374 3.4496622 -1.8954757
-8.4882917 3.5088069 -1.8994001
-8.5234241 3.5847189 -1.9124125
-8.4472923 3.6138616 -1.9000198
-8.3980427 3.6539156 -1.8938234
-8.3745699 3.7049804 -1.8936169
-8.3632793 3.761513 -1.896302
-8.324914 3.8058431 -1.8927907
-8.3404493 3.87499 -1.9018787
-8.2590027 3.8989453 -1.8884532
-8.2525682 3.9580097 -1.8925842
-8.2325249 4.0107145 -1.8936169
-8.2270546 4.0706983 -1.8981609
-8.2299004 4.1351576 -1.9047704
-8.1729946 4.1695719 -1.8973347
-8.1698475 4.2313404 -1.902705
-8.1246767 4.2713742 -1.8981609
-8.069828 4.3059468 -1.8913449
-8.0389528 4.3530521 -1.8903122
-7.9846506 4.3872199 -1.8837026
-7.9712548 4.4437523 -1.8870075
-7.9557624 4.4993219 -1.889899
-7.9356437 4.5524344 -1.891758
-7.9185553 4.6074376 -1.894443
-7.8421025 4.6275969 -1.8826699
-7.8689752 4.7087851 -1.896302
-7.8140025 4.7412462 -1.889899
-7.7747631 4.7829514 -1.8874205
-7.7510805 4.8341904 -1.8888663
-7.7353325 4.8905473 -1.8923776
-7.6936455 4.9305277 -1.889486
-7.6484776 4.9680495 -1.8857682
-7.6260228 5.0202656 -1.8878336
-7.5958896 5.0675063 -1.8880402
-7.5654635 5.1145663 -1.8882467
-7.5258665 5.1553621 -1.8861812
-7.5037379 5.208137 -1.8886598
-7.4140124 5.2135611 -1.8737885
-7.4432454 5.3026657 -1.8896925
-7.4129491 5.3499546 -1.8903122
-7.3760333 5.3924518 -1.8892795
-7.3365164 5.4329505 -1.887627
-7.300694 5.4761033 -1.8870075
-7.2778635 5.5290823 -1.889899
-7.2236385 5.5581222 -1.8845289
-7.1701031 5.5873065 -1.8793652
-7.1633368 5.6530156 -1.8868009
-7.1308088 5.6986952 -1.8874205
-7.0660443 5.718338 -1.8793652
-7.0119038 5.7460833 -1.8742015
-6.9908218 5.8008699 -1.8781259
-6.9580932 5.8461733 -1.8789521
-6.9265623 5.892561 -1.8801914
-6.8932414 5.9375048 -1.8810176
-6.8264446 5.9533238 -1.8725492
-6.8315954 6.0320096 -1.8843223
-6.7959142 6.0751181 -1.8847355
-6.7657647 6.1232677 -1.8868009
-6.7121944 6.150125 -1.8822569
-6.6563973 6.1745601 -1.8770932
-6.6276584 6.2239938 -1.8797783
-6.6077814 6.2820706 -1.8851485
-6.593081 6.3455648 -1.892171
-6.5582261 6.3899965 -1.8934103
-6.5147147 6.4259944 -1.892171
-6.4924726 6.48313 -1.8973347
-6.4628925 6.5332789 -1.9004329
-6.4315734 6.5819082 -1.903118
-6.3910666 6.6212478 -1.903118
-6.3476181 6.6575055 -1.9022918
-6.2959151 6.6849327 -1.8989871
-6.2834373 6.7542405 -1.9078685
-6.2173791 6.7660122 -1.9002264
-6.1849537 6.8141766 -1.903118
-6.1378007 6.8461704 -1.9014657
-6.1125441 6.9027472 -1.9068358
-6.0526814 6.920239 -1.9012591
-6.0101056 6.9572473 -1.9012591
-5.9888968 7.0193 -1.9082817
-5.9463453 7.056663 -1.9084882
-5.9317265 7.1276102 -1.9179893
-5.8605437 7.1306143 -1.9089013
-5.8055816 7.1527658 -1.9051834
-5.7591357 7.1851997 -1.9043573
-5.7185831 7.2250051 -1.9055965
-5.6705284 7.255332 -1.9043573
-5.6318822 7.2977352 -1.9064227
-5.5822535 7.3259282 -1.9047704
-5.5483747 7.3748975 -1.9086947
-5.5117702 7.4205847 -1.9117929
-5.4591913 7.4447966 -1.9093144
-5.4340639 7.5066848 -1.91675
-5.3520608 7.4897351 -1.9037377
-5.3573279 7.5951905 -1.9225333
-5.3083878 7.6247077 -1.9217072
-5.2482038 7.6377826 -1.91675
-5.2039866 7.6738901 -1.9177828
-5.1948972 7.7625952 -1.932241
-5.132071 7.7714639 -1.9264576
-5.0976443 7.8233008 -1.9316213
-5.008801 7.7910609 -1.9157172
-4.9498959 7.804297 -1.9113798
-4.9335761 7.8851175 -1.9239792
-4.8809896 7.9085798 -1.9223268
-4.8379683 7.9475737 -1.9245987
-4.8112726 8.0140181 -1.9336867
-4.7854385 8.0829592 -1.9433944
-4.7318058 8.1054106 -1.9417421
-4.6731968 8.1190281 -1.9380243
-4.6237741 8.1484003 -1.9382308
-4.5698681 8.1697865 -1.9365784
-4.5078421 8.1762524 -1.9314147
-4.4790788 8.2433043 -1.9409158
-4.4187145 8.2525187 -1.9365784
-4.3798661 8.3019762 -1.9419485
-4.3347106 8.3399801 -1.9446337
-4.2736449 8.3472605 -1.9400897
-4.2474599 8.4231224 -1.9518628
-4.1813345 8.4201078 -1.9450468
-4.1197052 8.4253893 -1.9402962
-4.0738726 8.4628506 -1.9431878
-4.0461712 8.53897 -1.9551675
-3.973022 8.5192995 -1.9448402
-3.9190414 8.5399609 -1.9440141
-3.8645539 8.5593882 -1.9429814
-3.8306296 8.6249666 -1.9526889
-3.7717602 8.6348591 -1.9495908
-3.7152312 8.6497488 -1.9477319
-3.6761718 8.7057323 -1.9553741
-3.6230602 8.7290287 -1.9555806
-3.5683231 8.7483768 -1.9549609
-3.5116649 8.7628412 -1.9533086
-3.4567556 8.7814922 -1.9526889
-3.4144518 8.832653 -1.959505
-3.3598442 8.8525229 -1.9592985
-3.3078542 8.8793898 -1.9607443
-3.2556608 8.9059515 -1.96219
-3.2026052 8.9303656 -1.9632229
-3.1467752 8.9470797 -1.9626032
-3.0937316 8.9717693 -1.9638424
-3.0217044 8.9405298 -1.9526889
-2.9729421 8.977478 -1.9568199
-2.9208205 9.004858 -1.9588853
-2.8735104 9.0477886 -1.964462
-2.8214257 9.0764618 -1.9669406
-2.7742229 9.121685 -1.973137
-2.7159691 9.1310329 -1.9714847
-2.6489615 9.1099463 -1.9632229
-2.6095967 9.1843805 -1.9760287
-2.5516233 9.1945629 -1.9747894
-2.4918318 9.1977692 -1.9721043
-2.4298465 9.1920757 -1.9675603
-2.3819492 9.2399721 -1.9747894
-2.3211551 9.2382822 -1.9712781
-2.2569818 9.2219381 -1.9646686
-2.195365 9.214674 -1.9601246
-2.152483 9.2870674 -1.9729304
-2.0905106 9.2781458 -1.9681799
-2.039819 9.3194723 -1.9743763
-1.987275 9.3538256 -1.9791268
-1.9270785 9.3524275 -1.9762352
-1.8706149 9.3688726 -1.9772679
-1.8038071 9.3321419 -1.9669406
-1.751907 9.3718872 -1.973137
-1.6907169 9.3622408 -1.9687996
-1.6444962 9.4370203 -1.9826381
-1.5875334 9.4527225 -1.9838774
-1.522475 9.4188204 -1.9745828
-1.4595454 9.395112 -1.9675603
-1.3991287 9.3855038 -1.9636359
-1.3491241 9.4471855 -1.9749959
-1.2939126 9.4756441 -1.9793334
-1.2376438 9.4979582 -1.9824315
-1.172955 9.4539108 -1.9714847
-1.1203088 9.5066004 -1.9811922
-1.0538121 9.4403658 -1.9657013
-0.9919678 9.4096785 -1.9578526
-0.94155765 9.4895859 -1.9735501
-0.88576102 9.5214891 -1.9791268
-0.82867664 9.5423403 -1.9824315
-0.7673555 9.5131111 -1.9752024
-0.71042418 9.5371552 -1.9793334
-0.6490891 9.5003366 -1.9706584
-0.59187728 9.521718 -1.9743763
-0.53289449 9.5154018 -1.9723108
-0.47381645 9.5048113 -1.9694191
-0.41698366 9.5417519 -1.9766483
-0.35912716 9.5627079 -1.9805727
-0.29970649 9.5412607 -1.9756155
-0.24108249 9.5399857 -1.9749959
-0.18286057 9.5579157 -1.9785072
-0.12440217 9.5735331 -1.9816054
-0.065623984 9.5692244 -1.9805727
-0.0069212853 9.5880365 -1.9844971
0.051668137 9.5428915 -1.9749959
0.11066038 9.5805511 -1.9830512
0.16913272 9.5620832 -1.9793334
0.2273826 9.5432577 -1.9756155
0.2845884 9.4966955 -1.9661144
0.34260678 9.4879255 -1.9646686
0.40147743 9.5012856 -1.9679734
0.46024129 9.5084171 -1.9700388
0.51825559 9.4995518 -1.9687996
0.58139277 9.5762777 -1.9857363
0.6385749 9.5490999 -1.9807792
0.69857967 9.5645189 -1.9849101
0.74976301 9.4654398 -1.9648752
0.80940861 9.4791842 -1.9687996
0.86755657 9.4740391 -1.9687996
0.93100083 9.5230703 -1.9803661
0.98375225 9.4626799 -1.9687996
1.0395465 9.4360418 -1.964462
1.0956163 9.4139357 -1.9611573
1.1662136 9.5119219 -1.9834642
1.2114322 9.4026928 -1.961777
1.2713292 9.4115667 -1.9652883
1.3276848 9.3938999 -1.9632229
1.3815861 9.3604097 -1.9578526
1.4442012 9.3856039 -1.9650817
1.5011443 9.3727007 -1.9642556
1.5684236 9.4221888 -1.9768548
1.617714 9.3632154 -1.966321
1.6725484 9.3386669 -1.9632229
1.7323149 9.3416967 -1.9661144
1.8034213 9.4029617 -1.9816054
1.8584207 9.3782816 -1.9787138
1.9137734 9.3561573 -1.9764417
1.9622614 9.3021145 -1.9673537
2.0047562 9.222971 -1.9528955
2.063446 9.2200441 -1.9549609
2.1241508 9.2253265 -1.9588853
2.1798151 9.2083101 -1.9580592
2.2318826 9.1766977 -1.9541348
2.2869627 9.1580839 -1.9531021
2.3462694 9.1562014 -1.9557872
2.402158 9.140686 -1.9555806
2.4643056 9.1484489 -1.9605377
2.5133667 9.1076899 -1.9549609
2.5630846 9.0704403 -1.9502105
2.6203222 9.0601826 -1.9514498
2.6686487 9.0195398 -1.9460795
2.7230914 9.000186 -1.9454598
2.7797093 8.9879818 -1.9464926
2.8492506 9.0164719 -1.9566133
2.8864911 8.9429512 -1.9442205
2.9361041 8.9092731 -1.9407094
2.9925864 8.8966541 -1.9419485
3.0471189 8.8781252 -1.9419485
3.094425 8.8389444 -1.9374046
3.1561666 8.8409853 -1.9421551
3.2083471 8.8159361 -1.9409158
3.2634008 8.7988358 -1.9415355
3.3200948 8.7859688 -1.9431878
3.3760505 8.7709103 -1.9444271
3.4030268 8.6817074 -1.9289362
3.4594963 8.6688423 -1.9307951
3.5096767 8.6401997 -1.9291427
3.5656157 8.6257362 -1.9307951
3.62113 8.6100092 -1.932241
3.6769705 8.5948248 -1.9338933
3.730809 8.5747938 -1.934513
3.76752 8.5159483 -1.9262512
3.8217084 8.4971323 -1.9272839
3.8766212 8.4797525 -1.9287297
3.9285791 8.4558058 -1.9287297
3.9774654 8.4253483 -1.9272839
3.9986255 8.3372631 -1.9124125
4.0741305 8.36271 -1.9241856
4.1214614 8.3296614 -1.9223268
4.1698585 8.2989693 -1.9210875
4.2233691 8.2784567 -1.9223268
4.2497883 8.2054701 -1.9111732
4.3291931 8.2346668 -1.9243922
4.3722692 8.1941366 -1.9210875
4.4299192 8.1809216 -1.9243922
4.4597745 8.1167116 -1.9155108
4.4971075 8.0669737 -1.9101405
4.5465207 8.0392284 -1.9101405
4.5855393 7.9933567 -1.9058031
4.6413879 7.9769101 -1.9086947
4.6678715 7.9103599 -1.8994001
4.73943 7.9201918 -1.9089013
4.7919979 7.8976545 -1.9105537
4.8403668 7.8681026 -1.9105537
4.8745747 7.8158383 -1.904977
4.9292369 7.7965331 -1.907662
4.9769826 7.7661409 -1.907662
5.0160141 7.7223277 -1.9043573
5.0514674 7.6734247 -1.8998133
5.0767369 7.6097264 -1.8915514
5.1145663 7.5654635 -1.8882467
5.1791372 7.5605774 -1.8950627
5.2276621 7.5318718 -1.8958889
5.2642112 7.4860468 -1.8923776
5.2754169 7.4049935 -1.8797783
5.3545351 7.4192963 -1.8919646
5.4028454 7.3902516 -1.8929973
5.4422665 7.3490977 -1.8909318
5.4743419 7.298346 -1.8863878
5.509551 7.2521524 -1.8830831
5.5664749 7.2344952 -1.8874205
5.6209836 7.2133245 -1.8909318
5.6693807 7.1840758 -1.8923776
5.7011385 7.1338663 -1.8882467
5.7226462 7.0713687 -1.8808111
5.7442231 7.0096335 -1.873582
5.7933726 6.9817858 -1.8756474
5.8216276 6.9288764 -1.8708968
5.8729081 6.9034591 -1.8737885
5.9126024 6.8643279 -1.8729624
5.9603972 6.8345566 -1.8748212
5.9510627 6.7399111 -1.8585041
6.0333862 6.749227 -1.8715165
6.0517068 6.6866879 -1.8642874
6.103858 6.661694 -1.8677987
6.1166725 6.5939865 -1.8591237
6.1697426 6.5698833 -1.8630481
6.1984782 6.5198474 -1.8595369
6.2383666 6.4816918 -1.8595369
6.2998691 6.4657178 -1.8661463
6.3339272 6.4213681 -1.864494
6.3849611 6.3941536 -1.8680053
6.3802543 6.3115034 -1.8549929
6.4195604 6.2729201 -1.8551993
6.4586334 6.2340918 -1.8554059
6.4939313 6.1916442 -1.8545797
6.5346489 6.1543651 -1.8554059
6.6038079 6.1434779 -1.864494
6.6161642 6.07967 -1.8572649
6.6700068 6.0540848 -1.8620154
6.7208695 6.025455 -1.8659397
6.7240205 5.9542632 -1.8564386
6.7493815 5.9032307 -1.8533405
6.7780724 5.8553095 -1.851275
6.8458772 5.840919 -1.8601565
6.907774 5.8208718 -1.8673856
6.9200468 5.7589731 -1.8609827
6.9756613 5.7331791 -1.8665594
6.9947553 5.67732 -1.862222
7.0057926 5.6153231 -1.855819
7.0362797 5.5691943 -1.8547863
7.0841951 5.5367618 -1.8585041
7.0994449 5.4788418 -1.853547
7.1562757 5.4529691 -1.8597434
7.2130551 5.4266043 -1.8659397
7.2501435 5.3851609 -1.8669724
7.2554345 5.3203216 -1.8597434
7.3077564 5.2900472 -1.864907
7.3201766 5.2308855 -1.8597434
7.4105005 5.2270436 -1.8748212
7.4111176 5.1596708 -1.866766
7.4442501 5.1152081 -1.867179
7.4649692 5.0622954 -1.864494
7.5528092 5.0544906 -1.8789521
7.5338774 4.9751606 -1.8663528
7.5773783 4.937387 -1.8696576
7.606708 4.8902707 -1.869451
7.6506166 4.8524146 -1.8729624
7.6561933 4.7903285 -1.8669724
7.6862745 4.7437749 -1.867179
7.7628741 4.7255244 -1.8789521
7.7724299 4.6662192 -1.8742015
7.8042827 4.6204348 -1.8750278
7.8468509 4.5808482 -1.8785391
7.860395 4.5243163 -1.8750278
7.8939643 4.4793811 -1.8764735
7.9084921 4.4236951 -1.8733754
7.9689026 4.3935113 -1.8814307
7.9879732 4.3403277 -1.8795718
8.0196295 4.294004 -1.8808111
8.0432301 4.2433462 -1.8801914
8.0630388 4.1907549 -1.8787456
8.083375 4.1385264 -1.8775064
8.1252155 4.0972209 -1.8814307
8.1686049 4.056428 -1.8857682
8.1827936 4.0010719 -1.8832896
8.1966105 3.9456949 -1.8808111
8.1994467 3.8852711 -1.875854
8.2080574 3.8278563 -1.8723427
8.2376146 3.7802773 -1.8737885
8.3177261 3.7554317 -1.8870075
8.3316708 3.7003524 -1.8849419
8.3398733 3.6428936 -1.8816372
8.3476849 3.5854735 -1.8783325
8.3965683 3.5456054 -1.8845289
8.4037066 3.4880164 -1.8812242
8.4222326 3.4352779 -1.8806045
8.4268045 3.3769834 -1.8768867
8.4755898 3.3363249 -1.8832896
8.4721737 3.2750833 -1.8779194
8.5158939 3.2320652 -1.8832896
8.532814 3.1787271 -1.8826699
8.5356169 3.1202633 -1.8789521
8.5656538 3.071795 -1.8814307
8.6147995 3.0298934 -1.8882467
8.6471033 2.9817619 -1.8913449
8.6735783 2.9314682 -1.8932039
8.6783991 2.8738861 -1.8903122
8.7172747 2.8275266 -1.8950627
8.7279329 2.7719116 -1.8936169
8.7363672 2.7156916 -1.891758
8.7388248 2.657764 -1.8886598
8.7727871 2.6093943 -1.8925842
8.7886324 2.5555165 -1.8925842
8.8013239 2.5007401 -1.8919646
8.8259306 2.4493058 -1.89403
8.8171835 2.3887074 -1.8888663
8.8884306 2.3495669 -1.9012591
8.8515177 2.2817929 -1.8901056
8.8928709 2.2343535 -1.8960954
8.9225693 2.1837008 -1.8996067
8.9186678 2.1248293 -1.8958889
8.9248657 2.0685186 -1.894443
8.9536161 2.0173745 -1.8979543
8.9467106 1.9582134 -1.8938234
9.0025826 1.9126358 -1.9033245
9.0198984 1.858546 -1.9045638
8.9869957 1.7943517 -1.8950627
9.0314589 1.7456751 -1.9022918
9.0458479 1.6909455 -1.903118
9.0531645 1.6348877 -1.9024984
9.0726643 1.5809878 -1.9045638
9.0609665 1.5217232 -1.9000198
8.9947929 1.4539162 -1.8839092
0 0 -0
5.891006 0.87804157 -1.2177992
0 0 -0
0 0 -0
0 0 -0
0 0 -0
0 0 -0
0 0 -0
0 0 -0
0 0 -0
0 0 -0
0 0 -0
0 0 -0
0 0 -0
0 0 -0
0 0 -0
0 0 -0
0 0 -0
0 0 -0
0 0 -0
0 0 -0
0 0 -0
0 0 -0
0 0 -0
0 0 -0
0 0 -0
0 -0 -0
0 -0 -0
0 -0 -0
0 -0 -0
0 -0 -0
0 -0 -0
0 -0 -0
0 -0 -0
0 -0 -0
0 -0 -0
5.8842225 -0.39364818 -1.2054065
5.8816967 -0.42974567 -1.2054065
5.8926044 -0.46690807 -1.2082981
5.9081516 -0.50463647 -1.2122225
0 -0 -0
5.9511776 -0.58195376 -1.2227564
6.0886083 -0.63312286 -1.2527055
8.9808846 -0.98942232 -1.8677987
8.5577078 -0.99600309 -1.7791905
8.3989611 -1.0298058 -1.7467629
8.2779751 -1.066573 -1.7223905
8.1209812 -1.0970502 -1.6903759
8.0414352 -1.1365926 -1.6748849
8.0962591 -1.1950535 -1.6881039
8.1758099 -1.2580974 -1.7066931
8.1853266 -1.3110241 -1.7104108
8.1684418 -1.359778 -1.7085519
8.1512671 -1.4083742 -1.7066931
8.1424723 -1.4583629 -1.7066931
8.1295223 -1.5075833 -1.7058668
8.0932131 -1.5522776 -1.7000835
8.0710583 -1.5994353 -1.6973984
8.0419207 -1.6450076 -1.6932676
8.0469942 -1.6975516 -1.6965723
8.0316458 -1.7458562 -1.6955395
7.9921374 -1.7886951 -1.6893432
7.9485931 -1.8302372 -1.6823206
7.9124579 -1.8731153 -1.6769505
7.8789487 -1.9163127 -1.6721998
7.279428 -1.817908 -1.544348
7.5667009 -1.9390329 -1.6094099
7.7732596 -2.0428624 -1.657122
7.7435727 -2.0859396 -1.6534042
7.6759229 -2.11832 -1.6414245
7.6693716 -2.1672409 -1.6428703
7.6314912 -2.2071919 -1.6375002
7.5896568 -2.2456496 -1.6313038
7.5785446 -2.2930264 -1.6319234
7.5605931 -2.3383281 -1.6310973
7.5479693 -2.3852646 -1.6315104
7.5201554 -2.4273262 -1.6286187
7.4800291 -2.4651556 -1.623042
7.4833102 -2.5172439 -1.6271729
7.4806805 -2.5675595 -1.6300645
7.4684792 -2.6147048 -1.6308907
7.4661174 -2.665415 -1.6339889
7.458817 -2.7145219 -1.6360544
7.4282594 -2.7551341 -1.6329561
7.4194522 -2.8037736 -1.6348151
7.4322424 -2.8608432 -1.6416311
7.4528093 -2.9213881 -1.650306
7.491087 -2.9895451 -1.6631118
7.4662571 -3.0328758 -1.661666
7.4384646 -3.0748935 -1.6596006
7.3923993 -3.1090987 -1.6534042
7.3434968 -3.1417003 -1.6465882
7.3240814 -3.1867001 -1.6465882
7.3043904 -3.2315798 -1.6465882
7.2835317 -3.2759366 -1.6463816
7.2188001 -3.3002272 -1.6360544
7.1877661 -3.3395121 -1.6335758
7.1565223 -3.3785408 -1.6310973
7.1409507 -3.4249272 -1.6323365
7.108366 -3.4631083 -1.6296514
7.0817213 -3.504056 -1.6284121
7.0399785 -3.5373399 -1.6236616
7.0120401 -3.5773578 -1.6222157
6.974319 -3.6122165 -1.618498
6.9528894 -3.6553972 -1.6187046
6.932919 -3.6993723 -1.6193242
6.9212751 -3.7478983 -1.6220093
6.8809972 -3.7808733 -1.6178783
6.8610873 -3.8249288 -1.6187046
6.7983112 -3.8448012 -1.6092035
6.822969 -3.914192 -1.6209766
6.8157377 -3.9658241 -1.6251074
6.7735791 -3.9971285 -1.62077
6.8883023 -4.1220098 -1.6550566
6.8570247 -4.160645 -1.6536107
6.8430338 -4.2098179 -1.6565024
6.8062811 -4.2449961 -1.6538173
6.7817602 -4.287724 -1.6542304
6.7619143 -4.3334789 -1.6558827
6.7130423 -4.360498 -1.650306
6.6747184 -4.3940749 -1.6474143
6.6346083 -4.42626 -1.6441096
6.603271 -4.4641461 -1.6430769
6.6112733 -4.5289073 -1.6521649
6.5753222 -4.5638094 -1.6500995
6.5303869 -4.5922508 -1.645762
6.4877419 -4.6220155 -1.6420442
6.440218 -4.647995 -1.6370871
6.3341675 -4.630837 -1.6168456
6.4306612 -4.7621942 -1.6496863
6.3700099 -4.7780795 -1.6414245
6.3421307 -4.8182588 -1.6418376
6.2822032 -4.8338141 -1.6337824
6.2539687 -4.8734727 -1.6341954
6.201673 -4.8941779 -1.6282057
6.1524167 -4.9168682 -1.623042
6.1213713 -4.9539108 -1.6228354
6.0757227 -4.9789748 -1.6187046
6.0563531 -5.0255327 -1.6218027
6.0269012 -5.063858 -1.6222157
5.9860282 -5.0925016 -1.6195307
5.9442892 -5.1201959 -1.616639
5.9282465 -5.1700773 -1.6209766
5.9110813 -5.2193065 -1.6251074
5.8855104 -5.2613463 -1.6269664
5.8074117 -5.2559991 -1.6139539
5.7613449 -5.2789755 -1.6100296
5.7446275 -5.3288655 -1.6145736
5.7111087 -5.3633437 -1.614367
5.6617818 -5.3827806 -1.6096165
5.6364021 -5.4248824 -1.6118885
5.590395 -5.4470744 -1.6081706
5.5652266 -5.4895186 -1.6106492
5.5715971 -5.5636601 -1.6226289
5.4912496 -5.5511389 -1.6087903
5.4488788 -5.5763311 -1.6063118
5.4451399 -5.6413379 -1.6156063
2.2659566 -2.3769519 -0.65372282
2.2513292 -2.390811 -0.65372282
2.2319517 -2.3995655 -0.65227699
2.2125518 -2.4081724 -0.65083116
5.2307305 -5.7629681 -1.6034201
5.2174788 -5.8197231 -1.6104426
5.1433988 -5.8084106 -1.5982565
5.1134596 -5.846489 -1.6001154
5.0659761 -5.8644271 -1.5963975
5.0279922 -5.8931684 -1.595778
5.003087 -5.937376 -1.5994958
4.9797063 -5.9837551 -1.6038332
4.9522161 -6.0255356 -1.6069314
4.886169 -6.0201039 -1.5972238
4.8577056 -6.0606599 -1.6001154
4.8016014 -6.0665698 -1.5937124
2.013025 -2.5760458 -0.65062463
1.9864202 -2.5744066 -0.64690679
1.9705865 -2.5865467 -0.64690679
1.9523256 -2.5954618 -0.64608061
1.9357799 -2.6066067 -0.64587408
1.7860876 -2.4361746 -0.59816206
1.7349583 -2.3971577 -0.58514965
1.7315949 -2.4236791 -0.58928055
4.4628201 -6.3271441 -1.5949517
4.4054632 -6.3279104 -1.5881357
4.3488202 -6.3290186 -1.5815263
4.3016667 -6.3434367 -1.5784281
4.2642956 -6.3721514 -1.5790477
4.2170281 -6.3859496 -1.5759495
4.1681499 -6.3969493 -1.5722318
4.1304083 -6.4248734 -1.5728514
4.0893359 -6.4476171 -1.5722318
4.0533299 -6.4783936 -1.5736775
3.9955161 -6.4740014 -1.5664485
3.9775953 -6.5343323 -1.5753299
3.9500179 -6.5795865 -1.5804936
3.9001005 -6.5877032 -1.5765692
3.8546724 -6.6030598 -1.5745038
1.6770424 -2.9141417 -0.67024648
1.6596129 -2.9252279 -0.67045301
1.6392444 -2.9310863 -0.6694203
3.6886296 -6.6905289 -1.5732645
3.6479752 -6.7138953 -1.573471
3.6002443 -6.7240767 -1.5705794
3.58951 -6.8040209 -1.5844179
3.5508525 -6.8319945 -1.5858637
3.5061896 -6.8484282 -1.5846244
3.4566126 -6.8549614 -1.5811132
3.4288483 -6.9049597 -1.5879292
3.3889947 -6.9311428 -1.5891684
3.3379138 -6.934175 -1.5850376
3.27142 -6.9041276 -1.5732645
3.2343719 -6.9355979 -1.5759495
3.1807356 -6.9313035 -1.5703728
3.14781 -6.9720912 -1.5753299
3.0946438 -6.9680257 -1.5699598
3.0467386 -6.9752269 -1.5672746
3.0073578 -7.0018811 -1.5691335
2.9532993 -6.9940629 -1.5631437
2.9005759 -6.9885569 -1.5577735
2.8502488 -6.9881034 -1.5536426
2.806953 -7.0045528 -1.553436
2.7660716 -7.0271063 -1.5546753
2.7183151 -7.0320826 -1.5519903
2.6706021 -7.0367379 -1.5493052
2.6253254 -7.0474906 -1.5480659
2.5857291 -7.073575 -1.5503379
2.5376532 -7.0764136 -1.5474463
2.4993801 -7.1066194 -1.550751
2.4525378 -7.1125717 -1.5486856
2.4151161 -7.1460247 -1.5528164
2.3764529 -7.1764989 -1.5563277
2.3151646 -7.1378961 -1.5445546
2.2736933 -7.1594276 -1.546207
2.2593498 -7.2685447 -1.5672746
2.2064509 -7.2551246 -1.5612848
2.1691465 -7.2929096 -1.566655
2.1235375 -7.3032637 -1.5660354
2.0733364 -7.2973323 -1.5619044
2.0290451 -7.3118024 -1.5623175
1.9820955 -7.3165598 -1.5606651
1.9406658 -7.3418269 -1.5635568
1.894115 -7.3479118 -1.5623175
1.8370701 -7.3119488 -1.5519903
1.7961252 -7.3392396 -1.5555015
1.7610379 -7.3920012 -1.5645895
1.7006232 -7.3378525 -1.5505444
1.6583633 -7.3605576 -1.5532296
1.618609 -7.3954453 -1.5585997
1.5670996 -7.3765259 -1.5524033
1.5229936 -7.3917522 -1.5536426
1.4787596 -7.4067149 -1.5548819
1.433285 -7.4156489 -1.5548819
1.3911732 -7.4425774 -1.5588063
1.3453063 -7.4500108 -1.5585997
1.2938561 -7.4253521 -1.5515771
1.2333581 -7.3443789 -1.5325749
1.180306 -7.3025479 -1.5220411
1.1371287 -7.3202882 -1.5243131
1.0908922 -7.318418 -1.5224541
1.0448598 -7.317225 -1.5208018
1.0000749 -7.3244677 -1.5210084
0.95296395 -7.313972 -1.5174971
0.90879142 -7.3255076 -1.5187364
0.86485684 -7.3396916 -1.5205953
0.81861055 -7.3341637 -1.5183233
0.77225953 -7.3263988 -1.5156382
0.72758096 -7.3339205 -1.5162579
0.68111646 -7.322659 -1.512953
0.63625735 -7.3276753 -1.5131596
0.59159845 -7.3353424 -1.5139859
0.54606938 -7.3320041 -1.51254
0.50113755 -7.3361931 -1.5127466
0.45593184 -7.3362002 -1.5121269
0.41173044 -7.3535132 -1.5152251
0.36694366 -7.3627415 -1.5166709
0.32227293 -7.3765845 -1.5191494
0.27674767 -7.3715787 -1.5177037
0.23120371 -7.3633585 -1.5156382
0.18601863 -7.3646388 -1.5156382
0.14062023 -7.3548808 -1.5133662
0.09552715 -7.3585401 -1.5139859
0.050657731 -7.4000812 -1.5226607
0.0053157322 -7.4853764 -1.5406302
-0.040792495 -7.5185347 -1.5476527
-0.086598054 -7.4897699 -1.5416629
-0.13307068 -7.518446 -1.5478593
-0.1794564 -7.5282478 -1.5501313
-0.22409436 -7.4751711 -1.5391845
-0.27034485 -7.4844112 -1.5414565
-0.31605694 -7.4777236 -1.5404236
-0.36311501 -7.5000758 -1.5455873
-0.40800932 -7.47719 -1.5412499
-0.45589542 -7.5077515 -1.5482724
-0.50038767 -7.4813828 -1.5433153
-0.54877633 -7.5123258 -1.5505444
-0.59486073 -7.5088172 -1.5505444
-0.64208764 -7.5186744 -1.553436
-0.6891011 -7.5243368 -1.5555015
-0.73420984 -7.5092549 -1.5532296
-0.78310364 -7.5318584 -1.5590128
-0.82812542 -7.5162134 -1.5567408
-0.87253243 -7.4964123 -1.5536426
-0.92315525 -7.5287929 -1.5616978
-0.96908373 -7.5210462 -1.5612848
-1.0170469 -7.5285335 -1.5641764
-1.0618531 -7.5124631 -1.562111
-1.1032155 -7.4738636 -1.555295
-1.1536651 -7.4969325 -1.5616978
-1.1936105 -7.4520335 -1.5536426
-1.249432 -7.5053749 -1.566655
-1.2969594 -7.5062447 -1.5685139
-1.3385087 -7.473104 -1.5631437
-1.3839809 -7.4628263 -1.5627307
-1.4314042 -7.4628425 -1.5645895
-1.485535 -7.4961491 -1.5736775
-1.5297383 -7.4782658 -1.5718186
-1.5745857 -7.4639516 -1.5707859
-1.6199384 -7.4522376 -1.5703728
-1.6598655 -7.4163771 -1.5647961
-0.69123918 -3.0008943 -0.61055475
-0.71256882 -3.0089741 -0.61323988
-0.72523844 -2.980777 -0.60807621
-1.8292848 -7.3249941 -1.5542623
-1.8780811 -7.3287973 -1.557567
-0.77152795 -2.9347479 -0.60105366
-0.78799397 -2.9242899 -0.59981441
-0.80331987 -2.9099679 -0.59774894
-0.82328814 -2.9125168 -0.5994013
-2.0962989 -7.2480001 -1.5532296
-2.1496143 -7.2650251 -1.559839
-2.1850853 -7.2217298 -1.5532296
-1.0748849 -3.4747293 -0.72828585
-2.2785537 -7.2102323 -1.5567408
-2.3356736 -7.236155 -1.5656222
-2.3778863 -7.2151823 -1.5641764
-1.0852902 -3.2256572 -0.6789214
-1.0999806 -3.2041299 -0.67561668
-1.1157409 -3.1862383 -0.67313814
-2.5877895 -7.2486453 -1.5852441
-2.5927384 -7.1241345 -1.5608717
-1.1599114 -3.1266313 -0.66446322
-1.1811492 -3.1249468 -0.66570246
-1.2150617 -3.1559927 -0.67437738
-1.2568967 -3.205869 -0.68738979
-2.8633544 -7.1748381 -1.591234
-2.9065881 -7.1553206 -1.5908208
-2.939599 -7.1111283 -1.584831
-2.9691434 -7.059586 -1.5771888
-1.2761436 -2.9822891 -0.64525443
-1.288954 -2.9618418 -0.64236283
-1.3043325 -2.9476135 -0.640917
-1.3248019 -2.9449089 -0.64215624
-3.1867383 -6.9705253 -1.5784281
-3.2269752 -6.9455166 -1.5771888
-3.2737079 -6.9344335 -1.5792543
-3.3153491 -6.9124513 -1.5788412
-3.358129 -6.8928585 -1.5790477
-3.409905 -6.891417 -1.5835917
-3.4464154 -6.8589988 -1.5809066
-3.4715416 -6.8046021 -1.5730579
-3.5262768 -6.8083696 -1.5790477
-3.5684412 -6.7874708 -1.5792543
-3.6247594 -6.7930717 -1.5858637
-3.6621799 -6.762959 -1.5840049
-3.6998386 -6.7335005 -1.5823525
-3.7425141 -6.7132359 -1.582972
-3.7990472 -6.7174001 -1.5895816
-3.8645349 -6.7363992 -1.5999088
-3.9038277 -6.7091775 -1.5990827
-3.9508874 -6.6952095 -1.6015612
-3.9908893 -6.6691623 -1.6011481
-4.0403633 -6.6587701 -1.6046594
-4.063715 -6.6055183 -1.5976368
-2.6208277 -4.2018566 -1.0058833
-2.6345356 -4.1666746 -1.0011327
-2.6611078 -4.1520786 -1.0015459
-2.6977262 -4.1529036 -1.0058833
-2.7290747 -4.1452627 -1.0081553
-2.7414269 -4.1089044 -1.0031983
-2.8186426 -4.169014 -1.0228201
-2.798831 -4.0854473 -1.0058833
-2.8595493 -4.1196418 -1.0191022
-2.9112236 -4.1396365 -1.0288099
-2.913862 -4.089819 -1.0205481
-2.9417646 -4.07583 -1.0215808
-2.9765341 -4.0711312 -1.0250921
-3.0014582 -4.0527906 -1.0250921
-3.034488 -4.0452561 -1.0279837
-3.0462313 -4.0094199 -1.0234396
-3.0862875 -4.0108161 -1.0288099
-3.1830044 -4.0844202 -1.0535954
-3.2480087 -4.1155076 -1.0672274
-3.1956279 -3.9984257 -1.0409961
-3.1659393 -3.911809 -1.0228201
-3.1495733 -3.8431165 -1.0093946
-3.1924629 -3.8470616 -1.0157975
-3.2588055 -3.8783426 -1.0298426
-3.2603526 -3.8321896 -1.0226135
-3.3163698 -3.8499219 -1.0331473
-3.3592217 -3.8516238 -1.0393437
-3.3905625 -3.8397412 -1.0418223
-3.4160151 -3.8210533 -1.042442
-3.4623747 -3.8254128 -1.0496711
-3.4844599 -3.8026531 -1.0492579
-3.4558275 -3.7252469 -1.0331473
-3.4746015 -3.6996927 -1.031908
-3.5221798 -3.7045417 -1.0395503
-3.5536642 -3.6920252 -1.0422354
-3.5666921 -3.6603394 -1.0393437
-3.5794654 -3.628633 -1.0364521
-3.6009717 -3.6059091 -1.0362456
-3.6216381 -3.5823698 -1.0358324
-3.6239574 -3.5409324 -1.0300492
-3.4787776 -3.3575776 -0.98109782
-3.457535 -3.2963314 -0.96891165
-3.4435081 -3.2428532 -0.95899743
-3.5027404 -3.2583191 -0.97035742
-3.4931297 -3.2096207 -0.96188909
-3.5105844 -3.1861541 -0.96126944
-3.4018533 -3.0495949 -0.9249174
-3.3875391 -2.9994731 -0.91562283
-3.5804195 -3.1313028 -0.96457416
-3.6876721 -3.1853936 -0.98915309
-3.7324543 -3.1842999 -0.99617565
-3.9644077 -3.3404057 -1.0548346
-3.9291782 -3.2696998 -1.0395503
-3.9620166 -3.2560914 -1.0430615
-3.9788823 -3.2292531 -1.0422354
-3.978009 -3.1882551 -1.0366586
-3.9867563 -3.1552846 -1.033767
-3.9890823 -3.1175067 -1.029223
-3.9802513 -3.0714502 -1.0217873
-3.9896836 -3.0398536 -1.0193088
-4.0152974 -3.0206103 -1.0211678
-3.9622808 -2.9428217 -1.002372
-3.9558036 -2.900517 -0.99596912
-3.9576757 -2.8647146 -0.99183822
-4.0348825 -2.883044 -1.0073291
-4.0357065 -2.8463881 -1.0029917
-4.0715637 -2.8344309 -1.0077422
-4.2316093 -2.9074793 -1.0443008
-4.2315545 -2.8693779 -1.0397568
-4.1214204 -2.7579181 -1.0073291
-4.1358156 -2.7309601 -1.0067095
-4.1639709 -2.7130105 -1.0096011
-4.1805396 -2.6874096 -1.0096011
-4.1820784 -2.6522741 -1.0058833
-4.2024207 -2.6291585 -1.006916
-4.1651869 -2.5704331 -0.99369711
-4.237711 -2.5794256 -1.0077422
-4.2954006 -2.5785577 -1.0180695
-4.295145 -2.5426817 -1.0141451
-4.2920766 -2.5054262 -1.0096011
-4.3200884 -2.4863653 -1.0126994
-4.3199458 -2.4511185 -1.0089815
-4.3553982 -2.4360301 -1.0139385
-4.3754044 -2.4120946 -1.0151778
-4.404737 -2.3931441 -1.0186892
-4.4754043 -2.396095 -1.0321146
-4.4078121 -2.3252134 -1.0124928
-4.4124465 -2.29316 -1.0102208
-4.4647541 -2.2856636 -1.0193088
-4.4874306 -2.2626312 -1.0213742
-4.5730872 -2.2707419 -1.038311
-4.5482597 -2.2237267 -1.029223
-4.5635815 -2.1966259 -1.029636
-4.5548697 -2.1581078 -1.0244725
-4.521029 -2.1081994 -1.0135255
-4.5276546 -2.0775623 -1.0120797
-4.5956049 -2.0747073 -1.0248855
-4.5930476 -2.0397179 -1.0213742
-4.627892 -2.0212893 -1.0265379
-4.774158 -2.0503964 -1.0573132
-4.7875504 -2.0214448 -1.0575198
-4.818841 -1.9999084 -1.0618572
-4.8708835 -1.986564 -1.0709453
-4.803967 -1.9249711 -1.0529758
-4.8184195 -1.8965336 -1.0535954
-4.8390918 -1.8704609 -1.0556608
-4.8632841 -1.8455948 -1.0585525
-4.8222556 -1.796248 -1.0467794
-4.8276725 -1.7646095 -1.0455401
-4.8328834 -1.7329723 -1.0443008
-4.9071126 -1.725688 -1.0585525
-4.9721823 -1.714367 -1.0707387
-5.1698442 -1.7471168 -1.112461
-5.417316 -1.7938073 -1.16513
-5.5399032 -1.7967641 -1.1899155
-5.5722718 -1.7695508 -1.1946661
-5.586762 -1.7364886 -1.1954923
-5.5860786 -1.6987593 -1.1930138
-5.8627372 -1.7436852 -1.2516727
-5.9616399 -1.7333632 -1.271088
-6.2347503 -1.7713723 -1.3287143
-6.2605863 -1.7372702 -1.3320191
-7.5063806 -2.0335298 -1.6021808
-6.7771039 -1.7913607 -1.440249
-6.8021798 -1.7534077 -1.4433472
-7.1563239 -1.7979618 -1.5181167
-7.4817963 -1.831021 -1.5864834
-7.5423832 -1.7968727 -1.5972238
-7.5828147 -1.7574095 -1.6036267
-7.8063087 -1.7588177 -1.6496863
-8.1495724 -1.7837031 -1.7215643
-8.3077517 -1.7649847 -1.7533723
-8.3998804 -1.7307636 -1.7709287
-8.8248415 -1.7619685 -1.8601565
-9.0737276 -1.753847 -1.9113798
-9.1814575 -1.7163012 -1.932241
-9.1802607 -1.6578455 -1.9297624
-9.1748381 -1.5987971 -1.9264576
-9.2288618 -1.5499276 -1.9359587
-9.2179146 -1.4899915 -1.9316213
-9.22785 -1.4335537 -1.9318279
-9.2064724 -1.3724322 -1.9254249
-9.2418413 -1.3197907 -1.9312083
-9.2895126 -1.2684882 -1.9396766
-9.237937 -1.2037504 -1.9270773
-9.2742786 -1.1506602 -1.9332737
-9.2879658 -1.0945345 -1.9347194
-9.2624178 -1.0339406 -1.9279035
-9.3055639 -0.98098755 -1.9357523
-9.3036184 -0.92309803 -1.9340999
-9.3363857 -0.86853349 -1.9398831
-9.3327665 -0.81046796 -1.9380243
-9.3209839 -0.75184989 -1.934513
-9.3371305 -0.69551593 -1.9369915
-9.3051043 -0.63574207 -1.9293493
-9.3283615 -0.57984996 -1.9334803
-9.3571434 -0.52402478 -1.9388504
-9.3279343 -0.46499163 -1.9320344
-9.3227911 -0.4074057 -1.930382
-9.3661814 -0.35173836 -1.939057
-9.3564272 -0.29389283 -1.9365784
-8.8299313 0.64572227 -1.94091
-8.7995367 0.6978032 -1.9350156
-8.7805052 0.75053442 -1.9317409
-8.7553272 0.8025232 -1.9271562
-8.7463531 0.85584909 -1.926283
-8.7448196 0.90990406 -1.9271562
