# .PCD v0.7 - Point Cloud Data file format
VERSION 0.7
FIELDS x y z
SIZE 4 4 4
TYPE F F F
COUNT 1 1 1
WIDTH 1508
HEIGHT 1
VIEWPOINT 0 0 0 1 0 0 0
POINTS 1508
DATA ascii
2.2408161 15.856637 -0.97315645
2.3380685 15.842589 -0.97315645
3.7866366 24.612936 -1.5339202
2.3418522 14.62325 -0.89715809
4.0915031 24.583321 -1.5351164
4.2439651 24.567587 -1.5357461
4.39674 24.552874 -1.5365016
4.5485845 24.532303 -1.5369425
4.699214 24.504911 -1.5370054
4.8539457 24.498133 -1.5384536
5.0109706 24.501133 -1.5405945
5.1657434 24.491407 -1.5419797
5.3169823 24.464127 -1.5422945
5.4704781 24.446625 -1.5433019
5.6230636 24.424269 -1.5440575
5.769834 24.376682 -1.5432389
5.9169397 24.331123 -1.5426093
6.0557256 24.252722 -1.5399019
6.2036805 24.212208 -1.5397129
6.3566923 24.191061 -1.5408462
4.2952752 15.946854 -1.0047648
4.4044566 15.961567 -1.0074723
6.7897687 24.030581 -1.5382648
5.9190826 20.467985 -1.3070583
4.3328619 14.645152 -0.92637372
7.2661982 24.018074 -1.5459464
7.4196248 23.993059 -1.5472686
7.570312 23.958502 -1.5480243
7.731276 23.95529 -1.5509206
7.8943586 23.956692 -1.5541948
8.0583858 23.958883 -1.5575949
8.2230597 23.960905 -1.5610579
8.3883915 23.962749 -1.564584
8.5429821 23.932446 -1.5660322
8.6988821 23.904898 -1.5677322
8.8603182 23.89131 -1.5704397
9.0279102 23.892511 -1.5742176
9.1936998 23.886963 -1.5776176
9.354661 23.86727 -1.5801363
9.548645 23.928997 -1.5882587
9.7197018 23.930061 -1.5923514
9.8831253 23.910553 -1.5951219
10.036228 23.865101 -1.5961922
6.306047 14.740952 -0.97435278
6.3868217 14.680017 -0.97284162
10.567878 23.888985 -1.610863
10.722855 23.842806 -1.6121852
10.883886 23.809238 -1.614452
11.05416 23.794506 -1.618104
11.223383 23.775869 -1.621567
11.407466 23.786646 -1.6271709
11.592539 23.796955 -1.6328377
11.784362 23.818407 -1.6393861
11.949104 23.783106 -1.6420306
12.14016 23.798243 -1.648327
12.294216 23.739256 -1.6494604
8.3912029 15.961925 -1.1005341
12.648028 23.705471 -1.6579607
12.830309 23.695873 -1.6628718
9.0300713 16.435425 -1.1459316
9.1569862 16.426781 -1.1493317
8.3654842 14.792661 -1.0349878
9.3201389 16.247379 -1.1445464
9.4076109 16.169184 -1.1430353
9.486866 16.077633 -1.1405796
9.5551052 15.968591 -1.1368647
9.6197758 15.855053 -1.1328349
14.621157 23.768492 -1.7233809
9.9387779 15.936511 -1.1477576
14.962928 23.668262 -1.7294255
15.124564 23.602055 -1.7313775
15.275078 23.518015 -1.7320701
10.167206 15.445216 -1.1294348
10.296676 15.434846 -1.1334016
15.965277 23.617342 -1.7613487
16.12117 23.535404 -1.7626079
16.278933 23.455721 -1.7641191
10.539762 14.988915 -1.1188568
16.641399 23.360672 -1.7723675
16.748798 23.208755 -1.7685267
16.847307 23.045929 -1.7638673
16.974142 22.922873 -1.7623562
17.105494 22.806313 -1.7614117
17.249334 22.70649 -1.7618524
17.380423 22.589939 -1.7610339
17.574524 22.55451 -1.7667637
11.796136 14.948421 -1.1641914
0 0 -0
11.957971 14.776937 -1.1621135
0 0 -0
12.107817 14.592215 -1.1590912
17.44331 20.762196 -1.6736388
17.571669 20.656294 -1.6737648
17.726089 20.580605 -1.6764723
17.97994 20.61813 -1.6887504
18.17745 20.588219 -1.6955506
18.401207 20.585678 -1.7048063
19.045488 21.045137 -1.753541
19.094032 20.840311 -1.7460482
19.172003 20.669344 -1.7414519
19.384546 20.642988 -1.7493854
19.529409 20.543188 -1.7510854
15.671679 16.283817 -1.3886606
19.77516 20.296982 -1.7506447
19.94418 20.220737 -1.7546744
20.095379 20.125525 -1.75713
20.275957 20.058697 -1.7622302
20.41507 19.949951 -1.7636783
16.298477 15.732689 -1.3919977
16.430096 15.666135 -1.395083
17.04681 16.055655 -1.4402287
20.812296 19.362715 -1.7562485
20.920424 19.225195 -1.755367
17.180576 15.594938 -1.4266913
21.210503 19.016989 -1.7600894
21.318571 18.879208 -1.7593968
21.429502 18.744101 -1.759019
21.538069 18.60704 -1.7585152
21.621466 18.448622 -1.7559967
21.726625 18.309177 -1.755367
21.748043 18.100183 -1.7479372
21.964321 18.053219 -1.7565633
22.087078 17.928173 -1.7575707
21.947479 17.592564 -1.7374221
22.000235 17.414206 -1.7330146
0 0 -0
0 0 -0
22.111454 16.849628 -1.7167068
22.027811 16.573231 -1.701973
22.06179 16.387768 -1.6966839
22.127323 16.226711 -1.6939764
22.215155 16.082443 -1.693095
22.274441 15.917976 -1.6900727
22.396158 15.798262 -1.6919615
22.553282 15.702744 -1.6966209
22.709251 15.605327 -1.7012174
22.892956 15.525631 -1.7079546
23.059946 15.433165 -1.7134326
23.195847 15.318881 -1.7165807
23.281044 15.170816 -1.7159511
23.779997 15.288916 -1.746426
24.00399 15.225576 -1.7561855
24.1418 15.106062 -1.7595227
24.383505 15.049905 -1.7706045
24.292963 14.788946 -1.75713
24.531273 14.728486 -1.7680229
24.887403 14.735315 -1.787542
25.151447 14.683977 -1.8002609
25.365625 14.601072 -1.8093277
25.775024 14.62692 -1.8325617
26.346817 14.738427 -1.8674442
26.745264 14.746597 -1.8896707
27.299126 14.834294 -1.9229791
27.592871 14.775343 -1.937524
28.069628 14.809746 -1.9651024
28.199818 14.657948 -1.9679359
28.251917 14.465538 -1.9652914
28.510345 14.37775 -1.9773176
0 0 -0
28.352911 13.864583 -1.9540206
28.22613 13.588615 -1.939224
28.207966 13.367299 -1.9321719
28.218906 13.161061 -1.9272606
28.245615 12.963104 -1.9235457
28.24185 12.752172 -1.9178159
28.254807 12.54988 -1.9133455
28.2572 12.343913 -1.9082453
28.305817 12.158875 -1.9064194
28.301741 11.951961 -1.9010674
28.268543 11.734077 -1.8938264
28.022123 11.430728 -1.8721665
28.058384 11.245206 -1.8698999
28.056278 11.045046 -1.8651146
28.085356 10.857932 -1.862533
28.126259 10.675837 -1.8608329
28.123899 10.477968 -1.8562994
28.137045 10.2867 -1.8528993
28.077509 10.07006 -1.8447139
0 0 -0
27.987629 9.6518602 -1.8306098
28.051998 9.4818678 -1.8309877
27.969435 9.2631254 -1.8216689
27.900436 9.0506821 -1.8133575
27.930714 8.8714628 -1.8117205
27.873119 8.6652498 -1.8043536
27.78636 8.4516573 -1.7951608
27.764994 8.2593765 -1.7903754
27.662779 8.0445452 -1.780364
27.678978 7.8653822 -1.7782232
27.660364 7.6769819 -1.7738787
27.639519 7.4888453 -1.7694712
27.670475 7.3152852 -1.7685267
27.69068 7.1391354 -1.7669525
0 0 -0
27.777172 6.7990279 -1.7670155
27.887297 6.6448874 -1.771486
27.885738 6.4639578 -1.7687786
27.917088 6.290977 -1.7682748
27.995134 6.1283135 -1.7708564
28.041971 5.9584975 -1.771486
28.08778 5.7883377 -1.7721156
28.173658 5.626049 -1.7753898
28.243904 5.4600821 -1.7777195
28.307287 5.2923641 -1.7796714
28.382441 5.12638 -1.7824419
28.439907 4.956759 -1.7841419
28.467817 4.7818313 -1.784016
28.502535 4.6080217 -1.7843938
28.551968 4.4364181 -1.785779
28.565819 4.2592297 -1.7849604
28.581535 4.0824614 -1.7843308
28.597147 3.9057958 -1.7837641
28.63245 3.7318015 -1.7845197
0 0 -0
28.685011 3.3812079 -1.7850864
28.741915 3.2092345 -1.7874161
28.794811 3.036376 -1.7895569
7.6025143 0.7542423 -0.4448196
7.590106 0.70600766 -0.44374922
7.4620571 0.64793301 -0.43537492
7.4042158 0.59715688 -0.43147111
7.4107265 0.55193675 -0.43166
7.3870897 0.50461709 -0.42995995
7.3621564 0.45754641 -0.42819694
7.3448963 0.41124752 -0.42693764
7.3183751 0.36473012 -0.42511165
7.2955484 0.31872818 -0.42353755
7.3063426 0.274295 -0.42410421
7.3378139 0.23040023 -0.42599317
7.3600411 0.18590227 -0.42731541
7.3510647 0.14054708 -0.42668578
7.3607702 0.095556229 -0.42725247
7.3592219 0.050375819 -0.42712653
7.4072976 0.0052561127 -0.43014884
7.4281483 -0.040306903 -0.43147111
7.4427304 -0.086056679 -0.43241557
7.534863 -0.13336037 -0.43827128
7.6476445 -0.1822962 -0.44544926
7.6523676 -0.22939695 -0.44582704
7.6837292 -0.27753377 -0.44790488
25.052843 -1.0579542 -1.544813
24.999029 -1.2093898 -1.5418537
25.028009 -1.3647683 -1.5441834
20.250431 -1.2289928 -1.2427714
25.047216 -1.6743265 -1.546576
25.025524 -1.8271827 -1.5458834
25.033739 -1.9822773 -1.5471427
25.032043 -2.1367776 -1.5478354
19.94281 -1.8257589 -1.2262746
19.894482 -1.9445 -1.2239449
19.892103 -2.0675652 -1.2245746
25.120867 -2.7668381 -1.5572801
10.578457 -1.2310964 -0.63472116
10.573676 -1.2963456 -0.63491005
10.565523 -1.3612001 -0.63491005
10.556972 -1.4260032 -0.63491005
10.568775 -1.4936849 -0.63623232
10.576196 -1.5609822 -0.6373027
13.856106 -2.1319029 -0.84729004
13.859516 -2.2195647 -0.84836042
24.513422 -4.0798707 -1.530646
14.394753 -2.4868116 -0.88443917
13.647342 -2.4440417 -0.83753049
24.335062 -4.5120168 -1.5242865
24.279474 -4.6559863 -1.5225235
24.232826 -4.801384 -1.5213902
24.164776 -4.9421849 -1.5189346
24.098843 -5.0829496 -1.5166678
24.013561 -5.2190647 -1.5132048
23.916805 -5.3519282 -1.5090491
23.858229 -5.4927568 -1.507412
23.741528 -5.6195068 -1.5020601
23.649384 -5.7511635 -1.4983451
23.471312 -5.8606267 -1.4890893
23.458113 -6.010478 -1.4906005
23.414034 -6.1525259 -1.4901596
8.1988878 -2.2085667 -0.49852851
23.228056 -6.4093933 -1.4830446
7.8110108 -2.2072582 -0.47491676
8.036046 -2.3241756 -0.49059495
8.0158911 -2.3717415 -0.49021718
7.9925904 -2.4182806 -0.48965049
7.9804621 -2.4681611 -0.48983938
8.2316275 -2.6012723 -0.50746948
22.285574 -7.1924248 -1.4402287
7.8464742 -2.5859025 -0.48404664
22.126579 -7.4421368 -1.4356322
22.062563 -7.5716081 -1.434436
21.981779 -7.6949687 -1.4321692
18.978064 -6.7745419 -1.2341452
21.839739 -7.9474173 -1.4290839
21.789629 -8.0809269 -1.429021
18.257317 -6.8987236 -1.1941626
18.457743 -7.1041789 -1.2105963
18.462122 -7.236237 -1.2138705
18.674139 -7.4518371 -1.2313118
21.28091 -8.6437416 -1.4119575
21.212715 -8.7680569 -1.4109501
21.132757 -8.8872185 -1.4091871
21.084251 -9.0194664 -1.4096278
21.034004 -9.1510563 -1.4100056
20.982933 -9.2823687 -1.4103833
20.879162 -9.3900661 -1.4071722
21.234148 -9.7067862 -1.4358212
21.095444 -9.800313 -1.4303432
20.983469 -9.9052839 -1.4267542
20.81881 -9.9842224 -1.4195132
20.696144 -10.082056 -1.4152317
20.608845 -10.196464 -1.4134687
20.538759 -10.31914 -1.4129649
20.465275 -10.439981 -1.4122723
20.399946 -10.564898 -1.4122094
20.334736 -10.689872 -1.4122094
20.260838 -10.810214 -1.4116427
12.96771 -7.0216703 -0.89319128
19.952589 -10.9624 -1.3991127
19.849207 -11.064698 -1.3965311
19.749668 -11.168596 -1.3942645
12.485024 -7.1620102 -0.87090176
12.592669 -7.3268132 -0.88198358
12.589594 -7.4287934 -0.88506883
19.372852 -11.59201 -1.3871495
18.499298 -11.224048 -1.3279626
12.364015 -7.6059322 -0.87864643
18.87759 -11.77289 -1.366434
18.788126 -11.877833 -1.3651748
18.675396 -11.967584 -1.3622154
18.541351 -12.042809 -1.357682
18.446268 -12.142632 -1.3561078
18.347338 -12.239526 -1.3542818
18.230551 -12.323927 -1.3511336
18.096952 -12.396077 -1.3467261
17.964798 -12.46819 -1.3424444
17.861832 -12.559816 -1.3404297
17.721025 -12.624013 -1.3355184
17.62219 -12.717325 -1.3338813
17.426195 -12.739223 -1.3246884
17.338879 -12.839375 -1.3239958
17.179132 -12.885043 -1.3176364
17.042528 -12.946743 -1.313103
16.931128 -13.026728 -1.3105843
16.809153 -13.097859 -1.3072472
16.700266 -13.178495 -1.3049805
16.608953 -13.272619 -1.3041619
16.489962 -13.344146 -1.3011396
16.330578 -13.381821 -1.2948432
16.200541 -13.44226 -1.2909393
16.049747 -13.484277 -1.2853355
15.936299 -13.556636 -1.2828169
15.805177 -13.613132 -1.2788501
15.687502 -13.680338 -1.2760167
15.562117 -13.740008 -1.2725537
15.414269 -13.778703 -1.2672017
15.328694 -13.872354 -1.2671387
15.219739 -13.944573 -1.2651238
15.113402 -14.018694 -1.2633609
15.008184 -14.093402 -1.2617238
14.908406 -14.172848 -1.2605903
14.793838 -14.23776 -1.2581977
14.642576 -14.266281 -1.2525939
14.53558 -14.336936 -1.2508938
14.392956 -14.371557 -1.2460455
14.298887 -14.453924 -1.2455418
14.206443 -14.53782 -1.245227
14.085781 -14.592402 -1.2423936
13.9519 -14.632331 -1.2383639
13.84338 -14.698047 -1.2366638
13.751575 -14.78125 -1.2365378
6.9196501 -7.5301862 -0.60802412
6.8706326 -7.5695467 -0.60777229
12.97349 -14.470106 -1.1889365
6.7540665 -7.62714 -0.60556853
6.6907134 -7.6496587 -0.60399437
6.6182041 -7.6611152 -0.60153878
13.249968 -15.528906 -1.2507049
13.148646 -15.603045 -1.2501382
13.000308 -15.620529 -1.2449751
6.4998088 -7.908349 -0.60865378
12.783739 -15.749442 -1.2425824
12.686862 -15.827585 -1.2425824
12.567827 -15.877744 -1.2403787
2.0131681 -2.5762286 -0.16909716
1.9942739 -2.5845823 -0.16878234
1.9723284 -2.5888324 -0.16815269
1.9582067 -2.6032782 -0.16834158
1.9433867 -2.6168468 -0.16846751
1.937917 -2.6432083 -0.16960087
1.9222474 -2.6558578 -0.16966385
0 -0 -0
11.24888 -15.946999 -1.1940366
11.149109 -16.013262 -1.1938478
10.047347 -14.621395 -1.0820854
10.934397 -16.123268 -1.1918958
10.830819 -16.183422 -1.1913922
10.659266 -16.140478 -1.1831437
10.559484 -16.204742 -1.1830808
10.475507 -16.293575 -1.1849067
10.389234 -16.379456 -1.1865438
10.233478 -16.354908 -1.1799955
9.974102 -16.160063 -1.1609173
9.8565931 -16.191122 -1.1587135
9.7596292 -16.255575 -1.1590283
9.6449575 -16.290249 -1.1572024
9.5443182 -16.348261 -1.1571393
9.4443254 -16.407381 -1.1572024
9.5735102 -16.870371 -1.1866069
9.2218056 -16.48546 -1.1545578
8.9629002 -16.255947 -1.1339684
8.9430428 -16.457956 -1.1445464
8.7773447 -16.391987 -1.1359203
8.6086044 -16.316662 -1.1267273
8.5074043 -16.367405 -1.1266015
8.4231901 -16.451277 -1.1288682
8.5189257 -16.892958 -1.1564467
8.0098104 -16.128826 -1.0989599
7.921217 -16.199186 -1.1004711
7.8753538 -16.35899 -1.1082788
7.9898086 -16.860645 -1.13995
6.9138303 -14.824537 -0.9948163
7.5158715 -16.376913 -1.0996525
7.7536788 -17.172218 -1.1515355
7.5971189 -17.104548 -1.1436019
7.4948211 -17.157242 -1.1440427
6.9545279 -16.19055 -1.0745296
7.3073959 -17.304007 -1.1478835
7.1830997 -17.305195 -1.1449242
7.2942905 -17.882141 -1.1812549
7.1944551 -17.951574 -1.1829549
7.076859 -17.976807 -1.1816956
6.923955 -17.910049 -1.1742657
6.7005949 -17.653618 -1.154117
6.6127067 -17.749578 -1.1578319
6.5297174 -17.861055 -1.1626173
6.450326 -17.985332 -1.1682841
6.1590304 -17.51053 -1.1339054
5.9997358 -17.397978 -1.123894
5.8736954 -17.377737 -1.1201161
6.103332 -18.429068 -1.1876143
5.978744 -18.431046 -1.1852846
5.7800369 -18.198198 -1.1674656
5.6327114 -18.118959 -1.1599098
5.5132971 -18.126446 -1.1581467
5.3914423 -18.124538 -1.155817
5.2636876 -18.100739 -1.1521021
5.2330046 -18.415897 -1.1706767
5.1468668 -18.544786 -1.1770362
4.029911 -14.874134 -0.93506283
3.9393346 -14.901476 -0.93525171
4.6364551 -17.984055 -1.134535
4.5625052 -18.157354 -1.1439797
4.4417534 -18.1472 -1.1415241
4.310194 -18.089651 -1.1360462
4.209259 -18.159508 -1.1388795
4.1286922 -18.322269 -1.1477576
4.0464983 -18.485699 -1.1566986
3.8975227 -18.343246 -1.1459316
0.49478269 -2.402734 -0.11759203
0.48042136 -2.4076819 -0.11771796
0.46999621 -2.4331214 -0.11916615
3.3904216 -18.135143 -1.1267904
0.50804806 -2.8148587 -0.14328162
0.49402291 -2.8366036 -0.14447796
0.47148308 -2.8090706 -0.14252606
0.45232654 -2.8000879 -0.14177048
0.43038633 -2.772239 -0.13981856
0.41233775 -2.7679179 -0.13937782
0.39943922 -2.7990475 -0.14120379
0.3813116 -2.794524 -0.14076304
0.36183557 -2.7789974 -0.13962968
0.24336478 -1.9640715 -0.087683797
0.23049097 -1.9585898 -0.087243043
0.21791515 -1.9550079 -0.086928219
0.20581067 -1.9553157 -0.086865254
0.1933163 -1.9515761 -0.086550429
0.18022819 -1.9408008 -0.085794851
0.16753878 -1.9329218 -0.085228167
0.15447119 -1.9189916 -0.084283702
0.14135835 -1.9019887 -0.083150335
0.12968531 -1.9028202 -0.083150335
0.11856502 -1.912545 -0.083717018
0.10699517 -1.9162258 -0.083905913
0.095732726 -1.9268141 -0.084535562
0.083341233 -1.9144033 -0.083717018
0.072118044 -1.9288411 -0.084598526
0.059748154 -1.9122894 -0.083528124
0.048316494 -1.9245924 -0.084283702
0.036429979 -1.9208612 -0.084031843
0.024057698 -1.8761417 -0.081198432
0.012469712 -1.8652761 -0.080505818
0.0010159754 -1.8543394 -0.079813205
-0.010335248 -1.8493207 -0.07949838
-0.029652983 -2.5417995 -0.12319589
-0.047027048 -2.6423535 -0.12955533
-0.045749821 -1.9066857 -0.083150335
-0.05646304 -1.8734493 -0.081072502
-0.068604752 -1.8910202 -0.082205862
-0.71200269 -16.85745 -1.0273061
-0.86893678 -17.959269 -1.0971969
-0.94842291 -17.390556 -1.0616219
-1.1144016 -18.361666 -1.1233903
-1.1517113 -17.227243 -1.0521142
-0.25238073 -3.451931 -0.18118638
-0.23834884 -3.0055959 -0.15304115
-0.2742691 -3.2089236 -0.16601188
-0.35326448 -3.8551779 -0.20706488
-0.29353458 -2.9997063 -0.1529782
-0.30636442 -2.9442446 -0.14957809
-0.4256953 -3.8619106 -0.20794639
-0.44834554 -3.8503039 -0.2073797
-0.4462229 -3.6374724 -0.19403118
-0.46050191 -3.5723062 -0.1900644
-0.48000845 -3.5516105 -0.18893105
-0.36900866 -2.6088197 -0.12905161
-0.42390716 -2.8701222 -0.14586319
-0.46594021 -3.0262797 -0.15600049
-0.4785043 -2.9859161 -0.15360785
-0.64475882 -3.871906 -0.21046497
-0.54093057 -3.1293039 -0.16317847
-0.55519611 -3.098419 -0.16141547
-3.6693289 -19.789709 -1.2326341
-3.2150114 -16.764593 -1.0397731
-3.3211136 -16.761194 -1.0408435
-0.53308803 -2.604749 -0.13056275
-0.54535323 -2.5838513 -0.1294294
-0.85876489 -3.9497097 -0.21783185
-4.0537615 -18.115088 -1.1339684
-3.8952682 -16.91889 -1.0581589
-4.1916285 -17.708525 -1.1109233
-4.0813723 -16.782537 -1.052492
-0.68989038 -2.7614956 -0.14240013
-0.70905089 -2.7659116 -0.14296681
-0.73742187 -2.8049452 -0.14580022
-1.0951364 -4.0647125 -0.22840992
-0.63056844 -2.2838652 -0.112303
-0.93708235 -3.3152857 -0.18017896
-0 -0 -0
-0.74837428 -2.5283523 -0.12917754
-0.72081596 -2.3813787 -0.11979579
-0.78494656 -2.5370941 -0.13037387
-1.0551752 -3.3382728 -0.18370497
-5.9994736 -18.589025 -1.19517
-1.34593 -4.0833793 -0.23407674
-1.3677783 -4.0655842 -0.23344709
-0.71662724 -2.0870318 -0.10203975
-0.73139793 -2.0882473 -0.10241754
-1.2024955 -3.3676677 -0.18842733
-1.4992197 -4.1189513 -0.23936577
-1.5303642 -4.1255822 -0.24043617
-1.5581186 -4.1226497 -0.24087693
-1.5862532 -4.1204629 -0.24138065
-1.1737639 -2.9937558 -0.16569707
-1.1732476 -2.9392233 -0.16248587
-1.375657 -3.3859768 -0.19340153
-1.3990756 -3.3839285 -0.19384229
-1.231406 -2.9272494 -0.16317847
-1.2438489 -2.9067922 -0.16229697
-1.3002801 -2.9878764 -0.16840455
-1.3181851 -2.978929 -0.16834158
-1.7588704 -3.9101212 -0.23332116
-1.566661 -3.4263537 -0.20051655
-1.509868 -3.2492294 -0.18886808
-1.5101796 -3.1983879 -0.18597171
-7.3539405 -15.333979 -1.0357434
-1.9409217 -3.9835286 -0.24238808
-0.89345217 -1.8050009 -0.089887559
-0.90361452 -1.7977012 -0.08976163
-0.91780251 -1.7983462 -0.090202384
-0.92514813 -1.7855909 -0.089698665
-1.6763046 -3.1880145 -0.1900644
-0.94605082 -1.7723424 -0.089572735
-0.95880866 -1.7700148 -0.089824595
-0.96196222 -1.7501031 -0.088817157
-1.9712425 -3.5355806 -0.21820964
-1.4815009 -2.6190648 -0.15266337
-10.112678 -17.629045 -1.245038
-10.304471 -17.710724 -1.2555531
-10.36984 -17.574102 -1.2502012
-10.412398 -17.401379 -1.2422047
-5.1004806 -8.4061117 -0.58315307
-1.5423861 -2.5066557 -0.1485077
-1.5577376 -2.4971447 -0.1485077
-5.0879583 -8.0476055 -0.56350809
-5.1630878 -8.0565691 -0.56653041
-1.3261999 -2.0411906 -0.1163957
-1.3782079 -2.0930357 -0.12092916
-1.3627791 -2.0421975 -0.11771796
-1.3976408 -2.0668705 -0.12023655
-1.4232682 -2.0771935 -0.12168474
-1.3944482 -2.008568 -0.11708831
-1.3384352 -1.9028224 -0.10959551
-1.3495065 -1.8937613 -0.10953255
-1.3885498 -1.9234821 -0.11249189
-1.4374312 -1.9656848 -0.11645866
-1.4542166 -1.9632443 -0.11696238
-1.4686307 -1.9574782 -0.11721424
-1.4299029 -1.8816736 -0.11192521
-1.422556 -1.8483434 -0.1099733
-1.5369234 -1.9718381 -0.12055137
-1.5718679 -1.9913591 -0.12288106
-1.6170774 -2.022999 -0.1262182
-1.6344821 -2.0192454 -0.12672192
-1.6417809 -2.0030026 -0.1262182
-1.662962 -2.003644 -0.12709971
-1.6810025 -2.0002799 -0.12766638
-1.6893644 -1.9853666 -0.12728859
-1.700212 -1.9734511 -0.12716267
-1.712289 -1.9629816 -0.12716267
-1.7243013 -1.9524382 -0.12716267
-2.221113 -2.4842613 -0.17306393
-2.1472492 -2.3721669 -0.16468963
-2.2453637 -2.4501948 -0.17249726
-2.2732506 -2.450274 -0.17369358
-2.3012226 -2.4501028 -0.17488991
-2.351969 -2.4735501 -0.17816408
-2.409317 -2.5029373 -0.18200493
-3.0402865 -3.1200278 -0.23766573
-16.130329 -16.353891 -1.4120204
-3.2292504 -3.2336197 -0.25114018
-2.4813683 -2.4542863 -0.18301237
-2.5142252 -2.4564531 -0.18458648
-2.5314045 -2.4430594 -0.18477537
-2.5369575 -2.4185276 -0.18395683
-3.4874773 -3.2842672 -0.26505539
-2.5693684 -2.3899324 -0.18420869
-3.1064548 -2.854269 -0.22897659
-3.1837664 -2.8894887 -0.23407674
-3.326272 -2.981828 -0.2446548
-2.6474192 -2.3440223 -0.18590873
-17.388847 -15.209694 -1.4203318
-3.6388752 -3.1432362 -0.26618874
-17.428419 -14.870782 -1.4082426
-3.3635156 -2.8340156 -0.24031024
-3.4475784 -2.8688686 -0.24578817
-3.4720554 -2.8533642 -0.24635486
-3.4058125 -2.7640765 -0.23955467
-4.1126471 -3.2961807 -0.2953414
-4.1202741 -3.260973 -0.29433396
-4.123693 -3.2227232 -0.2930117
-3.8226213 -2.9497914 -0.26744804
-18.175018 -13.849852 -1.4044647
-3.2348924 -2.4334335 -0.21820964
-11.286996 -8.3838749 -0.84987158
-2.9763939 -2.1822608 -0.19566827
-2.9905362 -2.1645422 -0.19573124
-3.0662837 -2.1908333 -0.20057951
-3.0764067 -2.1696768 -0.20032765
-3.0904806 -2.1513295 -0.20039062
-3.0822372 -2.1176302 -0.19875354
-3.0951726 -2.0986781 -0.19875354
-19.768072 -13.229967 -1.4635257
-19.803074 -13.078174 -1.4600625
-19.850338 -12.935167 -1.4576069
-3.6779706 -2.3642824 -0.23867317
-5.7040987 -3.617712 -0.38896993
-5.7168827 -3.5768209 -0.38827729
-3.6843479 -2.2736418 -0.23596568
-3.7059014 -2.2556632 -0.23653236
-3.7299397 -2.2390463 -0.23728794
-3.7410319 -2.2145925 -0.23709904
-3.7640305 -2.1971314 -0.23779166
-3.809444 -2.1924167 -0.24012135
-3.8783758 -2.2005262 -0.24415109
-3.8534813 -2.1552486 -0.24138065
-3.9042134 -2.1522851 -0.24408813
-3.8384249 -2.0854018 -0.23842131
-3.8819418 -2.0783 -0.24062507
-3.8990343 -2.0567703 -0.24093989
-3.9044969 -2.0291252 -0.24043617
-3.9168737 -2.0051296 -0.24043617
-4.3069334 -2.1716037 -0.26713321
-4.3398418 -2.1549022 -0.26851842
-4.3843617 -2.1435781 -0.27072221
-4.4055252 -2.120532 -0.27128887
-17.694874 -8.385149 -1.1981924
-5.7237105 -2.6691387 -0.36126545
-5.7644706 -2.6452084 -0.36296549
-22.496012 -10.157639 -1.5200679
-22.546968 -10.014552 -1.5193124
-5.8533382 -2.5566342 -0.36579889
-5.796473 -2.4895515 -0.3608247
-5.7730255 -2.4376307 -0.35818017
-22.741703 -9.4398394 -1.5162901
-22.802893 -9.3016291 -1.5165418
-9.5993271 -3.8469236 -0.61526507
-9.6283226 -3.7901444 -0.61564285
-22.798033 -8.8137465 -1.5048934
-22.838619 -8.6687365 -1.5040119
-22.893251 -8.5291348 -1.5041379
-22.903912 -8.3734255 -1.5013674
-23.247017 -8.3375196 -1.5209494
-13.502699 -4.7492471 -0.86586463
-13.560834 -4.6763935 -0.86781651
-7.7869744 -2.6317735 -0.4814021
-7.7821336 -2.5770407 -0.48001689
-7.8281775 -2.5390968 -0.48203176
-14.421047 -4.5802665 -0.91743273
-14.471752 -4.4988055 -0.91894388
-14.549689 -4.4253168 -0.92228097
-14.493346 -4.3112006 -0.91680306
-14.518568 -4.221911 -0.91674012
-14.60084 -4.1488433 -0.92045504
-9.6907816 -2.6893535 -0.59732014
-9.7042112 -2.6290584 -0.59713125
-9.6989326 -2.5638528 -0.59574604
-12.932629 -3.3340347 -0.80541849
-13.244186 -3.3278332 -0.82437086
-13.084048 -3.2023692 -0.81265944
-13.08986 -3.1187878 -0.81177795
-13.181667 -3.0553148 -0.81650031
-13.353995 -3.0090427 -0.82644868
-11.504248 -2.5181119 -0.70580834
-15.182252 -3.2258129 -0.94205189
-15.155818 -3.1231272 -0.93909258
-15.109123 -3.016979 -0.93487394
-15.211619 -2.9405065 -0.9402889
-15.30099 -2.8605044 -0.94488531
-15.327093 -2.768162 -0.94545197
-15.216958 -2.6519575 -0.93732953
-15.387466 -2.584496 -0.94721502
-15.540966 -2.5123329 -0.95603007
-15.529462 -2.4127905 -0.95433003
-15.44329 -2.3024445 -0.94790763
-15.307941 -2.1863315 -0.93839997
-15.643428 -2.136395 -0.95892644
-15.944228 -2.0779073 -0.97724921
-16.190416 -2.0090463 -0.99210882
-16.757484 -1.975099 -1.0273691
-27.217442 -3.038995 -1.6906393
-27.190912 -2.8672245 -1.6878059
-27.327169 -2.7121599 -1.6953616
-27.349258 -2.5449874 -1.6957395
-0 -0 -0
-30.787546 -2.4843113 -1.9115195
-30.80221 -2.2953558 -1.9115195
-30.93022 -2.1141419 -1.9187604
-30.977472 -1.9264864 -1.9209642
-30.98871 -1.7363759 -1.9209642
-31.015726 -1.5470455 -1.9220346
-31.127331 -1.3611997 -1.92852
-31.214882 -1.1731801 -1.9335572
-31.034958 -0.97575986 -1.9217827
-25.607981 1.8928446 -1.90237
-25.584949 2.0490603 -1.9015414
-25.569908 2.2058365 -1.9013907
-25.536034 2.3608522 -1.8998842
-25.509159 2.5163188 -1.8989803
-25.47043 2.6704001 -1.8972477
-25.429779 2.8239911 -1.8954399
-25.395138 2.9779971 -1.8941593
-25.368469 3.1327846 -1.8935567
-25.329981 3.2859454 -1.8921255
-25.296497 3.4395583 -1.8911463
-25.266031 3.5934458 -1.8904684
-25.222794 3.745331 -1.8888865
-25.169775 3.895448 -1.8866266
-25.132601 4.0477514 -1.8856474
-25.093523 4.1995811 -1.8845928
-25.046652 4.3498893 -1.883011
-24.995935 4.4992499 -1.8812032
-24.984524 4.6556435 -1.8824837
-24.922195 4.8024416 -1.8799225
-24.880524 4.9529338 -1.8790187
-24.845758 5.104702 -1.8787173
-24.825674 5.2595372 -1.8796213
-24.790987 5.4113402 -1.8794706
-24.820555 5.5775666 -1.8843669
-24.825697 5.7389674 -1.8874552
-24.907402 5.9190888 -1.8965698
-24.940359 6.0888371 -1.9019933
-24.986679 6.2628493 -1.9085468
-25.020208 6.4346776 -1.9141963
-25.043892 6.6048636 -1.9191679
-25.051023 6.7714176 -1.9229342
-25.067623 6.9412351 -1.9275291
-25.075405 7.1093345 -1.9315214
-25.096432 7.2819586 -1.9366436
-25.113413 7.4542565 -1.9415399
-25.152122 7.6339879 -1.948244
-25.185759 7.813292 -1.9546467
-25.186771 7.9833512 -1.9585638
-25.111698 8.1294508 -1.95653
-25.2062 8.3312654 -1.9680549
-25.297276 8.5339069 -1.9794292
-25.303835 8.7094154 -1.9841748
-25.157717 8.8321381 -1.9767928
-25.379059 9.0851555 -1.9989389
-25.335012 9.2451515 -1.9999182
-25.3451 9.425458 -2.0053418
-25.326885 9.5959892 -2.0085807
-25.318693 9.7709599 -2.0127237
-25.295385 9.9407187 -2.0157368
-25.314459 10.12797 -2.0222902
-25.310019 10.306801 -2.0270357
-25.308941 10.487867 -2.0321581
-25.351614 10.688291 -2.0409713
-25.36895 10.879412 -2.0478261
-25.40317 11.07912 -2.0561874
-25.358412 11.245294 -2.0581458
-25.378019 11.440844 -2.0655279
-25.369892 11.62501 -2.0707254
-25.388477 11.822556 -2.078258
-25.338892 11.989202 -2.0802166
-25.286421 12.154822 -2.0820243
-25.22122 12.314561 -2.0828531
-25.129997 12.461553 -2.0815725
-25.025454 12.601609 -2.0792372
-24.887289 12.724055 -2.074115
-24.728209 12.834716 -2.0672603
-24.59606 12.958314 -2.0627408
-24.470362 13.084537 -2.0588238
-24.3344 13.204473 -2.0540781
-24.190905 13.319388 -2.0487299
-24.018188 13.416991 -2.0408959
-23.949291 13.571978 -2.0421011
-23.80678 13.684877 -2.036979
-23.687906 13.810605 -2.0339658
-23.597569 13.952645 -2.033514
-23.458492 14.065381 -2.0288436
-23.34363 14.191959 -2.0263579
-23.227249 14.317135 -2.0237968
-23.106831 14.439303 -2.0209343
-22.99 14.563202 -2.0184486
-22.874199 14.687289 -2.0161135
-22.74604 14.802889 -2.0127237
-22.624817 14.922411 -2.0100119
-22.508789 15.044883 -2.0078275
-22.392935 15.167052 -2.0057182
-22.267387 15.282161 -2.0027807
-22.13554 15.392314 -1.9993155
-22.017853 15.511765 -1.9972064
-21.882492 15.618184 -1.9935154
-21.734533 15.714764 -1.9886944
-21.601501 15.821313 -1.9853047
-21.471184 15.929199 -1.9822164
-21.340357 16.036081 -1.979128
-21.19792 16.133505 -1.974985
-21.065357 16.2377 -1.9718213
-20.930744 16.339649 -1.9685069
-20.790983 16.436848 -1.9647405
-20.663271 16.542919 -1.9621794
-20.529619 16.643646 -1.9590911
-20.407843 16.753483 -1.9572079
-20.287025 16.863726 -1.9554753
-20.1702 16.976971 -1.9541948
-20.049715 17.08683 -1.9526129
-19.930151 17.197153 -1.9511818
-19.797974 17.296154 -1.9485453
-19.672054 17.400129 -1.9465868
-19.537436 17.495893 -1.9437997
-19.414202 17.601377 -1.9422178
-19.294083 17.709381 -1.9410126
-19.17264 17.815893 -1.9397321
-19.049891 17.9209 -1.9383762
-18.919353 18.018194 -1.936267
-18.787622 18.113871 -1.9340825
-18.654003 18.207216 -1.9317474
-18.504343 18.284184 -1.9277551
-18.382641 18.388212 -1.9267758
-18.255455 18.486469 -1.9252692
-18.13611 18.592424 -1.9246666
-18.0037 18.684685 -1.9227082
-17.88184 18.787579 -1.9219549
-17.753248 18.883141 -1.9205238
-17.606514 18.958836 -1.917134
-17.469633 19.044464 -1.9148742
-17.320984 19.116566 -1.9113338
-17.178757 19.194992 -1.9085468
-17.038862 19.275383 -1.9060609
-16.904531 19.36154 -1.9042531
-16.760668 19.436203 -1.9013907
-16.626871 19.521976 -1.8997335
-16.489443 19.603025 -1.8976997
-16.348461 19.679289 -1.8952892
-16.222977 19.773832 -1.8947619
-16.08816 19.856731 -1.8931801
-15.962281 19.950401 -1.8927281
-15.830295 20.036232 -1.8915982
-15.699697 20.123552 -1.8906943
-15.562539 20.202126 -1.8890371
-15.4238 20.278187 -1.8872293
-15.278728 20.345333 -1.8846681
-12.489 16.844423 -1.5466768
-15.003174 20.497499 -1.8815044
-14.882378 20.596445 -1.8821824
-14.736033 20.659771 -1.8796213
-14.603824 20.742462 -1.8789433
-14.489932 20.851334 -1.8807511
-14.334647 20.900375 -1.8771355
-14.196075 20.973074 -1.8757796
-14.073766 21.069735 -1.8766835
-13.943122 21.154028 -1.8765329
-13.803819 21.224972 -1.8752522
-13.689479 21.33445 -1.8775121
-11.469332 18.117744 -1.5824571
-11.438224 18.316341 -1.5939066
-11.451125 18.589951 -1.6119851
-11.438315 18.8269 -1.6267492
-11.440962 19.094326 -1.6441497
-11.411335 19.312691 -1.6571811
-12.677468 21.759546 -1.8650079
-12.547688 21.843842 -1.8656105
-9.5966406 16.945833 -1.433762
-12.285004 22.007496 -1.8665897
-12.153102 22.088577 -1.867117
-12.001656 22.133802 -1.8646312
-11.226107 21.010017 -1.7621114
-11.273482 21.413805 -1.7907356
-11.355798 21.895082 -1.825838
-10.560319 20.670521 -1.7160867
-10.656024 21.177643 -1.7535242
-10.497547 21.185444 -1.7487032
-10.897238 22.335661 -1.8399993
-10.712498 22.303228 -1.8317134
-10.497032 22.202662 -1.8178533
-9.2947407 19.975657 -1.6269752
-10.174803 22.222818 -1.8089647
-10.020237 22.244827 -1.8056504
-9.8233738 22.170048 -1.7944267
-9.8440905 22.590082 -1.8241054
-9.8156414 22.907618 -1.8452722
-9.6783819 22.975685 -1.8459501
-9.5364599 23.032797 -1.8457996
-9.3923235 23.084412 -1.8452722
-9.2519846 23.145311 -1.8455735
-9.1021404 23.182152 -1.8439916
-8.9539871 23.222679 -1.8427864
-8.8095627 23.27252 -1.8424098
-8.6679878 23.329874 -1.8427111
-8.5291147 23.3948 -1.8436904
-8.3894358 23.45796 -1.8445942
-8.2572212 23.542871 -1.847306
-8.0989933 23.553488 -1.8441423
-7.8998713 23.441151 -1.8312614
-7.7249427 23.395441 -1.8238041
-7.5554752 23.362701 -1.8174766
-7.3773718 23.299295 -1.808814
-7.2133174 23.276497 -1.8034658
-7.0304399 23.188629 -1.7930708
-6.8741379 23.184484 -1.7893797
-6.716764 23.174507 -1.7853121
-6.5747128 23.216244 -1.7853874
-6.4196458 23.210978 -1.7818471
-6.2713881 23.228752 -1.7801899
-6.1203609 23.234974 -1.7777041
-5.9732141 23.254705 -1.7763482
-5.8296871 23.288017 -1.7761222
-5.6831422 23.308817 -1.7749923
-5.5358715 23.325785 -1.7736365
-5.3904004 23.349598 -1.7728832
-5.2422261 23.360826 -1.7712259
-5.092206 23.36235 -1.7688909
-4.9431906 23.366814 -1.766857
-4.7961154 23.379122 -1.7655011
-4.6471319 23.380726 -1.763392
-4.4969912 23.374527 -1.7607555
-2.7229295 14.634427 -1.0871079
-2.628499 14.625341 -1.0851494
-2.4828572 14.31893 -1.0604422
-2.3786902 14.236525 -1.052985
-2.287653 14.228208 -1.0512524
-2.1981769 14.22818 -1.0501978
-2.1105409 14.239428 -1.0500472
-2.155911 15.188044 -1.121457
-1.898255 13.988571 -1.0290309
-1.8116193 13.994021 -1.028579
-1.7847039 14.483881 -1.0650371
-1.6692821 14.267755 -1.0477873
-1.5846677 14.304488 -1.0498211
-1.4981108 14.325844 -1.0507251
-1.4128145 14.36156 -1.0527589
-1.3474388 14.617205 -1.0715153
-1.2684791 14.750379 -1.0810064
-1.1822287 14.81156 -1.0850741
-1.0916902 14.823507 -1.0854508
-1.0176127 15.080643 -1.1044331
-0.92938799 15.157269 -1.1097813
-0.83740926 15.181602 -1.1112125
-0.70793509 14.44446 -1.055094
-0.61976105 14.45949 -1.0559226
-0.54712719 14.902473 -1.0891417
-0.460327 15.058044 -1.1006668
-0.35304287 14.449508 -1.0544914
-0.26521099 14.497264 -1.0579565
-0.17692676 14.554455 -1.0621748
-0.086772032 14.412676 -1.051403
0.0016609842 14.396982 -1.0501978
0.094463341 15.101678 -1.1034539
0.17873181 14.427784 -1.0526083
0.26849854 14.493214 -1.0576552
0.35683015 14.467369 -1.0558473
0.45719886 14.840657 -1.0842456
0.53791928 14.558559 -1.063154
0.63407767 14.713386 -1.0751309
0.72915953 14.806821 -1.082513
0.8208825 14.817998 -1.0837182
0.92927098 15.096334 -1.1051863
1.019792 15.059506 -1.1028513
1.1097491 15.020149 -1.1003654
1.2007749 14.999142 -1.0993109
1.2888409 14.945792 -1.0958458
1.3693174 14.816466 -1.086656
1.4579513 14.784962 -1.0849235
1.5485387 14.774746 -1.0848482
1.640597 14.77785 -1.0858274
1.7255484 14.718977 -1.0821364
1.8110619 14.669517 -1.0791986
1.911561 14.739215 -1.0853754
2.0025008 14.73116 -1.0856767
2.0882168 14.686018 -1.0831909
2.1694987 14.613749 -1.0786713
2.2778907 14.721368 -1.0879365
2.3540609 14.619496 -1.0812324
2.4588668 14.695256 -1.0881625
2.5727119 14.816453 -1.0986329
2.6609251 14.785667 -1.0975031
2.7537909 14.780825 -1.0984069
2.8517926 14.801836 -1.1013447
2.945677 14.799706 -1.1025499
2.9699907 14.458051 -1.0776168
3.1094995 14.679527 -1.0961472
3.2116365 14.715701 -1.1004407
3.3062434 14.715176 -1.1019473
3.37603 14.606203 -1.0950925
3.460746 14.56484 -1.0935107
3.5436623 14.517177 -1.0914769
3.6309741 14.488389 -1.0909497
3.7212951 14.471631 -1.0914016
3.7998483 14.409959 -1.0883884
3.885592 14.376746 -1.0876353
3.9734669 14.351672 -1.0875599
4.060636 14.324143 -1.0873339
4.1570663 14.328646 -1.0896691
4.2937183 14.467287 -1.1026253
4.4087653 14.527498 -1.10948
4.4854102 14.460174 -1.1063163
4.5731478 14.429528 -1.1060903
4.6622143 14.403093 -1.106241
4.7577004 14.395991 -1.1079735
4.8548689 14.392982 -1.1100826
5.0018387 14.53358 -1.1237167
5.0965366 14.51861 -1.1249974
5.1838446 14.48237 -1.1246207
5.2644043 14.42781 -1.1228129
5.3413615 14.364394 -1.1203271
5.4470663 14.377973 -1.1240934
5.5517015 14.387072 -1.1275585
5.6956825 14.494728 -1.1390834
5.7841425 14.458581 -1.1390082
5.8911796 14.46807 -1.1426991
5.9996958 14.479551 -1.1466161
6.1077986 14.488406 -1.1503824
6.2020855 14.463487 -1.151437
6.2289214 14.28349 -1.1397613
6.3128076 14.236797 -1.1390834
6.479146 14.373239 -1.1536216
6.5771871 14.354969 -1.1554294
6.6710372 14.326997 -1.1564839
6.7720428 14.313736 -1.1588191
6.8761601 14.306065 -1.1616815
6.9778123 14.292277 -1.1640919
7.0742373 14.267059 -1.1655985
7.2894702 14.477205 -1.1870666
7.3541036 14.38515 -1.1830742
7.4436088 14.34241 -1.1833003
7.553319 14.337931 -1.1868407
7.6646643 14.33528 -1.190607
7.7634187 14.308139 -1.1923395
7.8654952 14.286438 -1.1945993
7.9860778 14.297103 -1.1997215
8.1478949 14.378827 -1.2110958
8.2841759 14.412417 -1.2184025
8.3287544 14.286372 -1.2118491
8.5258884 14.420396 -1.2281197
8.6008768 14.345575 -1.2261612
8.6845932 14.285715 -1.2255586
8.7815046 14.247437 -1.2269145
8.9036379 14.249098 -1.231886
9.0042429 14.215257 -1.2337692
9.2028284 14.333425 -1.2493619
9.3439093 14.358589 -1.2567439
9.4472094 14.324293 -1.2588531
9.5548735 14.2959 -1.2615649
9.632905 14.222968 -1.2602843
10.866058 15.833352 -1.413273
13.858566 19.930075 -1.7963852
13.99323 19.862598 -1.7980423
10.562431 14.799573 -1.3361384
14.274484 19.742716 -1.8030139
14.420102 19.688543 -1.8061776
14.560245 19.62612 -1.8086634
14.682192 19.538801 -1.8088894
14.802407 19.449139 -1.8089647
14.935469 19.37611 -1.8106972
15.082918 19.321045 -1.8142376
11.839914 14.976844 -1.4048364
0 0 -0
11.988899 14.788596 -1.4007688
12.062331 14.693947 -1.3987349
12.142065 14.607388 -1.3975297
15.719636 18.676506 -1.8067049
15.834584 18.58046 -1.8067802
15.941127 18.474646 -1.8059516
16.050905 18.37273 -1.805575
16.162676 18.273151 -1.8054997
16.273163 18.17215 -1.805349
16.379 18.066048 -1.8047464
16.479427 17.954189 -1.8036165
16.591997 17.855658 -1.8039178
16.710812 17.763681 -1.8049724
16.203981 17.014574 -1.7375549
16.315689 16.922724 -1.7383835
16.421307 16.824434 -1.7386094
16.517221 16.716265 -1.7378563
16.275324 16.270582 -1.7010968
16.325893 16.12207 -1.6958991
16.351698 15.950576 -1.6882159
16.312824 15.71849 -1.6739037
16.427021 15.635286 -1.675787
16.56406 15.573129 -1.6800805
16.820059 15.620476 -1.6966524
17.055946 15.645715 -1.7110399
17.201136 15.585624 -1.7160867
17.338799 15.517689 -1.7203804
17.461332 15.435442 -1.7231675
17.569986 15.340471 -1.7245986
17.687193 15.252561 -1.7269338
17.820684 15.178013 -1.7309262
17.944004 15.094055 -1.7339392
18.104548 15.040376 -1.7406433
18.331408 15.039682 -1.7538255
18.527168 15.011031 -1.7639192
18.721706 14.979296 -1.7738625
18.839085 14.884538 -1.7763482
18.960724 14.792583 -1.7792859
19.047182 14.672921 -1.7789093
19.145586 14.562413 -1.7797379
19.347807 14.529688 -1.7904344
19.587191 14.522342 -1.8045957
19.82077 14.50789 -1.8181546
20.070261 14.50221 -1.8331447
0 0 -0
0 0 -0
0 0 -0
21.200537 14.540494 -1.9046297
21.547832 14.585074 -1.928207
21.825979 14.578857 -1.9453815
22.059063 14.539592 -1.9584131
22.400318 14.568137 -1.9811618
22.647905 14.532188 -1.9953985
22.692835 14.365217 -1.9914815
22.764481 14.215672 -1.9900503
22.84873 14.074155 -1.9898244
22.892899 13.908325 -1.9861333
22.923918 13.735309 -1.9813877
22.891865 13.525918 -1.9712187
22.841738 13.307903 -1.9596183
22.873676 13.13919 -1.9553246
22.888788 12.961742 -1.9496752
22.915646 12.791896 -1.9451556
22.925558 12.613557 -1.93928
22.9359 12.43653 -1.9335552
22.907995 12.240118 -1.9246666
22.934137 12.07378 -1.9205238
22.955561 11.905747 -1.9160794
22.969574 11.734732 -1.9111079
23.016201 11.581024 -1.9089987
23.003733 11.398412 -1.9019933
23.092955 11.266666 -1.9036505
23.0439 11.068208 -1.8937827
23.064501 10.904445 -1.8898658
23.059551 10.729488 -1.8839148
23.102285 10.577419 -1.8820317
23.135839 10.421544 -1.8794706
23.164705 10.264041 -1.8766081
23.185196 10.10339 -1.8731432
23.203674 9.942481 -1.8696028
23.113531 9.7364407 -1.8572491
23.123087 9.5738392 -1.8531816
23.170311 9.427269 -1.8522776
23.110125 9.2379208 -1.8427111
23.111609 9.0744467 -1.8382668
23.077534 8.8980322 -1.8310355
23.086933 8.7393208 -1.8274198
23.073755 8.5728426 -1.8220716
23.069712 8.4106131 -1.817552
23.100227 8.2615156 -1.8158947
23.090261 8.0985012 -1.8110739
0 0 -0
23.116087 7.790339 -1.805349
23.092436 7.6249094 -1.7996995
23.102732 7.471415 -1.7968371
23.067335 7.303937 -1.7904344
23.102192 7.1593099 -1.7896811
23.093201 7.001513 -1.7855381
23.136683 6.8599672 -1.7856134
23.182169 6.7189841 -1.7859147
23.227758 6.5779729 -1.7862914
23.284021 6.4398441 -1.7875719
23.323097 6.296855 -1.7875719
23.370937 6.156168 -1.7883252
23.416964 6.014883 -1.7890031
23.44182 5.8681808 -1.7880992
23.480291 5.7249427 -1.7883252
23.512068 5.5800719 -1.7880992
23.542948 5.4350266 -1.7878733
23.550556 5.2847919 -1.7859147
23.610794 5.1463461 -1.7880992
23.644854 5.0019951 -1.7883252
23.692684 4.860425 -1.7896811
23.739666 4.7184563 -1.791037
23.789713 4.5768471 -1.7926941
23.827152 4.4326134 -1.7934474
23.873529 4.2898555 -1.7949539
23.915123 4.1460137 -1.7961591
23.946997 4.0003452 -1.7966864
23.979952 3.8547578 -1.7973644
24.035675 3.7125685 -1.7998502
24.087593 3.569402 -1.80211
24.122864 3.4234972 -1.8031646
24.159225 3.2775617 -1.8043698
24.214483 3.1338675 -1.8070816
24.319359 2.9958339 -1.813635
24.295685 2.8416932 -1.8104713
7.1596141 0.79373622 -0.50679022
7.043355 0.73714769 -0.49760035
7.0427837 0.69342887 -0.49722373
7.0181103 0.64754999 -0.49503925
7.0140033 0.60379261 -0.49443662
7.0066419 0.55987227 -0.49360803
6.9880672 0.51526028 -0.49195084
6.9781632 0.47150084 -0.4909716
6.986897 0.42904046 -0.49142355
6.989398 0.3861616 -0.49142355
6.9567771 0.34156254 -0.48878711
6.9617305 0.298998 -0.48901311
6.971406 0.25656804 -0.48961571
6.9778323 0.21393943 -0.48999235
6.9839983 0.17124161 -0.49036899
6.9779387 0.12825827 -0.4898417
6.9915562 0.085596561 -0.49082094
6.9939442 0.04270741 -0.4909716
7.0030489 -0.00020918887 -0.49164954
7.0118899 -0.043235913 -0.49232748
7.0294404 -0.086483032 -0.49368337
7.0537019 -0.13007699 -0.49556655
7.0667272 -0.17370059 -0.4966211
7.0824718 -0.21758126 -0.49790168
7.1128907 -0.26221514 -0.50031215
7.1998124 -0.30968213 -0.50701618
7.1808453 -0.3530184 -0.50573564
21.166122 -1.173054 -1.5640019
21.126677 -1.3009418 -1.5615915
21.071537 -1.4273782 -1.5580511
19.367853 -1.4313132 -1.4296943
20.068401 -1.6069962 -1.4834776
21.06057 -1.8166237 -1.5594823
19.962772 -1.8453387 -1.4770749
19.878633 -1.960644 -1.471576
19.877138 -2.0837243 -1.4724046
20.96703 -2.3281944 -1.5562433
10.579242 -1.239905 -0.76727033
10.575393 -1.3052837 -0.76757163
10.570151 -1.3705336 -0.76779759
10.566483 -1.4360369 -0.76817423
10.567346 -1.5022491 -0.76892751
10.582587 -1.5707235 -0.77081066
13.844344 -2.1421154 -1.0208957
13.83094 -2.2270222 -1.0208957
21.286497 -3.5622687 -1.5930028
14.495193 -2.5169032 -1.0740011
21.132246 -3.8036056 -1.5846415
13.504505 -2.5158994 -1.0003314
20.855841 -4.0186715 -1.5670904
20.769178 -4.1342969 -1.5623448
20.700443 -4.2528248 -1.5590304
20.646645 -4.3739719 -1.5569212
20.596037 -4.4954705 -1.5551134
20.524284 -4.6119208 -1.5517237
20.459654 -4.7294569 -1.5489366
20.405996 -4.8491411 -1.5470535
20.302237 -4.9562817 -1.5413285
20.196966 -5.0620894 -1.5355284
20.126898 -5.1759844 -1.5325153
8.2170353 -2.166281 -0.60456443
19.964642 -5.3962979 -1.5249074
7.7900624 -2.1562376 -0.57322848
7.7603769 -2.1993713 -0.57194793
19.794897 -5.7434134 -1.5196345
8.0023737 -2.3744657 -0.59319007
7.9742951 -2.4194674 -0.59213549
7.968823 -2.4713063 -0.59288877
8.2016001 -2.5988038 -0.61254907
19.334288 -6.2588382 -1.4977897
7.8396153 -2.5903385 -0.58633536
7.8008976 -2.6307421 -0.58452749
19.043264 -6.5542626 -1.4840049
18.806993 -6.6022735 -1.4683369
18.481672 -6.6157036 -1.4455129
18.223412 -6.6496663 -1.428037
18.157967 -6.7523198 -1.4260786
18.101274 -6.8579545 -1.4248734
18.060715 -6.9696107 -1.425024
18.047308 -7.0919704 -1.4274344
18.012711 -7.2062774 -1.4281877
17.992165 -7.3264446 -1.4301462
18.010433 -7.463047 -1.4353437
17.991867 -7.5850391 -1.4376036
18.010969 -7.7235923 -1.4430271
18.006197 -7.8526974 -1.4465674
17.947649 -7.9585867 -1.4457389
17.893932 -8.0665121 -1.4453622
17.840475 -8.1744938 -1.445061
17.781845 -8.2800179 -1.444383
17.719889 -8.383852 -1.4434791
17.668114 -8.4924212 -1.4434791
17.614777 -8.6002331 -1.4434037
17.527727 -8.6913185 -1.4405413
17.447351 -8.7852468 -1.4382815
17.369146 -8.87988 -1.4362477
17.298403 -8.9780188 -1.4348918
17.240343 -9.0825958 -1.4346658
17.177254 -9.1844482 -1.4340632
12.966337 -7.0352497 -1.0770141
17.020452 -9.3709793 -1.4303722
16.954798 -9.4708614 -1.4296943
16.893763 -9.5732412 -1.4294683
12.456951 -7.1600022 -1.0480133
12.612634 -7.3528304 -1.0654892
12.584446 -7.4402328 -1.0669957
17.033442 -10.212639 -1.4629134
16.950008 -10.304529 -1.4611056
16.850811 -10.386361 -1.4579418
12.316885 -7.6960969 -1.0597643
16.686707 -10.569951 -1.4547781
16.622375 -10.672679 -1.4548534
16.549891 -10.77012 -1.4542508
16.408581 -10.822049 -1.4474714
16.235756 -10.851595 -1.4378295
16.041727 -10.86489 -1.4262292
15.915565 -10.922487 -1.4208057
15.849066 -11.020507 -1.420881
15.772181 -11.11123 -1.4200524
15.666372 -11.181149 -1.4165874
15.50293 -11.208702 -1.4077741
15.356637 -11.247048 -1.4005427
15.256105 -11.317891 -1.3976051
15.143327 -11.378939 -1.3935374
15.042277 -11.448088 -1.3905996
14.959114 -11.530429 -1.3893944
14.859002 -11.599295 -1.3866073
14.749222 -11.659945 -1.3829163
14.650935 -11.729035 -1.3803552
14.55313 -11.797987 -1.3778694
14.463511 -11.873141 -1.3762122
14.375816 -11.949553 -1.374781
14.282391 -12.02084 -1.3728225
14.174212 -12.079142 -1.3694328
14.024336 -12.100739 -1.3619001
13.892754 -12.136701 -1.3561753
13.796363 -12.202557 -1.3539908
13.681118 -12.251057 -1.3499231
13.574663 -12.30664 -1.3467594
13.44674 -12.341825 -1.3414112
13.341541 -12.396947 -1.3383982
13.263045 -12.476526 -1.3381722
13.188407 -12.559735 -1.3383982
13.085252 -12.615504 -1.3356864
12.939096 -12.628689 -1.328455
12.848598 -12.695228 -1.3270991
12.709128 -12.712471 -1.3205457
12.555921 -12.714292 -1.3124857
12.471404 -12.78467 -1.3118078
12.405869 -12.874596 -1.313239
12.341763 -12.966366 -1.3148962
12.271532 -13.05202 -1.3159508
12.212929 -13.150455 -1.3183613
6.9029031 -7.5241342 -0.73397589
11.977656 -13.218787 -1.3101506
11.881693 -13.275683 -1.3084934
6.7487102 -7.6334825 -0.7323187
6.6774807 -7.6469545 -0.72953159
6.5998292 -7.6522889 -0.72599125
11.50641 -13.509376 -1.3031452
11.409822 -13.563698 -1.3015634
11.293887 -13.594333 -1.2977217
11.19192 -13.641018 -1.2955372
6.4561458 -7.9673572 -0.73729026
10.961389 -13.699469 -1.2880045
10.854252 -13.737518 -1.2852174
2.0108004 -2.5757506 -0.20947532
1.9900901 -2.5817204 -0.20887271
1.9736079 -2.5930891 -0.20879738
1.9600549 -2.6083395 -0.2090987
1.946389 -2.6235213 -0.2094
1.9337882 -2.6402428 -0.20985197
1.9298151 -2.6690321 -0.21143383
1.9203498 -2.6905651 -0.21233775
1.9089708 -2.709636 -0.21301569
1.9065338 -2.74177 -0.21489885
1.887419 -2.7501273 -0.21459755
9.7041435 -14.336101 -1.2703781
9.6326103 -14.420251 -1.2726378
9.5549231 -14.495736 -1.2741444
9.4369879 -14.509786 -1.2701521
9.3472414 -14.566578 -1.2700768
9.2614193 -14.629555 -1.270604
9.1693668 -14.682723 -1.2703028
9.0801487 -14.740407 -1.2704533
8.987462 -14.792436 -1.2701521
8.8934526 -14.842171 -1.2697002
8.7946072 -14.883583 -1.2685702
8.6980982 -14.928649 -1.2678169
8.6023617 -14.974821 -1.2672143
8.5044193 -15.01691 -1.2663105
8.4135752 -15.071422 -1.2665364
8.3228636 -15.126257 -1.2668377
8.2279921 -15.173533 -1.2665364
8.1431923 -15.239566 -1.2678922
8.0606785 -15.310421 -1.2697002
7.9757648 -15.377296 -1.2712066
7.8585806 -15.381545 -1.2674403
7.7237191 -15.349305 -1.2606609
7.5992894 -15.335649 -1.2555387
7.4845004 -15.339868 -1.2519983
7.3997331 -15.405278 -1.2536556
7.3404403 -15.525217 -1.2599076
6.9060183 -14.841258 -1.1991942
7.1074471 -15.522552 -1.2522997
7.0304961 -15.606785 -1.2556894
6.9180422 -15.61225 -1.2526009
6.8288884 -15.669945 -1.2538815
6.7471404 -15.745465 -1.2566686
6.763423 -16.054909 -1.278664
6.5976553 -15.933951 -1.2654065
6.4588051 -15.873456 -1.2571958
6.4105062 -16.035938 -1.2672143
6.2205286 -15.841993 -1.2483073
6.1321745 -15.903124 -1.2501905
6.0687175 -16.030912 -1.2574972
5.9841294 -16.105238 -1.2605102
5.8961248 -16.171631 -1.2629207
5.8018227 -16.221588 -1.2640506
5.7143893 -16.291698 -1.2668377
5.640902 -16.40378 -1.2730145
5.5417361 -16.442808 -1.2733911
5.4413657 -16.478395 -1.2735418
5.292295 -16.363461 -1.2617908
5.1863737 -16.378515 -1.2604349
5.107028 -16.478607 -1.2658584
5.023756 -16.5688 -1.2705287
4.9052758 -16.542906 -1.2660844
4.8092289 -16.591848 -1.267591
4.6793523 -16.522223 -1.2598323
4.726449 -17.087873 -1.30194
4.5024929 -16.675634 -1.2674403
3.929261 -14.915174 -1.1277844
4.2419596 -16.513288 -1.2505671
4.1548395 -16.596077 -1.2550114
4.0541105 -16.626102 -1.255388
3.9455726 -16.623499 -1.2532789
3.8381164 -16.624077 -1.251471
3.7329848 -16.633692 -1.2504164
3.6306398 -16.65531 -1.2503412
3.5306458 -16.688005 -1.2511697
3.4349954 -16.742567 -1.2537308
3.3219001 -16.711493 -1.2497385
3.2198627 -16.734497 -1.2499645
3.1360834 -16.855896 -1.2577984
3.0308354 -16.865007 -1.2570453
0.47283366 -2.7213604 -0.17128463
0.45990461 -2.7468319 -0.17301716
0.43497279 -2.6993911 -0.16917549
0.41246685 -2.6635756 -0.16623774
0.39684629 -2.6709883 -0.16661437
0.37974963 -2.6684368 -0.16623774
0.36377126 -2.6736808 -0.16646372
0.34774283 -2.6788294 -0.16668969
0.33178678 -2.6848714 -0.16699101
0.22834541 -1.9430566 -0.11042058
0.21510217 -1.9325278 -0.10951666
0.20344761 -1.9357948 -0.10966731
0.19020036 -1.9231135 -0.10861273
0.1789455 -1.930202 -0.10906469
0.16607432 -1.9193417 -0.10816077
0.15445286 -1.9223125 -0.10831143
0.14294751 -1.927202 -0.10861273
0.13105267 -1.9270478 -0.10853741
0.11977462 -1.9367734 -0.10921535
0.11030164 -1.9812804 -0.11252972
0.096583202 -1.9500489 -0.11011927
0.083635837 -1.9276912 -0.10838675
0.07180617 -1.9281681 -0.10838675
0.058818907 -1.890698 -0.10552433
0.046561249 -1.864108 -0.10349051
0.035104264 -1.8633616 -0.10341518
0.023646148 -1.8615477 -0.10326453
0.012235306 -1.863652 -0.10341518
0.00079737621 -1.8766551 -0.10439444
-0.011336373 -1.9743443 -0.11177646
-0.042099185 -3.4698596 -0.22476667
-0.062665589 -3.4306536 -0.22182892
-0.083813176 -3.4341919 -0.22213022
-0.10660727 -3.4894273 -0.22634853
-0.12690903 -3.4588132 -0.22408873
-0.14752737 -3.4440222 -0.22303416
-0.16944268 -3.4589872 -0.22423938
-0.19215477 -3.4847643 -0.22627321
-1.0308533 -16.744501 -1.2299275
