# .PCD v0.7 - Point Cloud Data file format
VERSION 0.7
FIELDS x y z
SIZE 4 4 4
TYPE F F F
COUNT 1 1 1
WIDTH 1581
HEIGHT 1
VIEWPOINT 0 0 0 1 0 0 0
POINTS 1581
DATA ascii
-3.4134161 4.2027702 -1.8999536
-3.3816743 4.2162929 -1.8965777
-3.3574934 4.2391768 -1.8975905
-3.3377984 4.2678537 -1.901304
-3.3115485 4.2882538 -1.901304
-3.2948775 4.3212166 -1.907043
-3.2569771 4.326313 -1.9002912
-3.2382319 4.356792 -1.9050175
-3.2030845 4.3651962 -1.8999536
-3.1679559 4.3733339 -1.8948898
-3.1394193 4.3903928 -1.893877
-3.1080782 4.4034214 -1.8911763
-3.0966067 4.4448061 -1.9009664
-3.0660753 4.4590693 -1.8989408
-3.0423577 4.4832501 -1.901304
-3.0137439 4.5002694 -1.9006288
-2.9876311 4.5210323 -1.9016416
-2.9608629 4.5408559 -1.9023167
-2.9344728 4.5613127 -1.9033295
-2.9059255 4.5784378 -1.9029919
-2.8762794 4.5937886 -1.9019791
-2.8450701 4.6065459 -1.8999536
-2.8226283 4.6335621 -1.9040047
-2.7917202 4.64676 -1.9023167
-2.7660348 4.6686611 -1.9043423
-2.7278388 4.669291 -1.8975905
-2.703836 4.694097 -1.9009664
-2.6749825 4.7105989 -1.9009664
-2.6451089 4.7252812 -1.9002912
-2.6169748 4.7430706 -1.9009664
-2.5869234 4.7573848 -1.9002912
-2.5590177 4.7756572 -1.901304
-2.5287876 4.7896047 -1.9006288
-2.5002203 4.8067007 -1.901304
-2.4693921 4.819438 -1.9002912
-2.4418948 4.8387008 -1.9019791
-2.4113212 4.8519073 -1.901304
-2.383574 4.8708386 -1.9029919
-2.3466959 4.8709569 -1.8972529
-2.3171675 4.8861146 -1.8975905
-2.2815688 4.8882995 -1.8928642
-2.2479954 4.8945088 -1.8898259
-2.2171454 4.9064946 -1.8891507
-2.187763 4.9217267 -1.8898259
-2.1578996 4.9359202 -1.8901635
-2.1283166 4.9507976 -1.8908387
-2.0949669 4.9568272 -1.8881381
-2.0630682 4.9661112 -1.8867877
-2.036828 4.9891338 -1.8908387
-2.0075788 5.0050321 -1.8921891
-1.9775209 5.0190077 -1.8928642
-1.9446492 5.0257802 -1.8908387
-1.9191246 5.0516963 -1.8962401
-1.8861182 5.058085 -1.8942146
-1.8566645 5.0739822 -1.8959025
-1.8245419 5.0826216 -1.8948898
-1.7873807 5.0768518 -1.8884757
-1.7669482 5.1188645 -1.9002912
-1.7336957 5.1242604 -1.8982657
-1.6942222 5.1106782 -1.8891507
-1.657307 5.1039677 -1.8827366
-1.6253879 5.112247 -1.8820615
-1.5993048 5.1392002 -1.8884757
-1.5691123 5.153419 -1.8901635
-1.5371933 5.1620474 -1.8898259
-1.5062802 5.1740937 -1.8908387
-1.4739889 5.181428 -1.8901635
-1.4431767 5.1940022 -1.8915139
-1.4120193 5.2054849 -1.8925266
-1.3810161 5.2176909 -1.893877
-1.347563 5.2205977 -1.8918515
-1.3173425 5.2360706 -1.8945522
-1.2829485 5.2349129 -1.8911763
-1.2503666 5.2408552 -1.8905011
-1.2196759 5.254847 -1.8928642
-1.1849227 5.2512136 -1.8888133
-1.1526796 5.2583852 -1.8888133
-1.1198051 5.2625971 -1.8878005
-1.0884449 5.2739782 -1.8894883
-1.0566179 5.2833266 -1.8905011
-1.0248961 5.293407 -1.8918515
-0.99395704 5.3079228 -1.8948898
-0.96187246 5.3167005 -1.8959025
-0.92971754 5.325284 -1.8969153
-0.89561832 5.3225341 -1.893877
-0.86203963 5.3223543 -1.8918515
-0.82922119 5.3266134 -1.8915139
-0.79582632 5.3269463 -1.8898259
-0.76379299 5.3363881 -1.8915139
-0.72975796 5.3316483 -1.8881381
-0.69763982 5.3406925 -1.8898259
-0.66485679 5.3448725 -1.8898259
-0.63171721 5.3460474 -1.8888133
-0.59890258 5.3498225 -1.8888133
-0.56636256 5.356205 -1.8898259
-0.53395337 5.3642626 -1.8915139
-0.50111634 5.3683753 -1.8918515
-0.46873984 5.377913 -1.8942146
-0.4356567 5.3797498 -1.893877
-0.40320131 5.3898306 -1.8965777
-0.36999327 5.3903251 -1.8959025
-0.33632424 5.3830996 -1.8925266
-0.30270481 5.3747239 -1.8888133
-0.27005106 5.3830609 -1.8911763
-0.23685029 5.3808551 -1.8898259
-0.20393661 5.3850288 -1.8908387
-0.17086093 5.3852382 -1.8905011
-0.13798355 5.3927717 -1.8928642
-0.10487314 5.3925757 -1.8925266
-0.071682163 5.3855882 -1.8898259
-0.038574055 5.3774552 -1.8867877
-0.0055747428 5.3747668 -1.885775
0.027394854 5.372817 -1.8850998
0.06040334 5.3763127 -1.8864501
0.093358085 5.3739586 -1.885775
0.1265288 5.3817539 -1.8888133
0.15968737 5.385581 -1.8905011
0.19256167 5.379796 -1.8888133
0.22568597 5.3813348 -1.8898259
0.25843012 5.3742075 -1.8878005
0.29145169 5.3734603 -1.8881381
0.32271686 5.3433833 -1.8780104
0.35662109 5.3582087 -1.884087
0.38915071 5.3512254 -1.8823991
0.42160809 5.3440452 -1.8807111
0.45423117 5.3394818 -1.8800359
0.48852354 5.3534675 -1.8861125
0.5206328 5.3428741 -1.8834118
0.55379415 5.3433242 -1.8847622
0.58677518 5.3416967 -1.8854374
0.61932325 5.3361259 -1.8847622
0.65205348 5.3322253 -1.8847622
0.68403959 5.3225222 -1.8827366
0.71693641 5.3200908 -1.8834118
0.74930364 5.3137274 -1.8827366
0.78189397 5.3090296 -1.8827366
0.81531155 5.3097143 -1.8847622
0.84817302 5.3064709 -1.8854374
0.88025433 5.2983809 -1.8844246
0.91418707 5.3012285 -1.8874629
0.94901574 5.3084922 -1.8921891
0.97934371 5.2905364 -1.8878005
1.0128491 5.2899752 -1.8898259
1.0456539 5.2855077 -1.8905011
1.0782537 5.2799144 -1.8908387
1.1077214 5.2593822 -1.885775
1.1417677 5.2607656 -1.8888133
1.1742309 5.2545795 -1.8891507
1.2032876 5.2335148 -1.884087
1.2342948 5.2214527 -1.8823991
1.2705295 5.2311606 -1.8888133
1.3051081 5.2333131 -1.8925266
1.3381277 5.2288542 -1.893877
1.3744862 5.2369337 -1.8999536
1.4105052 5.2429452 -1.905355
1.438648 5.2196722 -1.8999536
1.470137 5.2089348 -1.8992784
1.4986756 5.1880598 -1.8948898
1.5288805 5.1733503 -1.8928642
1.5565112 5.1503558 -1.8878005
1.5886394 5.1425071 -1.8884757
1.6195967 5.130867 -1.8878005
1.6507599 5.1199369 -1.8874629
1.6821442 5.1097116 -1.8874629
1.7170621 5.1100016 -1.8915139
1.7486894 5.1002603 -1.8918515
1.778087 5.0841031 -1.8898259
1.8130425 5.0837369 -1.893877
1.8432369 5.0698624 -1.8928642
1.8733294 5.055809 -1.8918515
1.9029864 5.0406966 -1.8905011
1.9355687 5.0333185 -1.8921891
1.968132 5.0257297 -1.893877
1.9982351 5.0118103 -1.8932018
2.0310729 5.0046883 -1.8952274
2.063539 4.9964819 -1.8969153
2.0974393 4.9915366 -1.8999536
2.1269176 4.975976 -1.8989408
2.15816 4.9645586 -1.899616
2.1874399 4.9486399 -1.8986033
2.2173772 4.9342661 -1.8982657
2.2460475 4.9171429 -1.8969153
2.2734022 4.8972921 -1.8945522
2.3014011 4.878994 -1.8928642
2.3300745 4.8622341 -1.8918515
2.3569813 4.8419209 -1.8894883
2.3862293 4.8265238 -1.8891507
2.4136879 4.8075852 -1.8874629
2.4444237 4.7952003 -1.8884757
2.4725027 4.7776031 -1.8874629
2.5026464 4.764009 -1.8881381
2.5340447 4.7527165 -1.8898259
2.5667422 4.7437019 -1.8925266
2.5958006 4.7278633 -1.8925266
2.6270514 4.7159586 -1.8942146
2.6582539 4.7038484 -1.8959025
2.6884704 4.689899 -1.8969153
2.7134118 4.6668043 -1.8942146
2.7410395 4.6484456 -1.8935394
2.7670951 4.6274996 -1.8918515
2.7905571 4.6023846 -1.8884757
2.8182514 4.5843735 -1.8881381
2.847821 4.5693913 -1.8891507
2.8773127 4.5542188 -1.8901635
2.9067254 4.5388565 -1.8911763
2.9350331 4.5217252 -1.8915139
2.9622054 4.5028448 -1.8911763
2.9871681 4.4806681 -1.8894883
3.0119703 4.4583545 -1.8878005
3.0360796 4.4351292 -1.885775
3.0573354 4.407908 -1.8820615
3.0870299 4.3929167 -1.8837494
3.1106513 4.3692908 -1.8817239
3.1407053 4.3547029 -1.8837494
3.1673663 4.33535 -1.8837494
3.1955874 4.3181038 -1.8847622
3.2271035 4.3051939 -1.8878005
3.2534587 4.2853117 -1.8878005
3.2814128 4.2675071 -1.8888133
3.3138971 4.2554622 -1.8925266
3.3411117 4.2365265 -1.8932018
3.3705676 4.2203593 -1.8952274
3.3981755 4.2017946 -1.8962401
3.4232969 4.1801362 -1.8959025
3.4500828 4.160502 -1.8965777
3.4761515 4.1399751 -1.8969153
3.4990499 4.1156993 -1.8955649
3.5193253 4.0884442 -1.8928642
3.5418715 4.0639348 -1.8915139
3.5605133 4.0350671 -1.8881381
3.5845778 4.0124421 -1.8878005
3.6059735 3.9868815 -1.8861125
3.6208341 3.9542665 -1.8810487
3.6655052 3.9540665 -1.8918515
3.6954947 3.9376786 -1.8948898
3.7111583 3.9060576 -1.8905011
3.7454953 3.894068 -1.8959025
3.7660351 3.8676407 -1.8942146
3.7883742 3.8431191 -1.8935394
3.810554 3.818469 -1.8928642
3.8325741 3.7936916 -1.8921891
3.8571255 3.7714202 -1.8928642
3.884933 3.7522602 -1.8952274
3.8929012 3.714056 -1.8878005
3.914932 3.6894541 -1.8874629
3.9609199 3.687171 -1.8989408
3.9793124 3.6589749 -1.8969153
4.0016885 3.6344893 -1.8969153
4.020411 3.606724 -1.8952274
4.0473967 3.5863576 -1.8975905
4.0622435 3.5552559 -1.8942146
4.0832696 3.5296478 -1.893877
4.0855227 3.4880235 -1.8847622
4.1291542 3.4817014 -1.8952274
4.124402 3.4346132 -1.8830742
4.1752043 3.433758 -1.8969153
4.1940026 3.4062943 -1.8959025
4.2038107 3.3716614 -1.8908387
4.2362256 3.3551555 -1.8962401
4.2626638 3.3337388 -1.8989408
4.2830391 3.3075209 -1.8989408
4.30475 3.2823198 -1.899616
4.3278165 3.2581093 -1.9009664
4.3190203 3.2101536 -1.8881381
4.3743024 3.2097673 -1.9040047
4.3916283 3.18121 -1.9029919
4.3949866 3.1427047 -1.8959025
4.4241838 3.1227355 -1.9002912
4.4424891 3.0949924 -1.8999536
4.4660497 3.0708759 -1.9019791
4.4840293 3.0428863 -1.9016416
4.505744 3.0174108 -1.9029919
4.5241737 2.9897072 -1.9029919
4.5479522 2.9654906 -1.905355
4.5684371 2.9390569 -1.9063678
4.5840006 2.9094567 -1.905355
4.6105418 2.8867707 -1.9090685
4.6201601 2.8534796 -1.9056926
4.6416006 2.8275261 -1.9073806
4.6532149 2.7955987 -1.9050175
4.6629925 2.7626758 -1.9019791
4.6847324 2.7368615 -1.9040047
4.7022533 2.7085347 -1.9043423
4.7261505 2.6838152 -1.9073806
4.7392435 2.6529262 -1.9060302
4.7546082 2.623342 -1.9056926
4.7747498 2.5963676 -1.9073806
4.7947392 2.5692446 -1.9090685
4.8162403 2.5428531 -1.9114317
4.8384323 2.5167289 -1.9141324
4.8537836 2.4869933 -1.9141324
4.8689523 2.4571643 -1.9141324
4.8856235 2.4280806 -1.9148074
4.8962026 2.3959882 -1.9131196
4.8980923 2.3597715 -1.9080558
4.9133296 2.3300762 -1.9083933
4.9335046 2.3026721 -1.9107565
4.9406981 2.2692139 -1.9080558
4.9545288 2.2388556 -1.9080558
4.991396 2.2187381 -1.9171706
5.0057783 2.1884468 -1.9175082
5.0104647 2.1539724 -1.9141324
5.033124 2.1272199 -1.9178458
5.044343 2.0955749 -1.9171706
5.0597205 2.0656514 -1.9181833
5.0731735 2.0349171 -1.9185209
5.0864396 2.0040956 -1.9188585
5.0968852 1.9721684 -1.9181833
5.1132898 1.9425292 -1.9198713
5.1162934 1.9078287 -1.9164954
5.1296711 1.8770468 -1.9171706
5.1402059 1.8452183 -1.916833
5.1505432 1.8133312 -1.9164954
5.1535649 1.7789291 -1.9134572
5.1617084 1.7463688 -1.9124444
5.1687531 1.7134792 -1.9110941
5.1890173 1.6849306 -1.9148074
5.2091255 1.6561977 -1.9185209
5.2290759 1.6272813 -1.9222344
5.2416635 1.5959884 -1.9232472
5.2513576 1.563796 -1.9232472
5.2707953 1.5344398 -1.9269607
5.2719631 1.4997513 -1.9239224
5.2747178 1.4656105 -1.9215592
5.2827029 1.4329714 -1.9212216
5.2886662 1.3998076 -1.9202089
5.2980671 1.3675659 -1.9205465
5.3081841 1.3354913 -1.9212216
5.3199358 1.3037922 -1.922572
5.3333287 1.2724363 -1.9245975
5.3419528 1.2399005 -1.9249351
5.3485422 1.2068923 -1.9245975
5.3604441 1.1750597 -1.9262855
5.3703151 1.1427344 -1.9272983
5.3763037 1.109571 -1.9269607
5.3913178 1.0782237 -1.929999
5.3987565 1.0453018 -1.9303366
5.4050684 1.012156 -1.9303366
5.4130297 0.97930735 -1.9310117
5.4133735 0.94510347 -1.9289862
5.4190702 0.91186982 -1.9289862
0 0 -0
0 0 -0
0 0 -0
0 0 -0
0 0 -0
0 0 -0
0 0 -0
0 0 -0
0 0 -0
0 0 -0
0 0 -0
0 0 -0
0 0 -0
0 0 -0
0 0 -0
0 0 -0
0 0 -0
0 0 -0
0 0 -0
0 0 -0
0 0 -0
0 0 -0
0 0 -0
0 0 -0
0 0 -0
0 0 -0
0 0 -0
0 -0 -0
0 -0 -0
0 -0 -0
0 -0 -0
0 -0 -0
0 -0 -0
0 -0 -0
0 -0 -0
0 -0 -0
0 -0 -0
0 -0 -0
5.521152 -0.40149516 -1.9435025
5.5185843 -0.43536475 -1.9435025
0 -0 -0
5.5043898 -0.50228429 -1.9404641
5.5068254 -0.53659642 -1.9424897
5.5015564 -0.57018167 -1.9418145
5.4979544 -0.60392785 -1.9418145
0 -0 -0
0 -0 -0
0 -0 -0
5.4861417 -0.73930067 -1.9435025
5.4675212 -0.77097863 -1.9384387
5.5018001 -0.81026959 -1.9526174
5.4957948 -0.84386998 -1.9522798
5.4942312 -0.87816966 -1.9536301
5.4887395 -0.91186506 -1.9536301
5.4830413 -0.94552618 -1.9536301
5.4854755 -0.9806419 -1.9566684
5.4682484 -1.0122266 -1.9526174
5.4563875 -1.0446984 -1.9505918
5.4341764 -1.075054 -1.9448528
5.4016542 -1.1031057 -1.9354004
5.3671513 -1.130411 -1.9252727
5.3131995 -1.1531436 -1.9080558
5.173738 -1.1561719 -1.8594431
5.0858173 -1.1693408 -1.8297353
4.9805279 -1.177362 -1.7936133
4.8936296 -1.1885779 -1.7642431
4.8670645 -1.2138005 -1.7571539
4.8194003 -1.2333763 -1.7422999
4.7744122 -1.2531298 -1.7284589
4.7266378 -1.2716447 -1.7136049
4.6951518 -1.2941216 -1.7048277
4.6635685 -1.3162603 -1.6960504
4.699717 -1.3576477 -1.7125922
4.7075472 -1.3912598 -1.7186688
4.7088337 -1.4231132 -1.7223822
4.6973147 -1.451146 -1.7213695
4.6694717 -1.473992 -1.7142801
4.6451092 -1.4977063 -1.7085412
4.6170554 -1.5200002 -1.7014518
4.6129956 -1.5500998 -1.7034773
4.622097 -1.5847852 -1.7105666
4.61584 -1.6143588 -1.711917
4.6271262 -1.6502377 -1.7200191
4.6036439 -1.6737747 -1.7149553
4.6118231 -1.7088572 -1.7220447
4.5880413 -1.7321367 -1.7169808
4.576448 -1.7599181 -1.7166432
4.5611806 -1.7862496 -1.7149553
4.544014 -1.811763 -1.7125922
4.5267057 -1.8371332 -1.710229
4.5162182 -1.8652332 -1.7105666
4.5038209 -1.8925445 -1.710229
4.4722152 -1.9116361 -1.7024646
4.4552221 -1.9367899 -1.700439
4.4346447 -1.9602852 -1.6970631
4.4130883 -1.9832153 -1.6933497
4.3974113 -2.008692 -1.6919993
4.3901262 -2.0380139 -1.6940248
4.364768 -2.0588903 -1.688961
4.3401685 -2.0799391 -1.6842347
4.3230925 -2.104471 -1.6825469
4.3092546 -2.1305404 -1.6822093
4.3003073 -2.1590526 -1.6838971
4.2869782 -2.1853983 -1.6838971
4.2718163 -2.2107964 -1.6832221
4.2431707 -2.2290876 -1.6771455
4.2360582 -2.2586236 -1.6798462
4.2320547 -2.2899477 -1.6838971
4.208848 -2.3108895 -1.6801838
4.2003455 -2.3398771 -1.6825469
4.1957436 -2.3711624 -1.6865979
4.1851988 -2.3992028 -1.6882858
4.1647024 -2.421526 -1.6859227
4.142468 -2.4427321 -1.6828845
4.1257858 -2.4671378 -1.6822093
4.0976911 -2.4845991 -1.6768079
4.0863786 -2.5121598 -1.6784958
4.0732837 -2.5386796 -1.6795086
4.0616093 -2.5661385 -1.6811965
4.0552998 -2.5971026 -1.6852475
4.0227065 -2.6111755 -1.6781582
4.0231242 -2.6466718 -1.6852475
3.99506 -2.6634762 -1.6801838
4.0020428 -2.7037456 -1.6903113
3.9776096 -2.7229342 -1.6869355
3.9608274 -2.7472892 -1.6869355
3.9231005 -2.7569296 -1.6778206
3.9091778 -2.783133 -1.679171
3.8950813 -2.809269 -1.6805214
3.8800509 -2.8347816 -1.6815341
3.8588006 -2.8557363 -1.6798462
3.839699 -2.8782308 -1.679171
3.8219662 -2.9017365 -1.679171
3.7981195 -2.9205432 -1.6764703
3.7927542 -2.953624 -1.6822093
3.7723422 -2.9750917 -1.6811965
3.7540164 -2.9981825 -1.6811965
3.7392089 -3.0241196 -1.6828845
3.7198546 -3.0464096 -1.6825469
3.6887734 -3.0589633 -1.6768079
3.6821902 -3.0918286 -1.6825469
3.6516747 -3.1046095 -1.6771455
3.6339834 -3.1281853 -1.6778206
3.6161401 -3.1516609 -1.6784958
3.6044981 -3.18064 -1.6822093
2.4413295 -2.1812127 -1.1322781
2.4251072 -2.1936257 -1.1309278
2.4185443 -2.2148209 -1.1343037
3.5115485 -3.2553434 -1.6754575
3.5018044 -3.28649 -1.6805214
3.4767957 -3.3033767 -1.6781582
3.476815 -3.3442221 -1.6882858
3.4481363 -3.3576128 -1.6842347
3.4227767 -3.3740819 -1.6818717
3.3926806 -3.3857121 -1.6771455
3.3665445 -3.401114 -1.6744447
3.3449543 -3.4210339 -1.6741072
3.3239002 -3.4414935 -1.6741072
3.2916741 -3.4502468 -1.6683681
3.271733 -3.4717491 -1.6690433
3.2529347 -3.4945145 -1.6703937
3.2346175 -3.5178726 -1.6720816
3.2129714 -3.5376537 -1.6720816
3.1937187 -3.5601039 -1.673432
3.17556 -3.5838599 -1.6754575
3.15785 -3.6082354 -1.6778206
3.1418071 -3.6346643 -1.6811965
3.1225023 -3.6574528 -1.6828845
3.1042495 -3.6815803 -1.6852475
3.0816014 -3.7005584 -1.6852475
3.0474761 -3.7055848 -1.6788334
3.0169661 -3.7147157 -1.6744447
2.9941163 -3.7331576 -1.6744447
2.975245 -3.7566237 -1.6768079
2.0062582 -2.5655515 -1.1262015
1.9841495 -2.5696187 -1.122488
1.9609249 -2.5720146 -1.1180995
1.9400105 -2.5772305 -1.1150612
1.920791 -2.584553 -1.1130356
1.893201 -2.580354 -1.1059463
1.7690903 -2.442518 -1.0397789
1.6527698 -2.3116839 -0.97732514
1.62064 -2.2964051 -0.96618474
0 -0 -0
2.6889734 -3.9107287 -1.660266
2.6643984 -3.9263754 -1.6599284
2.6376374 -3.9387395 -1.6582404
2.6123819 -3.953279 -1.6575654
2.5885901 -3.9700224 -1.657903
2.5611258 -3.9810815 -1.6558774
2.5321097 -3.9895689 -1.6528391
2.506084 -4.0026374 -1.6518263
2.4775195 -4.0115323 -1.6491256
2.4508996 -4.0234432 -1.6477753
2.4242268 -4.0351787 -1.6464249
2.3927038 -4.0386405 -1.6416987
2.3712022 -4.0589347 -1.6440618
2.3547103 -4.088089 -1.6501384
2.3300469 -4.1032786 -1.650476
2.3103437 -4.1273541 -1.6545271
2.2786083 -4.1299148 -1.6498008
2.2568226 -4.1504335 -1.6525015
2.2362046 -4.1733294 -1.656215
2.2096763 -4.185307 -1.6555398
2.1835196 -4.1979513 -1.6552022
2.1585791 -4.2129459 -1.6558774
2.1326883 -4.2261114 -1.6558774
2.1096501 -4.245018 -1.6582404
2.0852187 -4.2612643 -1.6595908
2.0602586 -4.2765226 -1.6606036
2.0359967 -4.2933359 -1.6622915
2.0096149 -4.305748 -1.6622915
1.9831575 -4.3179975 -1.6622915
1.4162011 -3.1343777 -1.1916937
1.3931183 -3.1344073 -1.1883178
1.3712198 -3.1368592 -1.1859547
1.8858868 -4.3869848 -1.6707313
1.8600328 -4.4010749 -1.671744
1.8275756 -4.3993664 -1.6666802
1.8016146 -4.4131117 -1.667693
1.7716985 -4.4170942 -1.6649922
1.7497392 -4.4410181 -1.6700561
1.7105657 -4.4209461 -1.6582404
1.6844101 -4.4339986 -1.6592532
1.6640798 -4.4627714 -1.6663426
1.6379595 -4.4764338 -1.667693
1.6139609 -4.4961448 -1.6714064
1.5879059 -4.5104027 -1.6730944
1.5598935 -4.5191712 -1.6727568
1.533342 -4.5322237 -1.6741072
1.5055039 -4.5415468 -1.6741072
1.4773184 -4.5498037 -1.6737696
1.4496588 -4.55968 -1.6741072
1.4210943 -4.5666914 -1.673432
1.3935953 -4.577126 -1.6741072
1.3692464 -4.5982203 -1.6788334
1.3344271 -4.5839415 -1.6703937
1.3057603 -4.5902324 -1.6697185
1.2763102 -4.5936236 -1.6680305
1.2493327 -4.6059103 -1.6697185
1.2188796 -4.6052999 -1.6666802
1.189187 -4.607224 -1.6646546
1.1611251 -4.6153469 -1.6649922
0.72823608 -2.9722137 -1.0556456
0.7130444 -2.9894445 -1.0603719
0.6972428 -3.0047662 -1.064423
0.6758911 -2.9961331 -1.0596967
0.66072041 -3.014935 -1.065098
0.62947017 -2.959089 -1.0431548
0.61567914 -2.9840982 -1.0509194
0.60308206 -3.016433 -1.0613846
0.57704437 -2.9812636 -1.0472059
0.5608207 -2.9958506 -1.051257
0.53890741 -2.9797843 -1.0441676
0.51769841 -2.9663441 -1.0380911
0.50464427 -3.0000966 -1.0492314
0.48577484 -3.0003488 -1.0482187
0.46779048 -3.0060632 -1.0492314
0.43903953 -2.9399867 -1.0242499
0.42045811 -2.9388981 -1.0228995
0.4042055 -2.9544787 -1.0276258
0.38606954 -2.9569035 -1.0276258
0.36815158 -2.9610848 -1.028301
0.34909153 -2.9558096 -1.0256003
0.33356827 -2.9812822 -1.03404
0.31556633 -2.9860809 -1.0350528
0.29882434 -3.0038841 -1.0407917
0.28546548 -3.0600195 -1.0603719
0.26177594 -3.0054495 -1.0401165
0.24439462 -3.0201342 -1.0448428
0.2267023 -3.032841 -1.0488938
0.20828246 -3.0369921 -1.0499066
0.19058417 -3.0532444 -1.055308
0.17232323 -3.0628145 -1.0583463
0.15291287 -3.0515928 -1.0539577
0.13455895 -3.0609369 -1.056996
0.11527516 -3.0485363 -1.0522697
0.096058868 -3.0331924 -1.0465307
0.077469885 -3.0346656 -1.0468683
0.058590844 -3.0219083 -1.042142
0.03983349 -3.0062103 -1.0364031
0.02131875 -2.9969854 -1.0330272
0.0029260505 -2.994236 -1.0320145
-0.01538955 -2.9829021 -1.0279634
-0.033639487 -2.9780455 -1.0262754
-0.052074585 -2.9871945 -1.0296513
-0.070601165 -2.9952881 -1.0326896
-0.089646429 -3.0173795 -1.0407917
-0.10822624 -3.0186541 -1.041467
-0.12800619 -3.0480282 -1.0522697
-0.14571303 -3.0265009 -1.0448428
-0.16372055 -3.0152106 -1.0411294
-0.18091491 -2.9925389 -1.0333648
-0.19777483 -2.9688313 -1.0252627
-0.2155101 -2.96099 -1.0228995
-0.2333785 -2.9558585 -1.0215492
-0.25182977 -2.9581225 -1.0228995
-0.26971933 -2.9537094 -1.0218868
-0.28637832 -2.9370089 -1.0164853
-0.30478197 -2.9389417 -1.0178357
-0.3194198 -2.9061389 -1.0066954
-0.34407786 -2.9630311 -1.0279634
-0.36373657 -2.9730105 -1.0323521
-0.38353068 -2.9828596 -1.0367407
-0.40270546 -2.9869804 -1.0391037
-0.42207655 -2.9919097 -1.0418046
-0.44303113 -3.0069575 -1.0482187
-0.4589029 -2.9874353 -1.042142
-0.47633383 -2.9789865 -1.0401165
-0.49491197 -2.9778647 -1.0407917
-0.51301461 -2.9738443 -1.0404541
-0.53191441 -2.9743471 -1.0418046
-0.55032593 -2.9719529 -1.042142
-0.57014358 -2.9768407 -1.0451804
-0.59241581 -2.9936016 -1.0526073
-0.60757244 -2.9742315 -1.0468683
-0.62619841 -2.9722898 -1.0475435
-0.64402509 -2.9665518 -1.0468683
-0.66057366 -2.955195 -1.0441676
-0.67742884 -2.9455819 -1.042142
-0.69484043 -2.9386215 -1.0411294
-0.71663398 -2.9498529 -1.0468683
-0.74564999 -2.9892406 -1.0630726
-0.75021291 -2.9308054 -1.0431548
-0.77104855 -2.9370728 -1.0472059
-0.79052246 -2.9377406 -1.0492314
-0.80628276 -2.9246674 -1.0461931
-0.8326481 -2.9495604 -1.0573336
-0.86039364 -2.9778564 -1.0698243
-0.88184971 -2.9833539 -1.0738754
-1.2077707 -3.9960909 -1.45535
-1.2372673 -4.0047936 -1.4614266
-1.272015 -4.0294423 -1.4735798
-1.2860303 -3.9884131 -1.461089
-1.0091439 -3.0648751 -1.1153988
-1.0306284 -3.0666561 -1.1184371
-1.0326385 -3.0113006 -1.0998696
-1.0445718 -2.9862485 -1.0927804
-1.0631915 -2.9806695 -1.093118
-1.0769587 -2.9617043 -1.0883917
-1.0895524 -2.9400351 -1.0826527
-1.1138871 -2.9500268 -1.0890669
-1.1296026 -2.9369864 -1.0867038
-1.1455433 -2.9247408 -1.0846782
-1.1505713 -2.8853047 -1.0721874
-1.1622373 -2.8633626 -1.0664485
-1.1779884 -2.8518271 -1.0647604
-1.1885377 -2.8280568 -1.0583463
-1.1992097 -2.8051307 -1.0522697
-1.2130222 -2.7899501 -1.0492314
-1.2358257 -2.7953691 -1.0542953
-1.2564263 -2.7954612 -1.0573336
-1.2649527 -2.7688622 -1.0499066
-1.2894475 -2.7772708 -1.0563208
-1.2956235 -2.7463198 -1.0472059
-1.9432797 -4.0549426 -1.5708052
-1.3242844 -2.7200572 -1.0431548
-1.3384469 -2.7068174 -1.0411294
-1.3643205 -2.7170615 -1.0485562
-1.3895152 -2.7254121 -1.055308
-1.4079421 -2.7201788 -1.0566584
-2.0649524 -3.9306674 -1.5505499
-1.4576004 -2.7334301 -1.0691491
-1.4747928 -2.7252629 -1.0694867
-1.4982814 -2.7285397 -1.0745505
-1.5214074 -2.7308078 -1.0792768
-1.531652 -2.7099478 -1.0745505
-1.5374854 -2.6817155 -1.0667861
-1.5477612 -2.6616521 -1.0623974
-1.5607172 -2.6464291 -1.0600343
-1.5711298 -2.6271079 -1.0559832
-1.5940515 -2.6286874 -1.0607095
-1.6131082 -2.6236684 -1.062735
-1.6286786 -2.6129222 -1.0623974
-1.6416643 -2.598105 -1.0603719
-1.6636659 -2.5974956 -1.064423
-1.6785477 -2.5856593 -1.0637478
-1.6938641 -2.5745249 -1.0634102
-1.7101513 -2.5648663 -1.0637478
-1.7284912 -2.5582247 -1.0654356
-1.7377758 -2.5382495 -1.0613846
-1.7506354 -2.5236714 -1.0596967
-1.7796161 -2.5321369 -1.0681363
-1.7874775 -2.5104339 -1.0634102
-1.8061509 -2.5039997 -1.0654356
-1.811487 -2.4791884 -1.0593591
-1.8199462 -2.4589467 -1.055308
-1.8366933 -2.4499931 -1.0563208
-1.8442929 -2.4289305 -1.0519321
-1.8562932 -2.4138372 -1.0502442
-1.8641299 -2.3934891 -1.0461931
-1.8811123 -2.3849626 -1.0475435
-1.8951234 -2.3726399 -1.0472059
-1.9031355 -2.3529158 -1.0434924
-1.9175369 -2.3411939 -1.0434924
-1.9390757 -2.3380795 -1.0475435
-1.9545958 -2.3275795 -1.0482187
-1.9542093 -2.2983298 -1.0401165
-1.9695028 -2.2877226 -1.0407917
-1.9804109 -2.2720466 -1.0391037
-1.9874645 -2.2520878 -1.0353904
-2.0024998 -2.2412546 -1.0360655
-2.023159 -2.2366052 -1.0397789
-2.0501928 -2.2387288 -1.0468683
-2.073489 -2.2364621 -1.0519321
-2.0768671 -2.2127147 -1.0465307
-2.0878117 -2.1971998 -1.0451804
-2.1051691 -2.1884186 -1.0472059
-2.1106777 -2.1673672 -1.0431548
-2.1160076 -2.1463306 -1.0391037
-2.1311321 -2.1353056 -1.0401165
-2.1441939 -2.122189 -1.0401165
-2.15381 -2.1057019 -1.0384287
-2.1639819 -2.0898309 -1.0370783
-2.1801691 -2.0797627 -1.0387663
-2.197684 -2.0708656 -1.0411294
-2.2227502 -2.0688872 -1.0472059
-2.2492597 -2.0679533 -1.0539577
-2.2758412 -2.0667713 -1.0607095
-2.3080971 -2.0703697 -1.0701619
-2.3087814 -2.0455551 -1.064423
-2.3241222 -2.0338302 -1.0657732
-2.3230286 -2.0078344 -1.0593591
-2.3374522 -1.9953766 -1.0603719
-2.3453341 -1.9773556 -1.0583463
-2.3538063 -1.9599156 -1.0566584
-2.3694227 -1.9484259 -1.0583463
-2.3908315 -1.9415661 -1.062735
-2.4078395 -1.9309826 -1.065098
-2.4299722 -1.9243547 -1.0698243
-2.4521141 -1.9175276 -1.0745505
-2.4668136 -1.9047471 -1.0759009
-2.4836938 -1.8935708 -1.078264
-2.4817302 -1.868104 -1.0721874
-2.4991894 -1.8573338 -1.0748881
-2.5120566 -1.8430779 -1.0755633
-2.5141709 -1.8210025 -1.0715122
-2.5252972 -1.8055415 -1.0715122
-2.5340211 -1.788384 -1.0704995
-2.5464914 -1.7738781 -1.0711746
-2.56043 -1.7603533 -1.072525
-2.582866 -1.7525389 -1.0775888
-2.598263 -1.7398007 -1.0796144
-2.6136012 -1.7269393 -1.0816399
-2.625725 -1.7118984 -1.0823151
-2.6448872 -1.7013578 -1.0860286
-2.6576607 -1.6866106 -1.0870413
-2.6719484 -1.6727697 -1.0887293
-2.6845646 -1.6578274 -1.0897421
-2.7043324 -1.6472012 -1.093793
-2.7240705 -1.6363945 -1.0978441
-2.7478266 -1.6278068 -1.1035831
-2.7780809 -1.6227878 -1.1120229
-2.8067453 -1.6165187 -1.1197873
-2.8387103 -1.611818 -1.1289022
-2.876472 -1.6100043 -1.1403803
-2.9217343 -1.6118804 -1.1548965
-2.9927609 -1.6272025 -1.1798781
-3.040853 -1.6292624 -1.1954072
-3.0915787 -1.6321112 -1.211949
-3.1566479 -1.6417834 -1.2342298
-3.2118981 -1.6455659 -1.2524595
-3.2631099 -1.6466105 -1.2690014
-3.3093967 -1.6445739 -1.2835176
-3.3591619 -1.6436858 -1.2993842
-3.9695539 -1.912341 -1.5383967
-4.1895785 -1.9867816 -1.6211058
-4.0515747 -1.8909585 -1.5616903
-3.7560277 -1.7249994 -1.4404961
-3.7382355 -1.689127 -1.4293557
-3.7347677 -1.6600393 -1.4239542
-3.8087041 -1.6649991 -1.4489359
-3.8577621 -1.6583301 -1.4641273
-3.9545655 -1.6712793 -1.4978861
-4.0551472 -1.6845464 -1.5329952
-4.0967789 -1.672443 -1.5451485
-4.2388783 -1.7001984 -1.5961243
-4.2448521 -1.6724315 -1.5944363
-4.304193 -1.6653798 -1.6133412
-4.3486471 -1.651978 -1.6265072
-4.4768825 -1.6693429 -1.671744
-4.5409617 -1.661577 -1.6923369
-4.5953674 -1.6495879 -1.7092164
-4.6675525 -1.6432461 -1.7328475
-4.7149167 -1.6274781 -1.7470262
-4.7792029 -1.6169233 -1.767619
-4.8381743 -1.6038625 -1.7861865
-4.9965372 -1.6224142 -1.842226
-5.0835419 -1.6162592 -1.8712586
-5.1131363 -1.5911915 -1.8786856
-5.1939392 -1.5814533 -1.905355
-5.2288046 -1.5570782 -1.9148074
-5.2698917 -1.5341767 -1.9266231
-5.2918811 -1.505419 -1.9313493
-5.3100877 -1.475441 -1.9347252
-5.3235831 -1.4440637 -1.9364132
-5.3414431 -1.4137807 -1.9397891
-5.35184 -1.3814503 -1.9404641
-5.3656926 -1.3499644 -1.9424897
-5.382103 -1.3190328 -1.945528
-5.380939 -1.2837989 -1.9421521
-5.3786292 -1.2484162 -1.9384387
-5.3834333 -1.2147682 -1.9374259
-5.3880272 -1.1811084 -1.9364132
-5.3960938 -1.1482217 -1.9367508
-5.4048815 -1.115471 -1.9374259
-5.406086 -1.0811783 -1.9354004
-5.4033771 -1.0461968 -1.9320245
-5.4300489 -1.0168358 -1.9394515
-5.4389648 -0.9840014 -1.9404641
-5.4449 -0.95061004 -1.9404641
-5.458056 -0.91843295 -1.9431649
-5.4765973 -0.88703358 -1.9478911
-5.4791465 -0.85297853 -1.9468783
-0 -0 -0
-0 -0 -0
-0 -0 -0
-0 -0 -0
-0 -0 -0
-0 -0 -0
-0 -0 -0
-0 -0 -0
-0 -0 -0
-0 -0 -0
-0 -0 -0
-0 -0 -0
-0 -0 -0
-0 -0 -0
-0 -0 -0
-0 -0 -0
-0 -0 -0
-0 -0 -0
-5.4781499 -0.20747021 -1.92426
-0 -0 -0
-0 0 -0
-0 0 -0
-0 0 -0
-0 0 -0
-0 0 -0
-0 0 -0
-0 0 -0
-0 0 -0
-0 0 -0
-0 0 -0
-0 0 -0
-0 0 -0
-0 0 -0
-0 0 -0
-0 0 -0
-0 0 -0
-0 0 -0
-0 0 -0
-0 0 -0
-0 0 -0
-0 0 -0
-0 0 -0
-5.2170911 1.0996032 -1.9365804
-5.1763492 1.1242244 -1.9237075
-5.169354 1.1559647 -1.9237075
-5.1621637 1.1876615 -1.9237075
-5.1593404 1.2203937 -1.925447
-5.1553993 1.2529142 -1.9268386
-5.1503429 1.2852051 -1.9278824
-5.1296458 1.3135241 -1.9230115
-5.1314635 1.3475959 -1.9268386
-5.1212878 1.3785689 -1.9261428
-5.1172514 1.4112138 -1.9278824
-5.1130071 1.443861 -1.9296221
-5.1013494 1.4744251 -1.9285783
-5.0814185 1.5025063 -1.9244033
-5.0819745 1.5366439 -1.9282304
-5.0742416 1.5683515 -1.9289262
-5.0672045 1.6003045 -1.9299699
-5.0546136 1.6305021 -1.9289262
-5.0445137 1.6614859 -1.9289262
-5.0297809 1.6909125 -1.9271866
-5.0184245 1.7214385 -1.9268386
-5.0077672 1.7521986 -1.9268386
-4.9942732 1.7819469 -1.925795
-4.9753165 1.8096718 -1.9226637
-4.9658766 1.8408177 -1.9233595
-4.9492264 1.8692645 -1.921272
-4.9385386 1.8999339 -1.9216199
-4.9241691 1.9291739 -1.9205762
-4.9148517 1.9603944 -1.9216199
-4.907073 1.9922788 -1.9233595
-4.9008212 2.0248578 -1.925795
-4.8874407 2.054527 -1.925447
-4.8704324 2.0826333 -1.9237075
-4.8489652 2.1087377 -1.9202282
-4.8333631 2.1373127 -1.9191844
-4.8141727 2.1642373 -1.9167491
-4.7914233 2.1894474 -1.912922
-4.7864013 2.2227564 -1.9164011
-4.7752161 2.2532842 -1.9174449
-4.7604551 2.2821364 -1.917097
-4.742991 2.3096607 -1.9157053
-4.7228484 2.335809 -1.9132699
-4.6916728 2.3563247 -1.9063115
-4.7088604 2.4012592 -1.9195324
-4.6998653 2.4331255 -1.9219679
-4.6798687 2.4592996 -1.9198804
-4.6646905 2.4879684 -1.9198804
-4.6485124 2.5160973 -1.9195324
-4.6296997 2.5427666 -1.9181408
-4.6050034 2.5661042 -1.9143137
-4.6014118 2.6012349 -1.9195324
-4.5812984 2.6270869 -1.9177928
-4.5675235 2.6565623 -1.9188366
-4.5479074 2.6826322 -1.9174449
-4.5305572 2.7100055 -1.917097
-4.5114393 2.7362945 -1.9160533
-4.4937663 2.7634335 -1.9157053
-4.4783163 2.7919469 -1.9164011
-4.4642706 2.821377 -1.9177928
-4.4484534 2.8497279 -1.9184886
-4.4285254 2.8754373 -1.9174449
-4.4131479 2.9041026 -1.9184886
-4.3913465 2.928525 -1.9167491
-4.3670812 2.9512136 -1.9139657
-4.3496642 2.9784839 -1.9143137
-4.3336172 3.0067205 -1.9153574
-4.3058844 3.0267828 -1.9111824
-4.2895217 3.0547783 -1.9122262
-4.2684169 3.0793948 -1.9111824
-4.2471709 3.1038673 -1.9101386
-4.2212653 3.1248472 -1.9070073
-4.2050123 3.15294 -1.9083991
-4.181108 3.1752789 -1.9063115
-4.1645184 3.203161 -1.9077032
-4.1433067 3.2275012 -1.9070073
-4.1300483 3.2580905 -1.9101386
-4.1048527 3.2792735 -1.9077032
-4.0941281 3.3120661 -1.9122262
-4.0759039 3.3389077 -1.9132699
-4.0603905 3.3680451 -1.9157053
-4.0353413 3.389277 -1.9136178
-4.0173254 3.4164038 -1.9150095
-3.9948664 3.4397655 -1.9143137
-3.9765115 3.4666777 -1.9157053
-3.9530573 3.4891503 -1.9146615
-3.9329717 3.5145898 -1.9153574
-3.9043815 3.5323644 -1.9118782
-3.8757217 3.549921 -1.9083991
-3.8566163 3.5761855 -1.9097908
-3.8346004 3.599782 -1.9097908
-3.8144789 3.625181 -1.9108344
-3.7887859 3.645267 -1.9090949
-3.7663476 3.6684461 -1.9090949
-3.7511094 3.6987293 -1.912922
-3.7250268 3.7183635 -1.9111824
-3.7001634 3.7391503 -1.9101386
-3.6797717 3.764466 -1.9115303
-3.6533487 3.7836008 -1.9097908
-3.6261826 3.8018749 -1.9077032
-3.6060002 3.8274655 -1.9094428
-3.5837245 3.8508925 -1.9101386
-3.5555882 3.8679769 -1.9077032
-3.5349381 3.8931918 -1.9094428
-3.5109835 3.9148085 -1.9094428
-3.4800599 3.9285567 -1.9056157
-3.4595923 3.9540703 -1.9077032
-3.4272985 3.9660003 -1.9031802
-3.4022906 3.9862418 -1.9028324
-3.3777676 4.0070429 -1.9028324
-3.3531172 4.0276933 -1.9028324
-3.3271501 4.0467429 -1.9021366
-3.3040295 4.0692658 -1.9031802
-3.2842755 4.0960464 -1.9063115
-3.2596626 4.1168561 -1.9066595
-3.2401137 4.1441665 -1.9101386
-3.2163429 4.1661963 -1.9111824
-3.1890144 4.1836157 -1.9101386
-3.1576483 4.1956124 -1.9066595
-3.1296091 4.2118979 -1.9052678
-3.0998259 4.225729 -1.9028324
-3.0738389 4.2446694 -1.9028324
-3.044466 4.2588735 -1.9007449
-3.0209785 4.2813044 -1.9024844
-3.0005441 4.3082242 -1.9063115
-2.9687438 4.3188272 -1.9028324
-2.9437666 4.3392892 -1.9038761
-2.9186499 4.3596077 -1.9049199
-2.889262 4.3735223 -1.9031802
-2.8649311 4.3950958 -1.9049199
-2.8343606 4.4070716 -1.9024844
-2.8067639 4.4235883 -1.9021366
-2.78106 4.4431114 -1.9031802
-2.7527606 4.4584961 -1.9024844
-2.7243772 4.4737015 -1.9017886
-2.6983232 4.4927449 -1.9028324
-2.6707056 4.5092168 -1.9028324
-2.6453502 4.5295677 -1.904572
-2.614234 4.5400262 -1.9021366
-2.5872531 4.5576119 -1.9028324
-2.5587819 4.5725832 -1.9024844
-2.5320346 4.5906606 -1.9035282
-2.506952 4.611877 -1.9059637
-2.480377 4.6304784 -1.9073553
-2.4541054 4.6497569 -1.9090949
-2.4255288 4.6647272 -1.9090949
-2.3960066 4.6778531 -1.9083991
-2.3643041 4.6866069 -1.9059637
-2.3355031 4.701026 -1.9059637
-2.3049669 4.7118988 -1.904572
-2.274792 4.7234187 -1.9035282
-2.2433584 4.732204 -1.9014407
-2.2138836 4.7450304 -1.9010928
-2.1843362 4.7576733 -1.9007449
-2.1527879 4.7658596 -1.8986573
-2.1196995 4.7704105 -1.8951782
-2.0873871 4.776454 -1.8923949
-2.0598898 4.793479 -1.8941344
-2.0311682 4.8077555 -1.8948302
-2.0030675 4.8235917 -1.896222
-1.975203 4.8401318 -1.8979615
-1.9461647 4.8539009 -1.8986573
-1.9156584 4.864006 -1.8979615
-1.8861153 4.8765435 -1.8983095
-1.8548274 4.8845186 -1.8969178
-1.8241671 4.8940506 -1.896222
-1.7918506 4.8989873 -1.8937865
-1.7563777 4.894887 -1.8878719
-1.7272433 4.9082251 -1.8889157
-1.6998447 4.9267077 -1.8920469
-1.6635802 4.9192815 -1.8850886
-1.6348381 4.9338465 -1.8868282
-1.6120536 4.9669714 -1.895874
-1.5775741 4.9642596 -1.8910031
-1.5473626 4.9747415 -1.8913511
-1.5192637 4.9922147 -1.8944824
-1.490207 5.0068345 -1.8965698
-1.458149 5.0113831 -1.8948302
-1.4281408 5.0229411 -1.895874
-1.3977951 5.0334163 -1.8965698
-1.3688452 5.0491376 -1.8993531
-1.3395153 5.0637865 -1.9017886
-1.3093554 5.0755415 -1.9031802
-1.2786446 5.0852985 -1.9038761
-1.2454122 5.0848527 -1.9007449
-1.2148404 5.0951347 -1.9017886
-1.1822846 5.097013 -1.8997011
-1.1497514 5.0986838 -1.8976136
-1.1160399 5.0946522 -1.8934386
-1.0833951 5.0949845 -1.8910031
-1.0534366 5.107964 -1.8934386
-1.0215243 5.1115737 -1.8923949
-0.98907381 5.1122222 -1.8903073
-0.95768714 5.1181951 -1.8903073
-0.92759705 5.1313558 -1.8930907
-0.89673781 5.140645 -1.8944824
-0.86471277 5.1432767 -1.8934386
-0.83343709 5.1503367 -1.8941344
-0.80153179 5.153501 -1.8934386
-0.76796073 5.14534 -1.8885678
-0.73664004 5.1518116 -1.8892636
-0.7057761 5.161808 -1.8913511
-0.67469603 5.1706896 -1.8930907
-0.64318734 5.1765928 -1.8937865
-0.61185098 5.1841664 -1.8951782
-0.58169347 5.2027311 -1.9007449
-0.54995567 5.2080669 -1.9014407
-0.51706398 5.202014 -1.8979615
-0.48435411 5.1966872 -1.8948302
-0.45124269 5.1855512 -1.8896115
-0.41881356 5.1807461 -1.8868282
-0.38771319 5.1925678 -1.8903073
-0.35584491 5.194849 -1.8903073
-0.32402134 5.1978707 -1.8906553
-0.29222646 5.201633 -1.8913511
-0.26039761 5.2052007 -1.8920469
-0.22857687 5.2095103 -1.8930907
-0.19674818 5.2145624 -1.8944824
-0.16445459 5.2063007 -1.8910031
-0.13278994 5.2184587 -1.8951782
-0.10082126 5.2219872 -1.896222
-0.068802126 5.2243824 -1.8969178
-0.036738236 5.2237687 -1.8965698
-0.0046851006 5.223896 -1.8965698
0.027352855 5.2210135 -1.8955261
0.059387878 5.2207475 -1.8955261
0.091420665 5.2202849 -1.8955261
0.12327102 5.2121277 -1.8927428
0.15508096 5.2056503 -1.8906553
0.18712093 5.2074118 -1.891699
0.21914874 5.2080388 -1.8923949
0.25091907 5.2028503 -1.8910031
0.28299177 5.2040215 -1.8920469
0.31503144 5.2040586 -1.8927428
0.3467066 5.1982861 -1.8913511
0.3794162 5.2072811 -1.8955261
0.41054553 5.1945744 -1.891699
0.44217169 5.1891551 -1.8906553
0.47400343 5.1863446 -1.8906553
0.50572604 5.1824055 -1.8903073
0.53751516 5.1792045 -1.8903073
0.56948948 5.1776729 -1.8910031
0.60168207 5.1778059 -1.8923949
0.63344115 5.1740165 -1.8923949
0.66517639 5.1700325 -1.8923949
0.69713765 5.1677117 -1.8930907
0.72843933 5.160552 -1.8920469
0.75967932 5.153203 -1.8910031
0.79156977 5.1502981 -1.891699
0.82374972 5.1490469 -1.8930907
0.85563612 5.1457453 -1.8937865
0.8846392 5.125617 -1.8882198
0.91789132 5.1302433 -1.8920469
0.94901067 5.1226711 -1.8913511
0.97918844 5.1103067 -1.8889157
1.010344 5.1032825 -1.8885678
1.042014 5.098824 -1.8892636
1.0738608 5.0950866 -1.8903073
1.105701 5.0911498 -1.8913511
1.1373285 5.0860991 -1.8920469
1.170198 5.0863338 -1.8948302
1.2022492 5.0827074 -1.896222
1.2342998 5.0788784 -1.8976136
1.2663487 5.0748477 -1.8990053
1.2983947 5.0706148 -1.9003969
1.3278146 5.0562053 -1.8979615
1.3602772 5.0533943 -1.900049
1.3925059 5.0494714 -1.9017886
1.4247376 5.0453429 -1.9035282
1.4535843 5.0293012 -1.9007449
1.4860123 5.0256815 -1.9028324
1.5157351 5.0128794 -1.9014407
1.5467421 5.0043802 -1.9017886
1.5723337 4.9787045 -1.8955261
1.6028528 4.9689631 -1.8955261
1.6318443 4.9545827 -1.8937865
1.6628121 4.9462538 -1.8944824
1.6964787 4.9457121 -1.8983095
1.7274128 4.9369793 -1.8990053
1.7586187 4.928936 -1.900049
1.7881877 4.9162903 -1.8993531
1.8199501 4.9096208 -1.9010928
1.8520293 4.9036231 -1.9031802
1.8780408 4.8816681 -1.8990053
1.9072744 4.8683066 -1.8983095
1.9364148 4.8547711 -1.8976136
1.965108 4.8401923 -1.8965698
1.9915463 4.8202457 -1.8934386
2.0232661 4.8131204 -1.8955261
2.0512857 4.7971673 -1.8941344
2.0836744 4.791368 -1.8969178
2.116828 4.787066 -1.9003969
2.1438534 4.768857 -1.8983095
2.1769726 4.7641392 -1.9017886
2.2077441 4.7540927 -1.9031802
2.2340713 4.7345223 -1.9007449
2.2610524 4.7164989 -1.8990053
2.2895391 4.7016935 -1.8986573
2.3208399 4.6925983 -1.9007449
2.3474846 4.6740813 -1.8990053
2.375694 4.6587543 -1.8986573
2.4033723 4.6424246 -1.8979615
2.4326851 4.62925 -1.8986573
2.45663 4.6059647 -1.8951782
2.4848454 4.5908046 -1.8951782
2.5075493 4.5656118 -1.8910031
2.5350597 4.5493207 -1.8906553
2.563849 4.5353127 -1.8913511
2.591629 4.5194955 -1.8913511
2.6211975 4.5067501 -1.8927428
2.6478479 4.4889669 -1.8920469
2.6758235 4.4734402 -1.8923949
2.7061398 4.4617462 -1.8944824
2.7364132 4.4498487 -1.8965698
2.76565 4.4361563 -1.8979615
2.7908137 4.4159336 -1.8965698
2.8173509 4.3979368 -1.896222
2.8463259 4.3837123 -1.8976136
2.8700771 4.3614664 -1.8955261
2.8947031 4.3406544 -1.8941344
2.9249582 4.328248 -1.8965698
2.946692 4.3032584 -1.8934386
2.9730408 4.2850966 -1.8934386
2.9992776 4.2667737 -1.8934386
3.0243137 4.2467632 -1.8927428
3.0525091 4.2311673 -1.8941344
3.0789669 4.2131143 -1.8944824
3.1042023 4.1933894 -1.8941344
3.129874 4.1742635 -1.8941344
3.1610997 4.1624455 -1.8976136
3.1825781 4.1377702 -1.8951782
3.2084835 4.1189036 -1.8955261
3.2377617 4.1042905 -1.8979615
3.264055 4.0858116 -1.8986573
3.287884 4.0642495 -1.8979615
3.3187027 4.05125 -1.9014407
3.3369124 4.0228744 -1.8976136
3.363946 4.0051951 -1.8990053
3.3842053 3.9794803 -1.8965698
3.4159019 3.967164 -1.9007449
3.4352498 3.9404774 -1.8979615
3.4550195 3.9144058 -1.8955261
3.478348 3.8924334 -1.8951782
3.5040534 3.8731027 -1.896222
3.5302861 3.8542943 -1.8976136
3.5570571 3.8359969 -1.8993531
3.5824528 3.816149 -1.9003969
3.610323 3.7988517 -1.9028324
3.6303134 3.7732503 -1.9010928
3.6540515 3.7515757 -1.9014407
3.677002 3.7290843 -1.9014407
3.7018015 3.7084424 -1.9024844
3.726486 3.6876369 -1.9035282
3.7416666 3.6574948 -1.8997011
3.7626889 3.6331654 -1.8990053
3.7828751 3.6080689 -1.8979615
3.8063076 3.5860751 -1.8986573
3.8282397 3.5626526 -1.8986573
3.8458855 3.53529 -1.8965698
3.8445954 3.490833 -1.8850886
3.8826966 3.4821966 -1.8934386
3.9074993 3.4614148 -1.8951782
3.9230189 3.4324362 -1.8923949
3.9511011 3.4144287 -1.895874
3.9812491 3.3980312 -1.9003969
4.0041752 3.3753512 -1.9014407
4.0276933 3.3531172 -1.9028324
4.0481915 3.3283405 -1.9028324
4.0707216 3.3052111 -1.9038761
4.0953145 3.2836893 -1.9059637
4.1161213 3.2590809 -1.9063115
4.141212 3.2378047 -1.908747
4.1550627 3.2077515 -1.9059637
4.17243 3.1804917 -1.9049199
4.1918664 3.1548302 -1.9049199
4.215661 3.1324041 -1.9070073
4.2370701 3.1081414 -1.9080511
4.2347965 3.0666926 -1.8983095
4.2634506 3.0477362 -1.9028324
4.2996922 3.033947 -1.9108344
4.309763 3.0016153 -1.9070073
4.3389177 2.9825475 -1.9118782
4.3563604 2.9553421 -1.9115303
4.3712955 2.9264708 -1.9101386
4.3876047 2.8985605 -1.9094428
4.4053078 2.8715842 -1.9094428
4.4267874 2.8470345 -1.9111824
4.4512987 2.8243377 -1.9143137
4.4574175 2.7900105 -1.9094428
4.4385505 2.7404518 -1.8937865
4.4704981 2.7224274 -1.9003969
4.4871182 2.6949456 -1.9003969
4.5172844 2.6754813 -1.9063115
4.5400934 2.6514945 -1.9090949
4.5587149 2.62499 -1.9101386
4.5649509 2.5914171 -1.9059637
4.579947 2.5629005 -1.9056157
4.5964079 2.535203 -1.9059637
4.6184673 2.5105326 -1.908747
4.6445293 2.4878995 -1.9132699
4.6646829 2.4619789 -1.9153574
4.6871886 2.4372017 -1.9184886
4.7078962 2.4113863 -1.9209241
4.7133951 2.3778107 -1.917097
4.7262173 2.3480113 -1.9164011
4.7312703 2.3144379 -1.9125741
4.7394691 2.2825177 -1.9101386
4.7483015 2.2509854 -1.9080511
4.7645731 2.2229965 -1.9090949
4.7755671 2.1925468 -1.9080511
4.7966208 2.1666751 -1.9111824
4.8141093 2.1391053 -1.912922
4.8383131 2.1144042 -1.9174449
4.8486114 2.0835671 -1.9164011
4.8708053 2.0577888 -1.9202282
4.8876696 2.0296602 -1.9219679
4.8991632 1.9992778 -1.9216199
4.9017653 1.9653437 -1.9177928
4.9154768 1.9359168 -1.9184886
4.9237652 1.9043674 -1.917097
4.936234 1.8744526 -1.9174449
4.9450068 1.8431474 -1.9164011
4.9623871 1.8150237 -1.9188366
4.9734302 1.7845409 -1.9188366
4.9860554 1.7546129 -1.9195324
5.0002728 1.7252084 -1.9209241
5.0107641 1.6944948 -1.9209241
5.0219574 1.6640121 -1.921272
5.0347481 1.6340343 -1.9223157
5.0455732 1.6033946 -1.9226637
5.0642695 1.5751879 -1.9261428
5.0729423 1.5438118 -1.925795
5.0841165 1.5131903 -1.9264908
5.0942059 1.4822279 -1.9268386
5.0950885 1.4486368 -1.9237075
5.1047845 1.4175973 -1.9240553
5.1088619 1.3850226 -1.9223157
5.1190767 1.3541284 -1.9230115
5.1200266 1.3208208 -1.9202282
5.1371274 1.2916642 -1.9237075
5.1449561 1.2601191 -1.9237075
5.1589751 1.2300472 -1.9261428
5.1645989 1.1979458 -1.925447
5.1727667 1.16644 -1.925795
5.1825743 1.1352798 -1.9268386
5.1976962 1.1052119 -1.9299699
5.213562 1.0751902 -1.9334491
5.2292552 1.0450153 -1.9369283
5.2410917 1.0139769 -1.9390157
5.2426066 0.9809379 -1.9372762
5.2512946 0.94925112 -1.9383199
5.2487078 0.91556376 -1.9351887
5.2542272 0.88334107 -1.9351887
5.2539949 0.85018772 -1.9331012
5.2683768 0.81937259 -1.9365804
5.2751598 0.78730744 -1.9372762
5.2817478 0.75518984 -1.9379721
5.2890687 0.72314781 -1.9390157
5.2971249 0.69116551 -1.9404075
5.2994056 0.65841913 -1.9397117
5.3098631 0.62665796 -1.942147
5.3126764 0.59396148 -1.9417992
5.3134241 0.56105763 -1.9407554
5.3158336 0.52835196 -1.9404075
5.3199091 0.49581146 -1.9407554
5.318181 0.46275446 -1.9390157
5.3218546 0.43018934 -1.9393637
5.3243942 0.39752695 -1.9393637
5.3267331 0.3648496 -1.9393637
5.3298073 0.33221662 -1.9397117
5.326129 0.29919299 -1.9376241
5.32131 0.26618043 -1.9351887
5.3368926 0.2341378 -1.9404075
5.3335443 0.20121112 -1.9386679
0 0 -0
0 0 -0
0 0 -0
0 0 -0
0 0 -0
0 0 -0
0 -0 -0
0 -0 -0
0 -0 -0
5.3461556 -0.12647052 -1.942495
5.3387194 -0.15907466 -1.9400595
5.3329582 -0.19166006 -1.9383199
5.3316817 -0.22437887 -1.9383199
5.333014 -0.25722533 -1.9393637
5.3369517 -0.29024994 -1.9414512
5.3500433 -0.32390109 -1.9470179
0 -0 -0
5.3391204 -0.38905162 -1.9445825
5.3394365 -0.42202672 -1.9456263
5.3404832 -0.45510018 -1.9470179
0 -0 -0
5.3419609 -0.52133197 -1.9498012
5.337729 -0.55400282 -1.9494534
5.334229 -0.58674407 -1.9494534
0 -0 -0
5.3098774 -0.6501047 -1.9431908
5.2955599 -0.681355 -1.9393637
5.2838469 -0.71283072 -1.9365804
5.2747321 -0.74458218 -1.9348408
5.2709918 -0.77707022 -1.9351887
5.3152351 -0.81695694 -1.9536283
5.3119736 -0.84985185 -1.9543241
0 -0 -0
5.303916 -0.9154529 -1.9553679
5.2889709 -0.94632667 -1.9518888
5.2839866 -0.97893232 -1.9522367
5.2714353 -1.0100994 -1.9498012
5.2559419 -1.0406026 -1.9463221
5.2393546 -1.0707656 -1.942495
5.2216778 -1.1005709 -1.9383199
5.1772656 -1.1244236 -1.9240553
5.1281838 -1.146749 -1.9080511
5.0625801 -1.1647274 -1.8857844
4.9440374 -1.1694163 -1.8433385
4.8666248 -1.1826671 -1.8165488
4.7846909 -1.1938767 -1.7880195
4.722785 -1.2092469 -1.7671444
4.6790071 -1.2286694 -1.7532278
4.6396966 -1.2488201 -1.7410507
4.5957975 -1.2672876 -1.727134
4.559967 -1.2875587 -1.7163485
4.5348697 -1.3105642 -1.7097381
4.5249448 -1.3378329 -1.7090423
4.543571 -1.3737185 -1.7194798
4.552074 -1.4068353 -1.7260902
4.5353107 -1.432197 -1.7229589
4.5228686 -1.4588461 -1.7215673
4.5236268 -1.4897988 -1.7253944
4.5188432 -1.5190219 -1.727134
4.5050039 -1.5451984 -1.7253944
4.4954381 -1.5728116 -1.7253944
4.477756 -1.5975282 -1.7222631
4.4696317 -1.6256144 -1.7229589
4.467484 -1.6559435 -1.7260902
4.4528542 -1.6816671 -1.7243507
4.4450769 -1.7099681 -1.7253944
4.4519577 -1.744054 -1.7323527
4.4159217 -1.7612594 -1.7222631
4.3893971 -1.7819703 -1.7160006
4.3705826 -1.8056459 -1.7128694
4.3585572 -1.8320658 -1.7125214
4.3351665 -1.8536118 -1.7076505
4.3133955 -1.8756881 -1.7034756
4.2906594 -1.8971878 -1.6989527
4.2772279 -1.9227098 -1.6982569
4.2696128 -1.9508674 -1.6999964
4.24821 -1.9726828 -1.6961693
4.2300911 -1.9959104 -1.6937339
4.2160745 -2.0210173 -1.6930381
4.2128649 -2.0513656 -1.6968652
4.1884351 -2.0713553 -1.6919943
4.1706204 -2.0944903 -1.6899068
4.164371 -2.12345 -1.6926901
4.1404414 -2.1433566 -1.6881672
4.1330209 -2.1717756 -1.6906027
4.1163087 -2.195329 -1.689211
4.0821509 -2.2093835 -1.680513
4.0611229 -2.2303259 -1.6773818
4.049818 -2.2565722 -1.6784256
4.0432401 -2.285533 -1.6815568
4.0218215 -2.3060997 -1.6784256
4.0075955 -2.3307338 -1.6784256
3.9996784 -2.359092 -1.6812088
4.0148931 -2.4014025 -1.6940818
3.996877 -2.4240468 -1.6926901
3.985122 -2.4504905 -1.6940818
3.970011 -2.4748967 -1.6940818
3.9531658 -2.4982076 -1.693386
3.9306588 -2.5178635 -1.6902547
3.9049149 -2.5352948 -1.6857318
3.8932004 -2.561785 -1.6874714
3.8820875 -2.588747 -1.6895589
3.8723435 -2.6167192 -1.6923422
3.8508008 -2.6367211 -1.6899068
3.822227 -2.6517458 -1.6843401
3.7936141 -2.6665196 -1.6787734
3.777945 -2.6902907 -1.6791214
3.7689683 -2.7189078 -1.6826005
3.7491872 -2.7397692 -1.6812088
3.7466207 -2.7733238 -1.6878192
3.7047844 -2.7776952 -1.676338
3.6943893 -2.8054795 -1.6794692
3.688251 -2.8366714 -1.684688
3.6670785 -2.8563671 -1.6829485
3.6443317 -2.8747482 -1.680513
3.6354122 -2.9040794 -1.684688
3.6350148 -2.9404867 -1.6930381
3.6277807 -2.9716492 -1.6982569
3.6102002 -2.9944518 -1.6986047
3.5924764 -3.0171502 -1.6989527
3.5746098 -3.0397439 -1.6993005
3.5573115 -3.0628438 -1.6999964
3.5398645 -3.0858459 -1.7006922
2.4533801 -2.1648831 -1.1722053
2.4386525 -2.1786463 -1.1715095
2.4203732 -2.1891646 -1.1690742
3.4437139 -3.1540544 -1.6909505
3.4332314 -3.1834142 -1.6954734
3.4177339 -3.208271 -1.697561
3.3925486 -3.2240136 -1.6947776
3.3686497 -3.2408681 -1.6926901
3.3366144 -3.2496996 -1.6864276
3.310605 -3.2641859 -1.6832963
3.2951577 -3.2890754 -1.6857318
3.2735956 -3.307899 -1.6850359
3.2479956 -3.3225586 -1.6822526
3.2210369 -3.3356795 -1.6787734
3.1966274 -3.3513093 -1.6766859
3.1753612 -3.3701777 -1.676338
3.1488755 -3.38342 -1.6732067
3.1286902 -3.4033678 -1.6735547
3.1102688 -3.4252779 -1.6749463
3.0960772 -3.4519768 -1.6787734
3.0854034 -3.4828415 -1.684688
3.0707641 -3.5094705 -1.6885151
3.0553012 -3.535341 -1.6919943
3.0335512 -3.5540214 -1.6919943
3.0068543 -3.5668325 -1.689211
2.9699199 -3.5671988 -1.680513
2.9551191 -3.5940466 -1.684688
2.9460082 -3.6281261 -1.6923422
2.9190004 -3.6402817 -1.6895589
2.8989365 -3.6610644 -1.6909505
2.0012391 -2.5589073 -1.1635075
1.9826366 -2.5674272 -1.1617678
1.961732 -2.5728326 -1.1586366
1.9391453 -2.5758307 -1.1544616
1.9249809 -2.5899384 -1.1555053
1.9101617 -2.6032133 -1.1562011
1.8936031 -2.6141255 -1.1558533
1.6164515 -2.2603085 -0.98920071
1.6074153 -2.2770796 -0.99233198
1.5746657 -2.2599692 -0.98015487
2.5976372 -3.7786996 -1.6596379
2.5738766 -3.7937913 -1.6592901
2.545336 -3.8017213 -1.6558108
2.527127 -3.8250911 -1.6592901
2.5051446 -3.8428819 -1.6603338
2.4835458 -3.8613353 -1.6617255
2.4638231 -3.8828351 -1.6645088
2.4319963 -3.8851631 -1.6589421
2.4041727 -3.8936298 -1.6561588
2.3768244 -3.9027023 -1.6537234
2.3480079 -3.9091747 -1.6502442
2.3239775 -3.9235082 -1.6502442
2.299387 -3.9368842 -1.6498963
2.2709785 -3.9436059 -1.646765
2.2495141 -3.9623585 -1.6488525
2.2311087 -3.9867239 -1.6533754
2.1948366 -3.9789917 -1.6443295
2.1739612 -3.9989746 -1.647113
2.1538081 -4.0205035 -1.6505921
2.1295357 -4.0344729 -1.6509401
2.0999849 -4.0383124 -1.647113
2.0760212 -4.0527906 -1.6478088
2.0502703 -4.0637784 -1.647113
2.0282154 -4.08216 -1.6495483
2.0031297 -4.0945282 -1.6495483
1.9836609 -4.1185689 -1.6544192
1.9663808 -4.1476078 -1.6613775
1.9313855 -4.1392026 -1.6530275
1.9200271 -4.1816511 -1.6655526
1.8943329 -4.1933532 -1.6655526
1.3917964 -3.1312807 -1.2296118
1.3714314 -3.1371841 -1.2285681
1.3543758 -3.1507087 -1.2306556
1.3197019 -3.1226842 -1.216043
1.7604988 -4.2390976 -1.6613775
1.734455 -4.2498198 -1.6613775
1.7076485 -4.2586417 -1.6606817
1.6845762 -4.2768908 -1.663813
1.6532319 -4.2740297 -1.6585943
1.6296369 -4.2911053 -1.6613775
1.603931 -4.3027811 -1.6620734
1.5810397 -4.3222275 -1.6659005
1.5538564 -4.3300824 -1.6652046
1.5316125 -4.3519173 -1.6700755
1.5076311 -4.3692098 -1.6732067
1.4837952 -4.38726 -1.6766859
1.4597944 -4.4051819 -1.6801651
1.4347618 -4.4202991 -1.6826005
