# .PCD v0.7 - Point Cloud Data file format
VERSION 0.7
FIELDS x y z
SIZE 4 4 4
TYPE F F F
COUNT 1 1 1
WIDTH 1483
HEIGHT 1
VIEWPOINT 0 0 0 1 0 0 0
POINTS 1483
DATA ascii
7.2863588 -12.325792 -1.396454
7.2085876 -12.36683 -1.3960553
7.1320748 -12.409966 -1.3959557
7.0651126 -12.469943 -1.3978493
6.9884653 -12.513059 -1.3978493
6.9062777 -12.546115 -1.396753
6.8244224 -12.579508 -1.3957564
6.7508597 -12.628165 -1.3965536
6.6746383 -12.671991 -1.3968526
6.5940094 -12.707408 -1.3962547
6.5118389 -12.739655 -1.3953576
6.4174428 -12.747375 -1.3917696
6.3302679 -12.768682 -1.3897763
6.2539835 -12.811753 -1.3902746
6.1799946 -12.859752 -1.391371
6.0979943 -12.891133 -1.3906733
6.0183611 -12.927404 -1.3905736
5.9430699 -12.973136 -1.3915703
5.8727584 -13.030223 -1.3938626
5.8076143 -13.099669 -1.3975503
5.7307057 -13.143267 -1.3984474
5.6456399 -13.168122 -1.397351
5.5685997 -13.211685 -1.3983476
5.4916177 -13.255716 -1.399444
5.3974252 -13.257829 -1.3960553
5.2993498 -13.249122 -1.3915703
5.2081332 -13.256383 -1.3888793
5.1080751 -13.239815 -1.3836966
5.011941 -13.231826 -1.3795106
4.9223375 -13.239945 -1.3771186
4.8403244 -13.268029 -1.3769193
4.758152 -13.295606 -1.37672
4.6738467 -13.317039 -1.3759226
4.5849261 -13.324767 -1.3737299
4.500855 -13.346048 -1.3730322
4.4132628 -13.356408 -1.3712382
4.3361273 -13.398383 -1.3728329
4.2550364 -13.428531 -1.3732315
4.1743283 -13.460089 -1.3738296
4.0853062 -13.4645 -1.3716369
3.9921429 -13.454019 -1.3679492
3.9045274 -13.461059 -1.3661551
3.815891 -13.463701 -1.3639625
3.7318807 -13.482067 -1.3634642
3.654016 -13.522964 -1.3653579
3.5803542 -13.580729 -1.3690455
3.5043869 -13.631353 -1.3720355
3.418505 -13.643912 -1.3711386
3.3309498 -13.649164 -1.3695439
3.2501259 -13.681931 -1.3708396
3.1714888 -13.724884 -1.3732315
3.0900486 -13.756706 -1.3745272
3.0051568 -13.773463 -1.3743279
2.9201756 -13.789697 -1.3741286
2.8359089 -13.809304 -1.3743279
2.754811 -13.844987 -1.3762215
2.6726296 -13.876286 -1.3777165
2.5912602 -13.912966 -1.3798096
2.5105977 -13.955046 -1.3825006
2.4278154 -13.986854 -1.384195
2.3424404 -14.004432 -1.3844939
2.2564666 -14.01854 -1.3844939
2.1617432 -13.976072 -1.3788129
0.42434719 -2.8532183 -0.25117955
1.9881134 -13.987756 -1.3774176
0.26291054 -1.9274536 -0.15709381
0.25107896 -1.9290305 -0.15709381
0.23716767 -1.9137467 -0.15539947
0.22021337 -1.8706938 -0.15091445
0.21443276 -1.9234357 -0.15609714
0.20179808 -1.9167984 -0.1552998
0.19091061 -1.9269125 -0.1561968
0.1788094 -1.9250752 -0.15589781
0.16835958 -1.9419978 -0.15749247
0.15525158 -1.9281164 -0.15599747
0.14400336 -1.9369713 -0.15679482
0.1321827 -1.9388112 -0.15689448
0.12302861 -1.9842775 -0.1613795
0.11002752 -1.9700924 -0.15988448
0.097937189 -1.9707304 -0.15988448
0.093145341 -2.1412861 -0.17692757
0.13293177 -3.5796437 -0.32104617
0.11081249 -3.5754192 -0.32054782
0.086359121 -3.4735754 -0.31028211
0.066745318 -3.5665612 -0.31955117
0.044092163 -3.5042222 -0.31327212
0.016840806 -2.5641496 -0.21908674
0.0010852163 -3.5701706 -0.31985015
-0.021611348 -3.6984653 -0.33270723
-0.043191172 -3.607723 -0.32363752
-0.060944442 -3.3696206 -0.29981709
-0.080103569 -3.3075104 -0.29363772
-0.10305388 -3.3934827 -0.30230874
-0.53445178 -14.533437 -1.4189788
-0.14533056 -3.4068742 -0.30380377
-0.70787466 -14.426402 -1.4090121
-0.80028099 -14.492326 -1.4160885
-0.89028782 -14.505019 -1.4178824
-0.98383701 -14.566791 -1.4246597
-0.27956787 -3.8046885 -0.34436825
-0.30290774 -3.8029015 -0.34436825
-0.32623619 -3.8009713 -0.34436825
-0.27161744 -2.95473 -0.2594519
-0.28925446 -2.9480567 -0.25895357
-1.5308357 -14.630554 -1.4357228
-0.3243129 -2.9343956 -0.25795689
-0.34161735 -2.9264209 -0.25735891
-1.8210742 -14.771729 -1.4530649
-1.8940302 -14.624103 -1.4393108
-1.9893515 -14.653617 -1.4434968
-2.0820265 -14.660837 -1.4454902
-2.1720905 -14.64877 -1.4455899
-0.4688668 -3.0396972 -0.27031562
-0.48798347 -3.0397103 -0.27061462
-0.63446993 -3.8011644 -0.34825528
-0.65846205 -3.8011212 -0.34865394
-0.55952877 -3.1173713 -0.27948499
-0.56808138 -3.0571434 -0.27370429
-0.53320664 -2.775135 -0.24529918
-2.9109697 -14.638725 -1.457251
-2.9863274 -14.550411 -1.4500749
-3.0730777 -14.520132 -1.4488789
-0.57973212 -2.6630256 -0.2352328
-0.85857117 -3.8283088 -0.35523197
-0.88383693 -3.8307245 -0.3560293
-0.62037408 -2.6170523 -0.23164479
-0.64208108 -2.6363964 -0.2340368
-0.65897101 -2.6353025 -0.2343358
-0.67289913 -2.6225364 -0.23343879
-0.71332532 -2.7107251 -0.24300684
-0.73669201 -2.7312725 -0.24559818
-4.0083723 -14.487527 -1.4679153
-4.1007171 -14.475104 -1.469211
-0.94620442 -3.2667439 -0.30290675
-0.81538546 -2.7524352 -0.2497842
-0.82157087 -2.7121501 -0.24609652
-4.4806523 -14.453742 -1.4779817
-4.5632439 -14.407005 -1.4759883
-4.6549277 -14.389149 -1.4770846
-4.7428179 -14.359371 -1.476985
-4.8305182 -14.329056 -1.4768853
-4.9031343 -14.254925 -1.472201
-4.9885316 -14.218938 -1.4716029
-5.0917745 -14.23303 -1.476387
-1.1936958 -3.2758806 -0.31147811
-5.282001 -14.212378 -1.4809717
-1.1597978 -3.0655763 -0.29054803
-1.176079 -3.051904 -0.28985035
-1.1962383 -3.0483346 -0.29024902
-1.27995 -3.2035394 -0.30779043
-1.3303448 -3.2711957 -0.31596315
-1.2334864 -2.9807551 -0.28536534
-1.2772572 -3.0336471 -0.29194337
-1.3577913 -3.1702483 -0.30769077
-1.3485869 -3.0961857 -0.30051476
-1.3816729 -3.1196904 -0.30400309
-1.3946567 -3.0975466 -0.30250809
-6.3807597 -13.932755 -1.4972174
-6.4741077 -13.91048 -1.4991111
-6.5848656 -13.924463 -1.5050911
-6.6805234 -13.905321 -1.5074831
-1.3724843 -2.8145592 -0.27589697
-1.3751446 -2.7766654 -0.27260795
-1.369339 -2.7228484 -0.26752493
-1.3887373 -2.7197111 -0.26812294
-7.1016316 -13.689438 -1.5069848
-7.2114606 -13.694907 -1.5125661
-7.3028603 -13.664441 -1.5141609
-1.4849541 -2.739912 -0.27440196
-1.5031774 -2.7333641 -0.27470097
-7.5206361 -13.469499 -1.5074831
-7.6423788 -13.492359 -1.5154564
-7.7418785 -13.474545 -1.5188452
-7.8399439 -13.453437 -1.5219349
-5.0069814 -8.4729519 -0.94805181
-8.01161 -13.368164 -1.5233302
-8.1399956 -13.395281 -1.5323002
-8.2361279 -13.367954 -1.5349913
-8.317997 -13.317166 -1.5349913
-5.0979052 -8.0522575 -0.91685599
-5.2385921 -8.1631756 -0.93379939
-5.2864113 -8.1275425 -0.93340075
-5.3624725 -8.1348257 -0.93818474
-5.6245694 -8.4194593 -0.97645688
-8.8376751 -13.053886 -1.5412703
-8.936183 -13.026489 -1.5445592
-9.0210552 -12.978765 -1.5454563
-9.1245861 -12.957336 -1.5496423
-5.5819712 -7.8250198 -0.92502868
-9.3878269 -12.989542 -1.5675824
-9.4644136 -12.92768 -1.5670841
-9.5162916 -12.832602 -1.5624994
-1.7430147 -2.3221223 -0.25307322
-1.7403598 -2.2892115 -0.25028253
-9.8055487 -12.726197 -1.5714694
-1.7364873 -2.2268932 -0.24509984
-1.7433317 -2.2076094 -0.2440035
-9.9995852 -12.495389 -1.5652901
-10.076067 -12.433798 -1.5652901
-10.131969 -12.347125 -1.5621006
-10.231071 -12.313039 -1.5657884
-1.6359745 -1.9460087 -0.21689406
-1.6736963 -1.9662298 -0.22088075
-10.459879 -12.127152 -1.5663863
-10.53802 -12.067241 -1.5669844
-1.6838983 -1.9060191 -0.21699373
-1.6915796 -1.891203 -0.21639572
-1.6844414 -1.8601452 -0.21360505
-1.6958234 -1.8497746 -0.21360505
-1.7525158 -1.8881769 -0.22028275
-10.957317 -11.652343 -1.564393
-11.021748 -11.577684 -1.5633963
-2.4643855 -2.5583897 -0.31805614
-2.417495 -2.4791267 -0.30908611
-2.4186757 -2.450089 -0.30709279
-3.4975088 -3.499001 -0.45778939
-3.253448 -3.2152598 -0.42041424
-3.3008902 -3.222337 -0.42430127
-3.4166019 -3.2945495 -0.43765664
-3.4064851 -3.2447076 -0.43347064
-11.158328 -10.494977 -1.4966195
-11.22543 -10.429022 -1.4970181
-3.1606369 -2.9016082 -0.39200914
-3.5359604 -3.2062368 -0.44034767
-3.5503774 -3.1798346 -0.43965
-3.4445908 -3.047261 -0.42290592
-3.4542303 -3.0182137 -0.42170992
-3.4274776 -2.957968 -0.41572988
-3.3789093 -2.8800981 -0.40695918
-11.840887 -9.9643078 -1.5123668
-11.898743 -9.8889227 -1.5119681
-3.4121206 -2.801635 -0.40446752
-3.9603212 -3.2110419 -0.47293881
-10.913455 -8.7356329 -1.3624675
-10.994173 -8.6900978 -1.3659558
-11.048073 -8.6230879 -1.3660555
-11.242646 -8.6644545 -1.3839957
-3.9342129 -2.9946647 -0.45749041
-3.9477406 -2.9668827 -0.4568924
-11.243579 -8.3398743 -1.3644608
-11.391684 -8.3418512 -1.3765206
-11.463621 -8.2869511 -1.3791119
-11.541793 -8.236104 -1.3825006
-11.58967 -8.1634111 -1.3822016
-11.629738 -8.08533 -1.3810056
-11.678309 -8.0132561 -1.380906
-3.127032 -2.1185894 -0.34058091
-3.1085336 -2.0783565 -0.33679357
-3.111259 -2.0526714 -0.33559754
-3.1171229 -2.0292017 -0.33480021
-3.1362143 -2.0143368 -0.33559754
-3.1636467 -2.0046372 -0.33739156
-3.2560587 -2.0352666 -0.34685993
-3.3997903 -2.0961533 -0.36230832
-3.4976196 -2.1269281 -0.37227505
-3.5788817 -2.1463492 -0.3802484
-3.6056898 -2.1324496 -0.38184309
-3.6230047 -2.1127903 -0.38234141
-3.6643708 -2.1068792 -0.38563043
-3.656451 -2.0725853 -0.38323843
-13.972572 -7.8034396 -1.5652901
-14.048957 -7.7333908 -1.5685791
-3.9362578 -2.1363413 -0.4108462
-3.9677205 -2.1219983 -0.41293922
-3.9480913 -2.0804584 -0.40925154
-14.307821 -7.4243159 -1.5768514
-8.7295065 -4.4624739 -0.94426441
-8.9780312 -4.5202174 -0.96908152
-7.6701083 -3.803091 -0.81978023
-7.6879339 -3.7533381 -0.81918222
-9.0964842 -4.3718634 -0.9731679
-9.1663141 -4.3363853 -0.97795188
-9.0475121 -4.21246 -0.96190554
-9.1573219 -4.1953993 -0.97117454
-5.7827983 -2.6070333 -0.59762233
-5.7804923 -2.5634375 -0.59562898
-5.8061461 -2.5322945 -0.59672534
-9.3279438 -3.9995887 -0.97884893
-9.2642832 -3.9051845 -0.9692809
-9.3505821 -3.8741579 -0.97605824
-9.3354702 -3.8009562 -0.97187221
-9.3539972 -3.7417562 -0.97137386
-9.5518208 -3.7530437 -0.99021095
-9.3657894 -3.6137955 -0.96778589
-9.4557161 -3.5819838 -0.9750616
-9.4793816 -3.5245905 -0.97526091
-9.5671997 -3.490566 -0.98233724
-9.3729591 -3.3547029 -0.95941383
-9.2065248 -3.2315705 -0.93958008
-9.1979532 -3.1653094 -0.93659008
-9.4727211 -3.1949606 -0.96359986
-7.805666 -2.5796797 -0.78569412
-9.3578482 -3.0288551 -0.9474538
-9.3411598 -2.9602616 -0.94376612
-9.4722452 -2.9379537 -0.95562649
-9.4558153 -2.8693802 -0.95203847
-9.6382742 -2.8602605 -0.9692809
-9.5333195 -2.7655969 -0.95652348
-9.7387047 -2.7604842 -0.9761579
-9.6777811 -2.6791823 -0.96808487
-9.7170925 -2.6259775 -0.97047687
-9.8196173 -2.5891268 -0.97944689
-9.796771 -2.5189195 -0.97546023
-9.8796072 -2.4756827 -0.98243695
-9.8830109 -2.4121861 -0.98124093
-9.8472853 -2.3395455 -0.97605824
-9.8449736 -2.2752726 -0.97436392
-9.9286499 -2.2305174 -0.98153991
-9.9693699 -2.1754911 -0.98433059
-10.263858 -2.1738303 -1.0131344
-10.305269 -2.1166139 -1.0160247
-10.220472 -2.0339324 -1.006058
-10.564966 -2.0351384 -1.0399449
-10.794418 -2.0107026 -1.062071
-10.973036 -1.9743687 -1.0790143
-11.051609 -1.9185683 -1.0857917
-11.068081 -1.8515412 -1.08629
-12.049833 -1.9397429 -1.1847612
-13.256267 -2.0504682 -1.3058566
-13.526473 -2.0073371 -1.3319694
-14.494113 -2.0600407 -1.4286464
-15.464845 -2.101208 -1.5255228
-16.740519 -2.1699088 -1.6530967
-17.53565 -2.1635995 -1.732033
-18.165276 -2.12817 -1.7942253
-19.610994 -2.1755555 -1.938643
-19.653664 -2.0582912 -1.941633
-19.65206 -1.9362948 -1.9402376
-19.564489 -1.8065325 -1.9302709
-19.581154 -1.6869652 -1.9308689
-19.639738 -1.5706697 -1.9357526
-19.603357 -1.4467669 -1.9311678
-19.602932 -1.3258518 -1.9302709
-19.599773 -1.2048746 -1.9291745
-19.602823 -1.0843704 -1.9287759
-19.605133 -0.96387416 -1.9283773
-19.610678 -0.84356117 -1.9283773
-19.613495 -0.72314322 -1.9281778
-19.619553 -0.60284448 -1.9283773
-19.620893 -0.48240101 -1.9281778
-19.622488 -0.36198211 -1.9280782
-19.623344 -0.24156179 -1.9279785
-19.612518 -0.12107764 -1.9267825
-19.603937 -0.00073541387 -1.9258856
-19.590637 0.11947244 -1.9245899
-19.582571 0.23959045 -1.9238923
-19.571777 0.3595773 -1.9229952
-19.567213 0.47961184 -1.9227959
-19.55694 0.59945118 -1.9220982
-19.547922 0.71925581 -1.9215999
-19.534195 0.83880132 -1.9207028
-19.530668 0.9587428 -1.9209021
-19.491632 1.0767496 -1.9176131
-19.463802 1.1950459 -1.9155202
-19.434261 1.3129742 -1.9133275
-17.452608 -0.44441745 -1.9233886
-17.451033 -0.33724499 -1.922942
-17.445818 -0.23006922 -1.9221606
-17.431995 -0.12291392 -1.920486
-17.425465 -0.015944364 -1.9197044
-17.413311 0.0909146 -1.9183648
-17.410437 0.19773643 -1.9181415
-17.386044 0.30416188 -1.9155737
-17.361 0.41029543 -1.9130059
-17.361135 0.51690143 -1.9133408
-17.34572 0.62298989 -1.9120011
-17.349514 0.72974342 -1.9128942
-17.339746 0.83594513 -1.912336
-17.292616 0.94005948 -1.907647
-17.308344 1.0474675 -1.9101032
-17.291676 1.1529888 -1.9089868
-17.263462 1.2575512 -1.9066423
-17.230654 1.3614976 -1.9038513
-17.206133 1.4658481 -1.9020649
-17.188898 1.570672 -1.9011718
-17.165091 1.6747609 -1.8996089
-17.138676 1.7784117 -1.8978225
-17.118551 1.8825617 -1.8968178
-17.085949 1.9851557 -1.8944733
-17.084295 2.0912838 -1.8957013
-17.077057 2.1968322 -1.8963711
-17.046513 2.2993159 -1.8944733
-17.038973 2.40484 -1.8952547
-16.994402 2.5049973 -1.8919055
-16.982639 2.6098294 -1.8923521
-16.926075 2.7075491 -1.8877747
-16.854246 2.8022287 -1.8815228
-16.91214 2.9186027 -1.8901192
-16.89489 3.0224936 -1.8902309
-16.876026 3.1261017 -1.8902309
-16.851648 3.2286575 -1.8896726
-16.822746 3.3302598 -1.8886678
-16.803944 3.4338174 -1.8888911
-16.770887 3.5344009 -1.8875514
-16.763453 3.6404016 -1.8892261
-16.734011 3.7416739 -1.8884445
-16.692337 3.840049 -1.8863233
-16.637514 3.9350803 -1.8827509
-16.599537 4.0338073 -1.8811878
-16.550369 4.12957 -1.8783967
-16.50354 4.2256212 -1.8759407
-16.454233 4.3207488 -1.8732612
-16.368876 4.4058747 -1.866451
-16.396139 4.5212855 -1.8728147
-16.359482 4.6193752 -1.8718098
-16.325102 4.7180128 -1.87114
-16.279644 4.8133035 -1.8692421
-16.237438 4.9093642 -1.8677907
-16.203211 5.0077291 -1.8673441
-16.148489 5.099575 -1.8645531
-16.121624 5.2000895 -1.8651114
-16.103571 5.3035746 -1.866786
-16.072609 5.4029179 -1.8670093
-16.042915 5.5027251 -1.8674558
-16.011663 5.6020436 -1.8677907
-15.989156 5.7045245 -1.8692421
-15.965059 5.8066006 -1.8705817
-15.944971 5.9103222 -1.8724797
-15.933507 6.0175266 -1.875494
-15.942658 6.1330185 -1.8810762
-15.931561 6.2412367 -1.8843138
-15.919733 6.3495488 -1.8875514
-15.890602 6.4512229 -1.8887795
-15.881947 6.5615048 -1.8925754
-15.857877 6.6657619 -1.8945849
-15.828557 6.7680178 -1.8960363
-15.816805 6.8780894 -1.8997204
-15.80157 6.9870658 -1.9030697
-15.807345 7.1058917 -1.9090984
-15.790564 7.2151394 -1.9124477
-15.751403 7.3144035 -1.9131175
-15.738581 7.4261799 -1.9171367
-15.711536 7.531631 -1.9194812
-15.67843 7.634419 -1.9211558
-15.651778 7.7406077 -1.9237236
-15.629742 7.8494325 -1.9269612
-15.594563 7.9519582 -1.9286358
-15.551656 8.0506926 -1.9294174
-15.554747 8.1736984 -1.9361159
-15.554281 8.2956419 -1.9424795
-15.538919 8.4103184 -1.9470568
-15.506186 8.5160284 -1.949513
-15.47187 8.62117 -1.9518574
-15.435118 8.7252321 -1.9539787
-15.402843 8.8321333 -1.9567697
-15.452303 8.986927 -1.9702784
-15.39687 9.0815716 -1.9702784
-15.306743 9.1554708 -1.9658127
-15.24263 9.2445803 -1.964808
-15.340533 9.4331884 -1.9852386
-15.292483 9.5334463 -1.9865782
-15.23706 9.6292238 -1.9870248
-15.177689 9.7225351 -1.9870248
-15.136917 9.8279266 -1.9895926
-15.087121 9.927721 -1.9910439
-15.042458 10.031134 -1.9932767
-15.001209 10.137154 -1.9960679
-14.998584 10.269992 -2.0042176
-14.954065 10.374857 -2.0067854
-14.917767 10.485847 -2.0105813
-14.874193 10.592171 -2.013484
-14.817786 10.689632 -2.0147121
-14.763952 10.789146 -2.0163867
-14.722234 10.897861 -2.0198476
-14.671786 11.000508 -2.0221922
-14.611135 11.095735 -2.0231969
-14.567197 11.203959 -2.0266578
-14.526401 11.315113 -2.0306768
-14.484787 11.426189 -2.0346961
-14.450121 11.543381 -2.0398316
-14.396017 11.645577 -2.0422878
-14.351966 11.75636 -2.0463068
-14.290269 11.853083 -2.0478699
-14.224119 11.946295 -2.0488746
-14.167206 12.04751 -2.0513308
-14.114103 12.152367 -2.0544567
-14.067738 12.263554 -2.0586991
-14.016067 12.370684 -2.0622718
-13.971762 12.484923 -2.0670724
-13.917738 12.591084 -2.0705333
-13.855608 12.690339 -2.0728779
-13.768737 12.767009 -2.071538
-13.734338 12.892739 -2.0783482
-13.578612 12.904206 -2.0665143
-13.469816 12.959033 -2.0619369
-13.37225 13.024104 -2.0591457
-13.280762 13.094747 -2.0573595
-13.18469 13.160544 -2.0549033
-13.079225 13.216475 -2.0509958
-12.986074 13.284399 -2.049098
-12.862209 13.320224 -2.0422878
-12.812473 13.432691 -2.0475349
-12.671885 13.449575 -2.0380454
-12.589122 13.527076 -2.0380454
-12.503194 13.60114 -2.0375988
-12.405475 13.662152 -2.0352542
-12.307477 13.722479 -2.0329099
-12.183508 13.753107 -2.0262113
-12.108052 13.838076 -2.0277743
-12.005371 13.891808 -2.02476
-11.922487 13.968233 -2.0252066
-11.825027 14.02745 -2.0231969
-11.723473 14.081413 -2.0205176
-11.644423 14.162293 -2.0218573
-11.554174 14.229618 -2.0212989
-11.443643 14.271561 -2.0171683
-11.363262 14.350858 -2.018508
-11.263974 14.406219 -2.0164983
-11.189943 14.493941 -2.0191779
-11.095377 14.555216 -2.018173
-11.014226 14.634137 -2.0197361
-10.939635 14.722182 -2.0226388
-10.836164 14.771402 -2.0201826
-10.715014 14.795761 -2.0143771
-10.613047 14.845869 -2.0122559
-10.520608 14.909086 -2.0120327
-10.404507 14.938295 -2.007232
-10.312651 15.001855 -2.007232
-10.189163 15.018799 -2.0009801
-10.090183 15.071126 -1.9996403
-9.9860153 15.115343 -1.9972959
-9.8838549 15.162179 -1.9953979
-9.7728958 15.194959 -1.9917138
-9.7007751 15.288201 -1.9961795
-9.5588026 15.270784 -1.98602
-9.4591799 15.319848 -1.984792
-9.3608656 15.370811 -1.9838988
-9.2597246 15.416883 -1.9824475
-9.1639404 15.4717 -1.9822242
-9.0783587 15.543941 -1.9843453
-8.9738855 15.583852 -1.9823358
-8.8722076 15.628251 -1.9809961
-8.7746916 15.679794 -1.9806612
-8.6639175 15.707235 -1.9773118
-8.5336781 15.698112 -1.9693853
-8.4475193 15.769449 -1.9718415
-8.3417864 15.804288 -1.9697202
-8.2309017 15.828725 -1.9663709
-8.1322641 15.876277 -1.9660361
-8.03022 15.917005 -1.9649196
-7.9244447 15.949959 -1.9629101
-7.8146372 15.97418 -1.9598957
-7.6970692 15.981541 -1.9548718
-7.5831118 15.995244 -1.9507411
-7.481462 16.034267 -1.9498479
-7.384181 16.082581 -1.9501828
-7.2882247 16.133926 -1.9509643
-7.1810207 16.160179 -1.9487314
-7.0793405 16.198473 -1.9480616
-6.976284 16.233389 -1.9470568
-6.8734522 16.268566 -1.9461637
-6.7735004 16.310434 -1.9461637
-6.6774249 16.361811 -1.9473917
-6.579124 16.408009 -1.9480616
-6.4786868 16.448994 -1.9481733
-6.3711824 16.471752 -1.9461637
-6.2572923 16.477091 -1.9421445
-6.157114 16.517969 -1.9424795
-6.0546217 16.552637 -1.9421445
-5.9620056 16.614731 -1.945159
-5.8655558 16.666935 -1.9470568
-5.7664208 16.712006 -1.9481733
-5.6631322 16.745192 -1.94795
-5.5562153 16.767361 -1.9464986
-5.446785 16.781288 -1.9441541
-5.3500357 16.834282 -1.9464986
-5.2407379 16.847815 -1.9442657
-5.1404462 16.890112 -1.9454938
-5.0350122 16.915619 -1.944824
-4.9314032 16.947149 -1.9449356
-4.821888 16.957972 -1.9427028
-4.7161493 16.981495 -1.9420329
-4.6058826 16.988052 -1.9394652
-4.4952049 16.991978 -1.9366741
-4.38937 17.013466 -1.9360043
-4.2865911 17.046824 -1.9367857
-4.1847506 17.084389 -1.9381254
-4.0789218 17.105877 -1.9376788
-3.9750082 17.135424 -1.9382371
-3.3299677 14.766047 -1.6625921
-3.1908092 14.564878 -1.6371375
-3.0931118 14.545301 -1.6326718
-2.9387589 14.248671 -1.5964998
-2.8454316 14.2372 -1.5931505
-2.7634954 14.282685 -1.5963881
-2.6721504 14.279837 -1.5941553
-2.5632629 14.178617 -1.5807582
-2.457427 14.086392 -1.5684775
-2.3772106 14.138446 -1.5727199
-2.2899377 14.149823 -1.572385
-2.1758811 13.988823 -1.5525126
-2.0426109 13.684448 -1.5164522
-1.9560735 13.679016 -1.5144426
-1.8696799 13.673038 -1.5124331
-1.7827903 13.66159 -1.5098653
-1.697705 13.66241 -1.5087489
-1.6183863 13.711058 -1.5131029
-1.5832704 14.159221 -1.5626721
-1.4921854 14.129139 -1.5582064
-1.4061508 14.144951 -1.558988
-1.353562 14.5204 -1.6004072
-1.3291695 15.271925 -1.6842507
-1.1895326 14.712229 -1.6202796
-1.1498773 15.397086 -1.696643
-1.0413147 15.198627 -1.673533
-1.0065032 16.142 -1.7790351
-0.90799665 16.157795 -1.7801515
-0.72202522 14.429155 -1.5851122
-0.63330156 14.429342 -1.5846657
-0.60626715 16.061543 -1.7677592
-0.47792274 15.123358 -1.6619222
-0.38319424 15.050506 -1.6534374
-0.28943554 14.980043 -1.6452875
-0.19902387 15.095808 -1.6581264
-0.10491774 14.888063 -1.6346815
-0.013817903 15.158727 -1.6650481
0.078900129 15.101883 -1.6586846
0.17357807 15.278984 -1.6786685
0.27975434 15.989046 -1.7586045
0.38468164 16.276129 -1.7910924
0.47984421 16.115526 -1.7733413
0.53070372 14.774561 -1.622959
0.6219331 14.784926 -1.624522
0.71397918 14.808625 -1.627648
0.77436537 14.243324 -1.5645701
0.85124499 14.064716 -1.5450326
0.93455428 14.014608 -1.5400087
1.0380672 14.249454 -1.5671378
1.1054474 13.989206 -1.5385574
1.1884798 13.949485 -1.5348731
1.2735074 13.935992 -1.5342033
1.357546 13.91308 -1.5325286
1.4475039 13.948968 -1.5375526
1.544904 14.047494 -1.5497216
1.6154742 13.903502 -1.5345383
1.7014784 13.899247 -1.5352081
1.7904069 13.917129 -1.5384457
1.8752358 13.901941 -1.5379992
1.9570298 13.865574 -1.5352081
2.0438092 13.865102 -1.5365478
2.135184 13.893554 -1.5412368
2.2240028 13.902761 -1.5438045
2.3078001 13.88003 -1.5427998
2.4001889 13.907717 -1.5476004
2.5855684 14.452271 -1.6114599
2.5708582 13.878193 -1.5477121
2.6559649 13.862157 -1.5477121
2.7450235 13.866071 -1.5500566
2.8352246 13.874281 -1.5529592
2.9190729 13.850789 -1.5522894
3.0253024 13.9307 -1.5635653
3.1287186 13.992369 -1.5728316
3.5377524 15.37814 -1.7348247
3.3132274 14.008044 -1.5791951
3.7705455 15.516077 -1.7559251
3.8389776 15.385624 -1.7435328
3.9126065 15.280911 -1.7341548
3.7551858 14.300254 -1.6230706
3.8828907 14.425682 -1.6403753
3.9406908 14.290457 -1.6274247
4.0428824 14.317652 -1.6334534
4.1452794 14.343174 -1.6393704
4.2661724 14.428967 -1.6524326
4.3267317 14.310249 -1.6416032
4.3704448 14.141015 -1.6248569
4.4445629 14.074132 -1.620168
4.544868 14.090101 -1.6253035
4.7596126 14.451774 -1.6714118
4.8709941 14.490118 -1.67945
4.9578781 14.454317 -1.6787802
4.9493403 14.145976 -1.6457341
5.0360451 14.115341 -1.6457341
5.1354671 14.119663 -1.6499765
5.5176406 14.88551 -1.7455423
5.4944215 14.548303 -1.709147
5.5896497 14.530084 -1.7110448
5.5848222 14.255863 -1.6821295
5.7093706 14.314554 -1.6934054
5.8479309 14.404478 -1.7085887
6.0014668 14.526299 -1.7277912
6.0519795 14.397591 -1.716627
6.1531 14.390338 -1.7203112
6.2571325 14.388765 -1.7247769
6.3477135 14.355555 -1.7254467
6.4515676 14.351685 -1.7298007
6.5262909 14.282905 -1.7262282
6.7083912 14.44629 -1.7514594
6.8159876 14.445299 -1.7564833
6.8993392 14.392451 -1.7551435
6.9870849 14.348953 -1.7550319
7.0745564 14.304921 -1.7549202
7.172008 14.28078 -1.7573764
7.2658176 14.248899 -1.7589394
7.3805203 14.257 -1.765638
7.4276462 14.134912 -1.7559251
7.606359 14.261809 -1.7779186
7.6960897 14.219238 -1.7784768
7.8061533 14.213558 -1.7838356
7.9115992 14.19838 -1.7880781
8.023509 14.193689 -1.7937719
8.1173697 14.15626 -1.7953348
8.2225628 14.137971 -1.7994657
8.3530779 14.16172 -1.8091785
8.4081898 14.057324 -1.8022567
8.5231438 14.053051 -1.8085086
8.6305523 14.035196 -1.8130859
8.7491016 14.034262 -1.8200078
8.8722095 14.039119 -1.8278228
8.9967775 14.044665 -1.835861
9.1239109 14.052543 -1.8443458
9.2531166 14.061877 -1.8531656
9.3695478 14.05031 -1.8593059
9.4984236 14.055957 -1.8679024
9.635581 14.072027 -1.8780619
9.7551641 14.060813 -1.8846487
9.8955431 14.077928 -1.8952547
10.026698 14.080085 -1.9039629
10.153019 14.073907 -1.9116662
10.274949 14.060287 -1.9184763
10.411282 14.06487 -1.927966
10.551633 14.073077 -1.9381254
10.688268 14.074548 -1.9475034
10.819863 14.06778 -1.9558766
10.957273 14.066981 -1.9652545
11.100616 14.072045 -1.9756373
11.257458 14.092182 -1.9883645
11.401836 14.094696 -1.9987472
11.597044 14.157468 -2.0180614
11.718587 14.128112 -2.0242016
11.843401 14.101601 -2.0309002
11.92906 14.027908 -2.0307887
12.044086 13.988338 -2.0358126
12.095735 13.875221 -2.0300071
12.181301 13.801487 -2.0301187
12.26377 13.72426 -2.0297837
12.325749 13.624434 -2.0260997
12.350723 13.484791 -2.0163867
12.41634 13.390537 -2.0135956
12.493508 13.309028 -2.0128143
12.539339 13.19466 -2.0070088
12.59595 13.092406 -2.0031013
12.660793 12.99921 -2.0006452
12.722176 12.902883 -1.9977424
12.785663 12.809104 -1.9952863
12.845653 12.712236 -1.9923836
12.907067 12.617201 -1.9898158
12.963511 12.517748 -1.9865782
12.994773 12.394757 -1.9795448
13.027908 12.274583 -1.9729578
13.080428 12.173426 -1.969497
13.135856 12.07545 -1.9665942
13.174388 11.962557 -1.9612354
13.226088 11.862252 -1.9579978
13.280028 11.764401 -1.9552068
13.336258 11.668953 -1.9528623
13.355727 11.542068 -1.945159
13.430077 11.463127 -1.9457171
13.473567 11.358088 -1.9418097
13.520095 11.256125 -1.9384604
13.571252 11.15844 -1.9358926
13.624035 11.062429 -1.9336598
13.693981 10.980491 -1.9339947
13.757982 10.893792 -1.9335481
13.808909 10.796927 -1.9313153
13.856807 10.698026 -1.9287474
13.892947 10.590509 -1.9246167
13.934642 10.487734 -1.9213791
13.953266 10.36825 -1.9150155
14.013417 10.280087 -1.9145689
14.058524 10.181086 -1.9121127
14.090818 10.073249 -1.907982
14.138558 9.9768591 -1.9060841
14.167707 9.8677673 -1.9017301
14.207516 9.7665768 -1.898939
14.255662 9.6714058 -1.8973759
14.300698 9.5743542 -1.895478
14.339277 9.473279 -1.8927987
14.376322 9.3715496 -1.8900076
14.403466 9.2638083 -1.8859885
14.434025 9.1587505 -1.8825275
14.469735 9.0573578 -1.8798481
14.517427 8.9637041 -1.8788433
14.561121 8.8677378 -1.8773919
14.595665 8.7664566 -1.8748242
14.63037 8.6655922 -1.8723681
14.660096 8.5621271 -1.8693538
14.682217 8.4546556 -1.8654462
14.70962 8.3506708 -1.8623203
14.733699 8.2452126 -1.8588593
14.756168 8.1392927 -1.8552868
14.784879 8.0372066 -1.8526074
14.813768 7.9355435 -1.8500396
14.845483 7.8356848 -1.8479184
14.880939 7.7380285 -1.8463554
14.906912 7.6357012 -1.843676
14.943724 7.5391665 -1.8424479
14.964784 7.4349504 -1.839322
14.98602 7.3311973 -1.8363075
15.006548 7.2274637 -1.8332932
15.040735 7.1305661 -1.8320652
15.048182 7.0213356 -1.8275995
15.067501 6.918088 -1.8246968
15.106949 6.8242779 -1.8243618
15.132192 6.7241907 -1.8223523
15.153133 6.6224589 -1.8198961
15.173396 6.5207243 -1.81744
15.190236 6.4178295 -1.814649
15.272464 6.3424177 -1.8198961
15.331334 6.2568493 -1.8223523
15.396185 6.1733861 -1.8255899
15.447643 6.0842638 -1.8272645
15.480051 5.9875717 -1.8267063
15.51557 5.8921223 -1.8265947
15.546775 5.795074 -1.8260365
15.578307 5.6982064 -1.8255899
15.63262 5.609561 -1.8279344
15.68643 5.5204639 -1.8302789
15.728462 5.4270272 -1.8312837
15.766172 5.3320088 -1.8318419
15.804253 5.2370448 -1.8325118
15.777486 5.1209507 -1.8255899
15.82187 5.0282598 -1.827153
15.842936 4.9281321 -1.8260365
15.862418 4.8276458 -1.8248085
15.909838 4.7356119 -1.8269296
15.95577 4.6429 -1.8289392
15.983959 4.54491 -1.8289392
16.019205 4.4488759 -1.8298323
16.047161 4.3507605 -1.829944
16.084122 4.2550106 -1.831172
16.118587 4.1584749 -1.8321768
16.145727 4.0599794 -1.8324001
16.137518 3.9527955 -1.8286042
16.202066 3.863385 -1.8332932
16.240955 3.7674918 -1.8350796
16.267645 3.6686428 -1.8355261
16.296644 3.570246 -1.8363075
16.315327 3.4695644 -1.8359727
16.336309 3.36939 -1.8359727
16.351803 3.268115 -1.8354144
16.388134 3.1709304 -1.8373123
16.424864 3.0736055 -1.839322
16.456127 2.9750652 -1.8407732
16.461346 2.8718157 -1.839322
16.497276 2.7738881 -1.8414432
16.521833 2.6738808 -1.8423363
16.546768 2.5738292 -1.8433411
16.568146 2.4731321 -1.8440109
16.583992 2.3715661 -1.8441225
16.582478 2.2676094 -1.8423363
6.6091542 0.86226219 -0.71084082
6.6281271 0.82340896 -0.71240377
6.5600243 0.77410173 -0.70414227
6.5567498 0.73295194 -0.7032491
6.5551944 0.69208026 -0.70257926
6.5563507 0.65155035 -0.70224434
6.5513201 0.6104787 -0.70123953
6.5490026 0.56975192 -0.70056969
6.5375175 0.5283556 -0.69889504
6.5079341 0.48578903 -0.69521087
6.5088091 0.44571206 -0.6949876
6.498528 0.40496209 -0.69353622
6.4959297 0.36480132 -0.69297802
6.5040007 0.32523435 -0.69364786
6.5108376 0.28553843 -0.69420606
6.50353 0.24524572 -0.6932013
6.5138516 0.20561893 -0.69420606
6.517971 0.16572279 -0.69454104
6.5297942 0.12593761 -0.69576907
6.5344186 0.085921675 -0.69621563
6.5447602 0.045895919 -0.69733208
6.5280247 0.0057213143 -0.69543415
6.5597363 -0.034499291 -0.69900668
6.5603948 -0.074759692 -0.69911832
6.5717359 -0.11522042 -0.70045805
6.5748792 -0.15563549 -0.70090461
6.5847268 -0.19630033 -0.7021327
6.572474 -0.23630765 -0.70090461
6.5996938 -0.27784157 -0.70414227
6.6127539 -0.31904873 -0.70581686
6.6245637 -0.36037269 -0.70737988
6.6440501 -0.40233362 -0.70983601
6.684093 -0.44593513 -0.71463662
6.6772666 -0.48665085 -0.71419007
14.408257 -1.1385492 -1.5857821
14.708941 -1.2531625 -1.6205028
14.673265 -1.3408599 -1.6173769
14.628166 -1.4272985 -1.6132461
14.577619 -1.5127215 -1.6085571
14.542379 -1.5993159 -1.6056545
10.59372 -1.2310009 -1.1602013
10.583008 -1.2956173 -1.1598665
10.576831 -1.3607826 -1.1600897
10.563357 -1.4249911 -1.1595315
10.575079 -1.4926958 -1.161876
10.567687 -1.557845 -1.1620992
13.825781 -2.1247706 -1.5335335
13.803651 -2.2081516 -1.5325286
13.810429 -2.2962298 -1.5348731
14.024251 -2.4202967 -1.5608858
13.938704 -2.4937038 -1.5528476
13.894804 -2.5739348 -1.54961
14.28379 -2.7367363 -1.5959415
14.262829 -2.8235567 -1.595495
13.313469 -2.7206385 -1.4886532
14.21252 -2.9952972 -1.5938203
14.202614 -3.0843451 -1.5948251
14.177602 -3.1701317 -1.5941553
14.154978 -3.2563958 -1.5938203
14.134731 -3.3431878 -1.5938203
8.2901096 -2.0147641 -0.92050517
8.273735 -2.064631 -0.92005861
13.865744 -3.550298 -1.5700405
13.945582 -3.662061 -1.5818746
7.6403365 -2.0567083 -0.85095197
7.6246986 -2.1027575 -0.85061705
14.018312 -3.9583662 -1.5985093
13.992805 -4.0440302 -1.5983977
8.0163994 -2.3703732 -0.90119106
7.9646068 -2.4083009 -0.896837
7.9439831 -2.4553649 -0.89616716
7.9287677 -2.5040619 -0.89616716
8.4599104 -2.728977 -0.96069646
13.686283 -4.5075254 -1.5808698
13.638587 -4.5847688 -1.5785253
13.584819 -4.6596627 -1.575511
7.7403545 -2.708359 -0.88332826
13.4742 -4.8073196 -1.569259
13.433243 -4.8858294 -1.5679193
13.379716 -4.9595284 -1.5651282
13.32951 -5.0341587 -1.5627837
13.295588 -5.1147819 -1.5624489
13.246373 -5.1893792 -1.5603276
13.188437 -5.260252 -1.5572016
13.133814 -5.3321047 -1.5545223
13.068703 -5.399312 -1.5506147
13.005095 -5.4666915 -1.5469306
12.953033 -5.5385728 -1.5446976
12.890554 -5.6056623 -1.5412368
12.861369 -5.6870632 -1.5419066
12.820794 -5.7634273 -1.5412368
12.773438 -5.836617 -1.5397854
12.719358 -5.9065132 -1.5375526
12.654118 -5.9708772 -1.53398
12.586775 -6.0338044 -1.5301841
12.527179 -6.1000462 -1.5273931
12.478825 -6.1715102 -1.5260534
12.438058 -6.2466249 -1.5257185
12.333982 -6.2894216 -1.517457
12.284569 -6.3595014 -1.5161172
12.240038 -6.4319849 -1.5154474
12.189819 -6.5013556 -1.5141077
12.113866 -6.5566354 -1.5095303
12.045534 -6.6155343 -1.5059578
12.006452 -6.6902871 -1.5061811
11.950468 -6.755518 -1.5042832
11.921723 -6.836132 -1.5059578
11.867526 -6.9021597 -1.5043948
11.81896 -6.9713135 -1.5036134
11.781933 -7.0472727 -1.5043948
11.709579 -7.101912 -1.5005989
11.64716 -7.1621757 -1.4981428
11.58697 -7.2235179 -1.4960216
11.529829 -7.2865152 -1.494347
11.466494 -7.3453317 -1.4918909
11.414539 -7.4112215 -1.4909977
11.349756 -7.4685569 -1.4884299
11.280566 -7.5226202 -1.485304
11.244077 -7.598371 -1.4866437
11.185763 -7.6593604 -1.4850807
11.125491 -7.7187877 -1.4832944
11.079546 -7.7880502 -1.4835176
11.021028 -7.848393 -1.4820663
10.955739 -7.9036598 -1.4797218
10.890187 -7.9584217 -1.4773773
10.839553 -8.0239105 -1.477154
10.782164 -8.0843086 -1.4760376
10.715736 -8.1376934 -1.4736931
10.653 -8.1935978 -1.4719069
10.62134 -8.2734642 -1.4745862
10.575056 -8.3421726 -1.4752561
10.536094 -8.4168272 -1.4770424
10.468799 -8.4688168 -1.4748095
10.407413 -8.5253363 -1.4734699
10.346492 -8.582056 -1.4722418
10.273092 -8.6281242 -1.4692274
10.220715 -8.6916399 -1.4693391
10.154389 -8.7431669 -1.4674412
10.087816 -8.7942076 -1.4655433
10.033666 -8.8559399 -1.4655433
9.9798794 -8.9180002 -1.4656549
9.9131804 -8.968401 -1.4638686
9.8455067 -9.0176487 -1.4619707
9.7739582 -9.0630255 -1.4595146
9.7080212 -9.1133051 -1.4579515
9.6612844 -9.1815996 -1.4594029
9.6076298 -9.2434635 -1.4598495
9.5443249 -9.2960005 -1.4588447
9.4715385 -9.3390388 -1.4563886
9.413353 -9.3962774 -1.4562769
9.3604145 -9.4588041 -1.4570584
9.3070631 -9.5210342 -1.45784
9.246397 -9.5758181 -1.457505
7.0206938 -7.3608103 -1.1048267
9.1220579 -9.6820545 -1.4565002
9.0509682 -9.7254782 -1.4546024
8.9904509 -9.7800989 -1.4544907
8.9382887 -9.8439074 -1.4558303
8.8850183 -9.9067039 -1.4570584
6.7324853 -7.6001019 -1.1027055
6.6713285 -7.6248159 -1.1002494
6.541894 -7.5701199 -1.0860708
2.1281688 -2.4938447 -0.33036357
2.1083431 -2.5015376 -0.3295821
2.0885034 -2.5090811 -0.32880059
2.0787489 -2.5287571 -0.32980537
2.0544238 -2.5306642 -0.32824236
2.0401006 -2.5447729 -0.32846567
2.0262985 -2.5595798 -0.32880059
2.0050459 -2.5649192 -0.3277958
1.977124 -2.5614421 -0.32556295
1.9300418 -2.5324297 -0.31975755
1.9025146 -2.5283451 -0.3175247
1.8863724 -2.5391734 -0.31741306
1.8707569 -2.5507002 -0.31741306
1.8690603 -2.5814471 -0.32009247
1.8641665 -2.6082265 -0.32221368
1.8647437 -2.643162 -0.32545131
1.9081281 -2.740175 -0.33717376
1.8845233 -2.7420046 -0.33583406
1.8676631 -2.7535162 -0.33583406
1.8606845 -2.7797875 -0.33784363
1.8452364 -2.7936397 -0.33817855
1.8296883 -2.8074067 -0.33851346
7.2054191 -11.203226 -1.4585098
7.1376066 -11.248905 -1.4587331
7.0552683 -11.271431 -1.455942
6.9708343 -11.289988 -1.4527044
6.8957429 -11.323212 -1.4514763
6.8307405 -11.372977 -1.4524812
6.7552576 -11.405271 -1.4512531
6.6731205 -11.425911 -1.4485736
6.6133008 -11.484725 -1.4509181
6.5520296 -11.541507 -1.4530393
6.4704118 -11.562414 -1.4505832
6.4051042 -11.61234 -1.4519229
6.3422751 -11.667138 -1.4539324
6.2658749 -11.697074 -1.452816
6.1828518 -11.714209 -1.4501367
6.092977 -11.717541 -1.4457825
6.0182467 -11.749399 -1.4451127
5.9415641 -11.777233 -1.4439963
5.8753791 -11.825928 -1.4455593
5.8227944 -11.902817 -1.4506948
5.7681932 -11.976819 -1.4554955
5.7086453 -12.041619 -1.4591796
5.626668 -12.05931 -1.4570584
5.5484209 -12.084577 -1.455942
5.4827585 -12.137411 -1.4582865
5.3980923 -12.148122 -1.4554955
5.2912149 -12.107258 -1.4464524
5.1932836 -12.084717 -1.4397539
5.0795841 -12.022985 -1.4283663
5.0068603 -12.05668 -1.4287013
4.9406734 -12.106495 -1.4310458
4.8466935 -12.087698 -1.4251287
4.7564092 -12.076527 -1.4202164
4.6825781 -12.106411 -1.4203281
4.5997386 -12.112618 -1.4176487
4.5156112 -12.114542 -1.4145226
4.4316335 -12.11589 -1.4113967
4.3551946 -12.137241 -1.4107269
4.2845988 -12.174984 -1.4120666
4.2098141 -12.201045 -1.4120666
4.1323233 -12.219115 -1.4111735
4.0550823 -12.237638 -1.4103919
3.9811444 -12.266069 -1.4108385
3.9052043 -12.288372 -1.4106152
3.8232367 -12.291227 -1.408159
3.7445641 -12.303997 -1.406931
3.6701317 -12.330551 -1.4073776
3.5974584 -12.363335 -1.4086057
3.5228896 -12.389955 -1.4091638
3.4462681 -12.409423 -1.4089406
3.3700604 -12.430335 -1.4089406
3.2998261 -12.473836 -1.41162
3.2386189 -12.553507 -1.4185418
3.1654088 -12.588562 -1.4203281
3.083142 -12.587479 -1.4179837
3.0067706 -12.610026 -1.4184302
2.9378746 -12.665023 -1.4226726
2.8616388 -12.689597 -1.423454
2.7792566 -12.686532 -1.4211096
2.6939189 -12.668354 -1.4170904
2.6117198 -12.663234 -1.4146343
2.5285165 -12.651735 -1.4115083
2.4463081 -12.643596 -1.408829
2.3694136 -12.662275 -1.4092755
2.2932661 -12.685376 -1.4102802
2.2147038 -12.695293 -1.4098337
2.1347876 -12.696883 -1.408494
2.0543001 -12.694047 -1.4067078
1.9762195 -12.705432 -1.4065961
1.8991036 -12.723215 -1.4072659
0.3917506 -2.7418256 -0.27320269
0.37532368 -2.7471313 -0.27353761
0.36347669 -2.7878127 -0.27789167
0.347835 -2.8018246 -0.27923137
0.23054838 -1.9561641 -0.18333057
0.3139784 -2.8108199 -0.2797896
0.20130599 -1.9094335 -0.17774846
0.18968447 -1.9116216 -0.1778601
0.26772296 -2.8754904 -0.28648812
0.25843465 -2.9731092 -0.29731745
0.63017988 -7.7964606 -0.84079254
0.14463869 -1.9414666 -0.1807628
0.13381059 -1.9581803 -0.18254907
0.13101122 -2.1067457 -0.19918379
0.10921282 -1.9497532 -0.18143265
0.10569495 -2.1191125 -0.20041186
0.10577069 -2.4175584 -0.23390457
0.089396983 -2.3774474 -0.22932723
0.1159924 -3.6801043 -0.37569037
0.092776537 -3.655911 -0.37289932
0.070534781 -3.666347 -0.37401575
0.047603976 -3.63392 -0.37033156
0.02517923 -3.6162567 -0.36832199
0.0029991453 -3.6262805 -0.36943841
-0.068461075 -13.093544 -1.4330553
-0.0419291 -3.6638043 -0.37368083
-0.23201554 -13.256656 -1.4515879
-0.086042047 -3.627249 -0.36966169
-0.10776489 -3.6087732 -0.36765212
-0.13101089 -3.6388304 -0.37111303
-0.55256385 -13.134774 -1.4389724
-0.63391215 -13.147018 -1.4407587
-0.72120088 -13.264932 -1.4544907
-0.23059398 -3.8051322 -0.39031553
-0.25149208 -3.7669582 -0.38618475
-0.27229136 -3.7336283 -0.3826122
-0.29691696 -3.7536819 -0.38506836
-0.31834123 -3.7329762 -0.38294715
-0.34151155 -3.7339215 -0.38328207
-1.2986952 -13.309757 -1.4644269
-1.3761337 -13.261011 -1.4598495
-1.4509593 -13.19305 -1.453151
-1.535323 -13.213512 -1.4565002
-0.35991564 -2.9375095 -0.29452637
-0.37932757 -2.9460878 -0.29575443
-1.7910308 -13.277557 -1.4672179
-1.8757992 -13.289934 -1.4698973
-1.959193 -13.290955 -1.4713486
-2.0428207 -13.292434 -1.4729116
-0.49055031 -3.0645566 -0.31071451
-0.50934482 -3.0614891 -0.31071451
-2.306746 -13.366177 -1.4858621
-2.378917 -13.29699 -1.4796102
-2.4610038 -13.285075 -1.4799451
-2.5351813 -13.231661 -1.4755911
-0.5470584 -2.7617221 -0.27833822
-0.56638092 -2.7699971 -0.27967793
-0.5813176 -2.7567456 -0.2785615
-0.59041965 -2.7171955 -0.27443075
-0.60708094 -2.7135217 -0.27443075
-3.0425382 -13.225259 -1.4866437
-3.1284325 -13.226649 -1.4889882
-3.2172737 -13.239072 -1.4926723
-3.3003709 -13.226795 -1.4935654
-3.3797417 -13.199556 -1.492784
-0.73758835 -2.8075616 -0.28816277
-0.75196046 -2.7924275 -0.2869347
-3.6535633 -13.249112 -1.5060694
-3.7072475 -13.128896 -1.494682
-0.80157721 -2.7723851 -0.28626484
-0.80899411 -2.7350135 -0.282469
-0.94107932 -3.1114404 -0.32723761
-4.0383062 -13.066242 -1.4984777
-4.1288762 -13.074385 -1.5023853
-4.2318993 -13.119738 -1.5107584
-4.328795 -13.14355 -1.5166755
-4.4147434 -13.132755 -1.5185734
-4.5332837 -13.216339 -1.5317472
-4.602479 -13.154507 -1.5277281
-4.6684146 -13.084836 -1.5228158
-1.1731963 -3.224725 -0.3475565
-1.1515168 -3.1056492 -0.3341594
-1.1586144 -3.0669165 -0.33036357
-1.1938225 -3.1024144 -0.33549914
-5.1063757 -13.034482 -1.5347615
-1.2921773 -3.2389107 -0.35380846
-1.2682936 -3.1231906 -0.34074631
-1.240384 -3.0014608 -0.32690266
-5.403542 -12.854853 -1.5286212
-1.3193157 -3.0846968 -0.33896005
-1.3461436 -3.09477 -0.3411929
-5.6042809 -12.674142 -1.5189083
-5.6864243 -12.649487 -1.5201364
-5.7626939 -12.611645 -1.5198015
-5.8362021 -12.567937 -1.5187967
-5.9187202 -12.543573 -1.5202481
-1.3302776 -2.7742898 -0.30770019
-1.3572811 -2.7866249 -0.31026796
-1.3615792 -2.7524116 -0.30703032
-1.3882533 -2.7635427 -0.30948645
-6.332757 -12.418972 -1.5281746
-6.3946772 -12.352523 -1.5247138
-1.4564509 -2.7709498 -0.31372887
-1.4650085 -2.7461779 -0.3117193
-6.6077194 -12.208254 -1.5215877
-6.7308168 -12.255455 -1.5328636
-6.847002 -12.287713 -1.5423532
-6.9183569 -12.238548 -1.54146
-6.9864006 -12.183798 -1.5398971
-4.95228 -8.5146904 -1.0686547
-7.1384177 -12.102283 -1.5405669
-7.2237635 -12.077017 -1.5430231
-7.3028836 -12.040962 -1.5441395
-7.3771486 -11.996773 -1.5442511
-7.4695458 -11.981641 -1.5482702
-5.1540298 -8.1552668 -1.0458796
-5.2243409 -8.1552868 -1.050122
-5.2748237 -8.1239109 -1.0502336
-5.3425975 -8.1187878 -1.0539178
-5.6222143 -8.430624 -1.1004727
-8.0206671 -11.86903 -1.5713803
-8.0989571 -11.827793 -1.5724967
-8.1753435 -11.783591 -1.5732782
-8.2543497 -11.742963 -1.5746179
-8.3078022 -11.66619 -1.5710453
-8.4222507 -11.674634 -1.5793068
-8.5054531 -11.638783 -1.5815396
-1.7202564 -2.323374 -0.28682306
-8.7215567 -11.632124 -1.5953833
-8.6990118 -11.454928 -1.5779672
-8.7642879 -11.395035 -1.5770739
-1.7126385 -2.198138 -0.27510059
-1.6707034 -2.1173673 -0.2650528
-1.6880054 -2.1125112 -0.26583427
-8.5381899 -10.554559 -1.4872019
-8.6355352 -10.541946 -1.4930073
-1.6384207 -1.9747629 -0.25031599
-1.6684014 -1.9859802 -0.25344199
-8.8474274 -10.40392 -1.4963566
-1.6777339 -1.9480358 -0.25087422
-1.6896553 -1.9377047 -0.25087422
-1.7159797 -1.9436923 -0.25333035
-9.1067095 -10.191071 -1.497473
-2.4043722 -2.657222 -0.36463779
-2.4246583 -2.6468163 -0.36530763
-1.7172184 -1.8514425 -0.24573866
-2.4814408 -2.6429465 -0.36932677
-2.5160937 -2.6471205 -0.37234113
-9.4983788 -9.8726044 -1.5011572
-9.5580835 -9.813426 -1.5010456
-9.6257925 -9.7623777 -1.5022736
-3.245821 -3.2513466 -0.47817808
-9.8190317 -9.716917 -1.513996
-3.2797906 -3.205713 -0.47728494
-3.0949507 -2.9881012 -0.44535524
-3.3440504 -3.1892302 -0.48119244
-10.017653 -9.4382639 -1.5083023
-10.086287 -9.386775 -1.5099769
-3.1607659 -2.9051945 -0.44435045
-3.5294578 -3.204406 -0.49760386
-3.5549715 -3.1879976 -0.49849701
-3.5863669 -3.1766682 -0.5002833
-3.4337823 -3.0040917 -0.47460553
-3.3837306 -2.9238346 -0.46444607
-3.3796878 -2.8843074 -0.46120843
-10.584871 -8.9228315 -1.5173453
-3.4049003 -2.8343503 -0.45975709
-3.8559136 -3.1700034 -0.52283502
-10.64163 -8.640667 -1.5020503
-10.651033 -8.5403938 -1.4957983
-10.710247 -8.4804316 -1.4968032
-10.683013 -8.3527317 -1.4855273
-3.9293139 -3.0332277 -0.51970905
-10.742824 -8.1890745 -1.4796102
-10.821452 -8.1445179 -1.4836293
-10.856865 -8.067296 -1.4816197
-10.914173 -8.0064058 -1.4827362
-10.996093 -7.9631858 -1.4873135
-11.098102 -7.9337091 -1.494682
-11.195289 -7.8998413 -1.5013804
-11.311232 -7.8781419 -1.5106468
-11.437155 -7.8620706 -1.5212528
-11.564125 -7.8453069 -1.5319705
-11.70453 -7.8361244 -1.5444744
-11.857691 -7.8337293 -1.558653
-11.914691 -7.7667942 -1.5598811
-5.7087426 -3.6713755 -0.72457278
-5.7135415 -3.625097 -0.72222829
-3.1817508 -1.9912523 -0.38372862
-3.380774 -2.0870769 -0.40840161
-12.220321 -7.4421124 -1.5694823
-3.4802454 -2.0899494 -0.41811448
-12.415037 -7.3533769 -1.5831027
-7.5953436 -4.4357829 -0.95020205
-7.6293077 -4.3930626 -0.95109516
-7.6976004 -4.3697171 -0.95645404
-7.836134 -4.3850093 -0.97085589
-8.0769472 -4.4549217 -0.99831992
-7.8247471 -4.2533946 -0.96259433
-7.8165355 -4.1870012 -0.95824027
-7.9730253 -4.2080803 -0.97487503
-7.9696007 -4.1439495 -0.97119081
-7.9135075 -4.0532885 -0.96091974
-7.9133868 -3.9921219 -0.95779371
-7.6671877 -3.8090682 -0.92385447
-7.6922007 -3.762825 -0.92407775
-8.2380056 -3.967392 -0.98927689
-8.2424393 -3.9074039 -0.98682076
-8.1419859 -3.7987671 -0.97141409
-8.2310667 -3.7790084 -0.97956401
-5.7926164 -2.616432 -0.67612004
-5.7949395 -2.5747864 -0.67444539
-8.0861568 -3.5337338 -0.95343965
-8.3523712 -3.589211 -0.98335981
-8.2131281 -3.4698215 -0.96371078
-8.705986 -3.6152737 -1.0210949
-8.432663 -3.4412467 -0.98525774
-8.4176474 -3.3750155 -0.98090369
-8.2893362 -3.2646668 -0.96292931
-8.1729689 -3.1610413 -0.94651783
-8.5257244 -3.2374961 -0.98659748
-8.5165625 -3.1743619 -0.98313653
-8.5274801 -3.118973 -0.98213178
-8.3509712 -2.9964373 -0.95879853
-8.5772991 -3.0183816 -0.98358309
-8.6041126 -2.9686129 -0.98458791
-7.9133186 -2.676017 -0.90052122
-7.804131 -2.585835 -0.88567275
-7.903028 -2.5649006 -0.89549726
-8.6914215 -2.7619815 -0.98659748
-8.7167454 -2.7112567 -0.98760223
-8.7218084 -2.6542482 -0.98626256
-8.7417402 -2.6018164 -0.98670912
-8.7823486 -2.5553486 -0.9896118
-8.9555788 -2.5462623 -1.0080328
-8.9681606 -2.4904661 -1.0076978
-8.8221416 -2.391701 -0.98894197
-8.8395329 -2.3382869 -0.98927689
-9.0028601 -2.3224871 -1.0065814
-9.0121231 -2.265991 -1.0060233
-9.0470915 -2.2158527 -1.0084794
-9.0711508 -2.1628349 -1.0097075
-9.183959 -2.1302669 -1.0212066
-9.1115503 -2.0546348 -1.0113821
-9.3996706 -2.0590923 -1.0430886
-9.3042345 -1.9784313 -1.0306962
-9.3960056 -1.9377667 -1.0398508
-9.4574175 -1.8900114 -1.0455446
-9.7410421 -1.884622 -1.0766928
-10.109927 -1.8917259 -1.1175539
-10.329635 -1.8673185 -1.1413338
-10.831356 -1.8894784 -1.1972666
-11.499338 -1.9334 -1.2720671
-11.974008 -1.9377518 -1.3247622
-13.1964 -2.0526011 -1.4624172
-13.515397 -2.0173724 -1.4972497
-14.720794 -2.1050768 -1.6326718
-15.453163 -2.1131508 -1.7142825
-15.828462 -2.065624 -1.7553669
-16.858555 -2.0949564 -1.8705817
-17.329012 -2.0455389 -1.9223839
-17.286919 -1.9330962 -1.9162436
-17.328102 -1.8301213 -1.9195927
-17.398338 -1.7296635 -1.9262913
-17.386854 -1.620847 -1.9238352
-17.383604 -1.5130122 -1.9223839
-17.395531 -1.4065603 -1.9227188
-17.412752 -1.3004632 -1.9237236
-17.426353 -1.1940037 -1.9243934
-17.450212 -1.088107 -1.9262913
-17.467474 -0.98162752 -1.9275194
-17.47813 -0.87467915 -1.9280776
-17.468277 -0.76676482 -1.9264029
-17.494499 -0.66039228 -1.9288591
-17.472399 -0.55221879 -1.9259564
-15.562591 1.1471407 -1.9110649
-15.469204 1.2357286 -1.9002814
-15.501864 1.3341141 -1.9053633
-15.489434 1.4288417 -1.9048675
-15.461613 1.5220078 -1.9025126
-15.450996 1.6167464 -1.9023886
-15.422047 1.7094431 -1.9000336
-15.420137 1.8050778 -1.901149
-15.409756 1.8997815 -1.901273
-15.401745 1.9948083 -1.9017688
-15.383316 2.0884726 -1.9010252
-15.365299 2.1821256 -1.9004054
-15.335917 2.2740343 -1.8984222
-15.320694 2.3679392 -1.8982983
-15.29216 2.4596937 -1.8965631
-15.26895 2.5521688 -1.8955715
-15.238338 2.6432645 -1.8937122
-15.228669 2.7379451 -1.8945799
-15.202803 2.8297 -1.8934643
-15.190025 2.9238675 -1.8940841
-15.16304 3.0152743 -1.8929685
-15.131618 3.1056616 -1.8913572
-15.093832 3.1945438 -1.8890022
-15.058434 3.2837141 -1.887019
-15.038971 3.3762665 -1.887143
-15.017004 3.468257 -1.887019
-14.975167 3.5555189 -1.8844161
-14.963673 3.6499252 -1.8857795
-14.935221 3.7402251 -1.8850359
-14.908145 3.8308074 -1.8845401
-14.888197 3.9232216 -1.8850359
-14.86097 4.0137239 -1.8846641
-14.827456 4.1024513 -1.8835485
-14.773364 4.1852374 -1.87983
-14.719769 4.2677908 -1.8762356
-14.69711 4.359158 -1.8767314
-14.656792 4.4452229 -1.8749961
-14.630189 4.5353656 -1.87512
-14.589787 4.6211534 -1.8735087
-14.562102 4.7108932 -1.8736327
-14.536691 4.8014007 -1.8741285
-14.506017 4.8901887 -1.8740045
-14.471984 4.9778128 -1.8735087
-14.432742 5.0635605 -1.8723931
-14.392992 5.149014 -1.8712777
-14.355535 5.2351904 -1.8705339
-14.315701 5.3204098 -1.8695424
-14.273506 5.4046345 -1.8683029
-14.255814 5.4981847 -1.87041
-14.226427 5.5873675 -1.8710297
-14.190954 5.6741853 -1.8709058
-14.175172 5.7690091 -1.8735087
-14.161509 5.8649921 -1.8764834
-14.1408 5.9583263 -1.8785906
-14.117654 6.0508451 -1.8804498
-14.094815 6.1437001 -1.8824329
-14.084974 6.2425351 -1.8862753
-14.067213 6.3382182 -1.8891262
-14.047003 6.4330916 -1.891729
-14.025257 6.5275369 -1.894208
-14.001985 6.6215324 -1.8965631
-13.978979 6.7159181 -1.899042
-13.951777 6.8085289 -1.9010252
-13.929296 6.9037032 -1.903752
-13.900855 6.9961801 -1.9057351
-13.872686 7.0890198 -1.9078423
-13.862397 7.1913738 -1.9125522
-13.839082 7.287394 -1.915527
-13.810734 7.3810596 -1.9178821
-13.79048 7.479383 -1.9214765
-13.76519 7.5753427 -1.9244512
-13.74444 7.6741757 -1.9281697
-13.717814 7.7701044 -1.9311445
-13.684505 7.862534 -1.9332516
-13.652293 7.9558463 -1.9356066
-13.621159 8.0500689 -1.9382095
-13.599594 8.1503305 -1.9422997
-13.572224 8.2475376 -1.9456464
-13.553464 8.350441 -1.9503564
-13.52806 8.4497442 -1.9541987
-13.494402 8.5442715 -1.9569256
-13.460093 8.6387033 -1.9596524
-13.424299 8.7324944 -1.9622554
-13.385377 8.8245316 -1.9644865
-13.345829 8.91642 -1.9667175
-13.311409 9.0120497 -1.9698162
-13.27059 9.1036625 -1.9720472
-13.226702 9.1934137 -1.9739065
-13.1741 9.2772551 -1.9745262
-13.129044 9.3665609 -1.9763855
-13.076954 9.4510117 -1.9772531
-13.043536 9.5492458 -1.9810954
-13.010201 9.648015 -1.9850618
-12.976938 9.7473307 -1.9891521
-12.937418 9.8423948 -1.9923747
-12.89486 9.935523 -1.9952255
-12.84617 10.024225 -1.9972087
-12.802326 10.117011 -2.0000594
-12.759376 10.210876 -2.0031581
-12.71113 10.300844 -2.0055132
-12.661492 10.389976 -2.0077443
-12.612765 10.480154 -2.0102232
-12.558093 10.565653 -2.0118346
-12.505113 10.652805 -2.0138178
