# .PCD v0.7 - Point Cloud Data file format
VERSION 0.7
FIELDS x y z
SIZE 4 4 4
TYPE F F F
COUNT 1 1 1
WIDTH 1507
HEIGHT 1
VIEWPOINT 0 0 0 1 0 0 0
POINTS 1507
DATA ascii
-3.4461732 -3.2442324 -1.0745696
-3.4645891 -3.2217002 -1.0741111
-3.4971945 -3.2122345 -1.0782368
-3.5218844 -3.1952944 -1.0798411
-3.4080534 -3.054085 -1.0376683
-3.421627 -3.0285995 -1.0360639
-3.6240683 -3.1683702 -1.0935932
-3.7708859 -3.2561398 -1.1332449
-3.8485584 -3.2822123 -1.1511225
-3.7949269 -3.1964502 -1.1284317
-3.5406044 -2.945251 -1.0445443
-3.5999732 -2.957458 -1.0571504
-3.6157844 -2.9334733 -1.0564628
-3.5478816 -2.842452 -1.0305631
-3.5751789 -2.8284812 -1.0335426
-3.6453903 -2.8478432 -1.0493575
-3.6635664 -2.8260164 -1.0495868
-3.6847091 -2.8064332 -1.0507327
-3.6964142 -2.7796757 -1.0491283
-3.7180893 -2.7604246 -1.0505035
-3.7412372 -2.7421627 -1.0523372
-3.7382786 -2.7048886 -1.0466071
-3.6819382 -2.6298447 -1.0255207
-3.7163017 -2.620105 -1.0307922
-3.7482867 -2.6083741 -1.0353763
-3.7762554 -2.5935931 -1.0388143
-3.7663167 -2.5528948 -1.0314798
-3.8053715 -2.5454335 -1.0381267
-3.8339155 -2.530617 -1.0417939
-3.8224561 -2.4895122 -1.0342302
-3.8622248 -2.4817994 -1.0411063
-3.7861319 -2.400197 -1.0156651
-3.8139918 -2.3851795 -1.0193323
-3.8434663 -2.3709323 -1.0234579
-3.9078324 -2.377666 -1.0372099
-3.9540627 -2.3726778 -1.0459195
-3.935878 -2.329036 -1.0369807
-3.9610236 -2.3112202 -1.0399603
-3.9506636 -2.272794 -1.0333135
-3.959455 -2.2456286 -1.0319383
-4.0139389 -2.2440951 -1.0429399
-3.9773371 -2.1917026 -1.029417
-4.0095277 -2.1774783 -1.0344595
-3.9979258 -2.1395142 -1.0278127
-3.9954808 -2.1067696 -1.0236871
-4.004014 -2.0799701 -1.022541
-4.0314312 -2.062902 -1.0264375
-4.0422745 -2.0372505 -1.025979
-4.0599298 -2.0150061 -1.0273542
-4.0617232 -1.9849274 -1.0246038
-4.0939999 -1.9696757 -1.0298755
-4.1526313 -1.9666029 -1.0420231
-4.1822643 -1.9493116 -1.0466071
-4.1923771 -1.9228013 -1.0461487
-4.1899009 -1.8906343 -1.0424815
-4.1987538 -1.8637049 -1.0417939
-4.2449002 -1.8530978 -1.0507327
-4.2803397 -1.8373855 -1.0569211
-4.2744946 -1.8038951 -1.0525663
-4.3403258 -1.8003879 -1.0665475
-4.3828378 -1.7865849 -1.0745696
-4.4325714 -1.775223 -1.0844252
-4.5203719 -1.7782871 -1.1039072
-4.5684242 -1.764902 -1.1133044
-4.6719961 -1.7720551 -1.1366829
-4.599772 -1.7124439 -1.1158257
-4.5900793 -1.6768383 -1.1107832
-4.7084036 -1.6874011 -1.1378288
-4.85182 -1.7052898 -1.1710629
-5.0425606 -1.7376572 -1.2159863
-5.1213689 -1.7297379 -1.232947
-5.2862058 -1.7493625 -1.2712235
-5.3394327 -1.7307031 -1.2817668
-5.2915034 -1.6793541 -1.2673271
-5.4188304 -1.6832451 -1.2962064
-5.7382483 -1.7439551 -1.3723009
-5.8682671 -1.7442186 -1.4016385
-6.1545968 -1.7883172 -1.4692526
-6.8602271 -1.947829 -1.6393193
-6.9048786 -1.9148046 -1.6473414
-6.9681726 -1.8863932 -1.6599474
-7.0116129 -1.8520554 -1.6677402
-7.0332136 -1.8116696 -1.6702614
-7.0989532 -1.7822304 -1.683555
-7.1910686 -1.7585278 -1.7032663
-7.2812638 -1.7333101 -1.722519
-7.3600378 -1.7044154 -1.7390215
-7.5355883 -1.696429 -1.7789024
-7.8710618 -1.7212946 -1.8572888
-8.1471272 -1.7293687 -1.9212358
-8.1938133 -1.6868062 -1.9299455
-8.2393274 -1.6435452 -1.9384258
-8.2597704 -1.5949892 -1.9409471
-8.2703581 -1.5444568 -1.9411763
-8.2997952 -1.4973118 -1.9459895
-8.3088264 -1.446357 -1.9459895
-8.2810659 -1.3892264 -1.9372798
-8.2634888 -1.3341984 -1.9310914
-8.2503595 -1.280185 -1.926049
-8.2956066 -1.2351298 -1.9349878
-8.2693024 -1.1793939 -1.9269658
-8.2754183 -1.1285006 -1.9267366
-8.3362408 -1.0847385 -1.9395719
-8.3330793 -1.0323707 -1.9372798
-8.3237896 -0.9793998 -1.9336126
-8.3306103 -0.92841542 -1.9338418
-8.3138847 -0.87493807 -1.9285703
-8.3491249 -0.82688391 -1.9356754
-8.3462877 -0.77491879 -1.9338418
-8.3615522 -0.7246173 -1.936363
-8.3716631 -0.67376691 -1.9377382
-8.3698149 -0.62195361 -1.936363
-8.3666763 -0.57012212 -1.9347587
-8.3641872 -0.51841289 -1.9333835
-8.3691549 -0.46719006 -1.9338418
-8.3485317 -0.41466907 -1.928341
-8.3100758 -0.36165616 -1.9187146
-8.3753633 -0.31302571 -1.9336126
-8.372262 -0.26147741 -1.9324666
-7.92277 0.58065116 -1.9332089
-7.9248629 0.6297155 -1.9346554
-7.9140811 0.67774904 -1.9329679
-7.9078407 0.72611845 -1.9324857
-7.8858509 0.77291977 -1.9281464
-7.8664808 0.81978089 -1.9245303
-7.8950648 0.87176621 -1.9329679
-7.8702879 0.91794157 -1.9281464
-7.8683605 0.96668941 -1.9291106
-7.8526559 1.0137066 -1.9266999
-7.8260918 1.0591342 -1.9216373
-7.8242502 1.1078153 -1.9228427
-7.8537874 1.1612025 -1.9320036
-7.7553945 1.1953129 -1.9091015
-7.8178654 1.2541082 -1.9266999
-7.7918348 1.2990192 -1.9221195
-7.7789364 1.3459765 -1.9209141
-7.7991881 1.3988259 -1.9281464
-7.7923665 1.4470092 -1.9286286
-7.750937 1.4885669 -1.920432
-7.7759266 1.5429026 -1.9291106
-7.714973 1.5800632 -1.9160926
-7.7326694 1.6331917 -1.9230838
-7.6968989 1.6750318 -1.9165747
-7.6523843 1.7145838 -1.907896
-7.6814384 1.7706673 -1.9180212
-7.646821 1.812168 -1.9119943
-7.6572452 1.8643376 -1.9175391
-7.6466031 1.911522 -1.9177802
-7.6337905 1.9581634 -1.9175391
-7.6178775 2.0039785 -1.9165747
-7.5810757 2.0441105 -1.9103068
-7.554359 2.0867105 -1.9066907
-7.5572882 2.1375165 -1.910789
-7.5421658 2.1833069 -1.9103068
-7.5183916 2.2265108 -1.907655
-7.4767241 2.2641582 -1.9004227
-7.5229502 2.3286543 -1.9160926
-7.5122213 2.3759418 -1.9170569
-7.4716444 2.4136341 -1.9103068
-7.4585371 2.460042 -1.910789
-7.4203086 2.4980159 -1.904762
-7.3837314 2.5362444 -1.8992174
-7.3790207 2.585355 -1.9021102
-7.3922625 2.641036 -1.9098246
-7.3813896 2.688338 -1.9112711
-7.3611159 2.7322273 -1.9103068
-7.3478436 2.7787166 -1.9112711
-7.327033 2.8223538 -1.9103068
-7.2833781 2.856977 -1.9033157
-7.2783284 2.9066541 -1.9066907
-7.2423759 2.9439466 -1.9018692
-7.2788777 3.0109668 -1.9165747
-7.2235932 3.040132 -1.9066907
-7.1869607 3.0767562 -1.9018692
-7.1759548 3.1242847 -1.9040389
-7.1646357 3.1717937 -1.9062085
-7.176897 3.2300391 -1.9148872
-7.1384106 3.2655337 -1.9098246
-7.1314392 3.3154118 -1.9134408
-7.1048198 3.3562045 -1.9117533
-7.0963416 3.405616 -1.9151284
-7.0674605 3.4452658 -1.9129586
-7.0514059 3.4911504 -1.9144051
-6.996038 3.5173447 -1.9050032
-6.9501228 3.5478468 -1.8982531
-6.9402852 3.5966785 -1.9016281
-6.9464278 3.6541102 -1.9095836
-6.8836412 3.6751747 -1.8982531
-6.8677869 3.7210424 -1.9001817
-6.8261175 3.7528234 -1.894878
-6.7885547 3.7865977 -1.8907797
-6.8065772 3.8516064 -1.9025924
-6.7802911 3.8918486 -1.9018692
-6.7663474 3.9392393 -1.904762
-6.7161446 3.9653826 -1.8972888
-6.6925197 4.0070162 -1.8975298
-6.669466 4.0490127 -1.8980119
-6.6312737 4.081718 -1.8941548
-6.6168065 4.1290107 -1.8972888
-6.577405 4.1607108 -1.8931905
-6.5713573 4.2135658 -1.8989763
-6.5583982 4.2622714 -1.9028335
-6.5256386 4.298161 -1.9009049
-6.4773507 4.3235698 -1.8943958
-6.4707947 4.3768291 -1.9004227
-6.4053955 4.3901095 -1.8888512
-6.3902936 4.4376349 -1.8924673
-6.3978653 4.5013385 -1.9030745
-6.3732862 4.5427637 -1.9040389
-6.3421454 4.5795112 -1.9030745
-6.3209758 4.623497 -1.9052442
-6.2979455 4.6662402 -1.9069318
-6.2435827 4.6855683 -1.8989763
-6.2000365 4.7126293 -1.8943958
-6.1663899 4.7470307 -1.8929495
-6.1340857 4.7823901 -1.8919851
-6.1320438 4.8415928 -1.9006639
-6.0772099 4.8591232 -1.8927083
-6.0608559 4.9073157 -1.8970476
-6.0486407 4.9591823 -1.9028335
-5.9986858 4.980082 -1.8965656
-5.9605875 5.0105495 -1.8941548
-5.9216027 5.0401082 -1.891503
-5.9089427 5.0921893 -1.8975298
-5.8556509 5.1092048 -1.8902975
-5.855463 5.1726718 -1.9006639
-5.8077016 5.1942668 -1.8953601
-5.7836332 5.2369714 -1.8980119
-5.7349391 5.2572742 -1.8924673
-5.7146645 5.3035893 -1.8965656
-5.6933298 5.3491883 -1.9004227
-5.6463385 5.3706417 -1.8956013
-5.6286564 5.4199982 -1.9009049
-5.5834813 5.4429145 -1.8968066
-5.5720811 5.498889 -1.904521
-5.5341167 5.5288591 -1.9030745
-5.4823494 5.5447659 -1.8968066
-5.4204259 5.54983 -1.8869225
-5.3936815 5.5906687 -1.8895744
-5.3760123 5.6412253 -1.8956013
-5.3153582 5.6465421 -1.8861994
-5.267396 5.6648335 -1.8813778
-5.2469788 5.7127743 -1.8866814
-5.1955276 5.7268891 -1.8806546
-5.157052 5.7550464 -1.8794492
-5.1306462 5.7967567 -1.8828243
-5.1103091 5.8456669 -1.88861
-5.0819545 5.8857293 -1.891503
-5.0388188 5.9086766 -1.8888512
-4.9968429 5.9328017 -1.8866814
-4.9659305 5.9700656 -1.8888512
-4.9107275 5.9779234 -1.8816189
-4.9069662 6.0486465 -1.894637
-4.8363929 6.0369782 -1.8813778
-4.8052797 6.074152 -1.8837886
-4.770906 6.107347 -1.8849939
-4.7297864 6.1318946 -1.8835474
-4.6979518 6.1685224 -1.8859582
-4.6728435 6.2142987 -1.8912619
-4.6299982 6.2366195 -1.8893332
-4.5818925 6.2516026 -1.885235
-4.5542541 6.2945395 -1.8898154
-4.5161095 6.3231554 -1.8900565
-4.4755492 6.3483667 -1.8893332
-4.4459338 6.3892527 -1.8934315
-4.4192805 6.4348145 -1.8989763
-4.384069 6.4682369 -1.9009049
-4.3642578 6.5248656 -1.9098246
-4.3230705 6.5499015 -1.9093425
-4.2806821 6.5730505 -1.9083782
-4.2292552 6.5820451 -1.9033157
-4.1903472 6.6103306 -1.9040389
-4.1538239 6.6425009 -1.9059675
-4.1333637 6.7009068 -1.9156104
-4.0639286 6.6797075 -1.9021102
-4.0188723 6.6978598 -1.9001817
-3.9954867 6.7524643 -1.9088603
-3.9598467 6.7869129 -1.9117533
-3.926837 6.8262258 -1.9160926
-3.8791347 6.8400607 -1.9131997
-3.8427732 6.8739004 -1.9160926
-3.7944362 6.8862987 -1.9129586
-3.7724838 6.9469805 -1.923566
-3.7101028 6.9331994 -1.9131997
-3.6584413 6.9386625 -1.9083782
-3.6220589 6.9730382 -1.9117533
-3.5977666 7.0314212 -1.9218785
-3.5471323 7.03863 -1.9177802
-3.5163851 7.0854745 -1.9247713
-3.4783809 7.1182537 -1.9279053
-3.4380033 7.1464596 -1.9298339
-3.3729119 7.1226835 -1.9175391
-3.3340626 7.1538019 -1.920432
-3.2876782 7.1688313 -1.9189855
-3.2412353 7.1835613 -1.9175391
-3.2061491 7.2237177 -1.9230838
-3.1481802 7.212121 -1.9146461
-3.1161134 7.2598424 -1.9223605
-3.0858424 7.3128057 -1.9315214
-3.026046 7.295742 -1.9218785
-2.9914763 7.3393378 -1.9286286
-2.9362881 7.3323269 -1.9218785
-2.8940837 7.3574314 -1.923807
-2.8369992 7.3442683 -1.9156104
-2.8046107 7.3951149 -1.9245303
-2.7642591 7.425828 -1.9281464
-2.7133174 7.4280629 -1.9242891
-2.6624525 7.4299531 -1.920432
-2.6370764 7.5038362 -1.9356197
-2.5875077 7.5097823 -1.9329679
-2.5364139 7.5108047 -1.9291106
-2.4844909 7.5087194 -1.9245303
-2.4497361 7.558907 -1.9336911
-2.3974414 7.5552945 -1.9288696
-2.353915 7.5791311 -1.9312804
-2.3042638 7.5832171 -1.9286286
-2.2574143 7.5962825 -1.9283874
-2.2075145 7.5988069 -1.9254946
-2.1581988 7.6028724 -1.9230838
-2.1198008 7.6459002 -1.9307982
-2.072593 7.6578259 -1.9305571
-2.0270524 7.6760292 -1.9320036
-1.977738 7.6798639 -1.9298339
-1.9303418 7.6909132 -1.9295928
-1.8826543 7.700727 -1.9291106
-1.8367153 7.7177987 -1.9305571
-1.7825439 7.6996121 -1.9230838
-1.7369699 7.7179794 -1.9250124
-1.683988 7.7028918 -1.9185034
-1.6379001 7.7187762 -1.9199498
-1.5922672 7.7372365 -1.9221195
-1.5440038 7.7430534 -1.9211552
-1.504184 7.7924051 -1.9312804
-1.4543849 7.7909932 -1.9286286
-1.4124042 7.8322449 -1.936825
-1.3606627 7.8197284 -1.9315214
-1.3144201 7.8384585 -1.9341732
-1.2627463 7.8243394 -1.9286286
-1.2184285 7.8559165 -1.9346554
-1.1722006 7.8766842 -1.9380305
-1.1233008 7.8798852 -1.9370662
-1.0730966 7.8731666 -1.9336911
-1.0248926 7.8805652 -1.9339322
-0.97675723 7.8886318 -1.9344143
-0.93003321 7.9089346 -1.9380305
-0.88223839 7.9212441 -1.939718
-0.82966465 7.8888655 -1.9303161
-0.78038484 7.8851156 -1.9281464
-0.73413634 7.9129486 -1.9339322
-0.68439943 7.9037676 -1.9305571
-0.63581228 7.9068508 -1.9303161
-0.58635253 7.8980212 -1.9271821
-0.5391956 7.9208355 -1.9320036
-0.49118242 7.9336815 -1.9344143
-0.44281632 7.9423599 -1.9358608
-0.39421839 7.9478354 -1.936584
-0.34447822 7.927804 -1.9310392
-0.29575557 7.9278288 -1.9305571
-0.24683496 7.920764 -1.9283874
-0.19948444 7.9725804 -1.9409233
-0.14987095 7.9367814 -1.9317625
-0.10140128 7.9559898 -1.936343
-0.052544694 7.9506392 -1.9348965
-0.003755054 7.9372249 -1.9315214
0.04485108 7.9205999 -1.9274231
0.093473308 7.9221168 -1.9279053
0.14076477 7.848618 -1.9098246
0.19103533 7.9349265 -1.9315214
0.24089763 7.9724073 -1.9411644
0.28945681 7.9610806 -1.9387537
0.33693495 7.9271569 -1.9307982
0.38519031 7.9171853 -1.9288696
0.43173847 7.8778491 -1.9197087
0.48249492 7.9147687 -1.9295928
0.5311802 7.9135957 -1.9300749
0.57951391 7.9072838 -1.9293517
0.62902236 7.9161558 -1.9324857
0.67600709 7.893775 -1.9279053
0.72469634 7.8923779 -1.9286286
0.7692222 7.8481822 -1.9187444
0.81837058 7.8529673 -1.9211552
0.8667534 7.8497272 -1.9216373
0.91659069 7.8587203 -1.9252535
0.96894062 7.886662 -1.9336911
1.0176872 7.8834558 -1.9344143
1.063825 7.860714 -1.9303161
1.1101307 7.8405857 -1.926941
1.1613446 7.8547473 -1.9322447
1.2111464 7.8580246 -1.9348965
1.2548776 7.8226562 -1.9279053
1.3036516 7.8195958 -1.9291106
1.3502823 7.8037992 -1.9271821
1.3957394 7.7819939 -1.923807
1.4487824 7.8019085 -1.9310392
1.4865519 7.7404532 -1.9177802
1.5387441 7.7549844 -1.923807
1.5829861 7.7292342 -1.9197087
1.6378076 7.7545085 -1.9286286
1.6859771 7.7471576 -1.9293517
1.7273235 7.7092042 -1.9223605
1.7708855 7.682384 -1.9182622
1.8195579 7.6779838 -1.9199498
1.8719186 7.6883616 -1.9254946
1.9185872 7.6748481 -1.9250124
1.9641954 7.6572914 -1.923566
2.0173187 7.6685586 -1.9295928
2.0577614 7.6316738 -1.9233248
2.0967934 7.5908408 -1.9160926
2.1412163 7.5703616 -1.9141641
2.1841168 7.5449624 -1.9110301
2.2265108 7.5183916 -1.907655
2.2630327 7.4730091 -1.8994584
2.3074081 7.4543471 -1.8982531
2.3586667 7.4576297 -1.9028335
2.4076645 7.4531746 -1.9054853
2.4515264 7.4327316 -1.9040389
2.5051408 7.4414625 -1.9103068
2.5595851 7.4516501 -1.9170569
2.6049385 7.4348888 -1.9168159
2.643976 7.4004874 -1.9119943
2.6886702 7.3823013 -1.9115121
2.7204027 7.3292727 -1.9018692
2.7587981 7.2951965 -1.8972888
2.819562 7.3197885 -1.9083782
2.8481135 7.2607923 -1.8972888
2.8954921 7.2503901 -1.8992174
2.9315164 7.2118096 -1.8936726
2.969032 7.1775451 -1.8893332
3.0156531 7.1654534 -1.8910208
3.0515389 7.1280799 -1.8859582
3.1200216 7.1661673 -1.901387
3.1631477 7.1451135 -1.9009049
3.1937814 7.0963669 -1.8929495
3.2473602 7.0986991 -1.8989763
3.2957671 7.0891995 -1.9018692
3.3363008 7.0627017 -1.9001817
3.3589923 6.999227 -1.888369
3.3967707 6.9680176 -1.8854761
3.4407539 6.9496531 -1.8861994
3.4794068 6.9206071 -1.8840296
3.5438745 6.9423442 -1.8960834
3.5689847 6.8868661 -1.8866814
3.6062031 6.8553901 -1.8840296
3.6481991 6.8331337 -1.8840296
3.6868207 6.8046474 -1.8823421
3.7453403 6.8125114 -1.8910208
3.7634261 6.7470269 -1.878967
3.7966268 6.7094502 -1.8748688
3.8440061 6.6969695 -1.8780028
3.8972359 6.6942234 -1.8840296
3.945147 6.6818833 -1.8874047
3.999536 6.6800308 -1.8939137
4.0454865 6.6636596 -1.8963245
4.0654349 6.6048284 -1.8864404
4.0796757 6.5377722 -1.8741455
4.1051831 6.4896536 -1.8673954
4.1522613 6.4757791 -1.8707705
4.187686 6.4436698 -1.8688419
4.2234068 6.4121809 -1.8671544
4.282073 6.4152021 -1.875833
4.3197236 6.3863955 -1.8751098
4.3538895 6.3525658 -1.8729402
4.3778367 6.3042107 -1.8664311
4.4158778 6.2764363 -1.8661901
4.4700818 6.271349 -1.8729402
4.5045004 6.2382956 -1.8712527
4.5295119 6.1925249 -1.8657079
4.5749359 6.1747518 -1.8688419
4.6115718 6.1450119 -1.8683598
4.6544766 6.1235533 -1.8705294
4.6682773 6.0641212 -1.8608865
4.7053981 6.0353627 -1.8608865
4.7513647 6.0178018 -1.8645025
4.777895 5.9756503 -1.8604043
4.8272982 5.9620585 -1.8654668
4.8588662 5.9263234 -1.8635383
4.9062986 5.9098377 -1.8678776
4.93997 5.8766508 -1.8669133
4.9759355 5.8462291 -1.8669133
5.016149 5.8207326 -1.8686008
5.0517697 5.7898445 -1.8686008
5.0865579 5.7580113 -1.8683598
5.1082039 5.711503 -1.8632972
5.1542287 5.6922808 -1.8673954
5.2034888 5.6762843 -1.8726991
5.231617 5.6371369 -1.8702884
5.2455034 5.5830069 -1.862815
5.2950478 5.5668874 -1.8683598
5.3250661 5.5300989 -1.8669133
5.3602529 5.4987106 -1.8673954
5.3993459 5.4712424 -1.8693241
5.4328151 5.4380097 -1.8693241
5.4757433 5.414124 -1.8726991
5.5144157 5.3858476 -1.8746277
5.5382776 5.3431516 -1.8714937
5.5857143 5.3231273 -1.8765563
5.6203918 5.2907491 -1.8772795
5.6619902 5.2647533 -1.8804135
5.675601 5.2128468 -1.8741455
5.6974149 5.1687961 -1.8707705
5.7456489 5.148634 -1.8763152
5.7538738 5.0927024 -1.8686008
5.8018212 5.0719905 -1.8741455
5.8313637 5.0350275 -1.8736634
5.8643641 5.0010409 -1.8743867
5.8979092 4.967464 -1.875351
5.9454408 4.9454536 -1.8808956
5.9486732 4.8867064 -1.8722169
6.0049276 4.87151 -1.8806546
6.0430384 4.8412461 -1.8833064
6.0650177 4.7980556 -1.8808956
6.0866947 4.7547779 -1.8784848
6.1026893 4.7072663 -1.8743867
6.1260529 4.665617 -1.8726991
6.1762862 4.6442685 -1.8794492
6.2249293 4.6213222 -1.8857172
6.2484708 4.5795984 -1.8842707
6.2725215 4.5383282 -1.8830653
6.3010397 4.5003195 -1.8833064
6.3087025 4.4475951 -1.8772795
6.3510108 4.4193316 -1.8818599
6.3868089 4.386322 -1.8845118
6.3999443 4.3377957 -1.8804135
6.4562902 4.3184047 -1.8893332
6.4972472 4.2883291 -1.8936726
6.5022912 4.2346148 -1.8874047
6.5542817 4.211422 -1.8951191
6.5349121 4.1425548 -1.8818599
6.5774889 4.1131825 -1.8869225
6.6191249 4.0829339 -1.891744
6.6083975 4.0205579 -1.8813778
6.6537495 3.992414 -1.8874047
6.6630855 3.9426186 -1.8830653
6.6821213 3.8987267 -1.8816189
6.722744 3.8673286 -1.8864404
6.7471914 3.8264844 -1.8866814
6.7578354 3.7779107 -1.8830653
6.8097916 3.7522945 -1.8912619
6.8369517 3.712755 -1.8924673
6.8664503 3.6743965 -1.8943958
6.8742709 3.6245027 -1.8902975
6.8610673 3.5639181 -1.8804135
6.9061351 3.5336847 -1.8869225
6.9788251 3.5170045 -1.9011459
6.9707141 3.4594524 -1.8929495
6.9839611 3.4127822 -1.8907797
6.9872775 3.3614531 -1.8859582
7.023561 3.3259907 -1.8902975
7.1001391 3.3090622 -1.9057264
7.0859027 3.2496614 -1.8963245
7.1260567 3.2152991 -1.9018692
7.1287961 3.164036 -1.8972888
7.1258383 3.1105318 -1.8912619
7.1314116 3.0610099 -1.8876457
7.1768856 3.0285103 -1.894878
7.2096772 2.9903638 -1.8987352
7.2224975 2.9438727 -1.8972888
7.271059 2.9117632 -1.9054853
7.229177 2.8436558 -1.8895744
7.2872305 2.814976 -1.9004227
7.3070884 2.7712414 -1.9011459
7.3476038 2.7351532 -1.907414
7.3852158 2.6976733 -1.9129586
7.3696513 2.6408536 -1.904521
7.3500056 2.5830407 -1.8951191
7.3721399 2.5401053 -1.8968066
7.3986216 2.4985476 -1.8996994
7.4386911 2.4613311 -1.9062085
7.4564238 2.4165392 -1.9069318
7.4683356 2.3698616 -1.9062085
7.4641986 2.3182378 -1.901387
7.5024266 2.2797275 -1.907655
7.5190649 2.2344794 -1.9083782
7.5261097 2.1864071 -1.9066907
7.5319142 2.1380675 -1.904762
7.5430207 2.0912938 -1.9042799
7.5660157 2.0477591 -1.9069318
7.5409031 1.99139 -1.8972888
7.561439 1.9472594 -1.8994584
7.5996027 1.907438 -1.9062085
7.638504 1.8674518 -1.9131997
7.6063867 1.8102182 -1.9021102
7.6296425 1.766356 -1.9052442
7.6696897 1.7261096 -1.9127176
7.6460032 1.6715599 -1.9040389
7.6675086 1.6270292 -1.9069318
7.6944585 1.5834703 -1.9112711
7.7059336 1.5366075 -1.9117533
7.7199817 1.4902149 -1.9129586
7.6908178 1.4356998 -1.9033157
7.727181 1.3934736 -1.9103068
7.776701 1.3531823 -1.920673
7.7963433 1.3073642 -1.923566
7.8137999 1.261047 -1.9259766
6.027945 0.93518823 -1.4751663
5.8473382 0.87049675 -1.4283978
5.8285489 0.83118117 -1.4223709
5.8143067 0.79278368 -1.4175494
5.8046255 0.75521749 -1.4139333
5.7850709 0.71660888 -1.4079064
5.7816477 0.68019325 -1.4059777
5.7789607 0.64395392 -1.4042902
5.7702556 0.60716498 -1.4011563
5.7613168 0.57050717 -1.3980223
5.7608438 0.5347876 -1.397058
5.7553144 0.4986774 -1.3948883
5.7524614 0.46288818 -1.3934419
5.7464828 0.42693764 -1.3912722
5.7644868 0.39272219 -1.3951294
5.7842236 0.35842147 -1.3994688
5.7882524 0.32303119 -1.3999509
5.7697697 0.28650236 -1.3948883
5.8131113 0.25289986 -1.4052546
5.7854586 0.21614535 -1.3980223
5.7507844 0.17952913 -1.3891026
5.7808843 0.14496365 -1.3963348
5.770021 0.1092719 -1.3934419
5.7929025 0.074146889 -1.3989866
5.8233333 0.038795359 -1.4064599
5.8254027 0.0030639616 -1.4069421
5.7884336 -0.032465879 -1.3977813
5.7997704 -0.06812153 -1.4006741
5.7526665 -0.10286475 -1.3891026
0 -0 -0
0 -0 -0
0 -0 -0
0 -0 -0
0 -0 -0
0 -0 -0
0 -0 -0
0 -0 -0
0 -0 -0
0 -0 -0
0 -0 -0
0 -0 -0
0 -0 -0
7.7796073 -0.81071472 -1.9028335
7.86902 -0.86888647 -1.9264588
7.8567924 -0.9163655 -1.9247713
7.8616176 -0.96586001 -1.9274231
7.8285933 -1.0105968 -1.920673
7.7433839 -1.0479288 -1.9009049
7.5071526 -1.0628709 -1.8432879
7.2806382 -1.0763756 -1.7880818
7.1587977 -1.1032712 -1.7591528
7.0349889 -1.1284052 -1.7297416
6.9293342 -1.155097 -1.7049109
6.8312702 -1.1818602 -1.6820087
6.9547572 -1.2472454 -1.715036
7.0509777 -1.3092245 -1.7413132
6.9970651 -1.3436711 -1.7297416
6.9867845 -1.3862009 -1.7292595
6.9458222 -1.4224197 -1.7210629
6.9502573 -1.4678214 -1.724438
6.950603 -1.5125048 -1.7268487
6.9392972 -1.5546998 -1.7263665
6.8946376 -1.5891782 -1.7174468
6.8705916 -1.628094 -1.7138306
6.8321848 -1.6633288 -1.7065984
6.7794828 -1.6946212 -1.69575
6.764257 -1.7349811 -1.6945447
6.7272048 -1.7695359 -1.6877946
6.6956067 -1.8052185 -1.6824908
6.6656952 -1.8410971 -1.6776694
6.6206551 -1.8724484 -1.6689907
6.6146345 -1.9146568 -1.6704371
6.592526 -1.9521745 -1.6677853
6.5683494 -1.9889303 -1.6646513
6.546751 -2.0263243 -1.6622406
6.5175395 -2.0611861 -1.6579012
6.4936876 -2.0975564 -1.6550083
6.4770088 -2.1361449 -1.654044
6.4463048 -2.1699612 -1.6494635
6.4356222 -2.2104204 -1.6501868
6.4054523 -2.2440882 -1.6458474
6.3842511 -2.280736 -1.6439189
6.3810792 -2.323853 -1.6468117
6.363061 -2.3616114 -1.6458474
6.350266 -2.4012969 -1.6463296
6.3354125 -2.4402161 -1.6463296
6.3320646 -2.4836526 -1.6494635
6.3167062 -2.5224586 -1.6494635
6.2903218 -2.5567825 -1.6465707
6.2807922 -2.5979288 -1.6482582
6.2665224 -2.6371713 -1.6487404
6.2413015 -2.6717515 -1.6463296
6.2141137 -2.7053466 -1.6434367
6.2036085 -2.7461758 -1.6451242
6.1981459 -2.7893684 -1.6482582
6.2003284 -2.8362319 -1.6535618
6.1652093 -2.8660376 -1.6487404
6.1536498 -2.9067154 -1.6504279
6.1286993 -2.9410584 -1.6484993
6.1192613 -2.982862 -1.65091
6.0643167 -3.0022619 -1.6407849
6.0379777 -3.0354908 -1.6386153
6.0347967 -3.0804267 -1.6429546
6.0131969 -3.1160576 -1.6422313
5.9664812 -3.1384327 -1.634517
5.9522481 -3.1777265 -1.6359634
5.9266653 -3.2109518 -1.6342759
5.9000483 -3.2435153 -1.6323472
5.8656282 -3.2716169 -1.6282489
5.8488216 -3.3094585 -1.6292133
5.829247 -3.3457673 -1.6294544
5.822865 -3.3897748 -1.6335527
5.8153262 -3.4333363 -1.6374098
5.7866569 -3.4644659 -1.6352402
5.7843695 -3.5114934 -1.6407849
5.7742839 -3.5540435 -1.6441599
5.7531915 -3.5899208 -1.6444011
5.7384367 -3.6298246 -1.6465707
5.7193241 -3.6670625 -1.647535
5.6796284 -3.6909783 -1.6424724
5.6382346 -3.7134774 -1.6369277
5.594358 -3.7339909 -1.6306597
5.6099238 -3.7943525 -1.6422313
5.5529175 -3.8056538 -1.6321062
5.5278678 -3.838547 -1.631624
5.4946871 -3.8656902 -1.6287311
5.4724445 -3.9004591 -1.6292133
5.4696507 -3.949307 -1.6357223
5.4852605 -4.0120211 -1.6480172
5.4566412 -4.0427132 -1.6468117
5.4348378 -4.0784488 -1.6477761
5.3857613 -4.0935102 -1.6403028
5.3920689 -4.1507568 -1.6501868
5.3863964 -4.1992817 -1.6564548
5.3727145 -4.2418771 -1.6603119
5.3276381 -4.2596092 -1.6542851
5.3157306 -4.3038244 -1.6588656
5.2922244 -4.3388219 -1.6598299
5.2826748 -4.3854733 -1.6653745
5.2601233 -4.4215522 -1.666821
5.2062917 -4.4310951 -1.6581423
5.1944418 -4.476264 -1.6632049
5.1427488 -4.4869928 -1.6552494
5.0809398 -4.4882593 -1.6439189
5.0243726 -4.4934673 -1.6342759
5.0017419 -4.5287724 -1.6359634
5.0203543 -4.6020117 -1.6516333
4.9813533 -4.6228251 -1.6480172
4.9444084 -4.6453276 -1.6451242
4.9115934 -4.6715646 -1.6436778
4.8765459 -4.6955538 -1.6415081
4.8351355 -4.7131915 -1.6371688
4.8876243 -4.8232231 -1.6656157
4.8469539 -4.8421459 -1.6617584
2.3125975 -2.3379743 -0.7767719
2.3002424 -2.3542035 -0.77749509
2.2850802 -2.3675745 -0.77725405
2.2685018 -2.3794429 -0.7765308
4.6289649 -4.9171638 -1.6374098
4.6020107 -4.949028 -1.6386153
4.582716 -4.989325 -1.6427135
4.5526676 -5.0180693 -1.6429546
4.5172586 -5.0408492 -1.6412671
4.4862437 -5.0684719 -1.6412671
4.4422865 -5.0812883 -1.6364455
4.4046831 -5.1011033 -1.6340348
4.3827453 -5.139112 -1.637651
4.3386278 -5.1510592 -1.6328294
4.3013554 -5.1708679 -1.6306597
4.2713943 -5.1994128 -1.6313829
4.2369657 -5.2225089 -1.6304187
4.2169747 -5.2635584 -1.6352402
4.1839967 -5.2885728 -1.634999
2.0153921 -2.5788639 -0.77291465
1.9906411 -2.5796533 -0.76929855
1.9712478 -2.5871861 -0.76785207
1.9535865 -2.5969052 -0.76712888
1.9387722 -2.6104021 -0.76761103
1.8791255 -2.5627515 -0.74928933
1.7132081 -2.3666322 -0.68564552
1.6980904 -2.3763099 -0.68540442
1.6818005 -2.3843045 -0.68468118
3.8457274 -5.5264225 -1.6323472
3.785928 -5.512311 -1.6210167
3.7656436 -5.5555234 -1.6270436
3.7233927 -5.5664229 -1.6234275
3.6747367 -5.5672927 -1.6169184
3.6389186 -5.5872955 -1.6161952
3.6045671 -5.6095185 -1.6161952
3.5643656 -5.6225123 -1.6135434
3.5251694 -5.6368709 -1.6113738
3.5032506 -5.6790466 -1.6174006
3.4764075 -5.7137022 -1.6212578
3.4407842 -5.7340932 -1.6210167
3.4070182 -5.7576036 -1.62174
3.3828721 -5.7976818 -1.6272846
3.330785 -5.7897248 -1.6190882
3.2918468 -5.8041434 -1.6174006
3.2542775 -5.8208437 -1.6164364
3.2049212 -5.8160501 -1.6094451
1.6125149 -2.9680359 -0.79895079
1.5896952 -2.9693167 -0.79654002
1.5705409 -2.9772978 -0.79605788
3.0907407 -5.9497976 -1.6253561
3.0462201 -5.9530973 -1.6210167
2.9952264 -5.9430742 -1.6130613
2.9487839 -5.9413443 -1.6075165
2.9122729 -5.9593258 -1.6075165
2.8777554 -5.9814563 -1.6087219
2.8422453 -6.0016327 -1.6094451
2.8106945 -6.030396 -1.6125791
2.7667644 -6.0325308 -1.6084808
2.7388747 -6.0697412 -1.6140256
2.6909533 -6.0624804 -1.6075165
2.657197 -6.0868835 -1.6096863
2.6163547 -6.095046 -1.6075165
2.5856962 -6.1270809 -1.6118559
2.541362 -6.1266937 -1.6075165
2.5011582 -6.1358805 -1.605829
2.4479537 -6.1123686 -1.5954628
2.4175055 -6.1453381 -1.6002843
2.3874435 -6.1799741 -1.605588
2.3481028 -6.1908765 -1.6046237
2.3117645 -6.2097158 -1.605829
2.2633004 -6.1955228 -1.5983557
2.2245882 -6.2074661 -1.5978736
2.1925693 -6.2383966 -1.6024539
2.155514 -6.255403 -1.6034182
2.1198843 -6.2767868 -1.605588
2.0755408 -6.2721691 -1.6010075
2.0379138 -6.2875562 -1.6017307
1.9975352 -6.2943916 -1.6002843
1.9657812 -6.3287749 -1.60607
1.9235272 -6.3295741 -1.6031772
1.8868641 -6.3487 -1.6051058
1.8438145 -6.3461781 -1.6014897
1.8024564 -6.348969 -1.5993199
1.7670941 -6.373003 -1.602695
1.7261829 -6.3771677 -1.6010075
1.6892498 -6.3960848 -1.6031772
1.6434412 -6.3809524 -1.5966681
1.607091 -6.4022126 -1.5995611
1.5721539 -6.4298658 -1.6041415
1.5304259 -6.4299493 -1.6017307
1.4909437 -6.439219 -1.6017307
1.4482111 -6.4340434 -1.5981146
1.4142979 -6.4684081 -1.6046237
1.3661268 -6.4370894 -1.5944985
1.330318 -6.4634123 -1.5990789
1.2938582 -6.4876342 -1.6031772
1.2534751 -6.4925919 -1.6024539
1.216105 -6.5135179 -1.605829
1.1571853 -6.4157929 -1.5793108
0.71152467 -4.0859079 -0.99012333
0.68563884 -4.0854111 -0.98891795
1.0435301 -6.4647503 -1.586543
0.6309948 -4.0647454 -0.9816857
0.6078974 -4.0810199 -0.98481965
0.58585542 -4.1058111 -0.99012333
0.8971318 -6.5807295 -1.6096863
0.85336071 -6.5601249 -1.6031772
0.81178224 -6.5546427 -1.6005254
0.77075595 -6.552753 -1.5988379
0.73042727 -6.5563946 -1.5985968
0.43342265 -4.1159058 -0.9879536
0.41111848 -4.1484275 -0.99542695
0.60568309 -6.5262084 -1.5879894
0.57122767 -6.594584 -1.6041415
0.52539557 -6.5312147 -1.5875072
0.48595628 -6.543026 -1.589677
0.44652337 -6.5565357 -1.5923288
0.25312215 -4.079381 -0.97517663
0.36522269 -6.5469866 -1.5887127
0.32643446 -6.5772147 -1.5957038
0.28573537 -6.5713367 -1.5937753
0.24576943 -6.582665 -1.596186
0.20498319 -6.5714383 -1.593052
0.16504391 -6.5880957 -1.5969093
0.1249079 -6.6045098 -1.6007664
0.084466629 -6.6119452 -1.6024539
0.043844726 -6.6045747 -1.6005254
0.0033250269 -6.6231589 -1.6051058
-0.037437998 -6.6444058 -1.6104094
-0.048020944 -4.1170325 -0.98264998
-0.073229037 -4.113749 -0.98192674
-0.09814015 -4.0996394 -0.97855169
-0.20184343 -6.6861086 -1.6214989
-0.24006787 -6.6081252 -1.6024539
-0.28131309 -6.6230111 -1.6065522
-0.32241884 -6.6308541 -1.608963
-0.36315218 -6.6297202 -1.6092041
-0.40329179 -6.6186485 -1.6070343
-0.27512321 -4.1071372 -0.98240888
-0.48377165 -6.6035223 -1.6046237
-0.32488725 -4.0957122 -0.98048031
-0.34951425 -4.0878401 -0.97903383
-0.60826093 -6.6263576 -1.6128201
-0.64729625 -6.6060805 -1.6087219
-0.69023585 -6.6251512 -1.6145077
-0.73194057 -6.6304374 -1.6169184
-0.48431215 -4.1571312 -0.99952525
-0.51146948 -4.1675668 -1.0029002
-0.85435885 -6.6196914 -1.6178827
-0.89704514 -6.6297121 -1.62174
-0.93825221 -6.6279268 -1.6227043
-0.97378755 -6.5874829 -1.6140256
-1.0138932 -6.5794659 -1.6135434
-1.0571684 -6.5913272 -1.6181239
-0.69473791 -4.1704798 -1.0101326
-0.71070921 -4.1106744 -0.9961502
-1.1820863 -6.5917668 -1.6234275
-1.2272984 -6.6101522 -1.6299365
-0.78478748 -4.089272 -0.99422157
-0.80646151 -4.067245 -0.98988223
-0.83062303 -4.0584168 -0.98891795
-1.3873438 -6.5694962 -1.6277668
-0.89089578 -4.0962806 -1.0012127
-0.92386949 -4.1257758 -1.0101326
-0.95222127 -4.1332688 -1.0135076
-1.5391921 -6.4956975 -1.6181239
-1.0044792 -4.1278729 -1.0151951
-0.74788809 -2.994658 -0.72662824
-0.76552504 -2.9871924 -0.72590506
-1.7040699 -6.4784923 -1.6239096
-0.80111367 -2.9738255 -0.72494072
-0.81753588 -2.9623058 -0.72325319
-0.83384693 -2.9506969 -0.72156566
-0.85463637 -2.9548469 -0.72397643
-1.2218059 -4.1275835 -1.0291774
-1.2372596 -4.0875006 -1.0207398
-1.2453771 -4.025135 -1.0065165
-1.2729794 -4.0266705 -1.0089271
-1.0767963 -3.3354151 -0.8305316
-1.0856849 -3.2937236 -0.82137078
-1.0863583 -3.2290564 -0.80618304
-1.1011044 -3.2076445 -0.80232584
-1.1194812 -3.1971645 -0.8013615
-1.464099 -4.0995474 -1.0412313
-1.1343764 -3.1166201 -0.78376305
-1.1433429 -3.0823071 -0.7765308
-1.1715064 -3.0997419 -0.78303981
-1.2041144 -3.1278133 -0.79244173
-1.5643455 -3.9894671 -1.024356
-1.5952762 -3.9960155 -1.0286953
-1.6106254 -3.9636767 -1.0226685
-1.2482262 -3.0193033 -0.77146822
-1.2625861 -3.0017483 -0.76881641
-1.2794524 -2.9903762 -0.76785207
-1.2954516 -2.9771309 -0.76640564
-1.7538534 -3.9629862 -1.0364097
-1.8020431 -4.0052471 -1.0508742
-1.8310273 -4.0038218 -1.053526
-1.8322316 -3.9423521 -1.0397848
-1.8033108 -3.8187201 -1.0089271
-1.8296483 -3.8137076 -1.0106146
-1.8759856 -3.849514 -1.0236328
-1.9000012 -3.8388004 -1.0238738
-1.9095657 -3.7993252 -1.0161594
-1.9385799 -3.7987731 -1.0192934
-1.9721258 -3.8066237 -1.0248381
-1.9977055 -3.7987454 -1.0260435
-2.0186903 -3.782136 -1.0248381
-2.0178113 -3.7253098 -1.0123022
-2.0481143 -3.726465 -1.0161594
-2.0770886 -3.7248452 -1.0192934
-2.1190281 -3.7458136 -1.0289364
-2.1555033 -3.7563066 -1.0356865
-2.1995127 -3.779072 -1.0460527
-2.2310495 -3.7797108 -1.050151
-2.2407355 -3.7434702 -1.0436419
-2.2687004 -3.737946 -1.0460527
-2.2875226 -3.7173438 -1.0441241
-2.286649 -3.6653674 -1.0330347
-2.3168805 -3.6635692 -1.0366508
-2.3398399 -3.6501009 -1.0368918
-2.3701272 -3.6478806 -1.040508
-2.3940675 -3.6357002 -1.0412313
-2.4233365 -3.6314347 -1.0443652
-2.4515555 -3.6253388 -1.047017
-2.4764979 -3.6142304 -1.0482224
-2.4975204 -3.5973728 -1.0477402
-2.5117266 -3.5708692 -1.0443652
-2.5380971 -3.561712 -1.0462937
-2.575815 -3.5681002 -1.0530438
-2.5821867 -3.5310807 -1.0465349
-2.6038046 -3.5151703 -1.0465349
-2.5909479 -3.4533348 -1.0323114
-2.6549685 -3.4937687 -1.0499099
-2.7705045 -3.5996735 -1.0882409
-2.8468516 -3.6522479 -1.1101787
-2.7218351 -3.4481156 -1.0511153
-2.7326362 -3.4184654 -1.047017
-2.7602789 -3.4099298 -1.0496688
-2.7756112 -3.3861752 -1.0474992
-2.757894 -3.3227899 -1.0325525
-2.8662989 -3.4105408 -1.0665441
-2.8437607 -3.3419011 -1.0499099
-2.9079359 -3.3751099 -1.0665441
-2.9056163 -3.3308811 -1.0578654
-2.9407802 -3.3297167 -1.0634102
-2.9812155 -3.3340318 -1.0708834
-3.0341926 -3.3516424 -1.0829372
-3.2003145 -3.4917583 -1.1364559
-3.1490469 -3.3938172 -1.1099375
-3.0089672 -3.2032893 -1.0515975
-3.1804225 -3.3443713 -1.1063215
-3.2231014 -3.3478601 -1.114277
-3.2557788 -3.3405278 -1.1186163
-3.3082592 -3.3529494 -1.1299468
-3.3630714 -3.3669109 -1.1420006
-3.407135 -3.3694088 -1.1501971
-3.460382 -3.380306 -1.1615276
-3.4433365 -3.3226283 -1.1485096
-3.4524162 -3.2907269 -1.1446524
-3.4626479 -3.2601697 -1.1412773
-3.4541538 -3.2124314 -1.1316344
-3.4752295 -3.1924896 -1.1321166
-3.486845 -3.163934 -1.1294647
-3.4028223 -3.0498779 -1.094991
-3.4294672 -3.0360155 -1.0976428
-3.61903 -3.1643584 -1.1540544
-3.8264532 -3.304435 -1.2157695
-3.8894923 -3.3174126 -1.2297519
-4.3091831 -3.6297808 -1.3594503
-3.3978567 -2.827003 -1.0578654
-3.3986387 -2.7925503 -1.0525618
-3.4285235 -2.7820365 -1.0566601
-3.3826559 -2.7105927 -1.0366508
-3.5103621 -2.7776809 -1.0718478
-3.5151012 -2.7465322 -1.0679905
-3.4988399 -2.699429 -1.0576243
-3.576339 -2.7243543 -1.0766692
-3.5813515 -2.6936116 -1.0730531
-3.4567533 -2.5668983 -1.0294186
-3.4489524 -2.5284321 -1.0221863
-3.4675472 -2.5094972 -1.0231506
-3.4899886 -2.4932489 -1.0253203
-3.5210869 -2.4829695 -1.0301417
-3.5298822 -2.4568841 -1.0282131
-3.5672934 -2.4505596 -1.0349633
-3.6007419 -2.4411459 -1.040508
-3.6543775 -2.4448998 -1.0520796
-3.6522989 -2.4112067 -1.047017
-3.6946783 -2.4067545 -1.0552136
-3.7036605 -2.3803675 -1.053526
-3.6862254 -2.3373375 -1.0441241
-3.7013206 -2.3151896 -1.0443652
-3.7121525 -2.2903976 -1.0434009
-3.7460368 -2.2796805 -1.0491867
-3.8273678 -2.2970886 -1.0687138
-3.8489082 -2.278008 -1.0708834
-3.793232 -2.2137649 -1.0508742
-3.8252528 -2.201092 -1.0561779
-3.8293996 -2.1723144 -1.053526
-3.8113105 -2.1312592 -1.0446062
-3.8005137 -2.0947225 -1.0378562
-3.8252361 -2.0778458 -1.0412313
-3.7917025 -2.0296156 -1.0282131
-3.7740352 -1.990474 -1.0197755
-3.7758417 -1.9619126 -1.0168827
-3.8543401 -1.9727373 -1.0354455
-3.8594379 -1.9455574 -1.0335168
-3.8834746 -1.9278779 -1.0368918
-3.9397044 -1.9257373 -1.0491867
-3.9444492 -1.8981626 -1.0472581
-3.9665482 -1.878907 -1.050151
-3.9692051 -1.8504349 -1.0477402
-4.0254779 -1.8466718 -1.0600351
-4.0588498 -1.8319125 -1.066062
-4.0833206 -1.8128771 -1.0696781
-4.1219425 -1.7998202 -1.0771514
-4.1257734 -1.7714332 -1.0752228
-4.2063136 -1.7755049 -1.0940267
-4.2305765 -1.7552375 -1.0976428
-4.2736225 -1.7424287 -1.1063215
-4.3878489 -1.7576493 -1.1340451
-4.4382915 -1.7463185 -1.1446524
-4.551229 -1.7585549 -1.171894
-4.5818982 -1.7381643 -1.1771976
-4.6024828 -1.7137405 -1.1798494
-4.6192927 -1.6877978 -1.1815369
-4.6569719 -1.6692402 -1.1887691
-4.7184038 -1.658646 -1.2022693
-4.9478021 -1.705191 -1.2598863
-5.248745 -1.7728798 -1.336066
-5.2862458 -1.749478 -1.3430572
-5.31073 -1.7214953 -1.3466734
-5.3350692 -1.6932778 -1.3502895
-6.0377355 -1.8754373 -1.5303725
-6.0584154 -1.8411753 -1.5327833
-6.050992 -1.7984405 -1.5279617
-6.0311565 -1.7523483 -1.5200063
-6.5441036 -1.8578176 -1.6497047
-6.5544443 -1.8173697 -1.6494635
-6.578588 -1.7806659 -1.6528386
-6.6466312 -1.755374 -1.6675442
-6.7869797 -1.7479392 -1.7008126
-6.8502927 -1.719485 -1.7143128
-6.9747901 -1.7052914 -1.7434828
-7.0823717 -1.6855917 -1.7683136
-7.2467027 -1.6777604 -1.8076088
-7.5475454 -1.6986392 -1.8816189
-7.7863288 -1.7022159 -1.939718
-7.7814364 -1.6511868 -1.9358608
-7.8284955 -1.6110337 -1.9452627
-7.8334742 -1.5620203 -1.9440573
-7.8286171 -1.5111686 -1.9404413
-7.8520527 -1.4657739 -1.9440573
-7.883822 -1.4216974 -1.9498432
-7.8885722 -1.3726314 -1.9488788
-7.8202724 -1.3113732 -1.9295928
-7.8415856 -1.2655271 -1.9329679
-7.8875656 -1.2233324 -1.9426109
-7.8757243 -1.1720579 -1.9377893
-7.8712378 -1.1220694 -1.9348965
-7.9058619 -1.077548 -1.9418876
-7.9257989 -1.0307686 -1.9452627
-7.903079 -0.978544 -1.9380305
-7.9282122 -0.93229723 -1.9428519
-7.9482517 -0.8852424 -1.9464681
-7.9390559 -0.83493567 -1.9428519
-7.9334059 -0.78515697 -1.9402001
-7.9438725 -0.73700082 -1.9416466
-7.9337416 -0.6869905 -1.9380305
-7.9126549 -0.63627821 -1.9317625
-7.9260888 -0.58843219 -1.9341732
-7.946979 -0.54097146 -1.9385126
-7.9443369 -0.49184054 -1.9370662
-7.9307318 -0.4421697 -1.9329679
-7.9352345 -0.39359519 -1.93345
-7.9375 -0.3448981 -1.93345
-7.9433465 -0.29633218 -1.9344143
-7.924644 -0.24695531 -1.9293517
-7.9357123 -0.1985673 -1.9317625
-7.9309592 -0.14976187 -1.9303161
-7.9239655 -0.10099778 -1.9283874
-7.9322 -0.052425519 -1.9303161
-7.9556646 -0.0037610882 -1.9361018
-7.9361281 0.044941276 -1.9312804
-7.9347324 0.093624003 -1.9310392
-7.9437122 0.14248431 -1.93345
-7.9232836 0.19075333 -1.9286286
-7.9345751 0.23974897 -1.9317625
-7.922286 0.28804067 -1.9291106
-7.9038858 0.33594245 -1.9250124
-7.8958597 0.38414961 -1.923566
-7.9224253 0.43418798 -1.9307982
-7.9079876 0.48208055 -1.9279053
-7.9019756 0.53039855 -1.9271821
-7.4947352 -0.18669945 -1.9097537
-7.5596032 -0.1419113 -1.926368
-7.5525899 -0.095425546 -1.9243542
-7.5656142 -0.049164347 -1.9276266
-7.5715804 -0.0027440905 -1.929137
-7.5366144 0.043514967 -1.9200747
-7.5516891 0.089941546 -1.9241024
-7.5355129 0.13599755 -1.9200747
-7.5790424 0.18330611 -1.9316543
-7.5390806 0.22863536 -1.9215851
-7.5675178 0.27598184 -1.9293888
-7.5231376 0.32059926 -1.9183125
-7.5461617 0.36797857 -1.9248576
-7.5254011 0.41326669 -1.9200747
-7.5275536 0.45972863 -1.9213333
-7.5072098 0.50474048 -1.9168022
-7.5348582 0.55305982 -1.9248576
-7.5062394 0.59728777 -1.9183125
-7.5140042 0.64432561 -1.9213333
-7.5089455 0.69032997 -1.9210817
-7.513237 0.73724115 -1.9233472
-7.4970212 0.78212321 -1.9203265
-7.503624 0.82938462 -1.9233472
-7.4839749 0.87372774 -1.9195713
-7.4746304 0.91915983 -1.9185643
-7.4678903 0.96488208 -1.9183125
-7.4599109 1.0104263 -1.9178091
-7.4315314 1.0530586 -1.9120193
-7.437376 1.1004788 -1.9152918
-7.4151797 1.1437331 -1.9112641
-7.4280891 1.1924306 -1.9165505
-7.4196782 1.2378268 -1.9162987
-7.4262476 1.2858058 -1.9200747
-7.4201236 1.33169 -1.9205781
-7.4022975 1.3754264 -1.9180609
-7.3851652 1.4191769 -1.9157952
-7.3734703 1.4638995 -1.91504
-7.3757262 1.5114455 -1.9180609
-7.3303313 1.5490718 -1.9084951
-7.3405471 1.5983436 -1.9137814
-7.2814946 1.6323483 -1.9006914
-7.3307538 1.690695 -1.9165505
-7.3032913 1.7316258 -1.9120193
-7.2915883 1.7761763 -1.9117676
-7.2983918 1.8253437 -1.9165505
-7.2570562 1.8623948 -1.9084951
-7.2614036 1.9110748 -1.9127744
-7.2383275 1.9525698 -1.9097537
-7.223412 1.9961734 -1.9089985
-7.1914716 2.0349252 -1.9037122
-7.1565394 2.0725529 -1.8976706
-7.1501832 2.1183498 -1.8994327
-7.180584 2.1753685 -1.9112641
-7.1476865 2.213376 -1.9059777
-7.1385846 2.2586513 -1.9072363
-7.1255121 2.3027077 -1.9074881
-7.1406593 2.3560882 -1.9155436
-7.1040559 2.392446 -1.909502
-7.1029716 2.4407074 -1.913278
-7.0695949 2.4778433 -1.9082433
-7.0679288 2.5260599 -1.9120193
-7.0686641 2.5753427 -1.9165505
-7.0173445 2.6055307 -1.9067329
-6.9957938 2.6464849 -1.9052225
-7.0119352 2.7018859 -1.9142848
-6.9699984 2.7349625 -1.9072363
-6.9306169 2.7687035 -1.9009432
-6.9179807 2.8129992 -1.9022018
-6.8925414 2.8520644 -1.8999362
-6.8668838 2.8909233 -1.8976706
-6.8703685 2.9421458 -1.9037122
-6.8521867 2.9842463 -1.9037122
-6.8505602 3.0336788 -1.9084951
-6.8194618 3.0700946 -1.9049708
-6.7987356 3.1110749 -1.9044673
-6.7777634 3.1519165 -1.9039639
-6.7495451 3.1893106 -1.9014466
-6.7350841 3.2331777 -1.902957
-6.7038097 3.2689288 -1.8996844
-6.6524034 3.2945404 -1.8906221
-6.6424389 3.3405139 -1.8936429
-6.6399179 3.39045 -1.8989292
-6.6232858 3.4333546 -1.9001878
-6.6003814 3.4730284 -1.8996844
-6.5652876 3.5061684 -1.8956567
-6.5479054 3.5486917 -1.8969154
-6.5141349 3.582274 -1.8933911
-6.5131612 3.6339638 -1.8996844
-6.4873719 3.6719527 -1.8986775
-6.4815059 3.7213261 -1.9037122
-6.4476776 3.7546952 -1.9004396
-6.4136844 3.7877893 -1.8971671
-6.3886614 3.8260772 -1.8966637
-6.3617558 3.8631961 -1.8956567
-6.3379316 3.9021585 -1.8956567
-6.3187957 3.9440484 -1.8971671
-6.3002014 3.9863675 -1.8989292
-6.2788815 4.0270395 -1.8999362
-6.2499967 4.0628529 -1.8986775
-6.2176762 4.0963345 -1.8964119
-6.1964488 4.137095 -1.8976706
-6.1597252 4.1674457 -1.8941463
-6.1444154 4.212276 -1.8974189
-6.0930176 4.2322321 -1.8893634
-6.0883045 4.2845755 -1.8961602
-6.0666285 4.325223 -1.8976706
-6.0227141 4.3499002 -1.8921325
-5.9966912 4.3873444 -1.8923842
-5.9789891 4.4309711 -1.8954051
-5.9331121 4.4536309 -1.8893634
-5.9164596 4.4981518 -1.8928877
-5.8856807 4.5320082 -1.8918808
-5.8684468 4.5763683 -1.8954051
-5.8470922 4.6176882 -1.8976706
-5.8095784 4.6462255 -1.8946499
-5.7899857 4.6890931 -1.8976706
-5.7611051 4.7245317 -1.8976706
-5.7312627 4.7591739 -1.8974189
-5.7160282 4.8060837 -1.9022018
-5.6768508 4.832911 -1.8989292
-5.6448903 4.865757 -1.898174
-5.6010737 4.8882117 -1.8933911
-5.5717001 4.9231281 -1.8936429
-5.5240755 4.9417372 -1.8876014
-5.5094314 4.9898314 -1.8931395
-5.4779973 5.0228887 -1.8928877
-5.4328876 5.0432386 -1.887853
-5.4053669 5.079793 -1.8891118
-5.3691878 5.1081948 -1.8873496
-5.3251958 5.1289592 -1.8828185
-5.290853 5.1588349 -1.8818115
-5.2460122 5.1782851 -1.8770286
-5.1874399 5.1836987 -1.8672111
-5.1868343 5.2470894 -1.8787907
-5.1775312 5.3023582 -1.8873496
-5.1422114 5.3312411 -1.8863426
-5.1053967 5.358489 -1.8848323
-5.0737481 5.3911238 -1.8853358
-5.0313478 5.412231 -1.8818115
-5.0026264 5.4479904 -1.8835737
-4.9821086 5.4929199 -1.8886082
-4.948957 5.524107 -1.88886
-4.9233065 5.5637908 -1.8921325
-4.8725147 5.5749497 -1.8855875
-4.8287292 5.5937533 -1.8818115
-4.7792454 5.6056023 -1.87577
-4.7640858 5.6577702 -1.8835737
-4.7503214 5.712194 -1.8921325
-4.7213254 5.7487125 -1.8946499
-4.6640148 5.7505159 -1.8855875
-4.6207767 5.769206 -1.8823149
-4.5786862 5.7891002 -1.8795459
-4.5472488 5.8224249 -1.8813081
-4.5043449 5.8410201 -1.8782873
-4.4736977 5.8754783 -1.8805529
-4.4195323 5.8788376 -1.8727492
-4.4156804 5.9493623 -1.8868462
-4.3773766 5.9740028 -1.886091
-4.3156791 5.966248 -1.8750148
-4.2997994 6.0217566 -1.8843288
-4.2873039 6.0828319 -1.8954051
-4.2487941 6.1074347 -1.8949015
-4.1991873 6.1158381 -1.8893634
-4.1697259 6.1535058 -1.8931395
-4.118978 6.159668 -1.8870978
-4.0608492 6.1541305 -1.8775321
-4.0420232 6.208128 -1.8865944
-4.02321 6.2629395 -1.8959085
-3.9779701 6.2768807 -1.8926359
-3.9419465 6.305274 -1.8938947
-3.9123285 6.3441696 -1.8984258
-3.8783574 6.3763242 -1.9009432
-3.83916 6.4000015 -1.9009432
-3.7919335 6.4101105 -1.8969154
-3.7461908 6.4223895 -1.8936429
-3.7100909 6.4511271 -1.8954051
-3.6685281 6.4704027 -1.8943981
-3.6396182 6.5122209 -1.9001878
-3.5935202 6.5234108 -1.8969154
-3.5571201 6.5521417 -1.8989292
-3.5300903 6.5985909 -1.9062295
-3.4850225 6.6115656 -1.9037122
-3.4457273 6.6354017 -1.9044673
-3.3996589 6.64608 -1.9014466
-3.3614283 6.6720009 -1.902957
-3.3242981 6.7003031 -1.9052225
-3.2882214 6.731009 -1.9082433
-3.2489564 6.7554193 -1.909502
-3.2012324 6.7621064 -1.905726
-3.1560018 6.7737265 -1.9034604
-3.1123626 6.7885652 -1.9022018
-3.0650785 6.7951841 -1.8986775
-3.0248966 6.8174014 -1.8996844
-2.9892027 6.8500257 -1.9037122
-2.9421537 6.8566766 -1.9004396
-2.9083033 6.894217 -1.9059777
-2.8622391 6.9029927 -1.9034604
-2.8234816 6.9293871 -1.9059777
-2.7801909 6.9447846 -1.9054743
-2.7460275 6.9833283 -1.9115158
-2.6954558 6.9801846 -1.9059777
-2.6573794 7.0092611 -1.909502
-2.6197226 7.0399466 -1.9135296
-2.5754809 7.0531611 -1.9127744
-2.5204039 7.0360322 -1.9037122
-2.4797509 7.0586691 -1.905726
-2.4269366 7.0463009 -1.898174
-2.3898475 7.0793986 -1.9032087
-2.3448443 7.089335 -1.90195
-2.3075655 7.1229234 -1.9072363
-2.2682066 7.1507854 -1.9110124
-2.2202694 7.1516285 -1.9074881
-2.1715636 7.1493754 -1.9032087
-2.133719 7.1829748 -1.9087468
-2.0858257 7.1829205 -1.9052225
-2.0443552 7.2048941 -1.9077399
-2.0057955 7.2378201 -1.913278
-1.9613475 7.2499914 -1.913278
-1.9239897 7.2890258 -1.9205781
-1.8748854 7.2838235 -1.916047
-1.8193225 7.2520103 -1.9044673
-1.773412 7.2573967 -1.902957
-1.7364643 7.3001528 -1.9115158
-1.695785 7.3285847 -1.9162987
-1.6352779 7.2699256 -1.8979223
-1.594979 7.2996778 -1.9032087
-1.5579916 7.3462496 -1.9130262
-1.5052807 7.3187013 -1.9032087
-1.4658325 7.3553243 -1.9105089
-1.4232408 7.3774834 -1.9140332
-1.3632108 7.3071136 -1.8931395
-1.3271061 7.363915 -1.9059777
-1.2782483 7.3509431 -1.9004396
-1.2427195 7.4159164 -1.9155436
-1.1934936 7.4004712 -1.909502
-1.1516212 7.4306083 -1.9155436
-1.1051518 7.4317908 -1.9140332
-1.0633532 7.4652596 -1.9210817
-1.0181804 7.476438 -1.9223403
-0.97203714 7.4806256 -1.9218369
-0.92183936 7.4518719 -1.9127744
-0.87688899 7.4641166 -1.9145366
-0.83032399 7.4626231 -1.9127744
-0.78431624 7.4656525 -1.912271
-0.74058884 7.4915128 -1.9178091
-0.69496524 7.4997706 -1.9188161
-0.6491847 7.5067863 -1.9195713
-0.60311174 7.5106282 -1.9195713
-0.55472493 7.4833026 -1.9115158
-0.50978291 7.501049 -1.9152918
-0.46291131 7.4905124 -1.9117676
-0.41753367 7.5038414 -1.9145366
-0.37138733 7.5043287 -1.9140332
-0.32629964 7.5287046 -1.9198229
-0.27944982 7.5131569 -1.9152918
-0.23412699 7.5398808 -1.9218369
-0.1873274 7.5198903 -1.9162987
-0.1407091 7.4957399 -1.9097537
-0.094823949 7.5051718 -1.9120193
-0.048809335 7.5114188 -1.9135296
-0.0027119971 7.4941564 -1.9089985
0.043498356 7.533711 -1.9193195
0.08939074 7.5052381 -1.9120193
0.13547516 7.5064836 -1.9125228
0.18160157 7.5084138 -1.913278
0.22743464 7.4994192 -1.9112641
0.27341071 7.4969153 -1.9110124
0.31870613 7.4786592 -1.9067329
0.36524755 7.4900956 -1.9102572
0.41289559 7.5186367 -1.9183125
0.45701715 7.4831176 -1.9097537
0.50305384 7.4821038 -1.9102572
0.54555547 7.4325466 -1.898174
0.59383553 7.4628253 -1.9069847
0.64052439 7.4696484 -1.9097537
0.68581396 7.459795 -1.9082433
0.73100668 7.4496675 -1.9067329
0.7791121 7.4681435 -1.9127744
0.82300818 7.4459076 -1.9082433
0.86767036 7.432066 -1.9059777
0.9112491 7.4102726 -1.9016984
0.95806414 7.4150996 -1.9044673
1.0035443 7.4090815 -1.9044673
1.05238 7.4267402 -1.9107606
1.0965136 7.4105692 -1.9082433
1.1419635 7.4037018 -1.9082433
1.18507 7.3822217 -1.9044673
1.2327323 7.3891306 -1.9082433
1.2770575 7.3757062 -1.9067329
1.3238282 7.3763046 -1.9089985
1.3680029 7.3623338 -1.9074881
1.4122386 7.3490491 -1.9062295
1.4557977 7.3326511 -1.9042156
1.5007626 7.3235807 -1.9042156
1.5462711 7.3170748 -1.9049708
1.5934031 7.3178515 -1.9077399
1.6406028 7.318325 -1.9105089
1.6828671 7.296804 -1.9074881
1.726938 7.2835155 -1.9067329
1.7702223 7.2671404 -1.9052225
1.8183007 7.270225 -1.9089985
1.86937 7.2842422 -1.9157952
1.9054105 7.2398767 -1.9069847
1.9495457 7.2271147 -1.9067329
1.9938538 7.2150164 -1.9067329
2.0404577 7.2110276 -1.9089985
2.0798204 7.1816392 -1.9044673
2.1221979 7.1631746 -1.902957
2.1647077 7.1453872 -1.9016984
2.2079377 7.1301212 -1.9011948
2.2484348 7.1062894 -1.8984258
2.2902105 7.086834 -1.8969154
2.3375931 7.0845957 -1.9001878
2.3785486 7.0627818 -1.898174
2.4224691 7.0498848 -1.8986775
2.466321 7.036715 -1.899181
2.50652 7.013247 -1.8969154
2.5478489 6.9931884 -1.8956567
2.5863318 6.9656286 -1.8923842
2.621491 6.9297137 -1.8868462
2.6643095 6.9144011 -1.8870978
2.7077458 6.9006257 -1.887853
2.7432153 6.8668051 -1.8830701
2.788578 6.8579125 -1.8853358
2.826905 6.8317304 -1.8828185
2.8638895 6.8026605 -1.8795459
2.9086235 6.7920771 -1.8815597
2.9494712 6.7723279 -1.8810563
2.9925373 6.7576423 -1.8820633
3.032356 6.7356234 -1.8810563
3.0784597 6.7274508 -1.8840771
3.1111119 6.6900063 -1.8787907
3.1587172 6.6847916 -1.8828185
3.1967432 6.6591768 -1.8810563
3.2477221 6.6603146 -1.8870978
3.2795093 6.6220484 -1.8818115
3.3318186 6.6251464 -1.8886082
3.3385215 6.5382071 -1.8692249
3.3558633 6.4737782 -1.8563867
3.3932695 6.4487824 -1.8551279
3.4496415 6.4594278 -1.864442
3.4822946 6.4253759 -1.860666
3.521188 6.4030404 -1.8604143
3.5637105 6.3872304 -1.8621764
3.5956845 6.3526096 -1.8584005
3.6360414 6.3329453 -1.8591557
3.6845706 6.3272429 -1.8641903
3.7120061 6.2853484 -1.8584005
3.7465248 6.2558112 -1.8563867
3.7803187 6.2252598 -1.8541211
3.8174303 6.2002988 -1.8536175
3.8574524 6.1800427 -1.8546245
3.8875382 6.14399 -1.8508486
3.9215069 6.1143179 -1.8490864
3.9621143 6.0950098 -1.8505968
4.0127478 6.0907888 -1.8568901
4.0742254 6.1022735 -1.8682179
4.055737 5.9945946 -1.8422897
4.1104999 5.9959388 -1.8505968
4.1334114 5.9507322 -1.8443035
4.1609354 5.9125943 -1.8402758
4.2257872 5.9271426 -1.8531141
4.2751079 5.919148 -1.8589039
4.331346 5.9201431 -1.8677145
