# .PCD v0.7 - Point Cloud Data file format
VERSION 0.7
FIELDS x y z
SIZE 4 4 4
TYPE F F F
COUNT 1 1 1
WIDTH 1597
HEIGHT 1
VIEWPOINT 0 0 0 1 0 0 0
POINTS 1597
DATA ascii
-1.0956452 -3.1326504 -1.0281014
-1.1039646 -3.0953915 -1.017674
-1.117077 -3.0724602 -1.0121535
-1.1349151 -3.0628707 -1.0112333
-1.16109 -3.0754371 -1.0179806
-1.5201795 -3.9520757 -1.3231393
-1.4481721 -3.6972108 -1.2381856
-1.5015264 -3.7651634 -1.2648678
-1.5256754 -3.7585247 -1.265788
-1.4210685 -3.440352 -1.158139
-1.4063549 -3.3464644 -1.1283898
-1.4189992 -3.3193955 -1.1219493
-1.4526321 -3.3411729 -1.1326835
-1.4515389 -3.2834537 -1.1155087
-1.4591638 -3.2467082 -1.1056945
-1.4667888 -3.2108595 -1.0961871
-1.4828528 -3.1940305 -1.0934269
-1.5007976 -3.1814289 -1.0922002
-1.5108225 -3.152422 -1.0851462
-1.5309708 -3.1448038 -1.0857596
-1.5384182 -3.1114645 -1.0771722
-1.5570533 -3.1011159 -1.0768656
-1.5838386 -3.1067646 -1.082386
-1.5871117 -3.0665622 -1.0713451
-1.5992537 -3.0441291 -1.0667447
-1.6165576 -3.03174 -1.0658246
-1.6283307 -3.0092094 -1.0612242
-1.6252203 -2.9599559 -1.0468097
-1.64845 -2.9590728 -1.0501833
-1.6721985 -2.9588439 -1.0538636
-1.6983744 -2.9625628 -1.0590774
-1.7332754 -2.9808791 -1.0698116
-1.737988 -2.9472361 -1.0612242
-1.7462636 -2.920182 -1.0550903
-1.7626674 -2.906971 -1.0541703
-1.7884512 -2.9090714 -1.0590774
-1.8037486 -2.8940051 -1.0575439
-1.8219806 -2.8836873 -1.0578506
-1.8345044 -2.8644402 -1.0547837
-1.8546382 -2.8571208 -1.0563171
-1.8621898 -2.8305824 -1.05049
-1.8774098 -2.8159361 -1.0492632
-1.856802 -2.7483799 -1.0274881
-1.9129002 -2.7942557 -1.0498766
-1.9810275 -2.8559644 -1.0787057
-1.9601867 -2.7892563 -1.0572373
-1.9706368 -2.7678742 -1.0535569
-1.9797844 -2.7449257 -1.0492632
-1.9937809 -2.7288845 -1.0477297
-2.0110538 -2.7173643 -1.0480365
-2.0208356 -2.695837 -1.0443561
-2.0361872 -2.6818709 -1.0437428
-2.0462196 -2.6610289 -1.0403692
-2.0601685 -2.6454206 -1.0391424
-2.0704651 -2.6252582 -1.0360755
-2.0960422 -2.6244009 -1.0409825
-2.1282732 -2.6314666 -1.0492632
-2.1534295 -2.6294007 -1.0538636
-2.1804636 -2.6293221 -1.0593841
-2.2155373 -2.6384835 -1.0688915
-2.2347689 -2.6284642 -1.0704249
-2.2371881 -2.5988374 -1.0636778
-2.2424567 -2.5728669 -1.0584639
-2.2695415 -2.5719013 -1.0639844
-2.275764 -2.5472836 -1.0593841
-2.2715507 -2.5113959 -1.0498766
-2.3152113 -2.5282874 -1.0633711
-2.3028457 -2.4840291 -1.0501833
-2.3336825 -2.4865036 -1.0575439
-2.3265967 -2.4486847 -1.0471164
-2.344218 -2.4371059 -1.0483432
-2.3392 -2.4022255 -1.0391424
-2.3552325 -2.3891826 -1.0397557
-2.3893526 -2.394217 -1.0486498
-2.4168556 -2.3922288 -1.054477
-2.4423811 -2.3879972 -1.0593841
-2.4535632 -2.3696611 -1.0578506
-2.4673681 -2.353905 -1.0575439
-2.4783003 -2.3354585 -1.0560105
-2.4897962 -2.3176148 -1.0547837
-2.5081751 -2.3061581 -1.0566238
-2.5222783 -2.2907248 -1.0566238
-2.542665 -2.2809231 -1.0593841
-2.5708647 -2.2778983 -1.0655179
-2.5941074 -2.2702265 -1.0695049
-2.5993447 -2.2468004 -1.0658246
-2.6217711 -2.2382219 -1.0695049
-2.6172583 -2.2067604 -1.0618376
-2.6380658 -2.196748 -1.0649046
-2.6294346 -2.1623902 -1.0557038
-2.6345239 -2.1396177 -1.0523301
-2.6275494 -2.1073406 -1.0440495
-2.6493866 -2.0982668 -1.0477297
-2.6599615 -2.0802126 -1.0468097
-2.6869926 -2.0749004 -1.0526369
-2.7019448 -2.0601048 -1.0535569
-2.7244225 -2.0509255 -1.0575439
-2.7354271 -2.0330353 -1.0569305
-2.7424772 -2.0122731 -1.0547837
-2.7501464 -1.9920591 -1.0529435
-2.7778063 -1.9862139 -1.0590774
-2.7860522 -1.9663893 -1.0575439
-2.8441539 -1.9813418 -1.0756388
-2.8382146 -1.9514561 -1.0685848
-2.8398938 -1.9270601 -1.0645978
-2.8263514 -1.89266 -1.0547837
-2.845854 -1.8805269 -1.0578506
-2.8685038 -1.8703039 -1.0621443
-2.8807263 -1.8531824 -1.062451
-2.9016886 -1.8415889 -1.0661312
-2.919389 -1.8277884 -1.0685848
-2.9256892 -1.8068417 -1.0667447
-2.9586728 -1.8022177 -1.0750253
-2.9672272 -1.7825601 -1.0741053
-2.992852 -1.7730476 -1.0796257
-3.0234032 -1.7661662 -1.0869863
-3.0416076 -1.7518547 -1.0897466
-3.0771346 -1.74725 -1.0989474
-3.0919511 -1.7306591 -1.1004808
-3.1266849 -1.7249806 -1.1093749
-3.1564462 -1.7162141 -1.1164289
-3.1652391 -1.6959156 -1.1158154
-3.2227294 -1.7013311 -1.1329902
-3.2635124 -1.6973258 -1.144031
-3.3247001 -1.7032928 -1.1624327
-3.3605855 -1.6957164 -1.1716334
-3.3794518 -1.6792973 -1.1747004
-3.4392869 -1.682777 -1.1924884
-3.4263916 -1.6504966 -1.1842078
-3.5044062 -1.6616367 -1.2084365
-3.6991394 -1.7261837 -1.2740686
-3.7935748 -1.7419574 -1.3038177
-3.7660215 -1.701416 -1.2903233
-3.8207548 -1.6979774 -1.3059646
-3.9671719 -1.7339308 -1.3538085
-4.0407052 -1.7365991 -1.3758904
-4.072329 -1.7206584 -1.3832511
-4.0924807 -1.699652 -1.3866247
-4.1301537 -1.6856514 -1.3961321
-4.1863618 -1.6786866 -1.41208
-4.1983547 -1.6536652 -1.4126935
-4.312295 -1.6680222 -1.4485765
-4.5253429 -1.7185261 -1.5185022
-4.4992328 -1.6771053 -1.5059279
-4.5443029 -1.6622103 -1.5178889
-4.5687518 -1.6394359 -1.5227959
-4.989069 -1.7556727 -1.6629543
-5.0321412 -1.736196 -1.6739953
-5.0733581 -1.715647 -1.6844227
-5.1027646 -1.6907679 -1.6908633
-5.1356773 -1.6667668 -1.6985306
-5.1467152 -1.6355115 -1.6988373
-5.2075529 -1.6197207 -1.7160121
-5.3603635 -1.6312124 -1.7641628
-5.4423447 -1.6197252 -1.7883915
-5.5582008 -1.6171242 -1.8239677
-5.6971154 -1.6196637 -1.8672113
-5.7922421 -1.608343 -1.8957337
-5.8911157 -1.5969105 -1.9254829
-5.9109254 -1.5634084 -1.9288565
-5.9231725 -1.5278229 -1.9297765
-5.9545903 -1.4970157 -1.9371371
-5.9701357 -1.4620345 -1.939284
-5.9734387 -1.4240515 -1.9374439
-5.9857731 -1.3882319 -1.9386706
-5.996964 -1.3521053 -1.9395907
-6.0097966 -1.3163005 -1.9411242
-6.0121737 -1.2782137 -1.939284
-5.9891396 -1.2349622 -1.9291631
-5.9984713 -1.1985629 -1.9297765
-5.9973021 -1.1601092 -1.9270163
-6.0239553 -1.1269604 -1.9334568
-6.0513635 -1.0936973 -1.940204
-6.0485835 -1.0549127 -1.9371371
-6.0530653 -1.0174642 -1.9365238
-6.0638924 -0.98106331 -1.9380572
-6.0782628 -0.9451521 -1.9408175
-6.0924201 -0.90910149 -1.9435776
-6.1073065 -0.87304717 -1.9466445
-6.1116052 -0.83542824 -1.9463379
-6.1043463 -0.79631418 -1.9423509
-6.1383991 -0.76247525 -1.9518584
-6.1127133 -0.72123313 -1.9420443
-6.0839157 -0.68001837 -1.9313099
-0 -0 -0
-0 -0 -0
-0 -0 -0
-0 -0 -0
-0 -0 -0
-0 -0 -0
-0 -0 -0
-0 -0 -0
-0 -0 -0
-0 -0 -0
-0 -0 -0
-0 -0 -0
-0 -0 -0
-0 -0 -0
-0 -0 -0
-0 -0 -0
-0 -0 -0
-0 -0 -0
-0 0 -0
-0 0 -0
-0 0 -0
-0 0 -0
-0 0 -0
-0 0 -0
-0 0 -0
-0 0 -0
-6.2039971 0.33759162 -1.9607525
-0 0 -0
-0 0 -0
-0 -0 -0
-0 -0 -0
-0 -0 -0
-0 -0 -0
-0 -0 -0
-0 0 -0
-0 0 -0
-0 0 -0
-0 0 -0
-0 0 -0
-0 0 -0
-0 0 -0
-0 0 -0
-0 0 -0
-0 0 -0
-0 0 -0
-0 0 -0
-0 0 -0
-0 0 -0
-0 0 -0
-0 0 -0
-0 0 -0
-0 0 -0
-0 0 -0
-0 0 -0
-0 0 -0
-0 0 -0
-0 0 -0
-0 0 -0
-0 0 -0
-0 0 -0
-5.8210683 0.96809244 -1.9307027
-5.8000646 1.0012113 -1.9256312
-5.801281 1.0381171 -1.928167
-5.7901392 1.0728298 -1.9265821
-5.782516 1.1081588 -1.9262651
-5.7700253 1.1425139 -1.9243633
-5.7684817 1.1790357 -1.9262651
-5.7676349 1.2157772 -1.928484
-5.7526517 1.2495338 -1.9259481
-5.7374721 1.2831525 -1.9234123
-5.7239447 1.3170571 -1.9215105
-5.7120638 1.3512807 -1.9202427
-5.6843109 1.3816011 -1.9135861
-5.6904502 1.4201268 -1.9186578
-5.6788731 1.4543103 -1.9177068
-5.6680079 1.4886461 -1.9170729
-5.6349554 1.5169877 -1.9088316
-5.6237125 1.5510303 -1.9081976
-5.6186533 1.5867962 -1.9097825
-5.6133671 1.6225582 -1.9113673
-5.5969386 1.6550884 -1.9091486
-5.5948486 1.6918696 -1.9120013
-5.5988607 1.7306476 -1.9170729
-5.5953717 1.7672536 -1.9196087
-5.5699801 1.7968948 -1.9145371
-5.5678582 1.8340044 -1.9177068
-5.5600963 1.8693423 -1.9189748
-5.5485215 1.9034233 -1.9189748
-5.5367379 1.9374325 -1.9189748
-5.5229592 1.9707315 -1.9183408
-5.5125456 2.0052309 -1.9189748
-5.4912448 2.0357213 -1.915805
-5.4866362 2.0723922 -1.9186578
-5.4631944 2.1019325 -1.914854
-5.4475451 2.1343768 -1.9139031
-5.4211321 2.1624918 -1.9091486
-5.3945794 2.1903634 -1.9043939
-5.4196072 2.2393563 -1.9183408
-5.403142 2.2714658 -1.9173899
-5.3760219 2.2989833 -1.9126352
-5.3539863 2.3285229 -1.9097825
-5.3326588 2.3582621 -1.9072467
-5.3301988 2.3963821 -1.9116843
-5.3231587 2.43259 -1.9145371
-5.295229 2.4592149 -1.9097825
-5.2774668 2.4904454 -1.9088316
-5.2817569 2.5322096 -1.916122
-5.250771 2.5570965 -1.9104165
-5.2426338 2.5930502 -1.9132692
-5.2189965 2.6213391 -1.9104165
-5.1842251 2.6438346 -1.903443
-5.1780128 2.6808267 -1.9072467
-5.1698618 2.7169595 -1.9104165
-5.1489091 2.7463987 -1.9088316
-5.1336288 2.7788429 -1.9094656
-5.1206384 2.8125725 -1.9110503
-5.1032844 2.8439393 -1.9110503
-5.0783072 2.8709986 -1.9081976
-5.0712914 2.9082375 -1.9123182
-5.0533514 2.9392996 -1.9123182
-5.0319533 2.9683237 -1.9110503
-5.0177155 3.0015774 -1.9126352
-4.9983926 3.0318172 -1.9123182
-4.9877748 3.0673976 -1.915488
-4.9656401 3.0959373 -1.9142201
-4.940938 3.1228008 -1.9120013
-4.9192882 3.1515245 -1.9110503
-4.9070172 3.1862974 -1.9139031
-4.8778667 3.2100904 -1.9100995
-4.8533435 3.2368028 -1.9081976
-4.8263187 3.2617424 -1.9053448
-4.8062143 3.2912948 -1.9053448
-4.7890458 3.3228858 -1.9066128
-4.7677913 3.3516626 -1.9062958
-4.7370925 3.3737025 -1.9021751
-4.725533 3.4093635 -1.9059788
-4.7075872 3.4405332 -1.9072467
-4.6833386 3.4670966 -1.9059788
-4.6612182 3.4951987 -1.9056618
-4.636663 3.5214393 -1.9043939
-4.6149683 3.549823 -1.9043939
-4.6035757 3.5862324 -1.9088316
-4.5822291 3.6149993 -1.9091486
-4.5621848 3.6448231 -1.9100995
-4.5330982 3.6673791 -1.9072467
-4.5171137 3.7005336 -1.9100995
-4.4884825 3.7233367 -1.9075637
-4.4713621 3.755687 -1.9100995
-4.4475107 3.7824376 -1.9097825
-4.4270935 3.8121312 -1.9110503
-4.3971848 3.8336146 -1.9081976
-4.3721576 3.8592677 -1.9075637
-4.3476877 3.8853903 -1.9072467
-4.3146224 3.9037225 -1.903126
-4.293386 3.9326854 -1.9043939
-4.275434 3.9647586 -1.9072467
-4.24826 3.9883213 -1.9059788
-4.223021 4.0136595 -1.9056618
-4.2010479 4.0421262 -1.9069297
-4.179564 4.071136 -1.9085146
-4.151804 4.0940409 -1.9072467
-4.1286192 4.121449 -1.9081976
-4.0979152 4.1413112 -1.9056618
-4.0697756 4.1636648 -1.9043939
-4.0401983 4.1844645 -1.902492
-4.0223022 4.2174115 -1.9062958
-3.986593 4.231658 -1.9015411
-3.9683068 4.2643709 -1.9053448
-3.9427083 4.2893376 -1.9056618
-3.9131274 4.3099384 -1.9040769
-3.8910413 4.33881 -1.9062958
-3.868119 4.3668628 -1.9081976
-3.8318834 4.3798084 -1.903443
-3.8074179 4.4061084 -1.9047109
-3.7704589 4.4178452 -1.8996394
-3.7469482 4.4452481 -1.9015411
-3.7171748 4.46524 -1.9002733
-3.6957304 4.4952898 -1.903443
-3.6698718 4.5200906 -1.9043939
-3.6408813 4.5410433 -1.90376
-3.6117718 4.561811 -1.903126
-3.5802078 4.5794034 -1.9012241
-3.557838 4.6087923 -1.9043939
-3.5133922 4.609417 -1.8955187
-3.4924576 4.640739 -1.8996394
-3.4610884 4.6582747 -1.8980545
-3.4358068 4.6840119 -1.8999563
-3.4031074 4.6996284 -1.8977375
-3.3725522 4.7181063 -1.8967866
-3.3468199 4.7433605 -1.8986884
-3.3176522 4.7638073 -1.8986884
-3.2845986 4.7786031 -1.8964696
-3.2530859 4.7955279 -1.8952017
-3.2199061 4.8098812 -1.8929828
-3.1934695 4.8342957 -1.8948847
-3.1653006 4.8561831 -1.8958356
-3.134418 4.8739181 -1.8952017
-3.0953062 4.878644 -1.8894962
-3.0708487 4.9063878 -1.8929828
-3.0376961 4.9202962 -1.8910811
-3.0064619 4.9372225 -1.8904471
-2.9761112 4.9555764 -1.8904471
-2.9495151 4.9802728 -1.8929828
-2.9203362 5.0007339 -1.8939338
-2.8924372 5.0234895 -1.8958356
-2.8610909 5.040318 -1.8955187
-2.8328893 5.0627441 -1.8974205
-2.7971907 5.0717268 -1.8942508
-2.7687364 5.0937939 -1.8961526
-2.7383251 5.1123586 -1.8967866
-2.7073474 5.1299033 -1.8971035
-2.6731944 5.1413698 -1.8952017
-2.6420298 5.1585197 -1.8955187
-2.6180179 5.1898756 -1.9012241
-2.5827479 5.1990466 -1.8986884
-2.5470474 5.207129 -1.8958356
-2.5129914 5.2183867 -1.8942508
-2.4780805 5.2277088 -1.8920319
-2.4459572 5.242816 -1.8920319
-2.4141376 5.2585874 -1.8923489
-2.3806546 5.2707081 -1.8913981
-2.3540468 5.2982168 -1.8961526
-2.3192141 5.3073468 -1.8942508
-2.2847328 5.3171206 -1.8926659
-2.2520645 5.3310394 -1.8926659
-2.2229493 5.3535166 -1.8958356
-2.1853998 5.3556399 -1.8917149
-2.1563799 5.3786316 -1.8952017
-2.1209035 5.3855848 -1.8929828
-2.0857654 5.3931894 -1.8910811
-2.0499401 5.3987927 -1.8885453
-2.0184317 5.4157128 -1.8901302
-1.9871185 5.4333401 -1.8920319
-1.9527817 5.4427524 -1.8910811
-1.9231273 5.4653678 -1.8948847
-1.8846061 5.4627199 -1.8898132
-1.8568256 5.4912515 -1.8958356
-1.8213068 5.4971395 -1.8939338
-1.7872499 5.507309 -1.8936168
-1.7517004 5.5127487 -1.8917149
-1.7153063 5.5152426 -1.8888623
-1.6803284 5.5220342 -1.8875943
-1.6466848 5.5331497 -1.8879113
-1.6148231 5.5504346 -1.8904471
-1.5804765 5.5593262 -1.8901302
-1.5417666 5.5524697 -1.8844246
-1.5116396 5.5764718 -1.8894962
-1.4778796 5.5874758 -1.8901302
-1.4419091 5.5900102 -1.8879113
-1.4071196 5.5969129 -1.8872774
-1.3693662 5.5916233 -1.8825227
-1.3334908 5.5934625 -1.880304
-1.2987162 5.5996914 -1.87967
-1.2668368 5.6186571 -1.8834736
-1.2317284 5.6235452 -1.8825227
-1.1995674 5.6421294 -1.8863264
-1.1630094 5.6400948 -1.8831567
-1.1289382 5.6499147 -1.8841076
-1.0933487 5.6520796 -1.8825227
-1.0591711 5.6614785 -1.8834736
-1.0249193 5.670671 -1.8844246
-0.99075747 5.6805902 -1.8856925
-0.95619792 5.6884332 -1.8863264
-0.921731 5.6970019 -1.8872774
-0.8877781 5.7091103 -1.8894962
-0.85049021 5.6994414 -1.8844246
-0.8145631 5.6979804 -1.8822057
-0.77971417 5.7038112 -1.8825227
-0.74543804 5.7141309 -1.8844246
-0.70860809 5.7044792 -1.87967
-0.6742599 5.7143712 -1.8815719
-0.64129299 5.7372518 -1.8879113
-0.60518104 5.7325902 -1.8850585
-0.57065207 5.7428017 -1.8872774
-0.53505194 5.7424178 -1.8860095
-0.4993135 5.7399235 -1.8841076
-0.46416104 5.7438245 -1.8844246
-0.42827293 5.7380524 -1.8815719
-0.39325142 5.7434106 -1.8825227
-0.35818025 5.7485557 -1.8834736
-0.32306075 5.7534857 -1.8844246
-0.28784677 5.7572541 -1.8850585
-0.25272357 5.7636495 -1.8866434
-0.21706735 5.7575097 -1.8841076
-0.18173584 5.7587333 -1.8841076
-0.14632501 5.7568955 -1.8831567
-0.1110353 5.7595816 -1.8837906
-0.075580329 5.7516193 -1.8809379
-0.040361434 5.7624073 -1.8844246
-0.0050103259 5.770134 -1.8869604
0.030315768 5.7548814 -1.8818887
0.065647982 5.7564836 -1.8825227
0.10093473 5.754076 -1.8818887
0.13632873 5.7571411 -1.8831567
0.1715385 5.7524042 -1.8818887
0.20649116 5.741765 -1.8787191
0.24163841 5.7384949 -1.8780851
0.27748367 5.7501669 -1.8825227
0.31229767 5.7398324 -1.87967
0.34751076 5.7378082 -1.87967
0.38252148 5.732729 -1.8787191
0.41872293 5.744463 -1.8834736
0.45493332 5.754077 -1.8875943
0.49015063 5.7502322 -1.8872774
0.52369851 5.7282262 -1.8809379
0.55957299 5.7324567 -1.8834736
0.59395319 5.7213683 -1.8809379
0.62915134 5.7185593 -1.8812549
0.66400903 5.7127066 -1.880621
0.69904906 5.7085252 -1.880621
0.73442572 5.7069502 -1.8815719
0.76879525 5.6976371 -1.879987
0.79923499 5.660882 -1.8692099
0.83934754 5.6924648 -1.8815719
0.87353987 5.6825204 -1.879987
0.90869033 5.6789269 -1.880621
0.94351846 5.673244 -1.880621
0.97734344 5.6617403 -1.8787191
1.0123988 5.6575041 -1.879353
1.045539 5.6427927 -1.8765002
1.0796075 5.6334767 -1.8755493
1.1137853 5.6248856 -1.8749154
1.1499867 5.6263084 -1.8777682
1.1850741 5.6219306 -1.8787191
1.2189436 5.6117725 -1.8777682
1.252733 5.6014109 -1.8768172
1.2847403 5.5834517 -1.8733305
1.3163562 5.5643878 -1.8695269
1.353833 5.5700302 -1.8742814
1.3884437 5.5634589 -1.8749154
1.4220839 5.5529976 -1.8742814
1.4587791 5.5542579 -1.8777682
1.4923389 5.5433707 -1.8771342
1.5296017 5.5459957 -1.8812549
1.5612831 5.5282912 -1.8784021
1.5975444 5.5268073 -1.8812549
1.6287373 5.5078058 -1.8780851
1.6633253 5.500432 -1.8790361
1.6962039 5.4874039 -1.8780851
1.7321267 5.4841285 -1.880621
1.7651619 5.4715915 -1.879987
1.8022616 5.471468 -1.8837906
1.8345913 5.4567103 -1.8825227
1.8698846 5.4507337 -1.8844246
1.9067396 5.4490051 -1.8879113
1.9388635 5.43363 -1.8866434
1.9734637 5.4251962 -1.8879113
2.0050669 5.4085388 -1.8863264
2.0388854 5.3979087 -1.8869604
2.0719681 5.3852968 -1.8869604
2.1053185 5.3733649 -1.8872774
2.1361411 5.3550601 -1.8853755
2.1678886 5.3392158 -1.8844246
2.2009709 5.3266902 -1.8847415
2.2343483 5.3148336 -1.8853755
2.2568502 5.2774777 -1.8768172
2.2937284 5.2739677 -1.880621
2.3279631 5.2641315 -1.8822057
2.35672 5.2419629 -1.879353
2.3880513 5.2256784 -1.8787191
2.422467 5.2160888 -1.880621
2.4519985 5.1959801 -1.8787191
2.4899838 5.1936655 -1.8834736
2.5218046 5.1782899 -1.8834736
2.5526898 5.1610184 -1.8828397
2.5885653 5.1537337 -1.8860095
2.6184161 5.1343741 -1.8847415
2.6481266 5.1148419 -1.8834736
2.6763728 5.0926199 -1.8812549
2.7048924 5.0710812 -1.879353
2.7327969 5.0485497 -1.8771342
2.7618966 5.0283613 -1.8758663
2.7908516 5.0080061 -1.8745984
2.8247945 4.9965668 -1.8768172
2.8582304 4.984077 -1.8787191
2.8935263 4.9746442 -1.8818887
2.9235139 4.9559793 -1.8815719
2.9582496 4.9452729 -1.8844246
2.9855866 4.922163 -1.8825227
3.0142419 4.9013271 -1.8815719
3.0422523 4.8795204 -1.880304
3.075175 4.8655725 -1.8822057
3.110599 4.8553967 -1.8856925
3.1351681 4.8282642 -1.8825227
3.1678627 4.8136902 -1.8844246
3.1983917 4.7957401 -1.8850585
3.2272265 4.775239 -1.8847415
3.2559302 4.7545648 -1.8844246
3.2796361 4.7267046 -1.8812549
3.3096678 4.7080441 -1.8818887
3.3384936 4.6876473 -1.8818887
3.3732972 4.6755357 -1.8853755
3.3991241 4.6509209 -1.8837906
3.4304192 4.6337881 -1.8853755
3.4622006 4.6172051 -1.8872774
3.4904659 4.5958748 -1.8872774
3.5133963 4.567605 -1.8844246
3.5419393 4.5467095 -1.8847415
3.5656588 4.5196781 -1.8825227
3.5874045 4.4903045 -1.879353
3.6244326 4.4800062 -1.8844246
3.6536562 4.4598837 -1.8853755
3.6845856 4.4417615 -1.8872774
3.7105505 4.4176173 -1.8866434
3.742502 4.4005466 -1.8891792
3.764482 4.3717504 -1.8866434
3.8012073 4.3600087 -1.8917149
3.8291433 4.3380251 -1.8923489
3.8512654 4.3094974 -1.8901302
3.8750904 4.2829719 -1.8888623
3.9045 4.2626114 -1.8904471
3.9228432 4.2302279 -1.8866434
3.9519711 4.2095356 -1.8882283
3.9783792 4.185895 -1.8885453
4.0053039 4.1627722 -1.8891792
4.0268002 4.1340413 -1.8872774
4.0480952 4.1052032 -1.8853755
4.071198 4.0782733 -1.8844246
4.0941229 4.0512147 -1.8834736
4.123651 4.0306587 -1.8856925
4.1633143 4.0197744 -1.8926659
4.1892738 3.9954627 -1.8932998
4.2088785 3.9651296 -1.8910811
4.23174 3.9379375 -1.8904471
4.255125 3.9112561 -1.8901302
4.2783418 3.8844359 -1.8898132
4.2879748 3.8454459 -1.8834736
4.3242679 3.8303835 -1.8891792
4.3533993 3.8087747 -1.8917149
4.3802757 3.7850919 -1.8932998
4.4063034 3.7606068 -1.8945677
4.4292951 3.7334995 -1.8945677
4.4499335 3.7044311 -1.8936168
4.4689169 3.6740451 -1.8920319
4.4980025 3.6519361 -1.8948847
4.5136662 3.618928 -1.8920319
4.533556 3.5893981 -1.8910811
4.5547476 3.5609291 -1.8907641
4.5900245 3.5433476 -1.8964696
4.6282735 3.5277669 -1.903443
4.643012 3.4941688 -1.9005903
4.6734996 3.4724023 -1.9043939
4.6878357 3.4386117 -1.9015411
4.6973238 3.4014385 -1.8967866
4.6957316 3.3565562 -1.8875943
4.7402611 3.3446326 -1.8974205
4.756803 3.3127735 -1.8958356
4.77704 3.283524 -1.8958356
4.7900338 3.2493584 -1.8929828
4.8106694 3.2204337 -1.8932998
4.8335042 3.1929467 -1.8945677
4.8514161 3.1621928 -1.8939338
4.8627505 3.1272349 -1.8907641
4.8850508 3.0993714 -1.8920319
4.9047799 3.0698423 -1.8923489
4.9275589 3.0421808 -1.8939338
4.9493728 3.0138619 -1.8952017
4.9799681 2.9907618 -1.8999563
5.002305 2.9625657 -1.9015411
5.0212078 2.9322948 -1.9018581
5.0423932 2.9033232 -1.903126
5.0691853 2.8774798 -1.9066128
5.0801249 2.8426163 -1.9040769
5.0941491 2.8095593 -1.902809
5.1071262 2.7759843 -1.9012241
5.1248989 2.7450433 -1.9015411
5.1366134 2.7108893 -1.8996394
5.1556749 2.6806333 -1.9005903
5.1737142 2.6498132 -1.9012241
5.1856418 2.6158817 -1.8996394
5.2058415 2.5861242 -1.9012241
5.2267237 2.5566337 -1.903126
5.2414579 2.5241036 -1.902809
5.2534189 2.4902699 -1.9015411
5.2660217 2.4567854 -1.9005903
5.3008208 2.4335301 -1.9078807
5.3147888 2.4005685 -1.9075637
5.3276849 2.3671422 -1.9069297
5.342978 2.3347874 -1.9072467
5.3580751 2.3023341 -1.9075637
5.3790903 2.2723672 -1.9100995
5.3903041 2.2382276 -1.9091486
5.4030581 2.2047529 -1.9088316
5.4235268 2.1743827 -1.9113673
5.439414 2.1421065 -1.9123182
5.4559937 2.1100593 -1.9135861
5.4617448 2.0738482 -1.9110503
5.4770327 2.0412905 -1.9120013
5.4921269 2.0086231 -1.9129522
5.5016704 1.9739251 -1.9120013
5.5270982 1.9448534 -1.9167559
5.531755 1.9084282 -1.9142201
5.5325794 1.8708036 -1.9104165
5.5700626 1.8454733 -1.9196087
5.5713582 1.8080403 -1.916122
5.6067519 1.7815776 -1.9246802
5.6085219 1.7443243 -1.9215105
5.6136751 1.7082213 -1.9196087
5.6267781 1.674556 -1.9205596
5.6360364 1.6397343 -1.9202427
5.6523771 1.6069373 -1.9224614
5.6639585 1.5727323 -1.9230953
5.6753325 1.5384457 -1.9237293
5.6855826 1.5038362 -1.9240463
5.6928663 1.4684478 -1.9234123
5.6925712 1.4311763 -1.9202427
5.7067728 1.3975744 -1.9221444
5.7023249 1.3594519 -1.9177068
5.7133307 1.3250805 -1.9186578
5.7185779 1.2893732 -1.9177068
5.7236023 1.2536514 -1.9167559
5.7330422 1.2189031 -1.9173899
5.7450581 1.1846609 -1.9189748
5.7568688 1.1503171 -1.9205596
5.7684746 1.1158729 -1.9221444
5.7733483 1.0801083 -1.9215105
5.7836003 1.0453383 -1.9227784
5.7908397 1.0099941 -1.9230953
5.7997336 0.97491509 -1.9240463
0 0 -0
0 0 -0
5.8223243 0.86883605 -1.9259481
0 0 -0
0 0 -0
0 0 -0
5.8484817 0.72650623 -1.928167
5.8443522 0.68960613 -1.9253142
0 0 -0
0 0 -0
0 0 -0
0 0 -0
0 0 -0
5.8733373 0.47463614 -1.92785
0 0 -0
0 0 -0
0 0 -0
0 0 -0
0 0 -0
0 0 -0
0 0 -0
0 0 -0
0 0 -0
0 0 -0
0 0 -0
0 0 -0
0 0 -0
0 -0 -0
0 -0 -0
0 -0 -0
0 -0 -0
0 -0 -0
5.9180603 -0.21281889 -1.9376762
5.9138002 -0.24900791 -1.9367253
0 -0 -0
0 -0 -0
0 -0 -0
5.9201031 -0.39501101 -1.9414798
5.9166222 -0.43125975 -1.9411628
5.9176464 -0.46785411 -1.9424307
0 -0 -0
0 -0 -0
5.9165277 -0.57752806 -1.9452835
5.9279666 -0.61538619 -1.9503551
5.9419913 -0.65371734 -1.9563776
0 -0 -0
0 -0 -0
0 -0 -0
5.8217072 -0.78552747 -1.9218274
5.9116297 -0.83461899 -1.9538418
5.8923225 -0.86880207 -1.9490873
5.8643827 -0.90148342 -1.9414798
5.8578043 -0.93729979 -1.9411628
5.8416514 -0.97151411 -1.9376762
5.8570766 -1.0110488 -1.9449666
5.8274221 -1.042793 -1.9370422
5.7948022 -1.0736934 -1.928167
5.7517767 -1.1022701 -1.915805
5.7058287 -1.129807 -1.902492
5.5844927 -1.1414429 -1.8635043
5.4678736 -1.152611 -1.8261014
5.3476243 -1.1615868 -1.7874306
5.3274384 -1.1914803 -1.7829931
5.2359161 -1.2047988 -1.7541485
5.1296668 -1.2135475 -1.7202322
5.1027699 -1.240297 -1.7135758
5.0619354 -1.2633184 -1.7021648
5.0384688 -1.2903552 -1.6967763
5.0341263 -1.3222098 -1.6980441
5.1010175 -1.3732858 -1.724036
5.0614085 -1.3959876 -1.7132589
5.0500093 -1.4262445 -1.7123079
5.0475411 -1.459047 -1.7145268
5.0130272 -1.4824618 -1.7056515
5.0038366 -1.5131932 -1.7056515
5.0008006 -1.545828 -1.7078702
4.9776549 -1.5721993 -1.7031157
4.9724278 -1.6041678 -1.7047006
4.9633923 -1.6349444 -1.7050176
4.9568629 -1.6665772 -1.7062855
4.9294982 -1.6911144 -1.7002629
4.9127622 -1.7191371 -1.6980441
4.8949747 -1.7466995 -1.6955084
4.8600993 -1.7679493 -1.6869501
4.8482709 -1.7974074 -1.6866331
4.8353763 -1.8264519 -1.6859992
4.8276191 -1.8574488 -1.6872671
4.8170142 -1.8873816 -1.6875839
4.7947712 -1.9126865 -1.6837803
4.7934904 -1.9463515 -1.6875839
4.7893467 -1.9789864 -1.6904367
4.7736168 -2.006866 -1.6891688
4.7585964 -2.0350001 -1.6882179
4.7390623 -2.0611343 -1.6856822
4.7115798 -2.0836539 -1.6802936
4.7038965 -2.1148574 -1.6821954
4.6822052 -2.1397388 -1.6790257
4.6758695 -2.1716232 -1.6815615
4.6658874 -2.2018919 -1.6828294
4.6574206 -2.2329395 -1.6847312
4.6095228 -2.2448668 -1.6720523
4.5888605 -2.2697449 -1.6695164
4.5672193 -2.294028 -1.6666638
4.5395384 -2.3151157 -1.6615921
4.5134559 -2.336822 -1.6571546
4.5267386 -2.3790305 -1.6676147
4.5095453 -2.4054224 -1.6666638
4.5038767 -2.4380128 -1.6701504
4.4871697 -2.464689 -1.6695164
4.481904 -2.497715 -1.6733202
4.4582376 -2.5205014 -1.6701504
4.4369287 -2.5445068 -1.6679317
4.4228721 -2.5726371 -1.6685655
4.4053698 -2.5987632 -1.6679317
4.3982944 -2.6311002 -1.6714183
4.3820677 -2.6580381 -1.6714183
4.370523 -2.6878567 -1.6733202
4.3764844 -2.7286716 -1.6821954
4.36447 -2.7585137 -1.6840973
4.3458648 -2.7842185 -1.6834633
4.3247218 -2.8082495 -1.6818784
4.2971091 -2.8279552 -1.6777579
4.2875671 -2.8595304 -1.6809275
4.2754416 -2.8895018 -1.6831464
4.2591968 -2.9167526 -1.6837803
4.2006974 -2.9147196 -1.6672977
4.1998048 -2.9524384 -1.6742711
4.1792922 -2.9765017 -1.6733202
4.148643 -2.9932115 -1.6682485
4.149343 -3.0326002 -1.676173
4.1291327 -3.0568745 -1.675539
4.0958805 -3.0713432 -1.6695164
4.0762024 -3.0958436 -1.6691995
4.0398383 -3.1074977 -1.6619091
4.0401497 -3.1473801 -1.6701504
4.0259743 -3.1762226 -1.6723692
4.0012221 -3.196722 -1.6701504
3.9911182 -3.2289672 -1.6742711
3.9726977 -3.2545974 -1.6749051
3.9526532 -3.2789121 -1.6749051
3.928102 -3.2994437 -1.6730032
3.9150083 -3.329628 -1.676173
3.9031293 -3.3610132 -1.6799766
3.8774285 -3.3805363 -1.6777579
3.8679905 -3.4143057 -1.6828294
3.8490896 -3.4398708 -1.6837803
3.841274 -3.4755127 -1.6898028
2.4063418 -2.2044175 -1.0491991
2.3913794 -2.2178514 -1.0485651
2.3777258 -2.2324829 -1.0485651
3.7032602 -3.5197351 -1.6660298
3.6966307 -3.5568576 -1.6730032
3.6801722 -3.5847666 -1.675539
3.632443 -3.5819767 -1.663494
3.6103961 -3.6041975 -1.663494
3.5928831 -3.6310015 -1.6657128
3.5605912 -3.6428056 -1.6609582
3.5361958 -3.6625376 -1.6600072
3.5110378 -3.6814213 -1.6587393
3.4909847 -3.7056563 -1.6600072
3.4643044 -3.7228413 -1.6581055
3.4446058 -3.747519 -1.6596903
3.4228218 -3.7699883 -1.6603242
3.3970921 -3.7880952 -1.6590563
3.3681245 -3.8024788 -1.6562036
3.3553469 -3.8352077 -1.6615921
3.3342321 -3.8585937 -1.66286
3.3240399 -3.8948498 -1.6698334
3.2866302 -3.8992195 -1.66286
3.2553608 -3.9105659 -1.6590563
3.2325094 -3.931932 -1.6596903
3.2029419 -3.9450657 -1.6568376
3.1792686 -3.9653845 -1.6571546
3.1537001 -3.9833302 -1.6565206
2.0104411 -2.5718193 -1.0495161
1.9760753 -2.5600839 -1.0393729
1.9597547 -2.5714064 -1.0390559
1.94394 -2.5833826 -1.0390559
1.926355 -2.592978 -1.038105
1.9104085 -2.6047492 -1.038105
1.7024626 -2.3514125 -0.92874914
1.6648358 -2.3294096 -0.91543627
1.6434026 -2.3295071 -0.91131562
0 -0 -0
2.876256 -4.1846137 -1.6555697
2.8553178 -4.2092471 -1.6584224
2.8289089 -4.2258997 -1.6581055
2.8060629 -4.2479258 -1.6600072
2.7846069 -4.2722139 -1.66286
2.7532101 -4.2812428 -1.6596903
2.7279053 -4.2996573 -1.6603242
2.7034848 -4.31953 -1.6615921
2.6759331 -4.3344231 -1.6609582
2.6497805 -4.3515706 -1.6612751
2.6240067 -4.3693738 -1.6619091
2.5971472 -4.3853922 -1.6619091
2.5744953 -4.4086161 -1.6647619
2.5516558 -4.4317269 -1.6676147
2.5281613 -4.4538984 -1.6701504
2.4790154 -4.430428 -1.6552527
2.4655271 -4.4704695 -1.6647619
2.4452982 -4.4988456 -1.6698334
2.4163041 -4.5112572 -1.6688825
2.3916774 -4.5318694 -1.6711013
2.3603246 -4.5397277 -1.6685655
2.3332896 -4.5558133 -1.6691995
2.3052919 -4.570044 -1.6691995
2.2793174 -4.5883498 -1.6707844
2.2494535 -4.5988417 -1.6695164
2.2088463 -4.5869226 -1.6600072
1.4712391 -3.1040785 -1.1065713
1.4509619 -3.1104691 -1.1056204
1.4318492 -3.1193135 -1.1056204
2.0885839 -4.6241913 -1.6543018
2.0601711 -4.6369195 -1.6543018
2.0282624 -4.6416516 -1.651449
2.0023649 -4.660109 -1.6536678
1.9837002 -4.6958961 -1.6622261
1.9643073 -4.7307529 -1.6704674
1.9338094 -4.7392039 -1.6691995
1.8972809 -4.7324944 -1.6625431
1.8636886 -4.7325749 -1.6584224
1.8363258 -4.7483439 -1.6600072
1.8000845 -4.7409024 -1.6533508
1.7769241 -4.7678547 -1.6590563
1.7518715 -4.7902474 -1.663177
1.7240478 -4.8053699 -1.6647619
1.685084 -4.7890186 -1.6552527
1.6519549 -4.7885094 -1.651449
1.6182879 -4.7859774 -1.6470114
1.5868027 -4.789515 -1.6447926
1.5594348 -4.8054757 -1.6470114
1.5316432 -4.8203773 -1.6489131
1.5011919 -4.8269677 -1.6479623
1.4718221 -4.8369951 -1.6482793
1.440221 -4.839572 -1.6460605
1.414209 -4.8610673 -1.650498
1.3851336 -4.8723898 -1.651449
1.3590184 -4.8945045 -1.6562036
1.3304499 -4.9082437 -1.6581055
1.3032196 -4.9273171 -1.6619091
1.2727246 -4.9343028 -1.6615921
1.2364101 -4.9181042 -1.6533508
1.2053072 -4.9219136 -1.6520829
1.1808045 -4.9532032 -1.6603242
1.1450315 -4.9372578 -1.6523999
0.72721303 -3.2261052 -1.06378
0.71085519 -3.2462564 -1.0691684
0.71006143 -3.3405423 -1.0999149
0.66291767 -3.2157223 -1.0558556
0.63926989 -3.2001987 -1.0491991
0.62376624 -3.2254775 -1.0564895
0.60221863 -3.2199216 -1.0533198
0.57991892 -3.2095566 -1.0485651
0.55401969 -3.1775506 -1.0365202
0.52963626 -3.1518958 -1.0266941
0.51210517 -3.1663213 -1.0304977
0.49208415 -3.1656551 -1.0292298
0.48161364 -3.2286494 -1.0495161
0.45709392 -3.1986828 -1.038422
0.43488812 -3.1826336 -1.0320826
0.41670197 -3.1955872 -1.0355693
0.39732033 -3.1999662 -1.0362033
0.37834546 -3.2079952 -1.038105
0.3570731 -3.1961181 -1.0333505
0.33835208 -3.2067375 -1.0362033
0.3191388 -3.2134721 -1.037788
0.3008242 -3.2304792 -1.0428597
0.28247735 -3.2492716 -1.0485651
0.26414055 -3.2707961 -1.0552217
0.24922441 -3.3413985 -1.0783607
0.22612312 -3.3050163 -1.0656818
0.20648919 -3.3167541 -1.0691684
0.18485638 -3.2952321 -1.0615611
0.16325837 -3.2688341 -1.0523689
0.14219941 -3.2470338 -1.0447615
0.12130675 -3.2222557 -1.0362033
0.10129321 -3.2153556 -1.0336674
0.081320606 -3.2064354 -1.0304977
0.061571367 -3.2030811 -1.0292298
0.042279799 -3.2309008 -1.038422
0.02268268 -3.2633452 -1.0491991
0.0026382792 -3.2416091 -1.0419087
-0.017281488 -3.2472548 -1.0438106
-0.037227441 -3.2489843 -1.0444446
-0.056714799 -3.2230909 -1.0358863
-0.076826036 -3.2369049 -1.0406408
-0.096037179 -3.2145681 -1.0333505
-0.11586165 -3.2167618 -1.0343014
-0.13671254 -3.2425232 -1.0431767
-0.15779258 -3.2662539 -1.0514179
-0.17736782 -3.256701 -1.0485651
-0.19620182 -3.2366173 -1.0422257
-0.21681456 -3.2467084 -1.0460294
-0.23466539 -3.216939 -1.0365202
-0.25522131 -3.2258389 -1.0400069
-0.27509037 -3.2251573 -1.0403239
-0.29565093 -3.2319093 -1.0431767
-0.31593636 -3.2347541 -1.0447615
-0.33254886 -3.2016232 -1.0343014
-0.35094357 -3.1882095 -1.0304977
-0.3695145 -3.1775172 -1.0276449
-0.38739142 -3.1620104 -1.0232073
-0.40787476 -3.16804 -1.0260601
-0.42920721 -3.1795766 -1.0308146
-0.45109406 -3.1937876 -1.0365202
-0.47386283 -3.2125404 -1.0438106
-0.4977428 -3.236758 -1.0530028
-0.51909167 -3.2430084 -1.0561726
-0.54146916 -3.2547317 -1.0612441
-0.56062329 -3.2466748 -1.0596592
-0.57852989 -3.2319705 -1.0558556
-0.59886819 -3.2311575 -1.0568064
-0.61332959 -3.1994772 -1.0472972
-0.64252585 -3.2440336 -1.06378
-0.65805191 -3.2186577 -1.0564895
-0.67289984 -3.1913581 -1.0485651
-0.697299 -3.2094131 -1.0561726
-0.72566974 -3.2439487 -1.0694854
-0.76086849 -3.3059845 -1.0923076
-0.78899729 -3.3344808 -1.1037186
-0.83138829 -3.4198952 -1.134782
-0.85878515 -3.440496 -1.1436573
-0.87493962 -3.4158669 -1.1370008
-0.84313357 -3.2095366 -1.0675836
-0.81622499 -3.0312083 -1.0076756
-0.82800204 -3.0014563 -0.99911731
-0.84408367 -2.9881046 -0.99626452
-0.85529327 -2.9582679 -0.98770624
-0.94199538 -3.1848919 -1.0685345
-0.97469407 -3.2226288 -1.0837493
-0.99808979 -3.2283676 -1.0878699
-1.0224493 -3.2366533 -1.0929415
-1.0463655 -3.2429559 -1.0973791
-1.0692109 -3.2454829 -1.1005489
-1.0613037 -3.1561525 -1.0713873
-1.0781881 -3.1424041 -1.0688515
-1.0839819 -3.0972342 -1.0552217
-1.0981855 -3.0771255 -1.050467
-1.1180182 -3.0730031 -1.0514179
-1.1365231 -3.065196 -1.051101
-1.363387 -3.6091623 -1.2479416
-1.345327 -3.4962749 -1.2105387
-1.3518794 -3.4499812 -1.1969088
-1.3614283 -3.4125497 -1.1864487
-1.3716394 -3.3777685 -1.1769395
-1.3561263 -3.2816308 -1.1452421
-1.4350364 -3.4131424 -1.1959579
-1.4022607 -3.2786949 -1.1503137
-1.4091148 -3.2395873 -1.1392196
-1.4212954 -3.2135317 -1.1328802
-1.4398201 -3.2021551 -1.1319293
-1.9000973 -4.1577101 -1.4863057
-1.4893922 -3.2066109 -1.1401706
-1.7004642 -3.6031296 -1.290099
-1.7250004 -3.5977595 -1.2920009
-1.5851158 -3.2545452 -1.1683812
-1.5508208 -3.1350873 -1.1274916
-1.553003 -3.09161 -1.1148126
-1.5572954 -3.0532949 -1.1040356
-1.5533288 -2.9998837 -1.0875529
-1.5359724 -2.9222896 -1.0618781
-1.5525354 -2.9102995 -1.0609272
-1.5536605 -2.8698564 -1.0491991
-1.573523 -2.8644259 -1.050784
-1.5901459 -2.85306 -1.05015
-1.6216233 -2.8680191 -1.0596592
-1.6368318 -2.8539011 -1.0580744
-1.6648018 -2.8618412 -1.0650479
-1.6746212 -2.8385015 -1.0599762
-1.6881118 -2.821661 -1.0574404
-1.7009671 -2.8039513 -1.0545877
-1.7285722 -2.8104279 -1.0612441
-1.7528083 -2.8110366 -1.0656818
-1.7593837 -2.7833917 -1.0590253
-1.7851259 -2.7861209 -1.0644139
-1.79599 -2.7655692 -1.0606102
-1.8024988 -2.738651 -1.0542707
-1.8203213 -2.7291179 -1.0549047
-1.8449978 -2.7296848 -1.0596592
-1.8622479 -2.7190952 -1.0599762
-1.8707876 -2.6959286 -1.0552217
-1.893839 -2.6937101 -1.0590253
-1.9081311 -2.6789486 -1.0577574
-1.9173197 -2.6571908 -1.0536368
-1.9330281 -2.6446106 -1.0533198
-1.9418833 -2.6227899 -1.0491991
-1.9494059 -2.5994425 -1.0444446
-1.9670398 -2.5896983 -1.0453955
-1.9852057 -2.5805874 -1.0466633
-1.9945916 -2.560127 -1.0431767
-2.0114374 -2.5493295 -1.0438106
-2.0406568 -2.5539834 -1.051101
-2.0533068 -2.5377271 -1.0495161
-2.0760512 -2.533885 -1.0533198
-2.1103299 -2.5437293 -1.063146
-2.1197987 -2.5234699 -1.0599762
-2.1333992 -2.5082481 -1.0590253
-2.1388483 -2.4836106 -1.0539538
-2.1852081 -2.5061867 -1.0698024
-2.1635168 -2.4507768 -1.051101
-2.1829371 -2.4424062 -1.0533198
-2.1997912 -2.431076 -1.0542707
-2.2185102 -2.4217291 -1.0561726
-2.2352624 -2.4101574 -1.0571234
-2.2389739 -2.3846409 -1.0517349
-2.2548704 -2.3722332 -1.0523689
-2.2575479 -2.34605 -1.0466633
-2.272562 -2.3328331 -1.0469803
-2.2795086 -2.3114159 -1.0434936
-2.2976685 -2.3014133 -1.0453955
-2.3103981 -2.2859375 -1.0447615
-2.32845 -2.275696 -1.0466633
-2.3382761 -2.2574131 -1.0447615
-2.3692405 -2.2593889 -1.0526859
-2.3961747 -2.2571669 -1.0587083
-2.401648 -2.2346678 -1.0549047
-2.4195039 -2.2237408 -1.0568064
-2.4373159 -2.2126787 -1.0587083
-2.4508467 -2.1976819 -1.0587083
-2.4522166 -2.1719108 -1.0533198
-2.4590733 -2.1512022 -1.050467
-2.4643331 -2.1292515 -1.0469803
-2.4744661 -2.1116273 -1.0457125
-2.4960778 -2.1037405 -1.0495161
-2.5031083 -2.0835304 -1.0469803
-2.5173106 -2.0693371 -1.0476142
-2.5343781 -2.0574393 -1.0495161
-2.5580533 -2.05075 -1.0542707
-2.572819 -2.0367818 -1.0552217
-2.615901 -2.0449095 -1.0682175
-2.6374078 -2.0357754 -1.0720212
-2.660409 -2.0276041 -1.0764588
-2.6887133 -2.0232196 -1.0831153
-2.7071669 -2.0112095 -1.085651
-2.7171624 -1.9928776 -1.0847002
-2.7085993 -1.9611475 -1.0761418
-2.7136378 -1.9395267 -1.0732892
-2.7076645 -1.9102622 -1.0659988
-2.7247825 -1.8974068 -1.0682175
-2.7355919 -1.8801149 -1.0679005
-2.7572796 -1.8702165 -1.0720212
-2.7576697 -1.8458757 -1.0675836
-2.7903097 -1.8430363 -1.0761418
-2.8222232 -1.8393472 -1.0843832
-2.8605771 -1.83944 -1.0951604
-2.8445823 -1.8045758 -1.0843832
-2.8556013 -1.7870878 -1.0843832
-2.861671 -1.7665427 -1.0824814
-2.8643563 -1.7440172 -1.0793116
-2.8782556 -1.7283624 -1.0805795
-2.9108391 -1.72372 -1.0891378
-2.9418352 -1.7177855 -1.0970621
-2.9547856 -1.7011223 -1.098013
-2.9824882 -1.6927934 -1.1046696
-3.0035782 -1.6804827 -1.1087902
-3.0262899 -1.668893 -1.1135448
-3.0456388 -1.6552755 -1.1170315
-3.0983753 -1.6593982 -1.1331972
-3.1386943 -1.6562942 -1.1446081
-3.2321022 -1.6803248 -1.1759886
-3.2702079 -1.6747308 -1.1864487
-3.2939706 -1.6614692 -1.1915203
-3.3091993 -1.6437587 -1.1934221
-3.3158152 -1.6217556 -1.1921543
-3.338521 -1.6075531 -1.1969088
-3.5719972 -1.6930856 -1.279639
-4.1908236 -1.9550768 -1.5040562
-3.6838679 -1.6910752 -1.3132381
-4.1479468 -1.8734357 -1.4796493
-4.2269669 -1.8779914 -1.5043732
-4.1428146 -1.8102382 -1.4695061
-4.1573296 -1.7862823 -1.4707741
-4.1236558 -1.7419137 -1.4546083
-4.1071134 -1.7053018 -1.4447821
-4.1482334 -1.6926125 -1.4558762
-4.1550198 -1.6657156 -1.4546083
-4.2375231 -1.6686918 -1.4806002
-4.3635597 -1.6874832 -1.5221238
-4.4642692 -1.6950239 -1.554455
-4.4985805 -1.6765444 -1.5630133
-4.5390673 -1.6599883 -1.5737904
-4.66611 -1.6740724 -1.615314
-4.7899137 -1.6853989 -1.6555697
-4.9122343 -1.6946489 -1.6951914
-4.9818368 -1.6845315 -1.7161117
-5.0343928 -1.6679543 -1.7310094
-5.0833225 -1.6496238 -1.7446393
-5.1412544 -1.6336279 -1.7614388
-5.2227254 -1.6243076 -1.7864797
-5.3160686 -1.6176385 -1.8156413
-5.4549742 -1.6234137 -1.8606516
-5.5549879 -1.6161482 -1.8920319
-5.6268339 -1.5996735 -1.9135861
-5.6922874 -1.5806006 -1.9329215
-5.7082863 -1.547381 -1.9351404
-5.7213411 -1.513297 -1.9364083
-5.7433758 -1.4814802 -1.9408458
-5.7495985 -1.4455178 -1.939895
-5.7546749 -1.409309 -1.9386271
-5.7586012 -1.3728724 -1.9370422
-5.7669168 -1.3375125 -1.9370422
-5.761137 -1.298972 -1.9322876
-5.7782636 -1.2656279 -1.9354573
-5.7859206 -1.2301493 -1.9354573
-5.7970753 -1.1953908 -1.9367253
-5.8052306 -1.159984 -1.9370422
-5.7815108 -1.1183956 -1.9265821
-5.7975869 -1.0846446 -1.9297519
-5.8171992 -1.0514134 -1.9341894
-5.8347526 -1.0176562 -1.9379932
-5.8614635 -0.98529601 -1.9449666
-5.8599091 -0.94809985 -1.9424307
-5.8824849 -0.91475058 -1.9481363
-0 -0 -0
-5.8951454 -0.84276313 -1.9487703
-0 -0 -0
-0 -0 -0
-0 -0 -0
-0 -0 -0
-0 -0 -0
-0 -0 -0
-0 -0 -0
-0 -0 -0
-0 -0 -0
-0 -0 -0
-0 -0 -0
-0 -0 -0
-0 -0 -0
-0 -0 -0
-0 -0 -0
-0 -0 -0
-0 -0 -0
-0 -0 -0
-0 0 -0
-0 0 -0
-0 0 -0
-0 0 -0
-0 0 -0
-0 0 -0
-0 0 -0
-0 0 -0
-0 0 -0
-0 0 -0
-0 0 -0
-0 0 -0
-0 0 -0
-0 0 -0
-0 0 -0
-0 0 -0
-0 0 -0
-0 0 -0
-5.6088982 1.0402086 -1.9337353
-5.6024098 1.0746046 -1.9337353
-5.5901494 1.1078568 -1.9317719
-5.5767665 1.1408094 -1.9294814
-5.5631895 1.1736397 -1.9271909
-5.5614238 1.2089581 -1.9291542
-5.5446801 1.2409939 -1.925882
-5.5305157 1.2735064 -1.9235915
-5.5235167 1.3076349 -1.9239187
-5.5080442 1.3397138 -1.921301
-5.4960532 1.3725688 -1.9199921
-5.4875278 1.4062661 -1.9199921
-5.4815373 1.4406316 -1.9209738
-5.4698577 1.4735006 -1.9199921
-5.4607134 1.5070353 -1.9199921
-5.4531822 1.5410275 -1.9206465
-5.4445314 1.5747213 -1.9209738
-5.4302363 1.6067573 -1.9193376
-5.4220843 1.640594 -1.9199921
-5.4064994 1.6721561 -1.9180288
-5.3961377 1.7052982 -1.9180288
-5.3810763 1.7369239 -1.9163927
-5.3685226 1.769317 -1.9157382
-5.3521919 1.8004155 -1.913775
-5.3473001 1.8353708 -1.9160655
-5.3395047 1.8693963 -1.9173744
-5.3323832 1.9037132 -1.9190104
-5.3259292 1.9383364 -1.9209738
-5.3236809 1.9745959 -1.9245732
-5.3123484 2.0075583 -1.9249003
-5.3052211 2.0421546 -1.9268637
-5.2776361 2.0688026 -1.921301
-5.2604547 2.0993943 -1.9196649
-5.2334676 2.1259394 -1.9144294
-5.2211976 2.1583724 -1.9147565
-5.1956625 2.1852372 -1.9101756
-5.1943183 2.2222822 -1.9147565
-5.194447 2.2601471 -1.9199921
-5.1623359 2.2839446 -1.9131205
-5.1482248 2.315577 -1.9131205
-5.1227484 2.3420124 -1.9088666
-5.1099954 2.3741975 -1.9095211
-5.122673 2.418422 -1.9199921
-5.0898471 2.4412234 -1.9131205
-5.0790191 2.4744782 -1.9147565
-5.0611997 2.5043383 -1.913775
-5.0457382 2.535346 -1.913775
-5.0284033 2.5653992 -1.9131205
-5.0150847 2.5975089 -1.9141022
-4.9881802 2.6225133 -1.9098483
-4.9828315 2.6588562 -1.9141022
-4.9639311 2.6880298 -1.9131205
-4.9473438 2.7184372 -1.9131205
-4.9289203 2.7478218 -1.912466
-4.9086776 2.7761519 -1.9111573
-4.8890924 2.8048077 -1.9101756
-4.8766904 2.8376062 -1.9121388
-4.8461676 2.8597889 -1.9069034
-4.8301506 2.8904414 -1.9075578
-4.8026314 2.91414 -1.9036312
-4.7886839 2.9460301 -1.9052672
-4.7777324 2.9798596 -1.9082122
-4.7697401 3.015686 -1.912466
-4.7543283 3.0469358 -1.913775
-4.7434664 3.0811996 -1.9170471
-4.7228928 3.1092074 -1.9163927
-4.7005825 3.1360297 -1.9150838
-4.6843824 3.1669304 -1.9163927
-4.6633034 3.1945453 -1.9157382
-4.6397333 3.2204039 -1.9141022
-4.6229773 3.2509871 -1.915411
-4.6067901 3.2820342 -1.9170471
-4.5812025 3.3063669 -1.9147565
-4.563117 3.3360879 -1.9157382
-4.538765 3.3612113 -1.9141022
-4.5263691 3.3952363 -1.9177016
-4.4941664 3.4143686 -1.9127933
-4.4656439 3.436116 -1.9095211
-4.4482026 3.466357 -1.9111573
-4.4283328 3.4947565 -1.9118116
-4.392045 3.5100605 -1.9052672
-4.3836446 3.5476465 -1.9111573
-4.361794 3.5744772 -1.9111573
-4.3412337 3.6023805 -1.9118116
-4.3219414 3.6313822 -1.9131205
-4.2923822 3.6517081 -1.9098483
-4.2734742 3.6810613 -1.9114844
-4.2394147 3.6972737 -1.9062489
-4.2187734 3.7250936 -1.9072306
-4.1930199 3.7483897 -1.9059217
-4.1573324 3.7626307 -1.9000318
-4.1299877 3.7842376 -1.8980684
-4.1136169 3.8159354 -1.9013406
-4.1066537 3.8566327 -1.9091939
-4.0767503 3.8758969 -1.9062489
-4.0542526 3.9021494 -1.9069034
-4.0302334 3.9269524 -1.9069034
-4.0087523 3.9542623 -1.9082122
-3.9864197 3.9807887 -1.9091939
-3.9599259 4.0031581 -1.9082122
-3.9379294 4.0300846 -1.9095211
-3.9144394 4.0555315 -1.9101756
-3.8836141 4.0733171 -1.9072306
-3.8591952 4.0977578 -1.9075578
-3.8346226 4.1220522 -1.9078851
-3.8015873 4.1371522 -1.9039584
-3.7793055 4.1638999 -1.9055945
-3.7562077 4.1898255 -1.9069034
-3.7348127 4.2177477 -1.9091939
-3.708241 4.2398729 -1.9088666
-3.6784503 4.2582555 -1.9069034
-3.6528661 4.2814646 -1.9072306
-3.6198304 4.2958474 -1.9036312
-3.5946121 4.3194304 -1.9042857
-3.5734394 4.3479767 -1.9072306
-3.542526 4.3646841 -1.90494
-3.5174508 4.3885508 -1.9059217
-3.4881117 4.4070868 -1.9046128
-3.4563508 4.4224491 -1.9019951
-3.4262643 4.4398327 -1.900359
-3.405828 4.4697933 -1.9042857
-3.3647075 4.4724813 -1.8964324
-3.3388915 4.4953184 -1.8974141
-3.3039837 4.5058131 -1.8931602
-3.2856913 4.5390158 -1.8987229
-3.2517371 4.5506325 -1.8951235
-3.2144973 4.5573697 -1.8895608
-3.1972682 4.5925202 -1.8961052
-3.1738436 4.6190624 -1.8990501
-3.1412003 4.6321921 -1.8964324
-3.1190231 4.6608043 -1.900359
-3.0914073 4.6814318 -1.9010135
-3.0569518 4.6916022 -1.8974141
-3.0301504 4.7134509 -1.8987229
-3.003196 4.735147 -1.9000318
-2.9720809 4.7502804 -1.8987229
-2.9433739 4.7692313 -1.8990501
-2.9140551 4.7872019 -1.8990501
-2.8846266 4.8049922 -1.8990501
-2.8531644 4.8193483 -1.8977413
-2.8221111 4.8343158 -1.8967596
-2.7909815 4.8490839 -1.8957779
-2.7569799 4.8587203 -1.892833
-2.7354157 4.8903913 -1.8987229
-2.7058134 4.9079113 -1.8990501
-2.6724913 4.9186087 -1.8967596
-2.6409235 4.932415 -1.8957779
-2.6136942 4.9543772 -1.8980684
-2.5797606 4.963613 -1.8954507
-2.5505474 4.9818726 -1.8964324
-2.5212069 4.9999599 -1.8974141
-2.4871194 5.008564 -1.8947963
-2.4546812 5.0203347 -1.8934875
-2.4226017 5.0327473 -1.8925058
-2.3912714 5.0466633 -1.8921785
-2.3622565 5.0655231 -1.8938147
-2.3295548 5.0764866 -1.8925058
-2.2960303 5.0855169 -1.8905425
-2.2666998 5.103828 -1.8921785
-2.2357187 5.118506 -1.8925058
-2.1990516 5.1199713 -1.8879247
-2.1723709 5.1446857 -1.8921785
-2.141125 5.1587911 -1.8925058
-2.1080041 5.1683316 -1.8911968
-2.0818732 5.1952043 -1.8964324
-2.0468435 5.1999664 -1.8934875
-2.0179632 5.2203608 -1.8964324
-1.9862288 5.2335281 -1.8967596
-1.9504527 5.2358756 -1.8931602
-1.9166679 5.2433071 -1.8915241
-1.8752147 5.2291718 -1.8820348
-1.8452871 5.24682 -1.8843254
-1.8118271 5.2544699 -1.8830165
-1.7771332 5.2583261 -1.8803988
-1.7540381 5.2969418 -1.8905425
-1.7232517 5.3129978 -1.8925058
-1.6937635 5.3333793 -1.8961052
-1.6542794 5.3220134 -1.8882519
-1.6235163 5.3383923 -1.8905425
-1.5955757 5.3645577 -1.8964324
-1.5610474 5.3688025 -1.8944691
-1.5280757 5.3782802 -1.8944691
-1.4902492 5.3702536 -1.8882519
-1.4607264 5.392066 -1.892833
-1.4268899 5.3981867 -1.8918513
-1.3916193 5.3986044 -1.8889064
-1.3575476 5.4033756 -1.8875976
-1.3178589 5.3849845 -1.8781081
-1.28523 5.3948078 -1.8787626
-1.2533829 5.4081159 -1.880726
-1.2222507 5.4249234 -1.8839982
-1.1863171 5.42032 -1.8797443
-1.1544095 5.4339676 -1.8820348
-1.1248555 5.4594598 -1.8885791
-1.0918902 5.469039 -1.8895608
-1.0579541 5.4737802 -1.8889064
-1.0227867 5.4718084 -1.8859614
-0.99070263 5.4863505 -1.8889064
-0.95783049 5.4969811 -1.8905425
-0.92361468 5.499959 -1.8895608
-0.89165717 5.516717 -1.8934875
-0.85779047 5.5220842 -1.8934875
-0.82333493 5.5235052 -1.8921785
-0.78956121 5.5293884 -1.8925058
-0.75421464 5.5238299 -1.8889064
-0.71750325 5.5068011 -1.8813803
-0.68451369 5.5176649 -1.8836709
-0.65141773 5.5283303 -1.8859614
-0.61465937 5.5068665 -1.8771266
-0.58372527 5.5377874 -1.8866159
-0.55001432 5.544086 -1.8875976
-0.51624811 5.550179 -1.8885791
-0.48250929 5.5570078 -1.889888
-0.44832727 5.5589218 -1.8895608
-0.41344008 5.5512023 -1.8859614
-0.38001281 5.5630622 -1.8892336
-0.34633869 5.5728345 -1.8918513
-0.31234843 5.5786285 -1.8931602
-0.27876848 5.5936532 -1.8977413
-0.2438255 5.5810976 -1.892833
-0.20950542 5.5805998 -1.8921785
-0.17502388 5.5742245 -1.8895608
-0.14074679 5.5723596 -1.8885791
-0.10658852 5.5750079 -1.8892336
-0.072258212 5.5661082 -1.8859614
-0.038047403 5.5579424 -1.8830165
-0.003943319 5.557126 -1.8826892
0.030149316 5.5561008 -1.882362
0.06420698 5.5529766 -1.8813803
0.098481223 5.5638156 -1.885307
0.1330272 5.580111 -1.8911968
0.16694997 5.5688 -1.8875976
0.20097911 5.5638933 -1.8862886
0.23435283 5.5446177 -1.8800715
0.26818597 5.5393 -1.8787626
0.3016009 5.5271711 -1.8751632
0.33573923 5.5289893 -1.8764721
0.37029073 5.5362535 -1.8797443
0.4054963 5.5508409 -1.8856342
0.43969765 5.5501323 -1.8862886
0.47374433 5.5473299 -1.8862886
0.50855058 5.5527873 -1.8892336
0.54353374 5.5589671 -1.8925058
0.57743686 5.5536475 -1.8918513
0.6110878 5.5462432 -1.8905425
0.64576411 5.5480204 -1.8925058
0.67910272 5.5383263 -1.8905425
0.71222579 5.5274949 -1.8882519
0.74663526 5.5267663 -1.8895608
0.77973813 5.5164676 -1.8875976
0.81288099 5.5069051 -1.8859614
0.84694326 5.5036817 -1.8866159
0.88024831 5.4955821 -1.8856342
0.91395199 5.4900775 -1.8856342
0.9481045 5.4871597 -1.8866159
0.98175526 5.4812388 -1.8866159
1.0150241 5.4732537 -1.8859614
1.046628 5.4567146 -1.882362
1.0806417 5.4529705 -1.8833437
1.1135116 5.44346 -1.882362
1.1486483 5.4448462 -1.885307
1.1798254 5.4275389 -1.8817075
1.2137257 5.4229641 -1.8826892
1.245492 5.4089689 -1.8803988
1.2795289 5.4049029 -1.8817075
1.311998 5.3941956 -1.880726
1.3459882 5.3897109 -1.8820348
1.3802072 5.3859272 -1.8836709
1.4137094 5.3791847 -1.8843254
1.445459 5.3658471 -1.8826892
1.4791107 5.3596096 -1.8836709
1.5129974 5.3540702 -1.8849797
1.5471345 5.3492241 -1.8866159
1.5815375 5.345067 -1.8885791
1.6126612 5.3298359 -1.8866159
1.6461724 5.3225484 -1.8875976
1.6779451 5.3096447 -1.8866159
1.7096215 5.2965512 -1.8856342
1.7417924 5.2850642 -1.885307
1.7762984 5.2805462 -1.8875976
1.8059032 5.2615042 -1.8846525
1.8381532 5.2503242 -1.8846525
1.8722414 5.2442861 -1.8866159
1.9050312 5.2344751 -1.8872703
1.9374423 5.2235737 -1.8875976
1.9717966 5.2177744 -1.889888
2.0054734 5.2099867 -1.8915241
2.0384386 5.200222 -1.8925058
2.0713594 5.1902494 -1.8934875
2.1003208 5.1704388 -1.8908697
2.1348958 5.1644397 -1.8934875
2.1643448 5.1460176 -1.8915241
2.196995 5.1352463 -1.8925058
2.2239368 5.1112723 -1.8885791
2.2564046 5.1001225 -1.8895608
2.2845535 5.079288 -1.8869431
2.3160696 5.0660338 -1.8872703
2.3483055 5.0542979 -1.8882519
2.3804846 5.042357 -1.8892336
2.4126058 5.0302114 -1.8902153
2.4450812 5.0187111 -1.8915241
2.4770873 5.0061545 -1.8925058
2.508182 4.9917054 -1.892833
2.5409114 4.9804296 -1.8944691
2.5692492 4.9605503 -1.892833
2.5899603 4.9262934 -1.8856342
2.6188037 4.9078083 -1.8846525
2.6529193 4.8991246 -1.8875976
2.6774671 4.8728175 -1.8836709
2.7068555 4.8554721 -1.8833437
2.7356665 4.8371267 -1.8826892
2.7671766 4.8235283 -1.8839982
2.7957702 4.8048253 -1.8833437
2.8251994 4.78758 -1.8833437
2.8588908 4.7774515 -1.8862886
2.8881509 4.75982 -1.8862886
2.9177976 4.7428136 -1.8866159
2.9433424 4.7192092 -1.8843254
2.9697177 4.6970677 -1.8826892
2.9984825 4.6787572 -1.8826892
3.0327983 4.6689868 -1.8862886
3.0645082 4.655025 -1.8882519
3.0940623 4.6377058 -1.8889064
3.108696 4.5982828 -1.8803988
3.1523438 4.6017261 -1.889888
3.1805201 4.5822968 -1.889888
3.2091205 4.563468 -1.8902153
3.2343187 4.539844 -1.8885791
3.2521567 4.5061231 -1.8826892
3.2830918 4.4906597 -1.8846525
3.3088965 4.4681525 -1.8836709
3.3345487 4.445498 -1.8826892
3.3669093 4.4317245 -1.8856342
3.4003789 4.419219 -1.8892336
3.4239447 4.3937998 -1.8872703
3.4508402 4.3727083 -1.8872703
3.4817362 4.3566184 -1.8895608
3.5101862 4.3373761 -1.8905425
3.5319409 4.3099103 -1.8879247
3.5528874 4.2816138 -1.8849797
3.5784841 4.2590098 -1.8846525
3.6020997 4.2340941 -1.8833437
