# .PCD v0.7 - Point Cloud Data file format
VERSION 0.7
FIELDS x y z
SIZE 4 4 4
TYPE F F F
COUNT 1 1 1
WIDTH 1536
HEIGHT 1
VIEWPOINT 0 0 0 1 0 0 0
POINTS 1536
DATA ascii
0.95558488 7.3959031 -1.8994327
1.0051025 7.4205904 -1.9074881
1.0506154 7.4142833 -1.9074881
1.0952392 7.4019527 -1.9059777
1.1397512 7.3893542 -1.9044673
1.1853766 7.3841329 -1.9049708
1.2335283 7.3939037 -1.909502
1.2778828 7.3804741 -1.9079915
1.3248537 7.38202 -1.9105089
1.3711843 7.3794613 -1.9120193
1.4115083 7.3452473 -1.9052225
1.4546672 7.3269553 -1.9027052
1.5023165 7.3311653 -1.9062295
1.5446707 7.3094997 -1.902957
1.5911387 7.3074493 -1.9049708
1.6317134 7.2786613 -1.8999362
1.6802577 7.2854872 -1.9044673
1.7253754 7.2769237 -1.9049708
1.7734283 7.2803049 -1.9087468
1.8164227 7.2627139 -1.9069847
1.8616732 7.2542443 -1.9077399
1.8960522 7.2043109 -1.8974189
1.9440016 7.2065578 -1.9011948
1.9853485 7.1842327 -1.8984258
2.033608 7.1868153 -1.9024535
2.0749755 7.164906 -1.8999362
2.1188996 7.1520391 -1.8999362
2.1638658 7.1426082 -1.9009432
2.2013543 7.1088576 -1.8954051
2.2455158 7.0970621 -1.8959085
2.2887228 7.0822291 -1.8956567
2.3351674 7.0772433 -1.898174
2.3779309 7.0609474 -1.8976706
2.4215257 7.0471392 -1.8979223
2.4685614 7.043108 -1.9009432
2.5097766 7.0223608 -1.8994327
2.5451992 6.9859138 -1.8936429
2.5873423 6.9683509 -1.8931395
2.6324472 6.9586802 -1.8949015
2.6726599 6.9360752 -1.8931395
2.7144616 6.9177437 -1.8926359
2.7453694 6.8721976 -1.8845805
2.7911296 6.8641887 -1.8870978
2.8320849 6.8442502 -1.8863426
2.8744028 6.8276362 -1.8865944
2.9078615 6.790298 -1.8810563
2.9471529 6.7670035 -1.8795459
2.9854844 6.7417135 -1.8775321
3.0140827 6.6950278 -1.8694767
3.0639644 6.6957688 -1.8750148
3.096014 6.657536 -1.8694767
3.145901 6.6576653 -1.8750148
3.1992559 6.6644115 -1.8825667
3.2337258 6.6316075 -1.8787907
3.2893867 6.6419959 -1.8876014
3.3344271 6.6303339 -1.8901186
3.3561244 6.5726857 -1.8792942
3.3767948 6.5141625 -1.8682179
3.4117448 6.4838986 -1.865449
3.4409802 6.4432073 -1.8596591
3.4827557 6.4262271 -1.8609178
3.5183902 6.3979521 -1.8589039
3.5552235 6.3720169 -1.8576453
3.5956845 6.3526096 -1.8584005
3.6302593 6.3228731 -1.8561349
3.6616826 6.2879343 -1.8523589
3.6977353 6.2611814 -1.8511002
3.7226591 6.2159562 -1.8443035
3.761734 6.1946521 -1.8448069
3.8103273 6.1887608 -1.8500934
3.8477168 6.1644435 -1.8498416
3.9020264 6.1668901 -1.857897
3.9627795 6.1786771 -1.8689733
3.9758275 6.1161075 -1.8571419
4.0223312 6.1053362 -1.8614212
4.0484328 6.0636377 -1.8561349
4.0676675 6.0122299 -1.8478278
4.0995564 5.9799733 -1.8455622
4.1461091 5.9690146 -1.8500934
4.1815424 5.9418793 -1.8495898
4.224102 5.9247785 -1.8523589
4.2615094 5.9003177 -1.8528624
4.3039184 5.8826504 -1.8556315
4.3468466 5.8654623 -1.8586522
4.3786879 5.833262 -1.8568901
4.4231834 5.817842 -1.860666
4.4558454 5.7867579 -1.8594074
4.5055509 5.7776256 -1.865449
4.5475144 5.7582259 -1.8682179
4.5761123 5.7219005 -1.865449
4.6032171 5.6839366 -1.8621764
4.6398478 5.6578298 -1.8629316
4.6788034 5.6344657 -1.8646938
4.7033234 5.5937986 -1.860666
4.7350483 5.5618863 -1.8596591
4.7659273 5.5290627 -1.8584005
4.8093081 5.5106535 -1.8621764
4.8513603 5.490469 -1.865449
4.8901196 5.4663687 -1.8674628
4.9352622 5.449173 -1.871994
4.9581404 5.4073744 -1.8679663
4.9912257 5.3768501 -1.8679663
5.0181594 5.339776 -1.8657007
5.0414901 5.2990675 -1.8621764
5.0618258 5.255486 -1.8576453
5.098031 5.2284865 -1.8591557
5.1381745 5.2053728 -1.8621764
5.1802783 5.1840167 -1.8659524
5.2037306 5.1439686 -1.8629316
5.2185779 5.0957141 -1.8568901
5.2741251 5.0871143 -1.8657007
5.3297625 5.0780244 -1.8745112
5.3432016 5.0286431 -1.8682179
5.3902583 5.0109196 -1.8740078
5.4166265 4.9738235 -1.8724974
5.4312735 4.9261889 -1.8669593
5.4650016 4.8959999 -1.8682179
5.5014629 4.8681474 -1.8704836
5.5326867 4.8355732 -1.8709871
5.5769048 4.8141832 -1.8760216
5.6107574 4.7836409 -1.8775321
5.6281595 4.7391496 -1.8735044
5.619184 4.672965 -1.860666
5.6956143 4.677712 -1.8767769
5.7181964 4.6377988 -1.874763
5.7608972 4.6141214 -1.8795459
5.7693653 4.5630755 -1.8730009
5.7987804 4.5287809 -1.8735044
5.8172631 4.4860225 -1.8704836
5.8400598 4.4467263 -1.8689733
5.8834786 4.4230223 -1.8742596
5.9081759 4.385108 -1.8735044
5.9404354 4.352778 -1.8752664
5.9787936 4.3247552 -1.8790425
6.0091553 4.2908006 -1.8803011
6.0179677 4.2415814 -1.874763
6.0470576 4.2067866 -1.87577
6.0934992 4.1838474 -1.8823149
6.1238632 4.1496372 -1.8838253
6.1548409 4.1157498 -1.8855875
6.1872487 4.0827045 -1.887853
6.1440582 4.0003033 -1.8667076
6.1978006 3.9813609 -1.87577
6.2539926 3.9634631 -1.8855875
6.266706 3.9178317 -1.8820633
6.2774477 3.8711774 -1.8780355
6.3225803 3.8456643 -1.8845805
6.3311195 3.7978351 -1.8800493
6.3759599 3.7717292 -1.8865944
6.3805919 3.7218072 -1.8810563
6.4209261 3.6927197 -1.8863426
6.4485145 3.6561165 -1.887853
6.4809637 3.6221466 -1.8908738
6.5039144 3.5827789 -1.8911256
6.5164199 3.5377245 -1.8883566
6.5499511 3.504066 -1.8918808
6.5550618 3.455235 -1.8870978
6.5632567 3.408258 -1.8833219
6.5754299 3.3635144 -1.8808045
6.5898943 3.3200567 -1.8790425
6.6777625 3.3131135 -1.8986775
6.6718788 3.2593315 -1.8911256
6.7039623 3.2242053 -1.8946499
6.7148724 3.1788685 -1.8921325
6.7386374 3.1396508 -1.8933911
6.7542562 3.0966306 -1.8923842
6.7775402 3.0571189 -1.8936429
6.7837863 3.0099792 -1.8901186
6.7817268 2.9593942 -1.8843288
6.7935319 2.915055 -1.8825667
6.821991 2.8778303 -1.8855875
6.8717036 2.8492634 -1.8946499
6.8800945 2.8033934 -1.8921325
6.9052525 2.7643628 -1.8943981
6.9337926 2.7265458 -1.8976706
6.9612255 2.6881335 -1.9006914
6.9585853 2.6381638 -1.8954051
6.9782696 2.5967674 -1.8964119
6.996799 2.5548968 -1.8971671
7.0086994 2.5106113 -1.8961602
7.0321898 2.4704471 -1.8984258
7.0700917 2.435132 -1.9047191
7.0830665 2.3910859 -1.9042156
7.1012797 2.3487957 -1.9052225
7.0925412 2.2977209 -1.8989292
7.1046615 2.2535734 -1.8984258
7.1211281 2.2107985 -1.899181
7.1364112 2.1676252 -1.8996844
7.1653481 2.1284819 -1.9039639
7.169909 2.0820467 -1.9016984
7.1834803 2.0382781 -1.90195
7.1883907 1.9920945 -1.8999362
7.2163601 1.9522473 -1.9042156
7.2431746 1.9118844 -1.9082433
7.249146 1.8659574 -1.9067329
7.2567039 1.8205001 -1.905726
7.261157 1.7743311 -1.9039639
7.2775564 1.7310882 -1.9054743
7.2814412 1.6848737 -1.9037122
7.3048611 1.6431381 -1.9072363
7.3100781 1.5972521 -1.9059777
7.3197412 1.5523683 -1.9059777
7.3319721 1.508011 -1.9067329
7.3296976 1.4607241 -1.9037122
7.3584781 1.4195733 -1.9089985
7.3470712 1.3706675 -1.9037122
7.376297 1.3293382 -1.9092503
7.3833613 1.2838873 -1.9089985
7.394918 1.2391996 -1.9100055
7.3813624 1.1904109 -1.9044673
6.2753115 0.97250736 -1.6114519
5.8704948 0.87289393 -1.503459
5.8297505 0.83030361 -1.4913759
5.8232279 0.79294956 -1.488355
5.8279839 0.757204 -1.488355
5.7969828 0.71703184 -1.479041
5.8022346 0.68156165 -1.4792928
0 0 -0
0 0 -0
0 0 -0
0 0 -0
0 0 -0
0 0 -0
0 0 -0
0 0 -0
5.7962341 0.35811606 -1.4702305
5.8070192 0.32302865 -1.472496
5.8030925 0.28710404 -1.4709857
5.7438307 0.24884827 -1.4551265
5.8090801 0.21597762 -1.4717408
5.8131976 0.18041997 -1.472496
5.8170977 0.14481992 -1.4732512
5.8169093 0.10910594 -1.4729995
5.8203726 0.073448829 -1.4737546
5.7258716 0.037113052 -1.449085
5.784059 0.0020031349 -1.4641888
5.8100929 -0.033636726 -1.4709857
5.8097768 -0.069286153 -1.4709857
5.7395725 -0.10367924 -1.452861
0 -0 -0
0 -0 -0
0 -0 -0
0 -0 -0
0 -0 -0
0 -0 -0
0 -0 -0
5.8376522 -0.3925772 -1.4815583
5.8496118 -0.4294509 -1.4853343
5.8931746 -0.46901774 -1.4974174
5.8786144 -0.50417715 -1.4943967
5.9794941 -0.54980153 -1.5215837
5.883543 -0.57741237 -1.4974174
7.5355239 -0.786138 -1.9303957
7.5180535 -0.83097875 -1.9271232
7.520503 -0.87799037 -1.929137
7.5130534 -0.92388266 -1.9286336
7.5024438 -0.96934468 -1.927375
7.4714198 -1.0119845 -1.9208299
7.4391975 -1.0541445 -1.9140332
7.2324967 -1.0701745 -1.8614212
6.9981484 -1.0794318 -1.8015091
6.8528357 -1.1001161 -1.7650081
6.7266297 -1.1222428 -1.7335416
6.6290236 -1.1478146 -1.7096272
6.5789895 -1.1807771 -1.6982992
6.5326085 -1.213876 -1.6879783
6.5468969 -1.2581359 -1.693768
6.6216412 -1.3146753 -1.7156687
6.632412 -1.3591648 -1.7207034
6.6353102 -1.4022356 -1.7237241
6.6227984 -1.4420992 -1.7227172
6.5817165 -1.4755126 -1.7141583
6.5640516 -1.5139124 -1.7118927
6.5320382 -1.5488029 -1.7058512
6.5233521 -1.5890825 -1.7061028
6.4731069 -1.6189841 -1.6952784
6.446177 -1.6543425 -1.6907473
6.3937879 -1.6827822 -1.6794194
6.3908172 -1.7239981 -1.6814332
6.3623948 -1.7582819 -1.6766503
6.3496237 -1.7967609 -1.6761469
6.3338313 -1.8343418 -1.6748881
6.3103938 -1.8695977 -1.6716157
6.3015819 -1.909124 -1.6723709
6.2721834 -1.9423155 -1.667588
6.2398477 -1.9743426 -1.6620499
6.2276158 -2.0125923 -1.6620499
6.2032018 -2.0468247 -1.6587774
6.1804366 -2.0814512 -1.6560084
6.1510735 -2.1136744 -1.6514771
6.1553421 -2.1574581 -1.65626
6.131052 -2.191278 -1.6532393
6.1029415 -2.223556 -1.6492115
6.0782957 -2.2569194 -1.6461908
6.0706697 -2.2965693 -1.6479529
6.0519481 -2.3320353 -1.6466942
6.0654545 -2.3800828 -1.6544979
6.0462427 -2.4154601 -1.6532393
6.0232387 -2.4492333 -1.6509737
6.0143571 -2.488735 -1.6527358
5.9945135 -2.5237141 -1.6514771
5.9691291 -2.556258 -1.6487081
5.948895 -2.5909038 -1.6474494
5.9399652 -2.6304913 -1.6494633
5.9193006 -2.6649024 -1.6482047
5.9116378 -2.705199 -1.6507219
5.8817644 -2.7353005 -1.646946
5.8429937 -2.7610033 -1.6406527
5.8311777 -2.7993159 -1.642163
5.8069324 -2.8316498 -1.6401492
5.7816429 -2.8633618 -1.6378837
5.7639647 -2.8987834 -1.6378837
5.7546892 -2.9384966 -1.640401
5.7417059 -2.9764235 -1.6419114
5.7224784 -3.0111473 -1.6416596
5.7098703 -3.0493941 -1.6434218
5.6655254 -3.070539 -1.6358697
5.6491222 -3.1066432 -1.6366249
5.6485481 -3.1516201 -1.642163
5.6046777 -3.1723959 -1.6348629
5.5926609 -3.2110624 -1.6371285
5.5720167 -3.2448308 -1.6368767
5.5303345 -3.2661645 -1.6303316
5.5184927 -3.3050086 -1.632849
5.4931464 -3.3357935 -1.6313386
5.4709268 -3.3684213 -1.6308352
5.4747858 -3.4172988 -1.6383871
5.4627113 -3.4565189 -1.6411562
5.4373264 -3.4873602 -1.6398975
5.4158258 -3.5206575 -1.6398975
5.3965464 -3.5554192 -1.6406527
5.3875074 -3.5970623 -1.6446804
5.3629303 -3.6284251 -1.6439252
5.3501449 -3.6678293 -1.646946
5.2933583 -3.6768491 -1.6361215
5.2596173 -3.701462 -1.6325973
5.2360187 -3.733103 -1.6323456
5.2239985 -3.773093 -1.6358697
5.1999674 -3.8045044 -1.6356181
5.1718602 -3.8328819 -1.6341077
5.1459227 -3.8628008 -1.6333525
5.1159606 -3.8896174 -1.6313386
5.0797286 -3.9114885 -1.6273109
5.0258675 -3.9193745 -1.6174934
5.072361 -4.005918 -1.6409044
5.0355921 -4.0272951 -1.6368767
5.0295897 -4.0733433 -1.64317
4.9753146 -4.0801954 -1.6333525
4.9546533 -4.1143556 -1.6348629
4.9270921 -4.1428113 -1.6341077
4.9266357 -4.1942945 -1.6426666
4.919868 -4.2408724 -1.6492115
4.8726068 -4.2525268 -1.6419114
4.8696313 -4.3028498 -1.6499667
4.8315964 -4.3223248 -1.645939
4.8100057 -4.3564367 -1.6477011
4.8010187 -4.4022193 -1.6539944
4.761858 -4.4204021 -1.6497151
4.7663827 -4.4793601 -1.6610429
4.74582 -4.515192 -1.6635603
4.6713209 -4.4992476 -1.6466942
4.6498628 -4.533906 -1.6489599
4.6143789 -4.554873 -1.6461908
2.3106687 -2.3093114 -0.80943513
2.2978163 -2.3248224 -0.80993855
2.2774227 -2.3326461 -0.80767298
4.4911284 -4.6562958 -1.6424148
4.4437795 -4.6641469 -1.6353663
4.4203839 -4.6969638 -1.6373801
4.3829141 -4.7147841 -1.6341077
4.4134722 -4.8064547 -1.6570152
4.3708925 -4.8191085 -1.6519806
4.3502822 -4.8559279 -1.6555048
4.3011632 -4.8607869 -1.6479529
4.2623401 -4.8768859 -1.6444286
4.219687 -4.8882957 -1.639394
4.1952653 -4.9207234 -1.6416596
4.1537719 -4.9330473 -1.6371285
4.1308513 -4.9673705 -1.6401492
4.0910802 -4.9814057 -1.6363733
4.0567799 -5.0019045 -1.6348629
4.0284324 -5.0297236 -1.6358697
3.9980953 -5.0551062 -1.6361215
2.0022666 -2.5641167 -0.80591089
1.9841317 -2.5732889 -0.80490392
1.9671322 -2.5838749 -0.8044005
1.9500777 -2.5943491 -0.80389702
1.9139329 -2.5790672 -0.79508638
1.8082588 -2.4682038 -0.75556457
1.7267109 -2.3875103 -0.72611195
1.7075294 -2.3917594 -0.72409809
0 -0 -0
3.6888795 -5.3026752 -1.6398975
3.6425774 -5.3052649 -1.6336042
3.6001832 -5.3130946 -1.629073
3.562135 -5.3270402 -1.6265557
3.5363116 -5.3592978 -1.6298282
3.5023048 -5.3792734 -1.6293248
3.4483078 -5.3680921 -1.6192555
3.4215221 -5.3989587 -1.6222763
3.3811471 -5.4083629 -1.618752
3.3545029 -5.4397159 -1.6220245
3.3195534 -5.457716 -1.6212693
3.2874966 -5.4804711 -1.6220245
3.2577496 -5.5072031 -1.6240385
3.2170694 -5.5153856 -1.6205142
3.1836495 -5.5358601 -1.6207659
3.1491446 -5.5544486 -1.6205142
3.1201982 -5.5829592 -1.6232831
3.0770099 -5.5858936 -1.6185004
3.0352888 -5.5910606 -1.6144726
1.5928633 -2.9779048 -0.8381325
1.5745612 -2.9876223 -0.8381325
1.5530775 -2.9912152 -0.83637041
2.9249327 -5.7181468 -1.6303316
2.8810818 -5.7187004 -1.6252971
2.8326027 -5.7093959 -1.6174934
2.7941184 -5.7197123 -1.6154795
2.7577119 -5.7341328 -1.6147243
2.7286882 -5.7640662 -1.6185004
2.686729 -5.766665 -1.6144726
2.6492777 -5.7786431 -1.6132139
2.6145668 -5.7965546 -1.6137174
2.5765953 -5.8071804 -1.6122071
2.5401402 -5.8211069 -1.6117035
2.501703 -5.8303576 -1.6099415
2.4798014 -5.8785906 -1.6192555
2.427743 -5.8552547 -1.6084311
2.3906744 -5.867352 -1.6076758
2.3589447 -5.8926921 -1.6106967
2.325223 -5.9133596 -1.6124587
2.2951717 -5.9437661 -1.61699
2.2583151 -5.9568324 -1.6167382
2.2139578 -5.9497156 -1.6109483
2.1641293 -5.9268255 -1.6008791
2.1267431 -5.9372597 -1.6001239
2.1037471 -5.9885464 -1.6106967
2.070745 -6.0123224 -1.6137174
2.0359824 -6.0313334 -1.6154795
1.9968088 -6.0372806 -1.6137174
1.9525675 -6.0273232 -1.6076758
1.9152551 -6.0382681 -1.6074241
1.8775949 -6.0480576 -1.6069206
1.8438252 -6.0705767 -1.6099415
1.805164 -6.077137 -1.6086828
1.7648721 -6.0778756 -1.6059138
1.733623 -6.1100039 -1.6117035
1.694549 -6.1149306 -1.6101931
1.6539632 -6.1140027 -1.6071724
1.6164173 -6.1240358 -1.6071724
1.5778452 -6.1300898 -1.6061654
1.5378466 -6.1302691 -1.6036482
1.5004327 -6.1405296 -1.6038998
1.465191 -6.1599774 -1.6066689
1.4232203 -6.1509371 -1.601886
1.3886386 -6.173717 -1.605662
1.351971 -6.1877942 -1.6071724
1.3179947 -6.2149076 -1.6122071
0.79871804 -3.8843 -0.99118531
1.2423857 -6.2344098 -1.6132139
0.75997692 -3.940372 -1.0035201
0.74750257 -4.0077515 -1.0201344
0.72049361 -3.9989283 -1.0166101
0.689309 -3.9651349 -1.0065409
0.66368645 -3.9616539 -1.0045271
0.64044464 -3.9723396 -1.0062891
0.61798632 -3.9886274 -1.0095617
0.59848499 -4.0258484 -1.0183723
0.573089 -4.0246544 -1.0171137
0.54368019 -3.9935732 -1.0080513
0.52290857 -4.0256257 -1.0156033
0.49796024 -4.0268373 -1.0150998
0.47301671 -4.0278945 -1.0145963
0.44743654 -4.0230265 -1.0125824
0.42112461 -4.0102963 -1.0085548
0.39898673 -4.0378451 -1.0150998
0.37232712 -4.0199804 -1.0098134
0.34790429 -4.0250816 -1.0105686
0.3222701 -4.0155644 -1.0075479
0.29920012 -4.0386996 -1.013086
0.27310002 -4.0211482 -1.0080513
0.24842159 -4.022748 -1.0080513
0.22308798 -4.0126009 -1.0050305
0.19865447 -4.0177608 -1.0060375
0.17387235 -4.0160031 -1.0052823
0.14897518 -4.0102248 -1.0035201
0.12421566 -4.0062265 -1.0022615
0.099631578 -4.0069132 -1.0022615
0.074806951 -3.9948702 -0.99898899
0.050047927 -3.9758997 -0.99395436
0.025676683 -3.9800029 -0.99496126
0.001251749 -3.9713755 -0.99269569
-0.023249067 -3.994535 -0.99873722
-0.047873389 -4.0039945 -1.0012546
-0.072771378 -4.0220103 -1.0060375
-0.098032348 -4.0456762 -1.0123308
-0.12361574 -4.0701499 -1.0188757
-0.14897482 -4.0799532 -1.0216448
-0.17400613 -4.0789623 -1.0216448
-0.19884256 -4.0739512 -1.0206379
-0.22155637 -4.0311017 -1.0098134
-0.24823178 -4.0615444 -1.0181205
-0.27347264 -4.0647731 -1.0193793
-0.29968277 -4.0803924 -1.0239104
-0.32195216 -4.0437455 -1.014848
-0.34518799 -4.0233731 -1.0100652
-0.36907151 -4.0125055 -1.0077996
-0.392079 -3.9937913 -1.0035201
-0.4160752 -3.9864976 -1.0022615
-0.44297236 -4.0059943 -1.0080513
-0.47147045 -4.0368452 -1.0168619
-0.49741188 -4.0434823 -1.0193793
-0.51948571 -4.019238 -1.0138412
-0.54959118 -4.0562549 -1.0244138
-0.57894868 -4.0844278 -1.032721
-0.60286647 -4.0731397 -1.0307071
-0.63094455 -4.0894499 -1.0359935
-0.6523447 -4.0625677 -1.0299519
-0.67821515 -4.0642166 -1.0314623
-0.70347005 -4.0618858 -1.0319659
-0.72701281 -4.0498719 -1.0299519
-0.74689966 -4.0186925 -1.0229034
-0.76697916 -3.9902735 -1.0166101
-0.78654981 -3.9608109 -1.0100652
-0.80792457 -3.9416888 -1.0062891
-0.83529586 -3.9518075 -1.0103168
-0.86261582 -3.9607925 -1.0140928
-0.89155895 -3.9762013 -1.0196309
-0.91985369 -3.9876308 -1.0241622
-0.94809884 -3.9979205 -1.0284415
-0.97719181 -4.0108342 -1.0334762
-0.7461229 -2.9823105 -0.75934052
-0.76945889 -2.9973624 -0.76462692
-0.7856195 -2.9841611 -0.76236129
-0.80240309 -2.9736781 -0.76085091
-0.82166511 -2.97243 -0.76185787
-0.83909774 -2.9645388 -0.76110268
-0.85781032 -2.9611936 -0.7616061
-1.1557754 -3.9005218 -1.0178689
-1.1875423 -3.9192915 -1.0249174
-1.2107096 -3.9091575 -1.0241622
-1.2457651 -3.9367189 -1.0337279
-1.2466877 -3.8571692 -1.0140928
-1.0911405 -3.3062727 -0.86531949
-1.0848472 -3.2206364 -0.84367061
-1.0945257 -3.1846302 -0.83561522
-1.1143657 -3.1787677 -0.83586693
-1.4025215 -3.9237411 -1.0435455
-1.1241403 -3.084831 -0.81371456
-1.1420368 -3.0751536 -0.81295937
-1.1732099 -3.1006758 -0.82202166
-1.2531011 -3.2514598 -0.86607468
-1.5299977 -3.8986933 -1.0490836
-1.2297254 -3.0776567 -0.82176995
-1.237287 -3.0422609 -0.81396627
-1.2551907 -3.0328231 -0.81346279
-1.2737762 -3.0250642 -0.81346279
-1.6553453 -3.8650508 -1.053363
-1.6832799 -3.8645813 -1.0561321
-1.7034343 -3.846216 -1.0538664
-1.7262077 -3.8339264 -1.053363
-1.7521157 -3.8285427 -1.0548733
-1.7584363 -3.7808619 -1.0443007
-1.7671323 -3.7393744 -1.03549
-1.7984191 -3.7459111 -1.0405247
-1.8586932 -3.8113577 -1.062677
-1.8390982 -3.7131522 -1.0375038
-1.8448908 -3.6680768 -1.0276864
-1.8752843 -3.6722028 -1.0322175
-1.9115871 -3.6872637 -1.0400212
-1.9283178 -3.6643307 -1.0367486
-1.9562358 -3.6626742 -1.0397695
-1.9657621 -3.6267769 -1.032721
-1.9837818 -3.6070144 -1.0304554
-2.0011618 -3.5863225 -1.0279381
-2.0164559 -3.5621846 -1.0244138
-2.0522482 -3.574085 -1.0317141
-2.11115 -3.6249883 -1.0508456
-2.1249871 -3.5977993 -1.0465662
-2.1529891 -3.5946567 -1.049587
-2.185051 -3.5979235 -1.0546216
-2.1974463 -3.5687897 -1.0498388
-2.1972694 -3.5199354 -1.0390143
-2.2100296 -3.4924831 -1.0347348
-2.2387316 -3.4902623 -1.038259
-2.2711813 -3.4935005 -1.0435455
-2.281394 -3.4625268 -1.038259
-2.3171051 -3.470196 -1.0450559
-2.3253396 -3.4366748 -1.0390143
-2.3387222 -3.4111664 -1.03549
-2.3734105 -3.4166243 -1.0417833
-2.4127088 -3.4281161 -1.0500904
-2.4325743 -3.4116714 -1.049587
-2.4296646 -3.3637283 -1.0390143
-2.4874001 -3.3995283 -1.0553769
-2.5168552 -3.3958657 -1.0591528
-2.5155683 -3.3509455 -1.049587
-2.5571668 -3.3631833 -1.0586493
-2.5901535 -3.3635333 -1.0639358
-2.5982459 -3.3315496 -1.0586493
-2.6924112 -3.408968 -1.0896124
-2.6395378 -3.3001702 -1.0589011
-2.6536472 -3.276391 -1.0563837
-2.6976333 -3.2892334 -1.0662013
-2.6250296 -3.1609302 -1.0284415
-2.6649275 -3.1692097 -1.0367486
-2.8537009 -3.3517747 -1.1047162
-2.8849545 -3.3466642 -1.1089957
-2.7361734 -3.1349332 -1.0420351
-2.8783879 -3.2573388 -1.0903676
-2.9254198 -3.269912 -1.1009402
-2.9376328 -3.2432921 -1.0979195
-2.9600942 -3.2280595 -1.0989264
-2.997622 -3.2289879 -1.1057231
-3.0365973 -3.2309873 -1.1130234
-3.0723743 -3.2291229 -1.1190649
-2.9195969 -3.0310571 -1.0543699
-3.243511 -3.3263047 -1.1681526
-3.3406816 -3.3841751 -1.1965982
-4.6385088 -4.641798 -1.666581
-3.3103821 -3.2721624 -1.1704181
-2.9045701 -2.835942 -1.0156033
-3.4540715 -3.3314075 -1.2079262
-3.4632373 -3.299469 -1.2038984
-3.2924352 -3.0983987 -1.1356792
-3.4559772 -3.2125697 -1.1870325
-3.4050553 -3.1264968 -1.162111
-3.4277589 -3.1087961 -1.1633697
-3.3804564 -3.0282898 -1.1402104
-3.079361 -2.7246401 -1.0291967
-3.8370764 -3.3534477 -1.2852077
-3.1447973 -2.714474 -1.040273
-3.1827502 -2.7133369 -1.0475732
-3.2800283 -2.761708 -1.0750118
-3.2812865 -2.7285342 -1.0697255
-3.3106802 -2.718792 -1.074005
-3.3175292 -2.6905012 -1.0707325
-3.3317091 -2.6682794 -1.0699773
-3.3138618 -2.6207678 -1.0586493
-3.271914 -2.5551093 -1.0395178
-3.3120537 -2.5538986 -1.0475732
-3.3607702 -2.5587401 -1.0583977
-3.3957458 -2.5526106 -1.0646909
-3.4478681 -2.5588381 -1.0765222
-3.390125 -2.4838607 -1.0528595
-3.3770735 -2.4425912 -1.0437971
-3.3557682 -2.3959517 -1.0322175
-3.3909731 -2.3898134 -1.0387626
-3.4039841 -2.3678565 -1.038259
-3.4567435 -2.3732219 -1.0503422
-3.5289235 -2.3910587 -1.0684669
-3.5041091 -2.342998 -1.0561321
-3.4796472 -2.2958658 -1.0440489
-3.5090783 -2.2845058 -1.0488318
-3.504302 -2.2508998 -1.0430419
-3.5572841 -2.2542248 -1.0551251
-3.5406868 -2.213371 -1.0458111
-3.5583198 -2.1941445 -1.0470697
-3.5328548 -2.1486299 -1.0352383
-3.5841475 -2.1498153 -1.0468179
-3.6031015 -2.1312325 -1.0485801
-3.6094232 -2.1051826 -1.0465662
-3.6524737 -2.1003673 -1.0556285
-3.681288 -2.0869865 -1.0604115
-3.7041616 -2.0700257 -1.0634322
-3.6854298 -2.0299792 -1.0541182
-3.6646461 -1.9893175 -1.0443007
-3.63241 -1.9430525 -1.0312107
-3.6434078 -1.9202766 -1.0309589
-3.6439567 -1.8920861 -1.0276864
-3.6761758 -1.8802705 -1.0337279
-3.6651726 -1.8463557 -1.0271829
-3.7613921 -1.8659894 -1.0518526
-3.8092923 -1.8607186 -1.0624253
-3.8197656 -1.8368907 -1.0621736
-3.8292153 -1.8125902 -1.0616701
-3.8735998 -1.8045939 -1.0712359
-3.9057131 -1.7904732 -1.0772774
-3.9792604 -1.7947309 -1.0951505
-4.0052361 -1.7769544 -1.0994298
-4.047996 -1.7662817 -1.1084921
-4.0854383 -1.7528605 -1.1160442
-4.1068168 -1.7322743 -1.1190649
-4.1191564 -1.7077842 -1.1195683
-4.2532377 -1.7328802 -1.1543074
-4.3913713 -1.7578323 -1.1900532
-4.3975711 -1.7290832 -1.1887945
-4.440599 -1.7146201 -1.1978569
-4.4347472 -1.6811644 -1.1933258
-4.4032564 -1.6383932 -1.1817461
-4.5968585 -1.6784091 -1.2325958
-4.7947545 -1.7174139 -1.2844526
-4.9366851 -1.7341599 -1.3207018
-4.9362521 -1.7000538 -1.3176811
-4.9823513 -1.6818076 -1.3274987
-5.0991607 -1.6864644 -1.3566995
-5.2972298 -1.7160015 -1.4080527
-5.3334889 -1.6916606 -1.4151012
-5.4047699 -1.6778449 -1.4317155
-6.0724287 -1.8443879 -1.6104449
-6.0854864 -1.8076447 -1.6109483
-6.260036 -1.8177795 -1.6552531
-6.3604507 -1.8047004 -1.6794194
-6.3238401 -1.7524554 -1.666581
-6.4101443 -1.7340955 -1.6869713
-6.50488 -1.7169651 -1.7096272
-6.5912085 -1.6965648 -1.7300174
-6.7000575 -1.6808221 -1.7564492
-6.8155384 -1.6654152 -1.7846432
-7.0704231 -1.6818064 -1.8500934
-7.2474976 -1.6770176 -1.8946499
-7.4087224 -1.6665061 -1.9349269
-7.366807 -1.6096505 -1.9210817
-7.3992662 -1.5692383 -1.9271232
-7.4334021 -1.5288783 -1.9336683
-7.4322028 -1.4811578 -1.9308991
-7.4611068 -1.4393777 -1.9361855
-7.4355488 -1.3871787 -1.9271232
-7.463922 -1.3451345 -1.9324095
-7.4605932 -1.2973212 -1.9293888
-7.4884572 -1.2548794 -1.9346751
-7.4415555 -1.2001216 -1.9203265
-7.4659939 -1.1571074 -1.9248576
-7.4873123 -1.1134112 -1.9286336
-7.4662175 -1.0634897 -1.9213333
-7.5406871 -1.0269336 -1.9392062
-7.5132561 -0.9762789 -1.9303957
-7.5565634 -0.93479586 -1.9402132
-7.5438943 -0.88626558 -1.9354303
-7.5261059 -0.83739072 -1.9293888
-7.5474648 -0.79291552 -1.9336683
-7.5598927 -0.7473523 -1.9356821
-7.5566268 -0.7002368 -1.9336683
-7.5617452 -0.65394044 -1.9339199
-7.5202751 -0.6038869 -1.9220885
-7.56534 -0.56081057 -1.9329131
-7.5734668 -0.51470834 -1.9341717
-7.5658569 -0.46757153 -1.9314026
-7.5821114 -0.42189294 -1.9349269
-7.5826244 -0.37526628 -1.9344234
-7.5915523 -0.32902679 -1.9361855
-7.5895596 -0.28229561 -1.9351786
-7.5718026 -0.23511988 -1.930144
-7.1884537 0.52798492 -1.9232504
-7.1908493 0.57254291 -1.9248277
-7.1900845 0.61690229 -1.9256163
-7.1650271 0.65906054 -1.9198333
-7.1781321 0.7047115 -1.9245648
-7.1794305 0.74934435 -1.926142
-7.1699028 0.79285139 -1.9248277
-7.1706529 0.83750266 -1.9264048
-7.165379 0.88148516 -1.9264048
-7.1512237 0.92432004 -1.9240391
-7.1482859 0.96857083 -1.9248277
-7.1422081 1.0124136 -1.9248277
-7.1473145 1.0579154 -1.927982
-7.1473632 1.1027815 -1.9298221
-7.1176 1.1429411 -1.9235133
-7.0971298 1.1843668 -1.9198333
-7.0992355 1.2295398 -1.9224619
-7.0915575 1.2730768 -1.9224619
-7.0627446 1.3126837 -1.9166789
-7.0659266 1.3581824 -1.9198333
-7.0574598 1.4015126 -1.9198333
-7.0402212 1.443045 -1.9174675
-7.0435057 1.4888117 -1.9208847
-7.0257535 1.5301526 -1.9185189
-7.0237637 1.5749229 -1.9206219
-7.013968 1.6179904 -1.9206219
-7.0048466 1.6612196 -1.9208847
-6.9804611 1.7007411 -1.9169418
-6.9792538 1.7458832 -1.9195704
-6.9702787 1.7891543 -1.9200962
-6.9479737 1.8289404 -1.9169418
-6.937552 1.8717893 -1.9172046
-6.9333758 1.9163797 -1.9193076
-6.9159164 1.9573087 -1.9177303
-6.9047031 1.9999757 -1.9179932
-6.8747263 2.0370934 -1.9129988
-6.8408608 2.0727992 -1.906953
-6.8160329 2.111022 -1.9035357
-6.8406644 2.1647458 -1.9143132
-6.8171549 2.2034128 -1.9114217
-6.8035064 2.2452006 -1.9114217
-6.7576013 2.2761195 -1.9022214
-6.7827415 2.3310308 -1.9135245
-6.7719526 2.3738825 -1.9145761
-6.7518082 2.4134402 -1.9129988
-6.7341533 2.4538317 -1.9122102
-6.7099257 2.4917452 -1.9095817
-6.7008266 2.5352607 -1.9114217
-6.6878452 2.5773697 -1.9122102
-6.6728029 2.6187098 -1.9124731
-6.6521297 2.6578133 -1.9111588
-6.6526766 2.7054887 -1.9161532
-6.6154475 2.7377687 -1.9101074
-6.5789628 2.7700686 -1.9043244
-6.5582948 2.8088644 -1.9032729
-6.5630488 2.8586881 -1.9098445
-6.5612631 2.9059398 -1.9145761
-6.5380306 2.9437668 -1.9129988
-6.4961591 2.9729834 -1.9059016
-6.4568005 3.0030184 -1.8995929
-6.4461031 3.0462916 -1.9019586
-6.42729 3.0857868 -1.9019586
-6.4125705 3.1272812 -1.9032729
-6.3802934 3.1601434 -1.89933
-6.3685398 3.2031357 -1.9016957
-6.3393149 3.2373235 -1.8988042
-6.3296094 3.2814906 -1.9019586
-6.3042331 3.3175697 -1.9003814
-6.3118401 3.3711941 -1.9090558
-6.2681355 3.3974421 -1.9019586
-6.2674594 3.447001 -1.9082673
-6.2386088 3.4811599 -1.9059016
-6.2087355 3.5146196 -1.9032729
-6.1761775 3.546402 -1.8998557
-6.1609702 3.5881171 -1.9019586
-6.131362 3.6214352 -1.8995929
-6.1230955 3.6674187 -1.9040614
-6.0881085 3.6974058 -1.9001186
-6.0570922 3.7296319 -1.8974899
-6.0430956 3.7723489 -1.9003814
-6.0027156 3.7985203 -1.8948613
-6.0093408 3.8545597 -1.9045873
-5.9799147 3.8876777 -1.9027472
-5.9325862 3.9088981 -1.8951242
-5.9245358 3.9559443 -1.9003814
-5.8929601 3.9873548 -1.8980156
-5.8659964 4.021801 -1.897227
-5.8499241 4.0637751 -1.9001186
-5.8114672 4.0901504 -1.8956499
-5.7964725 4.1330156 -1.899067
-5.7796063 4.1747198 -1.9019586
-5.7702317 4.2220716 -1.9074787
-5.746542 4.2591214 -1.9082673
-5.6994696 4.2786584 -1.90117
-5.6777167 4.3170533 -1.9027472
-5.6457705 4.3476887 -1.9009072
-5.6136622 4.3780942 -1.899067
-5.5632243 4.3939142 -1.8909184
-5.560267 4.4472556 -1.89933
-5.527627 4.4770374 -1.8974899
-5.5045276 4.5145416 -1.899067
-5.4863715 4.5562468 -1.9024843
-5.4383759 4.5730557 -1.8953871
-5.4271078 4.6207275 -1.9014329
-5.395731 4.6514201 -1.9003814
-5.3460116 4.666038 -1.8927584
-5.3143892 4.6961966 -1.8917069
-5.3135128 4.7538104 -1.9019586
-5.2606492 4.7649455 -1.8932841
-5.2220702 4.7886562 -1.8898669
-5.1855192 4.8140426 -1.8872383
-5.1783776 4.8669176 -1.8956499
-5.1575027 4.9072475 -1.899067
-5.1203475 4.9321065 -1.8964385
-5.0941324 4.9674735 -1.8980156
-5.0704217 5.0054164 -1.9006443
-5.0211902 5.0180163 -1.8935469
-4.9889493 5.0473585 -1.8930212
-4.955864 5.0758038 -1.8922327
-4.9192686 5.1005602 -1.8901298
-4.875237 5.1173735 -1.8851354
-4.8430843 5.1464882 -1.8848726
-4.8048472 5.1690402 -1.8822439
-4.8017468 5.2297001 -1.8938098
-4.7818809 5.272646 -1.8988042
-4.7397833 5.2911062 -1.8948613
-4.7085071 5.3215346 -1.8953871
-4.6611662 5.3336134 -1.8893412
-4.6453705 5.3818364 -1.8964385
-4.6160154 5.4146447 -1.8980156
-4.5945096 5.4568911 -1.90301
-4.5368867 5.4560432 -1.8927584
-4.4678164 5.440526 -1.8775123
-4.4404259 5.4753323 -1.880141
-4.4121733 5.509254 -1.8825067
-4.4028192 5.5672545 -1.8932841
-4.3650141 5.589602 -1.8917069
-4.320621 5.6032891 -1.8872383
-4.2920017 5.637372 -1.8898669
-4.2613878 5.6690006 -1.8917069
-4.2173257 5.6826434 -1.8875011
-4.1795278 5.7045212 -1.8861868
-4.1257911 5.7042575 -1.8775123
-4.0901523 5.7286801 -1.8772495
-4.0504794 5.7473588 -1.8751466
-4.0118332 5.7673512 -1.8735694
-3.9960244 5.820497 -1.8830324
-3.9699743 5.8592858 -1.887764
-3.9183991 5.8602724 -1.880141
-3.892992 5.9003134 -1.8853983
-3.8672404 5.9402628 -1.8906555
-3.8369744 5.9736223 -1.8938098
-3.8054118 6.0052037 -1.8964385
-3.7603123 6.0153489 -1.8922327
-3.7152317 6.025167 -1.8880268
-3.6887176 6.0651627 -1.8935469
-3.6425023 6.0727873 -1.8888154
-3.6110647 6.1049891 -1.8919698
-3.5745089 6.1286983 -1.8924955
-3.5195267 6.1204023 -1.8830324
-3.4861877 6.1494374 -1.8853983
-3.4653289 6.201036 -1.8948613
-3.4239573 6.2162657 -1.8930212
-3.3848302 6.2354617 -1.8924955
-3.3364975 6.2373948 -1.8867126
-3.3035595 6.267993 -1.8898669
-3.2743716 6.306129 -1.8953871
-3.2259536 6.3072019 -1.8896041
-3.1950035 6.3423886 -1.8943356
-3.1740298 6.3981781 -1.9053758
-3.1355581 6.4192672 -1.9059016
-3.0965292 6.4392552 -1.9061644
-3.0445809 6.4319696 -1.8982785
-3.0038359 6.447906 -1.8974899
-2.9614024 6.4600759 -1.8956499
-2.9189327 6.4719682 -1.8938098
-2.8709528 6.4712343 -1.8882897
-2.8323491 6.4913816 -1.8890783
-2.8069158 6.5423341 -1.899067
-2.7670946 6.5603228 -1.89933
-2.7326989 6.5914392 -1.9035357
-2.6845617 6.5893178 -1.8980156
-2.6526814 6.6271648 -1.9043244
-2.6236134 6.6729503 -1.9129988
-2.5822721 6.6880226 -1.9127359
-2.5384519 6.6965232 -1.9106331
-2.485208 6.6794171 -1.90117
-2.4491384 6.7081356 -1.905113
-2.4059808 6.717587 -1.9035357
-2.3570466 6.7103744 -1.897227
-2.3214805 6.7411323 -1.9019586
-2.2846999 6.7689629 -1.9059016
-2.2497847 6.8030081 -1.9116845
-2.2053256 6.808423 -1.9093188
-2.1693387 6.8402214 -1.9145761
-2.1247542 6.8451099 -1.9122102
-2.0734663 6.8275514 -1.9035357
-2.029887 6.8345957 -1.9019586
-1.9943652 6.8691607 -1.9082673
-1.9461262 6.8599191 -1.9022214
-1.902968 6.8680115 -1.90117
-1.8655745 6.8972554 -1.9061644
-1.8207581 6.8992434 -1.9035357
-1.7795924 6.9149575 -1.9048501
-1.7350184 6.9173236 -1.9024843
-1.6888804 6.9128423 -1.8982785
-1.64554 6.9193206 -1.897227
-1.6065298 6.9443278 -1.9014329
-1.5662169 6.9644094 -1.9043244
-1.5230432 6.972003 -1.9037986
-1.4826347 6.9925437 -1.906953
-1.4377596 6.9920583 -1.9043244
-1.3936999 6.9950709 -1.9027472
-1.3551342 7.0262284 -1.9090558
-1.3104059 7.0258746 -1.9066901
-1.267784 7.0366316 -1.9074787
-1.2303624 7.0775495 -1.9166789
-1.1859567 7.0792561 -1.9151018
-1.1388149 7.0635381 -1.908793
-1.0973707 7.082788 -1.9122102
-1.0526155 7.0807986 -1.9098445
-1.0076543 7.0766168 -1.906953
-0.96434402 7.0836225 -1.9072158
-0.91837907 7.0702701 -1.9019586
-0.87852699 7.1044984 -1.9098445
-0.83154684 7.0810075 -1.9019586
-0.787444 7.0802226 -1.9003814
-0.74458939 7.0906787 -1.9019586
-0.7029621 7.1143174 -1.9072158
-0.65831918 7.1079288 -1.9043244
-0.61386412 7.1022215 -1.9016957
-0.5701201 7.103931 -1.90117
-0.53007668 7.1554055 -1.9143132
-0.48479235 7.1383085 -1.908793
-0.44216961 7.160409 -1.9140503
-0.39662379 7.1340866 -1.9061644
-0.35379219 7.1556592 -1.9114217
-0.31050286 7.1721544 -1.9153646
-0.26656082 7.1758528 -1.9158903
-0.2220497 7.1619234 -1.9116845
-0.1782914 7.1708674 -1.9137874
-0.13407354 7.1602502 -1.9106331
-0.08988481 7.1406784 -1.905113
-0.046111215 7.1478491 -1.906953
-0.002252412 7.1508918 -1.9077415
0.04146304 7.1237564 -1.9003814
0.085722364 7.1687117 -1.9127359
0.12917878 7.1391106 -1.9048501
0.17406352 7.1825528 -1.9169418
0.21680637 7.1379519 -1.905113
0.26155481 7.1625204 -1.9122102
0.30376446 7.1202946 -1.90117
0.34659857 7.1009507 -1.8964385
0.39175585 7.1275916 -1.9043244
0.43577763 7.1298685 -1.9056387
0.48036152 7.139575 -1.9090558
0.52061856 7.0883818 -1.8959128
0.56655771 7.1158304 -1.9043244
0.61062211 7.1170268 -1.9056387
0.65144694 7.0824018 -1.897227
0.69989592 7.1291618 -1.9111588
0.74182081 7.10746 -1.9064273
0.78616083 7.1094875 -1.9082673
0.82976902 7.1045299 -1.9082673
0.87393576 7.1040926 -1.9095817
0.91490871 7.0785027 -1.9040614
0.95949167 7.0813603 -1.9064273
1.0019751 7.0686531 -1.9045873
1.0443387 7.0556908 -1.9027472
1.0896738 7.0624995 -1.9064273
1.1303848 7.0394864 -1.9019586
1.1761005 7.0476441 -1.9061644
1.2181683 7.0336404 -1.9043244
1.2655689 7.0497742 -1.9108959
1.3080958 7.0380816 -1.9098445
1.3463346 7.0043416 -1.9027472
1.3907918 7.0035195 -1.9048501
1.4370345 7.0109215 -1.9093188
1.4786278 6.9953642 -1.9074787
1.5184406 6.9720197 -1.9035357
1.5592903 6.9540982 -1.90117
1.6032326 6.9500403 -1.9027472
1.6445104 6.9344397 -1.90117
1.6808577 6.8989096 -1.8940727
1.724094 6.89221 -1.8951242
1.7677916 6.8871083 -1.8967013
1.7935508 6.8136206 -1.8790895
1.8534313 6.869554 -1.8980156
1.8924609 6.8468928 -1.8948613
1.9226068 6.7933774 -1.8830324
1.9819806 6.8426147 -1.9003814
2.0222831 6.8247743 -1.8988042
2.0646811 6.8140841 -1.89933
2.1044533 6.794836 -1.8974899
2.1440673 6.7753568 -1.8956499
2.1844122 6.7584014 -1.8945985
2.2243273 6.7402897 -1.8932841
2.2610214 6.7128 -1.8893412
2.3018539 6.6978879 -1.8890783
2.3461013 6.6927428 -1.8917069
2.3838739 6.6691365 -1.8890783
2.4221065 6.6471319 -1.8869754
2.4749439 6.6647043 -1.8964385
2.5011036 6.6105919 -1.8851354
2.5489075 6.6140261 -1.8906555
2.5964947 6.6162233 -1.8959128
2.6295216 6.5813532 -1.8903927
2.662946 6.5481143 -1.8853983
2.6809289 6.4781651 -1.8696265
2.7277441 6.4784875 -1.8746209
2.759084 6.4421177 -1.8688378
2.8089671 6.4489484 -1.8759352
2.8469207 6.4280629 -1.8748838
2.8823464 6.4016767 -1.8722551
2.9187605 6.3777294 -1.8704151
2.9578385 6.3597002 -1.8704151
2.9819593 6.31003 -1.860952
3.0381656 6.3281426 -1.8719922
3.090898 6.337997 -1.8806667
3.1185913 6.2964344 -1.8738322
3.1519628 6.2668381 -1.8706779
3.2035246 6.2731562 -1.8785638
3.2344041 6.2388215 -1.8740951
3.2479036 6.1719017 -1.8596376
3.3089018 6.1952567 -1.8730437
3.3436334 6.1688995 -1.8712037
3.3744457 6.1355872 -1.8672607
3.4077969 6.1071844 -1.864895
3.447583 6.0903573 -1.8662093
3.4882519 6.0749454 -1.8680493
3.5240042 6.0509262 -1.8672607
3.5301447 5.9768577 -1.8507004
3.5895629 5.993156 -1.862792
3.6137445 5.9504032 -1.8562205
3.6608138 5.9453692 -1.8617406
3.698247 5.9244318 -1.8622663
3.7273042 5.8902149 -1.8585862
3.7691073 5.8761663 -1.8614777
3.8024616 5.8488846 -1.8601635
3.8451807 5.835916 -1.8635806
3.8803811 5.81141 -1.8633177
3.9181294 5.7906871 -1.8643692
3.9541323 5.7673326 -1.8646321
3.994401 5.7500925 -1.8669978
4.0251641 5.7191639 -1.864895
4.0641022 5.6998568 -1.866735
4.1001296 5.6763768 -1.8672607
4.1337423 5.6495547 -1.866735
4.1792474 5.6388102 -1.8717294
4.2091331 5.6068888 -1.8696265
4.2469616 5.5855641 -1.8712037
4.2864532 5.5662789 -1.8735694
4.3205266 5.5398731 -1.8735694
4.358624 5.518558 -1.8754095
4.3749232 5.4698625 -1.8677864
4.392611 5.4234242 -1.860952
4.4362097 5.40905 -1.8654207
4.4847288 5.4002819 -1.8719922
4.5165377 5.3711858 -1.8714665
4.5562911 5.3514514 -1.8743579
4.5783296 5.3109722 -1.8698894
4.6127348 5.2849607 -1.8706779
4.6380467 5.2486062 -1.8677864
4.6849632 5.2365847 -1.8738322
4.7046971 5.1941552 -1.8688378
4.7358274 5.1644788 -1.868575
4.7674265 5.135323 -1.868575
4.7981858 5.1052709 -1.8683121
4.8367381 5.0834217 -1.8712037
4.8718548 5.057817 -1.8727808
4.9324408 5.0582175 -1.8843467
4.9559274 5.0203061 -1.8814553
4.9743595 4.97752 -1.8767238
5.0171609 4.9591112 -1.8814553
5.0309238 4.9120588 -1.8751466
5.0588851 4.8790884 -1.8743579
5.1068931 4.8652558 -1.8811924
5.1429744 4.8397789 -1.8835582
5.1746941 4.8101015 -1.8843467
5.2041111 4.7782598 -1.8843467
5.2361913 4.7488298 -1.8853983
5.2486997 4.701808 -1.8793523
5.2767277 4.6688747 -1.8790895
5.3009162 4.6326008 -1.8775123
5.3073273 4.5810785 -1.8696265
5.3390079 4.5515561 -1.8709408
5.3904567 4.5385923 -1.8793523
5.4337845 4.518384 -1.8848726
5.4830327 4.5027113 -1.8924955
5.4955683 4.4568315 -1.8872383
5.5107603 4.4133792 -1.8830324
5.5316815 4.3746958 -1.8809296
5.5470119 4.3317661 -1.8769866
5.5841851 4.3058949 -1.8806667
5.6105003 4.2715502 -1.8806667
5.6366048 4.2370443 -1.8806667
5.6648211 4.2041035 -1.8814553
5.6733861 4.1567235 -1.8756723
5.7144217 4.1331406 -1.8809296
5.7538104 4.1080885 -1.8856611
5.7946839 4.0838203 -1.8909184
5.7982445 4.0333152 -1.883821
5.8562946 4.0205922 -1.8948613
5.8528948 3.9656458 -1.8856611
5.9059949 3.9489601 -1.8951242
5.9099784 3.8993666 -1.8885525
5.9629054 3.8819761 -1.8980156
5.9541373 3.8244634 -1.8875011
5.9709711 3.7837269 -1.8853983
5.9891658 3.7439508 -1.883821
6.0333805 3.7202945 -1.8906555
6.0222926 3.6626542 -1.8798782
6.0554099 3.6320832 -1.8832953
6.1099725 3.614011 -1.8935469
6.1320324 3.5764527 -1.8935469
6.1296039 3.5248158 -1.885924
6.1670651 3.4961772 -1.8909184
6.2103014 3.4705048 -1.8977528
6.2280984 3.4304724 -1.8967013
6.2507262 3.3931131 -1.897227
6.2688761 3.3533309 -1.8964385
6.2918944 3.3161516 -1.897227
6.2967091 3.2694824 -1.8924955
6.3140745 3.2294674 -1.8917069
6.3389416 3.1932676 -1.8932841
6.3679242 3.1590276 -1.8961756
6.3958578 3.1241286 -1.8988042
6.4253416 3.0898414 -1.9019586
6.4415631 3.0491202 -1.90117
6.4374104 2.9989483 -1.8943356
6.462707 2.9626081 -1.8964385
6.482523 2.923691 -1.8969642
6.5038686 2.8854244 -1.8980156
6.5187974 2.844306 -1.897227
6.543221 2.807296 -1.89933
6.5772147 2.7742164 -1.9043244
6.5941133 2.7338071 -1.9043244
6.6107635 2.693295 -1.9043244
6.6271648 2.6526814 -1.9043244
6.6478066 2.6137323 -1.9056387
6.6664195 2.573935 -1.9064273
6.6757717 2.5305893 -1.9045873
6.6739912 2.4831901 -1.8995929
6.6872892 2.4415312 -1.899067
6.724854 2.4085822 -1.9056387
6.732223 2.3647172 -1.9035357
6.7657647 2.3299587 -1.9090558
6.7781053 2.2877841 -1.9085301
6.7938471 2.2467568 -1.9090558
6.8019977 2.2032454 -1.9074787
6.8209071 2.1632168 -1.9090558
6.8331304 2.121038 -1.908793
6.849709 2.0801916 -1.9098445
6.8623438 2.0381234 -1.9098445
6.8886194 2.0000114 -1.9137874
6.90169 1.9579692 -1.9140503
6.8903279 1.9091475 -1.9074787
6.9233346 1.8726238 -1.9135245
6.9244323 1.8274013 -1.9106331
6.9383183 1.7856003 -1.9114217
6.9322977 1.7387716 -1.9066901
6.9597077 1.700322 -1.9114217
6.9587455 1.6549091 -1.9082673
6.9791093 1.6145704 -1.9111588
7.0001807 1.5742555 -1.9143132
7.0087657 1.5310677 -1.9140503
7.0123653 1.4868342 -1.9124731
7.0137954 1.4422257 -1.9103702
7.0281901 1.4002929 -1.9119474
7.0593877 1.361524 -1.918256
7.0562267 1.3160617 -1.9151018
7.0736651 1.2744501 -1.9177303
7.088006 1.2321784 -1.9195704
7.0963845 1.1888233 -1.9198333
7.1016402 1.1449516 -1.9193076
6.5173736 1.0098622 -1.7563326
6.5024514 0.96673554 -1.7505496
5.8386512 0.83158284 -1.5662827
5.8273911 0.79353201 -1.5618141
5.8111005 0.7550301 -1.5560311
5.8156238 0.71935964 -1.5560311
5.8084292 0.68231362 -1.5528767
5.7875743 0.64389211 -1.5460423
5.7827797 0.60746264 -1.5436766
5.7777567 0.57111627 -1.5413108
5.7830739 0.53583151 -1.5418365
5.7872138 0.50042009 -1.5420994
5.7795963 0.46405369 -1.5392079
5.7755995 0.42808416 -1.5373678
5.7752295 0.39244202 -1.5365793
0 0 -0
0 0 -0
0 0 -0
0 0 -0
0 0 -0
0 0 -0
0 0 -0
0 0 -0
0 0 -0
0 0 -0
0 0 -0
0 -0 -0
0 -0 -0
0 -0 -0
0 -0 -0
0 -0 -0
0 -0 -0
0 -0 -0
0 -0 -0
0 -0 -0
0 -0 -0
0 -0 -0
0 -0 -0
0 -0 -0
0 -0 -0
0 -0 -0
6.5684042 -0.64475256 -1.7576469
7.1803904 -0.74944466 -1.9264048
7.1929178 -0.79540014 -1.9311364
7.2109013 -0.84221005 -1.937445
7.2132587 -0.88738316 -1.939548
7.2086349 -0.93175 -1.9398109
7.1827044 -0.97324008 -1.9342908
7.1622686 -1.0152605 -1.9303478
7.1263175 -1.0548041 -1.922199
7.0091019 -1.0814263 -1.8917069
6.7613258 -1.085672 -1.8252027
6.6127415 -1.103452 -1.7860361
6.5098305 -1.1273609 -1.7594869
6.4087777 -1.1503905 -1.7334635
6.3314047 -1.1766344 -1.7140117
6.271008 -1.2052537 -1.6992913
6.2152324 -1.2341168 -1.6858853
6.2774839 -1.2865772 -1.7053372
6.300622 -1.3316605 -1.7140117
6.2781916 -1.3672132 -1.7100687
6.2903957 -1.4103574 -1.7158517
6.2759829 -1.4476258 -1.7142745
6.2463298 -1.4812059 -1.7084916
6.2202511 -1.515391 -1.70376
6.1808848 -1.5460318 -1.6953484
6.1675444 -1.5829678 -1.694297
6.1586485 -1.6210271 -1.6945598
6.1392713 -1.6562705 -1.6919312
6.0945859 -1.6843932 -1.6822053
6.0776377 -1.7199168 -1.6803652
6.0475092 -1.7515359 -1.6748451
6.0486736 -1.7921752 -1.6782624
6.0310998 -1.8272959 -1.6764222
6.0133228 -1.8622684 -1.6745822
6.0054626 -1.9002954 -1.6756337
5.9854274 -1.9344366 -1.673268
5.963367 -1.9677984 -1.6703764
5.9475236 -2.0031195 -1.669325
5.9086609 -2.0304768 -1.6617019
5.9088373 -2.0711639 -1.665382
5.8987432 -2.1083555 -1.6661706
5.8748178 -2.1405442 -1.6630163
5.8434844 -2.1698306 -1.6577591
5.8219395 -2.2025707 -1.6553932
5.7975125 -2.2340868 -1.652239
5.7935743 -2.2734962 -1.6551304
5.7875786 -2.3122253 -1.6574962
5.7670259 -2.3451483 -1.6556561
5.7355905 -2.3734772 -1.6506617
5.7066922 -2.4026327 -1.6464559
5.6953902 -2.4391232 -1.6475074
5.6988912 -2.4821177 -1.6530275
5.7020783 -2.5252466 -1.6585476
5.6970329 -2.5649414 -1.6617019
5.7004871 -2.6086857 -1.667485
5.6747508 -2.639137 -1.6645935
5.6680455 -2.6784432 -1.667485
5.6575923 -2.7160952 -1.669325
5.6252117 -2.7431436 -1.6645935
5.606545 -2.7767508 -1.6640677
5.5911255 -2.8119669 -1.6645935
5.5351019 -2.8264678 -1.6527647
5.5150857 -2.8590448 -1.651976
5.5102453 -2.8995726 -1.655919
5.4957538 -2.935147 -1.6569704
5.4861226 -2.9734123 -1.6595991
5.4627028 -3.0042279 -1.6580219
5.4340568 -3.0320466 -1.6548675
5.4203873 -3.0681849 -1.6564447
5.4014592 -3.1013858 -1.6564447
5.4031696 -3.1466129 -1.6630163
5.3804379 -3.1777437 -1.6619649
5.3724256 -3.2176399 -1.6656449
5.3311419 -3.237519 -1.6588105
5.3119979 -3.2706752 -1.6590734
5.2918296 -3.3032076 -1.6590734
5.2486358 -3.3211658 -1.6517131
5.214354 -3.3444505 -1.6472446
5.1363077 -3.3390343 -1.6285813
5.1833925 -3.4150894 -1.6506617
5.1623402 -3.4468298 -1.6506617
5.1235156 -3.4665422 -1.6448787
5.0846438 -3.4859087 -1.6390958
5.0409741 -3.5016253 -1.6317356
5.0580506 -3.5597067 -1.6446159
5.040041 -3.5934768 -1.6459302
5.0186791 -3.6248991 -1.646193
4.9994569 -3.6579046 -1.6472446
4.9869938 -3.695982 -1.6506617
4.9634504 -3.7259326 -1.6503989
4.9351196 -3.752229 -1.6485589
4.9165893 -3.7859724 -1.650136
4.8925061 -3.8154752 -1.6498731
4.8674884 -3.8442271 -1.6493474
4.8445625 -3.8746238 -1.6496103
4.8072033 -3.8933437 -1.6448787
4.7653213 -3.9080796 -1.6385701
4.7568374 -3.9501927 -1.6440902
4.6845169 -3.9389358 -1.627004
4.6345515 -3.9457095 -1.6178039
4.6920896 -4.0446424 -1.6472446
4.6410189 -4.0505123 -1.6377815
4.6269217 -4.0884976 -1.6417243
4.5902448 -4.1065164 -1.6375186
4.5528059 -4.1235909 -1.63305
4.567946 -4.1886244 -1.6480331
4.5442801 -4.218544 -1.6488217
4.5197158 -4.2476692 -1.6493474
4.4942665 -4.2759871 -1.6496103
4.4721136 -4.3074994 -1.6511874
4.4428363 -4.3321638 -1.650136
2.3305326 -2.2997727 -0.85155874
2.3177421 -2.3153937 -0.85208446
2.3041697 -2.3302577 -0.85234731
4.3203554 -4.4247017 -1.644353
4.3426805 -4.5025268 -1.6638049
4.287025 -4.4997439 -1.6527647
4.2514009 -4.5175309 -1.6496103
4.2137504 -4.5329299 -1.6456673
4.1839004 -4.5565672 -1.6448787
4.2064109 -4.6379075 -1.665382
4.1759429 -4.6614738 -1.6645935
4.130003 -4.6674967 -1.6574962
4.0930338 -4.6833043 -1.654079
4.061069 -4.7046781 -1.6527647
4.0171056 -4.7118835 -1.6464559
3.9800413 -4.7268472 -1.6430387
3.9386277 -4.73634 -1.6377815
3.9449995 -4.8036704 -1.6530275
3.926995 -4.8420258 -1.6580219
3.909271 -4.881094 -1.6632792
3.8409522 -4.8565493 -1.6464559
2.0067897 -2.568768 -0.84761578
1.9886341 -2.5779765 -0.84656435
1.9698569 -2.5862913 -0.84525007
1.9522117 -2.5960155 -0.84446144
1.9345216 -2.6056204 -0.84367287
1.8951231 -2.5855277 -0.83289552
1.7175423 -2.3734925 -0.75771672
1.7135962 -2.3989074 -0.76271111
1.6793957 -2.3817706 -0.75351089
3.5226967 -5.0639281 -1.6401472
3.4915588 -5.0854478 -1.6401472
3.4651589 -5.1139655 -1.642513
3.4294257 -5.1287136 -1.6404101
3.4021418 -5.1561031 -1.642513
3.3657041 -5.1696033 -1.6401472
3.3318353 -5.1869102 -1.6390958
3.2916853 -5.1942153 -1.63489
3.2520828 -5.2020416 -1.630947
3.2312405 -5.2399673 -1.63673
3.2060449 -5.2712374 -1.6404101
3.161237 -5.2701225 -1.6338385
3.1278586 -5.2877593 -1.6333128
3.0963266 -5.3085194 -1.6338385
3.065619 -5.3307638 -1.63489
3.0352309 -5.3536711 -1.6362042
3.0023243 -5.3721938 -1.6362042
2.9665124 -5.3854437 -1.6346271
2.9223683 -5.3831916 -1.6283184
2.8883727 -5.3993201 -1.6277927
1.566741 -2.9713399 -0.87469065
1.5502576 -2.9843228 -0.87574214
1.5305994 -2.9912016 -0.87495357
2.8183508 -5.5943928 -1.6661706
2.7389646 -5.5208197 -1.6385701
2.6948781 -5.5167131 -1.6322613
2.6484375 -5.5070572 -1.6243755
2.6178982 -5.5301814 -1.6264783
2.5843236 -5.5470152 -1.6267412
2.5506411 -5.5636449 -1.627004
2.5097141 -5.5642376 -1.6225355
2.4770899 -5.5830603 -1.6235869
2.449729 -5.6140733 -1.6283184
2.411813 -5.6210179 -1.6259526
2.3611603 -5.5974817 -1.6146495
2.3400674 -5.6439519 -1.6241126
2.3068483 -5.6617785 -1.625164
2.2634633 -5.6543274 -1.6188554
2.2297852 -5.6708031 -1.6196439
2.1893897 -5.6699762 -1.6154381
2.1624207 -5.7040548 -1.6214839
2.1320887 -5.7298765 -1.625164
2.0902758 -5.7247233 -1.6199068
2.0606382 -5.7528839 -1.6243755
2.0268984 -5.7699709 -1.6256897
1.9873743 -5.7704391 -1.6222725
1.9497713 -5.7761254 -1.6204325
1.9197432 -5.8044701 -1.625164
1.881417 -5.8078785 -1.6227983
1.8448706 -5.8165541 -1.6220096
1.8102896 -5.8314509 -1.6230612
1.7713921 -5.832293 -1.6201696
1.7347488 -5.8402772 -1.6193811
1.6983432 -5.8489585 -1.6188554
1.662949 -5.8611255 -1.6193811
1.6264396 -5.8693595 -1.6188554
1.5919058 -5.8848171 -1.6204325
1.5547831 -5.8907423 -1.6193811
1.5178879 -5.897368 -1.6185925
1.4819084 -5.9075065 -1.6188554
1.4451751 -5.9146132 -1.6183296
1.4126488 -5.9393272 -1.6227983
1.3757445 -5.9460034 -1.6222725
1.3326769 -5.9251504 -1.6141238
1.296913 -5.9360442 -1.6149124
1.2550665 -5.9184051 -1.6078151
1.2183398 -5.9241047 -1.6072893
1.1793301 -5.918221 -1.6036093
0.74025726 -3.8353736 -1.0237339
0.71282142 -3.8189764 -1.0179509
0.68715322 -3.8109341 -1.0145338
0.66177571 -3.8036714 -1.0113794
0.64145029 -3.8257406 -1.0163738
0.61428189 -3.8067431 -1.0100651
0.60242301 -3.8848121 -1.0305684
0.58169264 -3.9094315 -1.0363513
0.56000346 -3.9291658 -1.04082
0.53237414 -3.9067149 -1.0337226
0.50727588 -3.9012966 -1.0313569
0.48049036 -3.8813543 -1.0250483
0.45542964 -3.8736887 -1.0221567
0.42952272 -3.8572314 -1.0168995
0.40745682 -3.8751476 -1.0211053
0.38433471 -3.8842959 -1.0229453
0.36200386 -3.9029136 -1.027414
0.33813214 -3.9060225 -1.0276768
0.31454402 -3.9128325 -1.0289911
0.29045829 -3.9137266 -1.0287282
0.26532993 -3.8990705 -1.0242596
0.24074826 -3.8900321 -1.0213681
0.21767595 -3.9058864 -1.0253111
0.19356333 -3.9042575 -1.0245225
0.16860579 -3.8822372 -1.0182137
0.14570881 -3.9082673 -1.0250483
0.12101156 -3.8859427 -1.0187395
0.097189412 -3.8875766 -1.0190023
0.073101074 -3.8755591 -1.0155852
0.049283754 -3.8730404 -1.0147966
0.025597172 -3.8858125 -1.0182137
0.0017560042 -3.9003689 -1.0221567
-0.022285925 -3.9186378 -1.0271511
-0.046236273 -3.9107091 -1.0250483
-0.070160612 -3.9064932 -1.0239967
-0.094223209 -3.9098473 -1.0250483
-0.11841795 -3.9159462 -1.0268883
-0.14283253 -3.9257519 -1.0297798
-0.16617474 -3.9074504 -1.0250483
-0.18769315 -3.856246 -1.0113794
-0.2114042 -3.8559852 -1.0116422
-0.23635848 -3.875802 -1.0174252
-0.25799298 -3.8425114 -1.0087507
-0.28425688 -3.8774209 -1.0187395
-0.30581766 -3.847712 -1.0111165
-0.33214793 -3.8774858 -1.019791
-0.35841233 -3.902276 -1.0271511
-0.38234949 -3.9000034 -1.0271511
-0.40647289 -3.8995032 -1.0276768
-0.43017974 -3.8950179 -1.0271511
-0.45104483 -3.8664308 -1.0200539
-0.47782725 -3.8884878 -1.0268883
-0.5024206 -3.8912239 -1.0284654
-0.5253793 -3.8813753 -1.0266254
-0.54986292 -3.8828549 -1.0279397
-0.57891005 -3.9147213 -1.0376656
-0.60424489 -3.919677 -1.0400314
-0.63058114 -3.9301848 -1.0439743
-0.65802276 -3.9462264 -1.0494945
-0.6842016 -3.9535222 -1.0526488
-0.70537567 -3.9321563 -1.0479172
-0.72860736 -3.9230115 -1.046603
-0.75412297 -3.9260466 -1.0487058
-0.77650577 -3.9128287 -1.0463401
-0.80224484 -3.9164968 -1.0487058
-0.81967133 -3.8803504 -1.0400314
-0.83401358 -3.8318837 -1.0279397
-0.85983366 -3.83705 -1.0308312
