# .PCD v0.7 - Point Cloud Data file format
VERSION 0.7
FIELDS x y z
SIZE 4 4 4
TYPE F F F
COUNT 1 1 1
WIDTH 1619
HEIGHT 1
VIEWPOINT 0 0 0 1 0 0 0
POINTS 1619
DATA ascii
-2.0766034 5.1820459 -1.8915241
-2.04373 5.1920524 -1.8905425
-2.0121744 5.2053761 -1.8908697
-1.9815373 5.2211585 -1.8921785
-1.9514416 5.2385321 -1.8941419
-1.9182892 5.2477446 -1.8931602
-1.8831844 5.2514105 -1.8902153
-1.8468537 5.251277 -1.8859614
-1.817984 5.2723379 -1.8895608
-1.7798544 5.2663832 -1.8833437
-1.7478039 5.2781024 -1.8836709
-1.7206296 5.3049078 -1.8895608
-1.6857601 5.3081598 -1.8869431
-1.6506355 5.3102818 -1.8839982
-1.6185707 5.3221183 -1.8846525
-1.5888455 5.3419132 -1.8882519
-1.5578837 5.3579135 -1.8905425
-1.5244628 5.3655539 -1.889888
-1.4892392 5.366611 -1.8869431
-1.4587513 5.3847694 -1.8902153
-1.4254422 5.392705 -1.889888
-1.3927977 5.4031801 -1.8905425
-1.362379 5.4226227 -1.8944691
-1.3281829 5.4272079 -1.8931602
-1.2970452 5.4444485 -1.8964324
-1.2610564 5.441257 -1.8925058
-1.2264009 5.4433613 -1.8905425
-1.1929779 5.4507837 -1.8905425
-1.15951 5.4580011 -1.8905425
-1.1282846 5.4761195 -1.8944691
-1.0924447 5.4718189 -1.8905425
-1.0581331 5.4747081 -1.8892336
-1.0233071 5.4745951 -1.8869431
-0.99019945 5.483561 -1.8879247
-0.95718241 5.493257 -1.8892336
-0.92330211 5.498095 -1.8889064
-0.89000076 5.5064554 -1.889888
-0.85605222 5.510879 -1.8895608
-0.8230567 5.5216355 -1.8915241
-0.7887609 5.5237756 -1.8905425
-0.75561869 5.5341291 -1.8925058
-0.72006303 5.5264792 -1.8882519
-0.68590736 5.5289183 -1.8875976
-0.65130734 5.5273919 -1.8856342
-0.61811203 5.537858 -1.8879247
-0.58342868 5.5349679 -1.8856342
-0.54917651 5.5356226 -1.8846525
-0.50969899 5.4796109 -1.8640379
-0.48128611 5.5428867 -1.8849797
-0.44719076 5.5447936 -1.8846525
-0.41260022 5.5398941 -1.8820348
-0.37911394 5.5498638 -1.8846525
-0.34470296 5.5464263 -1.8826892
-0.31108528 5.555985 -1.885307
-0.27661383 5.5502391 -1.8826892
-0.24267614 5.5546637 -1.8836709
-0.20858879 5.5560484 -1.8836709
-0.17467035 5.5628905 -1.8856342
-0.14065214 5.5685811 -1.8872703
-0.10648131 5.5693393 -1.8872703
-0.072294421 5.5689425 -1.8869431
-0.038135212 5.5711713 -1.8875976
-0.0039480603 5.5665755 -1.8859614
0.030234501 5.5712199 -1.8875976
0.06438493 5.5680947 -1.8866159
0.098599657 5.5704293 -1.8875976
0.13291362 5.5753875 -1.8895608
0.16732062 5.5810785 -1.8918513
0.20149373 5.5780582 -1.8911968
0.23623756 5.5889902 -1.8954507
0.27011347 5.5789409 -1.8925058
0.30434012 5.5771785 -1.8925058
0.33855534 5.5752063 -1.8925058
0.37244147 5.5683098 -1.8908697
0.40625578 5.5612073 -1.8892336
0.44044587 5.5595522 -1.8895608
0.47446975 5.5558033 -1.8892336
0.50682306 5.5339675 -1.8826892
0.54169077 5.5401583 -1.8859614
0.57557642 5.53579 -1.8856342
0.60984361 5.5349722 -1.8866159
0.64532632 5.5442662 -1.8911968
0.67841154 5.5326991 -1.8885791
0.71331441 5.5359297 -1.8911968
0.74701542 5.5295758 -1.8905425
0.78013551 5.5192742 -1.8885791
0.81232822 5.5031662 -1.8846525
0.84521621 5.4924746 -1.8826892
0.87800366 5.4815869 -1.880726
0.91162151 5.4760962 -1.880726
0.94472176 5.4676065 -1.8797443
0.97875297 5.4644971 -1.880726
1.0127816 5.4611759 -1.8817075
1.0468062 5.4576426 -1.8826892
1.0799062 5.4492631 -1.8820348
1.1125636 5.4388313 -1.880726
1.1463052 5.4337516 -1.8813803
1.1792227 5.4247689 -1.880726
1.2133126 5.4211197 -1.8820348
1.2469776 5.4154143 -1.8826892
1.279093 5.4030638 -1.8810532
1.310657 5.3886867 -1.8787626
1.3434675 5.3796268 -1.8784354
1.3755119 5.3676205 -1.8771266
1.4077001 5.356338 -1.8761449
1.4420153 5.3530741 -1.8781081
1.478356 5.3568769 -1.8826892
1.5127403 5.3531609 -1.8846525
1.545821 5.3446856 -1.8849797
1.5823423 5.347785 -1.8895608
1.613209 5.3316445 -1.8872703
1.6453341 5.3198404 -1.8866159
1.6750958 5.3006349 -1.8833437
1.7081693 5.2920551 -1.8839982
1.7409046 5.282372 -1.8843254
1.7738867 5.2733817 -1.8849797
1.8114284 5.2775908 -1.8905425
1.8378408 5.2494326 -1.8843254
1.8798709 5.2656431 -1.8944691
1.9111749 5.2513456 -1.8934875
1.9433606 5.2395201 -1.8934875
1.9741361 5.2239614 -1.8921785
2.0044544 5.2073412 -1.8905425
2.0353332 5.1923051 -1.8895608
2.0618978 5.1665549 -1.8846525
2.0928488 5.1520553 -1.8839982
2.1218934 5.1330047 -1.8817075
2.1566477 5.127727 -1.8846525
2.1862111 5.110054 -1.8830165
2.220542 5.1034746 -1.8856342
2.2533445 5.0932097 -1.8869431
2.2849414 5.0801497 -1.8872703
2.3164625 5.0668931 -1.8875976
2.3483055 5.0542979 -1.8882519
2.3776596 5.036376 -1.8869431
2.406882 5.0182843 -1.8856342
2.4376285 5.0034218 -1.8856342
2.4670253 4.9858298 -1.8846525
2.4962978 4.9680657 -1.8836709
2.5275936 4.9543386 -1.8843254
2.560554 4.9437704 -1.8862886
2.59128 4.9288025 -1.8866159
2.6210287 4.9119763 -1.8862886
2.6506686 4.8949704 -1.8859614
2.6856611 4.887723 -1.8895608
2.7188232 4.8769288 -1.8918513
2.7491617 4.8609772 -1.8921785
2.7704692 4.8292651 -1.8862886
2.8133605 4.835041 -1.8954507
2.8429747 4.8176875 -1.8954507
2.8724818 4.8001528 -1.8954507
2.8999195 4.7792063 -1.8941419
2.924732 4.7540798 -1.8911968
2.9523466 4.7336397 -1.8902153
2.9752743 4.705852 -1.8862886
3.003583 4.6867123 -1.8859614
3.0312536 4.6666098 -1.885307
3.0556724 4.6416092 -1.8826892
3.0861936 4.625916 -1.8839982
3.1171665 4.6108065 -1.8856342
3.1459334 4.5923724 -1.8859614
3.1783643 4.5791922 -1.8885791
3.2053144 4.5580583 -1.8879247
3.2403517 4.5483084 -1.8921785
3.2610073 4.5183806 -1.8879247
3.2881124 4.4975238 -1.8875976
3.3173344 4.4795418 -1.8885791
3.3407876 4.4538116 -1.8862886
3.3703401 4.4362388 -1.8875976
3.3980732 4.416224 -1.8879247
3.4326596 4.4049788 -1.8921785
3.4607944 4.3853164 -1.892833
3.487047 4.3632607 -1.8925058
3.5101862 4.3373761 -1.8905425
3.5385311 4.3179488 -1.8915241
3.5480587 4.2757974 -1.882362
3.5772679 4.2575631 -1.8839982
3.6027122 4.2348137 -1.8836709
3.6310959 4.2154918 -1.8849797
3.6525447 4.188148 -1.8826892
3.6931882 4.1826549 -1.8905425
3.7225626 4.1641412 -1.8925058
3.7442377 4.1370187 -1.8905425
3.7631664 4.1070008 -1.8872703
3.7921522 4.0879889 -1.8892336
3.8178113 4.0653324 -1.8895608
3.8433352 4.0425148 -1.889888
3.8693781 4.0202179 -1.8905425
3.8959515 3.9984303 -1.8915241
3.9137747 3.9677238 -1.8882519
3.9440572 3.9496515 -1.8911968
3.9729211 3.9300275 -1.8934875
4.0016923 3.910198 -1.8957779
4.0283298 3.888195 -1.8970869
4.0541639 3.8653603 -1.8980684
4.0729885 3.8358777 -1.8957779
4.0929885 3.8075964 -1.8941419
4.1016598 3.7689872 -1.8872703
4.1331067 3.751368 -1.8911968
4.1588616 3.7284598 -1.8925058
4.1873217 3.7078817 -1.8951235
4.1900744 3.6647043 -1.8859614
4.2239251 3.6488068 -1.8911968
4.2483912 3.62466 -1.8921785
4.2676606 3.5960891 -1.8908697
4.306354 3.5837348 -1.8983957
4.3370242 3.5644419 -1.9023223
4.3470726 3.5282378 -1.8970869
4.3664269 3.4997258 -1.8961052
4.3952298 3.4787309 -1.8993773
4.418726 3.4534421 -1.900359
4.4428253 3.4285729 -1.9016678
4.4675379 3.4041104 -1.903304
4.4845648 3.3737943 -1.9016678
4.4960771 3.3394547 -1.8977413
4.4936185 3.2950459 -1.8879247
4.5367188 3.2840295 -1.8977413
4.5590906 3.2577784 -1.8987229
4.5828557 3.2324657 -1.900359
4.6002765 3.2026656 -1.8993773
4.6182833 3.1733086 -1.8987229
4.6361032 3.1438513 -1.8980684
4.6490226 3.1111424 -1.8954507
4.6696019 3.0835991 -1.8961052
4.6797247 3.0492163 -1.8925058
4.7134509 3.0301504 -1.8987229
4.7311563 3.0006661 -1.8983957
4.7582922 2.9770913 -1.9019951
4.7861204 2.9537923 -1.9059217
4.8081908 2.9268255 -1.9075578
4.8268695 2.8977542 -1.9078851
4.8526912 2.8728948 -1.9111573
4.8620658 2.8383029 -1.9078851
4.8482647 2.7905102 -1.8954507
4.8570762 2.7560475 -1.8921785
4.8846178 2.732188 -1.8964324
4.9046011 2.7039893 -1.8977413
4.9559765 2.6927848 -1.9114844
4.9665737 2.6592038 -1.9091939
4.97611 2.6251535 -1.9065762
4.9979939 2.5976205 -1.9088666
5.0172033 2.5686264 -1.9101756
5.0421519 2.5424712 -1.913775
5.0635824 2.5144258 -1.9160655
5.088254 2.4878728 -1.9196649
5.1034236 2.456605 -1.9196649
5.1184011 2.4252448 -1.9196649
5.1306162 2.3925955 -1.9186832
5.146059 2.3614635 -1.9190104
5.1604519 2.3298435 -1.9190104
5.1694684 2.2958355 -1.9170471
5.1869221 2.2655854 -1.9183559
5.1998577 2.2333436 -1.9180288
5.214334 2.2017632 -1.9183559
5.2277455 2.1697271 -1.9183559
5.2427101 2.1383228 -1.9190104
5.2513461 2.1043575 -1.9173744
5.2738323 2.0759013 -1.9209738
5.2670784 2.036011 -1.913775
5.28654 2.0063355 -1.9163927
5.2987514 1.97386 -1.9163927
5.301887 1.938068 -1.9131205
5.3225746 1.9086876 -1.9163927
5.335969 1.8766197 -1.9170471
5.3420229 1.8419963 -1.9150838
5.3478527 1.8073695 -1.9131205
5.3642244 1.7763028 -1.9150838
5.3768206 1.7439378 -1.9157382
5.3910227 1.7120568 -1.9170471
5.4032311 1.6795064 -1.9177016
5.4116263 1.6457717 -1.9170471
5.4261518 1.6138816 -1.9186832
5.4531932 1.5855662 -1.9249003
5.4628196 1.5520762 -1.9249003
5.4758825 1.5195377 -1.9262092
5.4841909 1.4856628 -1.925882
5.4932036 1.4519845 -1.925882
5.4965186 1.4168373 -1.9239187
5.5060253 1.3833147 -1.924246
5.5116558 1.3488311 -1.9232643
5.5179896 1.3145492 -1.9226098
5.5268726 1.2808799 -1.922937
5.5383153 1.2477735 -1.924246
5.5467901 1.2139693 -1.9245732
5.5615296 1.1814815 -1.9271909
5.5566421 1.1448579 -1.922937
5.5672693 1.1114806 -1.924246
5.569345 1.076404 -1.9226098
5.5786319 1.0427312 -1.9235915
5.597014 1.0106621 -1.9278454
5.600317 0.9758144 -1.9268637
5.6136546 0.94268358 -1.9294814
5.6230645 0.90882337 -1.9307903
5.6248002 0.8737244 -1.9294814
5.6244473 0.83836007 -1.9275181
5.6304212 0.80396676 -1.9278454
5.6380568 0.76978689 -1.9288269
5.6454854 0.73554361 -1.9298086
5.6498923 0.70088977 -1.9298086
5.6559634 0.66643023 -1.9304631
5.6608853 0.631818 -1.9307903
5.6646557 0.59707153 -1.9307903
5.6682124 0.56230265 -1.9307903
5.6696739 0.52733791 -1.9301358
5.6775103 0.49294725 -1.9317719
5.6757183 0.45772257 -1.9301358
5.6784201 0.4228884 -1.9301358
5.6856217 0.38835934 -1.9317719
0 0 -0
0 0 -0
0 0 -0
0 0 -0
0 0 -0
0 0 -0
0 0 -0
0 0 -0
0 0 -0
0 0 -0
0 0 -0
0 -0 -0
0 -0 -0
0 -0 -0
0 -0 -0
0 -0 -0
0 -0 -0
0 -0 -0
0 -0 -0
0 -0 -0
0 -0 -0
0 -0 -0
0 -0 -0
0 -0 -0
0 -0 -0
0 -0 -0
0 -0 -0
0 -0 -0
0 -0 -0
0 -0 -0
0 -0 -0
0 -0 -0
0 -0 -0
0 -0 -0
0 -0 -0
0 -0 -0
0 -0 -0
0 -0 -0
5.6575541 -0.97758275 -1.9464967
5.6467991 -1.0114444 -1.9448607
0 -0 -0
0 -0 -0
5.6012721 -1.1100634 -1.9356985
5.547143 -1.1347432 -1.9190104
5.3884482 -1.1367382 -1.8653467
5.3296647 -1.1585284 -1.8470225
5.2311687 -1.1707578 -1.8146279
5.1336474 -1.182035 -1.7825606
5.064692 -1.1989144 -1.7606369
5.0306144 -1.2234863 -1.7511476
4.9515066 -1.2364573 -1.7256247
4.9200282 -1.260712 -1.717117
4.8811288 -1.2827042 -1.7059916
4.8594809 -1.3089404 -1.7010833
4.8786831 -1.3462802 -1.7108998
4.8621469 -1.3738755 -1.7079549
4.8418255 -1.4002677 -1.703701
4.8313303 -1.4294136 -1.7030466
4.8179469 -1.457662 -1.7014105
4.8242579 -1.4919466 -1.7069732
4.8168149 -1.5220895 -1.7076277
4.8064857 -1.5513258 -1.7073004
4.8040552 -1.5831563 -1.7099181
4.7933555 -1.6123022 -1.7095909
4.7833724 -1.6416832 -1.7095909
4.767858 -1.6691281 -1.7076277
4.7762141 -1.7050275 -1.7144992
4.7638865 -1.733655 -1.7138448
4.727468 -1.753318 -1.7043555
4.7157373 -1.781958 -1.7040282
4.7100053 -1.8128974 -1.7059916
4.6829581 -1.8355526 -1.7001016
4.6628318 -1.8607478 -1.6968294
4.6504512 -1.8889675 -1.6965022
4.6326609 -1.9149383 -1.6942117
4.6077595 -1.9378299 -1.6893035
4.5957823 -1.966066 -1.6893035
4.5784335 -1.9919651 -1.6873401
4.5661249 -2.0200202 -1.6873401
4.5743256 -2.0573065 -1.6951934
4.5590382 -2.084156 -1.6942117
4.5341678 -2.106514 -1.6896306
4.5185938 -2.1330845 -1.6886491
4.496901 -2.1566818 -1.6853769
4.4657454 -2.1755388 -1.6785053
4.4523125 -2.202899 -1.6785053
4.4412451 -2.2314498 -1.6794869
4.4333611 -2.2616661 -1.6817775
4.4126883 -2.2853479 -1.6791598
4.4086185 -2.3176594 -1.6830863
4.3826442 -2.3384361 -1.6785053
4.3607354 -2.3612325 -1.6755604
4.3436809 -2.3865793 -1.6745787
4.339684 -2.4191706 -1.6788325
4.3124223 -2.4387724 -1.6739242
4.3113093 -2.4731836 -1.6794869
4.286253 -2.493886 -1.6755604
4.2757525 -2.5230215 -1.6775236
4.2553267 -2.5462971 -1.6755604
4.2371993 -2.5708883 -1.6745787
4.2334161 -2.6042686 -1.6794869
4.2197618 -2.631696 -1.6804686
4.2019372 -2.656528 -1.6798141
4.1847625 -2.6817505 -1.6794869
4.1721907 -2.7099519 -1.681123
4.1562734 -2.7360206 -1.6814502
4.1527686 -2.7703896 -1.6870129
4.1349087 -2.795289 -1.6866857
4.1153412 -2.819005 -1.6857041
4.090981 -2.8393526 -1.682759
4.073482 -2.8644009 -1.682759
4.0512128 -2.8860507 -1.6807958
4.0257668 -2.9053226 -1.6775236
4.0078645 -2.9299693 -1.6775236
3.9966443 -2.9595687 -1.6804686
3.9753861 -2.9817674 -1.6791598
3.9555111 -3.0049601 -1.6785053
3.9414911 -3.0326326 -1.6804686
3.9161019 -3.0515311 -1.6775236
3.9099126 -3.0854568 -1.6830863
3.8872168 -3.1064389 -1.6814502
3.8732238 -3.1343942 -1.6837407
3.8502648 -3.1551054 -1.6821047
3.8315599 -3.1792743 -1.6824319
3.8141503 -3.2045486 -1.6834135
3.7922568 -3.2260542 -1.6824319
3.7680957 -3.2455611 -1.6804686
3.7530947 -3.2729692 -1.682759
3.7187774 -3.2834244 -1.6762147
3.7309611 -3.3351572 -1.6912668
2.4418588 -2.209383 -1.0986751
2.4275596 -2.223686 -1.0983479
2.4145622 -2.239182 -1.0986751
3.6459224 -3.423774 -1.6902851
3.5776014 -3.4011452 -1.6677071
3.5532615 -3.4197557 -1.6660709
3.5274749 -3.4368765 -1.6637805
3.5049748 -3.4571285 -1.663126
3.4890444 -3.4839125 -1.6657438
3.4689307 -3.5065992 -1.6663982
3.434144 -3.5142982 -1.6598538
3.4282627 -3.5516243 -1.6677071
3.4200962 -3.5869579 -1.6745787
3.3986704 -3.6085637 -1.6749059
3.3738906 -3.6265817 -1.673597
3.3534925 -3.649303 -1.6745787
3.3157992 -3.6530147 -1.6667254
3.2933223 -3.6732914 -1.6667254
3.2782371 -3.7019205 -1.670652
3.2573266 -3.7241001 -1.6716337
3.2294741 -3.7382948 -1.669016
3.2168994 -3.770263 -1.6745787
3.1900525 -3.785594 -1.6726153
3.169786 -3.8087289 -1.6742514
3.1523547 -3.8354082 -1.6775236
3.1168549 -3.8400021 -1.6709793
3.0944161 -3.8605294 -1.6716337
3.0706701 -3.8794436 -1.6716337
1.9950296 -2.5518751 -1.0800238
1.9770254 -2.5610754 -1.0787148
1.9589834 -2.5701511 -1.077406
1.9437443 -2.5828781 -1.0777332
1.9284228 -2.5955148 -1.0780604
1.9135779 -2.6088228 -1.0787148
1.7845321 -2.4643404 -1.0119624
1.6474496 -2.3045373 -0.93932003
1.6327337 -2.3138301 -0.9389928
2.812428 -4.0394969 -1.6627988
2.7693999 -4.0301938 -1.6516734
2.736666 -4.035378 -1.6467651
2.7323437 -4.0827255 -1.6595266
2.7046385 -4.0954709 -1.6578906
2.6851308 -4.1206994 -1.66149
2.6643937 -4.1442518 -1.6644349
2.6333494 -4.1517434 -1.6608355
2.5927942 -4.1437879 -1.651019
2.5668235 -4.1588144 -1.6506917
2.5432217 -4.1777153 -1.6520007
2.5253191 -4.2062058 -1.6572361
2.5004253 -4.223248 -1.6578906
2.470655 -4.2319813 -1.6552728
2.4540658 -4.263443 -1.6618172
2.4222655 -4.2685571 -1.6578906
2.401562 -4.2932372 -1.6618172
2.3715255 -4.301271 -1.6591994
2.3432848 -4.3124199 -1.6578906
2.3190095 -4.3308825 -1.6595266
2.2963588 -4.3525534 -1.6624717
2.2730937 -4.37327 -1.6650894
2.2479389 -4.3905001 -1.6663982
2.2175548 -4.3974595 -1.6637805
2.1930513 -4.4160619 -1.6657438
2.1659136 -4.4294353 -1.6657438
2.1374652 -4.4400868 -1.6647621
2.111799 -4.4565349 -1.6660709
1.4468943 -3.1015999 -1.143504
1.4278361 -3.1104195 -1.143504
1.4114445 -3.1251512 -1.1457945
1.3930092 -3.1354802 -1.146449
1.9797727 -4.532207 -1.6709793
1.9493171 -4.5381908 -1.6686888
1.9214346 -4.5500665 -1.6686888
1.8934798 -4.5617704 -1.6686888
1.8615301 -4.5636773 -1.6650894
1.8373573 -4.5846629 -1.6686888
1.8050406 -4.5852981 -1.6647621
1.7768717 -4.5962873 -1.6647621
1.7539978 -4.6212401 -1.6699976
1.7252797 -4.6310296 -1.6696703
1.6945621 -4.6353159 -1.6673799
1.6625817 -4.6358409 -1.6637805
1.6309721 -4.6370401 -1.6605083
1.5997185 -4.6389198 -1.6575633
1.5678984 -4.6388001 -1.6539639
1.5399995 -4.6501274 -1.6546184
1.513186 -4.6648827 -1.6565816
1.4848201 -4.6749802 -1.6569089
1.4558268 -4.6831007 -1.6565816
1.4270644 -4.6919451 -1.6565816
1.3977098 -4.6988015 -1.6559272
1.3728069 -4.7209005 -1.6608355
1.3484594 -4.7455978 -1.6667254
1.320578 -4.7583356 -1.6683615
1.2930849 -4.7727337 -1.670652
1.2659472 -4.7888007 -1.673597
1.2346543 -4.7891574 -1.6709793
1.2082362 -4.8085575 -1.6752331
1.1798309 -4.8204703 -1.6768692
1.1430105 -4.7972832 -1.6660709
0.7115435 -3.0679655 -1.048938
0.69291294 -3.0731957 -1.0492653
0.67424494 -3.0783126 -1.0495925
0.65593261 -3.0851648 -1.0505741
0.64175248 -3.1122701 -1.0587546
0.61894757 -3.0976152 -1.0522102
0.59939194 -3.0985713 -1.0512285
0.57967448 -3.0984752 -1.0499197
0.56081939 -3.1029036 -1.050247
0.54322791 -3.114665 -1.0531919
0.52051151 -3.0965052 -1.0456659
0.50029731 -3.0921776 -1.0430481
0.47885209 -3.0793149 -1.0374854
0.45869666 -3.0737832 -1.0345404
0.43742675 -3.0597012 -1.0286505
0.41928273 -3.067009 -1.0302867
0.39704299 -3.0432863 -1.0211245
0.37917525 -3.0522299 -1.0234151
0.35988808 -3.0498066 -1.0217789
0.34315592 -3.0698009 -1.0279961
0.32510439 -3.0793669 -1.0306138
0.30480725 -3.0671983 -1.0257056
0.29130813 -3.1264062 -1.0456659
0.2765229 -3.1789715 -1.0633357
0.25542074 -3.1608284 -1.0564641
0.28977194 -3.8860638 -1.3077674
0.21654908 -3.1627822 -1.0561368
0.19567809 -3.1404727 -1.0479563
0.17708902 -3.1538796 -1.0522102
0.18049809 -3.6135874 -1.2112381
0.13771595 -3.1407104 -1.0469748
0.11868911 -3.1481063 -1.0492653
0.099105321 -3.1402748 -1.0463203
0.079267152 -3.1181521 -1.038467
0.059900757 -3.1062977 -1.0342132
0.040369011 -3.0697567 -1.0214517
0.022002997 -3.1408162 -1.0459931
0.0027014979 -3.0823054 -1.0257056
-0.016179278 -3.0765944 -1.0237422
-0.03510109 -3.0802166 -1.0250511
-0.054490943 -3.1073425 -1.0345404
-0.074033253 -3.1267877 -1.041412
-0.09321747 -3.1262746 -1.041412
-0.11404491 -3.1709714 -1.0571185
-0.13069244 -3.104125 -1.0342132
-0.14950706 -3.0985456 -1.0325772
-0.16991201 -3.1230454 -1.041412
-0.18717489 -3.0908184 -1.0306138
-0.20651582 -3.0952687 -1.0325772
-0.22446851 -3.079807 -1.0276688
-0.24291269 -3.0727198 -1.0257056
-0.26200378 -3.0739961 -1.0266873
-0.28068778 -3.0704484 -1.0260328
-0.30016747 -3.0752516 -1.0283233
-0.31912911 -3.0742917 -1.0286505
-0.33850503 -3.076972 -1.0302867
-0.3571597 -3.0729599 -1.0296322
-0.37566271 -3.0678968 -1.0286505
-0.3973828 -3.0880263 -1.0365038
-0.41416913 -3.0696106 -1.030941
-0.43458548 -3.078239 -1.0348676
-0.45678142 -3.0979495 -1.0427209
-0.47937942 -3.1184366 -1.0509013
-0.49910334 -3.1191685 -1.0522102
-0.51559156 -3.1002018 -1.0466475
-0.53943682 -3.1249135 -1.0564641
-0.56727403 -3.1699104 -1.0734794
-0.58274609 -3.1450014 -1.0659534
-0.59935957 -3.1274467 -1.0610451
-0.62074459 -3.1348329 -1.0649717
-0.63996786 -3.130965 -1.0649717
-0 -0 -0
-0.87121993 -4.009285 -1.3791009
-0.87555951 -3.9134986 -1.3470335
-0.74823523 -3.2515168 -1.1137272
-0.75771403 -3.202729 -1.0980207
-0.80953741 -3.3302307 -1.1451401
-0.83018523 -3.3261175 -1.1454673
-0.88368011 -3.4500215 -1.1916051
-0.81877762 -3.1173711 -1.074461
-0.80960238 -3.0073657 -1.036831
-0.82351166 -2.9859462 -1.030941
-0.8400175 -2.974472 -1.0286505
-0.86088002 -2.9783387 -1.0319227
-0.89765096 -3.0355184 -1.0545007
-0.98253149 -3.2488177 -1.1336875
-1.0289898 -3.3284843 -1.1647732
-1.0815905 -3.4239173 -1.2017488
-0.9794277 -3.035954 -1.0630084
-1.0072124 -3.0577068 -1.0731522
-1.0579103 -3.1463997 -1.1078372
-1.0581652 -3.0844395 -1.0875497
-1.0736344 -3.0680788 -1.0839504
-1.0911679 -3.057874 -1.0826415
-1.10603 -3.0404663 -1.0787148
-1.1233499 -3.0300789 -1.077406
-1.1619743 -3.0761611 -1.0970391
-1.1655437 -3.0292926 -1.0823143
-1.6067883 -4.0997171 -1.4831562
-1.6231525 -4.0678415 -1.4749757
-1.2748333 -3.1395109 -1.1317241
-1.2850436 -3.1097996 -1.1235437
-1.2799098 -3.0443723 -1.1019473
-1.3569487 -3.1728477 -1.1533206
-1.9308603 -4.438076 -1.6343309
-1.9718255 -4.457252 -1.6461107
-1.3608295 -3.0266938 -1.1075101
-1.2905407 -2.8240819 -1.0335588
-1.3747655 -2.960067 -1.0885314
-1.3093594 -2.7747097 -1.0207973
-1.391363 -2.9020808 -1.072825
-1.4219791 -2.9198205 -1.0829687
-1.4746655 -2.9813294 -1.1101278
-1.4241723 -2.835454 -1.0571185
-1.5008295 -2.9428091 -1.1022745
-1.455817 -2.8118908 -1.0548279
-1.4774421 -2.8112683 -1.0581001
-1.4813131 -2.777142 -1.0482836
-1.5019264 -2.7746475 -1.0509013
-1.5316694 -2.7885654 -1.0600635
-1.5469097 -2.7758138 -1.0587546
-1.5667048 -2.7712045 -1.0607178
-1.5850902 -2.7639978 -1.0616995
-1.6048723 -2.7591197 -1.0636629
-1.6203306 -2.7467792 -1.0626812
-1.6274462 -2.7205703 -1.0561368
-1.6455797 -2.7129567 -1.0571185
-1.6626904 -2.7036133 -1.0574456
-1.6797484 -2.6941619 -1.0577729
-1.6977633 -2.6862001 -1.0587546
-1.7177838 -2.6813009 -1.0610451
-1.731629 -2.6667485 -1.059409
-1.742242 -2.6473925 -1.0558096
-1.7684205 -2.6515856 -1.0620267
-1.7809513 -2.6352057 -1.0597363
-1.7773217 -2.5953884 -1.0476291
-1.8083044 -2.6061668 -1.0567913
-1.8264364 -2.5981135 -1.0581001
-1.8478283 -2.5945528 -1.0613723
-1.8426931 -2.5540535 -1.048938
-1.8650241 -2.5518513 -1.0528647
-1.8778342 -2.5365634 -1.0512285
-1.8916614 -2.5227261 -1.050247
-1.9053895 -2.5088146 -1.0492653
-1.9167126 -2.4918346 -1.0469748
-1.9348711 -2.4837532 -1.0486108
-1.948318 -2.4696093 -1.0476291
-1.9752364 -2.4723692 -1.0541735
-1.993937 -2.4646094 -1.0561368
-2.0168104 -2.4618282 -1.0603907
-2.0288601 -2.4457717 -1.0587546
-2.0401807 -2.4289367 -1.0567913
-2.0403471 -2.399102 -1.048938
-2.0537956 -2.3851058 -1.0482836
-2.0503757 -2.3518102 -1.0387943
-2.097924 -2.3767202 -1.0561368
-2.0746722 -2.3215413 -1.0365038
-2.0983915 -2.3192749 -1.041412
-2.1304615 -2.3258598 -1.0505741
-2.1350508 -2.3023541 -1.0456659
-2.162725 -2.3036728 -1.0525374
-2.1781218 -2.2917285 -1.0531919
-2.1901762 -2.2762785 -1.0522102
-2.2060809 -2.264827 -1.0531919
-2.2212636 -2.2525933 -1.0538464
-2.2317042 -2.235579 -1.0522102
-2.2568023 -2.2331383 -1.0577729
-2.2299023 -2.1796327 -1.0381398
-2.2289534 -2.1521308 -1.0312682
-2.2660584 -2.161231 -1.0427209
-2.282717 -2.1505246 -1.0443569
-2.2730334 -2.115243 -1.0335588
-2.3172865 -2.1300211 -1.0482836
-2.3408101 -2.1252863 -1.0531919
-2.3467693 -2.1045771 -1.0499197
-2.3582234 -2.0888853 -1.0492653
-2.3809559 -2.0830836 -1.0538464
-2.394408 -2.0690527 -1.0541735
-2.4113722 -2.058001 -1.0561368
-2.4196181 -2.0395138 -1.0541735
-2.4349926 -2.0270462 -1.0554824
-2.4481146 -2.0126669 -1.0558096
-2.4626195 -1.9993938 -1.0567913
-2.4807408 -1.9889724 -1.059409
-2.4921572 -1.9731271 -1.0590818
-2.517621 -1.9682697 -1.0649717
-2.5259097 -1.949899 -1.0633357
-2.550606 -1.944097 -1.0688983
-2.5647523 -1.930114 -1.06988
-2.5810993 -1.9177203 -1.0718433
-2.5798612 -1.8923504 -1.0662806
-2.5891271 -1.8748232 -1.0652989
-2.5905857 -1.8517615 -1.0610451
-2.5879977 -1.8260301 -1.0551552
-2.5944996 -1.8068776 -1.0531919
-2.5985272 -1.7861092 -1.050247
-2.6078732 -1.769071 -1.0495925
-2.6265333 -1.7582898 -1.0528647
-2.6404271 -1.7442228 -1.0541735
-2.6795852 -1.7465539 -1.0659534
-4.0639601 -2.6127994 -1.6313859
-2.7247591 -1.7287182 -1.0757699
-2.7353151 -1.7119668 -1.0757699
-2.7771332 -1.7144994 -1.0885314
-2.8231206 -1.7190385 -1.102929
-2.8603542 -1.7177286 -1.1137272
-2.8399372 -1.6818588 -1.1012928
-2.8681593 -1.6748787 -1.1084917
-2.8964019 -1.6676151 -1.1156905
-2.9213748 -1.6582029 -1.1215804
-2.9372678 -1.6434743 -1.123871
-2.9804013 -1.6436628 -1.1369597
-3.0078688 -1.6348147 -1.1438313
-3.0520022 -1.6346085 -1.1572472
-3.1221569 -1.6475846 -1.1808069
-3.1699426 -1.6479986 -1.1955316
-3.1976602 -1.6375567 -1.2024032
-3.2549028 -1.6417212 -1.2207274
-3.3055437 -1.6418833 -1.2364339
-3.3393278 -1.6331871 -1.2455959
-3.4378443 -1.6552732 -1.2796266
-3.5017395 -1.6596279 -1.3002414
-4.1662126 -1.9430981 -1.5502359
-4.0432062 -1.8556502 -1.4988626
-4.0312605 -1.8203129 -1.4900278
-3.7927477 -1.6847506 -1.3954618
-3.8090758 -1.6640934 -1.3977523
-3.8504748 -1.6541085 -1.4095322
-3.9371643 -1.6627828 -1.4383273
-3.9699867 -1.6480069 -1.446835
-4.0194011 -1.6396676 -1.4615598
-4.0855279 -1.6374584 -1.4825017
-4.2027793 -1.6545624 -1.5224223
-4.2842507 -1.6563259 -1.5489269
-4.3270235 -1.6424062 -1.5610341
-4.434433 -1.6520902 -1.597028
-4.5376821 -1.6588954 -1.6313859
-4.6420679 -1.6648132 -1.6660709
-4.7698722 -1.6776577 -1.7092638
-4.8309999 -1.6659062 -1.7279152
-4.8733606 -1.6471174 -1.7396951
-4.9327164 -1.6335115 -1.757692
-4.9723105 -1.6128289 -1.7684902
-5.0397568 -1.6005822 -1.7894322
-5.1117496 -1.5889695 -1.8120102
-5.2940903 -1.6100532 -1.8745087
-5.3256087 -1.5839999 -1.882362
-5.4214334 -1.5763388 -1.9134477
-5.4655466 -1.5528504 -1.925882
-5.4886308 -1.5230725 -1.9307903
-5.5179396 -1.4947979 -1.9379891
-5.5361438 -1.4633253 -1.9412613
-5.5358672 -1.4269718 -1.9379891
-5.5436025 -1.3927474 -1.9376619
-5.551126 -1.3584819 -1.9373347
-5.5529218 -1.3228636 -1.9350441
-5.5655375 -1.2898324 -1.9366802
-5.5733471 -1.2556586 -1.9366802
-5.5615606 -1.2171988 -1.9298086
-5.5522861 -1.1795198 -1.9239187
-5.5964408 -1.1530492 -1.9370074
-5.5969234 -1.1173947 -1.9347169
-5.6342921 -1.0889428 -1.945515
-5.6408677 -1.054351 -1.945515
-5.6388617 -1.0182098 -1.9425701
-5.6394172 -0.98261917 -1.9406068
-5.6397486 -0.94705999 -1.9386435
-5.6379905 -0.91123271 -1.9360257
-5.6406746 -0.87618691 -1.9350441
-5.6459446 -0.84155989 -1.9350441
-5.6388407 -0.8051672 -1.9307903
-5.6558466 -0.77221209 -1.9350441
-5.6595411 -0.73737204 -1.9347169
-0 -0 -0
-0 -0 -0
-0 -0 -0
-0 -0 -0
-0 -0 -0
-0 -0 -0
-0 -0 -0
-0 -0 -0
-0 -0 -0
-0 -0 -0
-0 -0 -0
-0 -0 -0
-0 -0 -0
-0 -0 -0
-0 -0 -0
-0 -0 -0
-0 -0 -0
-0 -0 -0
-0 -0 -0
-0 -0 -0
-0 -0 -0
-0 0 -0
-0 0 -0
-0 0 -0
-0 0 -0
-0 0 -0
-0 0 -0
-0 0 -0
-0 0 -0
-0 0 -0
-0 0 -0
-0 0 -0
-0 -0 -0
-0 -0 -0
-0 -0 -0
-0 -0 -0
-0 -0 -0
-0 0 -0
-0 0 -0
-0 0 -0
-0 0 -0
-0 0 -0
-0 0 -0
-0 0 -0
-0 0 -0
-0 0 -0
-0 0 -0
-0 0 -0
-0 0 -0
-0 0 -0
-0 0 -0
-0 0 -0
-0 0 -0
-0 0 -0
-0 0 -0
-0 0 -0
-0 0 -0
-0 0 -0
-0 0 -0
-0 0 -0
-0 0 -0
-0 0 -0
-0 0 -0
-0 0 -0
-0 0 -0
-0 0 -0
-5.4164157 1.0026357 -1.9337125
-5.4203315 1.0377977 -1.9374259
-5.4138618 1.0710367 -1.9374259
-5.3961205 1.101976 -1.9333749
-5.3938632 1.136035 -1.9350628
-5.3785119 1.1673135 -1.9320245
-5.3593054 1.1976256 -1.9276358
-5.3445172 1.2288004 -1.9249351
-5.3368769 1.2615706 -1.9249351
-5.3262916 1.293627 -1.9239224
-5.321907 1.3271949 -1.9252727
-5.3163991 1.3605245 -1.9262855
-5.3106823 1.3938364 -1.9272983
-5.3002119 1.4259069 -1.9266231
-5.2904553 1.4581516 -1.9262855
-5.2814088 1.4905857 -1.9262855
-5.2694502 1.5221803 -1.9252727
-5.2582059 1.5539509 -1.9245975
-5.2467699 1.5856409 -1.9239224
-5.2351432 1.6172491 -1.9232472
-5.225121 1.649341 -1.9232472
-5.2131109 1.680793 -1.922572
-5.2035937 1.7130427 -1.9229096
-5.1849542 1.7422414 -1.9198713
-5.1661525 1.7712759 -1.916833
-5.1542983 1.8026308 -1.9164954
-5.1360474 1.831694 -1.9137948
-5.1229424 1.8625306 -1.9131196
-5.1105351 1.8936024 -1.912782
-5.1067457 1.9279158 -1.9158202
-5.097456 1.9602274 -1.916833
-5.0888381 1.9928405 -1.9181833
-5.0791378 2.0250733 -1.9191961
-5.0709777 2.0579696 -1.9208841
-5.0591249 2.0894051 -1.9212216
-5.0470772 2.1207726 -1.9215592
-5.0305071 2.1502213 -1.9202089
-5.0120392 2.1787961 -1.9181833
-4.995132 2.2079864 -1.916833
-4.9608831 2.229336 -1.9087309
-4.9856415 2.2773297 -1.9239224
-4.9562054 2.3007452 -1.9178458
-4.9275217 2.3242869 -1.9121068
-4.8987365 2.3475637 -1.9063678
-4.8910108 2.380873 -1.9090685
-4.8754659 2.4104216 -1.9087309
-4.8656316 2.4428253 -1.9107565
-4.8547444 2.4747715 -1.9124444
-4.8386321 2.5040805 -1.9121068
-4.8256764 2.5350356 -1.9131196
-4.7942486 2.5561845 -1.9067054
-4.8033113 2.59899 -1.916833
-4.7691207 2.6184485 -1.9094061
-4.7694111 2.6568222 -1.9161578
-4.7489219 2.6837215 -1.91447
-4.7315488 2.7123418 -1.9141324
-4.7001691 2.7328076 -1.9080558
-4.6897993 2.7654204 -1.9107565
-4.6695113 2.7922122 -1.9094061
-4.6514854 2.8203235 -1.9090685
-4.6332908 2.8483183 -1.9087309
-4.6173244 2.8776898 -1.9094061
-4.5963974 2.9039562 -1.9080558
-4.5737362 2.929059 -1.9060302
-4.55094 2.9539931 -1.9040047
-4.5327291 2.9818616 -1.9040047
-4.5119977 3.0080514 -1.9029919
-4.5028157 3.0420024 -1.907043
-4.4887261 3.0727639 -1.9090685
-4.4790697 3.1066854 -1.9131196
-4.4568424 3.1319454 -1.9117692
-4.4421425 3.1625082 -1.9137948
-4.4257078 3.1919074 -1.915145
-4.403759 3.2173371 -1.9141324
-4.3551812 3.223022 -1.901304
-4.3609328 3.2688777 -1.912782
-4.339294 3.2944362 -1.9121068
-4.3145204 3.3175573 -1.9100813
-4.2963114 3.3457031 -1.9110941
-4.2712665 3.3685048 -1.9090685
-4.2483106 3.3928874 -1.9080558
-4.2266803 3.4182987 -1.9077182
-4.20854 3.4465542 -1.9090685
-4.1793423 3.4657035 -1.905355
-4.1587191 3.4918876 -1.9056926
-4.1458216 3.5246549 -1.9097437
-4.1241164 3.5500269 -1.9097437
-4.1008368 3.5740283 -1.9090685
-4.078124 3.5985005 -1.9087309
-4.0587754 3.6259639 -1.9100813
-4.0343561 3.6489058 -1.9090685
-4.0139737 3.6754985 -1.9100813
-3.9934168 3.7019782 -1.9110941
-3.967881 3.7238352 -1.9097437
-3.9449573 3.7481115 -1.9097437
-3.9212065 3.7715943 -1.9094061
-3.9027116 3.8001797 -1.9117692
-3.8726168 3.8174472 -1.9083933
-3.8504531 3.8424671 -1.9090685
-3.8215058 3.8606691 -1.9063678
-3.7852409 3.8712583 -1.8999536
-3.7777655 3.9113362 -1.9083933
-3.7530451 3.9337616 -1.9080558
-3.7327111 3.9608257 -1.9100813
-3.7070549 3.9822767 -1.9094061
-3.6819131 4.0042548 -1.9090685
-3.6553755 4.0246811 -1.9080558
-3.6280971 4.0442319 -1.9067054
-3.6038382 4.067122 -1.907043
-3.5713754 4.0806584 -1.9029919
-3.548732 4.1053438 -1.9043423
-3.5228641 4.1263251 -1.9040047
-3.4938381 4.1435461 -1.9019791
-3.468348 4.1649055 -1.9019791
-3.4493048 4.1941051 -1.9056926
-3.424099 4.2159214 -1.9060302
-3.396399 4.2346492 -1.9050175
-3.3709364 4.2561474 -1.905355
-3.3488171 4.2819409 -1.9077182
-3.323056 4.303153 -1.9080558
-3.2971606 4.3242106 -1.9083933
-3.2666023 4.3390961 -1.9060302
-3.2382319 4.356792 -1.9050175
-3.2069829 4.3705082 -1.9023167
-3.1662991 4.371047 -1.893877
-3.153656 4.4102993 -1.9026543
-3.1183927 4.4180322 -1.8975905
-3.0982211 4.4471231 -1.9019791
-3.0682089 4.4621716 -1.9002912
-3.0386574 4.4777985 -1.8989408
-3.0158393 4.5033975 -1.9019791
-2.9891882 4.5233884 -1.9026543
-2.9577777 4.5361252 -1.9002912
-2.9263234 4.5486474 -1.8979281
-2.8983583 4.5665174 -1.8979281
-2.8682859 4.5810242 -1.8965777
-2.8391337 4.5969357 -1.8959025
-2.8128331 4.6174855 -1.8972529
-2.7863872 4.6378851 -1.8986033
-2.7554779 4.6508455 -1.8969153
-2.7292633 4.6717291 -1.8986033
-2.7047758 4.6957283 -1.9016416
-2.6749825 4.7105989 -1.9009664
-2.64235 4.7203531 -1.8982657
-2.614701 4.7389498 -1.8992784
-2.583775 4.7515965 -1.8979281
-2.5545714 4.7673607 -1.8979281
-2.5239525 4.7804484 -1.8969153
-2.4932694 4.7933397 -1.8959025
-2.467675 4.8160872 -1.8989408
-2.4363809 4.8277769 -1.8975905
-2.4071312 4.8434782 -1.8979281
-2.377367 4.8581572 -1.8979281
-2.3479216 4.8735008 -1.8982657
-2.3187811 4.8895164 -1.8989408
-2.2899303 4.9062109 -1.8999536
-2.2601764 4.9210248 -1.9002912
-2.2283883 4.9313693 -1.8989408
-2.1980879 4.9449496 -1.8989408
-2.1605396 4.9419575 -1.8925266
-2.1342657 4.9646335 -1.8962401
-2.1026635 4.9750342 -1.8952274
-2.072459 4.9887118 -1.8955649
-2.0421655 5.0022054 -1.8959025
-2.0121353 5.0163889 -1.8965777
-1.9806271 5.0268893 -1.8959025
-1.9497454 5.0389476 -1.8959025
-1.9174529 5.0472965 -1.8945522
-1.8884208 5.0642586 -1.8965777
-1.8527822 5.063375 -1.8918515
-1.8302677 5.098568 -1.9009664
-1.7939465 5.0954967 -1.8955649
-1.7641834 5.110857 -1.8972529
-1.7297732 5.1126695 -1.893877
-1.6933334 5.1079979 -1.8881381
-1.662541 5.1200824 -1.8888133
-1.6310935 5.130187 -1.8888133
-1.5962273 5.1293139 -1.8847622
-1.5713062 5.1606226 -1.8928642
-1.5404179 5.172873 -1.893877
-1.5070697 5.176805 -1.8918515
-1.4755347 5.1868601 -1.8921891
-1.4429247 5.1930952 -1.8911763
-1.4115263 5.2036681 -1.8918515
-1.3786069 5.2085915 -1.8905011
-1.3397971 5.1905217 -1.8807111
-1.314356 5.2242041 -1.8901635
-1.2795867 5.2211995 -1.8861125
-1.2479628 5.2307839 -1.8867877
-1.2158439 5.2383428 -1.8867877
-1.1836791 5.2457047 -1.8867877
-1.1526796 5.2583852 -1.8888133
-1.1198051 5.2625971 -1.8878005
-1.0888256 5.2758222 -1.8901635
-1.0556946 5.2787118 -1.8888133
-1.0227481 5.2823176 -1.8878005
-0.99101049 5.2921944 -1.8891507
-0.95885485 5.3000278 -1.8898259
-0.9256686 5.3021026 -1.8884757
-0.8965559 5.3281035 -1.8959025
-0.86203963 5.3223543 -1.8918515
-0.82922119 5.3266134 -1.8915139
-0.79652208 5.3316011 -1.8915139
-0.76325923 5.3326612 -1.8901635
-0.73001343 5.3335137 -1.8888133
-0.69702983 5.3360257 -1.8881381
-0.66415924 5.3392682 -1.8878005
-0.63215929 5.3497863 -1.8901635
-0.59953129 5.3554354 -1.8908387
-0.56665969 5.3590131 -1.8908387
-0.53358012 5.3605161 -1.8901635
-0.50059104 5.362752 -1.8898259
-0.46734917 5.3619714 -1.8884757
-0.43383154 5.3572326 -1.885775
-0.40137374 5.3654256 -1.8878005
-0.36831552 5.3659091 -1.8871253
-0.33520767 5.3652496 -1.8861125
-0.30254582 5.3719044 -1.8878005
-0.2696732 5.3755398 -1.8884757
-0.23685029 5.3808551 -1.8898259
-0.20382953 5.3822069 -1.8898259
-0.17083101 5.3842974 -1.8901635
-0.1379111 5.3899488 -1.8918515
-0.10509362 5.4038692 -1.8965777
-0.071833342 5.3968825 -1.893877
-0.038717337 5.397222 -1.893877
-0.0056040683 5.401123 -1.8952274
0.027475236 5.3888192 -1.8908387
0.060550395 5.3894901 -1.8911763
0.093569711 5.3861938 -1.8901635
0.12659496 5.3845773 -1.8898259
0.15963171 5.3836989 -1.8898259
0.19276327 5.3854403 -1.8908387
0.22478044 5.359704 -1.8820615
0.25761759 5.3572836 -1.8817239
0.29140079 5.3725204 -1.8878005
0.32322696 5.3518395 -1.8810487
0.3569333 5.3629045 -1.885775
0.38935533 5.3540421 -1.8834118
0.42190394 5.3477988 -1.8820615
0.45606467 5.3610535 -1.8878005
0.48929277 5.3619041 -1.8891507
0.52263969 5.3634853 -1.8908387
0.55563653 5.3611135 -1.8911763
0.5889321 5.3613462 -1.8925266
0.62192607 5.3585668 -1.8928642
0.65445137 5.3518467 -1.8918515
0.68703753 5.3458629 -1.8911763
0.71982616 5.3415465 -1.8911763
0.7527191 5.3379617 -1.8915139
0.78436142 5.3257923 -1.8888133
0.81659669 5.3180881 -1.8878005
0.84802455 5.3055415 -1.8850998
0.87994593 5.296524 -1.8837494
0.91226834 5.2900972 -1.8834118
0.94437945 5.282547 -1.8827366
0.9771173 5.2785039 -1.8834118
1.010195 5.2761073 -1.8847622
1.0427321 5.2707329 -1.8850998
1.0754297 5.2660804 -1.885775
1.1079154 5.2603035 -1.8861125
1.1393728 5.2497268 -1.8847622
0 0 -0
1.2039201 5.2362671 -1.8850998
1.2342948 5.2214527 -1.8823991
1.2660878 5.2128663 -1.8820615
1.2991879 5.2095661 -1.8837494
1.3332285 5.2097039 -1.8867877
1.3661251 5.2050672 -1.8881381
1.3970592 5.1929507 -1.8867877
1.4286462 5.1833735 -1.8864501
1.4606794 5.1754155 -1.8867877
1.4916242 5.1636429 -1.885775
1.5187457 5.1390467 -1.8800359
1.5505219 5.1305323 -1.8803735
1.580862 5.1173244 -1.8790232
1.6127981 5.1093235 -1.8796983
1.6464282 5.1064987 -1.8823991
1.6792015 5.1007705 -1.884087
1.7125659 5.0966172 -1.8864501
1.7477738 5.097589 -1.8908387
1.7799511 5.0894346 -1.8918515
1.8108296 5.0775304 -1.8915139
1.8413076 5.0645547 -1.8908387
1.8713676 5.0505133 -1.8898259
1.9039836 5.0433388 -1.8915139
1.9342176 5.0298038 -1.8908387
1.9667593 5.0222235 -1.8925266
1.9947497 5.0030661 -1.8898259
2.0254104 4.9907327 -1.8898259
2.0552764 4.9764709 -1.8891507
2.0919704 4.978519 -1.8948898
2.1147108 4.9474125 -1.8878005
2.147279 4.9395232 -1.8898259
2.1794496 4.9305596 -1.8915139
2.2058041 4.9085078 -1.8881381
2.2386179 4.9008746 -1.8905011
2.2678542 4.8853388 -1.8898259
2.2929695 4.861115 -1.885775
2.3247871 4.8511987 -1.8874629
2.358217 4.84446 -1.8905011
2.3866463 4.8273678 -1.8894883
2.4157994 4.8117914 -1.8891507
2.4474156 4.8010712 -1.8908387
2.4759634 4.7842913 -1.8901635
2.5057101 4.7698426 -1.8905011
2.5336018 4.7518859 -1.8894883
2.5653985 4.7412181 -1.8915139
2.5912712 4.7196121 -1.8891507
2.6224713 4.7077351 -1.8908387
2.6540864 4.6964726 -1.8928642
2.6851938 4.6841822 -1.8945522
2.7176695 4.6741281 -1.8972529
2.74582 4.6565542 -1.8969153
2.7724085 4.6363869 -1.8955649
2.8027565 4.622508 -1.8969153
2.830574 4.6044216 -1.8965777
2.853297 4.5781794 -1.8928642
2.8727884 4.5470567 -1.8871253
2.9021573 4.5317221 -1.8881381
2.9273467 4.5098815 -1.8864501
2.9523773 4.4879026 -1.8847622
2.9840357 4.4759688 -1.8874629
3.0088091 4.4536743 -1.885775
3.0344846 4.4327989 -1.8847622
3.0680637 4.423378 -1.8888133
3.0929828 4.4013886 -1.8874629
3.1237519 4.3876958 -1.8898259
3.1467617 4.3631015 -1.8874629
3.1740291 4.3444715 -1.8878005
3.2000666 4.3241572 -1.8874629
3.2259743 4.3036876 -1.8871253
3.2563045 4.2890606 -1.8894883
3.2848551 4.2719846 -1.8908387
3.3121624 4.2532339 -1.8915139
3.3376145 4.2320919 -1.8911763
3.3582332 4.2049127 -1.8881381
3.3863382 4.1871557 -1.8894883
3.4107738 4.1648421 -1.8888133
3.4374661 4.1452847 -1.8894883
3.4664679 4.1284404 -1.8915139
3.4905148 4.1056585 -1.8908387
3.5193253 4.0884442 -1.8928642
3.5276484 4.0476127 -1.8837494
3.5704772 4.046361 -1.8935394
3.6008816 4.0306945 -1.8965777
3.6249142 4.0078259 -1.8962401
3.6494377 3.9855087 -1.8962401
3.6738236 3.9630411 -1.8962401
3.7012916 3.9438562 -1.8979281
3.7241244 3.9197066 -1.8972529
3.750715 3.8994958 -1.8986033
3.7817941 3.8838272 -1.9023167
3.7890348 3.8437896 -1.893877
3.8245161 3.8324621 -1.8999536
3.844615 3.8056118 -1.8982657
3.8652015 3.7793176 -1.8969153
3.8883181 3.7555301 -1.8969153
3.9112883 3.731601 -1.8969153
3.9258916 3.699784 -1.8928642
3.9512749 3.6781914 -1.8942146
3.9772336 3.6570632 -1.8959025
3.9947209 3.6281602 -1.8935394
4.021812 3.6079812 -1.8959025
4.0410566 3.5807388 -1.8945522
4.0523272 3.5465763 -1.8894883
4.0925264 3.5376508 -1.8982657
4.1191669 3.5167518 -1.9006288
4.1457047 3.4956586 -1.9029919
4.1627359 3.4665408 -1.9009664
4.181747 3.4391396 -1.8999536
4.2027702 3.4134161 -1.8999536
4.2206984 3.3852081 -1.8986033
4.2399144 3.3580778 -1.8979281
4.2626638 3.3337388 -1.8989408
4.2837839 3.3080962 -1.8992784
4.3114862 3.287457 -1.9026543
4.342104 3.268867 -1.9073806
4.3620796 3.2421629 -1.9073806
4.3606429 3.1997428 -1.8979281
4.3984885 3.1861804 -1.9060302
4.4034085 3.1487279 -1.899616
4.4257221 3.1238213 -1.9009664
4.4309049 3.0869205 -1.8948898
4.4489865 3.0591414 -1.8945522
4.470789 3.0338998 -1.8959025
4.4916668 3.007982 -1.8969153
4.5139651 2.98296 -1.8986033
4.5400677 2.9603486 -1.9019791
4.5605211 2.9339635 -1.9029919
4.580822 2.907439 -1.9040047
4.6065531 2.8842726 -1.9073806
4.6305704 2.8599105 -1.9100813
4.6448159 2.8294849 -1.9087309
4.6580558 2.7985077 -1.907043
4.6808081 2.7732327 -1.9094061
4.6985488 2.7449343 -1.9097437
4.7079625 2.7118239 -1.9067054
4.7326984 2.6875341 -1.9100813
4.7417078 2.6543057 -1.907043
4.7405982 2.6156106 -1.8999536
4.7714424 2.5945687 -1.9060302
4.7905908 2.5670214 -1.9073806
4.8087487 2.5388973 -1.9083933
4.8325872 2.5136878 -1.9117692
4.8529463 2.4865642 -1.9137948
4.8714733 2.4584367 -1.915145
4.8898377 2.4301755 -1.9164954
4.9088845 2.4021955 -1.9181833
4.9252276 2.3728471 -1.9188585
4.9405446 2.3429852 -1.9191961
4.9497104 2.3102374 -1.9171706
4.960371 2.2782514 -1.9158202
4.9725413 2.2469969 -1.915145
4.9827948 2.2149138 -1.9137948
4.995429 2.1839213 -1.9134572
5.0113292 2.1543443 -1.91447
5.0235868 2.1231883 -1.9141324
5.0408659 2.09413 -1.9158202
5.0527492 2.0628047 -1.9154826
5.0723 2.0345666 -1.9181833
5.0855641 2.0037503 -1.9185209
5.0977631 1.9725082 -1.9185209
5.1141696 1.9428636 -1.9202089
5.1339321 1.9144076 -1.9232472
5.1508861 1.8848115 -1.9252727
5.1658974 1.8544432 -1.9266231
5.1754031 1.8220856 -1.9259479
5.1873755 1.7906028 -1.9262855
5.1795411 1.7524035 -1.9191961
5.194663 1.7220707 -1.9208841
5.201551 1.6890013 -1.9195337
5.2109194 1.6567682 -1.9191961
5.2290759 1.6272813 -1.9222344
5.2389622 1.5951656 -1.9222344
5.2549663 1.564871 -1.9245975
5.2617579 1.5318081 -1.9235848
5.2792063 1.5018123 -1.9266231
5.2901354 1.4698956 -1.9272983
5.2908788 1.4351898 -1.92426
5.2932158 1.4010122 -1.9218968
5.3099155 1.3706251 -1.9249351
5.3090973 1.335721 -1.9215592
5.3190212 1.3035681 -1.9222344
5.3214264 1.2695956 -1.9202089
5.3300333 1.2371329 -1.9205465
5.3320146 1.2031616 -1.9185209
5.3457327 1.1718338 -1.9208841
5.3537431 1.1392068 -1.9212216
5.3633981 1.1069064 -1.9222344
5.378396 1.0756383 -1.9252727
5.3904395 1.0436909 -1.9272983
5.3939662 1.0100762 -1.9262855
5.4056196 0.97796625 -1.928311
5.4041009 0.94348389 -1.9256103
5.4153576 0.91124481 -1.9276358
0 0 -0
0 0 -0
0 0 -0
0 0 -0
0 0 -0
0 0 -0
0 0 -0
0 0 -0
0 0 -0
0 0 -0
0 0 -0
0 0 -0
0 0 -0
0 0 -0
0 0 -0
0 0 -0
0 0 -0
0 0 -0
0 0 -0
0 0 -0
0 0 -0
0 0 -0
0 0 -0
0 0 -0
0 0 -0
0 0 -0
0 0 -0
0 -0 -0
0 -0 -0
0 -0 -0
0 -0 -0
0 -0 -0
0 -0 -0
0 -0 -0
0 -0 -0
0 -0 -0
0 -0 -0
0 -0 -0
5.5145802 -0.40101776 -1.9411393
5.5157695 -0.43514287 -1.9424897
0 -0 -0
5.5147014 -0.50322443 -1.9441776
5.5152569 -0.53741741 -1.945528
5.509047 -0.57095736 -1.9445152
5.5035686 -0.6045441 -1.94384
0 -0 -0
0 -0 -0
0 -0 -0
5.4805446 -0.73854685 -1.9414769
5.4787059 -0.77255499 -1.9424897
5.5167003 -0.81246287 -1.9580188
5.5106812 -0.84615463 -1.9576812
5.5081739 -0.88039708 -1.958694
5.4970965 -0.91325289 -1.9566684
5.4886069 -0.94648552 -1.9556557
5.4789896 -0.97948283 -1.9543053
5.4663973 -1.011884 -1.9519422
5.446218 -1.042752 -1.9468783
5.4267893 -1.0735933 -1.9421521
5.3979654 -1.1023526 -1.93405
5.3367548 -1.1240114 -1.9141324
5.2662849 -1.1429652 -1.8908387
5.1682262 -1.1549406 -1.8574175
5.0793958 -1.1678649 -1.8273722
4.9805279 -1.177362 -1.7936133
4.9183269 -1.1945744 -1.7733581
4.8634109 -1.2128898 -1.7558035
4.8184886 -1.233143 -1.7419623
4.7807856 -1.2548021 -1.730822
4.7457266 -1.2767786 -1.7206943
4.726006 -1.3026232 -1.7163056
4.7034292 -1.3275071 -1.7109042
4.7024302 -1.3584312 -1.7136049
4.7102551 -1.3920599 -1.7196815
4.7070317 -1.4225687 -1.7217071
4.6964154 -1.4508682 -1.7210319
4.6910152 -1.4807906 -1.7223822
4.6827369 -1.5098351 -1.7227198
4.6707025 -1.5376565 -1.7217071
4.6638565 -1.5671858 -1.7227198
4.6594949 -1.5976045 -1.7247454
4.6433849 -1.6239898 -1.7223822
4.6209202 -1.6480248 -1.717656
4.6027589 -1.6734531 -1.7146177
4.5959349 -1.7029716 -1.715968
4.590683 -1.7331339 -1.7179936
4.5799623 -1.7612692 -1.7179936
4.5418973 -1.7786998 -1.7075284
4.5308981 -1.8065349 -1.7075284
4.5040278 -1.8279316 -1.7014518
4.4901171 -1.8544557 -1.700439
4.4795218 -1.8823363 -1.7007766
4.4575009 -1.9053478 -1.6967255
4.452632 -1.9356643 -1.6994263
4.4380884 -1.9618073 -1.6984135
4.4285431 -1.9901592 -1.6994263
4.4051175 -2.0122113 -1.6950376
4.3858571 -2.0360324 -1.6923369
4.3605113 -2.0568826 -1.687273
4.3393197 -2.0795324 -1.6838971
4.3095508 -2.0978804 -1.6771455
4.3016601 -2.1267862 -1.679171
4.2986245 -2.1582081 -1.6832221
4.2928491 -2.1883903 -1.6862603
4.2609482 -2.205173 -1.6788334
4.2431707 -2.2290876 -1.6771455
4.2319055 -2.2564096 -1.6781582
4.2312269 -2.2895 -1.6835597
4.2203999 -2.3172309 -1.6849099
4.2102137 -2.3453734 -1.6865979
4.1949244 -2.3706994 -1.6862603
4.172132 -2.3917136 -1.6828845
4.1557508 -2.4163222 -1.6822093
4.1489549 -2.4465566 -1.6855851
4.1233621 -2.4656887 -1.6811965
4.1194243 -2.4977744 -1.6859227
4.102417 -2.522018 -1.6852475
4.0892615 -2.5486357 -1.6862603
4.0719547 -2.5726736 -1.6855851
4.0584707 -2.599133 -1.6865979
4.0424461 -2.6239862 -1.6865979
4.0231242 -2.6466718 -1.6852475
4.0044589 -2.6697412 -1.6842347
3.9942424 -2.6984768 -1.6869355
3.9822705 -2.7261243 -1.688961
3.9639213 -2.7494349 -1.6882858
3.9539082 -2.7785757 -1.6913241
3.9260488 -2.7951419 -1.6865979
3.8966084 -2.8103702 -1.6811965
3.8724499 -2.8292294 -1.6781582
3.8572872 -2.8546166 -1.679171
3.8442185 -2.8816178 -1.6811965
3.8114698 -2.8937685 -1.6744447
3.8003583 -2.9222643 -1.677483
3.7912686 -2.9524674 -1.6815341
3.776777 -2.9785888 -1.6832221
3.7621074 -3.0046434 -1.6849099
3.7450643 -3.0288544 -1.6855851
3.7344203 -3.0583365 -1.6892986
3.7068889 -3.0739832 -1.6852475
3.6771438 -3.0875919 -1.6801838
3.6581295 -3.1100962 -1.6801838
3.6325564 -3.1269574 -1.6771455
3.6239464 -3.1584635 -1.6822093
3.5903811 -3.1681852 -1.6754575
2.4350111 -2.1755691 -1.1292398
2.4251072 -2.1936257 -1.1309278
2.4116015 -2.2084646 -1.1309278
3.5046451 -3.2489445 -1.6720816
3.488076 -3.273608 -1.6737696
3.4761133 -3.3027284 -1.6778206
3.4666381 -3.334435 -1.6832221
3.4407175 -3.35039 -1.6805214
3.4093688 -3.3608668 -1.6751199
3.3713579 -3.3644369 -1.6663426
3.3413792 -3.3756948 -1.6616163
3.3192873 -3.3947875 -1.6609412
3.2997026 -3.4164443 -1.6616163
3.2832265 -3.4413936 -1.6639795
3.2697961 -3.4696941 -1.6680305
3.2497277 -3.4910698 -1.6687057
3.2384405 -3.5220296 -1.6741072
3.2211993 -3.5467114 -1.6764703
3.1968617 -3.563607 -1.6751199
3.1799302 -3.5887911 -1.6778206
3.15785 -3.6082354 -1.6778206
3.1344197 -3.6261194 -1.6771455
3.1084437 -3.6409886 -1.6751199
3.084224 -3.6578345 -1.6741072
3.0563002 -3.6701806 -1.6710688
3.0642188 -3.7259398 -1.6882858
3.0128119 -3.7096014 -1.6720816
2.9982393 -3.7382975 -1.6768079
2.9758296 -3.7573617 -1.6771455
2.0033586 -2.5618443 -1.1245136
1.983574 -2.5688736 -1.1221505
1.9609249 -2.5720146 -1.1180995
1.9417092 -2.5794864 -1.1160738
1.9213526 -2.5853086 -1.1133732
1.9015548 -2.591737 -1.1110101
1.718835 -2.373152 -1.0090585
1.6368903 -2.2894804 -0.96753508
1.6108686 -2.2825634 -0.96010816
2.7172236 -3.9003341 -1.6629667
2.699641 -3.9262404 -1.6670178
2.676028 -3.9435101 -1.6673554
2.6512568 -3.9590735 -1.6670178
2.6263955 -3.9744816 -1.6666802
2.5978456 -3.9842143 -1.6639795
2.5677471 -3.9913721 -1.660266
2.5336232 -3.9919531 -1.6538519
2.5020871 -3.9962552 -1.6491256
2.4696045 -3.9987192 -1.6437242
2.4401248 -4.0057588 -1.6403483
2.4261661 -4.0384059 -1.6477753
2.3979821 -4.0475483 -1.6454121
2.3754761 -4.0662494 -1.6471001
2.3551803 -4.0889044 -1.650476
2.3342307 -4.1106453 -1.6535143
2.2993076 -4.1076427 -1.6464249
2.2649643 -4.1051908 -1.6396731
2.2451296 -4.1289339 -1.6437242
2.2193079 -4.1418023 -1.6433866
2.1991272 -4.1653304 -1.6474377
2.1726589 -4.1770754 -1.6467625
2.1581497 -4.2121081 -1.6555398
2.1365056 -4.233674 -1.6589156
2.1104882 -4.2467036 -1.6589156
2.0893567 -4.2697191 -1.6629667
2.0680223 -4.2926345 -1.6670178
2.0404341 -4.3026915 -1.666005
2.0096149 -4.305748 -1.6622915
1.4259763 -3.1051006 -1.1835915
1.4068968 -3.1137917 -1.1835915
1.3908238 -3.1292465 -1.1862923
1.3715969 -3.1377215 -1.1862923
1.8810531 -4.3757434 -1.6663426
1.8622319 -4.4062767 -1.6737696
1.8257697 -4.39502 -1.6649922
1.7984121 -4.4052687 -1.6646546
1.7709975 -4.4153471 -1.6643171
1.7435269 -4.4252548 -1.6639795
1.719399 -4.4437699 -1.6670178
1.6921002 -4.4542365 -1.6670178
1.663093 -4.4601254 -1.6653298
1.6399007 -4.4817371 -1.6697185
1.6114161 -4.4890575 -1.6687057
1.5869679 -4.5077391 -1.6720816
1.5574359 -4.512053 -1.6700561
1.5309281 -4.5250907 -1.6714064
1.5037264 -4.5361862 -1.6720816
1.4755738 -4.5444322 -1.671744
1.443668 -4.5408421 -1.6670178
1.4202551 -4.5639949 -1.6724192
1.3922241 -4.5726237 -1.6724192
1.3641409 -4.58108 -1.6724192
1.3378484 -4.5956903 -1.6747823
1.3047297 -4.5866113 -1.6683681
1.2773185 -4.5972509 -1.6693809
1.2505652 -4.6104527 -1.6714064
1.2179159 -4.6016603 -1.6653298
1.189893 -4.6099582 -1.6656674
1.164571 -4.6290393 -1.6700561
0.72733963 -2.9685569 -1.0542953
0.71107781 -2.9812043 -1.0573336
0.69277209 -2.9855111 -1.0573336
0.67547661 -2.9942968 -1.0590215
0.65729284 -2.9993043 -1.0593591
0.63417363 -2.981185 -1.051257
0.61948568 -3.0025353 -1.0576712
0.60049677 -3.003511 -1.0566584
0.58044529 -2.9988217 -1.0536201
0.5632472 -3.0088034 -1.0559832
0.54360145 -3.0057189 -1.0536201
0.52288109 -2.9960163 -1.0488938
0.50605065 -3.0084505 -1.0522697
0.48426917 -2.9910572 -1.0448428
0.46402407 -2.9818811 -1.0404541
0.44502309 -2.9800177 -1.0387663
0.42526186 -2.9724424 -1.0350528
0.40701529 -2.9749959 -1.0350528
0.38838741 -2.974637 -1.03404
0.36931422 -2.9704256 -1.0316769
0.35086003 -2.9707663 -1.0310017
0.33346349 -2.9803467 -1.0337024
0.31437773 -2.974848 -1.0310017
0.29705155 -2.9860878 -1.0343776
0.28047478 -3.0065985 -1.0411294
0.26136693 -3.0007608 -1.0384287
0.24302574 -3.0032463 -1.0387663
0.22677259 -3.0337796 -1.0492314
0.20873417 -3.0435658 -1.0522697
0.19064292 -3.0541837 -1.0556456
0.17248222 -3.0656338 -1.0593591
0.1549439 -3.0920174 -1.0684739
0.13484919 -3.0675197 -1.0593591
0.11570347 -3.0598238 -1.0563208
0.096567519 -3.0491862 -1.0522697
0.077566475 -3.0384295 -1.0482187
0.058792952 -3.0322604 -1.0458555
0.039972071 -3.0165637 -1.0401165
0.021359688 -3.0026331 -1.0350528
0.0029344289 -3.0017662 -1.0347152
-0.01550776 -3.0064342 -1.0364031
-0.033366386 -2.9535732 -1.0174981
-0.05231877 -3.0013118 -1.0347152
-0.071218662 -3.021637 -1.042142
