# .PCD v0.7 - Point Cloud Data file format
VERSION 0.7
FIELDS x y z
SIZE 4 4 4
TYPE F F F
COUNT 1 1 1
WIDTH 1567
HEIGHT 1
VIEWPOINT 0 0 0 1 0 0 0
POINTS 1567
DATA ascii
4.9747763 3.3746758 -1.8957337
5.0017176 3.3483222 -1.8981873
5.0293169 3.3222895 -1.9009475
5.0432272 3.2872109 -1.8984939
5.0681062 3.2592924 -1.9003341
5.0904207 3.2296631 -1.9012542
5.1004591 3.1923103 -1.8975738
5.1223807 3.1624539 -1.8984939
5.1433148 3.1319537 -1.8991073
5.1673317 3.1032753 -1.9009475
5.1895518 3.0734501 -1.9021742
5.2124224 3.0439489 -1.9037077
5.2244024 3.0081105 -1.9012542
5.2411056 2.9750583 -1.9006407
5.2625842 2.9447019 -1.9018675
5.3013921 2.9238436 -1.9095348
5.3167238 2.8898966 -1.9086148
5.3268037 2.8531764 -1.9058546
5.3139033 2.8044508 -1.8948137
5.3310113 2.7717924 -1.8948137
5.3589325 2.7446682 -1.8988006
5.3952198 2.7215905 -1.9058546
5.43995 2.7024038 -1.9159753
5.4128203 2.6476531 -1.9003341
5.4298215 2.6148036 -1.9006407
5.4707079 2.593256 -1.9095348
5.469264 2.5515947 -1.903401
5.4951982 2.5227511 -1.9070814
5.5175142 2.4921188 -1.9095348
5.5335717 2.4586034 -1.9098415
5.555531 2.4276514 -1.9122951
5.5816917 2.3984003 -1.9162821
5.5954261 2.3637364 -1.9159753
5.6133409 2.3308184 -1.9172021
5.6266556 2.2959721 -1.9168955
5.6432881 2.2624664 -1.9178156
5.6464357 2.2236142 -1.9141352
5.6590858 2.1885834 -1.9138285
5.6697383 2.1528056 -1.9129084
5.6899767 2.1206341 -1.915362
5.7118211 2.0889485 -1.9184289
5.7245312 2.0538621 -1.9184289
5.7334337 2.0174356 -1.9172021
5.7475042 1.9828383 -1.9178156
5.7577591 1.9469255 -1.9172021
5.7659826 1.9103632 -1.9159753
5.7803121 1.8758287 -1.9168955
5.7853627 1.8383096 -1.9147487
5.8047142 1.8053191 -1.9175088
5.8102183 1.7680066 -1.9156687
5.8282557 1.734493 -1.9181222
5.8397026 1.6989646 -1.9184289
5.8564262 1.6649216 -1.9205757
5.8766203 1.6317552 -1.9239494
5.8819284 1.594422 -1.922416
5.8934417 1.5587875 -1.9230293
5.9075036 1.5237845 -1.9245628
5.9093571 1.4856528 -1.9221092
5.9248333 1.4509493 -1.9242561
5.9447355 1.4172145 -1.9279364
5.9505377 1.3800671 -1.9270163
5.9653935 1.3449935 -1.9291631
5.9707446 1.3077548 -1.928243
5.9777255 1.2708966 -1.9279364
6.0012589 1.2374588 -1.9331502
6.0031385 1.1994945 -1.9313099
6.0029092 1.1611927 -1.9288565
6.00805 1.1239879 -1.928243
6.0204535 1.0881168 -1.9300833
6.0232658 1.0505021 -1.9288565
6.0230274 1.012421 -1.9267097
6.0328846 0.97605264 -1.9279364
6.0406413 0.93930936 -1.9285498
6.0368772 0.90082401 -1.9254829
6.0479441 0.86457258 -1.927323
6.0569077 0.82796174 -1.9285498
6.0533791 0.78967518 -1.9257895
6.0703902 0.75404042 -1.9297765
6.0824647 0.71766984 -1.9322301
6.0820241 0.67980731 -1.9306966
6.0889206 0.64277512 -1.9316167
6.0813837 0.60427487 -1.9279364
6.1039314 0.56871128 -1.9340702
6.1101508 0.53149444 -1.9349903
6.1218357 0.49468163 -1.9377506
6.1219082 0.45689744 -1.9368304
6.1226974 0.41919586 -1.9362171
6.1280041 0.38179681 -1.9371371
6.1159763 0.34339124 -1.9325367
6.1331787 0.30661538 -1.9374439
6.1349444 0.26897714 -1.9374439
6.1364794 0.23132876 -1.9374439
6.1368318 0.19364183 -1.9371371
6.1360016 0.15593529 -1.9365238
6.1396976 0.11833705 -1.9374439
6.1374531 0.08062537 -1.9365238
6.1387839 0.042971633 -1.9368304
6.1522574 0.0053129657 -1.9411242
6.1512222 -0.03243148 -1.9408175
6.1623287 -0.070306495 -1.9444977
6.1617813 -0.10811651 -1.9444977
6.1676626 -0.14608146 -1.9466445
6.1685529 -0.18397988 -1.947258
6.1644545 -0.22172278 -1.9463379
6.1658306 -0.25966367 -1.947258
6.1584172 -0.29721525 -1.9454179
6.1450729 -0.33437428 -1.9417375
6.1514559 -0.37259296 -1.9444977
6.1651988 -0.41141093 -1.9497116
6.154964 -0.44867712 -1.947258
6.1549416 -0.48666042 -1.9481781
6.1660647 -0.52563256 -1.9527785
6.1712542 -0.56423849 -1.9555386
6.1762013 -0.60292786 -1.9582989
6.2017336 -0.64386535 -1.9678063
6.1749601 -0.67940384 -1.9604458
6.1668935 -0.71683961 -1.959219
6.2181182 -0.76150197 -1.9773139
6.1859527 -0.7961129 -1.9684198
6.1677456 -0.83226985 -1.9641261
6.1578107 -0.86943251 -1.9625926
6.136353 -0.90483636 -1.9573789
6.1344485 -0.9430505 -1.9586056
6.1172686 -0.97886622 -1.9549253
6.1102085 -1.0162263 -1.9546186
6.08041 -1.0496465 -1.9469513
6.0579281 -1.0840821 -1.9417375
5.9725513 -1.1066512 -1.9159753
0 -0 -0
5.7755265 -1.143589 -1.8558637
5.611742 -1.1469541 -1.8043394
5.5515146 -1.1701649 -1.786858
0 -0 -0
5.4029865 -1.2082628 -1.7426943
5.3611526 -1.2334886 -1.7313467
5.3043942 -1.2547381 -1.7150919
5.2623763 -1.2789375 -1.7037444
5.2673583 -1.3144318 -1.7080381
5.2905421 -1.3547614 -1.7184656
5.2729244 -1.3847785 -1.7153987
5.2882233 -1.4235442 -1.7233727
5.277554 -1.4554588 -1.7227592
5.2419624 -1.4803069 -1.7138652
5.2510672 -1.5177326 -1.7199991
5.2307034 -1.546683 -1.7163187
5.2192926 -1.5781975 -1.7157054
5.1758666 -1.599786 -1.7043577
5.1478019 -1.6257776 -1.6982239
5.1431642 -1.6590878 -1.7000641
5.1265593 -1.6885287 -1.6979172
5.1215153 -1.7217739 -1.6997573
5.1162553 -1.7550206 -1.7015976
5.0712538 -1.7744278 -1.6899432
5.0728202 -1.8099916 -1.6942369
5.0562525 -1.8391305 -1.6923968
5.0404105 -1.8684654 -1.6908633
5.0350833 -1.901713 -1.6930101
5.0082192 -1.9267588 -1.6877964
4.9768076 -1.9498097 -1.6810491
4.9665179 -1.9810158 -1.6816626
4.9463329 -2.0082283 -1.6789023
4.9383154 -2.0403588 -1.6804358
4.9397407 -2.0765259 -1.6853428
4.884903 -2.0888247 -1.6706216
4.884213 -2.1240754 -1.6749153
4.8501978 -2.1447613 -1.6675547
4.8569112 -2.1834619 -1.6746086
4.8416915 -2.2124307 -1.6739953
4.8168035 -2.2368829 -1.6700082
4.796102 -2.2631452 -1.6675547
4.7898493 -2.2962358 -1.6703149
4.7808032 -2.328084 -1.672155
4.7544856 -2.3514645 -1.6678613
4.7272105 -2.3741827 -1.6632611
4.7006845 -2.3970876 -1.6589673
4.6909585 -2.4285119 -1.6608075
4.6768117 -2.4576924 -1.6611142
4.6641626 -2.4876869 -1.6620343
4.6555061 -2.5198848 -1.6644877
4.6432939 -2.5502365 -1.6657145
4.6391969 -2.5851681 -1.6700082
4.6315322 -2.6182709 -1.6730752
4.6079493 -2.6423771 -1.6703149
4.5825996 -2.6653354 -1.6669413
4.5850129 -2.70453 -1.6739953
4.5871162 -2.743854 -1.6810491
4.5767035 -2.7758985 -1.6835027
4.5660701 -2.8079185 -1.6859562
4.531796 -2.8253043 -1.6795157
4.5095482 -2.8500056 -1.6776755
4.4983864 -2.8817308 -1.6801291
4.4718399 -2.9035747 -1.6767554
4.4277053 -2.9136868 -1.6666346
4.4327049 -2.9561193 -1.6755286
4.4105406 -2.9805965 -1.6739953
4.3992357 -3.0124445 -1.6767554
4.3697224 -3.0317826 -1.6724617
4.3292379 -3.0432067 -1.6638744
4.3151345 -3.0730269 -1.6657145
4.2915668 -3.0961039 -1.6638744
4.270184 -3.120693 -1.6629543
4.2509551 -3.1468356 -1.6629543
4.2209072 -3.1648636 -1.6586607
4.2051978 -3.1935821 -1.660194
4.1953297 -3.2268705 -1.6641811
4.180706 -3.2566473 -1.666328
4.1636333 -3.2845969 -1.6675547
4.147119 -3.3130538 -1.6690881
4.1363301 -3.3462222 -1.6730752
4.1201372 -3.3751593 -1.6749153
4.0949554 -3.3967292 -1.6730752
4.0696645 -3.4181178 -1.671235
4.0442648 -3.4393237 -1.6693949
4.0129895 -3.4553771 -1.6651012
3.9974508 -3.4849403 -1.6675547
3.9538751 -3.4898722 -1.6580472
3.9323871 -3.5140672 -1.6580472
3.926276 -3.5521815 -1.6647944
3.9128273 -3.5839221 -1.6684748
3.9179766 -3.6331093 -1.6804358
2.391453 -2.2444134 -1.015527
2.3797059 -2.2610123 -1.0164472
2.3664734 -2.2762313 -1.0167538
3.7758274 -3.6776834 -1.6571271
3.7545457 -3.7021189 -1.6577406
3.7270448 -3.7203786 -1.6555938
3.7135177 -3.7526512 -1.6598874
3.6791139 -3.7637928 -1.6546736
3.6618993 -3.7924602 -1.6574339
3.6385603 -3.814858 -1.6574339
3.6170418 -3.8391905 -1.6583539
3.6050858 -3.8738563 -1.6638744
3.561929 -3.8748777 -1.6546736
3.5336084 -3.8917267 -1.6525267
3.5179219 -3.9225485 -1.6565138
3.4805369 -3.9290955 -1.6500733
3.456363 -3.9503777 -1.6500733
3.4233484 -3.961427 -1.6457795
3.3903284 -3.9722204 -1.6414858
3.358532 -3.9842136 -1.6378056
3.344981 -4.0179157 -1.643326
3.3414156 -4.0641017 -1.6540602
3.3140166 -4.0815716 -1.6528335
3.2936723 -4.1077709 -1.655287
3.2743123 -4.1353664 -1.6583539
2.0010905 -2.558717 -1.0054063
1.983027 -2.5679333 -1.0041795
1.9643489 -2.576267 -1.002646
1.9456433 -2.5844684 -1.0011126
1.9303162 -2.5971222 -1.0014192
1.9165955 -2.6119878 -1.002646
1.8257486 -2.5203817 -0.96154922
1.6813194 -2.3510938 -0.89008993
1.6602787 -2.3520322 -0.88640964
0 -0 -0
3.0278375 -4.4048352 -1.6810491
2.9884667 -4.4052114 -1.6739953
2.9534407 -4.4116001 -1.6693949
2.9278896 -4.4320216 -1.6703149
2.9089534 -4.4626632 -1.675222
2.8825455 -4.4820294 -1.6758354
2.8483632 -4.4891825 -1.6718484
2.8248031 -4.5130305 -1.674302
2.8045564 -4.542428 -1.6789023
2.7731676 -4.5538597 -1.6767554
2.7432139 -4.5675259 -1.6755286
2.712712 -4.5801764 -1.6739953
2.6826382 -4.5934472 -1.6727685
2.65013 -4.6023965 -1.6700082
2.6194918 -4.6144314 -1.6684748
2.5855534 -4.6204491 -1.6647944
2.5557756 -4.6337261 -1.6638744
2.5259323 -4.646812 -1.6629543
2.4955754 -4.6588669 -1.6617275
2.4815972 -4.7018728 -1.6718484
2.4505057 -4.7127886 -1.6703149
2.4185064 -4.7218051 -1.6681681
2.3873458 -4.7323065 -1.6666346
2.3603806 -4.7511282 -1.6681681
2.3261671 -4.7552609 -1.6644877
1.4874396 -3.0876267 -1.0630643
1.4753944 -3.1113179 -1.0682781
1.4566782 -3.1211748 -1.0685848
2.1948733 -4.7806377 -1.6537535
2.160799 -4.7836051 -1.6500733
2.1325657 -4.7993832 -1.6509933
2.1046009 -4.8158669 -1.6522201
2.0776408 -4.8348117 -1.654367
2.0505273 -4.8536067 -1.6565138
2.019613 -4.8634601 -1.6555938
2.0015948 -4.9048448 -1.6657145
1.9633192 -4.8967128 -1.6586607
1.9503175 -4.9520655 -1.6736885
1.9157777 -4.9532857 -1.6700082
1.8833227 -4.9596081 -1.6681681
1.8501978 -4.9639349 -1.6657145
1.8154571 -4.9635725 -1.6617275
1.7843244 -4.9728265 -1.6611142
1.7528309 -4.9809875 -1.660194
1.7178917 -4.9790516 -1.6559004
1.6870039 -4.9885969 -1.6555938
1.6581577 -5.0042758 -1.6574339
1.6271272 -5.0134501 -1.6571271
1.5974869 -5.0269685 -1.6583539
1.5691543 -5.0448561 -1.6611142
1.5390009 -5.0571213 -1.6620343
1.5076706 -5.065557 -1.6617275
1.475232 -5.0701427 -1.660194
1.4446146 -5.0809302 -1.6608075
1.4121391 -5.0851126 -1.659274
1.3781735 -5.0835757 -1.6559004
1.3462256 -5.0891757 -1.6549803
1.3147361 -5.0964189 -1.6546736
1.2834404 -5.1043897 -1.6546736
1.2520963 -5.1121688 -1.6546736
1.2189406 -5.1123481 -1.6522201
0.75287908 -3.2439253 -1.0317818
0.73358804 -3.2512693 -1.0327018
1.1236151 -5.1292696 -1.6506866
0.69462353 -3.2646821 -1.0342352
0.67765146 -3.2837985 -1.0391424
0.65357697 -3.2682934 -1.0327018
0.63188547 -3.2638314 -1.0299416
0.60922432 -3.253613 -1.0253413
0.58857262 -3.2535431 -1.0241145
0.56843483 -3.2561557 -1.0238078
0.55128151 -3.2764783 -1.0293282
0.53830343 -3.3239613 -1.0437428
0.51935858 -3.336607 -1.0468097
0.50126082 -3.3557351 -1.0520234
0.47864321 -3.3446138 -1.047423
0.46133035 -3.3710642 -1.0550903
0.43203112 -3.3077629 -1.0336219
0.41383564 -3.327354 -1.0391424
0.38773263 -3.2816217 -1.023501
0.36663973 -3.2754254 -1.0207409
0.35301855 -3.3391404 -1.0406759
0.33487168 -3.3649225 -1.0483432
0.3163335 -3.3896594 -1.0557038
0.29264835 -3.3583479 -1.0449696
0.26966539 -3.3306699 -1.035462
0.25395802 -3.3958569 -1.0560105
0.23389469 -3.4087465 -1.0596907
0.21220751 -3.3977678 -1.0557038
0.19103613 -3.3933039 -1.0538636
0.16950142 -3.3801527 -1.0492632
0.14767869 -3.3564057 -1.0412892
0.12697436 -3.3543952 -1.0403692
0.10644947 -3.3570137 -1.0409825
0.085705206 -3.3518949 -1.0391424
0.064918794 -3.3409379 -1.035462
0.044393312 -3.3393698 -1.0348487
0.023844134 -3.3310134 -1.0320884
0.0034062595 -3.3330007 -1.0327018
-0.017044712 -3.3329587 -1.0327018
-0.037693698 -3.3499229 -1.0382223
-0.057910208 -3.3305953 -1.0320884
-0.078436121 -3.3339834 -1.0333152
-0.099262774 -3.3458073 -1.0373023
-0.11810528 -3.298527 -1.0222743
-0.13858379 -3.3034461 -1.0241145
-0.15972589 -3.3205967 -1.0299416
-0.17963065 -3.3110006 -1.0271814
-0.20121309 -3.3307374 -1.0339286
-0.2210108 -3.3199432 -1.0308617
-0.24172433 -3.323271 -1.0323951
-0.26376539 -3.3425996 -1.0391424
-0.28451329 -3.3437631 -1.0400624
-0.30398282 -3.3305805 -1.0363821
-0.3257103 -3.3419147 -1.0406759
-0.34384665 -3.3171322 -1.0333152
-0.36116987 -3.2875237 -1.0244211
-0.37968382 -3.2710645 -1.0198208
-0.39824122 -3.2563918 -1.0158337
-0.41675454 -3.2425587 -1.0121535
-0.43460336 -3.2248487 -1.0072464
-0.4566476 -3.238143 -1.0124601
-0.4785932 -3.249404 -1.0170605
-0.50315571 -3.2765095 -1.0268747
-0.52174485 -3.2639623 -1.0238078
-0.54817188 -3.2991939 -1.0363821
-0.57229513 -3.3182778 -1.0437428
-0.60624003 -3.3905923 -1.0685848
-0.63015747 -3.4036539 -1.0741053
-0.64726418 -3.3800931 -1.0676647
-0.66114473 -3.3415132 -1.0563171
-0.68068153 -3.332731 -1.0547837
-0.69856346 -3.3163848 -1.0507966
-0.72961646 -3.3613303 -1.0670514
-0.82216585 -3.6781628 -1.1731669
-0.78191793 -3.4003551 -1.0829993
-0.806934 -3.4130912 -1.0888265
-0.8247115 -3.395128 -1.0845329
-0.85083294 -3.411243 -1.0915867
-0.86867595 -3.3939719 -1.0875998
-0.83020419 -3.1630456 -1.0124601
-0.81319875 -3.0227933 -0.96737641
-0.82869208 -3.0067368 -0.96369606
-0.8447957 -2.9933519 -0.96093583
-0.86261773 -2.9862833 -0.9603225
-0.9651913 -3.265692 -1.0560105
-1.0188439 -3.3708515 -1.0934269
-1.0546962 -3.4136388 -1.1099882
-1.0991428 -3.481523 -1.1351371
-1.1473852 -3.5580451 -1.1633527
-1.1194371 -3.3999748 -1.1121352
-1.0625832 -3.1620979 -1.0336219
-1.0779482 -3.1438153 -1.029635
-1.0928143 -3.1245654 -1.0253413
-1.1042846 -3.096288 -1.0179806
-1.1161003 -3.0697768 -1.0112333
-1.1352462 -3.0637631 -1.0115401
-1.1590711 -3.0700951 -1.0161405
-1.890854 -4.9149518 -1.6555938
-1.4690158 -3.7503798 -1.2565871
-1.5117582 -3.7907994 -1.2737619
-1.473372 -3.6297793 -1.2210108
-1.3854312 -3.354151 -1.1280831
-1.4008193 -3.3333039 -1.1237894
-1.4137574 -3.3071444 -1.1176555
-1.4423782 -3.3176084 -1.1244028
-1.4523091 -3.2851944 -1.1161221
-1.4658016 -3.2614648 -1.1109084
-1.4826198 -3.2454844 -1.1084548
-1.4924787 -3.2147467 -1.1007875
-1.5028296 -3.1857324 -1.0937335
-1.5083526 -3.1472728 -1.0833061
-1.5263848 -3.1353915 -1.082386
-1.5291309 -3.0926969 -1.0704249
-1.5527797 -3.0926113 -1.0737985
-1.5825409 -3.1042211 -1.0814658
-1.5910517 -3.0741687 -1.0741053
-1.6019113 -3.0491841 -1.0685848
-1.6179019 -3.0342591 -1.0667447
-1.6342231 -3.0200899 -1.0652112
-1.6302625 -2.9691317 -1.0501833
-1.654012 -2.9690487 -1.0538636
-1.6665756 -2.9489024 -1.0501833
-1.70169 -2.9683418 -1.0612242
-1.7351903 -2.9841697 -1.0710384
-1.7394392 -2.9496951 -1.0621443
-1.7531065 -2.9316161 -1.0593841
-1.7666175 -2.9134808 -1.0566238
-1.7859575 -2.9050181 -1.0575439
-1.8087859 -2.9020808 -1.0606108
-1.827576 -2.8925366 -1.0612242
-1.8473443 -2.8844738 -1.062451
-1.8624158 -2.8690934 -1.0609175
-1.875798 -2.8512521 -1.0584639
-1.8747685 -2.8119771 -1.0477297
-1.8706628 -2.7688808 -1.035462
-1.9096725 -2.7895443 -1.0480365
-1.94792 -2.8082685 -1.0599974
-1.9596392 -2.7884779 -1.0569305
-1.9739506 -2.7725253 -1.055397
-1.9847978 -2.7518716 -1.0520234
-2.0033309 -2.7419465 -1.0529435
-2.0150192 -2.7227185 -1.0501833
-2.0265472 -2.7034509 -1.047423
-2.0390663 -2.6856601 -1.0452762
-2.053185 -2.6700809 -1.0440495
-2.0689447 -2.6566818 -1.0437428
-2.0751824 -2.6312354 -1.038529
-2.1043615 -2.6348102 -1.0452762
-2.1222854 -2.624068 -1.0461963
-2.1419663 -2.6154134 -1.0480365
-2.1676991 -2.6139407 -1.0529435
-2.1965556 -2.6158936 -1.0593841
-2.229218 -2.6219397 -1.0676647
-2.2347033 -2.5959527 -1.062451
-2.2336979 -2.5628245 -1.0541703
-2.2663915 -2.5683341 -1.062451
-2.2580016 -2.5274153 -1.0507966
-2.2632475 -2.5022221 -1.0458896
-2.2959201 -2.5072351 -1.0541703
-2.3203237 -2.5028694 -1.0584639
-2.3336825 -2.4865036 -1.0575439
-2.3305318 -2.4528234 -1.0489565
-2.3468583 -2.4398489 -1.0495698
-2.3571348 -2.4206312 -1.047423
-2.3552325 -2.3891826 -1.0397557
-2.3906977 -2.3955641 -1.0492632
-2.4195623 -2.3949063 -1.0557038
-2.4478273 -2.3933187 -1.0618376
-2.4528785 -2.3690002 -1.0575439
-2.4563458 -2.3433964 -1.0526369
-2.4692924 -2.3269753 -1.0520234
-2.4779487 -2.3065941 -1.0495698
-2.4892516 -2.2887704 -1.0483432
-2.4912665 -2.2625792 -1.0431293
-2.5164423 -2.2574158 -1.0480365
-2.5423603 -2.2526593 -1.0532502
-2.5625827 -2.2426565 -1.0560105
-2.5798967 -2.2300014 -1.0575439
-2.6043928 -2.2233958 -1.0621443
-2.6165304 -2.2061472 -1.0615309
-2.6314812 -2.1912684 -1.0621443
-2.6404648 -2.1714549 -1.0603042
-2.6463485 -2.1492145 -1.0572373
-2.6580005 -2.1317458 -1.0566238
-2.6702843 -2.1148059 -1.0563171
-2.6839602 -2.0989676 -1.0566238
-2.6960351 -2.0818782 -1.0563171
-2.7208722 -2.0745258 -1.0612242
-2.7381136 -2.0612249 -1.0630643
-2.7453609 -2.0404129 -1.0609175
-2.7562935 -2.0224037 -1.0603042
-2.7555435 -1.9959657 -1.0550903
-2.8080091 -2.0077946 -1.0710384
-2.7899413 -1.9691323 -1.0590774
-2.8285308 -1.9704658 -1.0695049
-2.8288007 -1.9449881 -1.0649046
-2.8595884 -1.9404145 -1.0722651
-2.838217 -1.9006 -1.0593841
-2.8545911 -1.886296 -1.0612242
-2.8740861 -1.8739409 -1.0642911
-2.8879323 -1.8578147 -1.0652112
-2.908119 -1.845667 -1.0685848
-2.929879 -1.8343509 -1.0725719
-2.9451289 -1.8188384 -1.0741053
-2.9651773 -1.8061768 -1.0774789
-2.9835484 -1.7923577 -1.0802392
-2.9920328 -1.7725626 -1.079319
-3.0044968 -1.7551302 -1.0799325
-3.0259337 -1.742834 -1.0839194
-3.0465047 -1.7298708 -1.0875998
-3.072845 -1.719973 -1.0934269
-3.1208501 -1.721764 -1.107228
-3.1355376 -1.7048544 -1.1087615
-3.1803432 -1.704002 -1.1213359
-3.231148 -1.705772 -1.1360571
-3.2584448 -1.6946924 -1.1421909
-3.296741 -1.68898 -1.1523118
-3.3257399 -1.6781472 -1.159059
-3.3692217 -1.6742177 -1.17102
-3.4016633 -1.6643826 -1.1789941
-3.4281068 -1.6513222 -1.1848211
-3.4889233 -1.6543012 -1.202916
-3.6680846 -1.7117028 -1.2630277
-3.7139869 -1.7054384 -1.2756021
-3.7556114 -1.6967164 -1.286643
-3.8164053 -1.6960459 -1.3044311
-3.9261763 -1.7160259 -1.3393941
-4.0319595 -1.732843 -1.3728235
-4.1065264 -1.7350972 -1.3952121
-4.0986342 -1.7022058 -1.3887715
-4.1275096 -1.6845731 -1.3952121
-4.2128677 -1.6893072 -1.4212809
-4.2293534 -1.6658659 -1.4234277
-4.2972021 -1.6621885 -1.4433627
-4.5119944 -1.7134607 -1.5139019
-4.4903131 -1.6737829 -1.502861
-4.5353637 -1.6589428 -1.514822
-4.5642724 -1.6378295 -1.5212625
-4.9675193 -1.7480946 -1.6555938
-5.0132451 -1.7296809 -1.6675547
-5.0670462 -1.713514 -1.6822759
-5.1127038 -1.6940588 -1.6942369
-5.1610284 -1.6749883 -1.707118
-5.1866302 -1.6481863 -1.7123318
-5.2339115 -1.627913 -1.7249061
-5.3412399 -1.6253972 -1.7577223
-5.4386954 -1.6186399 -1.7871647
-5.5454054 -1.6134042 -1.819674
-5.6870441 -1.6168026 -1.8638377
-5.7949934 -1.6091064 -1.8966538
-5.874579 -1.5924312 -1.9199624
-5.8962021 -1.5595171 -1.9239494
-5.9139552 -1.5254474 -1.9267097
-5.9435129 -1.494233 -1.9334568
-5.9618149 -1.4599984 -1.9365238
-5.9725127 -1.423831 -1.9371371
-5.9950452 -1.3903805 -1.9417375
-6.0099635 -1.3550336 -1.9438844
-6.0283923 -1.3203698 -1.947258
-6.0075183 -1.2772249 -1.9377506
-6.0161748 -1.2405314 -1.9380572
-6.0320735 -1.2052704 -1.9408175
-6.0449624 -1.1693192 -1.9426576
-6.0295691 -1.1280096 -1.935297
-6.05792 -1.0948811 -1.9423509
-6.0513964 -1.0554028 -1.9380572
-6.0577583 -1.0182521 -1.9380572
-6.0685902 -0.98182249 -1.9395907
-6.0556898 -0.94164646 -1.9334568
-6.0585294 -0.90405083 -1.9325367
-6.062078 -0.86659032 -1.9319234
-6.0748258 -0.83040768 -1.934377
-6.0769749 -0.79274875 -1.9334568
-6.0892816 -0.75638342 -1.9359103
-6.1363454 -0.7240169 -1.9497116
-6.1359425 -0.68582362 -1.9481781
-0 -0 -0
-0 -0 -0
-0 -0 -0
-0 -0 -0
-0 -0 -0
-0 -0 -0
-0 -0 -0
-0 -0 -0
-0 -0 -0
-0 -0 -0
-0 -0 -0
-0 -0 -0
-0 -0 -0
-0 -0 -0
-0 -0 -0
-0 -0 -0
-0 -0 -0
-0 -0 -0
-0 0 -0
-0 0 -0
-0 0 -0
-0 0 -0
-0 0 -0
-0 0 -0
-0 0 -0
-0 0 -0
-6.224906 0.33873326 -1.9674996
-6.2103596 0.37617177 -1.9635127
-6.2003369 0.41376233 -1.9610591
-0 -0 -0
-0 -0 -0
-0 -0 -0
-0 -0 -0
-0 -0 -0
-0 0 -0
-0 0 -0
-0 0 -0
-0 0 -0
-0 0 -0
-0 0 -0
-0 0 -0
-0 0 -0
-0 0 -0
-0 0 -0
-0 0 -0
-0 0 -0
-0 0 -0
-0 0 -0
-0 0 -0
-0 0 -0
-0 0 -0
-0 0 -0
-0 0 -0
-0 0 -0
-0 0 -0
-0 0 -0
-0 0 -0
-0 0 -0
-0 0 -0
-0 0 -0
-5.7958074 0.96389306 -1.9221444
-5.7963262 1.0005662 -1.9243633
-5.7835422 1.0349439 -1.9221444
-5.7920041 1.0731753 -1.9272161
-5.784379 1.1085157 -1.9268991
-5.7663035 1.1417772 -1.9230953
-5.773128 1.179985 -1.92785
-5.7611384 1.2144083 -1.9262651
-5.7461638 1.2481251 -1.9237293
-5.7393231 1.2835664 -1.9240463
-5.7128534 1.3145058 -1.9177068
-5.7249856 1.3543365 -1.9246802
-5.7101164 1.3878714 -1.9224614
-5.705174 1.4238002 -1.9237293
-5.6990867 1.4594853 -1.9246802
-5.6891069 1.4941859 -1.9243633
-5.6807475 1.529312 -1.9246802
-5.6648564 1.5623749 -1.9224614
-5.653338 1.596589 -1.9218274
-5.6370568 1.6294041 -1.9196087
-5.6296816 1.6647683 -1.9205596
-5.6193609 1.6992801 -1.9205596
-5.6088285 1.7337279 -1.9205596
-5.60532 1.770395 -1.9230953
-5.5916438 1.8038819 -1.9221444
-5.5759659 1.8366743 -1.9205596
-5.5565004 1.8681335 -1.9177068
-5.5476246 1.9031155 -1.9186578
-5.5322618 1.9358666 -1.9173899
-5.5292125 1.9729623 -1.9205596
-5.5125456 2.0052309 -1.9189748
-5.508142 2.0419841 -1.9218274
-5.4946218 2.075408 -1.9215105
-5.4755874 2.1066997 -1.9192917
-5.4607916 2.1395657 -1.9186578
-5.4317036 2.166708 -1.9129522
-5.4095187 2.1964281 -1.9097825
-5.4423985 2.2487717 -1.9265821
-5.4092622 2.2740383 -1.9196087
-5.3611965 2.2926447 -1.9072467
-5.3539863 2.3285229 -1.9097825
-5.3569465 2.3690012 -1.916122
-5.3362546 2.3991041 -1.9139031
-5.3283343 2.4349549 -1.9164389
-5.3158741 2.4688013 -1.9173899
-5.3014836 2.5017772 -1.9177068
-5.2868886 2.5346692 -1.9180238
-5.2695312 2.566231 -1.9173899
-5.2579365 2.6006179 -1.9189748
-5.2351003 2.629426 -1.9164389
-5.223937 2.6640835 -1.9183408
-5.2024388 2.6934707 -1.9164389
-5.1858139 2.7253416 -1.9164389
-5.1597886 2.7522006 -1.9129522
-5.1377997 2.7811 -1.9110503
-5.1164818 2.8102899 -1.9094656
-5.0858855 2.834245 -1.9043939
-5.0774817 2.8705318 -1.9078807
-5.0638866 2.9039915 -1.9094656
-5.0476127 2.935962 -1.9100995
-5.0303197 2.96736 -1.9104165
-5.0038781 2.9933014 -1.9072467
-4.9886613 3.0259154 -1.9085146
-4.9683847 3.0554748 -1.9078807
-4.9414945 3.0808854 -1.9047109
-4.9208941 3.1101344 -1.9040769
-4.9025164 3.1407816 -1.9043939
-4.8855391 3.172353 -1.9053448
-4.8659821 3.2022705 -1.9053448
-4.8517652 3.2357504 -1.9075637
-4.8381066 3.2697077 -1.9100995
-4.8179531 3.2993321 -1.9100995
-4.8030729 3.3326168 -1.9123182
-4.7794299 3.3598435 -1.9110503
-4.7587247 3.3891063 -1.9110503
-4.7355323 3.4165769 -1.9100995
-4.708353 3.4410927 -1.9075637
-4.6879129 3.4704821 -1.9078807
-4.6627359 3.4963365 -1.9062958
-4.6464825 3.5288959 -1.9085146
-4.624742 3.5573397 -1.9085146
-4.6035757 3.5862324 -1.9088316
-4.571804 3.6067758 -1.9047109
-4.5392127 3.6264727 -1.9002733
-4.5323606 3.6667826 -1.9069297
-4.5119777 3.6963267 -1.9078807
-4.4921322 3.7263639 -1.9091486
-4.4655519 3.7508073 -1.9075637
-4.4438982 3.7793655 -1.9081976
-4.414875 3.8016112 -1.9056618
-4.3943253 3.8311217 -1.9069297
-4.3728685 3.8598955 -1.9078807
-4.3469806 3.8847582 -1.9069297
-4.3195457 3.9081764 -1.9053448
-4.2996807 3.9384506 -1.9072467
-4.275434 3.9647586 -1.9072467
-4.2551751 3.9948123 -1.9091486
-4.2312708 4.0214996 -1.9094656
-4.2051487 4.0460715 -1.9088316
-4.1863585 4.0777531 -1.9116843
-4.1599083 4.1020317 -1.9110503
-4.136003 4.128819 -1.9116843
-4.1065884 4.150075 -1.9097825
-4.0777316 4.171803 -1.9081976
-4.0533748 4.1981096 -1.9088316
-4.0262303 4.221529 -1.9081976
-4.0002513 4.2461543 -1.9081976
-3.9676607 4.2636766 -1.9050279
-3.9465597 4.2935271 -1.9075637
-3.9188657 4.3162575 -1.9069297
-3.8910413 4.33881 -1.9062958
-3.8649745 4.3633132 -1.9066128
-3.8393781 4.3883739 -1.9072467
-3.8167205 4.416872 -1.9094656
-3.7852368 4.4351583 -1.9072467
-3.7487824 4.4474235 -1.902492
-3.7202091 4.468884 -1.9018581
-3.695128 4.4945574 -1.903126
-3.6680782 4.5178819 -1.903443
-3.6337614 4.5321646 -1.8999563
-3.6047065 4.5528884 -1.8993224
-3.5720291 4.5689435 -1.8967866
-3.5433476 4.5900245 -1.8964696
-3.5122421 4.6079082 -1.8948847
-3.4890356 4.6361923 -1.8977375
-3.46222 4.6597972 -1.8986884
-3.442539 4.6931887 -1.90376
-3.4125648 4.712687 -1.903126
-3.3697941 4.7142487 -1.8952017
-3.3533821 4.7526598 -1.902492
-3.3236151 4.772368 -1.9021751
-3.2824495 4.7754769 -1.8952017
-3.2573457 4.8018064 -1.8977375
-3.2278211 4.821703 -1.8977375
-3.2002661 4.844583 -1.8990054
-3.1627109 4.8522105 -1.8942508
-3.1441662 4.8890738 -1.9012241
-3.1130919 4.9066725 -1.9005903
-3.0849395 4.9288974 -1.9018581
-3.0541399 4.9469266 -1.9015411
-3.022742 4.963953 -1.9009073
-2.9932036 4.9840331 -1.9015411
-2.9625657 5.002305 -1.9015411
-2.928468 5.0146561 -1.8993224
-2.8981168 5.0333524 -1.8996394
-2.868583 5.0535145 -1.9005903
-2.8361316 5.0685377 -1.8996394
-2.7958164 5.0692353 -1.8932998
-2.7646594 5.0862947 -1.8932998
-2.7320549 5.1006546 -1.8923489
-2.6989355 5.1139669 -1.8910811
-2.6657557 5.1270652 -1.8898132
-2.6329491 5.1407928 -1.8888623
-2.6030653 5.1602387 -1.8901302
-2.5738857 5.18121 -1.8920319
-2.5466306 5.2062769 -1.8955187
-2.5154607 5.2235136 -1.8961526
-2.4841752 5.2405639 -1.8967866
-2.4447541 5.2402372 -1.8910811
-2.4153249 5.2611728 -1.8932998
-2.3822165 5.2741652 -1.8926659
-2.3478842 5.2843494 -1.8910811
-2.3188343 5.306478 -1.8939338
-2.2884777 5.3258343 -1.8958356
-2.2494805 5.324924 -1.8904471
-2.2167652 5.3386264 -1.8904471
-2.1857581 5.3565183 -1.8920319
-2.1528499 5.3698287 -1.8920319
-2.1219463 5.3882322 -1.8939338
-2.0885026 5.4002662 -1.8936168
-2.0506136 5.4005661 -1.8891792
-2.0181005 5.414824 -1.8898132
-1.9841861 5.4253235 -1.8891792
-1.9498985 5.4347181 -1.8882283
-1.9184042 5.4519482 -1.8901302
-1.8873905 5.470789 -1.8926659
-1.8537868 5.4822669 -1.8926659
-1.8222018 5.4998403 -1.8948847
-1.7892996 5.5136237 -1.8958356
-1.7508385 5.5100369 -1.8907641
-1.721786 5.5360718 -1.8961526
-1.6875087 5.5456247 -1.8958356
-1.6512849 5.5486026 -1.8932998
-1.6150881 5.5513453 -1.8907641
-1.5812547 5.5620627 -1.8910811
-1.5470968 5.5716605 -1.8910811
-1.5123842 5.5792179 -1.8904471
-1.4815185 5.6012292 -1.8948847
-1.4459373 5.6056223 -1.8932998
-1.4147531 5.6272659 -1.8977375
-1.3795211 5.6330771 -1.8967866
-1.3442712 5.6386681 -1.8958356
-1.3083616 5.6412668 -1.8939338
-1.2712188 5.6380863 -1.8901302
-1.2359912 5.6430006 -1.8891792
-1.2009486 5.648623 -1.8885453
-1.1655003 5.6521702 -1.8872774
-1.1302395 5.656425 -1.8863264
-1.09443 5.6576667 -1.8844246
-1.0600435 5.6661396 -1.8850585
-1.0247505 5.6697373 -1.8841076
-0.99010539 5.6768527 -1.8844246
-0.9552542 5.6828213 -1.8844246
-0.91945785 5.6829581 -1.8825227
-0.88588274 5.6969271 -1.8853755
-0.85203069 5.7097597 -1.8879113
-0.81617457 5.7092471 -1.8860095
-0.78125644 5.7150874 -1.8863264
-0.7466656 5.7235351 -1.8875943
-0.71059674 5.7204795 -1.8850585
-0.67492718 5.7200222 -1.8834736
-0.6395008 5.7212281 -1.8825227
-0.60428429 5.7241015 -1.8822057
-0.56915051 5.7277012 -1.8822057
-0.53434747 5.7348633 -1.8834736
-0.49972481 5.744648 -1.8856925
-0.46569026 5.7627316 -1.8907641
-0.43003941 5.7616973 -1.8894962
-0.39519703 5.7717972 -1.8920319
-0.35989261 5.7760067 -1.8926659
-0.32449815 5.7790532 -1.8929828
-0.28907987 5.7818828 -1.8932998
-0.25330618 5.7769151 -1.8910811
-0.21778332 5.7764649 -1.8904471
-0.18224555 5.7748485 -1.8894962
-0.14663915 5.7692213 -1.8872774
-0.11120043 5.768116 -1.8866434
-0.075755723 5.7648964 -1.8853755
-0.040348016 5.7605104 -1.8837906
-0.0049952003 5.7540107 -1.8815719
0.030325629 5.7567782 -1.8825227
0.065723225 5.7631226 -1.8847415
0.1009016 5.7521796 -1.8812549
0.13628395 5.7552447 -1.8825227
0.17190515 5.7647281 -1.8860095
0.20710352 5.7588258 -1.8844246
0.24267411 5.7631321 -1.8863264
0.27816841 5.7643766 -1.8872774
0.31240058 5.7417264 -1.880304
0.34825525 5.7501154 -1.8837906
0.38340458 5.7459779 -1.8831567
0.41886067 5.7463546 -1.8841076
0.45418644 5.7446218 -1.8844246
0.48870185 5.733222 -1.8815719
0.52421618 5.7338934 -1.8828397
0.55809975 5.7173533 -1.8784021
0.59375745 5.7194815 -1.880304
0.62852943 5.7129025 -1.879353
0.6638996 5.7117648 -1.880304
0.69824255 5.7019353 -1.8784021
0.7335788 5.7003655 -1.879353
0.76930231 5.7013965 -1.8812549
0.80453598 5.6984472 -1.8818887
0.84031558 5.6990333 -1.8837906
0.87498027 5.691895 -1.8831567
0.91003841 5.6873555 -1.8834736
0.94491822 5.6816645 -1.8834736
0.98073012 5.6813674 -1.8853755
1.0140688 5.6668401 -1.8825227
1.0488209 5.6605115 -1.8825227
1.0821058 5.6465173 -1.879987
1.1169159 5.6407018 -1.880304
1.150936 5.6309547 -1.879353
1.1864431 5.628427 -1.8809379
1.2213585 5.6228948 -1.8815719
1.2562509 5.617146 -1.8822057
1.2915438 5.613029 -1.8834736
1.3266152 5.6077676 -1.8844246
1.3609989 5.5995221 -1.8844246
1.3960201 5.5938268 -1.8853755
1.4329044 5.5952621 -1.8888623
1.4664867 5.5836129 -1.8879113
1.501459 5.5772572 -1.8888623
1.5316185 5.5533104 -1.8837906
1.5636024 5.5365057 -1.8812549
1.5978076 5.5277185 -1.8815719
1.6308883 5.5150819 -1.880621
1.6622274 5.4968004 -1.8777682
1.6948037 5.4828734 -1.8765002
1.7306988 5.4796062 -1.8790361
1.7622505 5.4625654 -1.8768172
1.7969217 5.4552526 -1.8780851
1.8333825 5.4531145 -1.8812549
1.8674231 5.4435568 -1.8818887
1.9007889 5.4319959 -1.8818887
1.9366328 5.4273767 -1.8844246
1.9689255 5.4127178 -1.8834736
2.0060556 5.4112067 -1.8872774
2.03654 5.3916979 -1.8847415
2.0733299 5.3888373 -1.8882283
2.1056645 5.374248 -1.8875943
2.1284115 5.3356791 -1.8784021
2.1689589 5.3418522 -1.8853755
2.2031436 5.3319492 -1.8866434
2.2358184 5.3183308 -1.8866434
2.2624433 5.2905588 -1.8815719
2.2963758 5.2800565 -1.8828397
2.3302643 5.2693362 -1.8841076
2.3629415 5.2558041 -1.8844246
2.3959343 5.2429314 -1.8850585
2.4284587 5.228992 -1.8853755
2.4592834 5.2114196 -1.8844246
2.4903936 5.194521 -1.8837906
2.522635 5.1799951 -1.8841076
2.551008 5.1576176 -1.8815719
2.5826066 5.1418681 -1.8815719
2.6154003 5.1284595 -1.8825227
2.6463826 5.1114726 -1.8822057
2.679461 5.0984969 -1.8834736
2.7084627 5.077776 -1.8818887
2.7404714 5.0627298 -1.8825227
2.7733102 5.0491443 -1.8837906
2.8023925 5.0287185 -1.8825227
2.830395 5.006475 -1.880621
2.8582304 4.984077 -1.8787191
2.8887582 4.9664454 -1.8787191
2.9220684 4.9535284 -1.880621
2.948513 4.9289942 -1.8780851
2.9787011 4.9108095 -1.8780851
3.0097709 4.8940558 -1.8787191
3.0412488 4.8779106 -1.87967
3.0736551 4.8631668 -1.8812549
3.1003675 4.8394241 -1.879353
3.1351681 4.8282642 -1.8825227
3.1741185 4.8231978 -1.8882283
3.2004964 4.7988963 -1.8863264
3.2341297 4.7854552 -1.8888623
3.2650392 4.7678685 -1.8898132
3.2882862 4.7391729 -1.8863264
3.3200302 4.7227869 -1.8879113
3.3340924 4.6814671 -1.879353
3.3732972 4.6755357 -1.8853755
3.399684 4.6516867 -1.8841076
3.4242122 4.6254025 -1.8818887
3.4570801 4.6103759 -1.8844246
3.4881716 4.5928535 -1.8860095
3.5168655 4.5721159 -1.8863264
3.5495157 4.5564365 -1.8888623
3.5727074 4.528614 -1.8863264
3.6010191 4.5073481 -1.8866434
3.629801 4.4866424 -1.8872774
3.6584642 4.4657536 -1.8879113
3.6882186 4.4461417 -1.8891792
3.7245793 4.4343219 -1.8939338
3.7511034 4.4106622 -1.8936168
3.7731457 4.3818126 -1.8910811
3.7974679 4.3557191 -1.8898132
3.8234951 4.331625 -1.8894962
3.8487375 4.3066683 -1.8888623
3.8782716 4.2864885 -1.8904471
3.9064219 4.2647095 -1.8913981
3.9267123 4.2344007 -1.8885453
3.957164 4.2150679 -1.8907641
3.9770727 4.1845202 -1.8879113
4.0059614 4.163456 -1.8894962
4.0287852 4.1360798 -1.8882283
4.0640764 4.1214123 -1.8929828
4.0845981 4.0916991 -1.8907641
4.1123238 4.0692277 -1.8920319
4.1311111 4.0379515 -1.8891792
4.1619501 4.0184569 -1.8920319
4.1885872 3.994808 -1.8929828
4.2137103 3.9696825 -1.8932998
4.2365999 3.9424605 -1.8926659
4.2655983 3.9208844 -1.8948847
4.2804484 3.8863485 -1.8907641
4.3140984 3.8688769 -1.8952017
4.3377562 3.8423333 -1.8952017
4.3591094 3.8137712 -1.8942508
4.3795581 3.7844718 -1.8929828
4.3983684 3.7538335 -1.8910811
4.4249444 3.7298317 -1.8926659
4.4462891 3.7013967 -1.8920319
4.4755101 3.6794665 -1.8948847
4.499475 3.6531317 -1.8955187
4.524765 3.6278281 -1.8967866
4.5447092 3.5982299 -1.8958356
4.5681963 3.5714447 -1.8964696
4.5772624 3.5334942 -1.8910811
4.5890517 3.4978671 -1.8869604
4.6225524 3.4787693 -1.8920319
4.6460943 3.4520373 -1.8929828
4.6687174 3.4245865 -1.8936168
4.685802 3.3930938 -1.8920319
4.691874 3.3537982 -1.8860095
4.7340617 3.3402579 -1.8948847
4.7521334 3.309521 -1.8939338
4.7582827 3.2706289 -1.8882283
4.7947431 3.2525535 -1.8948847
4.8185506 3.2257104 -1.8964696
4.8556614 3.2075856 -1.903443
4.8800187 3.1808391 -1.9053448
4.8962531 3.1487837 -1.9040769
4.9154816 3.1186817 -1.9040769
4.942564 3.0934944 -1.9072467
4.9582243 3.061116 -1.9059788
4.9744835 3.0291553 -1.9050279
4.9913507 2.9975986 -1.9043939
5.0194416 2.9727163 -1.9081976
5.0367684 2.9413834 -1.9078807
5.0481462 2.9066365 -1.9053448
5.0749588 2.8807576 -1.9088316
5.1008158 2.8541958 -1.9120013
5.111589 2.8191793 -1.9094656
5.0854611 2.7642064 -1.8929828
5.1315875 2.7486262 -1.9040769
5.1542273 2.7201867 -1.9062958
5.1607237 2.6832588 -1.902492
5.1669612 2.6463537 -1.8986884
5.1881819 2.6171634 -1.9005903
5.210938 2.5886562 -1.903126
5.2258716 2.556217 -1.902809
5.2448759 2.5257497 -1.9040769
5.262846 2.4947393 -1.9050279
5.2840705 2.4652073 -1.9072467
5.3094401 2.4374876 -1.9110503
5.3268895 2.4060352 -1.9120013
5.3536863 2.3786969 -1.9164389
5.3725262 2.3477015 -1.9180238
5.3885727 2.3154411 -1.9186578
5.3974366 2.2801192 -1.9167559
5.4078221 2.2455032 -1.915488
5.4144735 2.2094119 -1.9129522
5.4252872 2.1750886 -1.9120013
5.4297071 2.138283 -1.9088316
5.4418406 2.1045845 -1.9085146
5.4555383 2.071491 -1.9088316
5.48592 2.0446033 -1.915171
5.4930177 2.0089488 -1.9132692
5.5141678 1.9784101 -1.9164389
5.5324659 1.9467427 -1.9186578
5.5469966 1.9136876 -1.9196087
5.5505481 1.876881 -1.9167559
5.564661 1.8436831 -1.9177068
5.5785751 1.8103828 -1.9186578
5.5823474 1.773821 -1.916122
5.5895038 1.7384081 -1.914854
5.5982504 1.7035265 -1.9142201
5.6149607 1.6710383 -1.9164389
5.6296616 1.6378791 -1.9180238
5.636869 1.6025271 -1.9170729
5.6584754 1.5712094 -1.9211935
5.6487865 1.5312477 -1.9145371
5.6745801 1.5009252 -1.9202427
5.6827641 1.4658414 -1.9199257
5.7008495 1.4332582 -1.9230953
5.7086153 1.3980258 -1.9227784
5.7300019 1.3660522 -1.9272161
5.7355042 1.3302248 -1.9262651
5.7426329 1.2947986 -1.9259481
5.7421317 1.2577112 -1.9230953
5.7534513 1.2232437 -1.9243633
5.7627068 1.1883013 -1.9249972
5.7736096 1.1536633 -1.9262651
5.7777863 1.1176748 -1.9253142
5.7845354 1.082202 -1.9253142
5.7994661 1.048207 -1.928167
5.7964458 1.0109723 -1.9249972
5.8109574 0.97680253 -1.92785
5.8093514 0.93991637 -1.9253142
0 0 -0
5.8185725 0.86827588 -1.9246802
0 0 -0
0 0 -0
0 0 -0
5.8400106 0.72545338 -1.9253142
5.8368173 0.68871647 -1.9227784
0 0 -0
0 0 -0
0 0 -0
0 0 -0
0 0 -0
5.8912988 0.47608888 -1.9338725
0 0 -0
0 0 -0
0 0 -0
0 0 -0
0 0 -0
0 0 -0
0 0 -0
0 0 -0
0 0 -0
0 0 -0
0 0 -0
0 0 -0
0 0 -0
0 -0 -0
0 -0 -0
0 -0 -0
5.9287596 -0.14038064 -1.9405289
0 -0 -0
0 -0 -0
5.9232764 -0.24940626 -1.939895
0 -0 -0
0 -0 -0
0 -0 -0
5.9049621 -0.39400175 -1.9364083
5.9156761 -0.43119088 -1.9408458
5.9119735 -0.46740597 -1.9405289
0 -0 -0
0 -0 -0
5.9042563 -0.57633108 -1.9411628
5.9402304 -0.61665845 -1.9544758
5.9391632 -0.65340638 -1.9554267
0 -0 -0
0 -0 -0
0 -0 -0
5.8386259 -0.78780913 -1.927533
5.8524647 -0.82626992 -1.9338725
5.881063 -0.86714268 -1.9452835
5.8240728 -0.89528972 -1.92785
5.8250256 -0.93205726 -1.9300689
5.8482003 -0.97260284 -1.939895
5.8187571 -1.0044367 -1.9319706
5.8376918 -1.0446301 -1.9405289
5.8153186 -1.0774934 -1.9351404
5.7536397 -1.102627 -1.9164389
5.6890817 -1.1264921 -1.8967866
5.5315266 -1.1306207 -1.8454368
5.4548807 -1.1498731 -1.8216639
5.3893318 -1.1706431 -1.8016945
5.2635727 -1.1772017 -1.7611219
5.1970959 -1.1958692 -1.7408355
5.1370506 -1.2152936 -1.7227681
5.0972404 -1.2389534 -1.711674
5.0545735 -1.2614818 -1.6996289
5.0283623 -1.2877676 -1.6932895
5.0827451 -1.3349756 -1.7148438
5.0955224 -1.3718067 -1.7221341
5.0623231 -1.3962398 -1.7135758
5.0563989 -1.4280484 -1.7145268
5.0220289 -1.4516746 -1.7056515
5.0075698 -1.4808484 -1.7037497
4.9811401 -1.5063317 -1.6977271
4.9681792 -1.5357468 -1.6964593
4.9722285 -1.5704859 -1.7012138
4.9606934 -1.600383 -1.7005799
4.9570861 -1.6328678 -1.7027987
4.9523678 -1.6650664 -1.7047006
4.9339838 -1.6926528 -1.7018478
4.9217143 -1.7222689 -1.7012138
4.8994412 -1.7482928 -1.6970932
4.8823824 -1.7760532 -1.6948744
4.8669462 -1.8043294 -1.6932895
4.8522344 -1.8328182 -1.6920216
4.8470936 -1.86494 -1.6942405
4.8355594 -1.894646 -1.6942405
4.8211999 -1.9232268 -1.6932895
4.8145814 -1.9549134 -1.6951914
4.7946062 -1.9811592 -1.6923386
4.7701192 -2.0053961 -1.6879009
4.7708054 -2.04022 -1.6926556
4.7668948 -2.0732367 -1.6958253
4.7350006 -2.0940092 -1.6888518
4.7030315 -2.1144686 -1.6818784
4.6934195 -2.1448627 -1.6831464
4.6844716 -2.1756177 -1.6847312
4.667603 -2.2027013 -1.6834633
4.611237 -2.2108018 -1.6676147
4.5984378 -2.2394693 -1.6679317
4.5888605 -2.2697449 -1.6695164
4.5765424 -2.2987101 -1.6701504
4.5716462 -2.3314869 -1.6736372
4.5572543 -2.3594942 -1.6736372
4.5443702 -2.3882949 -1.6742711
4.5338144 -2.4183652 -1.675856
4.5030422 -2.4375615 -1.6698334
4.4747 -2.4578409 -1.6647619
4.4744477 -2.4935603 -1.6704674
4.4541092 -2.518168 -1.6685655
4.4385743 -2.5454504 -1.6685655
4.4269714 -2.575021 -1.6701504
4.4127221 -2.6030996 -1.6707844
4.4056201 -2.6354816 -1.6742711
4.388555 -2.6619728 -1.6739541
4.3753705 -2.6908374 -1.675222
4.3571677 -2.71663 -1.6745881
4.3476329 -2.7478738 -1.6774409
4.3203082 -2.7678483 -1.6733202
4.320744 -2.8056672 -1.6802936
4.3018632 -2.8310833 -1.6796596
4.2662621 -2.8453236 -1.6723692
4.2589388 -2.8783505 -1.6764899
4.2286763 -2.8958554 -1.6714183
4.1968012 -2.9120166 -1.6657128
4.1982532 -2.9513476 -1.6736372
4.1831551 -2.9792526 -1.6749051
4.1786413 -3.0148513 -1.6806105
4.1447487 -3.0292428 -1.6742711
4.1062632 -3.0399466 -1.6660298
4.0852566 -3.0633781 -1.6650789
4.0701599 -3.0912549 -1.6666638
4.0578818 -3.1213746 -1.6695164
4.043891 -3.1502941 -1.6717353
4.0311866 -3.1803341 -1.6745881
4.0123377 -3.2056012 -1.6749051
3.9889059 -3.2271776 -1.6733202
3.9771001 -3.2582033 -1.6768069
3.9665234 -3.2904162 -1.6809275
3.9527957 -3.3201821 -1.6837803
3.9244013 -3.337615 -1.6802936
3.9117544 -3.368439 -1.6837803
3.8867228 -3.3886383 -1.6818784
3.855902 -3.4036367 -1.6774409
3.8398957 -3.4316556 -1.6796596
3.8166571 -3.4532433 -1.6787087
2.4112377 -2.2089014 -1.0514179
2.3983343 -2.2242999 -1.0517349
2.3853326 -2.2396231 -1.0520519
3.7108228 -3.5269217 -1.6695164
3.6877453 -3.5483096 -1.6688825
3.6794927 -3.5841048 -1.675222
3.6391969 -3.5886354 -1.6666638
3.6150949 -3.6088877 -1.6657128
3.5862117 -3.6242602 -1.6625431
3.5440161 -3.6258504 -1.6530339
3.527631 -3.6536682 -1.6558867
3.5136564 -3.6841664 -1.6600072
3.4903343 -3.7049661 -1.6596903
3.4578428 -3.7158985 -1.6549357
3.4433219 -3.7461224 -1.6590563
3.4202714 -3.7671797 -1.6590563
3.3970921 -3.7880952 -1.6590563
3.3825896 -3.8188069 -1.663494
3.3659644 -3.8473415 -1.6669807
3.3373327 -3.8621817 -1.6644449
3.3117249 -3.8804224 -1.663494
3.2860188 -3.8984942 -1.6625431
3.2644637 -3.921499 -1.663811
3.2409427 -3.9421883 -1.6641279
3.2143013 -3.9590549 -1.66286
3.1893551 -3.977963 -1.6625431
3.1637094 -3.9959705 -1.6619091
2.0028465 -2.5621064 -1.0453955
1.987088 -2.5743475 -1.0453955
1.9683797 -2.5827203 -1.0438106
1.9507843 -2.5924759 -1.0428597
1.933709 -2.6028745 -1.0422257
1.9120916 -2.6070433 -1.0390559
1.69078 -2.3352816 -0.92209274
1.6731097 -2.3409827 -0.92019087
1.6576205 -2.3496549 -0.91955692
1.6670235 -2.3940248 -0.93350375
2.8805542 -4.190866 -1.6581055
2.873955 -4.2367167 -1.6695164
2.8463218 -4.2519069 -1.6685655
2.8092 -4.2526736 -1.6619091
2.7908225 -4.2817483 -1.6666638
2.767576 -4.3035779 -1.6685655
2.7385769 -4.3164744 -1.6669807
2.7130463 -4.3348045 -1.6676147
2.6854007 -4.3497558 -1.6669807
2.653234 -4.3572412 -1.663494
2.6386573 -4.393765 -1.6714183
2.6106813 -4.4082408 -1.6707844
2.5888455 -4.4331851 -1.6742711
2.562542 -4.4506302 -1.6749051
2.5262883 -4.4505992 -1.6688825
2.5012481 -4.4701548 -1.6704674
2.4696498 -4.4779439 -1.6676147
2.4434862 -4.4955125 -1.6685655
2.4145126 -4.5079131 -1.6676147
2.3943336 -4.536902 -1.6730032
2.3638253 -4.5464592 -1.6711013
2.3319924 -4.5532808 -1.6682485
2.2997379 -4.5590363 -1.6650789
2.2641246 -4.5577726 -1.6593733
2.2319481 -4.5630598 -1.6562036
2.202673 -4.5741053 -1.6552527
1.4586434 -3.0775118 -1.0967451
1.4401338 -3.0872633 -1.0970621
1.4219551 -3.0977657 -1.0976961
2.0885839 -4.6241913 -1.6543018
2.0624821 -4.6421199 -1.6562036
2.0248437 -4.6338301 -1.6485963
2.000118 -4.654881 -1.6517659
1.9759482 -4.6775494 -1.6555697
1.9544855 -4.7071037 -1.6619091
1.9216242 -4.7093482 -1.6584224
1.889515 -4.7131276 -1.6555697
1.863341 -4.7316923 -1.6581055
1.8352993 -4.7456903 -1.6590563
1.8091763 -4.764842 -1.6619091
1.7759303 -4.7651887 -1.6581055
1.7502422 -4.7857938 -1.6615921
1.7115539 -4.770555 -1.6523999
1.6791015 -4.7720208 -1.6492301
1.6442205 -4.7660956 -1.6435246
1.6152492 -4.7769928 -1.6438416
1.5868027 -4.789515 -1.6447926
1.5597275 -4.8063779 -1.6473284
1.5299195 -4.8149538 -1.6470114
1.4992198 -4.8206282 -1.6457435
1.4718221 -4.8369951 -1.6482793
1.4426564 -4.847753 -1.6489131
1.415004 -4.8637991 -1.651449
1.3851336 -4.8723898 -1.651449
1.3574955 -4.8890219 -1.6543018
1.3364068 -4.930213 -1.6657128
1.3032196 -4.9273171 -1.6619091
1.271066 -4.9278741 -1.6593733
1.2433496 -4.9456983 -1.66286
1.2136569 -4.9559979 -1.663811
1.1834446 -4.9642739 -1.6641279
1.1514617 -4.9649749 -1.6619091
0.72303963 -3.2076013 -1.0574404
0.71714789 -3.2749765 -1.0789946
0.68816096 -3.2375693 -1.0647309
0.66138482 -3.2082913 -1.0533198
0.63741088 -3.1908982 -1.0460294
0.62088317 -3.2105789 -1.0514179
0.60378891 -3.228312 -1.0561726
0.57755637 -3.1964905 -1.0441276
0.55532384 -3.185025 -1.0390559
0.52884984 -3.1472192 -1.0251092
0.50861961 -3.1447875 -1.0232073
0.49164677 -3.1628437 -1.0282788
0.47951296 -3.2145789 -1.0447615
0.45964536 -3.2165215 -1.0444446
0.43630186 -3.1929703 -1.0355693
0.41559717 -3.1871231 -1.0327165
0.39732033 -3.1999662 -1.0362033
0.37834546 -3.2079952 -1.038105
0.35675684 -3.1932902 -1.0323995
0.33954775 -3.2180557 -1.0400069
0.32064039 -3.2285726 -1.0428597
0.30188087 -3.2418113 -1.0466633
0.2825596 -3.2502165 -1.0488821
0.26505807 -3.2821403 -1.0590253
0 -0 -0
0.23773196 -3.4743886 -1.1224201
0.20418637 -3.2798369 -1.0568064
0.18331249 -3.2677708 -1.0523689
0.16264184 -3.2565198 -1.0482482
0.14170004 -3.2356637 -1.0409578
0.12141415 -3.2250991 -1.0371541
0.10126323 -3.2144077 -1.0333505
0.081248112 -3.2035911 -1.0295467
0.061534673 -3.2011845 -1.0285958
0.041903947 -3.2024503 -1.0289128
0.022293547 -3.2083375 -1.0308146
0.0026035793 -3.2046201 -1.0295467
-0.017089227 -3.2102664 -1.0314486
-0.036958717 -3.225275 -1.0365202
-0.056317165 -3.2003319 -1.0282788
-0.076266386 -3.2132006 -1.0327165
-0.09595257 -3.211724 -1.0323995
-0.11490909 -3.1902227 -1.0254261
-0.13555732 -3.2150428 -1.0339844
-0.15669701 -3.2435179 -1.0438106
-0.17741928 -3.257648 -1.0488821
-0.19580092 -3.2299902 -1.0400069
-0.2152376 -3.2230501 -1.038105
-0.23445874 -3.2141013 -1.0355693
-0.25447443 -3.2163842 -1.0368372
-0.27283674 -3.1986969 -1.0314486
-0.29288986 -3.2016852 -1.0330335
-0.31363443 -3.2111552 -1.0368372
-0.33020005 -3.1789825 -1.0266941
-0.34990701 -3.178782 -1.0273279
-0.36787295 -3.1633859 -1.0228903
-0.3879675 -3.1667175 -1.0247922
-0.40702784 -3.1614552 -1.0238413
-0.42831987 -3.1729972 -1.0285958
-0.45056397 -3.1900311 -1.0352523
-0.47178856 -3.1984661 -1.0390559
-0.49442992 -3.2151971 -1.0457125
-0.51954103 -3.2458179 -1.0571234
-0.54473531 -3.274379 -1.0679005
-0.55884928 -3.2363939 -1.0561726
-0.57585788 -3.2170327 -1.050784
-0.59437734 -3.2069106 -1.0485651
-0.61457866 -3.2059977 -1.0495161
-0.63534367 -3.2077487 -1.0514179
-0.65615332 -3.2093654 -1.0533198
-0.67289984 -3.1913581 -1.0485651
-0.70212907 -3.2316573 -1.06378
-0.72939456 -3.2606091 -1.075191
-0.76533335 -3.3253946 -1.098964
-0.79227149 -3.3483253 -1.1084732
-0.82467014 -3.3922467 -1.1252728
-0.85993308 -3.445097 -1.1452421
-0.86670661 -3.383709 -1.1259067
-0.82217848 -3.1297281 -1.0400069
-0.82214069 -3.0531886 -1.015283
-0.8287583 -3.0041993 -1.0000682
-0.84356827 -2.986279 -0.99563062
-0.87056482 -3.0111148 -1.0060908
-0.91214871 -3.0839353 -1.0333505
-0.97222388 -3.2144582 -1.0808965
-0.9947294 -3.2174938 -1.0840663
-1.0144528 -3.2113297 -1.0840663
-1.0504413 -3.2555928 -1.1018168
-1.0641676 -3.2301686 -1.0951604
-1.0631168 -3.1615467 -1.0732892
-1.0797265 -3.1468897 -1.0704364
-1.0883665 -3.1097677 -1.0596592
-1.1004163 -3.0833786 -1.0526859
-1.1170458 -3.0703292 -1.050467
-1.1427859 -3.082093 -1.0571234
-1.3623818 -3.6065006 -1.2469907
-1.3388574 -3.4794562 -1.2045162
-1.3432311 -3.4279039 -1.1889845
-1.3568608 -3.4010973 -1.1823281
-1.3734231 -3.3821623 -1.1785244
-1.3800268 -3.3394849 -1.1661624
-1.4240115 -3.3869121 -1.1864487
-1.3977863 -3.2682302 -1.14651
-1.4189481 -3.2622013 -1.1474609
-1.4205284 -3.2117968 -1.1322463
-1.4332097 -3.187449 -1.1265407
-1.9008856 -4.1594353 -1.4869397
-1.4714178 -3.167901 -1.1259067
-1.5118725 -3.2034161 -1.1423894
-1.6626867 -3.4677608 -1.2438209
-1.5672623 -3.2178781 -1.1547513
-1.5478779 -3.1291361 -1.1252728
-1.5415108 -3.0687258 -1.1062543
-1.5486789 -3.0363963 -1.0976961
-1.5537647 -3.000726 -1.0878699
-1.5597951 -2.9676273 -1.0789946
-1.5561059 -2.9169943 -1.063463
-1.5608834 -2.8832021 -1.0542707
-1.5762624 -2.8694139 -1.0526859
-1.5998403 -2.8704586 -1.0568064
-1.6239568 -2.8721476 -1.0612441
-1.6354165 -2.8514328 -1.0571234
-1.6729076 -2.8757789 -1.0704364
-1.6914852 -2.8670938 -1.0710703
-1.6890855 -2.8232889 -1.0580744
-1.6999835 -2.8023293 -1.0539538
-1.7315528 -2.8152754 -1.063146
-1.7518048 -2.809427 -1.0650479
-1.7548238 -2.7761757 -1.0561726
-1.7626169 -2.7509806 -1.050467
-1.7748152 -2.7329543 -1.0476142
-1.7868589 -2.7148821 -1.0447615
-1.8082191 -2.7109687 -1.0476142
-1.8248193 -2.6998227 -1.0476142
-1.8542105 -2.7073567 -1.0552217
-1.8670033 -2.6904736 -1.0530028
-1.8916575 -2.6906064 -1.0577574
-1.9015294 -2.6696777 -1.0539538
-1.9001187 -2.6333461 -1.0438106
-1.9195982 -2.6262321 -1.0457125
-1.9311622 -2.6083057 -1.0431767
-1.9431477 -2.5910952 -1.0409578
-1.9842472 -2.6123586 -1.0549047
-1.9904095 -2.5873535 -1.0495161
-2.0044994 -2.5728471 -1.0485651
-2.018486 -2.5582654 -1.0476142
-2.0436165 -2.5576885 -1.0526859
-2.0604646 -2.5465758 -1.0533198
-2.0652335 -2.5206783 -1.0476142
-2.0945873 -2.524749 -1.0549047
-2.1082096 -2.5096705 -1.0539538
-2.1217258 -2.4945199 -1.0530028
-2.1382296 -2.4828918 -1.0536368
-2.1559169 -2.472585 -1.0549047
-2.162889 -2.4500656 -1.050784
-2.1823053 -2.4416988 -1.0530028
-2.1997912 -2.431076 -1.0542707
-2.2223535 -2.4259255 -1.0580744
-2.236552 -2.4115484 -1.0577574
-2.2467632 -2.3929391 -1.0555387
-2.2502968 -2.3674204 -1.05015
-2.258863 -2.3474169 -1.0472972
-2.2626362 -2.3226414 -1.0422257
-2.2681885 -2.2999346 -1.038105
-2.286278 -2.2900016 -1.0400069
-2.3023086 -2.2779317 -1.0409578
-2.3243809 -2.271718 -1.0447615
-2.3423696 -2.2613661 -1.0466633
-2.3685541 -2.2587345 -1.0523689
-2.3982456 -2.2591181 -1.0596592
-2.4162278 -2.2482371 -1.0615611
-2.4306755 -2.2340109 -1.0618781
-2.4443374 -2.2190545 -1.0618781
-2.4423742 -2.1900826 -1.0549047
-2.4522166 -2.1719108 -1.0533198
-2.471921 -2.1624444 -1.0561726
-2.4743793 -2.1379337 -1.0514179
-2.4867294 -2.1220951 -1.051101
-2.5084052 -2.1141326 -1.0549047
-2.522059 -2.0993085 -1.0552217
-2.5312297 -2.0807819 -1.0536368
-2.5520484 -2.0717881 -1.0571234
-2.5735917 -2.06321 -1.0609272
-2.5936382 -2.0532677 -1.0640969
-2.6188896 -2.0472462 -1.0694854
-2.6569264 -2.0508454 -1.0802625
-2.6754942 -2.0391042 -1.0827984
-2.6788621 -2.015805 -1.0789946
-2.6858518 -1.9953699 -1.0767758
-2.6804562 -1.9659489 -1.0694854
-2.6893959 -1.9472398 -1.0682175
-2.7082372 -1.9356655 -1.0710703
-2.7146387 -1.9151838 -1.0688515
-2.7395694 -1.9077064 -1.0742401
-2.7535679 -1.8924726 -1.075191
-2.7745461 -1.8819313 -1.0789946
-2.7789485 -1.8601226 -1.0761418
-2.810884 -1.8566295 -1.0843832
-2.8261957 -1.8419371 -1.085968
-2.8270745 -1.8178912 -1.0818474
-2.8405783 -1.802035 -1.0827984
-2.8443465 -1.7800424 -1.0799456
-2.8479524 -1.7580717 -1.0770928
-2.860306 -1.7415506 -1.0777267
-2.8717513 -1.7244556 -1.0780437
-2.9108391 -1.72372 -1.0891378
-2.9369214 -1.7149154 -1.0951604
-2.9547856 -1.7011223 -1.098013
-2.9849625 -1.6941981 -1.1056204
-3.0275798 -1.6939151 -1.1179824
