# .PCD v0.7 - Point Cloud Data file format
VERSION 0.7
FIELDS x y z
SIZE 4 4 4
TYPE F F F
COUNT 1 1 1
WIDTH 1578
HEIGHT 1
VIEWPOINT 0 0 0 1 0 0 0
POINTS 1578
DATA ascii
4.8755136 3.1354442 -1.8958356
4.8970628 3.1069939 -1.8967866
4.9160347 3.0768876 -1.8967866
4.9348216 3.0466654 -1.8967866
4.953423 3.0163286 -1.8967866
4.9815941 2.9917386 -1.9005903
5.0031214 2.9630492 -1.9018581
5.022027 2.9327731 -1.9021751
5.0538998 2.9099495 -1.9075637
5.065886 2.8756068 -1.9053448
5.0884013 2.8472481 -1.9072467
5.0983014 2.8118498 -1.9043939
5.0846281 2.7637534 -1.8926659
5.1198831 2.7423561 -1.8996394
5.158421 2.7224004 -1.9078807
5.1767111 2.6915729 -1.9085146
5.1720257 2.6489482 -1.9005903
5.1864886 2.6163089 -1.8999563
5.2177329 2.5920324 -1.9056618
5.2395029 2.5628858 -1.9078807
5.2730737 2.5393314 -1.9145371
5.2816997 2.5036781 -1.9120013
5.3004003 2.4728272 -1.9132692
5.3163357 2.4406538 -1.9135861
5.3242965 2.4048636 -1.9110503
5.3354855 2.3706086 -1.9097825
5.3560138 2.3404849 -1.9120013
5.3711452 2.3079515 -1.9123182
5.3790903 2.2723672 -1.9100995
5.4034429 2.2436843 -1.9139031
5.4179859 2.2108455 -1.9142201
5.4384918 2.1803837 -1.9167559
5.4517679 2.1469727 -1.9167559
5.4728003 2.1165605 -1.9196087
5.4847975 2.0826032 -1.9192917
5.5028048 2.0508978 -1.9211935
5.513504 2.0164428 -1.9205596
5.5204167 1.9806526 -1.9186578
5.5270982 1.9448534 -1.9167559
5.5362377 1.9099751 -1.915805
5.5505481 1.876881 -1.9167559
5.5673618 1.8445783 -1.9186578
5.5839877 1.8121397 -1.9205596
5.6049442 1.781003 -1.9240463
5.6230116 1.748832 -1.9265821
5.6381731 1.7156779 -1.928167
5.6404133 1.678615 -1.9253142
5.6478748 1.6431794 -1.9243633
5.6323075 1.60123 -1.915488
5.6456819 1.5676559 -1.9167559
5.6634326 1.5352191 -1.9196087
5.6672449 1.4989845 -1.9177068
5.687356 1.4670261 -1.9215105
5.7017694 1.4334894 -1.9234123
5.7076941 1.3978001 -1.9224614
5.7207761 1.363852 -1.9240463
5.7327323 1.3295817 -1.9253142
5.7398577 1.2941726 -1.9249972
5.7374992 1.2566962 -1.9215105
5.7469578 1.2218626 -1.9221444
5.7469158 1.1850441 -1.9196087
5.758729 1.1506889 -1.9211935
5.7666121 1.1155125 -1.9215105
5.7705517 1.0795848 -1.9205596
5.7714672 1.0431446 -1.9186578
5.7833652 1.00869 -1.9205596
5.791316 0.97349948 -1.9211935
0 0 -0
0 0 -0
5.8176341 0.86813581 -1.9243633
0 0 -0
0 0 -0
0 0 -0
5.8503637 0.72674018 -1.9288009
5.847178 0.68993974 -1.9262651
5.8673248 0.65584129 -1.9316536
0 0 -0
0 0 -0
0 0 -0
5.8882666 0.51222825 -1.9338725
5.8865719 0.47570658 -1.9322876
0 0 -0
0 0 -0
0 0 -0
0 0 -0
0 0 -0
0 0 -0
0 0 -0
0 0 -0
0 0 -0
0 0 -0
0 0 -0
0 0 -0
0 0 -0
5.9218035 -0.031183407 -1.9376762
5.9357262 -0.067679562 -1.9424307
5.924768 -0.10391697 -1.9389441
5.9202261 -0.14017916 -1.9376762
0 -0 -0
0 -0 -0
5.9166431 -0.24912742 -1.9376762
0 -0 -0
0 -0 -0
0 -0 -0
5.9305129 -0.39570487 -1.9449666
5.9128385 -0.43098423 -1.939895
5.9148102 -0.46763006 -1.9414798
0 -0 -0
0 -0 -0
5.8976488 -0.57568651 -1.9389441
5.8874016 -0.61117792 -1.9367253
5.9137092 -0.65060776 -1.9468684
0 -0 -0
0 -0 -0
0 -0 -0
5.8884416 -0.79452741 -1.9443326
5.928534 -0.83700442 -1.9595473
5.8941994 -0.86907864 -1.9497211
5.9159412 -0.90940553 -1.9589134
5.8587408 -0.93744957 -1.9414798
5.8463292 -0.97229177 -1.9392611
5.8477302 -1.009436 -1.9417968
5.8152852 -1.040622 -1.9329215
5.7957344 -1.0738661 -1.928484
5.7648172 -1.1047683 -1.9202427
5.7197843 -1.1325693 -1.9072467
5.6216621 -1.1490374 -1.8761833
5.4845786 -1.156131 -1.831807
5.3513317 -1.1623918 -1.7886986
5.271903 -1.1790642 -1.7639747
5.2017174 -1.1969323 -1.7424204
5.1490493 -1.2181313 -1.7268887
5.105535 -1.2409687 -1.7145268
5.0646963 -1.2640072 -1.7031157
5.0256057 -1.287062 -1.6923386
5.0809102 -1.3344939 -1.7142098
5.1001019 -1.3730392 -1.723719
5.0723805 -1.3990129 -1.7170625
5.0354052 -1.4221212 -1.7072363
5.0229402 -1.4519378 -1.7059685
4.9884701 -1.4752018 -1.6970932
4.9929423 -1.5098996 -1.7018478
4.9853959 -1.5410675 -1.7024817
4.9848905 -1.5744841 -1.7056515
4.9634013 -1.6012565 -1.7015308
4.962491 -1.6346478 -1.7047006
4.9550648 -1.6659728 -1.7056515
4.9420581 -1.6954222 -1.7047006
4.9199238 -1.7216426 -1.7005799
4.8940816 -1.7463807 -1.6951914
4.8752518 -1.7734599 -1.6923386
4.8669462 -1.8043294 -1.6932895
4.8557835 -1.8341584 -1.6932895
4.8444381 -1.8639184 -1.6932895
4.8267283 -1.8911868 -1.6910707
4.8282475 -1.9260375 -1.6958253
4.8198543 -1.9570539 -1.6970932
4.8261633 -1.9941958 -1.7037497
4.7832341 -2.0109086 -1.6926556
4.762085 -2.0364914 -1.6894858
4.7251463 -2.055083 -1.6806105
4.7219892 -2.0882561 -1.6840973
4.7211976 -2.1226344 -1.6885349
4.7080846 -2.1515632 -1.6885349
4.6775899 -2.1724222 -1.6821954
4.6530213 -2.1958213 -1.6780747
4.6334734 -2.2214606 -1.675856
4.6103759 -2.2452822 -1.6723692
4.5812092 -2.2659609 -1.6666638
4.5689144 -2.2948794 -1.6672977
4.5674214 -2.3293328 -1.6720523
4.5378819 -2.3494661 -1.6663468
4.5141449 -2.3724132 -1.66286
4.5070348 -2.4040835 -1.6657128
4.4880285 -2.4294357 -1.6641279
4.4771938 -2.4592106 -1.6657128
4.471962 -2.4921756 -1.6695164
4.4697967 -2.5270352 -1.6745881
4.4624348 -2.5591316 -1.6777579
4.4335303 -2.5788355 -1.6726862
4.4184403 -2.6064725 -1.6730032
4.4015503 -2.6330476 -1.6726862
4.3901772 -2.6629562 -1.6745881
4.3810263 -2.6943147 -1.6774409
4.3660212 -2.7221491 -1.6780747
4.3516417 -2.7504072 -1.6790257
4.3266973 -2.7719409 -1.675856
4.3247218 -2.8082495 -1.6818784
4.3097858 -2.8362966 -1.6828294
4.2954583 -2.8647923 -1.6840973
4.2832999 -2.8948119 -1.6863161
4.2396326 -2.903357 -1.675856
4.2155037 -2.9249914 -1.6733202
4.196701 -2.9502568 -1.6730032
4.1677036 -2.9682498 -1.6685655
4.1309519 -2.9804494 -1.6609582
4.1324964 -3.0202894 -1.6691995
4.1055007 -3.0393822 -1.6657128
4.1216812 -3.0906868 -1.6802936
4.0595851 -3.0832248 -1.6622261
4.0518675 -3.116749 -1.6669807
4.0281777 -3.1380553 -1.6650789
4.0237403 -3.1744604 -1.6714183
4.0190067 -3.2109287 -1.6777579
4.0043912 -3.2397037 -1.6799766
3.9815025 -3.2618091 -1.6787087
3.9563034 -3.2819395 -1.6764899
3.9295547 -3.3006635 -1.6736372
3.9142859 -3.3290136 -1.675856
3.8880358 -3.3480179 -1.6733202
3.885293 -3.3873918 -1.6812445
3.8679905 -3.4143057 -1.6828294
3.8448462 -3.4360793 -1.6818784
3.8236907 -3.4596059 -1.6818784
2.4021451 -2.2005742 -1.0472972
2.3830338 -2.210113 -1.0447615
2.3659704 -2.2214479 -1.0431767
3.7438235 -3.5582821 -1.6847312
3.7034655 -3.5634332 -1.676173
3.6903639 -3.5946925 -1.6802936
3.6527042 -3.6019533 -1.6730032
3.6191225 -3.6129076 -1.6676147
3.5915489 -3.6296532 -1.6650789
3.5586021 -3.6407709 -1.6600072
3.531584 -3.6577618 -1.6577885
3.5058007 -3.675931 -1.6562036
3.4831798 -3.6973729 -1.6562036
3.4597814 -3.7179813 -1.6558867
3.4452477 -3.7482171 -1.6600072
3.4221842 -3.7692862 -1.6600072
3.3996251 -3.7909193 -1.6603242
3.3756714 -3.810998 -1.6600072
3.3597188 -3.840204 -1.663811
3.3342321 -3.8585937 -1.66286
3.3148036 -3.8840292 -1.6650789
3.2792943 -3.8905177 -1.6590563
3.2535403 -3.9083793 -1.6581055
3.2385333 -3.9392579 -1.66286
3.2137034 -3.9583187 -1.6625431
3.1668086 -3.949846 -1.650498
3.1360366 -3.9610238 -1.6470114
1.9981728 -2.5561292 -1.0428597
1.9818715 -2.567591 -1.0425427
1.9626298 -2.5751777 -1.0406408
1.9422289 -2.5811093 -1.038105
1.9246579 -2.5906942 -1.0371541
1.9042374 -2.5963373 -1.0346184
1.6768723 -2.3160779 -0.91416836
1.6571137 -2.318608 -0.91099864
1.6565268 -2.348105 -0.91892296
2.9213929 -4.1949039 -1.6669807
2.9015088 -4.2213473 -1.6704674
2.8563828 -4.2108164 -1.6590563
2.833658 -4.2329922 -1.6609582
2.8081543 -4.251091 -1.6612751
2.7814994 -4.267447 -1.6609582
2.7624452 -4.2956009 -1.6653959
2.7365441 -4.313271 -1.6657128
2.7095237 -4.3291769 -1.6653959
2.6829093 -4.3457208 -1.6653959
2.6586607 -4.3661513 -1.6669807
2.6318204 -4.3823824 -1.6669807
2.6135814 -4.413137 -1.6726862
2.5845404 -4.4258146 -1.6714183
2.5568621 -4.4407678 -1.6711013
2.5361216 -4.4679198 -1.675539
2.5063434 -4.4792585 -1.6739541
2.4820185 -4.5003662 -1.676173
2.4520931 -4.5113444 -1.6745881
2.4203351 -4.5187812 -1.6717353
2.3894637 -4.5276756 -1.6695164
2.3581367 -4.5355206 -1.6669807
2.3276684 -4.5448394 -1.6650789
2.293757 -4.5471816 -1.6606412
2.2675009 -4.5645676 -1.6619091
2.2369497 -4.5732832 -1.6600072
2.2080233 -4.5852137 -1.6593733
1.4623003 -3.0852246 -1.0995979
1.4441442 -3.0958581 -1.1002319
1.425517 -3.1055229 -1.1005489
2.0940506 -4.636292 -1.6587393
2.0644078 -4.6464534 -1.6577885
2.0343397 -4.6555567 -1.6565206
2.003114 -4.6618519 -1.6543018
1.980747 -4.6889067 -1.6596903
1.950484 -4.6974688 -1.6584224
1.9183986 -4.7014451 -1.6555697
1.892339 -4.72017 -1.6581055
1.8671644 -4.7413993 -1.6615921
1.8346149 -4.7439213 -1.6584224
1.8027784 -4.7479959 -1.6558867
1.7673168 -4.7420826 -1.6498641
1.7388383 -4.7546191 -1.650498
1.7096318 -4.7651987 -1.650498
1.6794163 -4.7729154 -1.6495471
1.6442205 -4.7660956 -1.6435246
1.6128182 -4.7698054 -1.6413058
1.5841177 -4.7814121 -1.6419398
1.5553352 -4.7928467 -1.6425737
1.531356 -4.8194733 -1.6485963
1.5042909 -4.8369293 -1.651449
1.4723744 -4.83881 -1.6489131
1.4440093 -4.8522983 -1.650498
1.4229544 -4.891119 -1.6609582
1.3835771 -4.8669162 -1.6495471
1.3547035 -4.8789692 -1.650815
1.3267269 -4.8945131 -1.6533508
1.3049176 -4.9337354 -1.6641279
1.2765158 -4.9489965 -1.6666638
1.2475132 -4.9622545 -1.6685655
1.2163649 -4.967052 -1.6676147
1.1847647 -4.9698091 -1.6660298
1.1533909 -4.9732895 -1.6647619
0.73096913 -3.2427588 -1.0694854
0.71024621 -3.2434769 -1.0682175
0.69013393 -3.2468462 -1.0679005
0.66521692 -3.2268689 -1.0596592
0.64057124 -3.2067089 -1.0514179
0.63133436 -3.2645862 -1.0698024
0.6095466 -3.2590761 -1.0666326
0.57789385 -3.1983571 -1.0447615
0.54978108 -3.1532581 -1.0282788
0.5271197 -3.1369309 -1.0216224
0.50877118 -3.1457236 -1.0235243
0.48945978 -3.1487863 -1.0235243
0.4758718 -3.1901898 -1.0365202
0.45857108 -3.2090106 -1.0419087
0.43565926 -3.1882718 -1.0339844
0.41387862 -3.1739566 -1.0282788
0.3955656 -3.1858485 -1.0314486
0.37823424 -3.2070534 -1.037788
0.35854903 -3.2093139 -1.037788
0.338651 -3.2095671 -1.0371541
0.31970188 -3.2191348 -1.0396899
0.30478668 -3.2729745 -1.0571234
0.28453383 -3.2728932 -1.0564895
0.26406407 -3.2698507 -1.0549047
0.26229623 -3.5163713 -1.1370008
0.23461898 -3.4289703 -1.1072053
0.20566253 -3.3035018 -1.0647309
0.18554847 -3.3075423 -1.0656818
0.1633058 -3.2697814 -1.0526859
0.14157522 -3.232821 -1.0400069
0.12109196 -3.2165692 -1.0343014
0.10117329 -3.2115638 -1.0323995
0.081151448 -3.1997986 -1.0282788
0.061186079 -3.1831677 -1.0225734
0.04185383 -3.1986568 -1.0276449
0.022669261 -3.2614484 -1.0485651
0.0026178153 -3.219795 -1.0346184
-0.017182894 -3.2282863 -1.0374711
-0.037066206 -3.2347589 -1.0396899
-0.056714799 -3.2230909 -1.0358863
-0.077049904 -3.2463865 -1.0438106
-0.095867962 -3.2088799 -1.0314486
-0.11589567 -3.2177095 -1.0346184
-0.13583617 -3.2216759 -1.0362033
-0.15742739 -3.2586753 -1.0488821
-0.17783096 -3.2652242 -1.0514179
-0.19683179 -3.247031 -1.0457125
-0.21662533 -3.2438693 -1.0450785
-0.23480317 -3.2188308 -1.0371541
-0.25439975 -3.2154386 -1.0365202
-0.27146846 -3.1826317 -1.0260601
-0.29228586 -3.1950736 -1.0308146
-0.31179288 -3.192276 -1.0304977
-0.32902563 -3.1676619 -1.0228903
-0.34752297 -3.1570988 -1.0200375
-0.36590308 -3.1464279 -1.0171849
-0.38681534 -3.1573033 -1.0216224
-0.40884268 -3.1755655 -1.0285958
-0.43072832 -3.1908557 -1.0346184
-0.45188922 -3.1994224 -1.038422
-0.47344798 -3.2097256 -1.0428597
-0.4965905 -3.2292585 -1.050467
-0.5267309 -3.2907715 -1.0723382
-0.54364657 -3.2678299 -1.0656818
-0.55788165 -3.2307863 -1.0542707
-0.57652593 -3.220767 -1.0520519
-0.59489548 -3.2097085 -1.0495161
-0.61047447 -3.1845734 -1.0422257
-0.63792193 -3.2207739 -1.0558556
-0.65558368 -3.2065775 -1.0523689
-0.67231315 -3.1885738 -1.0476142
-0.70333654 -3.2372181 -1.0656818
-0.72215182 -3.2282138 -1.0640969
-0.75619107 -3.2856498 -1.0853342
-0.78856075 -3.3326347 -1.1030847
-0.81481695 -3.3516955 -1.111326
-0.85419339 -3.4220915 -1.1373178
-0.86741233 -3.3864653 -1.1268576
-0.8214559 -3.126976 -1.0390559
-0.82756341 -3.0733371 -1.0222564
-0.82901043 -3.0051136 -1.0003852
-0.84279513 -2.9835408 -0.99467969
-0.8597694 -2.9737575 -0.9930948
-0.93392873 -3.1576064 -1.0590253
-0.97743869 -3.2317073 -1.086919
-0.99780977 -3.2274616 -1.0875529
-1.0221636 -3.235749 -1.0926245
-1.0417075 -3.2285135 -1.0923076
-1.0641676 -3.2301686 -1.0951604
-1.06493 -3.1669407 -1.075191
-1.0778803 -3.1415069 -1.0685345
-1.0886798 -3.1106627 -1.0599762
-1.1010536 -3.085165 -1.0533198
-1.1193148 -3.0765684 -1.0526859
-1.1411377 -3.0776463 -1.0555387
-1.2400818 -3.2826452 -1.1312953
-1.3218321 -3.4351962 -1.1886675
-1.3418473 -3.4243715 -1.1877166
-1.3522934 -3.3896449 -1.1782074
-1.3670017 -3.3663442 -1.1728189
-1.3756813 -3.3289659 -1.1623588
-1.4313614 -3.4043989 -1.1927881
-1.3955492 -3.2629976 -1.1446081
-1.4041983 -3.2282803 -1.1350989
-1.415159 -3.1996529 -1.1278086
-1.4308765 -3.1822586 -1.1246388
-1.8914261 -4.1387315 -1.4793323
-1.4782081 -3.1825247 -1.1312953
-1.6223565 -3.437583 -1.2289232
-1.6315298 -3.4027615 -1.219731
-1.5726599 -3.2289636 -1.158872
-1.5613314 -3.1563413 -1.1354159
-1.5457672 -3.0772014 -1.1094241
-1.5594496 -3.0575197 -1.1056204
-1.5511488 -2.9956722 -1.085968
-1.565089 -2.9777024 -1.0827984
-1.5543207 -2.9136469 -1.0621951
-1.5514034 -2.8656859 -1.0476142
-1.5689577 -2.8561127 -1.0476142
-1.5896844 -2.8522315 -1.0498331
-1.6192898 -2.8638909 -1.0580744
-1.6292835 -2.8407366 -1.0530028
-1.6624179 -2.8577418 -1.063463
-1.6775122 -2.8434031 -1.0618781
-1.6861645 -2.8184052 -1.0561726
-1.6945735 -2.7934089 -1.050467
-1.7250948 -2.8047724 -1.0590253
-1.7397634 -2.7901103 -1.0574404
-1.7533038 -2.7737706 -1.0552217
-1.7667093 -2.7573698 -1.0530028
-1.7815292 -2.7432957 -1.0517349
-1.7910296 -2.7212205 -1.0472972
-1.8097976 -2.713336 -1.0485651
-1.8280053 -2.7045379 -1.0495161
-1.8542105 -2.7073567 -1.0552217
-1.8686252 -2.6928115 -1.0539538
-1.8829312 -2.6781914 -1.0526859
-1.9070308 -2.6774035 -1.0571234
-1.9217585 -2.6633444 -1.0561726
-1.9341474 -2.646142 -1.0539538
-1.9469618 -2.6296506 -1.0520519
-1.956802 -2.6093075 -1.0485651
-1.9767907 -2.6025391 -1.050784
-1.9730635 -2.5647993 -1.0400069
-1.9916776 -2.5563858 -1.0415918
-1.9938159 -2.5269899 -1.0343014
-2.0465763 -2.5613937 -1.0542707
-2.0592716 -2.5451009 -1.0526859
-2.0730464 -2.5302165 -1.0517349
-2.0988257 -2.5298591 -1.0571234
-2.1057699 -2.5067654 -1.0526859
-2.1125097 -2.4836822 -1.0482482
-2.1258531 -2.4685171 -1.0472972
-2.1503079 -2.4661505 -1.0520519
-2.1528478 -2.438688 -1.0457125
-2.174722 -2.433212 -1.0491991
-2.1959736 -2.4268558 -1.0523689
-2.2178695 -2.4210296 -1.0558556
-2.2565424 -2.4331081 -1.0675836
-2.2480614 -2.3943222 -1.0561726
-2.2568302 -2.3742957 -1.0533198
-2.2595205 -2.3481004 -1.0476142
-2.2639596 -2.3240004 -1.0428597
-2.2728498 -2.3046622 -1.0403239
-2.276228 -2.2799325 -1.0352523
-2.3016346 -2.2772646 -1.0406408
-2.3216681 -2.2690661 -1.0434936
-2.3423696 -2.2613661 -1.0466633
-2.3644364 -2.2548065 -1.050467
-2.3927233 -2.2539148 -1.0571234
-2.4127564 -2.2450063 -1.0599762
-2.4306755 -2.2340109 -1.0618781
-2.4464438 -2.2209673 -1.062829
-2.4515529 -2.1983151 -1.0590253
-2.457896 -2.1769421 -1.0558556
-2.4676385 -2.1586969 -1.0542707
-2.4736617 -2.1373136 -1.051101
-2.4809585 -2.1171691 -1.0485651
-2.4895515 -2.0982385 -1.0466633
-2.5031083 -2.0835304 -1.0469803
-2.5151129 -2.0675299 -1.0466633
-2.5306966 -2.05445 -1.0479312
-2.5558336 -2.04897 -1.0533198
-2.5765367 -2.0397258 -1.0568064
-2.6151538 -2.0443251 -1.0679005
-2.6381583 -2.036355 -1.0723382
-2.6619174 -2.0287542 -1.0770928
-2.6682534 -2.0078199 -1.0745571
-2.6881354 -1.997067 -1.0777267
-2.6926916 -1.9749252 -1.0745571
-2.694773 -1.951134 -1.0704364
-2.6974356 -1.9279433 -1.0666326
-2.6960409 -1.9020596 -1.0612441
-2.7208912 -1.8946965 -1.0666326
-2.737155 -1.8811895 -1.0685345
-2.7525706 -1.8670217 -1.0701194
-2.7576697 -1.8458757 -1.0675836
-2.7950575 -1.8461732 -1.0780437
-2.8277848 -1.8429729 -1.086602
-2.8414328 -1.8271265 -1.0875529
-2.8493872 -1.8076247 -1.086285
-2.8363075 -1.77501 -1.0767758
-2.8423033 -1.7545836 -1.074874
-2.8441055 -1.7316839 -1.0713873
-2.866873 -1.7215254 -1.0761418
-2.8904386 -1.7116359 -1.0812135
-2.9213607 -1.7058269 -1.0891378
-2.9465666 -1.6963892 -1.0948434
-2.971766 -1.6867061 -1.1005489
-2.99944 -1.6781667 -1.1072053
-3.0279508 -1.6698091 -1.1141788
-3.0606375 -1.6634294 -1.1227371
-3.1201119 -1.6710429 -1.1414385
-3.1613407 -1.6682481 -1.1531665
-3.206017 -1.6667597 -1.1661624
-3.24404 -1.6613262 -1.1766225
-3.2778819 -1.653352 -1.1854978
-3.3041031 -1.6412265 -1.1915203
-3.3183711 -1.623006 -1.1931051
-3.3820996 -1.6285428 -1.2130744
-3.4862978 -1.6524543 -1.2479416
-3.7396016 -1.7445277 -1.3376452
-3.6649058 -1.6823684 -1.3062648
-4.0433631 -1.8261889 -1.4412955
-4.1706309 -1.8529562 -1.4837699
-4.0663381 -1.776813 -1.4416125
-4.1939268 -1.802011 -1.4840869
-4.1559806 -1.7555718 -1.4663364
-4.1106167 -1.7067568 -1.44605
-4.1210117 -1.6815023 -1.44605
-4.1603017 -1.6678336 -1.4565102
-4.3495936 -1.7128354 -1.5208559
-4.3670979 -1.6888518 -1.5233916
-4.4642692 -1.6950239 -1.554455
-4.5305734 -1.6884707 -1.5744244
-4.53016 -1.6567299 -1.5706208
-4.6491489 -1.6679856 -1.6092916
-4.7836509 -1.6831948 -1.6533508
-4.8898206 -1.6869144 -1.6872671
-4.9458995 -1.6723766 -1.7034327
-5.0361934 -1.668551 -1.7316433
-5.095952 -1.6537232 -1.7490768
-5.1530046 -1.6373626 -1.7655594
-5.2191033 -1.6231807 -1.7852118
-5.3587136 -1.6306183 -1.8305391
-5.4077058 -1.6093427 -1.8441689
-5.5039911 -1.6013075 -1.8742814
-5.6095009 -1.5947446 -1.9075637
-5.6648722 -1.5729861 -1.9234123
-5.7092018 -1.5476292 -1.9354573
-5.7360115 -1.5171783 -1.9414798
-5.7442942 -1.4817172 -1.9411628
-5.752358 -1.4462117 -1.9408458
-5.7546749 -1.409309 -1.9386271
-5.7549109 -1.3719923 -1.9357743
-5.7558298 -1.3349403 -1.9332385
-5.761137 -1.298972 -1.9322876
-5.7764106 -1.2652218 -1.9348234
-5.7840652 -1.2297547 -1.9348234
-5.7831421 -1.1925167 -1.9319706
-5.8098807 -1.1609135 -1.9386271
-5.8038588 -1.1227202 -1.9341894
-5.8125029 -1.0874362 -1.9348234
-5.8470645 -1.0568135 -1.9443326
-5.8562422 -1.0214057 -1.9452835
-5.8408871 -0.98183566 -1.9379932
-5.8842516 -0.95204002 -1.950672
-5.8824849 -0.91475058 -1.9481363
-5.8879871 -0.87863916 -1.9481363
-0 -0 -0
-0 -0 -0
-0 -0 -0
-0 -0 -0
-0 -0 -0
-0 -0 -0
-0 -0 -0
-0 -0 -0
-0 -0 -0
-0 -0 -0
-0 -0 -0
-0 -0 -0
-0 -0 -0
-0 -0 -0
-0 -0 -0
-0 -0 -0
-0 -0 -0
-0 -0 -0
-0 -0 -0
-0 0 -0
-0 0 -0
-0 0 -0
-0 0 -0
-0 0 -0
-0 0 -0
-0 0 -0
-0 0 -0
-0 0 -0
-0 0 -0
-0 0 -0
-0 0 -0
-0 0 -0
-0 0 -0
-0 0 -0
-0 0 -0
-0 0 -0
-0 0 -0
-0 0 -0
-5.6367459 1.0811977 -1.9458423
-5.6003451 1.1098795 -1.9353713
-5.5943556 1.1444113 -1.9356985
-5.5696616 1.1750064 -1.9294814
-5.5605001 1.2087573 -1.9288269
-5.5474463 1.2416136 -1.9268637
-5.5397234 1.2756287 -1.9268637
-5.524436 1.3078529 -1.924246
-5.5025353 1.3383728 -1.9193376
-5.4969702 1.372798 -1.9203193
-5.490274 1.4069704 -1.9209738
-5.478796 1.4399104 -1.9199921
-5.476244 1.4752225 -1.9222826
-5.4707327 1.5098026 -1.9235915
-5.4568191 1.5420562 -1.9219553
-5.4554238 1.5778742 -1.9249003
-5.451076 1.612928 -1.9268637
-5.4329371 1.6438802 -1.9239187
-5.4173317 1.6755087 -1.9219553
-5.4096522 1.7095722 -1.922937
-5.3990602 1.742733 -1.922937
-5.389163 1.7761241 -1.9232643
-5.3799548 1.8097609 -1.9239187
-5.3696427 1.8430445 -1.924246
-5.3564491 1.8753325 -1.9235915
-5.3430619 1.907528 -1.922937
-5.3259292 1.9383364 -1.9209738
-5.3112779 1.9699928 -1.9199921
-5.2982063 2.0022109 -1.9196649
-5.2867031 2.035022 -1.9199921
-5.2600417 2.0619016 -1.9147565
-5.2630873 2.1004457 -1.9206465
-5.2509756 2.1330557 -1.9209738
-5.2299299 2.1619842 -1.9180288
-5.213953 2.1929343 -1.9170471
-5.2099547 2.2289755 -1.9206465
-5.1857829 2.2563751 -1.9167199
-5.149375 2.2782071 -1.9082122
-5.1352992 2.3097601 -1.9082122
-5.1407943 2.3502669 -1.9157382
-5.1476984 2.3917243 -1.9239187
-5.1277995 2.4208436 -1.9219553
-5.10007 2.4461293 -1.9170471
-5.0756216 2.4728222 -1.9134477
-5.0611997 2.5043383 -1.913775
-5.0415168 2.5332239 -1.9121388
-5.0258784 2.5641103 -1.9121388
-5.0117288 2.5957699 -1.9127933
-4.9948707 2.6260324 -1.912466
-4.9719949 2.6530707 -1.9098483
-4.9614382 2.6866794 -1.9121388
-4.9432034 2.7161613 -1.9114844
-4.9305711 2.7487423 -1.9131205
-4.9103222 2.7770827 -1.9118116
-4.8817163 2.8005741 -1.9072306
-4.8693404 2.8333275 -1.9091939
-4.8543048 2.864593 -1.9101756
-4.8382583 2.8952954 -1.91083
-4.8163633 2.9224761 -1.9091939
-4.8031688 2.9549456 -1.9111573
-4.7897573 2.9873631 -1.9131205
-4.7681427 3.0146756 -1.9118116
-4.7408051 3.0382652 -1.9082122
-4.7212811 3.0667822 -1.9078851
-4.6968503 3.0920553 -1.9055945
-4.6722879 3.1171443 -1.903304
-4.646029 3.1409898 -1.900359
-4.6344633 3.1747801 -1.9036312
-4.61412 3.2026179 -1.903304
-4.5990191 3.2341316 -1.9052672
-4.5767798 3.2606444 -1.9042857
-4.558219 3.289772 -1.90494
-4.5326085 3.3137736 -1.9026495
-4.516746 3.344898 -1.9046128
-4.4961371 3.3725493 -1.9046128
-4.483634 3.4063635 -1.9082122
-4.475378 3.4436092 -1.913775
-4.4482026 3.466357 -1.9111573
-4.4290743 3.495342 -1.9121388
-4.4104962 3.5248127 -1.9134477
-4.3843789 3.5482411 -1.9114844
-4.3639865 3.5762746 -1.9121388
-4.3419604 3.6029842 -1.9121388
-4.3168778 3.627126 -1.91083
-4.2923822 3.6517081 -1.9098483
-4.2706108 3.6785939 -1.9101756
-4.2443986 3.7016225 -1.9085394
-4.2166486 3.7232168 -1.9062489
-4.1902022 3.7458699 -1.9046128
-4.1755447 3.7791209 -1.9085394
-4.1411328 3.7944539 -1.903304
-4.120543 3.8223631 -1.9046128
-4.1018329 3.8521035 -1.9069034
-4.0849667 3.8837118 -1.9101756
-4.0501685 3.8982167 -1.90494
-4.0214367 3.9183776 -1.9026495
-3.9979908 3.9436426 -1.9029768
-3.9730494 3.9674318 -1.9026495
-3.9459734 3.9890475 -1.9013406
-3.9247241 4.0165644 -1.9029768
-3.8967245 4.0371704 -1.9013406
-3.8797026 4.0692129 -1.9052672
-3.8533659 4.0915656 -1.9046128
-3.8275445 4.1144404 -1.9042857
-3.8054228 4.1413279 -1.9059217
-3.7818453 4.1666989 -1.9069034
-3.7637753 4.1982703 -1.91083
-3.7316813 4.2142096 -1.9075578
-3.7007775 4.2313361 -1.90494
-3.6753623 4.2546792 -1.9052672
-3.6455081 4.2728367 -1.903304
-3.6307881 4.308857 -1.9095211
-3.5970294 4.3223362 -1.9055945
-3.5722399 4.3465161 -1.9065762
-3.5449076 4.3676195 -1.9062489
-3.5186324 4.3900261 -1.9065762
-3.4898705 4.4093099 -1.9055945
-3.4546056 4.4202151 -1.9010135
-3.4320359 4.4473147 -1.9036312
-3.4023929 4.4652829 -1.9023223
-3.3749304 4.4860754 -1.9023223
-3.3445244 4.5029054 -1.9006863
-3.3095698 4.5134344 -1.8964324
-3.2768283 4.5267663 -1.8934875
-3.2456956 4.5421739 -1.8915241
-3.2188532 4.5635481 -1.8921785
-3.2037451 4.6018281 -1.9000318
-3.1743786 4.6198411 -1.8993773
-3.1502135 4.6454892 -1.9019951
-3.1242769 4.6686583 -1.9036312
-3.0966129 4.6893182 -1.9042857
-3.0610774 4.6979365 -1.9000318
-3.037302 4.7245803 -1.903304
-3.0042078 4.736743 -1.9006863
-2.9760892 4.75669 -1.9013406
-2.9458544 4.773253 -1.9006863
-2.9174933 4.7928529 -1.9013406
-2.8841403 4.8041821 -1.8987229
-2.8541269 4.8209748 -1.8983957
-2.8249683 4.8392129 -1.8987229
-2.7956936 4.8572745 -1.8990501
-2.7630403 4.8694057 -1.8970869
-2.7340324 4.887917 -1.8977413
-2.7044454 4.9054284 -1.8980684
-2.6765501 4.9260821 -1.8997046
-2.6444902 4.9390798 -1.8983957
-2.6167793 4.9602284 -1.900359
-2.5862947 4.9761915 -1.900359
-2.557004 4.9944906 -1.9013406
-2.5237586 5.005023 -1.8993773
-2.4887998 5.01195 -1.8961052
-2.4588301 5.0288243 -1.8967596
-2.425879 5.0395594 -1.8951235
-2.3949113 5.0543494 -1.8951235
-2.3642526 5.0698056 -1.8954507
-2.3307366 5.0790634 -1.8934875
-2.3038034 5.1027436 -1.8970869
-2.2736003 5.1193743 -1.8980684
-2.237987 5.1237025 -1.8944691
-2.2065065 5.1373377 -1.8944691
-2.1745753 5.1499095 -1.8941419
-2.1440213 5.1657739 -1.8951235
-2.1119277 5.1779571 -1.8947963
-2.0808191 5.1925726 -1.8954507
-2.0475354 5.201725 -1.8941419
-2.0148985 5.2124276 -1.8934875
-1.9788564 5.2140903 -1.8895608
-1.9497932 5.2341046 -1.8925058
-1.9169922 5.2441945 -1.8918513
-1.8825468 5.2496314 -1.8895608
-1.8490469 5.2575178 -1.8882519
-1.8182919 5.273231 -1.889888
-1.785297 5.2824984 -1.8892336
-1.7510694 5.2879705 -1.8872703
-1.7162592 5.2914238 -1.8846525
-1.6831877 5.3000536 -1.8839982
-1.6545597 5.3229156 -1.8885791
-1.620494 5.3284473 -1.8869431
-1.5926144 5.3545942 -1.892833
-1.5568292 5.3542838 -1.8892336
-1.5159465 5.3355556 -1.8790898
-1.4829271 5.3438463 -1.8787626
-1.4589982 5.3856812 -1.8905425
-1.4247183 5.3899641 -1.8889064
-1.3878484 5.3839631 -1.8836709
-1.3575476 5.4033756 -1.8875976
-1.3210011 5.3978353 -1.8826892
-1.2885121 5.408597 -1.8836709
-1.2525303 5.4044333 -1.8794171
-1.2243258 5.4341421 -1.8872703
-1.1911613 5.4424753 -1.8875976
-1.1606871 5.4635472 -1.8925058
-1.1279036 5.4742684 -1.8938147
-1.0946624 5.4829392 -1.8944691
-1.0595661 5.4821305 -1.8918513
-1.025735 5.4875998 -1.8915241
-0.99154127 5.4910002 -1.8905425
-0.95621032 5.4876714 -1.8872703
-0.92189538 5.4897075 -1.8859614
-0.88834441 5.4961939 -1.8862886
-0.85692132 5.5164814 -1.8915241
-0.82430881 5.5300474 -1.8944691
-0.79076171 5.5378079 -1.8954507
-0.75715035 5.5453644 -1.8964324
-0.72371989 5.5545912 -1.8980684
-0.68904322 5.5542383 -1.8964324
-0.65406698 5.5508537 -1.8938147
-0.618949 5.5453711 -1.8905425
-0.58501047 5.5500045 -1.8908697
-0.55159694 5.5600719 -1.8931602
-0.51589882 5.5464153 -1.8872703
-0.48242775 5.5560665 -1.8895608
-0.44787267 5.5532708 -1.8875976
-0.41399997 5.5587411 -1.8885791
-0.37943497 5.5545774 -1.8862886
-0.34522873 5.554915 -1.8856342
-0.31129581 5.5597591 -1.8866159
-0.27815956 5.5813837 -1.8934875
-0.24333291 5.5697689 -1.8889064
-0.20876507 5.56077 -1.885307
-0.17484711 5.5685577 -1.8875976
-0.1406758 5.5695257 -1.8875976
-0.10649919 5.5702839 -1.8875976
-0.072318561 5.5708323 -1.8875976
-0.038116395 5.5683365 -1.8866159
-0.0039456896 5.561851 -1.8843254
0.030191908 5.5636601 -1.8849797
0.064329319 5.5633702 -1.8849797
0.098515064 5.5657053 -1.8859614
0.13277732 5.5697193 -1.8875976
0.16686444 5.5659661 -1.8866159
0.20121926 5.5705037 -1.8885791
0.23515484 5.5634995 -1.8866159
0.26836956 5.5430751 -1.8800715
0.30325478 5.5573645 -1.8856342
0.33752084 5.5582285 -1.8866159
0.37161914 5.5560527 -1.8866159
0.40494397 5.5433016 -1.8830165
0.43932351 5.5454226 -1.8846525
0.47277713 5.5360317 -1.882362
0.50604564 5.5254989 -1.8797443
0.5394792 5.5175872 -1.8781081
0.57528269 5.5329704 -1.8846525
0.60984361 5.5349722 -1.8866159
0.64488852 5.5405116 -1.889888
0.67864192 5.534575 -1.8892336
0.71295154 5.5331182 -1.8902153
0.74777561 5.5351944 -1.8925058
0.78079772 5.5239525 -1.8902153
0.81481552 5.5199924 -1.8905425
0.84780675 5.5092854 -1.8885791
0.88114619 5.5011802 -1.8875976
0.91364127 5.4882135 -1.8849797
0.94617152 5.4759865 -1.8826892
0.97791904 5.4598465 -1.8790898
1.0129541 5.4621048 -1.8820348
1.0448461 5.4474349 -1.8790898
1.0780674 5.4399943 -1.8787626
1.1125636 5.4388313 -1.880726
1.1486483 5.4448462 -1.885307
1.1816337 5.4358492 -1.8846525
1.2174442 5.4395614 -1.8885791
1.2499489 5.4283056 -1.8872703
1.2843221 5.4251313 -1.8889064
1.318927 5.422658 -1.8908697
1.3524041 5.4153795 -1.8911968
1.3858416 5.4078946 -1.8915241
1.4175555 5.3938065 -1.8895608
1.4521004 5.390481 -1.8915241
1.4750855 5.345036 -1.8784354
1.5142832 5.3586164 -1.8866159
1.5489737 5.3555779 -1.8889064
1.5826106 5.348691 -1.889888
1.6159475 5.3406882 -1.8905425
1.64729 5.326159 -1.8889064
1.6802245 5.3168521 -1.8892336
1.7133974 5.3082409 -1.889888
1.7441602 5.2922435 -1.8879247
1.7772028 5.2832327 -1.8885791
1.807745 5.2668667 -1.8866159
1.8406527 5.2574587 -1.8872703
1.8741487 5.2496252 -1.8885791
1.9072946 5.2406907 -1.8895608
1.9423741 5.2368622 -1.8925058
1.9731334 5.2213101 -1.8911968
2.0051336 5.2091045 -1.8911968
2.0377486 5.198463 -1.8918513
2.0689065 5.1841063 -1.8911968
2.0988975 5.1669374 -1.8895608
2.1283946 5.1487222 -1.8875976
2.1606796 5.1373076 -1.8882519
2.1903014 5.1196098 -1.8866159
2.2250683 5.1138716 -1.8895608
2.2579346 5.103579 -1.8908697
2.2915337 5.0947986 -1.892833
2.324717 5.0849385 -1.8944691
2.357069 5.0731492 -1.8954507
2.3893635 5.0611544 -1.8964324
2.4179204 5.0412869 -1.8944691
2.4483936 5.0255065 -1.8941419
2.4779258 5.0078483 -1.8931602
2.5043623 4.984107 -1.889888
2.5297418 4.9585471 -1.8859614
2.5614235 4.9454484 -1.8869431
2.59128 4.9288025 -1.8866159
2.6188037 4.9078083 -1.8846525
2.6511188 4.8958015 -1.8862886
2.6856611 4.887723 -1.8895608
2.7156012 4.8711519 -1.8895608
2.7454388 4.8543978 -1.8895608
2.7756436 4.8382802 -1.889888
2.8033767 4.8178916 -1.8885791
2.8300035 4.7957172 -1.8866159
2.8525808 4.766912 -1.8820348
2.878834 4.7444725 -1.8800715
2.9133399 4.7355709 -1.8836709
2.9433424 4.7192092 -1.8843254
2.9788103 4.7114425 -1.8885791
3.0224543 4.716145 -1.8980684
3.0389771 4.6784945 -1.8902153
3.0613897 4.65029 -1.8862886
3.0951116 4.6392775 -1.8895608
3.1108136 4.6014137 -1.8817075
3.1512754 4.6001668 -1.8892336
3.1815979 4.583849 -1.8905425
3.2134702 4.5696511 -1.892833
3.2370608 4.5436916 -1.8902153
3.2648795 4.5237436 -1.8902153
3.2886703 4.4982867 -1.8879247
3.3173344 4.4795418 -1.8885791
3.3379519 4.4500327 -1.8846525
3.3686247 4.4339814 -1.8866159
3.3974969 4.4154749 -1.8875976
3.4245257 4.3945451 -1.8875976
3.4590378 4.3830914 -1.8918513
3.4905875 4.3676891 -1.8944691
3.5155377 4.343986 -1.8934875
3.5397294 4.3194103 -1.8921785
3.5685804 4.3005176 -1.8934875
3.5985489 4.2828803 -1.8954507
3.6082242 4.2412901 -1.8866159
3.6378815 4.2233658 -1.8885791
3.6686969 4.2066607 -1.8911968
3.7013209 4.1918612 -1.8947963
3.7112238 4.1514626 -1.8866159
3.7283819 4.1195068 -1.882362
3.7612507 4.1049109 -1.8862886
3.7998657 4.0963006 -1.8931602
3.8236346 4.0715308 -1.8925058
3.8485451 4.0479927 -1.8925058
3.8680673 4.0188565 -1.889888
3.8755043 3.9774537 -1.8813803
3.9190845 3.9731047 -1.8908697
3.9473965 3.9529939 -1.892833
3.9688895 3.9260411 -1.8915241
4.0010166 3.9095378 -1.8954507
4.0194893 3.8796656 -1.892833
4.0507436 3.8621006 -1.8964324
4.0743647 3.837173 -1.8964324
4.0812244 3.7966573 -1.8885791
4.0995717 3.7670693 -1.8862886
4.1380057 3.7558126 -1.8934875
4.170825 3.7391806 -1.8980684
4.1965199 3.7160237 -1.8993773
4.2043023 3.6771433 -1.8925058
4.2217793 3.6469541 -1.8902153
4.2541432 3.6295655 -1.8947963
4.2654924 3.5942631 -1.889888
4.2867398 3.5674183 -1.8895608
4.3056278 3.5386491 -1.8882519
4.3441372 3.5258565 -1.8957779
4.3715892 3.5038617 -1.8983957
4.3981938 3.4810762 -1.9006863
4.416492 3.4516969 -1.8993773
4.4405808 3.4268415 -1.9006863
4.4652829 3.4023929 -1.9023223
4.4822993 3.3720906 -1.9006863
4.490766 3.3355117 -1.8954507
4.5088615 3.3062181 -1.8944691
4.5374842 3.2845833 -1.8980684
4.5629354 3.2605247 -1.900359
4.5820832 3.2319212 -1.9000318
4.6049304 3.2059042 -1.9013406
4.633862 3.1840081 -1.9052672
4.6478362 3.1518042 -1.9029768
4.6584477 3.1174471 -1.8993773
4.6774883 3.0888047 -1.8993773
4.696353 3.060046 -1.8993773
4.7166305 3.0321937 -1.9000318
4.7375412 3.0047138 -1.9010135
4.7518826 2.973083 -1.8993773
4.7724485 2.9453585 -1.900359
4.8001184 2.9219139 -1.9042857
4.8171463 2.8919196 -1.9039584
4.8404927 2.8656764 -1.9062489
4.8661466 2.8406839 -1.9095211
4.8531795 2.7933376 -1.8974141
4.8554325 2.7551153 -1.8915241
4.9019389 2.7418714 -1.903304
4.9302568 2.7181268 -1.9078851
4.9676023 2.6990983 -1.9160655
4.9790711 2.6658919 -1.9141022
4.9827967 2.6286795 -1.9091939
5.0147648 2.6063325 -1.915411
5.0222507 2.571209 -1.9121388
5.0354013 2.5390687 -1.9111573
5.041575 2.5035033 -1.9075578
5.0534453 2.4708622 -1.9062489
5.0736203 2.4422662 -1.9082122
5.08424 2.4090669 -1.9065762
5.1109171 2.383414 -1.9111573
5.1357522 2.3567364 -1.9150838
5.1492548 2.324791 -1.9147565
5.170332 2.2962189 -1.9173744
5.1851902 2.2648292 -1.9177016
5.1972528 2.2322254 -1.9170471
5.2134633 2.2013958 -1.9180288
5.2338552 2.1722615 -1.9206465
5.2479606 2.1404631 -1.9209738
5.260118 2.1078706 -1.9206465
5.2843843 2.0800524 -1.9249003
5.2970481 2.0475888 -1.9249003
5.3095121 2.0150483 -1.9249003
5.3226619 1.9827615 -1.9252275
5.3365026 1.9507134 -1.925882
5.3430343 1.9160198 -1.9239187
5.3555818 1.8835129 -1.924246
5.3607841 1.8484612 -1.9219553
5.3756061 1.8167427 -1.9232643
5.3893437 1.7846149 -1.924246
5.3938999 1.7494735 -1.9219553
5.4135399 1.7192025 -1.9252275
5.4212794 1.6851125 -1.924246
5.4405584 1.6545639 -1.9275181
5.4542313 1.622227 -1.9288269
5.4504709 1.5847753 -1.9239187
5.4655466 1.5528504 -1.925882
5.4667764 1.5170128 -1.922937
5.4686847 1.4814656 -1.9203193
5.4813266 1.4488477 -1.9216281
5.4882832 1.4147162 -1.9209738
5.5078583 1.3837749 -1.9249003
5.5107379 1.3486067 -1.922937
5.521667 1.3154244 -1.9239187
5.5268726 1.2808799 -1.922937
5.5364714 1.2473586 -1.9235915
5.5440211 1.2133639 -1.9235915
5.5504375 1.1791273 -1.9232643
5.5640464 1.1463819 -1.9255548
5.5681958 1.1116655 -1.9245732
5.5730562 1.0771204 -1.9239187
5.5823474 1.0434248 -1.9249003
5.594224 1.0101589 -1.9268637
5.600317 0.9758144 -1.9268637
5.6061993 0.94143313 -1.9268637
5.6109371 0.90686584 -1.9265364
5.620131 0.87300014 -1.9278454
5.63099 0.83933395 -1.9298086
5.6416469 0.80556732 -1.9317719
5.6464834 0.77093571 -1.9317719
5.6539187 0.73664069 -1.9327536
5.6527057 0.70123816 -1.9307903
5.6540866 0.66620946 -1.9298086
5.6580677 0.63150412 -1.9298086
5.6646557 0.59707153 -1.9307903
5.6682124 0.56230265 -1.9307903
5.6837878 0.52864772 -1.9350441
5.6888075 0.49392581 -1.9356985
5.6832538 0.45832872 -1.9327536
5.6727662 0.42246848 -1.9281725
5.679965 0.38797411 -1.9298086
0 0 -0
0 0 -0
0 0 -0
0 0 -0
0 0 -0
0 0 -0
0 0 -0
0 0 -0
0 0 -0
0 0 -0
0 0 -0
0 -0 -0
0 -0 -0
0 -0 -0
0 -0 -0
0 -0 -0
0 -0 -0
0 -0 -0
0 -0 -0
0 -0 -0
0 -0 -0
0 -0 -0
0 -0 -0
0 -0 -0
0 -0 -0
0 -0 -0
0 -0 -0
0 -0 -0
0 -0 -0
0 -0 -0
0 -0 -0
0 -0 -0
0 -0 -0
0 -0 -0
0 -0 -0
0 -0 -0
0 -0 -0
0 -0 -0
5.6659346 -0.97903246 -1.9494417
5.65517 -1.0129457 -1.9478056
0 -0 -0
0 -0 -0
5.6012721 -1.1100634 -1.9356985
5.5277023 -1.1307623 -1.9121388
5.3958449 -1.1383002 -1.8679644
5.2918077 -1.150291 -1.8336066
5.2071943 -1.1653868 -1.8061203
5.12536 -1.1801249 -1.7796156
5.0600948 -1.1978251 -1.7590009
5.0140882 -1.219463 -1.7452577
4.9707584 -1.2412694 -1.7324963
4.927351 -1.2625902 -1.7197347
4.8893533 -1.2848676 -1.7089366
4.8613052 -1.3094324 -1.7017378
4.8941674 -1.350557 -1.7164625
4.8812423 -1.3792758 -1.7148265
4.8663335 -1.4073614 -1.712536
4.8440151 -1.4331697 -1.7076277
4.8342261 -1.4625913 -1.7073004
4.8332849 -1.4947405 -1.7102454
4.8204184 -1.5232291 -1.7089366
4.8082838 -1.5519067 -1.7079549
4.8085423 -1.5846361 -1.7115543
4.8058934 -1.6165227 -1.714172
4.778904 -1.6401485 -1.7079549
4.7598319 -1.6663162 -1.7046827
4.7423992 -1.6929474 -1.702065
4.7283707 -1.7207209 -1.7007561
4.7159514 -1.7490437 -1.7001016
4.6865697 -1.7709286 -1.69323
4.6923695 -1.8061047 -1.6994473
4.6873569 -1.8372778 -1.7017378
4.6751175 -1.8656539 -1.7014105
4.6802149 -1.9010652 -1.7076277
4.6536179 -1.9236066 -1.702065
4.6164689 -1.9414952 -1.6925757
4.607944 -1.9712721 -1.6938845
4.6009603 -2.0017719 -1.6958479
4.586863 -2.0292003 -1.6951934
4.5855279 -2.0623479 -1.6994473
4.5573196 -2.08337 -1.6935573
4.5435934 -2.1108956 -1.69323
4.5203028 -2.1338918 -1.6893035
4.4994569 -2.1579082 -1.6863585
4.4725409 -2.1788511 -1.681123
4.4523125 -2.202899 -1.6785053
4.4488435 -2.2352698 -1.6824319
4.4350443 -2.2625253 -1.6824319
4.4110103 -2.2844784 -1.6785053
4.4069457 -2.3167796 -1.6824319
4.3868122 -2.3406613 -1.6801413
4.3499346 -2.3553808 -1.6713065
4.3453369 -2.3874898 -1.6752331
4.3281302 -2.4127264 -1.6742514
4.3066649 -2.4355149 -1.6716337
4.2842641 -2.4576609 -1.6686888
4.2821698 -2.491509 -1.6739242
4.2757525 -2.5230215 -1.6775236
4.2658663 -2.5526073 -1.6798141
4.2541623 -2.5811858 -1.6814502
4.2366347 -2.6062496 -1.6807958
4.2197618 -2.631696 -1.6804686
4.2027359 -2.6570332 -1.6801413
4.1943083 -2.687871 -1.6834135
4.1666441 -2.7063475 -1.6788325
4.1539059 -2.7344613 -1.6804686
4.146481 -2.7661929 -1.6843952
4.1443014 -2.8016419 -1.6906123
4.1231356 -2.824347 -1.6889763
4.0964141 -2.8431253 -1.6850497
4.0611162 -2.8557014 -1.6775236
4.0389009 -2.8772755 -1.6755604
4.0119767 -2.8953655 -1.6716337
3.9887965 -2.916023 -1.6693431
3.9715884 -2.9410055 -1.6696703
3.9542236 -2.9658866 -1.6699976
3.9419694 -2.9946678 -1.6726153
3.934752 -3.0274448 -1.6775236
3.9205735 -3.055017 -1.6794869
3.9039793 -3.0807724 -1.6804686
3.8886929 -3.107619 -1.6821047
3.8695517 -3.1314213 -1.6821047
3.8422265 -3.1485152 -1.6785053
3.8293788 -3.1774635 -1.6814502
3.8076401 -3.1990764 -1.6804686
3.7886589 -3.2229919 -1.6807958
3.7595057 -3.2381589 -1.6765419
3.7509587 -3.2711055 -1.6817775
3.7343581 -3.2971873 -1.6834135
3.7225087 -3.3275981 -1.6873401
2.4201438 -2.1897216 -1.0885314
2.4073589 -2.2051687 -1.0888586
2.3944757 -2.2205412 -1.0891858
3.6459224 -3.423774 -1.6902851
3.5960884 -3.4187286 -1.6765419
3.5702789 -3.4361415 -1.6742514
3.5470979 -3.4560046 -1.6732697
3.5211174 -3.4730582 -1.6709793
3.5070944 -3.5019443 -1.6745787
3.467602 -3.5052552 -1.6657438
3.4328234 -3.5129461 -1.6591994
3.418421 -3.5414238 -1.6627988
3.405102 -3.5712247 -1.6670526
3.3870115 -3.596179 -1.669016
3.361021 -3.6127417 -1.6670526
3.3477395 -3.6430397 -1.6716337
3.3234184 -3.661413 -1.670652
3.2945836 -3.6746988 -1.6673799
3.2675898 -3.6898918 -1.6650894
3.2498631 -3.7155631 -1.6677071
3.2356498 -3.7454469 -1.6722882
3.21506 -3.768106 -1.673597
3.2070975 -3.8058307 -1.6817775
3.1782463 -3.8188994 -1.6788325
3.1541543 -3.8375986 -1.6785053
3.1281664 -3.8539445 -1.6771964
3.0855536 -3.8494675 -1.6667254
3.0565991 -3.8616579 -1.6637805
2.0113182 -2.5727255 -1.0891858
1.9862598 -2.5730469 -1.0839504
1.9589834 -2.5701511 -1.077406
1.9431764 -2.5821228 -1.077406
1.9267329 -2.5932386 -1.0770788
1.9119021 -2.6065364 -1.0777332
1.8233074 -2.5179298 -1.0348676
1.6754601 -2.3437536 -0.95600814
1.6365452 -2.3192363 -0.94128335
1.621744 -2.3284588 -0.94095612
2.7587001 -4.0146155 -1.6451291
2.7371962 -4.03616 -1.6470923
2.7286661 -4.0772276 -1.6572361
2.7129672 -4.108089 -1.663126
2.6887407 -4.1262422 -1.6637805
2.6705236 -4.1537914 -1.6683615
2.6490338 -4.1764841 -1.6709793
2.616343 -4.1814432 -1.6663982
2.5851796 -4.1885715 -1.6627988
2.5663068 -4.2156568 -1.6673799
2.555464 -4.2564421 -1.6775236
2.5004253 -4.223248 -1.6578906
2.483037 -4.253202 -1.6637805
2.4573643 -4.2691765 -1.6641077
2.4320552 -4.2858181 -1.6647621
2.4098623 -4.3080835 -1.6677071
2.383383 -4.3227892 -1.6677071
2.3554611 -4.3348408 -1.6667254
2.3328314 -4.3567104 -1.6696703
2.3078182 -4.3742857 -1.6709793
2.2835484 -4.3933954 -1.6729425
2.2552567 -4.4048004 -1.6719609
2.2256351 -4.4134927 -1.6699976
2.1955719 -4.4211407 -1.6677071
2.1613498 -4.4200964 -1.6621444
2.1284523 -4.4213533 -1.6575633
2.0964298 -4.4240818 -1.6536367
1.4401079 -3.0870395 -1.1379414
1.4207451 -3.0949588 -1.1376141
1.4025054 -3.1053407 -1.1382685
1.3918591 -3.132889 -1.1454673
1.9786385 -4.5296087 -1.6699976
1.9493171 -4.5381908 -1.6686888
1.9214346 -4.5500665 -1.6686888
1.8923936 -4.5591521 -1.6677071
1.8672371 -4.5776782 -1.6703248
1.8384112 -4.5872946 -1.6696703
1.8022732 -4.5782633 -1.6621444
1.7830012 -4.6121535 -1.670652
1.7556733 -4.6256576 -1.6716337
1.7262686 -4.6336865 -1.670652
1.6939136 -4.6335406 -1.6667254
1.6644944 -4.6411781 -1.6657438
1.637552 -4.6557617 -1.6673799
1.6037204 -4.6505342 -1.6618172
1.5739456 -4.6567054 -1.6605083
1.5441556 -4.6626873 -1.6591994
1.51406 -4.6675797 -1.6575633
1.4871068 -4.6821856 -1.6595266
1.4589101 -4.693027 -1.660181
1.4256907 -4.6874247 -1.6549456
1.3944794 -4.687932 -1.6520007
1.3704342 -4.7127337 -1.6578906
1.3417497 -4.7219629 -1.6582178
1.3193156 -4.7537823 -1.6667254
1.2938255 -4.7754698 -1.6716337
1.2673949 -4.7942824 -1.6755604
1.2337116 -4.7854972 -1.6696703
1.2066258 -4.8021421 -1.6729425
1.177811 -4.8122091 -1.6739242
1.1519812 -4.8349729 -1.6794869
0.71879077 -3.0992658 -1.0600635
0.6989305 -3.0999303 -1.0587546
0.67787808 -3.0949292 -1.0554824
0.6567173 -3.0888622 -1.051883
0.63908553 -3.0993125 -1.0541735
0.61968684 -3.1013222 -1.0535191
0.5963468 -3.0827985 -1.0456659
0.57724643 -3.0854707 -1.0453386
0.55478126 -3.0694256 -1.038467
0.53885347 -3.089529 -1.0443569
0.51691657 -3.0750706 -1.0381398
0.4953281 -3.0613928 -1.0322499
0.47624472 -3.0625069 -1.0315955
0.45674896 -3.060698 -1.0299594
0.43862718 -3.0681205 -1.0315955
0.41966566 -3.0698178 -1.0312682
0.4014312 -3.0770204 -1.0329044
0.38312411 -3.0841146 -1.0345404
0.36397234 -3.0845301 -1.033886
0.34964269 -3.1280277 -1.0482836
0.32629073 -3.0906439 -1.0345404
0.30462107 -3.0653176 -1.0250511
0.29174474 -3.1311107 -1.0473019
0.27790919 -3.1949759 -1.0688983
0.25473884 -3.1523514 -1.0535191
0.29852042 -4.0038581 -1.3486696
0.21731953 -3.1740952 -1.0600635
0.19620384 -3.1489611 -1.0509013
0.1761943 -3.1378403 -1.0466475
0.19389434 -3.8835106 -1.3048224
0.13714129 -3.1274936 -1.0423937
0.1175257 -3.1169446 -1.038467
0.09807422 -3.1072178 -1.0348676
0.0784389 -3.0850892 -1.0270144
0.059597008 -3.0902364 -1.0286505
0.040465571 -3.0773158 -1.0240694
0.021839919 -3.1162481 -1.0374854
0.0026943854 -3.0681312 -1.0207973
-0.01612604 -3.0671449 -1.02047
-0.035034359 -3.0745473 -1.0230879
-0.054034121 -3.0818329 -1.0257056
-0.073419914 -3.1012814 -1.0325772
-0.09321747 -3.1262746 -1.041412
-0.11713255 -3.2559607 -1.0865681
-0.12989041 -3.0852432 -1.0276688
-0.14849742 -3.0777812 -1.0253783
-0.16898172 -3.1060617 -1.0355221
-0.18751973 -3.0964775 -1.0325772
-0.20537718 -3.0782979 -1.0266873
-0.22391619 -3.0722675 -1.0250511
-0.2448581 -3.0972114 -1.0342132
-0.2635352 -3.0918846 -1.0329044
-0.28181067 -3.0826814 -1.0302867
-0.30081251 -3.0818346 -1.0306138
-0.32049996 -3.0874498 -1.0332316
-0.33923081 -3.0835466 -1.0325772
-0.35825413 -3.0823457 -1.0329044
-0.37612352 -3.0716484 -1.0299594
-0.39653611 -3.081466 -1.0342132
-0.41404244 -3.0686743 -1.0306138
-0.43524769 -3.0829172 -1.0365038
-0.45664322 -3.0970147 -1.0423937
-0.47722065 -3.1044278 -1.0459931
-0.50134802 -3.1331639 -1.0571185
-0.50797856 -3.0545294 -1.0306138
-0.54217523 -3.1407425 -1.0620267
-0.56593966 -3.1624696 -1.0708616
-0.5848161 -3.1561503 -1.06988
-0.59989417 -3.1302307 -1.0620267
-0.62350285 -3.1487362 -1.06988
-0.64375925 -3.1494799 -1.071516
-0.67849642 -3.2185106 -1.0973663
-0.86016959 -3.9585009 -1.3611039
-0.86295831 -3.8572509 -1.3270732
-0.73592585 -3.1981099 -1.0947485
-0.75052404 -3.1723859 -1.0872226
-0.79702061 -3.2788153 -1.1268159
-0.81826973 -3.2784469 -1.1284519
-0.86724657 -3.3859489 -1.1686997
-0.8348828 -3.1785998 -1.0963846
-0.80812651 -3.0018914 -1.0348676
-0.82653058 -2.9968762 -1.0348676
-0.84233189 -2.9826555 -1.0315955
-0.86928743 -3.0073848 -1.0423937
-0.89335823 -3.0210216 -1.0492653
-1.0151197 -3.3564408 -1.1726264
-0.99183035 -3.208425 -1.1212531
-1.0924178 -3.458154 -1.2141831
-0.99569297 -3.0863094 -1.0813326
-1.018163 -3.0909107 -1.0852592
-1.0536898 -3.1338615 -1.1032562
-1.0655321 -3.1058884 -1.095403
-1.0792581 -3.0841312 -1.0898403
-1.0943469 -3.0667727 -1.0859137
-1.1105568 -3.0528967 -1.0832959
-1.1253227 -3.0353942 -1.0793693
-1.3193934 -3.4924634 -1.2511587
-1.2827194 -3.333514 -1.1952044
-1.6495738 -4.2087998 -1.5237312
-1.6900856 -4.2354569 -1.5374744
-1.3082799 -3.2217984 -1.1624826
-1.3124931 -3.1761627 -1.1484122
-1.2560854 -2.9877594 -1.0806782
-1.3390992 -3.13115 -1.1376141
-0 -0 -0
-1.9481106 -4.4036794 -1.6258231
-1.4639826 -3.2559087 -1.19455
-1.2905407 -2.8240819 -1.0335588
-1.3293549 -2.8623819 -1.0512285
-1.3521398 -2.865279 -1.0554824
-1.4289749 -2.9804587 -1.102929
-1.4281898 -2.9325619 -1.0878769
-1.4507685 -2.9330587 -1.0914763
-1.4127125 -2.8126588 -1.0482836
-1.4570093 -2.8569613 -1.0688983
-1.4640776 -2.8278317 -1.0610451
-1.4602858 -2.7786522 -1.0453386
-1.4733026 -2.7621374 -1.0423937
-1.4870721 -2.7472293 -1.0401032
-1.5521544 -2.8258286 -1.0747882
-1.5542744 -2.7890179 -1.0639901
-1.5718236 -2.780251 -1.0643172
-1.5968499 -2.7844865 -1.06988
-1.6139052 -2.774636 -1.06988
-1.6265759 -2.7573576 -1.0669351
-1.6323 -2.728678 -1.059409
-1.6450893 -2.7121489 -1.0567913
-1.6631857 -2.7044179 -1.0577729
-1.6727451 -2.6829383 -1.0531919
-1.6856397 -2.6670339 -1.0509013
-1.707073 -2.6645956 -1.0541735
-1.7203012 -2.649317 -1.0522102
-1.7271689 -2.6245067 -1.0463203
-1.7705189 -2.6547294 -1.0633357
-1.776716 -2.6289439 -1.0571185
-1.7928134 -2.6179929 -1.0571185
-1.814772 -2.6154809 -1.0607178
-1.8248053 -2.5957952 -1.0571185
-1.8401499 -2.5837798 -1.0567913
-1.8366083 -2.5456262 -1.0453386
-1.8438256 -2.5228684 -1.0404304
-1.8710839 -2.5274522 -1.0473019
-1.8848553 -2.5136564 -1.0463203
-1.9002433 -2.5020437 -1.0463203
-1.9167126 -2.4918346 -1.0469748
-1.938357 -2.4882245 -1.0505741
-1.9617857 -2.4866674 -1.0551552
-1.9764166 -2.4738452 -1.0548279
-1.9957209 -2.4668126 -1.0571185
-2.0120175 -2.4559822 -1.0577729
-2.0270493 -2.4435904 -1.0577729
-2.0353165 -2.4231498 -1.0541735
-2.0397346 -2.3983824 -1.0486108
-2.0513282 -2.3822427 -1.0469748
-2.061558 -2.3646269 -1.0446842
-2.0816586 -2.3583066 -1.0476291
-2.0753021 -2.3222456 -1.036831
-2.1079049 -2.329782 -1.0463203
-2.1221607 -2.3168044 -1.0463203
-2.1356936 -2.3030467 -1.0459931
-2.1562548 -2.2967858 -1.0492653
-2.1663995 -2.2794039 -1.0473019
-2.1737907 -2.2592611 -1.0440297
-2.1902506 -2.2485871 -1.0453386
-2.207989 -2.2391415 -1.0473019
-2.2210186 -2.2248826 -1.0469748
-2.2413478 -2.2178569 -1.050247
-2.2332821 -2.182934 -1.039776
-2.2534347 -2.1757507 -1.0430481
-2.2674265 -2.162535 -1.0433754
-2.2895973 -2.1570017 -1.0476291
-2.2937934 -2.1345472 -1.0433754
-2.3374686 -2.1485584 -1.0577729
-2.3688037 -2.1506841 -1.0662806
-2.3629551 -2.1190817 -1.0574456
-2.3794508 -2.1076746 -1.0590818
-2.4008756 -2.1004982 -1.0630084
-2.4094274 -2.0820217 -1.0610451
-2.4135292 -2.0598404 -1.0571185
-2.4261227 -2.0449924 -1.0571185
-2.4320867 -2.0246289 -1.0541735
-2.4393528 -2.0054688 -1.051883
-2.4552813 -1.9934403 -1.0535191
-2.4659917 -1.9771558 -1.0528647
-2.4810412 -1.9643327 -1.0541735
-2.5086851 -1.9612888 -1.0610451
-2.5206721 -1.945859 -1.0610451
-2.5370746 -1.933791 -1.0630084
-2.5564449 -1.9238667 -1.0662806
-2.6258631 -1.9509542 -1.0911491
-2.5821476 -1.8940263 -1.0672623
-2.5860648 -1.8726075 -1.0639901
-2.601351 -1.8594506 -1.0656261
-2.6042161 -1.8374646 -1.0620267
-2.6038072 -1.8133545 -1.0571185
-2.6078744 -1.792529 -1.0541735
-2.614913 -1.7738426 -1.0525374
-2.6336021 -1.7630183 -1.0558096
-2.6467361 -1.7483872 -1.0567913
-2.6772099 -1.7450068 -1.0649717
-4.0448809 -2.6005394 -1.6235327
-2.7271533 -1.7302359 -1.0767516
-2.7369173 -1.7129688 -1.0764244
-2.7650697 -1.7070577 -1.0836232
-2.8053608 -1.7082328 -1.0957302
-2.8465796 -1.7094631 -1.1081644
-2.8277388 -1.6746404 -1.0963846
-2.8616297 -1.6710688 -1.1058739
-2.88903 -1.6633742 -1.1127455
-2.9074016 -1.6502779 -1.1160177
-2.9199471 -1.6337907 -1.1169994
-2.9696422 -1.6377341 -1.1327058
-3.0078688 -1.6348147 -1.1438313
-3.0445039 -1.6305957 -1.1543022
-3.1346951 -1.6541957 -1.1857151
-3.1841979 -1.6554039 -1.2010944
-3.2195318 -1.6487484 -1.2109109
-3.2641852 -1.6463994 -1.2243268
-3.3030045 -1.640623 -1.2354523
-3.3410256 -1.6340169 -1.2462504
-3.484678 -1.6778055 -1.2976236
-3.5760393 -1.6948148 -1.3287094
-4.220171 -1.9682475 -1.5708506
-4.0878701 -1.8761349 -1.515878
-3.9123983 -1.766678 -1.4448717
-3.7772014 -1.6778499 -1.3895719
-3.8263965 -1.6716546 -1.4042966
-3.8374498 -1.6485175 -1.4046239
-3.9415174 -1.6646198 -1.4399635
-3.9560213 -1.6422141 -1.4415995
-4.0377769 -1.6471581 -1.4684314
-4.1214933 -1.6518624 -1.4959177
-4.2423501 -1.6701291 -1.5371472
-4.3186274 -1.6696064 -1.5616884
-4.3473449 -1.6501137 -1.56856
-4.4937663 -1.674179 -1.6189516
-4.6015878 -1.6822408 -1.6549456
-4.6705337 -1.6750145 -1.6765419
-4.7306466 -1.6638713 -1.6948662
-4.8006244 -1.6554393 -1.7167897
-4.8957424 -1.6546764 -1.7478755
-4.9282308 -1.6320271 -1.756056
-5.0136604 -1.6262311 -1.7835423
-5.0631742 -1.6080139 -1.7979398
-5.1586757 -1.6035451 -1.8290255
-5.2877617 -1.6081299 -1.8722183
-5.3799562 -1.6001521 -1.9019951
-5.4577303 -1.5868844 -1.9265364
-5.5009985 -1.5629151 -1.9386435
-5.5132165 -1.5298897 -1.9396251
-5.5279727 -1.4975138 -1.9415885
-5.5361438 -1.4633253 -1.9412613
-5.5404429 -1.4281502 -1.9396251
-5.5436025 -1.3927474 -1.9376619
-5.5547976 -1.3593795 -1.9386435
-5.560276 -1.3246139 -1.9376619
-5.5729022 -1.2915376 -1.9392979
-5.5751905 -1.2560736 -1.9373347
