# .PCD v0.7 - Point Cloud Data file format
VERSION 0.7
FIELDS x y z
SIZE 4 4 4
TYPE F F F
COUNT 1 1 1
WIDTH 1529
HEIGHT 1
VIEWPOINT 0 0 0 1 0 0 0
POINTS 1529
DATA ascii
-13.139608 -1.132394 -1.9348212
-13.159125 -1.0527737 -1.936745
-13.171255 -0.97244745 -1.9376329
-13.17796 -0.89167851 -1.937781
-13.175286 -0.81031829 -1.9365971
-13.167173 -0.72875166 -1.9346733
-13.164482 -0.64760613 -1.9336374
-13.173148 -0.56703043 -1.9343773
-13.137836 -0.484772 -1.928606
-13.153413 -0.40454474 -1.9305298
-13.107202 -0.32264107 -1.9232787
-13.163321 -0.24321076 -1.9314177
-13.169509 -0.16249815 -1.9321576
-13.123776 -0.081404299 -1.9252025
-13.138864 -0.00087645982 -1.9274222
-13.132689 0.079705574 -1.9265343
-13.129974 0.16026041 -1.9262383
-13.110945 0.24049334 -1.9235747
-13.137895 0.32164055 -1.9278661
-13.128754 0.40203458 -1.9268303
-13.116157 0.48221931 -1.9253504
-13.100106 0.56213713 -1.9234266
-13.074678 0.6414392 -1.920171
-13.055684 0.72083271 -1.9179513
-13.053977 0.80110931 -1.9183953
-13.034015 0.88019109 -1.9161756
-12.148005 -0.30709845 -1.9229163
-12.12992 -0.23217541 -1.919729
-12.132103 -0.15775612 -1.9198884
-12.129881 -0.083291523 -1.9194102
-12.116343 -0.0088518532 -1.9171792
-12.097412 0.065392025 -1.9141512
-12.102706 0.13968728 -1.9151075
-12.123337 0.21432866 -1.9186134
-12.107976 0.28838339 -1.9163823
-12.09019 0.36219862 -1.9138325
-12.099579 0.43680283 -1.9157449
-12.048341 0.50899607 -1.9079361
-12.071614 0.58420128 -1.9122388
-12.082589 0.65906638 -1.9146293
-12.07142 0.73277283 -1.9135138
-12.052906 0.80590624 -1.9112827
-12.018196 0.87769014 -1.9065018
-12.043093 0.9538312 -1.911442
-12.053736 1.0291353 -1.9141512
-12.053093 1.1036162 -1.9151075
-12.036268 1.1765918 -1.9135138
-12.008202 1.2482798 -1.9101671
-11.990503 1.3208567 -1.9085735
-11.972367 1.3932633 -1.9069798
-11.957714 1.4659775 -1.9060236
-11.933806 1.5374295 -1.9036332
-11.913386 1.6091717 -1.9018801
-11.905244 1.6825168 -1.9021989
-11.883953 1.7539492 -1.9004459
-11.860283 1.8248835 -1.8983742
-11.868358 1.9007441 -1.9015615
-11.814597 1.9665625 -1.8947088
-11.771178 2.0336413 -1.8896091
-11.806095 2.1143558 -1.897418
-11.772515 2.1829777 -1.8940713
-11.790895 2.2613065 -1.8993304
-11.783576 2.3349545 -1.9004459
-11.75065 2.403455 -1.897418
-11.78881 2.4867153 -1.906183
-11.700977 2.5432796 -1.8942307
-11.700566 2.6184766 -1.8967805
-11.709292 2.6959789 -1.900924
-11.666592 2.761636 -1.8966212
-11.626405 2.8275707 -1.8927964
-11.671094 2.9143999 -1.9031551
-11.53632 2.9560657 -1.8837126
-11.559976 3.0378342 -1.8907247
-11.490596 3.0951009 -1.8822784
-11.491374 3.1710618 -1.885625
-11.504951 3.2509062 -1.8912028
-11.488581 3.322535 -1.8918402
-11.442418 3.3854036 -1.8875374
-11.439384 3.4609804 -1.8905653
-11.412273 3.5293562 -1.8896091
-11.386637 3.5981245 -1.8889717
-11.368103 3.6691365 -1.8896091
-11.340688 3.7372761 -1.8888123
-11.312864 3.8052173 -1.8880155
-11.322918 3.886096 -1.8937526
-11.271839 3.9460402 -1.8891311
-11.218592 4.0048404 -1.8841908
-11.187313 4.071238 -1.8830752
-11.182486 4.1473575 -1.8865812
-11.192843 4.2295022 -1.8927964
-11.127985 4.2832074 -1.8861032
-11.101495 4.3514071 -1.8861032
-11.013152 4.3949289 -1.8754257
-10.987807 4.4631648 -1.8757445
-10.994884 4.5448303 -1.8818003
-10.972251 4.6145043 -1.8827565
-10.921947 4.6724234 -1.8789318
-10.88764 4.7369885 -1.8779756
-10.88094 4.8136888 -1.8819597
-10.833192 4.8722644 -1.8787724
-10.817458 4.9452105 -1.8813221
-10.75468 4.9965191 -1.8755851
-10.742567 5.0712638 -1.8789318
-10.710358 5.1366568 -1.8787724
-10.671538 5.1988187 -1.8774974
-10.601389 5.2453761 -1.8706448
-10.583119 5.3174176 -1.8731946
-10.526548 5.370142 -1.8688918
-10.520576 5.4487042 -1.8738321
-10.491314 5.5154514 -1.8746289
-10.457274 5.579721 -1.8746289
-10.375962 5.6183982 -1.8660232
-10.384555 5.7057261 -1.8739915
-10.348487 5.7688565 -1.8738321
-10.327504 5.8405061 -1.8765413
-10.281197 5.8978701 -1.8746289
-10.231162 5.9528999 -1.872079
-10.209747 6.0245953 -1.8749477
-10.196309 6.1013207 -1.8794098
-10.160368 6.1647935 -1.8797286
-10.123192 6.2275376 -1.8798879
-10.094842 6.2958035 -1.8818003
-10.071041 6.3671212 -1.8846688
-10.044252 6.4367857 -1.8870593
-9.9888372 6.4880781 -1.8840314
-9.9892445 6.5758433 -1.8918402
-9.9306402 6.6249599 -1.8883343
-9.9135218 6.7018018 -1.8929558
-9.8860598 6.7719874 -1.895665
-9.8524323 6.8381486 -1.8972586
-9.7860613 6.8814383 -1.8924778
-9.7798367 6.9671297 -1.8996491
-9.8009462 7.0732226 -1.9123982
-9.7207003 7.1064272 -1.9050674
-9.6634254 7.1559515 -1.9023583
-9.676199 7.2577586 -1.9138325
-9.6173344 7.3062449 -1.910964
-9.5856237 7.3753519 -1.9136732
-9.5214996 7.419467 -1.9098485
-9.4812202 7.4820309 -1.910964
-9.4536428 7.5548568 -1.9147887
-9.440876 7.6400452 -1.9218007
-9.4083281 7.7097178 -1.9248286
-9.3289356 7.7408252 -1.9181354
-9.3001604 7.8137965 -1.9221195
-9.2114344 7.8361726 -1.9135138
-9.1871157 7.9131618 -1.9186134
-9.1093702 7.9440794 -1.9123982
-9.0959778 8.0311861 -1.9200478
-9.0906906 8.1263218 -1.9296095
-9.0465136 8.1872473 -1.9308845
-9.0055695 8.2512712 -1.9329562
-8.9554949 8.307045 -1.9331156
-8.886364 8.344944 -1.9291315
-8.8471565 8.4108753 -1.9318407
-8.8238354 8.4923849 -1.9382153
-8.7913599 8.5656567 -1.9426775
-8.709116 8.5903215 -1.9359841
-8.6660233 8.6533642 -1.9382153
-8.6072092 8.7007599 -1.9369403
-8.5736704 8.7738848 -1.9415619
-8.5340719 8.8412428 -1.9449086
-8.5103197 8.9255915 -1.95208
-8.4533625 8.9754858 -1.9516019
-8.4257011 9.0568199 -1.9581358
-8.3719749 9.1105289 -1.9586139
-8.3252058 9.1719608 -1.960845
-8.2595444 9.2125797 -1.9586139
-8.1976252 9.2571735 -1.9573389
-8.1874676 9.3607998 -1.9688132
-8.1059971 9.3832207 -1.9629167
-8.0469885 9.4312792 -1.962598
-7.9628849 9.4495258 -1.9560641
-7.8965435 9.4883432 -1.9539924
-7.8557281 9.557971 -1.9584545
-7.8355083 9.6535149 -1.9683352
-7.7835374 9.7106543 -1.9702475
-7.7342238 9.77139 -1.9729567
-7.6814179 9.8279963 -1.974869
-7.6173506 9.8702536 -1.9739128
-7.5662184 9.9293709 -1.9764627
-7.5104923 9.9827089 -1.9778969
-7.4573402 10.0397 -1.980128
-7.395597 10.085268 -1.980128
-7.3219976 10.114464 -1.9769408
-7.2494664 10.144743 -1.9740722
-7.196188 10.201941 -1.9766221
-7.1503778 10.270209 -1.981403
-7.0805168 10.304126 -1.9794906
-7.0232539 10.356364 -1.9812436
-6.9381614 10.367267 -1.9750284
-6.910326 10.464013 -1.9855465
-6.8432951 10.502082 -1.9847497
-6.7680488 10.527266 -1.9815624
-6.6948662 10.555257 -1.9790125
-6.6336403 10.601995 -1.980128
-6.573648 10.6509 -1.9817218
-6.5081716 10.691034 -1.9817218
-6.4526138 10.747694 -1.9849091
-6.3910723 10.794729 -1.9863433
-6.3282013 10.839709 -1.9874588
-6.2605858 10.876623 -1.9871401
-6.1888576 10.906246 -1.9855465
-6.1203756 10.941431 -1.9850683
-6.0531249 10.978779 -1.9850683
-5.9922457 11.027857 -1.9872994
-5.9221373 11.060066 -1.9865026
-5.8606119 11.108419 -1.9887338
-5.787333 11.134535 -1.9869808
-5.732852 11.197076 -1.9919211
-5.6702638 11.244382 -1.9941522
-5.5976501 11.271889 -1.9928772
-5.5249119 11.298928 -1.9916023
-5.4550509 11.331726 -1.9914429
-5.3790765 11.351603 -1.9890524
-5.3155823 11.397815 -1.9914429
-5.2377224 11.413169 -1.988415
-5.1870956 11.488279 -1.9960645
-5.1161065 11.518989 -1.9959052
-5.0658817 11.597206 -2.0041921
-5.0121613 11.668889 -2.0113635
-4.9300981 11.674869 -2.0070605
-4.8504214 11.685752 -2.0037141
-4.7752714 11.707067 -2.0022798
-4.7128973 11.759973 -2.0064232
-4.6431823 11.795099 -2.0075388
-4.5842495 11.858357 -2.0135946
-4.5096502 11.881648 -2.0127978
-4.4428649 11.925747 -2.0156662
-4.3709621 11.956491 -2.0163038
-4.2901835 11.962643 -2.0127978
-4.2235808 12.008299 -2.0161445
-4.1449919 12.019989 -2.0137539
-4.0967674 12.12095 -2.0266623
-4.0279045 12.162727 -2.029531
-3.9577692 12.201299 -2.0319214
-3.8894038 12.246054 -2.0354276
-3.8185866 12.283829 -2.037818
-3.7463028 12.317417 -2.039571
-3.6686835 12.333549 -2.0384555
-3.5954185 12.364358 -2.0398896
-3.5262311 12.409927 -2.0438738
-3.4558275 12.452258 -2.0473797
-3.3891678 12.509437 -2.0534356
-3.3176467 12.550039 -2.0567822
-3.241811 12.57494 -2.057579
-3.1633887 12.589808 -2.0567822
-3.092417 12.634871 -2.0610852
-3.0141463 12.650727 -2.060607
-2.9400332 12.684371 -2.0631568
-2.8610628 12.697356 -2.06236
-2.7830994 12.714672 -2.06236
-2.7101612 12.755651 -2.0663443
-2.6372235 12.798146 -2.070647
-2.566186 12.851844 -2.0768621
-2.4822206 12.841177 -2.0725594
-2.4042892 12.861018 -2.0733562
-2.3260322 12.879415 -2.0739937
-2.2381468 12.842871 -2.0657067
-2.1640451 12.884596 -2.0703282
-2.0843158 12.893734 -2.0696907
-2.0115287 12.947251 -2.0763841
-1.9206911 12.883189 -2.0639536
-1.8474687 12.935779 -2.070647
-1.7691303 12.954696 -2.0719218
-1.6896086 12.965307 -2.0719218
-1.6215746 13.068502 -2.0870614
-1.5316485 12.99585 -2.0736749
-1.4642591 13.11587 -2.0916831
-1.375885 13.049993 -2.0795715
-1.3024169 13.124991 -2.0904081
-1.2179251 13.090468 -2.0835555
-1.1375805 13.097695 -2.0835555
-1.0543343 13.069004 -2.0778184
-0.97742641 13.119529 -2.0849898
-0.8941474 13.084898 -2.0784559
-0.81519151 13.111814 -2.0819619
-0.73555225 13.131355 -2.0843523
-0.65545785 13.145481 -2.0859461
-0.57375091 13.125585 -2.0821211
-0.4922758 13.104195 -2.0781372
-0.4117676 13.104009 -2.0776591
-0.33235443 13.145764 -2.0840335
-0.25202793 13.165323 -2.0869021
-0.17128088 13.169583 -2.0873802
-0.090497851 13.174335 -2.0880177
-0.0096591972 13.173655 -2.0878584
0.071167707 13.172479 -2.0876989
0.15193437 13.166859 -2.0869021
0.23254767 13.155807 -2.0853086
0.31286675 13.137356 -2.0825994
0.39361781 13.140122 -2.0833962
0.47370291 13.122661 -2.0810056
0.55200642 13.067231 -2.0725594
0.63379639 13.097124 -2.0779777
0.71269602 13.066374 -2.0736749
0.79279661 13.060769 -2.0735157
0.87410599 13.073389 -2.0763841
0.95409071 13.064826 -2.075906
1.0311984 13.020345 -2.0696907
1.1125815 13.031478 -2.0725594
1.19297 13.029321 -2.0733562
1.2747183 13.040424 -2.0763841
1.3539945 13.025484 -2.0752685
1.4274081 12.958054 -2.0657067
1.5114536 12.988276 -2.0720813
1.5922006 12.987576 -2.0735157
1.6629072 12.908043 -2.0622008
1.7526473 12.975863 -2.0749497
1.8235315 12.903282 -2.0649099
1.9123256 12.957286 -2.0755873
1.9911935 12.941405 -2.0749497
2.0693145 12.921145 -2.0736749
2.1401308 12.857566 -2.065388
2.2087331 12.784851 -2.0556667
2.2927058 12.802154 -2.0607665
2.3560987 12.706308 -2.0473797
2.4184022 12.610169 -2.0339932
2.5329516 12.782962 -2.0649099
2.6097562 12.759442 -2.0636349
2.688405 12.74512 -2.0639536
2.7508333 12.656033 -2.0520015
2.8502095 12.736218 -2.0680971
2.8953044 12.575144 -2.0443518
2.9828687 12.601333 -2.0516827
3.0573337 12.571281 -2.0497704
3.1356077 12.557075 -2.0505672
3.2162728 12.551944 -2.0529575
3.287961 12.511922 -2.0496109
3.367238 12.501044 -2.0512044
3.4370527 12.455404 -2.047061
3.5131445 12.433131 -2.0469017
3.5868986 12.402805 -2.0454674
3.6525712 12.345536 -2.039571
3.7231081 12.305883 -2.0367024
3.7988369 12.283751 -2.0368617
3.874732 12.262093 -2.0371804
3.9489882 12.235269 -2.0367024
4.0193539 12.196743 -2.034312
4.1007247 12.191502 -2.0376587
4.1571879 12.112885 -2.0285747
4.2366519 12.102058 -2.0311246
4.3005409 12.047011 -2.0261843
4.3774171 12.028747 -2.0276186
4.4415302 11.975743 -2.0231564
4.5159755 11.951036 -2.0236344
4.5895753 11.924023 -2.0237939
4.670218 11.914939 -2.0271406
4.7304335 11.853967 -2.0215628
4.7900767 11.792706 -2.015985
4.8544264 11.743933 -2.0126383
4.9145308 11.685715 -2.0076981
4.9729395 11.624478 -2.0022798
5.057169 11.62362 -2.0075388
5.1387782 11.615845 -2.0116823
5.1941638 11.548981 -2.0054669
5.2776523 11.544726 -2.0104072
5.3562927 11.529138 -2.0134351
5.4088125 11.457666 -2.0065825
5.4589505 11.382425 -1.9990925
5.5321479 11.355816 -2.0003674
5.5837731 11.285378 -1.9938334
5.6839371 11.312655 -2.0049889
5.7263274 11.224801 -1.995427
5.7955475 11.190331 -1.9955864
5.8429708 11.114363 -1.9882556
5.9115219 11.079172 -1.988415
5.9836216 11.050505 -1.9898493
6.0432324 10.998873 -1.9871401
6.1029158 10.947788 -1.9845903
6.1524816 10.879199 -1.9788531
6.2166634 10.836962 -1.9780563
6.2880049 10.807146 -1.97965
6.3526931 10.76581 -1.9791719
6.4155898 10.721544 -1.9782157
6.4909844 10.698014 -1.9812436
6.5435734 10.636963 -1.9772595
6.5653586 10.527084 -1.9640323
6.629828 10.486602 -1.9640323
6.6839275 10.429932 -1.9610044
6.7515626 10.394519 -1.9621199
6.8206429 10.361143 -1.9637135
6.8884721 10.325667 -1.9649885
6.9516997 10.283206 -1.9649885
7.0062971 10.228141 -1.962598
7.0616069 10.174415 -1.9605262
7.11936 10.124434 -1.9592514
7.1779118 10.075735 -1.9582951
7.23209 10.021095 -1.9562234
7.2940249 9.9773283 -1.9563828
7.3533449 9.9300051 -1.9559047
7.4052505 9.8728523 -1.9535142
7.4477749 9.8036451 -1.9487333
7.5114007 9.7624559 -1.9496895
7.5620589 9.7045021 -1.947299
7.6196275 9.6555948 -1.946821
7.6657877 9.5924644 -1.9434743
7.7040086 9.5199213 -1.9382153
7.7528911 9.4610176 -1.9358248
7.8051233 9.4064312 -1.9343905
7.8493581 9.3424892 -1.9310439
7.8956604 9.2813673 -1.9283347
7.9324894 9.2095566 -1.9233943
7.9713302 9.1406212 -1.9190916
8.0279198 9.0922775 -1.919251
8.0736885 9.0318079 -1.9168605
8.1302795 8.9835625 -1.9171792
8.1779127 8.9254999 -1.9154261
8.2244682 8.8664675 -1.9135138
8.2719593 8.8086395 -1.9119202
8.3340149 8.766304 -1.9138325
8.3835402 8.7107344 -1.9128764
8.4058285 8.6273098 -1.905705
8.4551411 8.5720558 -1.9049081
8.5089741 8.5214119 -1.9052268
8.5470638 8.4551554 -1.9020395
8.5698347 8.3742628 -1.8955057
8.6025896 8.3036947 -1.8913622
8.6526632 8.2500725 -1.8912028
8.6966543 8.1907339 -1.8897685
8.7192822 8.1116648 -1.8837126
8.7550793 8.0453196 -1.8806847
8.7940464 7.9821582 -1.8784536
8.8472691 7.932003 -1.8794098
8.8965111 7.8782225 -1.8795692
8.8993568 7.7838383 -1.869848
8.9768314 7.7549019 -1.8762225
9.0197392 7.6958303 -1.8752663
9.0637712 7.6377969 -1.8746289
9.0945301 7.5687766 -1.8712822
9.1224966 7.497786 -1.8674575
9.1575994 7.43296 -1.8652264
9.2045755 7.3778648 -1.8655452
9.2427053 7.3157334 -1.8641108
9.2718639 7.2467241 -1.8609235
9.305994 7.1818557 -1.8588518
9.3349676 7.1132507 -1.8558239
9.3863268 7.0617738 -1.8574176
9.4223471 6.9987493 -1.8559833
9.4754629 6.9483929 -1.858055
9.4779358 6.8611755 -1.8500868
9.4997768 6.7885408 -1.8461027
9.5412521 6.7301235 -1.8461027
9.5718355 6.6641192 -1.844031
9.6223087 6.6119719 -1.8459433
9.6994648 6.5777411 -1.8531147
9.6822128 6.4796658 -1.8419592
9.7094326 6.411974 -1.8395687
9.7345324 6.3431149 -1.8368596
9.7558308 6.2720532 -1.8335129
9.7849617 6.2062578 -1.8317599
9.8655396 6.1728091 -1.8398875
9.8990288 6.1095662 -1.8390907
9.9295845 6.0446053 -1.8378158
9.9656401 5.9830565 -1.8376564
9.9860239 5.9122391 -1.8346285
10.102252 5.8976436 -1.8496087
10.160495 5.848352 -1.8537521
10.118056 5.7415581 -1.83925
10.166018 5.6865964 -1.8416405
10.2085 5.6284018 -1.8430748
10.289684 5.5911117 -1.8516804
10.287244 5.5082965 -1.8449872
10.309498 5.4390826 -1.8429154
10.326035 5.3670712 -1.8398875
10.397436 5.3234081 -1.8468995
10.476622 5.2830706 -1.8553458
10.484084 5.2063928 -1.8508836
10.539778 5.1536751 -1.8551865
10.579206 5.0927615 -1.8566208
10.587062 5.0167603 -1.8524773
10.624802 4.9550433 -1.8537521
10.626294 4.8765802 -1.8486525
10.670412 4.8177872 -1.8512024
10.733154 4.7670517 -1.8570988
10.773963 4.7062426 -1.8591706
10.739142 4.6127706 -1.8480151
10.746326 4.5379558 -1.8443497
10.776704 4.4730678 -1.8448278
10.814002 4.4109607 -1.8465807
10.878435 4.3595824 -1.8531147
10.921515 4.2992611 -1.8559833
10.955055 4.2350149 -1.8572582
10.992833 4.1722708 -1.8593299
11.030252 4.1092219 -1.8614017
11.032079 4.0329895 -1.8574176
11.087283 3.9762208 -1.8626766
11.086327 3.8992708 -1.8583738
11.101645 3.8282762 -1.8569394
11.119314 3.758189 -1.8559833
11.125296 3.6843045 -1.8531147
11.190888 3.6299846 -1.8604455
11.192251 3.5546753 -1.8569394
11.250617 3.4973643 -1.8631546
11.266198 3.4265423 -1.8621985
11.296474 3.3601646 -1.8637922
11.258105 3.273695 -1.8539115
11.306469 3.2126508 -1.8586925
11.332627 3.1450634 -1.859808
11.35457 3.0762432 -1.8602861
11.380868 3.0085335 -1.8615611
11.388598 2.9359341 -1.859808
11.395866 2.863353 -1.858055
11.436234 2.7990086 -1.8618797
11.454154 2.7290134 -1.8620391
11.497612 2.6649232 -1.8665013
11.531082 2.5982316 -1.8693699
11.559344 2.5301738 -1.8714416
11.578514 2.4600203 -1.872079
11.581788 2.3865383 -1.8701667
11.579756 2.3121421 -1.8674575
11.587909 2.239922 -1.8665013
11.660629 2.1798458 -1.8762225
11.657269 2.1052732 -1.8735133
11.688446 2.036927 -1.8765413
11.676385 1.9610809 -1.8725572
11.668707 1.8862475 -1.8693699
11.700547 1.8177975 -1.8727165
6.1077847 0.91036683 -0.95812482
0 0 -0
0 0 -0
5.912056 0.77022588 -0.92370212
5.9019752 0.73211181 -0.92131162
5.8877282 0.69368815 -0.9182837
0 0 -0
0 0 -0
0 0 -0
0 0 -0
0 0 -0
0 0 -0
0 0 -0
0 0 -0
0 0 -0
0 0 -0
0 0 -0
0 0 -0
0 0 -0
0 0 -0
0 0 -0
0 0 -0
0 0 -0
0 0 -0
0 0 -0
0 -0 -0
0 -0 -0
0 -0 -0
0 -0 -0
0 -0 -0
0 -0 -0
0 -0 -0
0 -0 -0
0 -0 -0
0 -0 -0
5.9556165 -0.39841947 -0.92481768
5.9668441 -0.43596116 -0.92704874
5.9876761 -0.47443473 -0.93087351
5.9905539 -0.51166916 -0.93182969
0 -0 -0
6.0919032 -0.59570557 -0.94935977
10.322225 -1.0730752 -1.6365386
10.256569 -1.129907 -1.6269767
10.375941 -1.2075356 -1.6475347
10.356578 -1.2697374 -1.6456224
10.363278 -1.3351518 -1.6480129
10.387177 -1.4030743 -1.6532719
10.346114 -1.4622246 -1.6480129
10.329134 -1.5245268 -1.6467379
10.336173 -1.5904282 -1.6494472
10.293077 -1.648513 -1.6440288
10.267186 -1.7090461 -1.6414789
10.258452 -1.7723483 -1.6417977
10.222118 -1.8307356 -1.6376542
10.20681 -1.8927029 -1.6370168
10.18337 -1.9530642 -1.6351043
10.171194 -2.0155115 -1.6351043
10.165406 -2.0792673 -1.6362199
10.117682 -2.1342678 -1.6304828
10.115972 -2.1988244 -1.6323951
8.3122978 -1.8603326 -1.3362963
10.055517 -2.3152673 -1.6269767
10.059375 -2.3812432 -1.6300046
10.059922 -2.4466538 -1.6325545
10.047594 -2.5090516 -1.6330327
10.007145 -2.5642848 -1.6288892
7.4523826 -1.9585508 -1.2051395
9.9873161 -2.6902323 -1.6309609
9.987751 -2.7561891 -1.6338295
9.9858522 -2.8217156 -1.6363792
9.9778337 -2.8856769 -1.637973
9.9447937 -2.9423645 -1.6354231
7.9828334 -2.415329 -1.3076108
7.939568 -2.4555159 -1.3028297
7.9158797 -2.501509 -1.3013955
7.9116559 -2.5536711 -1.3033079
8.7181387 -2.8731234 -1.4430704
9.8194618 -3.3029492 -1.6336701
9.7896729 -3.3599339 -1.6320764
9.7530317 -3.4143939 -1.6293672
9.7133026 -3.4675357 -1.6261799
9.6844215 -3.5243695 -1.624905
7.6540141 -2.8388534 -1.2790846
9.6118145 -3.6321301 -1.6199647
9.5663137 -3.682174 -1.6159806
9.525157 -3.7335975 -1.6127933
9.4745617 -3.7809963 -1.6080124
9.5106363 -3.8632069 -1.6183711
9.4977016 -3.9260156 -1.6202835
9.5107441 -3.9999087 -1.6268175
9.5032673 -4.065567 -1.6298454
9.489006 -4.1285276 -1.6317577
9.4797459 -4.193862 -1.6346263
9.4547348 -4.2523546 -1.6347857
9.3988361 -4.2967439 -1.6295266
9.334691 -4.336864 -1.6228333
9.2900496 -4.3856311 -1.6196461
9.2558432 -4.439136 -1.6183711
9.2222185 -4.4928188 -1.6172556
9.1581984 -4.5313721 -1.6107216
9.1099329 -4.5772872 -1.6070563
9.1089373 -4.6470051 -1.6119965
9.0784988 -4.701901 -1.6116778
9.0529737 -4.7593546 -1.6123153
8.9695978 -4.7860012 -1.6024346
8.9409304 -4.8414173 -1.602594
8.9344177 -4.9090214 -1.6068969
8.8635998 -4.9411588 -1.5994067
8.8064747 -4.9803872 -1.5944664
8.7534857 -5.0215578 -1.590323
8.7293348 -5.0791454 -1.5915979
8.7311659 -5.1521773 -1.5978131
8.6815977 -5.1950092 -1.5944664
8.629302 -5.2358909 -1.5906417
8.5970125 -5.2887406 -1.5906417
8.5769644 -5.3492274 -1.5930321
8.5139408 -5.3827629 -1.5872951
8.4732714 -5.4301085 -1.5858607
8.4257183 -5.472856 -1.5831516
8.4035234 -5.5320511 -1.5853827
8.3612089 -5.578032 -1.5837891
8.3071957 -5.6159611 -1.5799643
8.2733955 -5.6673856 -1.5801237
8.1581726 -5.6623197 -1.5643466
8.1450796 -5.727602 -1.5686494
8.1282759 -5.7906451 -1.5723149
8.0885897 -5.837522 -1.5715179
8.0382738 -5.8765559 -1.5686494
8.0028572 -5.9263549 -1.5688088
7.981349 -5.9866023 -1.5718367
7.8721428 -5.9805222 -1.5571752
7.8587718 -6.046772 -1.5619562
7.8347602 -6.1051936 -1.5646653
7.7491021 -6.1152363 -1.5547848
7.734571 -6.1811576 -1.5595657
7.6665683 -6.2042804 -1.5533504
7.6291189 -6.2518301 -1.5535098
7.5883355 -6.2966328 -1.5530317
7.5306606 -6.3271999 -1.5490476
7.4856801 -6.3681707 -1.5477728
7.4756374 -6.4391079 -1.553988
7.4263144 -6.4764218 -1.5519162
7.3782954 -6.5146794 -1.5501631
7.3256707 -6.5486445 -1.547454
7.2685151 -6.5782351 -1.5437886
7.2323828 -6.6267118 -1.5447448
7.2328424 -6.7092309 -1.5538286
7.1785851 -6.7413206 -1.5509601
7.1499653 -6.7974839 -1.5538286
7.0604634 -6.795362 -1.5431511
6.9960074 -6.8165107 -1.5380515
6.9308558 -6.8364325 -1.5327924
6.8594365 -6.849534 -1.5260992
6.8145022 -6.8886867 -1.5254617
6.7486458 -6.906364 -1.5200434
6.7054567 -6.9469328 -1.519884
6.6974497 -7.024384 -1.5280116
6.6461005 -7.0567226 -1.5260992
6.5972962 -7.0915875 -1.5248243
6.5282745 -7.1043124 -1.5187684
6.4334683 -7.0879502 -1.5064974
2.1805871 -2.4326372 -0.48863757
2.1636562 -2.443754 -0.48815948
2.1486208 -2.456984 -0.48815948
6.1627107 -7.1338859 -1.4830709
6.0989571 -7.1482849 -1.4781305
6.0899711 -7.2270923 -1.4868956
6.0581427 -7.2794995 -1.4900829
6.0641389 -7.3783092 -1.5029913
6.0417728 -7.4437394 -1.5088879
6.0348849 -7.5291991 -1.5189278
5.9695787 -7.5420909 -1.5139875
2.0103395 -2.5726099 -0.48831883
1.9860719 -2.5739555 -0.48608774
1.9708395 -2.5868785 -0.48624709
1.9513683 -2.5941894 -0.48529091
1.9383574 -2.6100764 -0.48608774
1.8388199 -2.50808 -0.46329865
1.823396 -2.5193155 -0.46329865
1.8251235 -2.5545521 -0.46807957
5.5732136 -7.9012275 -1.5221151
5.5285764 -7.9409466 -1.5232307
5.4529095 -7.9356661 -1.5155811
5.4296041 -8.0065584 -1.5229119
5.3633528 -8.0142899 -1.5179716
5.3059158 -8.0346918 -1.5155811
5.2592111 -8.0712328 -1.5163779
5.1866302 -8.0676432 -1.5095253
5.1439047 -8.1101542 -1.511597
1.782868 -2.849961 -0.50393653
1.7643104 -2.8591666 -0.50361782
1.7523806 -2.879214 -0.5053708
1.7377301 -2.8949907 -0.50632697
4.886168 -8.2530823 -1.5095253
4.8319521 -8.2769403 -1.5084097
4.7761493 -8.2978764 -1.5068161
4.7397623 -8.3527842 -1.511597
4.6855297 -8.3765402 -1.5106409
4.6526346 -8.4388485 -1.5168561
4.5710707 -8.41259 -1.5068161
4.5333471 -8.466588 -1.511597
4.4767051 -8.4855137 -1.5100033
4.41818 -8.5005589 -1.5077723
4.3672881 -8.5301447 -1.5082504
4.3273129 -8.5814619 -1.5127126
4.2477903 -8.5539179 -1.5029913
4.1835151 -8.5558748 -1.4986885
4.1296539 -8.5787153 -1.4982104
4.0837026 -8.6181669 -1.5007602
4.0340838 -8.650219 -1.5020351
3.9854608 -8.6846781 -1.5037881
3.9353478 -8.7161674 -1.5050631
3.8849983 -8.7473679 -1.506338
3.8280907 -8.7638035 -1.5050631
3.7578797 -8.7490301 -1.4983698
3.7110393 -8.7882938 -1.5012383
3.6593163 -8.81637 -1.5021945
3.6006765 -8.8276873 -1.5002822
3.5431378 -8.8413677 -1.4988478
3.4899063 -8.8656969 -1.499326
3.4325938 -8.8795776 -1.498051
3.380147 -8.9060106 -1.4990072
3.3223352 -8.9182568 -1.497573
3.2641613 -8.929203 -1.4959793
3.206645 -8.9416294 -1.4947044
3.1533577 -8.9657927 -1.4955013
3.0953884 -8.976573 -1.494067
3.0446768 -9.0084906 -1.4962981
3.000829 -9.061677 -1.5021945
2.9433432 -9.0742855 -1.5012383
2.8675852 -9.0291348 -1.4905609
2.8153534 -9.0569296 -1.492314
2.7706454 -9.1099243 -1.4983698
2.7146957 -9.1267529 -1.4983698
2.6492705 -9.1110086 -1.4929514
2.598444 -9.1451349 -1.4959793
2.5478263 -9.1808834 -1.499326
2.4860234 -9.1763334 -1.4959793
2.423111 -9.1665993 -1.4918358
2.3670666 -9.182251 -1.4919952
2.3099592 -9.1937294 -1.4915171
2.2518609 -9.2010183 -1.4904016
2.1976504 -9.2242651 -1.4919952
2.1405642 -9.2356529 -1.4916764
2.084506 -9.251502 -1.4921546
0.57052851 -2.6079631 -0.39222217
0.55184793 -2.5988612 -0.39015043
0.53290218 -2.5876949 -0.38775995
0.51720768 -2.5918841 -0.38791934
0.50166923 -2.5969474 -0.38823804
0.48645097 -2.6038582 -0.38887551
0.47239518 -2.6174805 -0.39062852
0.45988563 -2.6407535 -0.39397517
0.44171104 -2.6318426 -0.39206278
0.42839032 -2.6520455 -0.39493135
0.41529298 -2.6751099 -0.398278
0.40076381 -2.6903014 -0.40034974
0.39122924 -2.7415745 -0.40831795
0.36718509 -2.6911042 -0.39971229
0.35513198 -2.7275693 -0.40529004
0.33571416 -2.7081437 -0.40178403
1.1092008 -9.4123764 -1.4911984
0.92564869 -8.2926779 -1.3082482
0.87392002 -8.2903471 -1.3069732
0.82147473 -8.2798347 -1.3044235
0.74824136 -8.043891 -1.2653792
0.67896062 -7.8191719 -1.2282473
0.63033497 -7.8153186 -1.2269723
0.58302957 -7.8278995 -1.2284067
0.53875822 -7.8864851 -1.237331
0.58431423 -9.4001312 -1.4816365
0.1972141 -3.5259714 -0.53134722
0.17537867 -3.5231712 -0.53070974
0.41015413 -9.385623 -1.4778118
0.35504237 -9.4540606 -1.4884892
0.25723821 -8.1910706 -1.2841842
0.23874995 -9.4478359 -1.4868956
0.18077461 -9.4491234 -1.4868956
0.12271528 -9.4441319 -1.4859394
0.064785294 -9.447669 -1.4864174
0.0068127629 -9.4459143 -1.4860988
-0.051141102 -9.4447908 -1.4859394
-0.10933086 -9.4650297 -1.4892861
-0.16764899 -9.4779997 -1.4915171
-0.22573131 -9.4738312 -1.491039
-0.28350306 -9.4604263 -1.4891267
-0.34207955 -9.4733076 -1.4915171
-0.40074152 -9.4838524 -1.4935888
-0.45873505 -9.4772711 -1.4929514
-0.51693159 -9.4752636 -1.4931108
-0.57601756 -9.4876804 -1.4956605
-0.6344195 -9.4869223 -1.4961387
-0.69204324 -9.4749737 -1.4948637
-0.75110251 -9.4823589 -1.4967761
-0.8086834 -9.470686 -1.4956605
-0.86452961 -9.4409685 -1.4916764
-0.92493838 -9.4610319 -1.4958199
-0.98031968 -9.4296484 -1.4916764
-1.0407541 -9.4470062 -1.4955013
-1.099841 -9.4502487 -1.4970949
-1.1582863 -9.4472418 -1.4977323
-1.2159795 -9.4379988 -1.4974136
-1.277302 -9.4557972 -1.5015571
-1.3354357 -9.4487591 -1.5017165
-1.3945401 -9.4482002 -1.5029913
-1.4562393 -9.4638596 -1.5069754
-1.5060086 -9.4030809 -1.4985292
-0.495202 -2.9732223 -0.4478403
-0.51612461 -2.985693 -0.45039013
-0.53669673 -2.9951026 -0.45246187
-0.55938327 -3.0150495 -0.45628661
-0.57805866 -3.0125301 -0.45644596
-1.8767984 -9.4710426 -1.519884
-1.9141077 -9.3577929 -1.5031507
-1.9712863 -9.3449059 -1.5029913
-2.0279593 -9.3297396 -1.5025133
-0.65165675 -2.9105284 -0.44274065
-0.66883874 -2.903589 -0.44226256
-0.67709261 -2.8590817 -0.43556926
-2.261677 -9.2992249 -1.5061786
-2.3167803 -9.2775097 -1.5049037
-2.382483 -9.2975473 -1.5106409
-0.76561916 -2.9122601 -0.44736221
-0.78450096 -2.9113204 -0.44799966
-0.7944724 -2.8779023 -0.44321874
-0.80889499 -2.861573 -0.44130635
-0.82067907 -2.8366401 -0.43795973
-2.7410085 -9.2641411 -1.5208402
-2.7797918 -9.1876173 -1.5108002
-2.8492379 -9.2128305 -1.5179716
-1.0164533 -3.215719 -0.50568956
-1.0367718 -3.2113006 -0.50600827
-3.0136988 -9.1447601 -1.5155811
-3.0631444 -9.1064463 -1.5122344
-3.1180017 -9.0846786 -1.5117564
-1.127663 -3.2202976 -0.5120641
-1.1364493 -3.1826355 -0.50680512
-3.2826672 -9.0201807 -1.5108002
-3.3626668 -9.066514 -1.5222744
-1.1613412 -3.0725222 -0.49150613
-1.1822995 -3.0708666 -0.49246231
-1.1903126 -3.0359797 -0.48768139
-1.2122114 -3.0368712 -0.48911566
-3.6247098 -8.9234266 -1.5160593
-3.6899533 -8.9265633 -1.5205214
-3.7370026 -8.8855534 -1.5173341
-3.7887352 -8.8561029 -1.5162185
-3.839853 -8.8254471 -1.5149437
-3.8895397 -8.7917891 -1.5131906
-3.943007 -8.7668571 -1.5130312
-1.3101025 -2.8650916 -0.46983257
-1.3284894 -2.8587897 -0.47015131
-1.3426344 -2.8434422 -0.46887639
-4.1433086 -8.6389656 -1.5079316
-4.2338514 -8.6905947 -1.5217963
-4.2897229 -8.6697617 -1.5227525
-4.3375206 -8.6326914 -1.5208402
-4.3922024 -8.6094313 -1.5214776
-4.4499397 -8.5919628 -1.5232307
-4.4970632 -8.5540104 -1.5213182
-4.5675888 -8.5602255 -1.5275334
-4.6256676 -8.5424557 -1.5294458
-4.6637354 -8.4879551 -1.5246649
-4.6681433 -8.3738108 -1.5088879
-4.6795888 -8.2745447 -1.4958199
-4.7027645 -8.1977205 -1.4868956
-4.7321253 -8.1328716 -1.4802022
-4.7428079 -8.0373631 -1.4677719
-4.7768283 -7.9826956 -1.4629909
-4.7980671 -7.9076581 -1.4543853
-4.8449459 -7.875546 -1.4539071
-4.8795958 -7.8238902 -1.4497637
-4.9195976 -7.7812853 -1.4473732
-4.965652 -7.7484593 -1.4468951
-5.0114889 -7.7153606 -1.446417
-5.0609064 -7.6877642 -1.4470545
-5.1068869 -7.6549239 -1.4467357
-5.1659236 -7.641438 -1.4502418
-5.2166185 -7.6152978 -1.4513574
-5.3155932 -7.6585727 -1.4661782
-5.3920126 -7.6678061 -1.4744651
-5.480773 -7.693274 -1.4860988
-5.5382733 -7.6739097 -1.4889673
-5.6004028 -7.6605043 -1.4931108
-5.6719756 -7.6593194 -1.499804
-5.7419667 -7.6551738 -1.5060192
-5.8204799 -7.6614618 -1.5144656
-5.9167433 -7.689764 -1.5275334
-6.053618 -7.7685676 -1.5511193
-1.7463861 -2.2125235 -0.41628617
-1.7574638 -2.1986811 -0.41564873
-6.1539788 -7.6044064 -1.540442
-6.2831154 -7.6672993 -1.561478
-6.3243694 -7.6217647 -1.5600438
-6.3799071 -7.5933981 -1.5622748
-6.3918381 -7.5135026 -1.5536692
-6.444262 -7.4816217 -1.5552628
-6.5153518 -7.4709578 -1.561478
-6.5643368 -7.4345403 -1.5622748
-6.6262784 -7.4125233 -1.566259
-6.6795855 -7.3805094 -1.5681714
-6.7414179 -7.357583 -1.5721555
-6.789793 -7.3196988 -1.5729523
-6.8460665 -7.2901344 -1.5756614
-6.8940697 -7.2515678 -1.5764583
-6.900784 -7.1700072 -1.5676932
-6.9756494 -7.1593499 -1.5748646
-7.0284591 -7.1255507 -1.5769364
-7.083209 -7.0934682 -1.5794863
-7.1364255 -7.0595932 -1.5817174
-3.4600997 -3.3808036 -0.74218619
-3.4275081 -3.3080859 -0.73023385
-3.3705788 -3.2134151 -0.71302253
-3.4434116 -3.2427621 -0.72481549
-7.4161143 -6.8992286 -1.5963788
-3.5040257 -3.2196343 -0.72943705
-3.5207913 -3.1954193 -0.72879958
-3.4484525 -3.0913763 -0.70887905
-3.3867981 -2.9988167 -0.69150829
-3.3925028 -2.9669299 -0.68879914
-3.4098966 -2.9454126 -0.68863976
-4.8675432 -4.1528478 -0.99414116
-3.768883 -3.175631 -0.75684768
-3.8087847 -3.1694973 -0.76115054
-4.9614625 -4.0775933 -0.99796587
-4.8675838 -3.9506364 -0.9732644
-4.8832598 -3.913903 -0.97151142
-4.8723502 -3.8562937 -0.96434003
-4.8826976 -3.8159895 -0.96163082
-5.0021472 -3.8601489 -0.98123264
-5.0555768 -3.8521218 -0.98728848
-4.9970756 -3.7593005 -0.97071457
-5.1254497 -3.8068643 -0.99191004
-5.2338934 -3.8378119 -1.008962
-5.2333536 -3.7882574 -1.004181
-5.2195525 -3.7296705 -0.99685031
-5.247179 -3.7009883 -0.99780649
-5.0648141 -3.5260038 -0.95748734
-5.2905736 -3.6352003 -0.99748778
-5.3430095 -3.623172 -1.0033842
-5.2338724 -3.5024643 -0.97788596
-5.2635026 -3.4757245 -0.97947961
-5.2375851 -3.4126403 -0.97039586
-5.3040977 -3.4098036 -0.9791609
-5.3307557 -3.3808956 -0.98027647
-5.3279676 -3.3334603 -0.97581422
-5.3416004 -3.2965574 -0.97453934
-5.5480843 -3.3771732 -1.0097588
-5.551774 -3.3329036 -1.0065715
-5.3996754 -3.1966717 -0.97422057
-5.3893485 -3.1460583 -0.96864283
-5.3520823 -3.0804248 -0.95812482
-5.3837614 -3.0548358 -0.96051526
-5.4213586 -3.0323477 -0.96402127
-5.7398477 -3.1644344 -1.0193207
-5.4260674 -2.9481504 -0.95812482
-5.6024485 -2.9996197 -0.98712909
-5.6521811 -2.9817722 -0.99286622
-5.6668668 -2.9452136 -0.99222875
-5.6118975 -2.8730421 -0.97900152
-5.513948 -2.7803195 -0.95812482
-5.6263957 -2.7938592 -0.97533613
-5.6567354 -2.765789 -0.97772664
-5.6051078 -2.6980536 -0.96545553
-5.8204985 -2.7578888 -1.0009938
-5.7979445 -2.7037621 -0.99398178
-5.755208 -2.6409574 -0.9834637
-5.7928982 -2.615345 -0.98728848
-5.7925963 -2.5725377 -0.98441988
-5.8878827 -2.5717249 -0.99844396
-5.9307637 -2.5472386 -1.0032248
-5.9562855 -2.5150251 -1.0049779
-5.9524579 -2.4704823 -1.0016313
-6.1302118 -2.5002861 -1.0299981
-5.9768281 -2.3950469 -1.0006751
-6.1062355 -2.4035339 -1.0205956
-5.9744616 -2.3094177 -0.99525666
-5.9340649 -2.2520454 -0.98585421
-6.0708089 -2.2614338 -1.0070497
-6.0780802 -2.2217684 -1.0059341
-6.0897398 -2.1837656 -1.0056154
-6.1467948 -2.1617551 -1.0131055
-6.21874 -2.1442759 -1.0231454
-6.0494094 -2.0444322 -0.99206942
-6.283946 -2.0808372 -1.0298387
-6.3473039 -2.0586908 -1.0384444
-6.3729887 -2.0238898 -1.0406755
-6.3098702 -1.9613008 -1.0279263
-6.3982897 -1.9458183 -1.0408349
-6.4328179 -1.9132783 -1.0446596
-6.4586558 -1.8779066 -1.0470501
-6.5754647 -1.8681964 -1.0647395
-6.5287771 -1.811709 -1.0550183
-6.5473933 -1.7736807 -1.0562932
-6.6669579 -1.7622397 -1.0744607
-6.8229508 -1.7587632 -1.0986841
-6.9197845 -1.7385198 -1.1130269
-7.1652541 -1.7535361 -1.1520711
-7.5187168 -1.7912333 -1.2089642
-8.0940943 -1.8759323 -1.3025111
-8.107379 -1.8266667 -1.3028297
-8.3199902 -1.8210111 -1.3361369
-9.0504217 -1.9228017 -1.4548633
-9.0204725 -1.8586644 -1.4480107
-9.5612602 -1.9090358 -1.535183
-9.9924879 -1.9314741 -1.6041877
-10.489353 -1.9608458 -1.6838698
-10.65177 -1.9236474 -1.7085713
-10.816063 -1.8848678 -1.7335914
-11.068872 -1.8590263 -1.7731138
-11.57515 -1.8711206 -1.8540709
-12.063437 -1.8741888 -1.932
-12.080569 -1.8010073 -1.9329562
-12.093347 -1.7271276 -1.933275
-12.056767 -1.6464785 -1.9256254
-12.060768 -1.571703 -1.9246693
-12.033936 -1.493171 -1.9187728
-12.047773 -1.4198819 -1.9195696
-12.112183 -1.3521765 -1.9286534
-12.111416 -1.2769002 -1.9272192
-12.137688 -1.2044147 -1.9302471
-12.141901 -1.1296421 -1.9297689
-12.158439 -1.0559741 -1.9313626
-12.127296 -0.97833365 -1.9253068
-12.109443 -0.90214252 -1.921482
-12.114751 -0.8278234 -1.921482
-12.081175 -0.75108278 -1.9152668
-12.123997 -0.67909443 -1.921482
-12.118075 -0.60419822 -1.9198884
-12.126486 -0.53004748 -1.9206852
-12.13247 -0.45574203 -1.9211633
-12.118263 -0.3807624 -1.9184541
-11.209744 0.82399571 -1.9187237
-11.236885 0.89534748 -1.924386
-11.239032 0.96495384 -1.9257587
-11.240747 1.0346203 -1.9271314
-11.218501 1.10203 -1.924386
-11.205648 1.1702302 -1.9233565
-11.188465 1.2378803 -1.9216406
-11.172832 1.3055927 -1.9202679
-11.177321 1.375689 -1.9224986
-11.164762 1.4437401 -1.9218123
-11.146907 1.5110267 -1.9202679
-11.090607 1.5727501 -1.9120319
-11.083671 1.6412044 -1.9125466
-11.090918 1.7118886 -1.9156352
-11.048106 1.7747492 -1.9099729
-11.013687 1.8386101 -1.9058548
-11.011906 1.9078369 -1.9075707
-11.00484 1.9762399 -1.9084285
-10.972167 2.0399435 -1.9048253
-10.959444 2.107229 -1.9048253
-10.934712 2.1721306 -1.9027663
-10.929865 2.2409656 -1.9043106
-10.889885 2.3024828 -1.8996778
-10.887103 2.3717761 -1.9017367
-10.877151 2.4396119 -1.9025947
-10.865817 2.5071933 -1.9032811
-10.854063 2.5747275 -1.9039674
-10.818918 2.6366112 -1.9005357
-10.824517 2.7084475 -1.9044821
-10.811511 2.7757947 -1.9051685
-10.795228 2.8423316 -1.9053401
-10.797559 2.913909 -1.9089434
-10.766182 2.9764299 -1.9065411
-10.736342 3.0392127 -1.9044821
-10.721276 3.1061296 -1.9051685
-10.692571 3.1690552 -1.9034526
-10.632384 3.2223129 -1.8960744
-10.625587 3.291574 -1.8984767
-10.625853 3.3632519 -1.9022515
-10.612515 3.4308126 -1.9036242
-10.579103 3.4918497 -1.9013937
-10.564947 3.5592132 -1.9027663
-10.529866 3.6194866 -1.900364
-10.500022 3.6814201 -1.8989915
-10.467031 3.7421284 -1.897104
-10.45498 3.8103316 -1.899163
-10.434174 3.8754399 -1.8996778
-10.398221 3.9348557 -1.8974471
-10.385831 4.0031915 -1.8996778
-10.314304 4.0484796 -1.890927
-10.313969 4.1215639 -1.8955597
-10.299436 4.1892271 -1.8976188
-10.257153 4.2455606 -1.8945302
-10.271765 4.3256278 -1.9022515
-10.214241 4.37538 -1.8964176
-10.163721 4.4277387 -1.8919564
-10.14717 4.4948077 -1.8940154
-10.117602 4.5561757 -1.8936722
-10.083186 4.6152997 -1.8924712
-10.021628 4.6617045 -1.8861226
-9.9803667 4.7172136 -1.8837203
-9.9512348 4.7783632 -1.8837203
-9.9385509 4.8475404 -1.8869804
-9.9262743 4.9171786 -1.8904122
-9.8853559 4.9726791 -1.8883531
-9.8414984 5.0265179 -1.8857794
-9.807847 5.0854487 -1.8852646
-9.7869196 5.1510401 -1.8873236
-9.7655563 5.2165656 -1.8893826
-9.7021866 5.2594824 -1.8832055
-9.6179438 5.290421 -1.8729105
-9.624011 5.3709445 -1.8806318
-9.5814438 5.4245548 -1.8787444
-9.5710449 5.4964924 -1.8833772
-9.5209646 5.5456929 -1.8801171
-9.4765797 5.5979943 -1.8780581
-9.4699411 5.6727457 -1.8837203
-9.4172735 5.7200036 -1.8801171
-9.4163904 5.7988629 -1.8871521
-9.3530569 5.8393116 -1.8814898
-9.3378611 5.9097643 -1.8857794
-9.3005943 5.9664173 -1.8856077
-9.2547255 6.0174642 -1.8837203
-9.2126932 6.0708838 -1.8826908
-9.1744509 6.12675 -1.8825192
-9.1415806 6.1862416 -1.8835487
-9.1391973 6.2667346 -1.8910985
-9.1102819 6.3294396 -1.8931575
-9.0865793 6.3959961 -1.8964176
-9.0487671 6.452774 -1.8967608
-8.9938307 6.4972119 -1.8935007
-8.9561806 6.5540204 -1.8940154
-8.9371643 6.6246929 -1.8986483
-8.9002867 6.682364 -1.8995062
-8.8693104 6.7446027 -1.9017367
-8.8254185 6.7970929 -1.901222
-8.7920904 6.8577828 -1.9031094
-8.7459812 6.9085469 -1.9022515
-8.7111187 6.968236 -1.9039674
-8.6781492 7.0296178 -1.906198
-8.6356153 7.0833583 -1.9063696
-8.5783491 7.1248808 -1.9032811
-8.5465336 7.1875291 -1.9060264
-8.4970207 7.2353625 -1.9048253
-8.4576874 7.2918668 -1.9060264
-8.404623 7.3364978 -1.9041389
-8.3889742 7.4140286 -1.9110024
-8.3653479 7.4850726 -1.91615
-8.2623177 7.4846644 -1.9027663
-8.2663307 7.581171 -1.9146056
-8.2326517 7.6438169 -1.9176942
-8.1927729 7.7009354 -1.9194101
-8.1425123 7.7483439 -1.9187237
-8.1012011 7.8043118 -1.9202679
-8.065856 7.8662548 -1.9233565
-8.0244474 7.9225202 -1.9250724
-7.993103 7.9890213 -1.9293621
-7.9404707 8.0344114 -1.9285041
-7.908226 8.1006079 -1.9327937
-7.8433294 8.1333761 -1.9290189
-7.8061852 8.1949034 -1.932279
-7.75103 8.2376242 -1.9310778
-7.7305169 8.3175039 -1.9387991
-7.6926599 8.3792973 -1.9422309
-7.6437473 8.4292603 -1.9429172
-7.6004262 8.4855433 -1.9451479
-7.5469117 8.5305433 -1.9448047
-7.4989643 8.5818825 -1.9460058
-7.4423041 8.6232586 -1.9449762
-7.3924475 8.6725111 -1.9458342
-7.3409982 8.7199678 -1.9463489
-7.2955422 8.7746964 -1.9485795
-7.2565665 8.8375702 -1.9526976
-7.2059264 8.8865213 -1.9537271
-7.1524954 8.932107 -1.9540703
-7.1030531 8.9827805 -1.9556146
-7.0465899 9.024642 -1.9552714
-6.992887 9.0700502 -1.9557861
-6.9478426 9.1268978 -1.9588747
-6.8881593 9.1646318 -1.9578451
-6.8253393 9.1980209 -1.9559578
-6.7786689 9.2532387 -1.9588747
-6.7477403 9.3305836 -1.966596
-6.7000914 9.3854427 -1.9695129
-6.6395402 9.4223499 -1.968655
-6.5681019 9.4435005 -1.964537
-6.5161662 9.4925585 -1.9664245
-6.4583511 9.5331783 -1.966596
-6.3800263 9.5431404 -1.9604189
-6.3354535 9.6034899 -1.9648801
-6.3048887 9.6859455 -1.9739741
-6.2464027 9.7261076 -1.9743173
-6.1918788 9.7725735 -1.9760332
-6.132843 9.8120537 -1.9763763
-6.0849285 9.869627 -1.9804944
-6.0145311 9.8907833 -1.9772342
-5.9547424 9.9291916 -1.9775774
-5.8962131 9.9697819 -1.9784354
-5.8473334 10.02705 -1.982725
-5.7906084 10.07128 -1.9844408
-5.7204461 10.092051 -1.9815239
-5.6473641 10.10718 -1.9775774
-5.5705113 10.114887 -1.9722583
-5.5252576 10.18005 -1.9784354
-5.468729 10.225055 -1.980666
-5.411397 10.268877 -1.982725
-5.349194 10.303636 -1.9830682
-5.2477517 10.261704 -1.9684834
-5.2143741 10.352664 -1.9799796
-5.1599445 10.402999 -1.983583
-5.0942869 10.430923 -1.9828966
-5.0293341 10.460209 -1.9825534
-4.9637928 10.4882 -1.9820386
-4.9155645 10.55329 -1.9887304
-4.8392272 10.558175 -1.9839261
-4.7788062 10.597548 -1.9858135
-4.6933227 10.580741 -1.9770627
-4.6503673 10.659909 -1.9866714
-4.5802121 10.677378 -1.9846125
-4.5329814 10.748854 -1.9928485
-4.4748626 10.795578 -1.9964519
-4.4133682 10.834694 -1.9986824
-4.3555875 10.883522 -2.0028005
-4.2883649 10.909125 -2.0026288
-4.2181549 10.926961 -2.0010846
-4.1555667 10.964614 -2.0033152
-4.0916448 10.99914 -2.0050311
-4.0325212 11.047175 -2.0093207
-3.9679816 11.080985 -2.0110366
-3.8943675 11.089322 -2.0081196
-3.8361907 11.141886 -2.0134387
-3.7724769 11.179216 -2.0160124
-3.7118499 11.226474 -2.0204737
-3.6431992 11.249975 -2.0206454
-3.5788646 11.287144 -2.0233908
-3.5112922 11.314537 -2.0244203
-3.4440904 11.34341 -2.0257928
-3.3814321 11.38794 -2.0300825
-3.3178074 11.430235 -2.034029
-3.2459981 11.444691 -2.0329995
-3.1715074 11.449202 -2.0302541
-3.1040244 11.478908 -2.0321414
-3.0420744 11.530126 -2.0379755
-2.9693067 11.540941 -2.0366027
-2.9063411 11.590479 -2.0422652
-2.8358696 11.610965 -2.0427799
-2.763206 11.622396 -2.0417504
-2.6891775 11.627613 -2.0396912
-2.6197252 11.652546 -2.0412357
-2.5504882 11.678988 -2.043123
-2.5047112 11.816817 -2.0649142
-2.4145114 11.746078 -2.0496433
-2.3410468 11.753908 -2.0484421
-2.2709327 11.778692 -2.0503297
-2.1928422 11.761413 -2.0448389
-2.1178417 11.759133 -2.0420935
-2.0392435 11.735023 -2.0355732
-1.9733796 11.784237 -2.0420935
-1.9041688 11.815577 -2.0455253
-1.8280176 11.803672 -2.0414071
-1.7613454 11.853645 -2.0482705
-1.690383 11.876909 -2.0505011
-1.6148212 11.867534 -2.0470695
-1.5379173 11.845956 -2.0415788
-1.4668933 11.868857 -2.0439808
-1.3908269 11.850238 -2.0391765
-1.318524 11.862465 -2.0398629
-1.2489997 11.901686 -2.0453537
-1.1714033 11.863046 -2.0372891
-1.1037606 11.925926 -2.0470695
-1.0285316 11.908917 -2.0429513
-0.95378876 11.894382 -2.0393481
-0.88354796 11.937346 -2.0458684
-0.81115091 11.955319 -2.048099
-0.73790026 11.962038 -2.0484421
-0.66225308 11.926011 -2.0414071
-0.59090662 11.967241 -2.0479274
-0.51776308 11.977531 -2.0491285
-0.44466108 11.991312 -2.0510159
-0.37080207 11.984952 -2.0494716
-0.29762173 12.001775 -2.0520453
-0.22342609 11.973825 -2.0468979
-0.14998859 11.977926 -2.0474126
-0.07610029 11.916556 -2.0366027
-0.0029815978 11.925666 -2.038147
0.070387483 11.95797 -2.0438094
0.14371112 11.953372 -2.043123
0.21683712 11.940445 -2.041064
0.29055476 11.957603 -2.0443242
0.36391976 11.955595 -2.0443242
0.4370544 11.947229 -2.0432947
0.51010007 11.938417 -2.0422652
0.58209032 11.909479 -2.0378039
0.65607637 11.922405 -2.0407207
0.72939932 11.921105 -2.0412357
0.80292988 11.922303 -2.0422652
0.87541771 11.90831 -2.0407207
0.94752902 11.890929 -2.0386617
1.019207 11.870169 -2.036088
1.0932873 11.877425 -2.0384903
1.1665308 11.874415 -2.0391765
1.2381399 11.855276 -2.0371175
1.3125942 11.863123 -2.0398629
1.3857036 11.85778 -2.0403776
1.4555447 11.825588 -2.0362597
1.528457 11.819366 -2.0367744
1.6009506 11.809765 -2.0367744
1.6746296 11.808498 -2.0383186
1.7447431 11.782408 -2.0355732
1.8173065 11.773428 -2.0359163
1.8888874 11.758164 -2.0352302
1.9627841 11.757042 -2.0371175
2.0353918 11.747689 -2.0376322
2.1002924 11.695224 -2.0305972
2.1680496 11.660809 -2.0268223
2.2496085 11.699528 -2.036088
2.3190484 11.673908 -2.034029
2.3870709 11.642088 -2.0309405
2.4611111 11.639752 -2.0331712
2.5343733 11.633095 -2.0347154
2.6197257 11.679808 -2.0458684
2.6758304 11.596318 -2.0338573
2.7376068 11.540381 -2.0268223
2.803932 11.505181 -2.0235622
2.877105 11.498272 -2.0254498
2.9456422 11.472769 -2.0240769
3.0082033 11.424946 -2.0187578
3.0777352 11.40437 -2.0184147
3.1526427 11.403312 -2.0216749
3.2120841 11.346786 -2.0149829
3.2865825 11.343895 -2.0180717
3.3583658 11.331072 -2.0194442
3.4309728 11.320622 -2.0213318
3.4843316 11.247602 -2.0118945
3.5470347 11.206286 -2.0082912
3.6275511 11.220869 -2.0149829
3.689846 11.178754 -2.0113797
3.7561657 11.149368 -2.0101786
3.8200216 11.113068 -2.0077765
3.8891163 11.092208 -2.0082912
3.9531226 11.057005 -2.0062323
4.0154939 11.017732 -2.0034869
4.0754733 10.972569 -1.999712
4.1406302 10.941827 -1.9986824
4.202374 10.902427 -1.9961087
4.2655902 10.867266 -1.9943928
4.325974 10.825336 -1.9914758
4.3989983 10.815015 -1.9945644
4.4599991 10.775076 -1.9921622
4.5241175 10.742968 -1.9913043
4.5825777 10.697801 -1.9880441
4.6394739 10.649612 -1.9842693
4.7115159 10.636256 -1.9871862
4.7779036 10.609841 -1.9877009
4.8527575 10.601823 -1.991819
4.9106522 10.556664 -1.9889021
4.9732289 10.52188 -1.9880441
5.0381227 10.492055 -1.9882157
5.0972223 10.450319 -1.9861567
5.1590614 10.414433 -1.9852988
5.2290654 10.394901 -1.9877009
5.2927489 10.362621 -1.9877009
5.3535113 10.324703 -1.9866714
5.4062066 10.27161 -1.982725
5.4635587 10.227818 -1.980666
5.525743 10.193235 -1.9804944
5.576786 10.138423 -1.9763763
5.6331272 10.093691 -1.9743173
5.7066054 10.079511 -1.9784354
5.747735 10.008427 -1.9712288
5.8015985 9.9602022 -1.968655
5.8555875 9.9125423 -1.9662528
5.9102235 9.8662853 -1.9641938
5.9629779 9.8172064 -1.96162
6.0086355 9.7569466 -1.9568156
6.065259 9.7148809 -1.9557861
6.1316047 9.688303 -1.9580168
6.1925316 9.6529856 -1.9585315
6.2430506 9.601593 -1.9557861
6.2953415 9.5532351 -1.9537271
6.3412547 9.4955854 -1.9497807
6.3911161 9.4442596 -1.9472069
6.4500589 9.4064922 -1.9475501
6.5076547 9.3667383 -1.9475501
6.539484 9.2903824 -1.9398288
6.6043744 9.2613106 -1.9422309
6.6616535 9.2214108 -1.9424025
6.7146182 9.1755924 -1.941373
6.771379 9.1350107 -1.9415445
6.8243451 9.0893517 -1.9406866
6.8770056 9.0433865 -1.9398288
6.9275556 8.9947758 -1.9384561
6.9595885 8.9225836 -1.9319358
7.0056553 8.8688908 -1.9295336
7.0568643 8.8218908 -1.9286757
7.1170635 8.7860794 -1.9303916
7.1558433 8.7239656 -1.9262735
7.1966472 8.6647377 -1.9228418
7.2604585 8.6332331 -1.9257587
7.2960472 8.5682716 -1.9211259
7.3246789 8.4957371 -1.9147773
7.3727822 8.4461813 -1.9137478
7.4199009 8.3956175 -1.9125466
7.4601068 8.3374519 -1.9096297
7.5025249 8.2820292 -1.9073991
7.5505371 8.232935 -1.9067128
7.5955482 8.1806755 -1.9053401
7.6334543 8.1209965 -1.9022515
7.6858568 8.0768604 -1.9029379
7.728435 8.0224543 -1.901222
7.7747626 7.9720616 -1.9005357
7.8124566 7.9129906 -1.8977903
7.8580766 7.8621182 -1.897104
7.8991618 7.8068295 -1.8953881
7.9433899 7.7547736 -1.8945302
7.9844398 7.6997337 -1.8929859
8.0272541 7.6465211 -1.8919564
8.0596695 7.583622 -1.8885248
8.0966682 7.5253081 -1.8862941
8.1434164 7.4761524 -1.8864657
8.1767282 7.4147954 -1.8835487
8.2492247 7.3888016 -1.8898973
8.2324209 7.2832189 -1.8754842
8.2791805 7.2345133 -1.875999
8.3189392 7.1797152 -1.8749695
8.3485899 7.116395 -1.8717093
8.3800392 7.0548844 -1.868964
8.4110479 6.9932566 -1.8662187
8.4606524 6.9471416 -1.8677629
8.491641 6.8857908 -1.8651891
8.5298862 6.8304791 -1.8643312
8.5268126 6.7425752 -1.8543793
8.5866613 6.7046781 -1.8584973
8.629199 6.6530681 -1.8588405
8.6682911 6.5988021 -1.8584973
8.7133427 6.5490408 -1.8595269
8.7494068 6.4925189 -1.8586689
8.7811317 6.4328899 -1.856953
8.8084631 6.3702302 -1.8543793
8.8425722 6.3126287 -1.8533498
8.892415 6.2661963 -1.855752
8.9250345 6.2075787 -1.8545508
8.9499588 6.1437793 -1.8518054
9.002986 6.0992446 -1.8550656
9.046793 6.0482683 -1.8564383
9.0738659 5.986135 -1.8543793
9.0889568 5.9163747 -1.849918
9.1342068 5.8663497 -1.8518054
9.1675329 5.8086114 -1.8512907
9.2472811 5.7799211 -1.8603847
9.2540579 5.7054963 -1.8545508
9.2947845 5.6521893 -1.855752
9.3208408 5.5899854 -1.8540361
9.3761663 5.5452237 -1.8583257
9.4134188 5.489573 -1.859012
9.4494867 5.4331832 -1.8595269
9.4826469 5.3750997 -1.8595269
9.5197496 5.3192163 -1.8603847
9.5617018 5.2659311 -1.8622721
9.6111507 5.2165594 -1.8657039
9.6299467 5.1505203 -1.8631301
9.6543951 5.0876617 -1.8617574
9.6600733 5.0151663 -1.8567815
9.7099619 4.9656649 -1.8605564
9.7402477 4.905992 -1.8605564
9.7586927 4.840445 -1.8583257
9.780242 4.7765856 -1.8567815
9.8235731 4.7233143 -1.8595269
9.8603849 4.6667409 -1.8610711
9.900444 4.6115575 -1.8633016
9.9348221 4.5535955 -1.8645028
9.926651 4.4763551 -1.8576394
9.9494276 4.4133654 -1.8567815
9.974514 4.3514462 -1.8564383
10.011891 4.2948213 -1.8584973
10.040779 4.2344565 -1.859012
10.068392 4.173522 -1.8593552
10.10476 4.1161237 -1.8614143
10.123423 4.0514832 -1.8602132
10.110498 3.9745171 -1.8531781
10.199952 3.9375889 -1.8653607
10.220235 3.8735328 -1.8646743
10.296443 3.830323 -1.8744547
10.284584 3.7542398 -1.8679345
10.353803 3.7076659 -1.8765137
10.337317 3.6303601 -1.8693072
10.362191 3.5678251 -1.8698219
10.371753 3.500083 -1.8675914
10.37152 3.4292662 -1.8636448
10.411112 3.3716319 -1.8670765
10.420334 3.3041148 -1.8650175
10.437589 3.239239 -1.8645028
10.477065 3.1811428 -1.8681061
10.502997 3.1187592 -1.8693072
10.527614 3.0559025 -1.8703367
10.560383 2.9952796 -1.8729105
10.589006 2.9333179 -1.8747979
10.639141 2.8770301 -1.8806318
10.651831 2.8104393 -1.8797739
10.67937 2.7477272 -1.8816613
10.707497 2.6850224 -1.8837203
10.688358 2.6106267 -1.8773717
10.711843 2.5468171 -1.8787444
10.737827 2.4834833 -1.8806318
10.763436 2.4199266 -1.8825192
10.774233 2.3529973 -1.8818328
10.796178 2.2884772 -1.8832055
10.845721 2.229526 -1.8895543
10.872725 2.1656287 -1.8919564
10.854852 2.0929089 -1.8864657
10.876206 2.0278897 -1.8880099
10.872931 1.958324 -1.8852646
10.876977 1.8902234 -1.8838919
10.890314 1.8237731 -1.8842351
10.901299 1.7569171 -1.8842351
6.2513561 0.96869087 -1.0628567
6.0905457 0.90557081 -1.0335156
5.9340787 0.84515518 -1.0050324
5.9069386 0.80434823 -0.9993701
