# .PCD v0.7 - Point Cloud Data file format
VERSION 0.7
FIELDS x y z
SIZE 4 4 4
TYPE F F F
COUNT 1 1 1
WIDTH 1500
HEIGHT 1
VIEWPOINT 0 0 0 1 0 0 0
POINTS 1500
DATA ascii
-10.88329 -3.0944421 -0.95432937
-10.843522 -3.011343 -0.94900227
-9.7166939 -2.6342583 -0.8449927
-11.043376 -2.9213648 -0.96384829
-11.04566 -2.8495667 -0.96245104
-11.080327 -2.7861116 -0.96402299
-11.164943 -2.7346632 -0.97013605
-11.179575 -2.6656427 -0.9699614
-11.115176 -2.5783098 -0.962713
-11.425234 -2.5764701 -0.98917389
-11.47002 -2.5127141 -0.99179381
-11.299114 -2.4027064 -0.97511381
-11.347792 -2.3403747 -0.97817034
-11.481114 -2.294524 -0.98882461
-11.545835 -2.2338755 -0.99336571
-11.578909 -2.1666548 -0.9951123
-11.563557 -2.0904269 -0.99257976
-11.887255 -2.0737147 -1.0202632
-11.81134 -1.9858685 -1.0124036
-11.90099 -1.9259328 -1.0193026
-13.311328 -2.0704811 -1.1433979
-13.429205 -2.0045042 -1.1527423
-14.170998 -2.0264406 -1.2173662
-15.137585 -2.0699885 -1.3018138
-15.897766 -2.0746701 -1.3679224
-15.778717 -1.9607425 -1.3563076
-19.639849 -2.3183672 -1.6961071
-20.172468 -2.2558382 -1.7418678
-0 -0 -0
-22.211943 -2.208322 -1.9192343
-22.216146 -2.0711582 -1.9184483
-22.292946 -1.9404196 -1.9241247
-22.318333 -1.8047204 -1.9253473
-22.378656 -1.6714545 -1.9297138
-22.388491 -1.5341102 -1.9297138
-22.376604 -1.3954057 -1.9278799
-22.371815 -1.2573522 -1.9267446
-22.353241 -1.1187625 -1.924474
-22.332813 -0.98040444 -1.9221162
-22.313522 -0.84241444 -1.9199328
-22.299353 -0.70488703 -1.9182736
-19.40897 1.4309511 -1.9116331
-19.373045 1.5478741 -1.9089421
-19.341373 1.6648371 -1.9067495
-19.316923 1.7822016 -1.9053541
-19.294731 1.8996214 -1.9042578
-19.273806 2.0170434 -1.9033607
-19.250187 2.1340606 -1.9022645
-19.231789 2.2515585 -1.9017661
-19.208725 2.3684237 -1.9008691
-19.18495 2.4850907 -1.8999721
-19.161453 2.6016891 -1.8991748
-19.139217 2.7183728 -1.8985767
-19.116272 2.8348815 -1.8979788
-19.101467 2.9525795 -1.8982778
-19.085938 3.0702026 -1.8985767
-19.063797 3.1867616 -1.8982778
-19.038982 3.3028243 -1.8977795
-19.008566 3.4178216 -1.8967828
-18.969627 3.5311129 -1.8949888
-18.929041 3.643867 -1.893095
-18.886808 3.756062 -1.8911017
-18.842937 3.867676 -1.8890088
-18.789648 3.9770381 -1.8860188
-18.750309 4.0890737 -1.8845237
-18.716127 4.2020841 -1.8836267
-18.683207 4.3152771 -1.8829291
-18.65444 4.4293737 -1.8827296
-18.633677 4.545403 -1.8834274
-18.599646 4.6582007 -1.8828293
-18.558186 4.7690182 -1.8815337
-18.517027 4.879756 -1.8803377
-18.47521 4.9901681 -1.8791417
-18.44808 5.1044974 -1.8795403
-18.407795 5.2151551 -1.8786434
-18.374493 5.3277278 -1.8785437
-18.359581 5.4457488 -1.8804374
-18.344866 5.5640755 -1.8824307
-18.345543 5.6874366 -1.8861184
-18.331169 5.8065071 -1.888311
-18.330223 5.9302101 -1.8919988
-18.322779 6.052247 -1.8950884
-18.311699 6.1734619 -1.8978791
-18.291351 6.2918544 -1.8997728
-18.280567 6.4138541 -1.9027628
-18.273659 6.5376339 -1.9062511
-18.259375 6.6591835 -1.9090418
-18.254545 6.7846169 -1.9129288
-18.239555 6.9067168 -1.9158192
-18.226542 7.029963 -1.9190085
-18.217329 7.1551275 -1.9226962
-18.201723 7.2782264 -1.9257859
-18.181606 7.3999019 -1.9284769
-18.168032 7.5246511 -1.9319652
-18.156363 7.6506705 -1.9357526
-18.152061 7.7803583 -1.940437
-18.155058 7.9138594 -1.9460183
-18.15073 8.0448666 -1.950902
-18.141848 8.1744833 -1.955387
-18.125725 8.3013916 -1.9591744
-18.096096 8.4225311 -1.9615663
-18.067463 8.5444689 -1.9641577
-18.037117 8.6659422 -1.9666494
-18.028313 8.798275 -1.9716327
-18.01054 8.9268484 -1.9757191
-17.950094 9.0345068 -1.9751211
-17.96343 9.1797972 -1.9828951
-17.955341 9.3150511 -1.9883769
-17.962116 9.4588957 -1.9956526
-17.900229 9.5670547 -1.9952538
-17.871801 9.6933146 -1.9987422
-17.84424 9.8205433 -2.00243
-17.831429 9.9565315 -2.0079114
-17.809824 10.088317 -2.0124962
-17.787273 10.220212 -2.017081
-17.774948 10.358722 -2.0229614
-17.729042 10.478225 -2.0250542
-17.691725 10.603181 -2.0282435
-17.65184 10.727039 -2.0312335
-17.614491 10.852895 -2.0346224
-17.575415 10.978168 -2.0379114
-17.532942 11.101772 -2.0409014
-17.487101 11.223656 -2.0435925
-17.434586 11.341596 -2.0455856
-17.385435 11.462052 -2.0480773
-17.339598 11.585096 -2.0510674
-17.292902 11.708009 -2.0540574
-17.265043 11.844294 -2.0594394
-17.219006 11.96875 -2.0627284
-17.177782 12.097096 -2.0667152
-17.134821 12.22481 -2.0706022
-17.084486 12.347787 -2.0736918
-17.028471 12.467078 -2.0761836
-16.972433 12.58674 -2.0787749
-16.904428 12.697816 -2.0799708
-16.819073 12.795877 -2.0790739
-16.737089 12.896407 -2.0786753
-16.616854 12.967028 -2.0734925
-16.514338 13.05085 -2.0706022
-16.39666 13.122089 -2.0658181
-16.247038 13.166691 -2.0569477
-16.19594 13.290751 -2.0608349
-16.089596 13.369527 -2.0576453
-16.011827 13.471843 -2.0582435
-15.922806 13.564673 -2.057446
-15.82496 13.64977 -2.0555525
-15.718426 13.726976 -2.0525625
-15.617504 13.808664 -2.0503697
-15.515431 13.888967 -2.0480773
-15.412961 13.968536 -2.045785
-15.304235 14.04199 -2.0426953
-15.194459 14.11396 -2.039506
-15.085101 14.185793 -2.0364163
-14.971832 14.253386 -2.0328283
-14.864035 14.325648 -2.0300376
-14.768021 14.408938 -2.0289414
-14.651015 14.471312 -2.0249546
-14.504252 14.503241 -2.0167818
-14.431072 14.608246 -2.0190742
-14.308506 14.663046 -2.01439
-14.216886 14.749132 -2.0141907
-14.101419 14.810144 -2.0106025
-14.00619 14.892041 -2.0100045
-13.896944 14.958747 -2.0074131
-13.790771 15.028338 -2.0053203
-13.690948 15.104564 -2.0042238
-13.582083 15.170493 -2.0018318
-13.484129 15.248328 -2.0011342
-13.373951 15.312041 -1.9986426
-13.260899 15.371964 -1.9957522
-13.151487 15.435621 -1.9934598
-13.046279 15.503845 -1.9918652
-12.942636 15.573655 -1.9905695
-12.831685 15.634315 -1.9881774
-12.749296 15.729762 -1.9903702
-12.635754 15.786718 -1.9876791
-12.525694 15.847559 -1.9855862
-12.411692 15.902937 -1.9828951
-12.296267 15.955937 -1.9800048
-12.186685 16.016039 -1.9781111
-12.070851 16.067444 -1.9752208
-11.967295 16.134811 -1.9744234
-11.851022 16.184656 -1.9715331
-11.740417 16.241745 -1.9696394
-11.634182 16.304567 -1.9685431
-11.521889 16.358562 -1.9664501
-11.411642 16.415062 -1.9647557
-11.300574 16.470005 -1.9629617
-11.187031 16.520906 -1.9607691
-11.0755 16.574347 -1.958975
-10.968664 16.634516 -1.958078
-10.865848 16.70067 -1.9579784
-10.755645 16.755304 -1.956583
-10.639858 16.80081 -1.954191
-10.524973 16.847212 -1.9519984
-10.412529 16.897074 -1.950304
-10.304521 16.953842 -1.9495066
-10.196719 17.010777 -1.948809
-10.077975 17.049038 -1.9460183
-9.9601479 17.088203 -1.943427
-9.7728186 17.005781 -1.9268823
-9.5447016 16.847252 -1.9017661
-9.439209 16.902025 -1.9013674
-9.4922056 17.244677 -1.9339585
-9.3772011 17.285976 -1.9320649
-9.2812786 17.362495 -1.9342576
-9.1768885 17.423519 -1.9347559
-9.0643082 17.468901 -1.9335599
-8.9447241 17.500267 -1.9308689
-8.8264399 17.533491 -1.9284769
-8.7116203 17.573053 -1.9268823
-8.5988293 17.616341 -1.9257859
-8.4832497 17.653522 -1.9240916
-8.3666878 17.688152 -1.9221978
-8.2516994 17.725626 -1.9207028
-8.1344948 17.75783 -1.9187095
-8.0163889 17.787451 -1.9165168
-7.9030643 17.827208 -1.9155202
-7.7899513 17.867155 -1.9146231
-7.6695895 17.889923 -1.9119321
-7.5674024 17.954985 -1.9139255
-7.463563 18.016708 -1.9156199
-7.3536243 18.064007 -1.9158192
-7.2419086 18.106941 -1.9156199
-7.1263046 18.139921 -1.9144238
-7.010211 18.171238 -1.9131281
-6.8932967 18.199951 -1.9116331
-6.7759476 18.226982 -1.9100385
-6.6605721 18.258867 -1.9090418
-6.5457306 18.291897 -1.9082445
-6.4307351 18.324205 -1.9074471
-6.316884 18.359556 -1.9070485
-6.1971192 18.377226 -1.9048558
-6.0776882 18.395063 -1.9027628
-5.961947 18.423489 -1.9018657
-5.8463864 18.452135 -1.9010684
-5.7342348 18.491463 -1.9014671
-5.6223984 18.532013 -1.9020652
-5.5108461 18.573793 -1.9028624
-5.3973298 18.609169 -1.9030617
-5.2827735 18.64098 -1.9029621
-5.1667027 18.667288 -1.9023641
-5.0523248 18.6996 -1.9024638
-4.9367304 18.727362 -1.9021648
-4.8209853 18.75441 -1.9018657
-4.7055779 18.782673 -1.9017661
-4.5885906 18.804424 -1.9010684
-4.4717431 18.826418 -1.9004705
-4.3554702 18.850594 -1.9001714
-3.2956123 14.672216 -1.4685133
-3.1875007 14.609528 -1.4600416
-3.019084 14.256952 -1.4219688
-2.933749 14.285931 -1.4230651
-2.8473957 14.310494 -1.4237628
-2.7599106 14.32965 -1.4239621
-2.7070804 14.53511 -1.4431978
-2.5563841 14.209667 -1.408414
-2.468807 14.223125 -1.4082147
-2.3767309 14.209544 -1.4053243
-2.2864952 14.205194 -1.4034307
-2.1249554 13.738104 -1.3546935
-2.035073 13.713482 -1.3509061
-1.9440334 13.677439 -1.3460225
-1.858333 13.676292 -1.3447268
-1.7791119 13.723948 -1.3484144
-1.6968182 13.750407 -1.3500091
-1.6133412 13.768466 -1.3508065
-1.5290484 13.780084 -1.3510058
-1.4460204 13.80405 -1.3525008
-1.3725064 13.92654 -1.3639625
-1.3182064 14.272566 -1.397949
-1.2327405 14.305169 -1.4004407
-1.3080679 16.35371 -1.6055555
-1.1640123 15.769009 -1.5460542
-1.0208769 15.089859 -1.4771843
-0.93272054 15.168339 -1.48446
-0.85275263 15.411224 -1.5082805
-0.71288711 14.493898 -1.4157894
-0.62428242 14.505953 -1.4165868
-0.56183708 15.231406 -1.488945
-0.46489128 15.121188 -1.4775831
-0.37232026 15.132709 -1.47848
-0.27821675 15.067058 -1.4717027
-0.20037606 16.261421 -1.5912035
-0.093555324 15.111128 -1.4758886
-0.00083301298 15.130322 -1.4777824
0.091514751 15.050443 -1.4698089
0.18296787 14.976967 -1.4625332
0.27673173 15.077037 -1.4726993
0.36425155 14.872132 -1.4523672
0.45458207 14.839781 -1.4493772
0.54526228 14.826769 -1.4483806
0.63554341 14.807239 -1.4467859
0.78778517 16.052294 -1.5720674
0.77852392 14.098899 -1.3766203
0.86276007 14.05711 -1.3729326
0.94443184 13.984044 -1.3661551
1.032708 14.011724 -1.3695439
1.1219145 14.045791 -1.3736303
1.2034656 13.985109 -1.3682482
1.2896198 13.981425 -1.3686469
1.3796762 14.016819 -1.3730322
1.4695935 14.045694 -1.3768196
1.5392944 13.888069 -1.3618696
1.6258701 13.890223 -1.3630655
1.7082664 13.857271 -1.3607732
1.795179 13.86133 -1.3622682
1.8885006 13.911184 -1.3684475
1.9686432 13.862885 -1.3647599
2.0565877 13.87023 -1.3667532
2.1436319 13.870133 -1.3680489
2.2331235 13.884226 -1.3708396
2.3113806 13.829043 -1.3666536
2.4087803 13.887148 -1.3740289
2.487956 13.83881 -1.3706403
2.5740976 13.830132 -1.3713379
2.6611671 13.825802 -1.3725339
2.762064 13.890212 -1.3808062
2.8452396 13.863256 -1.3798096
2.9323103 13.855271 -1.3808062
3.0355077 13.920624 -1.3893776
3.115633 13.878436 -1.3869857
3.271734 14.166384 -1.4185801
3.3188179 13.978562 -1.4013376
3.4205651 14.023668 -1.408115
3.5147693 14.035233 -1.4115037
3.5889316 13.967145 -1.4067197
3.6847095 13.983347 -1.4107064
3.7966516 14.057494 -1.4207728
3.9314044 14.209425 -1.4390118
3.9835222 14.061541 -1.4261547
4.0680642 14.031099 -1.4255568
4.2084193 14.189027 -1.4446929
4.2954021 14.162938 -1.4446929
4.3406711 14.002312 -1.4306399
4.4331174 13.996283 -1.4328325
4.527185 13.994378 -1.4355235
4.6248288 14.002239 -1.4393108
4.6947613 13.926455 -1.4343275
4.8137898 13.995239 -1.4446929
4.9513006 14.112844 -1.4603406
5.0287509 14.056903 -1.4576496
5.2281113 14.336127 -1.4907391
5.3080034 14.282327 -1.4884467
5.3983579 14.256933 -1.4892441
5.4782143 14.204046 -1.487151
5.5936432 14.242402 -1.494925
5.6886868 14.227214 -1.4970181
5.7721248 14.182825 -1.4960214
5.8369541 14.093823 -1.4902407
6.1536355 14.604226 -1.5496423
6.2674365 14.622893 -1.5558217
6.3256283 14.512106 -1.547948
6.4766531 14.613105 -1.5632967
6.473803 14.368073 -1.540772
6.5498247 14.301845 -1.5378816
6.6303177 14.246052 -1.5361873
6.7086706 14.186212 -1.5340942
6.8925543 14.346573 -1.5565194
6.9983482 14.340672 -1.5606056
7.0866508 14.298353 -1.5607053
7.7406487 15.37978 -1.6868839
7.342185 14.368021 -1.578446
7.4027114 14.269707 -1.572466
7.5953836 14.423862 -1.5950905
7.7677073 14.534063 -1.6129309
7.7476182 14.284964 -1.5900074
7.8384819 14.243258 -1.5907052
7.9281549 14.199238 -1.5912035
8.2667379 14.594451 -1.6423327
8.5767479 14.927362 -1.6866845
8.5549421 14.680172 -1.6641598
8.6615648 14.65567 -1.6674488
8.7543974 14.607368 -1.6680468
8.9198294 14.67837 -1.6826979
8.8907108 14.430223 -1.6599737
9.2031393 14.734051 -1.7023323
9.2955017 14.680667 -1.7027309
9.388093 14.627541 -1.7032293
9.4733286 14.562989 -1.7024319
9.4940395 14.400751 -1.6899736
9.5601091 14.309133 -1.6859869
10.103523 14.923338 -1.7674149
10.214603 14.889779 -1.7709032
10.31202 14.835811 -1.7719996
10.40343 14.773071 -1.7720993
10.492724 14.707339 -1.7718999
10.579855 14.638648 -1.7714015
10.665362 14.567836 -1.7707039
10.826863 14.599622 -1.7828633
10.957479 14.587808 -1.7897403
11.070882 14.551973 -1.793727
11.197619 14.532635 -1.7999064
11.304944 14.487186 -1.8028964
11.411516 14.440187 -1.8057867
11.478143 14.342706 -1.8022983
11.541497 14.241859 -1.7984114
11.649498 14.196157 -1.8017004
11.785354 14.183334 -1.8093747
11.920207 14.167854 -1.8168497
12.072736 14.171701 -1.8270158
12.21211 14.158385 -1.8350888
12.372718 14.167871 -1.8463513
12.535217 14.177406 -1.8578129
12.687678 14.173617 -1.86768
12.853927 14.183232 -1.8795403
13.01135 14.181074 -1.8900054
13.170581 14.178973 -1.9006698
13.319367 14.163853 -1.9097395
13.51649 14.197881 -1.9257859
13.688288 14.202795 -1.9380449
13.843973 14.189041 -1.947912
14.046854 14.221335 -1.9644567
14.220393 14.221417 -1.9767158
14.400122 14.225495 -1.9897722
14.567614 14.215392 -2.0010345
14.724057 14.192718 -2.0107021
14.872121 14.160423 -2.0191739
14.977573 14.086626 -2.0217652
15.103092 14.031029 -2.0271473
15.140512 13.893695 -2.0205693
15.214418 13.79051 -2.0190742
15.272059 13.673005 -2.0154862
15.297525 13.52763 -2.0077121
15.342019 13.400131 -2.0026293
15.385527 13.272597 -1.9975462
15.43032 13.146971 -1.9927622
15.475674 13.022576 -1.9881774
15.534625 12.910204 -1.9854865
15.589704 12.795074 -1.9823967
15.644729 12.680383 -1.9794067
15.69971 12.566119 -1.9765164
15.756222 12.45351 -1.9739251
15.806452 12.336396 -1.970636
15.854263 12.217921 -1.9671477
15.908343 12.104747 -1.9645563
15.946516 11.980015 -1.9600713
15.996547 11.864755 -1.957181
16.032919 11.739927 -1.952696
16.082878 11.625593 -1.9500049
16.093159 11.483349 -1.9425299
16.153553 11.377512 -1.9413339
16.194466 11.258304 -1.9378456
16.226318 11.133394 -1.9333606
16.268784 11.016329 -1.9302709
16.313734 10.901372 -1.9275799
16.36121 10.788471 -1.9252875
16.398741 10.669429 -1.9218988
16.428728 10.546034 -1.9177128
16.452776 10.419479 -1.9129288
16.480112 10.295664 -1.9086431
16.505701 10.171384 -1.9042578
16.547392 10.057513 -1.9018657
16.587456 9.9430027 -1.8993741
16.60618 9.8162289 -1.8944904
16.626553 9.6911039 -1.8899057
16.662411 9.5755186 -1.8872147
16.689684 9.4554443 -1.8836267
16.726536 9.341218 -1.8812346
16.76436 9.2278557 -1.879042
16.791801 9.1091623 -1.875753
16.824562 8.993763 -1.8731617
16.829248 8.8639326 -1.8674806
16.857706 8.7472153 -1.8645903
16.880936 8.6282187 -1.8612016
16.919338 8.5173187 -1.859607
16.948994 8.4022961 -1.8571153
16.98324 8.2898493 -1.8552216
17.014952 8.1764364 -1.8531286
17.043213 8.0616713 -1.8507366
17.068001 7.9456072 -1.8480456
17.08477 7.8262286 -1.8445572
17.107069 7.7098055 -1.8417665
17.132221 7.5950165 -1.8393745
17.137455 7.4718595 -1.8348895
17.15097 7.3528452 -1.8314011
17.17009 7.2366514 -1.8286104
17.184752 7.1189771 -1.8254211
17.216129 7.008523 -1.8241254
17.254189 6.9009075 -1.8236271
17.292503 6.7934527 -1.8232285
17.314365 6.6797004 -1.8211354
17.328039 6.563117 -1.8182451
17.364254 6.4552836 -1.8178464
17.397926 6.3465714 -1.8172485
17.438416 6.2403708 -1.8174478
17.490461 6.138195 -1.8189428
17.539085 6.0346437 -1.8201388
17.580498 5.9285021 -1.8206371
17.625992 5.8236394 -1.8216338
17.659498 5.714766 -1.8214345
17.691385 5.6054006 -1.8211354
17.739702 5.5011625 -1.8226304
17.780741 5.3945208 -1.8234278
17.817322 5.2864504 -1.8238264
17.856113 5.1789656 -1.8245242
17.893299 5.0709324 -1.8251221
17.94038 4.9655571 -1.8268164
17.981077 4.8582377 -1.8279128
18.022093 4.7508593 -1.8291088
18.060541 4.6426649 -1.8301054
18.095446 4.5334525 -1.8308032
18.129688 4.4239864 -1.8315008
18.160364 4.313581 -1.8318995
18.183582 4.2013979 -1.8316004
18.206106 4.0890927 -1.8313015
18.225992 3.9762449 -1.8308032
18.247128 3.8637195 -1.8305042
18.274389 3.7524848 -1.8309028
18.300974 3.6410608 -1.8313015
18.329811 3.5300164 -1.8319992
18.358952 3.4189372 -1.8327965
18.38546 3.307281 -1.8333945
18.420113 3.196959 -1.8348895
18.451159 3.085844 -1.8360856
18.48448 2.9749424 -1.8375806
18.520086 2.8642042 -1.8393745
18.536329 2.7503672 -1.8392749
18.553841 2.6367185 -1.8393745
8.6843176 1.1804526 -0.84011233
8.8038893 1.1417178 -0.8514744
6.8208351 0.84229064 -0.6506452
6.7359428 0.78989261 -0.64157552
6.6931925 0.74328345 -0.63679147
6.677835 0.70012921 -0.63479817
6.6869559 0.65962911 -0.63529646
6.6879053 0.618312 -0.63499749
6.679677 0.57624 -0.63380146
6.6741605 0.53453004 -0.63290447
6.6654067 0.49268997 -0.63170844
6.661355 0.45131293 -0.63101077
6.652081 0.4096992 -0.6298148
6.6495018 0.36860061 -0.62931645
6.6456757 0.32750028 -0.62871844
6.6445775 0.28658891 -0.62841946
6.6491942 0.24592295 -0.62871844
6.6465998 0.20499763 -0.6283198
6.6457429 0.16416222 -0.62812042
6.6506047 0.12345479 -0.62851912
6.645267 0.082571983 -0.6279211
6.6595788 0.04188101 -0.62931645
6.6636906 0.0010177263 -0.62971514
6.6745162 -0.039937325 -0.63081145
6.6940446 -0.08113528 -0.63280481
6.7093382 -0.12250102 -0.63439947
6.723381 -0.16403306 -0.63589448
6.7411447 -0.20586419 -0.63778818
6.7447262 -0.24740642 -0.63828647
6.7540164 -0.28925684 -0.63938284
6.7560897 -0.33088863 -0.63978148
6.7469778 -0.37195241 -0.6390838
6.843883 -0.41944778 -0.64905053
6.7935286 -0.45821095 -0.64426649
16.39727 -1.2087287 -1.6091435
16.332016 -1.3047179 -1.6033629
16.224569 -1.3963655 -1.5933962
16.089863 -1.4842743 -1.5807384
16.130955 -1.5879469 -1.5858215
16.080334 -1.682646 -1.5817351
16.011358 -1.7748095 -1.5758548
10.581514 -1.2383022 -1.0293801
10.576679 -1.3035713 -1.0296792
10.571443 -1.3688277 -1.0299782
10.571718 -1.4348725 -1.0308751
10.56764 -1.5004122 -1.0313735
10.588747 -1.5697525 -1.0344632
13.850467 -2.1405907 -1.3660555
13.804652 -2.2203183 -1.3627665
13.843764 -2.3138423 -1.3681486
15.764553 -2.7345831 -1.5648913
15.747477 -2.8312612 -1.5648913
14.668454 -2.7302001 -1.4567525
15.706662 -3.0233531 -1.564393
13.402264 -2.664994 -1.3309727
15.7561 -3.2338815 -1.5733631
15.763217 -3.3362691 -1.5761538
15.726894 -3.4295344 -1.5745591
15.661868 -3.5161569 -1.5700741
15.702045 -3.6265252 -1.5764527
15.755009 -3.7407372 -1.5842267
15.758826 -3.8439419 -1.5870174
8.2315092 -2.0608776 -0.81220555
8.2264185 -2.113328 -0.81300288
15.632483 -4.11941 -1.5815358
7.665782 -2.0698285 -0.75758797
7.6893783 -2.1269114 -0.76137537
15.436258 -4.3730869 -1.5692767
15.412958 -4.4688287 -1.5696754
8.0095091 -2.3750658 -0.7990495
7.9728851 -2.4175229 -0.79675716
7.946497 -2.4628615 -0.79556113
7.9625378 -2.5214913 -0.79885018
8.3729277 -2.708153 -0.84370035
15.057573 -4.9734898 -1.5506389
15.007915 -5.0594292 -1.5486456
7.779707 -2.6753547 -0.78629214
14.911838 -5.2316866 -1.5451573
14.858846 -5.3157101 -1.5429646
14.810992 -5.4013267 -1.5413699
14.754255 -5.4834361 -1.5388782
14.70079 -5.5664625 -1.5367852
14.645007 -5.6483231 -1.5344929
14.585069 -5.7282538 -1.5318019
14.518234 -5.8050756 -1.5284132
14.455616 -5.8831692 -1.5255228
14.395344 -5.9618559 -1.5229316
14.336486 -6.0407972 -1.5205395
14.286347 -6.1231618 -1.5191442
14.201989 -6.1904259 -1.5140612
14.08187 -6.241159 -1.5050911
14.059639 -6.334805 -1.5068852
14.020505 -6.4209542 -1.5068852
13.95378 -6.4942636 -1.5038952
13.903775 -6.5750804 -1.5027988
13.864066 -6.6606994 -1.5028985
13.810417 -6.739532 -1.5015031
13.752757 -6.8161898 -1.4997091
13.687568 -6.8888144 -1.4971178
13.620233 -6.959991 -1.4943271
13.261082 -6.8793731 -1.4586463
13.031099 -6.8618493 -1.4374171
12.893978 -6.8910179 -1.4266531
12.766615 -6.9239831 -1.4169854
12.597493 -6.9326158 -1.4025337
12.46437 -6.9593272 -1.3921683
12.392864 -7.0194912 -1.3888793
12.290895 -7.0616879 -1.3821019
12.28344 -7.1580148 -1.3862879
12.245284 -7.236794 -1.3869857
12.202356 -7.3128166 -1.387185
12.194669 -7.4102898 -1.3915703
12.180313 -7.5042892 -1.3952579
12.158511 -7.5941734 -1.3981483
12.165485 -7.702704 -1.4045271
12.122181 -7.7798924 -1.4050254
12.100905 -7.8714905 -1.4082147
12.069823 -7.9570947 -1.4103078
12.488207 -8.3433485 -1.4666196
12.431834 -8.4164705 -1.4660217
12.381598 -8.4937181 -1.466221
12.330067 -8.5700979 -1.4663206
12.266674 -8.6381435 -1.4650249
12.20372 -8.7063131 -1.4638289
12.131522 -8.7676229 -1.4615366
12.06144 -8.8301392 -1.4595432
11.987053 -8.8891611 -1.4570516
11.905236 -8.9422255 -1.4536629
11.833514 -9.0024538 -1.4515699
11.773324 -9.071249 -1.4509718
11.722149 -9.1469908 -1.4515699
11.660339 -9.214426 -1.4508722
11.599697 -9.28269 -1.4503739
11.54484 -9.3555689 -1.4506729
11.491064 -9.4293871 -1.4511713
11.429929 -9.4971733 -1.4507725
11.364588 -9.5613613 -1.4498756
11.300405 -9.6263962 -1.4491779
11.239618 -9.694253 -1.4489785
11.191916 -9.773509 -1.4505732
11.146643 -9.8551798 -1.4525665
11.315035 -10.12847 -1.4833637
11.194432 -10.144917 -1.47549
11.06086 -10.148158 -1.4658223
10.95027 -10.171138 -1.4592443
10.892729 -10.242908 -1.459942
10.819586 -10.299946 -1.4585466
10.741138 -10.351639 -1.4564536
10.654631 -10.395113 -1.4532642
10.565164 -10.435119 -1.4496763
10.479125 -10.477938 -1.4465865
10.384569 -10.5116 -1.4423008
10.315012 -10.570134 -1.4416032
10.219579 -10.601705 -1.4372178
10.137869 -10.646915 -1.4348258
6.9680853 -7.4079428 -0.98094195
9.9536304 -10.713657 -1.4270518
9.8769417 -10.762799 -1.4254571
9.800025 -10.811403 -1.4238625
9.7295218 -10.866884 -1.4232644
6.7435007 -7.6249104 -0.98183894
6.6867704 -7.6549025 -0.98034394
6.5421896 -7.5827694 -0.96539384
9.5715361 -11.23342 -1.4405068
2.1008301 -2.495054 -0.28895336
2.0918403 -2.5155501 -0.28995004
9.3965979 -11.448464 -1.4457892
9.3230429 -11.50204 -1.4452909
9.2597523 -11.568351 -1.4464868
2.0535369 -2.5965748 -0.29383704
2.0332808 -2.6036351 -0.29313937
2.0105863 -2.6073923 -0.29204303
1.9764755 -2.5959232 -0.28905302
1.9569243 -2.6032283 -0.28845504
1.9409144 -2.6151869 -0.28845504
1.9224801 -2.6238356 -0.28805634
1.9092587 -2.6396143 -0.2885547
1.9115193 -2.6771996 -0.29174405
8.2785692 -11.753189 -1.4022347
8.2159519 -11.817654 -1.403929
8.1506023 -11.87851 -1.4052247
1.8720187 -2.7628531 -0.29652807
1.8539253 -2.7726328 -0.29632872
1.8407118 -2.7897711 -0.2970264
7.8723698 -12.099146 -1.408115
7.7447739 -12.064322 -1.398248
7.6732645 -12.115819 -1.3987464
7.6087942 -12.178708 -1.40064
7.5339241 -12.225165 -1.40064
7.4370666 -12.235449 -1.396454
7.3592935 -12.276585 -1.3959557
7.2888899 -12.330075 -1.3969523
7.2110929 -12.371128 -1.3965536
7.1291003 -12.404789 -1.3953576
7.0597181 -12.460419 -1.396753
6.990406 -12.516534 -1.398248
6.9086766 -12.550473 -1.3972514
6.8291664 -12.588255 -1.396753
6.7494526 -12.625533 -1.3962547
6.6695385 -12.662307 -1.3957564
6.5926352 -12.704759 -1.3959557
6.5104809 -12.736997 -1.3950586
6.422811 -12.75804 -1.3929657
6.3346868 -12.777596 -1.3907729
6.2631483 -12.830532 -1.3923676
6.1955075 -12.892039 -1.394959
6.1184139 -12.934309 -1.3954573
6.0334768 -12.95988 -1.3941617
5.9488707 -12.985801 -1.3929657
5.8698969 -13.023872 -1.393165
5.8023729 -13.087844 -1.3962547
5.732296 -13.146915 -1.398846
5.6472082 -13.171781 -1.3977497
5.5651221 -13.203432 -1.3974507
5.4851446 -13.240088 -1.3977497
5.3993006 -13.262437 -1.3965536
5.3034139 -13.259284 -1.3926667
5.2063141 -13.251752 -1.388381
5.1059265 -13.234245 -1.3830986
5.0108838 -13.229034 -1.3792115
4.9268446 -13.25207 -1.3784143
4.8386197 -13.263355 -1.3764209
4.7514482 -13.276868 -1.3747265
4.6715403 -13.310468 -1.3752249
4.582984 -13.319121 -1.3731319
4.4964046 -13.332849 -1.3716369
4.4079571 -13.340346 -1.3695439
4.3293886 -13.377555 -1.3706403
4.2541351 -13.425685 -1.3729326
4.1690245 -13.442982 -1.3720355
4.0812626 -13.45117 -1.3702415
3.9938407 -13.459743 -1.3685472
3.9025877 -13.45437 -1.3654575
3.8261983 -13.50008 -1.3677499
3.7427607 -13.521385 -1.3675505
3.6610217 -13.548899 -1.3680489
3.5887222 -13.612481 -1.3723346
3.505873 -13.637136 -1.3726336
3.4182632 -13.642947 -1.3710389
3.3340156 -13.661731 -1.3708396
3.2542639 -13.699357 -1.3726336
3.1723845 -13.728762 -1.3736303
3.0904846 -13.758648 -1.3747265
3.0060048 -13.777352 -1.3747265
2.9203818 -13.790669 -1.3742282
2.8365092 -13.812228 -1.3746269
2.7583048 -13.862554 -1.3780156
2.6775203 -13.90169 -1.3803079
2.5928991 -13.92177 -1.3807065
2.5088367 -13.945252 -1.3815039
2.4254344 -13.973128 -1.3827996
2.3401432 -13.990692 -1.3830986
2.2518833 -13.990051 -1.3816036
2.1664555 -14.006556 -1.3819026
0.41252294 -2.7734938 -0.2431065
0.38696122 -2.7158797 -0.23702681
1.9058636 -14.026312 -1.3801086
0.25274083 -1.9418586 -0.15838948
0.24130818 -1.9473231 -0.15878814
0.3263267 -2.7769365 -0.24230917
0.31004915 -2.7858093 -0.24300684
0.20283391 -1.9266945 -0.15629648
0.19295827 -1.9477074 -0.15828982
0.17862655 -1.9230936 -0.15569848
0.16605517 -1.9152312 -0.15480147
0.15374556 -1.9092711 -0.1541038
0.14275937 -1.9201018 -0.15510046
0.13298774 -1.9507242 -0.15809049
0.12064986 -1.9455446 -0.15749247
0.10821586 -1.9373068 -0.15659547
0.097058758 -1.9528416 -0.15809049
0.08558695 -1.9653296 -0.15928648
0.072977275 -1.9509026 -0.15779148
0.061920397 -1.9811503 -0.16078149
0.049763121 -1.9814929 -0.16078149
0.064714752 -3.4561327 -0.3084881
0.043360841 -3.4445252 -0.3072921
0.02288793 -3.5531816 -0.31815583
0.0011082268 -2.5154486 -0.21420304
-0.02154395 -3.6875203 -0.33161089
-0.044267602 -3.6952784 -0.33240822
-0.063089848 -3.4860182 -0.31147811
-0.079932489 -3.3005474 -0.29294005
-0.10332876 -3.4024336 -0.30320576
-0.52928478 -14.393234 -1.4049257
-0.1492632 -3.4983315 -0.31297314
-0.70758158 -14.420439 -1.408414
-0.80099523 -14.505241 -1.417384
-0.89291239 -14.547725 -1.4221681
-0.98390412 -14.567783 -1.4247594
-0.27920178 -3.7997267 -0.34386992
-0.30433527 -3.8207548 -0.34616226
-0.32777324 -3.8188155 -0.34616226
-0.27006239 -2.9378865 -0.25775757
-0.28808385 -2.9361739 -0.25775757
-1.5361207 -14.681025 -1.4408058
-0.3243129 -2.9343956 -0.25795689
-0.34335378 -2.9412448 -0.25885391
-1.8110847 -14.690751 -1.4448922
-1.8959484 -14.638905 -1.4408058
-1.9898872 -14.65756 -1.4438956
-2.0825865 -14.664778 -1.4458889
-2.1734047 -14.657628 -1.4464868
-0.4738847 -3.0721471 -0.27360463
-0.49240994 -3.0672169 -0.27340528
-0.6352905 -3.8060713 -0.3487536
-0.65420872 -3.776612 -0.34616226
-0.56446081 -3.1447918 -0.28227568
-0.57263511 -3.0815985 -0.27619597
-0.53734589 -2.7966306 -0.24749185
-0.55158347 -2.7786424 -0.24599685
-2.9863274 -14.550411 -1.4500749
-3.0780241 -14.543494 -1.4512709
-0.57485449 -2.640666 -0.23294047
-0.85246629 -3.8011253 -0.35244128
-0.87666941 -3.799701 -0.35283998
-0.61623538 -2.5996268 -0.22985078
-0.63736379 -2.617063 -0.23204346
-0.65945458 -2.637233 -0.23453513
-0.67909187 -2.6466286 -0.23593047
-0.70267338 -2.6703146 -0.23882082
-0.73383737 -2.720706 -0.24450184
-0.7568872 -2.7391675 -0.24689385
-4.1039724 -14.486592 -1.470407
-0.94509578 -3.2629213 -0.30250809
-0.82019663 -2.768652 -0.25147855
-0.80741674 -2.6654937 -0.24121283
-4.4894934 -14.482253 -1.4809717
-4.5728607 -14.43736 -1.4791777
-4.6613607 -14.409029 -1.4791777
-4.7471876 -14.372598 -1.4783803
-4.8279748 -14.321513 -1.476088
-4.9063711 -14.264334 -1.4731977
-4.9911675 -14.226449 -1.4724003
-5.0877519 -14.221788 -1.475191
-1.1943778 -3.27775 -0.31167746
-5.2660522 -14.169475 -1.476387
-1.1562736 -3.0562711 -0.28955138
-1.1710653 -3.0389071 -0.28845504
-1.2038784 -3.0677834 -0.29234204
-1.2899262 -3.2284839 -0.31048146
-1.3059601 -3.2112923 -0.30948478
-1.241864 -3.0009789 -0.28755802
-1.2934873 -3.0721576 -0.29612941
-1.3538707 -3.161103 -0.30669409
-1.3613118 -3.1253731 -0.30370408
-1.3784469 -3.1124132 -0.30320576
-1.3922037 -3.0921037 -0.30191007
-6.3824172 -13.936374 -1.4976161
-6.4862852 -13.936641 -1.5020014
-6.5789094 -13.91187 -1.5036957
-6.6598377 -13.862272 -1.5026991
-1.379904 -2.8297606 -0.27759132
-1.3738188 -2.7739911 -0.27230895
-1.3612859 -2.7068505 -0.26573092
-1.3629256 -2.6692088 -0.2624419
-7.1098804 -13.705336 -1.5087788
-7.2003322 -13.673778 -1.5101742
-7.3108344 -13.679358 -1.5158552
-1.477363 -2.7259181 -0.2728073
-1.4907025 -2.7106998 -0.27210963
-7.5453782 -13.513804 -1.5125661
-7.6350222 -13.479373 -1.5139614
-7.7349381 -13.462466 -1.5174499
-7.8304238 -13.437103 -1.5200412
-5.0054626 -8.4703817 -0.94775277
-8.0141678 -13.372432 -1.5238285
-8.143096 -13.400382 -1.5328982
-8.2429142 -13.378966 -1.536287
-8.3190517 -13.318854 -1.5351906
-5.13517 -8.1111021 -0.92383265
-5.2364421 -8.1598263 -0.93340075
-5.2771864 -8.1133642 -0.93170637
-5.3558998 -8.1248579 -0.93698871
-5.6306505 -8.4285593 -0.97755325
-8.8399067 -13.057182 -1.5416689
-8.9356203 -13.025669 -1.5444596
-9.031847 -12.994288 -1.5473499
-9.1182833 -12.948388 -1.548546
-5.6235828 -7.8833375 -0.93220472
-9.3814154 -12.980671 -1.566486
-9.4597111 -12.921258 -1.5662867
-9.5127354 -12.827806 -1.5619013
-1.7358429 -2.3125758 -0.25187722
-1.7355397 -2.2828767 -0.24948519
-1.7203611 -2.2343535 -0.24470118
-9.8828382 -12.665008 -1.5713698
-1.7291409 -2.1896546 -0.24171117
-10.017616 -12.517918 -1.5681803
-10.076694 -12.43457 -1.5653898
-10.147751 -12.366354 -1.5645924
-10.22789 -12.309213 -1.5652901
-1.6462247 -1.9581902 -0.21848874
-1.6594996 -1.9495671 -0.21868807
-10.512524 -12.18818 -1.5744594
-10.547184 -12.077732 -1.5683798
-1.6891714 -1.9119823 -0.21779107
-1.7141452 -1.9164084 -0.21978441
-1.6877826 -1.8638314 -0.21410339
-1.715333 -1.8710355 -0.21649539
-1.7850227 -1.9231684 -0.22506677
-10.9989 -11.696557 -1.5704727
-11.062228 -11.620201 -1.5692767
-11.127106 -11.545658 -1.5683798
-3.2096975 -3.2909799 -0.42270657
-2.3872085 -2.4182346 -0.30260774
-3.4419243 -3.443419 -0.44991571
-3.3093724 -3.2704997 -0.42828795
-3.3186948 -3.2397089 -0.42679295
-3.4166019 -3.2945495 -0.43765664
-3.4165742 -3.254313 -0.43486598
-11.134408 -10.472483 -1.4933304
-11.197727 -10.403289 -1.4932307
-3.1489062 -2.8908448 -0.39041445
-3.5315366 -3.2022276 -0.43974966
-3.5488946 -3.1785073 -0.43945065
-3.4490635 -3.0512156 -0.42350394
-3.465472 -3.0280316 -0.42320493
-3.4297378 -2.9599178 -0.41602889
-3.3683052 -2.8710644 -0.40556386
-11.794443 -9.925231 -1.5062871
-11.857417 -9.8545818 -1.5065861
-3.4444261 -2.8281462 -0.40865353
-3.9510448 -3.2035241 -0.47174278
-10.935984 -8.7536631 -1.3653579
-10.991832 -8.6882477 -1.3656569
-11.055132 -8.6285973 -1.3669525
-11.272597 -8.6875334 -1.3877829
-3.9540102 -3.0097265 -0.45998207
-3.9747899 -2.9872015 -0.46028107
-11.278745 -8.3659534 -1.3688462
-11.417375 -8.3606615 -1.37971
-11.485394 -8.3026886 -1.3818029
-11.553133 -8.244195 -1.383896
-11.599433 -8.1702862 -1.3833976
-11.632189 -8.0870333 -1.3813046
-11.67913 -8.0138187 -1.3810056
-3.1245601 -2.1169157 -0.3402819
-3.124253 -2.0888593 -0.33868724
-3.149472 -2.0778656 -0.34018224
-3.1204591 -2.0313721 -0.33519888
-3.1496122 -2.0229363 -0.33719224
-3.1485147 -1.9950554 -0.33559754
-3.2307415 -2.0194523 -0.34386992
-3.4734905 -2.1415637 -0.37097937
-3.5401351 -2.1527658 -0.37725839
-3.5899768 -2.1529989 -0.38154408
-3.5962672 -2.1268804 -0.38074675
-3.6341805 -2.1193035 -0.3836371
-13.887838 -7.981257 -1.5666853
-3.6703031 -2.0804319 -0.3848331
-3.6100237 -2.0171237 -0.37646106
-14.103875 -7.7636161 -1.5748581
-3.9275115 -2.1315973 -0.40984952
-3.9773734 -2.1271577 -0.41403556
-3.9436893 -2.07814 -0.40875319
-14.286623 -7.4133182 -1.5744594
-8.7445688 -4.4701715 -0.94595879
-8.9798088 -4.5211124 -0.9692809
-7.6754575 -3.8057425 -0.82037824
-7.6736269 -3.7463555 -0.81758755
-9.1153183 -4.3809123 -0.97526091
-9.1366301 -4.3223472 -0.9746629
-9.0763788 -4.2258959 -0.96509486
-9.1564169 -4.1949849 -0.97107488
-5.7900558 -2.6103034 -0.59841967
-5.8068728 -2.5751302 -0.59851933
-5.8088822 -2.5334873 -0.59702432
-9.2877035 -3.9823401 -0.97446358
-9.2450275 -3.8970704 -0.96718788
-9.3211651 -3.8619738 -0.97286892
-9.3373137 -3.8017066 -0.97207153
-9.3558455 -3.7424951 -0.97157323
-9.5481167 -3.7515886 -0.98981231
-9.3722878 -3.616302 -0.96848357
-9.4408274 -3.5763457 -0.97346687
-9.4915066 -3.5290971 -0.9765566
-9.5241995 -3.4748831 -0.97775257
-9.389823 -3.3607364 -0.96120787
-9.2253027 -3.2381592 -0.94157344
-9.260994 -3.1869953 -0.94326776
-9.4925213 -3.2016363 -0.96569288
-7.8028312 -2.5787435 -0.78539509
-9.3777294 -3.0352874 -0.94954681
-9.3250351 -2.9551535 -0.94207174
-9.4693937 -2.9370697 -0.95532751
-9.4453411 -2.8662033 -0.95094216
-9.7031422 -2.8795023 -0.97605824
-9.6355743 -2.7952478 -0.96718788
-9.6898804 -2.7466509 -0.97107488
-9.6749048 -2.6783862 -0.96778589
-9.7055655 -2.6228638 -0.9692809
-9.8167305 -2.5883663 -0.97914791
-9.739912 -2.504307 -0.96957988
-9.8381033 -2.4652874 -0.97815126
-9.9361782 -2.4251564 -0.98672259
-9.8802004 -2.3473616 -0.97944689
-9.8430347 -2.2748249 -0.97416455
-9.9373875 -2.2324793 -0.98243695
-10.047143 -2.1924534 -0.99230397
-10.25607 -2.1721818 -1.0123371
-10.131773 -2.0809994 -0.99828398
-10.285858 -2.046937 -1.0127357
-10.561058 -2.0343862 -1.0395461
-10.655512 -1.9848434 -1.0479182
-11.042567 -1.9868718 -1.0860907
-11.063374 -1.9206094 -1.0869877
-11.061211 -1.8503926 -1.0855924
-12.025273 -1.9357919 -1.1822695
-13.213 -2.0437796 -1.3014712
-13.499899 -2.0033956 -1.3292783
-14.537459 -2.0661979 -1.4330318
-15.339626 -2.084204 -1.5128652
-16.720783 -2.1673522 -1.6511034
-17.693655 -2.1830842 -1.7479798
-18.103014 -2.1208799 -1.7879463
-19.542757 -2.1679895 -1.9317659
-19.567566 -2.0492797 -1.9329619
-19.719395 -1.9429252 -1.9470149
-19.556562 -1.8058012 -1.9294735
-19.587101 -1.6874772 -1.9314669
-19.597088 -1.5672613 -1.9314669
-19.607327 -1.4470595 -1.9315666
-19.61286 -1.3265227 -1.9312676
-19.616657 -1.2059115 -1.9308689
-19.632627 -1.0860174 -1.9317659
-19.641903 -0.96567982 -1.9320649
-19.653423 -0.84539741 -1.932663
-19.653269 -0.72460729 -1.9321645
-19.656351 -0.60397297 -1.9320649
-19.653719 -0.48320612 -1.9314669
-19.64736 -0.36243945 -1.9305699
-19.637274 -0.24173242 -1.9293739
-19.620478 -0.12112632 -1.9275799
-19.599957 -0.00073550065 -1.9254869
-19.581682 0.11941729 -1.9236928
-19.562672 0.23934582 -1.9218988
-19.553871 0.35924724 -1.9212012
-19.540356 0.47895193 -1.9201049
-19.528099 0.5985654 -1.9192078
-19.516104 0.71808314 -1.9184105
-19.500395 0.83734798 -1.9173142
-19.475014 0.95600748 -1.9153209
-19.455866 1.0747716 -1.9140252
-19.427055 1.1927875 -1.9118325
-19.400509 1.3106918 -1.9099388
-17.470491 -0.44487321 -1.9253982
-17.46693 -0.33755258 -1.9247284
-17.45973 -0.230253 -1.9237236
-17.448889 -0.12303343 -1.9223839
-17.426458 -0.015945297 -1.9198161
-17.422255 0.090961084 -1.9193695
-17.418386 0.19782652 -1.9190346
-17.397966 0.30437019 -1.9169134
-17.402725 0.41128057 -1.9176949
-17.376036 0.51734471 -1.9150155
-17.366575 0.62373847 -1.9143456
-17.335613 0.72915906 -1.9113313
-17.289124 0.83350581 -1.9066423
-17.262846 0.93844187 -1.9042978
-17.251804 1.044047 -1.9037396
-17.212351 1.1477014 -1.9000554
-17.193092 1.2524267 -1.8987156
-17.229664 1.3614194 -1.9037396
-17.225937 1.4675347 -1.9042978
-17.199783 1.5716665 -1.9023999
-17.17498 1.6757257 -1.9007252
-17.140652 1.7786168 -1.8980458
-17.131392 1.8839736 -1.8982691
-17.114574 1.988481 -1.8977109
-17.096132 2.0927324 -1.8970411
-17.060301 2.1946771 -1.8944733
-17.056362 2.3006439 -1.8955897
-17.040939 2.4051178 -1.895478
-17.015047 2.50804 -1.89425
-16.996391 2.6119423 -1.8939151
-16.988876 2.7175934 -1.8949199
-16.965019 2.8206434 -1.8941383
-16.937601 2.922996 -1.8930219
-16.905651 3.0244184 -1.8914589
-16.871141 3.1251969 -1.8896726
-16.844816 3.2273486 -1.8888911
-16.813972 3.3285232 -1.8876631
-16.783497 3.4296398 -1.8865466
-16.757275 3.5315323 -1.8859885
-16.731405 3.6334431 -1.8855419
-16.697159 3.7334349 -1.8842021
-16.680716 3.8373756 -1.8849837
-16.659758 3.9403405 -1.8853186
-16.626575 4.0403771 -1.8843138
-16.582188 4.1375084 -1.8820809
-16.517017 4.2290721 -1.8775036
-16.509981 4.3353863 -1.8797364
-16.432209 4.4229198 -1.8738195
-16.409552 4.5249834 -1.8743776
-16.391041 4.6282859 -1.875494
-16.339422 4.7221508 -1.8728147
-16.286316 4.8152752 -1.8700236
-16.25456 4.9145408 -1.8698003
-16.212706 5.010663 -1.8684605
-16.164598 5.1046619 -1.866451
-16.131081 5.2031403 -1.8662277
-16.08375 5.2970471 -1.8644415
-16.061306 5.3991184 -1.8656695
-16.036335 5.5004687 -1.8666743
-15.992903 5.5954804 -1.8655579
-16.000387 5.7085314 -1.8705817
-15.984672 5.8137331 -1.8729262
-15.973857 5.9210286 -1.8759407
-15.957678 6.0266547 -1.8783967
-15.948224 6.135159 -1.8817461
-15.944514 6.2463107 -1.8858768
-15.933579 6.3550711 -1.8892261
-15.912701 6.4601936 -1.8914589
-15.881028 6.5611253 -1.8924637
-15.860625 6.6669173 -1.8949199
-15.836781 6.7715335 -1.8970411
-15.810426 6.8753152 -1.898939
-15.798843 6.9858599 -1.9027348
-15.795563 7.100595 -1.907647
-15.777005 7.2089443 -1.910773
-15.758614 7.3177519 -1.9140106
-15.732289 7.4232116 -1.9163551
-15.702575 7.5273352 -1.9183648
-15.673962 7.6322436 -1.9205976
-15.646434 7.7379646 -1.9230537
-15.627078 7.8480949 -1.9266263
-15.602531 7.9560208 -1.9296407
-15.589604 8.0703363 -1.9342179
-15.565303 8.1792459 -1.9374555
-15.550774 8.2937717 -1.9420329
-15.53455 8.4079533 -1.9464986
-15.508799 8.5174637 -1.9498479
-15.495309 8.6342297 -1.9548718
-15.431657 8.7232761 -1.9535321
-15.400256 8.8306503 -1.9564347
-15.475497 9.0004158 -1.9732928
-15.39687 9.0815716 -1.9702784
-15.284569 9.1422081 -1.9629101
-15.292763 9.2749844 -1.9713949
-15.321063 9.421216 -1.9826708
-15.247787 9.5055847 -1.9806612
-15.214377 9.6148901 -1.9840105
-15.159279 9.710743 -1.9845687
-15.130249 9.8235979 -1.9886994
-15.089611 9.9293604 -1.9913789
-15.058167 10.041609 -1.9953979
-15.028381 10.155514 -1.999752
-14.980544 10.257641 -2.0017617
-14.939368 10.36466 -2.004776
-14.880368 10.45956 -2.0054457
-14.84748 10.573149 -2.0097997
-14.806502 10.681493 -2.013149
-14.779999 10.800873 -2.0186195
-14.733417 10.906138 -2.0214107
-14.645548 10.980836 -2.018508
-14.654663 11.128788 -2.0293372
-14.624701 11.248184 -2.0348077
-14.605583 11.376789 -2.0419528
-14.549546 11.477271 -2.0439625
-14.503695 11.586177 -2.0475349
-14.443919 11.684326 -2.0492096
-14.382717 11.781549 -2.0507727
-14.322394 11.879728 -2.0525589
-14.267495 11.982723 -2.0552382
-14.219441 12.091928 -2.0590341
-14.169078 12.199698 -2.0626066
-14.140399 12.326894 -2.0695286
-14.085359 12.431838 -2.0726545
-14.016223 12.524652 -2.073771
-13.936899 12.608418 -2.073436
-13.865135 12.699064 -2.0743291
-13.77238 12.770388 -2.0720963
-13.642321 12.806364 -2.0641696
-13.551959 12.878878 -2.0623834
-13.457642 12.94732 -2.0600388
-13.350181 13.002611 -2.0556848
-13.263779 13.078002 -2.0546801
-13.153743 13.129656 -2.0499911
-13.06035 13.197405 -2.0479815
-12.977043 13.275161 -2.0476465
-12.88568 13.344529 -2.0460837
-12.847455 13.469363 -2.0532286
-12.742759 13.524796 -2.0496562
-12.677135 13.621643 -2.0525589
-12.497813 13.595287 -2.0367057
-12.39679 13.652589 -2.033803
-12.293543 13.706944 -2.0305653
-12.201959 13.773934 -2.0293372
-12.115251 13.846302 -2.0290024
-12.04241 13.934665 -2.0311236
-11.937971 13.986374 -2.0278859
-11.847445 14.054042 -2.0271044
-11.752721 14.116544 -2.0256531
-11.643161 14.160758 -2.0216339
-11.559812 14.236562 -2.0223038
-11.468511 14.302571 -2.0216339
-11.352158 14.336834 -2.0164983
-11.216229 14.345158 -2.0077903
-11.167473 14.464837 -2.0150471
-11.0767 14.530717 -2.0147121
-10.992114 14.60476 -2.0156052
-10.911185 14.683896 -2.0172799
-10.809712 14.735346 -2.0151587
-10.723175 14.80703 -2.0159402
-10.63732 14.879823 -2.0169449
-10.520035 14.908275 -2.0119209
-10.422114 14.963573 -2.0106931
-10.352621 15.059998 -2.0151587
-10.202554 15.038535 -2.0036595
-10.107876 15.09755 -2.0032129
-10.004092 15.142704 -2.0009801
-9.86269 15.129713 -1.9910439
-9.8019247 15.240091 -1.9977424
-9.6890612 15.269742 -1.9937234
-9.5820036 15.307847 -1.9909322
-9.4868517 15.364662 -1.9907089
-9.3753395 15.394575 -1.9870248
-9.2771215 15.445848 -1.9862432
-9.1715374 15.484525 -1.9838988
-9.0573082 15.507901 -1.9796563
-8.9555359 15.551989 -1.9782051
-8.8412981 15.573807 -1.9739627
-8.7572203 15.648576 -1.976642
-8.6533585 15.688092 -1.9748558
-8.5445938 15.718193 -1.971953
-8.4414186 15.758062 -1.9703901
-8.3376122 15.796378 -1.9687154
-8.2400713 15.846358 -1.9686038
-8.1345301 15.880699 -1.9665942
-8.0208197 15.898374 -1.9625751
-7.9160433 15.933049 -1.9607888
-7.8015356 15.947401 -1.9565464
-7.6944818 15.976169 -1.9542019
-7.5822601 15.993448 -1.9505178
-7.481462 16.034267 -1.9498479
-7.3779607 16.069035 -1.9485081
-7.2767696 16.108568 -1.9478383
-7.17416 16.144741 -1.9468335
-7.0725751 16.182995 -1.9461637
-6.9703979 16.219694 -1.9453822
-6.8707447 16.262159 -1.9453822
-6.771595 16.305847 -1.9456055
-6.671041 16.346169 -1.9454938
-6.5613708 16.363735 -1.9427028
-6.4692178 16.424953 -1.9452705
-6.3690314 16.466192 -1.9454938
-6.2752862 16.524471 -1.9478383
-6.1810651 16.582218 -1.9501828
-6.079885 16.621698 -1.9504061
-5.9821453 16.670851 -1.9518574
-5.8800721 16.708179 -1.951969
-5.7800355 16.751461 -1.9528623
-5.6695004 16.764017 -1.9501828
-5.5665312 16.798491 -1.9501828
-5.4624324 16.829494 -1.9498479
-5.3575606 16.857958 -1.9492897
-5.2484131 16.872486 -1.9471685
-5.1444969 16.903421 -1.9470568
-5.0358629 16.918476 -1.945159
-4.9341798 16.956692 -1.9460521
-4.8303142 16.987604 -1.9461637
-4.7222662 17.003517 -1.9446007
-4.6123843 17.012032 -1.9422562
-4.5102015 17.048658 -1.943261
-4.4022803 17.063501 -1.9418097
-4.291923 17.068026 -1.9392419
-4.184514 17.083422 -1.9380138
-4.0722365 17.077845 -1.9344412
-3.9601855 17.071531 -1.9308686
-3.3255949 14.746659 -1.6603591
-3.1837904 14.532844 -1.6334534
-3.0829821 14.497673 -1.6272014
-2.9385579 14.247698 -1.5963881
-2.8475742 14.247919 -1.5943786
-2.7648172 14.289515 -1.5971696
-2.6737957 14.288629 -1.59516
-2.5775847 14.257827 -1.5898012
-2.4569144 14.083456 -1.5681427
-2.3734202 14.115906 -1.5701522
-2.2804105 14.090964 -1.5656865
-2.182297 14.030064 -1.5572016
-2.0409968 13.673636 -1.5152241
-1.9539629 13.66426 -1.512768
-1.8702185 13.676977 -1.5128796
-1.7830474 13.66356 -1.5100886
-1.699421 13.676216 -1.5103118
-1.6228139 13.74856 -1.5173453
-1.5726663 14.064411 -1.5519545
-1.4803884 14.017467 -1.5455909
-1.4025126 14.108362 -1.5548571
-1.3526394 14.510506 -1.5992908
-1.2671992 14.560113 -1.6039798
-1.1905742 14.725105 -1.6217309
-1.1509877 15.41195 -1.6983176
-1.0398878 15.177807 -1.6711885
-1.004276 16.106295 -1.775016
-0.90827554 16.162756 -1.7807096
-0.72306871 14.449998 -1.5874567
-0.63452244 14.457141 -1.5877917
-0.61200601 16.213478 -1.7848405
-0.47550377 15.046878 -1.6533257
-0.3825106 15.023683 -1.650423
-0.28839746 14.926391 -1.6392587
-0.21355546 16.195791 -1.7817144
-0.10469982 14.857258 -1.6312206
-0.01381697 15.157732 -1.6649365
0.078786492 15.080021 -1.6562284
0.17290232 15.219363 -1.67197
0.28020567 16.014879 -1.7615072
0.38425946 16.258247 -1.7890829
0.47878039 16.079767 -1.7693222
0.53120279 14.788465 -1.624522
0.62176615 14.780955 -1.6240754
0.71254432 14.778847 -1.6242987
0.79140389 14.556887 -1.599849
0.85118496 14.063725 -1.544921
0.93508303 14.022541 -1.5409019
1.0440577 14.331717 -1.5764041
1.0995001 13.913917 -1.5300726
1.1874678 13.937603 -1.5335335
1.2718801 13.918179 -1.5321938
1.3584142 13.921982 -1.5335335
1.443197 13.907454 -1.5328636
1.5425147 14.025763 -1.5472655
1.6197169 13.940026 -1.538669
1.7029271 13.911083 -1.5365478
1.7900265 13.914171 -1.5381109
1.8773609 13.917699 -1.5397854
1.9602236 13.888206 -1.5377759
2.0459826 13.879848 -1.5382224
2.1354859 13.895518 -1.54146
2.2240028 13.902761 -1.5438045
2.3073113 13.877089 -1.5424649
2.3973162 13.891069 -1.5457025
2.5920427 14.488465 -1.6155906
2.5733919 13.891872 -1.549275
2.6574605 13.869965 -1.5486052
2.7442515 13.862171 -1.54961
2.8394022 13.894728 -1.5553037
2.922966 13.869265 -1.5544106
3.0109634 13.864664 -1.5559735
3.1300197 13.998188 -1.5735015
3.5486679 15.425594 -1.7402952
3.3084245 13.987736 -1.5768507
3.76773 15.504489 -1.7545854
3.8281527 15.342235 -1.7385088
3.9059517 15.254919 -1.7311405
3.7269201 14.192603 -1.6105667
3.8508658 14.306691 -1.6265316
3.9494076 14.322071 -1.6311089
4.0339718 14.286092 -1.6297692
4.1403136 14.32599 -1.6373608
4.2706804 14.444215 -1.6542189
4.3408232 14.35686 -1.6470737
4.3654571 14.124875 -1.622959
4.4460588 14.07887 -1.6207261
4.5405974 14.07686 -1.6237406
4.773911 14.495193 -1.6765473
4.866878 14.477873 -1.6779987
4.9604568 14.461838 -1.6796733
4.9276819 14.084067 -1.6383656
5.0270295 14.09007 -1.6427197
5.2010179 14.299907 -1.6715235
5.4796505 14.783011 -1.7332617
5.4838891 14.520413 -1.7057977
5.5907202 14.532866 -1.7113798
5.5942464 14.279921 -1.6850321
5.6578326 14.185328 -1.6777754
5.917829 14.576662 -1.7294658
6.0063992 14.538239 -1.7292426
6.0419683 14.373772 -1.7137243
6.1515374 14.386683 -1.7198646
6.2646613 14.40608 -1.7268981
6.3537412 14.369187 -1.7271214
6.4466786 14.340808 -1.728461
6.532073 14.295559 -1.7277912
6.7075543 14.444488 -1.7512361
6.810051 14.432716 -1.7549202
6.8967619 14.387074 -1.7544737
6.9853449 14.34538 -1.7545854
7.0811639 14.318282 -1.7565949
7.1791434 14.294989 -1.7591627
7.2604008 14.238276 -1.7575997
7.3659019 14.228759 -1.7620654
7.4627762 14.201769 -1.7644099
7.5956035 14.241641 -1.7753508
7.6539927 14.141456 -1.7685406
7.8013697 14.204848 -1.7827193
7.8961215 14.170602 -1.7845055
8.0308447 14.206666 -1.7954465
8.1148977 14.15195 -1.7947767
8.2310553 14.152575 -1.8013635
8.3333893 14.128338 -1.8048245
8.4112511 14.062441 -1.8029265
8.5231438 14.053051 -1.8085086
8.6295109 14.033504 -1.8128626
8.7469988 14.030889 -1.8195612
8.8743334 14.04248 -1.8282694
8.9935617 14.039644 -1.8351911
9.1287813 14.060044 -1.8453506
9.2525711 14.061048 -1.8530539
9.3860874 14.075114 -1.8626552
9.5034313 14.063367 -1.8689072
9.6209831 14.050708 -1.8751591
9.760828 14.068978 -1.8857652
9.8869715 14.065732 -1.8935801
10.020358 14.07118 -1.9027348
10.151275 14.071488 -1.9113313
10.286674 14.076335 -1.9207093
10.422515 14.080046 -1.9300872
10.548056 14.068306 -1.9374555
10.678652 14.061885 -1.9457171
10.808352 14.052814 -1.9537554
10.947502 14.054438 -1.9634682
11.090154 14.058782 -1.9737394
11.274824 14.113923 -1.9914905
11.405586 14.099332 -1.9994171
11.556744 14.108266 -2.0109162
11.693846 14.098281 -2.0198476
11.835093 14.091708 -2.029449
11.949017 14.051377 -2.0342495
12.018151 13.958215 -2.0313468
12.131649 13.916421 -2.0361474
12.164862 13.78286 -2.0273278
12.23265 13.689433 -2.0245366
12.295083 13.590535 -2.0209641
12.358106 13.492852 -2.0176148
12.403502 13.376692 -2.0114744
12.470384 13.284393 -2.0090184
12.526332 13.180973 -2.0048876
12.587683 13.083813 -2.0017617
12.643459 12.981413 -1.9978541
12.705431 12.885899 -1.9950631
12.761091 12.784487 -1.9913789
12.818106 12.684975 -1.9880296
12.872248 12.583161 -1.9843453
12.932773 12.488065 -1.9817775
12.986863 12.387213 -1.9783167
13.049606 12.295027 -1.9763072
13.110252 12.201184 -1.9740742
13.170239 12.10706 -1.9718415
13.227358 12.010656 -1.9692737
13.280091 11.910689 -1.9661477
13.333585 11.811847 -1.9632449
13.389357 11.715415 -1.9607888
13.440688 11.615494 -1.9577745
13.461065 11.489578 -1.9502945
13.505478 11.384989 -1.9464986
13.567444 11.295548 -1.9453822
13.623447 11.201358 -1.9434843
13.670321 11.100016 -1.9403583
13.713364 10.996033 -1.9367857
13.749413 10.887006 -1.93232
13.786207 10.779176 -1.9280776
13.834783 10.681022 -1.9256215
13.872399 10.574845 -1.9217139
13.927497 10.482355 -1.9203743
13.960445 10.373585 -1.9160203
14.031045 10.29302 -1.917025
14.077841 10.195075 -1.9147922
14.124772 10.097523 -1.912671
14.166977 9.996913 -1.9099915
14.207664 9.8955984 -1.9072005
14.250917 9.7964134 -1.904856
14.291845 9.6959543 -1.9022882
14.327949 9.5925989 -1.8991623
14.359177 9.4864264 -1.895478
14.386312 9.3780613 -1.8913473
14.411824 9.2691841 -1.8871049
14.449128 9.168334 -1.8845371
14.479 9.063158 -1.8810762
14.517427 8.9637041 -1.8788433
14.549238 8.8605013 -1.875829
14.585442 8.7603168 -1.8734845
14.61498 8.656476 -1.8703585
14.646367 8.5541077 -1.8675674
14.667577 8.4462252 -1.8635483
14.694928 8.34233 -1.8604224
14.688605 8.2199755 -1.8530539
14.742246 8.1316137 -1.8535005
