# .PCD v0.7 - Point Cloud Data file format
VERSION 0.7
FIELDS x y z
SIZE 4 4 4
TYPE F F F
COUNT 1 1 1
WIDTH 1501
HEIGHT 1
VIEWPOINT 0 0 0 1 0 0 0
POINTS 1501
DATA ascii
6.167542 -3.3902998 -1.6173161
6.148324 -3.4290276 -1.6177745
6.1085296 -3.4561441 -1.6127321
6.0821424 -3.4906535 -1.6113569
6.0892124 -3.5445549 -1.6191497
6.067349 -3.5818508 -1.6191497
6.0218716 -3.6050141 -1.6127321
6.0612144 -3.6792688 -1.6296929
6.0285769 -3.7102687 -1.6269425
5.9924841 -3.7389462 -1.6232753
5.9949322 -3.7917733 -1.6303805
5.9445109 -3.811151 -1.6228169
5.9357066 -3.8571 -1.6269425
5.8826618 -3.8741765 -1.6186913
5.845015 -3.9010136 -1.6147949
5.8516092 -3.9575245 -1.6235045
5.8087482 -3.9807003 -1.6182328
5.7834139 -4.0157118 -1.6180037
5.7936959 -4.0757632 -1.6280885
5.7955303 -4.1304421 -1.6358813
5.7724447 -4.167634 -1.6365689
5.7703352 -4.220212 -1.6434449
5.7193027 -4.2369986 -1.6361105
5.7360201 -4.304141 -1.6487166
5.7467022 -4.3675246 -1.6597182
5.7136245 -4.397954 -1.6578846
5.6681066 -4.4185677 -1.6523838
5.6248436 -4.440598 -1.6475705
5.576962 -4.4586177 -1.6413821
5.5320983 -4.4786677 -1.6361105
5.4969859 -4.5063572 -1.6338185
5.5164185 -4.5791664 -1.6482581
5.472569 -4.5997767 -1.6434449
5.4331226 -4.623807 -1.6400069
5.3958001 -4.6494327 -1.6372565
5.3539667 -4.6709356 -1.6331309
5.3339605 -4.7114315 -1.6358813
5.3419571 -4.7771611 -1.6475705
5.31038 -4.807889 -1.6468829
5.2836494 -4.8430128 -1.6477997
5.2431307 -4.8654108 -1.6443617
5.1961513 -4.881496 -1.6388609
5.1787977 -4.9253612 -1.6429865
5.1358566 -4.9448934 -1.6388609
5.1144805 -4.9851451 -1.6418406
5.0664735 -4.999342 -1.6361105
5.0288162 -5.0234566 -1.6338185
5.0122714 -5.0687523 -1.6386317
2.2752595 -2.3296216 -0.72687256
2.2582188 -2.3407366 -0.72595578
2.2525444 -2.3637083 -0.72893536
2.1605959 -2.2952783 -0.70234811
4.7974205 -5.1588197 -1.6189204
4.7748952 -5.1981945 -1.6221293
4.7468348 -5.23172 -1.6235045
4.7159433 -5.262197 -1.6239629
4.6958251 -5.304882 -1.6283177
4.655498 -5.3248024 -1.6255673
4.6112862 -5.3400073 -1.6214417
4.5740118 -5.3630171 -1.6198373
4.5385103 -5.3880043 -1.6189204
4.5159483 -5.4284711 -1.6228169
4.4887342 -5.4635987 -1.625109
4.4489923 -5.48348 -1.6228169
4.4043064 -5.4970026 -1.6186913
4.3686824 -5.5216331 -1.6180037
2.0016236 -2.5623763 -0.72572654
1.9828906 -2.5707562 -0.72458059
1.9617708 -2.575906 -0.72251779
1.9465134 -2.5886726 -0.72274697
1.9288521 -2.598223 -0.72205937
1.8202186 -2.4836195 -0.68515807
1.770705 -2.4474287 -0.67140609
1.7296269 -2.421814 -0.66086286
1.7057592 -2.4196532 -0.65719563
4.0018525 -5.7503719 -1.6097524
3.9720051 -5.7828417 -1.6120445
3.9397247 -5.8119388 -1.6134197
3.888834 -5.8133507 -1.607002
3.8627439 -5.8517246 -1.6111276
3.8156085 -5.8581882 -1.6063144
3.7801178 -5.882309 -1.6065437
3.7429109 -5.9037485 -1.6060853
3.7122939 -5.9356809 -1.6086065
3.6635365 -5.9384661 -1.6031057
3.6346202 -5.9733057 -1.6065437
3.5958967 -5.9921565 -1.6056268
3.5531125 -6.004056 -1.6028764
3.5162053 -6.0257444 -1.6028764
3.4709129 -6.0328636 -1.5989801
3.4343109 -6.0548935 -1.5992093
1.6488302 -2.949424 -0.75575179
1.633521 -2.9646006 -0.75712705
1.6222689 -2.9873979 -0.76056504
3.3182149 -6.1999989 -1.6159409
3.2437837 -6.1513643 -1.5976049
3.2077737 -6.1746068 -1.5985217
3.1786962 -6.211503 -1.6031057
3.1321983 -6.2143755 -1.5987508
3.0944414 -6.2343493 -1.5989801
3.0535653 -6.247972 -1.5976049
3.026145 -6.2893953 -1.603564
2.9804134 -6.2928905 -1.5996677
2.9438012 -6.3154707 -1.6008136
2.9009361 -6.3245673 -1.5985217
2.851263 -6.3182936 -1.5923332
2.8057265 -6.3205462 -1.5884368
2.7715657 -6.3483472 -1.5911872
2.7383213 -6.3786497 -1.5946252
2.7093515 -6.4195442 -1.6008136
2.6620774 -6.4171677 -1.5960004
2.6358824 -6.4658289 -1.6042516
2.5856621 -6.455677 -1.5976049
2.5335279 -6.4397187 -1.5895828
2.484143 -6.4297204 -1.5831652
2.4380839 -6.4275498 -1.5788105
2.3982596 -6.4414763 -1.5785812
2.3530111 -6.4405284 -1.5746849
2.3121345 -6.45118 -1.573768
2.2718618 -6.4634089 -1.5733097
2.2346978 -6.4845891 -1.5751432
2.1951785 -6.4991012 -1.5753725
2.1546476 -6.5106001 -1.574914
2.1140585 -6.5218463 -1.5744556
2.0751793 -6.5384059 -1.5753725
2.0332885 -6.5454388 -1.5739973
1.9936545 -6.5596542 -1.5744556
1.9547546 -6.5764284 -1.5756016
1.9165388 -6.5957766 -1.5774353
1.8755 -6.6055393 -1.5769768
1.8338932 -6.6131711 -1.5760601
1.7937897 -6.6261783 -1.5765184
1.7585685 -6.657764 -1.5815609
1.7300699 -6.7165012 -1.59325
1.6814765 -6.6977243 -1.5861448
1.6373419 -6.6956239 -1.5831652
1.5951002 -6.70081 -1.5820192
1.5515386 -6.7000399 -1.5794981
1.5123231 -6.7179804 -1.5815609
1.4727379 -6.7347407 -1.5833944
1.4328017 -6.7503157 -1.5849988
1.3901776 -6.7532597 -1.5836236
1.3458574 -6.747344 -1.5801857
1.3044311 -6.755475 -1.5801857
1.263492 -6.766222 -1.5808733
1.2207414 -6.7671423 -1.5792688
1.179196 -6.7745051 -1.5792688
1.1397004 -6.7940922 -1.5822484
1.0989224 -6.8067231 -1.5836236
1.054897 -6.7989097 -1.5801857
1.0131598 -6.8052545 -1.5801857
0.97138441 -6.8113432 -1.5801857
0.92957252 -6.8171754 -1.5801857
0.88609225 -6.8102026 -1.577206
0.84297198 -6.8048854 -1.5746849
0.80222625 -6.8186302 -1.5767477
0.76069641 -6.8263264 -1.5774353
0.71879655 -6.8308654 -1.5774353
0.67600578 -6.8264294 -1.5753725
0.63221622 -6.8100953 -1.5705593
0.59226817 -6.8351808 -1.5756016
0.54937959 -6.8270435 -1.5728512
0.50769579 -6.8331981 -1.5735388
0.46536121 -6.8303576 -1.5721636
0.4232614 -6.8301702 -1.571476
0.38156149 -6.8365259 -1.5723928
0.33950949 -6.8367939 -1.5719345
0.29776517 -6.8436108 -1.5730804
0.25624117 -6.857954 -1.5760601
0.21406543 -6.8564787 -1.5753725
0.17172176 -6.8469591 -1.5728512
0.12968789 -6.846911 -1.5726221
0.087761223 -6.8543906 -1.5742264
0.045688726 -6.8528533 -1.573768
0.0036395472 -6.8530049 -1.573768
-0.038533948 -6.8752856 -1.5790396
-0.080685072 -6.8719997 -1.578352
-0.12262388 -6.8587232 -1.5753725
-0.16461265 -6.8539495 -1.5744556
-0.20695744 -6.8625398 -1.5767477
-0.24902605 -6.860168 -1.5765184
-0.29177412 -6.8740711 -1.5801857
-0.33338088 -6.8604846 -1.5774353
-0.37632018 -6.8738604 -1.5811024
-0.4187859 -6.8762798 -1.5822484
-0.45901778 -6.8444448 -1.5753725
-0.50043756 -6.8337331 -1.5735388
-0.54320604 -6.8412075 -1.5760601
-0.58633387 -6.8513236 -1.5792688
-0.62933958 -6.8582592 -1.58179
-0.67197824 -6.8600812 -1.5831652
-0.7128489 -6.8442111 -1.5804148
-0.75312328 -6.8242278 -1.5767477
-0.79486912 -6.8185115 -1.5765184
-0.83669174 -6.8135061 -1.5765184
-0.88308972 -6.8439631 -1.5849988
-0.92558861 -6.8422742 -1.5859157
-0.96632743 -6.8277922 -1.5838529
-1.0107645 -6.839067 -1.5879785
-1.0504867 -6.8183055 -1.5845405
-1.0893761 -6.7934704 -1.5801857
-1.1319993 -6.7924194 -1.5815609
-1.1817819 -6.8323436 -1.5927917
-1.2238538 -6.825922 -1.5930208
-1.2594978 -6.7847877 -1.5849988
-1.2950501 -6.7453861 -1.5774353
-0.84149432 -4.2414975 -0.9783054
-1.3730444 -6.7060995 -1.5719345
-1.4101456 -6.6785007 -1.5673504
-1.4486151 -6.6583085 -1.5646
-1.4964617 -6.6806397 -1.5721636
-1.5431072 -6.6959939 -1.5781229
-1.5875292 -6.7006068 -1.5815609
-0.72893047 -2.9936957 -0.68561649
-0.74586999 -2.9835007 -0.68424129
-0.75473434 -2.9420955 -0.67530251
-1.7477793 -6.6455083 -1.5781229
-0.79762059 -2.957988 -0.6814909
-0.81575543 -2.9530382 -0.6814909
-0.83227068 -2.9423573 -0.6801157
-1.9068246 -6.588459 -1.5751432
-1.9665548 -6.6419687 -1.5911872
-2.0126302 -6.6474781 -1.5955421
-2.0519419 -6.6303544 -1.594396
-1.067378 -3.3748531 -0.79356986
-1.0823826 -3.350641 -0.78921509
-2.1858289 -6.6284389 -1.603564
-1.0936151 -3.2485421 -0.76721185
-1.1081533 -3.22612 -0.76331544
-1.1198838 -3.1962931 -0.75758541
-1.497303 -4.1912847 -1.0081015
-1.1486999 -3.1539557 -0.75048023
-1.1362016 -3.061065 -0.72893536
-1.1594372 -3.0658722 -0.731915
-1.2250977 -3.1804206 -0.76262784
-1.6358256 -4.1705685 -1.0149775
-1.653806 -4.141469 -1.0101643
-2.6344957 -6.4821572 -1.6076896
-1.2566563 -3.037859 -0.73420697
-1.2699878 -3.0175302 -0.73099816
-1.2804366 -2.9908886 -0.72618496
-1.2975988 -2.980298 -0.72549736
-1.8417568 -4.1605701 -1.0314798
-1.8660527 -4.1465282 -1.0307922
-1.8708143 -4.0898547 -1.0191031
-1.8930022 -4.0721197 -1.0174986
-1.9233562 -4.0718703 -1.0204782
-1.9133575 -3.9871509 -1.0014546
-1.9719001 -4.0453358 -1.0197906
-2.0022979 -4.0445013 -1.0227703
-2.0122144 -4.0025692 -1.0149775
-2.0407181 -3.9979503 -1.0170403
-2.0925245 -4.038074 -1.0310215
-2.1154499 -4.0217128 -1.0301046
-2.1501706 -4.0275483 -1.0351471
-2.2082219 -4.0759029 -1.0516496
-2.2125604 -4.024744 -1.0415647
-2.2106662 -3.9634848 -1.0287294
-2.201874 -3.8913884 -1.0129147
-2.2446039 -3.9107306 -1.0218534
-2.2744329 -3.9069796 -1.0246038
-2.3013318 -3.8979797 -1.025979
-2.3287053 -3.889632 -1.0275835
-2.3686893 -3.9018974 -1.034918
-2.3726909 -3.8549592 -1.025979
-2.3947542 -3.8378506 -1.0252914
-2.4369874 -3.8527005 -1.0335426
-2.4206579 -3.7753959 -1.0161234
-2.4352925 -3.7474124 -1.0124563
-2.4496751 -3.7193918 -1.0087891
-2.4665072 -3.6953847 -1.0062678
-2.4956784 -3.6898568 -1.0090183
-2.5463321 -3.7154253 -1.0207075
-2.551873 -3.6749446 -1.0136023
-2.5637338 -3.6440907 -1.0092474
-2.6357553 -3.6980488 -1.029417
-2.665803 -3.6920662 -1.0323967
-2.6912799 -3.6795683 -1.0335426
-2.7236559 -3.6762824 -1.0374391
-2.7712812 -3.6929808 -1.0472947
-2.7461851 -3.6131322 -1.0287294
-2.725558 -3.5406754 -1.0122271
-2.7885218 -3.5768571 -1.0280418
-2.8230815 -3.5757244 -1.032855
-2.8425374 -3.5552936 -1.0319383
-2.8593993 -3.5317328 -1.0301046
-2.8532481 -3.4802454 -1.0197906
-2.9217956 -3.5195963 -1.0372099
-2.9113975 -3.4635987 -1.0255207
-2.9641356 -3.4827352 -1.0369807
-3.0261121 -3.5116773 -1.0516496
-3.0552807 -3.5018454 -1.0544
-3.1250365 -3.5377507 -1.0715899
-3.1609588 -3.5344725 -1.0766324
-3.2459524 -3.585007 -1.0988648
-3.7782419 -4.1218719 -1.2767243
-3.3572319 -3.6176853 -1.1222433
-3.3213871 -3.5352943 -1.1023028
-3.255146 -3.4224455 -1.0722775
-3.3442678 -3.4732325 -1.0954268
-3.3736689 -3.4610121 -1.0981772
-3.4057798 -3.4513328 -1.1018444
-3.4289565 -3.4324365 -1.102532
-3.4603343 -3.4215989 -1.10597
-3.4826562 -3.4016626 -1.1064284
-3.4614365 -3.3396749 -1.0926764
-3.5685256 -3.4009798 -1.1208681
-3.446882 -3.2448997 -1.0747987
-3.4603126 -3.2177229 -1.0727359
-3.4771237 -3.1937962 -1.0718192
-3.5024219 -3.1776335 -1.0736527
-3.391382 -3.0391426 -1.0323967
-3.4092371 -3.0176311 -1.0321674
-3.6138096 -3.1594002 -1.0903844
-3.7399454 -3.2294185 -1.1236185
-4.4772997 -3.8185143 -1.3457136
-3.7897158 -3.1920602 -1.1268272
-3.5301285 -2.9365354 -1.0413355
-3.5834277 -2.9438632 -1.0521079
-3.6505532 -2.9616861 -1.067006
-3.5623138 -2.8540168 -1.034918
-3.578232 -2.8308971 -1.0344595
-3.6338851 -2.8388536 -1.0459195
-3.6735852 -2.833746 -1.0525663
-3.6715457 -2.7964058 -1.0468363
-3.7283084 -2.8036644 -1.0585256
-3.7329376 -2.7714503 -1.0548583
-3.7483025 -2.7473423 -1.0544
-3.7193537 -2.6911926 -1.0411063
-3.6668897 -2.6190941 -1.0211658
-3.6932323 -2.6038375 -1.0241455
-3.7251182 -2.5922484 -1.0287294
-3.7505815 -2.5759566 -1.0314798
-3.75262 -2.5436094 -1.0275835
-3.8053715 -2.5454335 -1.0381267
-3.8314786 -2.5290082 -1.0411063
-3.7979882 -2.4735737 -1.0273542
-3.8614061 -2.4812732 -1.0408771
-3.8091495 -2.4147916 -1.0220827
-3.8313217 -2.3960195 -1.0241455
-3.8550637 -2.378088 -1.0266666
-3.9094954 -2.3786778 -1.0376683
-3.9357014 -2.3616576 -1.0408771
-3.9409039 -2.3320107 -1.0383559
-3.9526167 -2.306314 -1.0376683
-3.9506636 -2.272794 -1.0333135
-3.9501419 -2.2403457 -1.029417
-3.9808056 -2.2255673 -1.0340011
-3.9798944 -2.1931121 -1.0301046
-3.9847229 -2.1640046 -1.0278127
-3.9730389 -2.1261928 -1.0211658
-3.9885931 -2.103137 -1.0218534
-4.0074687 -2.0817654 -1.0234579
-4.0236325 -2.0589106 -1.0243747
-4.0379286 -2.0350597 -1.0248331
-4.0468521 -2.0085139 -1.0239162
-4.0468569 -1.9776607 -1.0207075
-4.0738263 -1.9599679 -1.0246038
-4.1350379 -1.9582691 -1.0374391
-4.1734424 -1.9451987 -1.0443151
-4.1835299 -1.9187425 -1.0438567
-4.1925626 -1.8918356 -1.0431691
-4.1934161 -1.8613352 -1.0404187
-4.2734456 -1.8655621 -1.0580671
-4.3071723 -1.8489064 -1.0637971
-4.2843595 -1.808059 -1.0550876
-4.342124 -1.8011339 -1.067006
-4.4026675 -1.7946699 -1.079612
-4.4578714 -1.7853581 -1.0908428
-4.5212774 -1.7786435 -1.1041365
-4.5548048 -1.7596391 -1.1098664
-4.6228514 -1.7534105 -1.1243061
-4.6025085 -1.7134629 -1.1165133
-4.6193357 -1.6875288 -1.1181177
-4.6919103 -1.6814888 -1.1337032
-4.8564115 -1.7069039 -1.1722089
-5.0315175 -1.733851 -1.2132359
-5.1250577 -1.7309841 -1.2338638
-5.2538633 -1.7386568 -1.2632015
-5.3385072 -1.7304029 -1.2815375
-5.3146973 -1.6867169 -1.2730571
-5.4504352 -1.6930648 -1.3039992
-5.7559428 -1.7493342 -1.3766557
-5.8449416 -1.7372839 -1.3959085
-6.1751599 -1.7942936 -1.474295
-6.883636 -1.9544768 -1.6450493
-6.891747 -1.9111623 -1.6441325
-6.9597168 -1.8841037 -1.6578846
-6.9965558 -1.8480773 -1.664073
-7.0294433 -1.8106982 -1.6693445
-7.0970654 -1.7817563 -1.6830966
-7.2260528 -1.7670848 -1.7117467
-7.2983084 -1.7373686 -1.7266446
-7.3970203 -1.7129817 -1.7479603
-7.4985538 -1.6880897 -1.7699635
-7.8891292 -1.7252467 -1.8616437
-8.1623611 -1.7326032 -1.924903
-8.1976261 -1.6875914 -1.9308622
-8.2202358 -1.6397359 -1.9338418
-8.2397003 -1.5911126 -1.9361339
-8.2751417 -1.5453506 -1.9423223
-8.2997952 -1.4973118 -1.9459895
-8.303072 -1.4453552 -1.9446143
-8.2868252 -1.390193 -1.938655
-8.2413874 -1.3306289 -1.9258198
-8.2493973 -1.2800356 -1.9258198
-8.2696123 -1.2312583 -1.9287994
-8.2953196 -1.1831058 -1.9331542
-8.292779 -1.1308688 -1.9308622
-8.3072834 -1.0809692 -1.9326959
-8.2944403 -1.0275818 -1.9281118
-8.3121891 -0.97803432 -1.9308622
-8.3441534 -0.92992538 -1.9370506
-8.3177576 -0.87534577 -1.929487
-8.3229713 -0.82429248 -1.929487
-8.3356266 -0.77392846 -1.9313207
-8.3295507 -0.72184253 -1.9287994
-8.3250914 -0.67001659 -1.9267366
-8.3455477 -0.6201492 -1.9306331
-8.3423977 -0.56846666 -1.9290286
-8.3330994 -0.51648456 -1.926049
-8.3506889 -0.46615839 -1.929487
-8.3397818 -0.41423404 -1.9262782
-8.349946 -0.36339325 -1.9281118
-8.3724451 -0.31291652 -1.932925
-8.3450212 -0.26062533 -1.926049
-7.8976049 0.57880312 -1.926941
-7.8900347 0.62694293 -1.9259766
-7.8841057 0.67517757 -1.9254946
-7.895277 0.72496295 -1.9293517
-7.8790898 0.77225608 -1.9264588
-7.903161 0.82360882 -1.9336911
-7.8748074 0.86952645 -1.9279053
-7.8857112 0.9197427 -1.9320036
-7.8250141 0.96135753 -1.9182622
-7.8054934 1.0076114 -1.9148872
-7.8203216 1.0583525 -1.9201909
-7.8501949 1.1114926 -1.9293517
-7.8221059 1.1565136 -1.9240481
-7.81774 1.2049313 -1.9247713
-7.7737865 1.2470307 -1.9156104
-7.7870483 1.2982205 -1.9209141
-7.7990179 1.3494543 -1.9259766
-7.7791281 1.395225 -1.9230838
-7.7856874 1.4457679 -1.926941
-7.7776227 1.493696 -1.9271821
-7.7616477 1.5400672 -1.9254946
-7.704515 1.5779197 -1.9134408
-7.712729 1.6289772 -1.9180212
-7.7082782 1.67751 -1.9194677
-7.6826882 1.7213782 -1.9156104
-7.6681986 1.7676134 -1.9146461
-7.6704292 1.8177664 -1.9180212
-7.6591311 1.864797 -1.9180212
-7.6296563 1.9072828 -1.9134408
-7.63097 1.9574395 -1.9168159
-7.5953526 1.9980494 -1.910789
-7.6016898 2.0496719 -1.9156104
-7.5730677 2.0918813 -1.9115121
-7.5937076 2.1478233 -1.9201909
-7.562674 2.1892469 -1.9156104
-7.5090866 2.2237537 -1.9052442
-7.4767241 2.2641582 -1.9004227
-7.5016274 2.3220508 -1.9105479
-7.5270257 2.3806264 -1.9209141
-7.5261292 2.4312437 -1.9245303
-7.4723616 2.4646039 -1.9144051
-7.4414625 2.5051408 -1.9103068
-7.4544039 2.5605314 -1.9177802
-7.4303093 2.6033332 -1.9156104
-7.3876934 2.6394029 -1.9086193
-7.3540339 2.6783702 -1.9040389
-7.3347316 2.7224298 -1.9033157
-7.3315048 2.7725348 -1.9069318
-7.322505 2.8206089 -1.9091015
-7.3041568 2.8651314 -1.9088603
-7.3107729 2.9196167 -1.9153694
-7.2684474 2.9545488 -1.9088603
-7.2591496 3.0028026 -1.9112711
-7.2218041 3.0393789 -1.9062085
-7.2119403 3.0874546 -1.9086193
-7.1679468 3.1207967 -1.9018692
-7.1220417 3.1529298 -1.894637
-7.1105261 3.2001562 -1.8968066
-7.1022286 3.2489755 -1.8999406
-7.0909595 3.2965856 -1.9023514
-7.099555 3.3537166 -1.9103068
-7.0403476 3.3787339 -1.8996994
-7.0517592 3.4376087 -1.9086193
-7.0322728 3.4816742 -1.9091015
-6.9925699 3.5156004 -1.9040389
-6.957902 3.5518193 -1.9004227
-6.9592409 3.6065054 -1.9069318
-6.953299 3.6577258 -1.9115121
-6.9298687 3.6998644 -1.9112711
-6.8805857 3.7279794 -1.9037977
-6.8269677 3.7532911 -1.8951191
-6.804657 3.7955828 -1.8953601
-6.7989759 3.8473036 -1.9004227
-6.7727165 3.8874991 -1.8996994
-6.7445426 3.9265406 -1.8984941
-6.7286792 3.9727859 -1.9009049
-6.7324839 4.030952 -1.9091015
-6.6487279 4.0364184 -1.8919851
-6.6568923 4.0974922 -1.9016281
-6.6250391 4.13415 -1.8996994
-6.6184101 4.1866584 -1.9052442
-6.5795264 4.2188058 -1.901387
-6.5746717 4.272851 -1.907655
-6.5256386 4.298161 -1.9009049
-6.5072141 4.3435102 -1.9033157
-6.465168 4.3730226 -1.8987352
-6.4582253 4.4263291 -1.904762
-6.426959 4.4631042 -1.9035567
-6.3621511 4.476203 -1.8922262
-6.3803983 4.5478344 -1.9062085
-6.3563066 4.5897398 -1.907414
-6.3209758 4.623497 -1.9052442
-6.2651978 4.6419692 -1.8968066
-6.2249551 4.6715846 -1.8931905
-6.1915383 4.7061682 -1.891744
-6.1587005 4.7411094 -1.8905387
-6.1478605 4.7931333 -1.8963245
-6.1061492 4.8211412 -1.8924673
-6.1014628 4.878521 -1.9004227
-6.0668893 4.9122024 -1.8989763
-6.0253782 4.940104 -1.8953601
-5.9964461 4.9782219 -1.8958423
-5.9724727 5.0205431 -1.8980119
-5.9149523 5.0344458 -1.8893332
-5.8935061 5.0788822 -1.8924673
-5.8644252 5.1168628 -1.8931905
-5.8256459 5.1463237 -1.8907797
-5.8040853 5.1910315 -1.8941548
-5.7843523 5.2376227 -1.8982531
-5.754252 5.2749839 -1.8989763
-5.6947489 5.2851009 -1.8898154
-5.6919155 5.3478589 -1.8999406
-5.6350889 5.3599381 -1.891744
-5.592309 5.3849878 -1.888369
-5.5501289 5.4103918 -1.885235
-5.5230432 5.4504814 -1.8874047
-5.4874363 5.4822092 -1.8866814
-5.4584703 5.5206079 -1.888369
-5.4251719 5.5546908 -1.88861
-5.3916607 5.588573 -1.8888512
-5.3492351 5.6131186 -1.8859582
-5.345953 5.6790528 -1.8972888
-5.2773075 5.6754961 -1.8849939
-5.2358203 5.7006211 -1.8825831
-5.199439 5.7312026 -1.8821011
-5.1622329 5.7608294 -1.8813778
-5.1287169 5.7945762 -1.8821011
-5.0879564 5.8200903 -1.8801724
-5.0654664 5.8666277 -1.885235
-5.0407076 5.9108925 -1.8895744
-5.018096 5.9580431 -1.894878
-4.9752383 5.9812589 -1.8924673
-4.9470673 6.0221739 -1.8958423
-4.8861818 6.0230184 -1.8864404
-4.8460999 6.049098 -1.885235
-4.8191261 6.09166 -1.8893332
-4.8001752 6.1448269 -1.8968066
-4.7487502 6.1564879 -1.8912619
-4.6938362 6.1631169 -1.8842707
-4.6769252 6.2197294 -1.8929495
-4.6392522 6.2490888 -1.8931905
-4.6025419 6.2797856 -1.8939137
-4.5650606 6.3094807 -1.8943958
-4.532464 6.3460608 -1.8970476
-4.4951172 6.376132 -1.8977709
-4.4653311 6.4171376 -1.9018692
-4.4253225 6.4436154 -1.9016281
-4.3813472 6.4642196 -1.8996994
-4.3383641 6.4861407 -1.8982531
-4.2803116 6.485096 -1.8900565
-4.2404394 6.5112376 -1.8900565
-4.2318778 6.5861278 -1.904521
-4.191906 6.6127896 -1.904762
-4.163084 6.6573138 -1.9103068
-4.1089129 6.6612549 -1.9040389
-4.0820837 6.7095585 -1.910789
-4.0263605 6.7103434 -1.9037977
-3.9776993 6.7223926 -1.9001817
-3.9383326 6.7500262 -1.9011459
-3.927321 6.8270674 -1.9163337
-3.8681259 6.8206425 -1.907655
-3.8441935 6.876442 -1.9168159
-3.798182 6.8930993 -1.9148872
-3.7451661 6.896657 -1.9093425
-3.7270403 6.9648628 -1.9221195
-3.6892123 6.9970441 -1.9247713
-3.6359234 6.9997387 -1.9192266
-3.5774372 6.9916754 -1.910789
-3.53316 7.0108943 -1.9100658
-3.5107782 7.0741725 -1.9216373
-3.464324 7.0894771 -1.9199498
-3.4056168 7.0791135 -1.9112711
-3.37831 7.1340871 -1.920673
-3.3393905 7.1652384 -1.923566
-3.2945538 7.1838293 -1.9230838
-3.23525 7.1702909 -1.9139229
-3.2057555 7.2228303 -1.9228427
-3.1520615 7.2210164 -1.9170569
-3.1065469 7.2375455 -1.9163337
-3.0801845 7.2993927 -1.9279053
-3.0264177 7.296639 -1.9221195
-2.9804909 7.3123746 -1.9213963
-2.9373703 7.3350301 -1.9226016
-2.8855608 7.3357544 -1.9180212
-2.8401453 7.3524165 -1.9177802
-2.8070188 7.4014673 -1.9262178
-2.775089 7.4549346 -1.9358608
-2.7173116 7.439003 -1.9271821
-2.665725 7.4390898 -1.9228427
-2.6209943 7.4580536 -1.923566
-2.573287 7.4684896 -1.9221195
-2.5302062 7.492414 -1.9242891
-2.4860144 7.5133266 -1.9257356
-2.44854 7.5552139 -1.9327267
-2.3977349 7.5562196 -1.9291106
-2.3542027 7.5800581 -1.9315214
-2.3093402 7.5999322 -1.9329679
-2.2582433 7.5990739 -1.9291106
-2.2161741 7.6286311 -1.9332089
-2.1642911 7.6243463 -1.9286286
-2.123688 7.6599288 -1.9344143
-2.0743668 7.6643839 -1.9322447
-2.0253189 7.6694608 -1.9303161
-1.9840273 7.7043004 -1.9361018
-1.9251472 7.6702032 -1.9242891
-1.8787385 7.6847 -1.9250124
-1.835368 7.7121339 -1.9291106
-1.7858253 7.7137952 -1.9266999
-1.7363311 7.7151389 -1.9242891
-1.6918591 7.7389216 -1.9276642
-1.6413225 7.7349157 -1.9240481
-1.5963724 7.7571993 -1.9271821
-1.5538654 7.7925467 -1.9336911
-1.5060221 7.8019347 -1.9336911
-1.4602574 7.8224769 -1.936584
-1.4170508 7.8580332 -1.9433341
-1.3641536 7.8398075 -1.936584
-1.3139391 7.835587 -1.93345
-1.266763 7.8492508 -1.9348965
-1.2182798 7.8549576 -1.9344143
-1.1687753 7.8536453 -1.9322447
-1.1190592 7.8501 -1.9295928
-1.0698234 7.8491254 -1.9276642
-1.021767 7.8565044 -1.9279053
-0.96353543 7.7817197 -1.907655
-0.92097694 7.8318243 -1.9187444
-0.87762505 7.8797684 -1.9293517
-0.8311851 7.9033437 -1.9339322
-0.78258002 7.9073291 -1.9336911
-0.73306221 7.9013519 -1.9310392
-0.68531883 7.9144034 -1.9332089
-0.63371575 7.8807311 -1.923807
-0.5879302 7.9193139 -1.9324857
-0.53866941 7.9130893 -1.9300749
-0.48968667 7.9094648 -1.9283874
-0.44233134 7.933639 -1.9336911
-0.39426634 7.9488049 -1.936825
-0.34405833 7.918108 -1.9286286
-0.29618803 7.939467 -1.93345
-0.24587215 7.8897228 -1.920673
-0.1980122 7.9133978 -1.9262178
-0.14988914 7.9377518 -1.9320036
-0.10145018 7.9598713 -1.9373072
-0.052419245 7.9312296 -1.9300749
-0.0037474316 7.9139328 -1.9257356
0.044969462 7.9409804 -1.9324857
0.093832657 7.9522004 -1.9353787
0.14230885 7.9340086 -1.9310392
0.19110583 7.9378371 -1.9322447
0.23927774 7.919054 -1.9279053
0.28857172 7.9368339 -1.9327267
0.33734849 7.9368534 -1.9332089
0.38613635 7.9365726 -1.9336911
0.43413472 7.9214563 -1.9305571
0.48202136 7.9070191 -1.9276642
0.53111511 7.9126272 -1.9298339
0.57837665 7.8917975 -1.9254946
0.62832922 7.9074488 -1.9303161
0.67700249 7.9053783 -1.9307982
0.72291869 7.8730493 -1.923807
0.76969624 7.8530116 -1.9199498
0.81575149 7.8278704 -1.9148872
0.86781996 7.8593736 -1.9240481
0.91445178 7.8404055 -1.920673
0.96455663 7.8510218 -1.9247713
1.0107212 7.829556 -1.9209141
1.0609584 7.8395557 -1.9250124
1.1106755 7.8444295 -1.9279053
1.1592133 7.8403468 -1.9286286
1.2053752 7.8206172 -1.9254946
1.254416 7.8197818 -1.9271821
1.3025334 7.8128948 -1.9274231
1.3530976 7.820056 -1.9312804
1.4010551 7.8116064 -1.9312804
1.4470092 7.7923665 -1.9286286
1.494795 7.7833414 -1.9286286
1.5425246 7.7740231 -1.9286286
1.5960419 7.7929339 -1.9358608
1.6353993 7.743114 -1.9257356
1.6837054 7.7367268 -1.9266999
1.7283851 7.7139392 -1.923566
1.7730668 7.6918406 -1.920673
1.8175424 7.6694846 -1.9177802
1.8680131 7.6723318 -1.9213963
1.9171741 7.669199 -1.923566
1.9654018 7.6619916 -1.9247713
2.0099075 7.6404023 -1.9223605
2.0572557 7.6297998 -1.9228427
2.0986032 7.5973892 -1.9177802
2.1462376 7.5881047 -1.9187444
2.188977 7.5617418 -1.9153694
2.2350581 7.5472379 -1.9151284
2.2655654 7.4813685 -1.9016281
2.3263574 7.5155334 -1.9141641
2.3712568 7.497417 -1.9131997
2.4127386 7.468874 -1.9095836
2.4524386 7.4354963 -1.904762
2.5100973 7.4561782 -1.9141641
2.5438144 7.4057593 -1.9050032
2.5879233 7.3863478 -1.9040389
2.6292765 7.3593631 -1.9011459
2.6773734 7.3512983 -1.9033157
2.7210784 7.3310924 -1.9023514
2.7608585 7.3006425 -1.8987352
2.814676 7.3071103 -1.9050032
2.857686 7.2851849 -1.9037977
2.9059341 7.276526 -1.9062085
2.9370003 7.2252951 -1.8972888
2.9883296 7.2241759 -1.9018692
3.0201721 7.176187 -1.8939137
3.065676 7.1610889 -1.894878
3.1041322 7.1296868 -1.891503
3.1572528 7.131803 -1.8972888
3.1893985 7.0866327 -1.8902975
3.2231286 7.0457497 -1.8845118
3.275713 7.0460801 -1.8900565
3.311836 7.010931 -1.8859582
3.3598323 7.000977 -1.8888512
3.4184659 7.0125051 -1.8977709
3.4265397 6.9209538 -1.8782438
3.4894364 6.9405484 -1.8895744
3.5310745 6.9172783 -1.8890922
3.5663047 6.8816962 -1.885235
3.608463 6.8596845 -1.885235
3.6568863 6.8493986 -1.88861
3.6937575 6.8174462 -1.8859582
3.7256978 6.7767954 -1.8808956
3.7719381 6.7622819 -1.8833064
3.8171844 6.7457671 -1.885235
3.8628531 6.7297931 -1.8874047
3.9231217 6.7386718 -1.8968066
3.9392245 6.6718554 -1.8845118
3.9895627 6.6633787 -1.8890922
4.0369225 6.6495576 -1.8922262
4.0430455 6.5684662 -1.875833
4.055522 6.4990783 -1.862815
4.1134863 6.5027752 -1.8712527
4.154881 6.4798636 -1.8719759
4.1919179 6.4501796 -1.8707705
4.225009 6.4146118 -1.8678776
4.2680612 6.394217 -1.8695651
4.3257065 6.3952374 -1.8777617
4.3440113 6.3381581 -1.8686008
4.3839273 6.3129783 -1.8690829
4.4203463 6.2827854 -1.8681186
4.4559965 6.2515936 -1.8669133
4.4942713 6.2241344 -1.8669133
4.5329504 6.1972241 -1.8671544
4.5581775 6.1521401 -1.8618507
4.590014 6.1162944 -1.85944
4.6392045 6.103467 -1.8642615
4.6830807 6.0833445 -1.8669133
4.7143507 6.0468421 -1.8645025
4.7621922 6.0315108 -1.8688419
4.7875938 5.9877768 -1.8642615
4.8370709 5.9741254 -1.8693241
4.875483 5.9465847 -1.8700473
4.9155989 5.9210372 -1.8714937
4.9480896 5.8863072 -1.8700473
4.9797101 5.8506627 -1.8683598
5.033258 5.84058 -1.8751098
5.0728292 5.8139739 -1.8765563
5.1006961 5.7740111 -1.8736634
5.1269693 5.7324786 -1.8702884
5.137289 5.6735787 -1.8611275
5.1726608 5.6426654 -1.8613685
5.1992626 5.6022849 -1.8584757
5.2548084 5.5929079 -1.8661901
5.3030753 5.575325 -1.8712527
5.3385315 5.5440788 -1.8717349
5.361608 5.5001001 -1.8678776
5.3884373 5.4601917 -1.8654668
5.4410477 5.4462476 -1.8722169
5.4867868 5.4250398 -1.8765563
5.5199709 5.3912716 -1.8765563
5.5606313 5.3647113 -1.8792081
5.5836067 5.3211188 -1.875833
5.6097903 5.2807722 -1.8736634
5.6399546 5.2442694 -1.8729402
5.6827497 5.2194104 -1.8765563
5.6902261 5.1622758 -1.8683598
5.7116742 5.1181984 -1.8649848
5.7662296 5.1036358 -1.8726991
5.8288593 5.0956202 -1.8830653
5.8298945 5.0337591 -1.8731812
5.8687954 5.0048184 -1.875833
5.8934546 4.9637136 -1.8739045
5.9476795 4.9473152 -1.8816189
5.9576731 4.8940978 -1.8751098
5.9943748 4.8629518 -1.8772795
6.0437956 4.8418531 -1.8835474
6.0711074 4.8028717 -1.8828243
6.0805755 4.749999 -1.8765563
6.1211348 4.7214894 -1.8801724
6.1407237 4.6767869 -1.8772795
6.1599956 4.6320224 -1.8743867
6.1851835 4.5918245 -1.8734224
6.2390766 4.5727153 -1.8813778
6.260726 4.5297966 -1.8794492
6.2820835 4.4867845 -1.8775206
6.318222 4.4543042 -1.8801724
6.3741155 4.4354038 -1.8888512
6.3708072 4.3753357 -1.8796903
6.4031577 4.3399734 -1.8813778
6.4345074 4.3038397 -1.8828243
6.4664645 4.2680182 -1.8845118
6.4665046 4.2113166 -1.8767973
6.5142703 4.1857209 -1.8833064
6.5603247 4.1586585 -1.8893332
6.5692596 4.1080379 -1.8845118
6.6050816 4.0742745 -1.8876457
6.5992761 4.0150104 -1.878726
6.6504202 3.9904172 -1.8864404
6.6797919 3.9525003 -1.8878869
6.7299066 3.9265974 -1.8953601
6.7362051 3.8750696 -1.8902975
6.7699866 3.8394077 -1.8931905
6.7756262 3.7878532 -1.8881279
6.7749386 3.7330966 -1.8813778
6.8062463 3.6960864 -1.8837886
6.8287969 3.6542544 -1.8837886
6.8708367 3.6226928 -1.8893332
6.9093008 3.5889633 -1.8939137
6.9277363 3.5447333 -1.8929495
6.9476223 3.5012856 -1.8924673
6.9715834 3.4598837 -1.8931905
6.9752407 3.4085226 -1.888369
6.9916506 3.3635559 -1.8871636
7.0182977 3.3234994 -1.8888512
7.040318 3.281193 -1.8893332
7.0709047 3.2427859 -1.8922262
7.0827069 3.1957474 -1.8900565
7.1287961 3.164036 -1.8972888
7.1836567 3.1357601 -1.9069318
7.1911674 3.0866485 -1.9037977
7.1777797 3.0288875 -1.8951191
7.1971264 2.9851601 -1.8953601
7.2018256 2.9354506 -1.891744
7.2629499 2.9085174 -1.9033157
7.2544665 2.8535993 -1.8963245
7.3089595 2.8233657 -1.9062085
7.3016434 2.7691772 -1.8996994
7.3348699 2.7304149 -1.9040389
7.3396339 2.6810305 -1.9009049
7.3568597 2.6362722 -1.9011459
7.389379 2.5968714 -1.9054853
7.3712225 2.5397894 -1.8965656
7.4068971 2.5013411 -1.9018692
7.3926201 2.4460945 -1.8941548
7.4425745 2.4120531 -1.9033157
7.4507589 2.3642871 -1.9016281
7.4484415 2.3133466 -1.8972888
7.477354 2.2721126 -1.9011459
7.5069704 2.2308872 -1.9052442
7.5093331 2.181536 -1.9023514
7.5281796 2.137008 -1.9037977
7.5308623 2.087925 -1.9011459
7.5744476 2.0500395 -1.9091015
7.5521636 1.9943619 -1.9001817
7.5971546 1.9564514 -1.9086193
7.6400805 1.9175913 -1.9165747
7.6092777 1.8603112 -1.9057264
7.6205492 1.8135865 -1.9057264
7.6277518 1.7659185 -1.904762
7.6554871 1.7229154 -1.9091015
7.6858253 1.6802596 -1.9141641
7.6931424 1.6324646 -1.9134408
7.6706934 1.5785832 -1.9052442
7.6954637 1.5345213 -1.9091015
7.6809111 1.4826789 -1.9030745
7.7223015 1.4415723 -1.9112711
7.7367325 1.3951945 -1.9127176
7.7566214 1.3496914 -1.9156104
7.7733712 1.3035156 -1.9177802
7.7831397 1.2561034 -1.9182622
6.033699 0.93607986 -1.4766128
5.8665371 0.8733511 -1.4332193
5.8150978 0.82926559 -1.4189959
5.8210382 0.79370016 -1.4192369
5.8094373 0.75584263 -1.4151386
5.7956657 0.71791917 -1.4105582
5.7912865 0.68132526 -1.4083885
5.7818542 0.64427578 -1.4050134
5.7799077 0.60817862 -1.4035671
5.7729068 0.57165247 -1.4009153
5.7685747 0.53550375 -1.3989866
5.7698178 0.49993116 -1.3985045
5.7785811 0.46498471 -1.3999509
5.7755184 0.42908898 -1.3985045
5.7644868 0.39272219 -1.3951294
5.7803493 0.35818216 -1.3985045
5.7824383 0.32270786 -1.3985045
5.7697697 0.28650236 -1.3948883
5.8121419 0.25285786 -1.4050134
5.7873983 0.21621743 -1.3985045
5.7624249 0.17989019 -1.3919954
5.7760329 0.14484297 -1.3951294
5.770021 0.1092719 -1.3934419
5.7919321 0.074134663 -1.3987455
5.8116875 0.03872009 -1.4035671
5.823462 0.0030633265 -1.4064599
5.7767878 -0.032398231 -1.3948883
5.7939477 -0.068051979 -1.3992277
5.7439337 -0.10270683 -1.3869328
0 -0 -0
0 -0 -0
0 -0 -0
0 -0 -0
0 -0 -0
0 -0 -0
0 -0 -0
0 -0 -0
0 -0 -0
0 -0 -0
0 -0 -0
0 -0 -0
0 -0 -0
6.1907821 -0.64490515 -1.5060239
7.8709493 -0.8690998 -1.926941
7.8471532 -0.91523981 -1.9223605
7.8336835 -0.96242392 -1.920432
7.8170433 -1.009104 -1.9177802
7.6943364 -1.0412836 -1.88861
7.4956217 -1.0612365 -1.8403951
7.2422366 -1.0706921 -1.7784388
7.1453695 -1.1011996 -1.7557777
7.0733185 -1.1345596 -1.7393847
6.9494367 -1.1584516 -1.7099735
6.827445 -1.1811979 -1.6810445
6.913682 -1.2398722 -1.7046698
7.0252151 -1.3044366 -1.7348042
6.9970651 -1.3436711 -1.7297416
6.9915442 -1.3871461 -1.7304648
6.9762459 -1.4286553 -1.7287773
6.9863391 -1.4754477 -1.7335988
6.9676719 -1.5162221 -1.7311881
6.9260397 -1.5517272 -1.7229915
6.8842349 -1.5867788 -1.714795
6.8630371 -1.6263025 -1.711902
6.8350139 -1.6640179 -1.7073216
6.7917223 -1.6976827 -1.698884
6.7745976 -1.7376351 -1.6971965
6.7497301 -1.7754649 -1.6935804
6.6806145 -1.8011737 -1.6786337
6.6441803 -1.8351507 -1.6721246
6.6299934 -1.8750912 -1.6714014
6.6118379 -1.9138469 -1.6697139
6.5888042 -1.9510716 -1.666821
6.5441999 -1.9816134 -1.6583834
6.5495324 -2.0271857 -1.6629637
6.525867 -2.0638211 -1.6600709
6.4835296 -2.0942733 -1.6523565
6.4825382 -2.1379697 -1.6554905
6.4398665 -2.1677928 -1.6477761
6.4071698 -2.2006426 -1.6427135
6.4109478 -2.2460146 -1.6472939
6.3805957 -2.2794292 -1.6429546
6.3801675 -2.3235209 -1.6465707
6.3685198 -2.3636386 -1.6472939
6.3330193 -2.3947718 -1.6417491
6.3471851 -2.4447529 -1.6494635
6.3564572 -2.4932249 -1.6559726
6.3266196 -2.5264194 -1.6521155
6.2930188 -2.5578794 -1.6472939
6.2879663 -2.6008978 -1.6501868
6.2531056 -2.6315224 -1.6451242
6.249331 -2.6751902 -1.6484993
6.231019 -2.7127099 -1.6480172
6.2115946 -2.7497127 -1.6472939
6.2008004 -2.7905636 -1.6489815
6.1729712 -2.8237123 -1.6460886
6.1599293 -2.8635821 -1.6472939
6.1589146 -2.9092033 -1.6518743
6.1383233 -2.9456787 -1.6511511
6.1114101 -2.9790335 -1.6487404
6.0547504 -2.9975238 -1.638133
6.0327759 -3.0328743 -1.6371688
6.0183744 -3.0720406 -1.6383741
6.0028577 -3.1106975 -1.6393385
5.96734 -3.1388845 -1.634758
5.9488239 -3.1758976 -1.634999
5.9283714 -3.2118766 -1.634758
5.907702 -3.2477243 -1.634517
5.8876629 -3.2839122 -1.634517
5.8623352 -3.3171079 -1.6330705
5.8334551 -3.3481836 -1.6306597
5.8304129 -3.3941705 -1.6357223
5.8103123 -3.4303749 -1.6359634
5.7983131 -3.4714472 -1.6386153
5.7628016 -3.4983954 -1.634517
5.7577558 -3.5438664 -1.6393385
5.754838 -3.5909486 -1.6448832
5.7335162 -3.6267109 -1.6451242
5.6940002 -3.6508195 -1.6400616
5.6633549 -3.6803987 -1.637651
5.6309409 -3.7086716 -1.634758
5.6177645 -3.7496197 -1.637651
5.6059046 -3.7916331 -1.641026
5.5905385 -3.8314469 -1.6434367
5.550983 -3.8546038 -1.6386153
5.511354 -3.8774202 -1.6337937
5.4724445 -3.9004591 -1.6292133
5.4295273 -3.9203258 -1.6234275
5.4821277 -4.0097284 -1.6470529
5.4433866 -4.0328889 -1.6427135
5.384388 -4.0405765 -1.6321062
5.3780355 -4.087636 -1.637892
5.3736143 -4.1365457 -1.6444011
5.3863964 -4.1992817 -1.6564548
5.3749995 -4.2436814 -1.6610352
5.3261223 -4.2583966 -1.653803
5.3059263 -4.2958837 -1.6557316
5.2719631 -4.3222051 -1.6533208
5.262516 -4.3687325 -1.6588656
5.2541809 -4.4165554 -1.6648924
5.2565408 -4.473877 -1.6745354
5.1988521 -4.4800658 -1.6646513
5.0893726 -4.4404063 -1.637651
5.0642128 -4.4734788 -1.6383741
5.0236497 -4.4928203 -1.6340348
5.0729537 -4.5932727 -1.6598299
5.0253615 -4.6066031 -1.6533208
4.9941564 -4.6347103 -1.6523565
4.9571376 -4.6572909 -1.6494635
4.9172182 -4.6769161 -1.6456064
4.8716531 -4.6908412 -1.6398206
4.8504219 -4.7280979 -1.6424724
4.8979845 -4.8334503 -1.6692318
4.8366566 -4.8318558 -1.6581423
2.2996347 -2.3248601 -0.77219146
2.2839704 -2.3375378 -0.77170932
2.2668896 -2.3487139 -0.77074498
2.251766 -2.3618762 -0.77050394
4.6216488 -4.9093895 -1.634758
4.5927601 -4.9390764 -1.6352402
4.5656495 -4.9707384 -1.6364455
4.5441918 -5.0087237 -1.6398206
4.5146685 -5.0379577 -1.6403028
4.4772401 -5.0582962 -1.637892
4.4346228 -5.0725188 -1.6335527
4.4186344 -5.1172657 -1.6393385
4.3871527 -5.1442819 -1.6393385
4.3511295 -5.1659074 -1.637651
4.3218322 -5.1954927 -1.6386153
4.2874084 -5.2189131 -1.637651
4.2559161 -5.2458758 -1.637892
4.2139411 -5.2597709 -1.6340348
4.1797824 -5.2832441 -1.6333115
2.0100162 -2.5719798 -0.77074498
1.9870853 -2.575042 -0.76785207
1.9659566 -2.5802364 -0.7656824
1.9460055 -2.5868204 -0.76399487
1.9254693 -2.5924776 -0.7620663
1.8997749 -2.5909345 -0.75796801
1.7200334 -2.3760686 -0.68853837
1.7059857 -2.3873677 -0.68877947
1.6952186 -2.4033434 -0.690467
3.8363059 -5.5128784 -1.6282489
3.7947168 -5.5251126 -1.624874
3.7558446 -5.5410614 -1.6227043
3.7066698 -5.5414128 -1.6159542
3.6549606 -5.5373201 -1.6079987
3.6209154 -5.5596423 -1.6079987
3.5951262 -5.59482 -1.6118559
3.566963 -5.6266112 -1.6147488
3.5220828 -5.6319332 -1.6099273
3.5052881 -5.6823511 -1.6183649
3.4663215 -5.6971188 -1.6164364
3.4382882 -5.7299318 -1.6198114
3.3996067 -5.7450738 -1.6181239
3.3647804 -5.7666636 -1.6183649
3.3273983 -5.7838359 -1.6174006
3.2956758 -5.8108974 -1.6193292
3.2462287 -5.8064418 -1.6123381
3.2081988 -5.8220005 -1.6111326
1.618997 -2.9799771 -0.80232584
1.6038861 -2.9958453 -0.80401337
1.5877364 -3.009923 -0.80521876
3.0701675 -5.9101772 -1.6142666
3.0382652 -5.9375443 -1.6166774
2.9978461 -5.9482746 -1.6145077
2.9543908 -5.9526467 -1.6106505
2.9224961 -5.9802547 -1.6133024
2.8714464 -5.9683371 -1.6051058
2.8405845 -5.9981241 -1.6084808
2.7926614 -5.9916883 -1.6019719
2.7639334 -6.0263553 -1.6067933
2.7237122 -6.0361233 -1.6048647
2.6944954 -6.0704646 -1.6096863
2.657197 -6.0868835 -1.6096863
2.6117628 -6.0843434 -1.6046237
2.5785298 -6.1100907 -1.6072755
2.5257511 -6.0890403 -1.5973914
2.4894404 -6.10712 -1.5981146
2.4548063 -6.129488 -1.6000432
2.4175055 -6.1453381 -1.6002843
2.3734605 -6.1437593 -1.5959449
2.3491349 -6.1935992 -1.6053468
2.3181946 -6.2269979 -1.6104094
2.2746174 -6.2265186 -1.6065522
2.2249155 -6.2083797 -1.5981146
2.1935341 -6.2411432 -1.6031772
2.1596222 -6.2673321 -1.6065522
2.1226778 -6.2850628 -1.6077576
2.0770645 -6.2767763 -1.6022129
2.0370164 -6.2847862 -1.6010075
1.9954814 -6.2879157 -1.5985968
1.9588759 -6.3065295 -1.6002843
1.9218351 -6.3240023 -1.6017307
1.8827193 -6.3347449 -1.6014897
1.8440851 -6.3471098 -1.6017307
1.8059 -6.3611064 -1.6024539
1.7642434 -6.3627148 -1.6000432
1.7236489 -6.3677993 -1.5985968
1.6880115 -6.3913927 -1.6019719
1.6487629 -6.4016299 -1.6019719
1.6063826 -6.3993883 -1.5988379
1.5684686 -6.4147811 -1.6002843
1.5297523 -6.4271169 -1.6010075
1.4876624 -6.425036 -1.5981146
1.4514053 -6.448246 -1.6017307
1.4140908 -6.4674597 -1.6043825
1.3723675 -6.4665208 -1.6019719
1.3309045 -6.4662642 -1.5998021
1.292341 -6.4800196 -1.6012486
1.2523723 -6.4868741 -1.6010075
1.2178845 -6.5230584 -1.6082398
1.1666507 -6.4683251 -1.5925698
0.71002859 -4.0773025 -0.9879536
1.0911956 -6.5060835 -1.5985968
1.0521814 -6.5184054 -1.6000432
0.62386179 -4.0187101 -0.97011405
0.59890622 -4.0205426 -0.96963191
0.58366627 -4.0904379 -0.98626608
0.90079778 -6.607655 -1.6164364
0.8586117 -6.6005464 -1.6133024
0.81690419 -6.5960588 -1.6108916
0.77154839 -6.5595002 -1.6005254
0.46167326 -4.1401763 -0.99470371
0.43078712 -4.0908108 -0.9816857
0.41054583 -4.142633 -0.99398053
0.6070258 -6.5407038 -1.5916055
0.5711441 -6.5936174 -1.6039004
0.52671558 -6.5476604 -1.5916055
0.48710367 -6.5585117 -1.5935342
0.44698378 -6.563314 -1.5940163
0.25623327 -4.1297517 -0.98771256
0.36700088 -6.5789638 -1.5966681
0.32734528 -6.5956316 -1.6002843
0.28670114 -6.5936375 -1.5993199
0.2471389 -6.6195188 -1.6053468
0.20546459 -6.5869589 -1.5969093
0.16504391 -6.5880957 -1.5969093
0.12541698 -6.6316791 -1.6075165
0.084833443 -6.641058 -1.6096863
0.044014085 -6.6307778 -1.6070343
0.003324074 -6.6202478 -1.6043825
-0.037437998 -6.6444058 -1.6104094
-0.048194826 -4.1315889 -0.98626608
-0.073422045 -4.124423 -0.98457855
-0.099103644 -4.1394181 -0.9884358
-0.2004886 -6.6414857 -1.6104094
-0.239466 -6.5916376 -1.5983557
-0.28110629 -6.6181631 -1.6053468
-0.32199311 -6.6221299 -1.6067933
-0.36080918 -6.5870819 -1.5985968
-0.40033203 -6.5702138 -1.5949806
-0.27733791 -4.1400604 -0.99060547
-0.48505104 -6.6209445 -1.608963
-0.32719773 -4.1247358 -0.98771256
-0.3477723 -4.067534 -0.97397125
-0.59928381 -6.528748 -1.5884717
-0.64378828 -6.570344 -1.5998021
-0.68540061 -6.5788183 -1.6029361
-0.7254346 -6.5715952 -1.6022129
-0.48352414 -4.1503835 -0.99783772
-0.81277722 -6.6171031 -1.6159542
-0.85348809 -6.6129537 -1.6161952
-0.89626336 -6.6239419 -1.6202935
-0.93743503 -6.6221614 -1.6212578
-0.97733974 -6.6114845 -1.6200525
-1.0168529 -6.598649 -1.6183649
-1.0580915 -6.5970764 -1.6195703
-0.69218212 -4.1551633 -1.0062753
-0.71650547 -4.1441441 -1.0045878
-1.1740272 -6.5468707 -1.6120969
-1.2164813 -6.5519476 -1.6152309
-0.7871688 -4.1016617 -0.99735558
-0.80419326 -4.0558219 -0.98698932
-0.83296138 -4.0698261 -0.9918108
-1.3833299 -6.5505056 -1.6229453
-0.89130878 -4.0981774 -1.0016949
-0.91919822 -4.1049418 -1.0048289
-0.94654977 -4.1086812 -1.0072396
-1.5374006 -6.488143 -1.6161952
-1.0010333 -4.113729 -1.011579
-0.74788809 -2.994658 -0.72662824
-0.76576632 -2.9881325 -0.7261461
-1.6936941 -6.439074 -1.6137844
-1.7334244 -6.4294972 -1.6140256
-0.81805295 -2.9641767 -0.72373533
-0.83384693 -2.9506969 -0.72156566
-0.85382634 -2.9520502 -0.72325319
-1.2157402 -4.1071119 -1.0238738
-1.2366967 -4.0856428 -1.0202577
-1.2614554 -4.0770507 -1.0200166
-1.2902542 -4.0812626 -1.0231506
-1.0839596 -3.3575783 -0.83631742
-1.1011955 -3.3407261 -0.83366561
-1.1002984 -3.2704446 -0.81703138
-1.1080436 -3.2278366 -0.80762947
-1.1220496 -3.2044914 -0.80329013
-1.4699788 -4.1159973 -1.0455706
-1.1317183 -3.1093254 -0.78183442
-1.1507754 -3.1023226 -0.78183442
-1.1721933 -3.1015573 -0.78352195
-1.2027185 -3.1241908 -0.79147744
-1.553355 -3.9614608 -1.0168827
-1.5848342 -3.9698796 -1.0217041
-1.6036792 -3.9465954 -1.018088
-1.2537926 -3.0327547 -0.77508438
-1.2667288 -3.0115874 -0.77146822
-1.2783062 -2.9877 -0.76712888
-1.7314417 -3.978122 -1.0376151
-1.7636784 -3.9851706 -1.0424366
-1.8116055 -4.0264859 -1.0566601
-1.8334504 -4.0091166 -1.0549725
-1.8408263 -3.9608319 -1.0448474
-1.8028961 -3.8178427 -1.0086861
-1.8300683 -3.8145826 -1.0108558
-1.8815157 -3.8608539 -1.0267667
-1.9090468 -3.8570638 -1.0289364
-1.9147985 -3.8097296 -1.0190523
-1.9438765 -3.809145 -1.0221863
-1.9703391 -3.8031771 -1.0238738
-2.0022249 -3.8073339 -1.0284542
-2.011375 -3.7684391 -1.020981
-2.0242858 -3.7372553 -1.0156772
-2.0476468 -3.7256145 -1.0159184
-2.0813446 -3.7324727 -1.021463
-2.135761 -3.7753739 -1.037374
-2.1709676 -3.7832389 -1.0434009
-2.1912098 -3.7648151 -1.0419544
-2.2216723 -3.7638338 -1.0455706
-2.2492127 -3.7576241 -1.0477402
-2.2702117 -3.7404346 -1.0467759
-2.299226 -3.7363513 -1.0496688
-2.3015523 -3.6892421 -1.0400258
-2.320513 -3.6693099 -1.0383383
-2.3340764 -3.6411152 -1.03424
-2.3569028 -3.6275387 -1.0344812
-2.4031446 -3.6494772 -1.0453295
-2.4147139 -3.6185207 -1.040508
-2.4493802 -3.6221237 -1.0460527
-2.4737539 -3.6102281 -1.047017
-2.4947519 -3.5933874 -1.0465349
-2.5078166 -3.5653138 -1.0426776
-2.5296457 -3.5498588 -1.0426776
-2.5718372 -3.5625932 -1.0513563
-2.5776021 -3.5248148 -1.0446062
-2.6032267 -3.5143907 -1.0462937
-2.6014357 -3.4673054 -1.0366508
-2.6567307 -3.4960864 -1.0506332
-2.7326081 -3.5504615 -1.0728121
-2.7937331 -3.584137 -1.0887229
-2.6803303 -3.3955643 -1.0344812
-2.7623391 -3.4556029 -1.0588297
-2.7279055 -3.3699586 -1.0368918
-2.7682259 -3.3771703 -1.0446062
-2.7206924 -3.2779927 -1.018088
-2.8232017 -3.3592873 -1.0499099
-2.8764763 -3.380327 -1.0624459
-2.9117377 -3.3795204 -1.0679905
-2.8749843 -3.2957845 -1.0462937
-2.9414229 -3.3304441 -1.0636512
-2.9760387 -3.3282456 -1.0689548
-3.0465713 -3.3653092 -1.0875176
-3.187196 -3.4774523 -1.1316344
-3.20121 -3.4500067 -1.1289825
-3.0521691 -3.2492571 -1.0672673
-3.1790845 -3.3429651 -1.1058394
-3.2190616 -3.3436663 -1.1128305
-3.2706847 -3.3558145 -1.12392
-3.3334858 -3.3785043 -1.1388667
-3.3582695 -3.3621056 -1.140313
-3.431983 -3.39397 -1.1588758
-3.4576042 -3.377594 -1.1605633
-3.4447334 -3.3239758 -1.1489918
-3.5051162 -3.3409343 -1.1627331
-3.4711292 -3.268151 -1.1441703
-3.4498887 -3.208467 -1.1301879
-3.483808 -3.2003663 -1.1350094
-3.5019417 -3.1776257 -1.1345272
-3.410774 -3.0570011 -1.0976428
-3.4272866 -3.034086 -1.0969195
-3.5839534 -3.1337035 -1.1424828
-3.8602479 -3.3336058 -1.226859
-3.8887539 -3.316783 -1.2295108
-4.3737717 -3.6841631 -1.3804238
-3.3821862 -2.813972 -1.0528028
-3.4061389 -2.7987096 -1.0549725
-3.4338 -2.7863157 -1.0583476
-3.384171 -2.7118063 -1.037133
-3.4814358 -2.7548041 -1.0626869
-3.4982734 -2.7333908 -1.0626869
-3.4973028 -2.6982436 -1.0571421
-3.5832884 -2.7296453 -1.0788389
-3.5557513 -2.6743674 -1.0650977
-3.5105269 -2.606807 -1.0460527
-3.4630439 -2.5387566 -1.0265256
-3.5068655 -2.5379362 -1.0352043
-3.4734018 -2.4814062 -1.0202577
-3.5369527 -2.4941514 -1.0349633
-3.5681241 -2.4834862 -1.0397848
-3.5864954 -2.463743 -1.0407491
-3.5790489 -2.4264474 -1.033999
-3.642276 -2.4368081 -1.0484635
-3.6571593 -2.4144137 -1.0484635
-3.6816652 -2.3982823 -1.0513563
-3.7036605 -2.3803675 -1.053526
-3.7018011 -2.3472078 -1.0487045
-3.7169566 -2.324964 -1.0489457
-3.7344565 -2.3041511 -1.0499099
-3.7675955 -2.2927926 -1.0554546
-3.7965739 -2.2786179 -1.0597939
-3.8363786 -2.2705965 -1.0672673
-3.8175435 -2.2279446 -1.0578654
-3.8059025 -2.1899645 -1.0506332
-3.834465 -2.1751862 -1.0549725
-3.8130047 -2.132206 -1.0450884
-3.8455679 -2.1195393 -1.0506332
-3.8354714 -2.0834019 -1.0441241
-3.8404808 -2.0557089 -1.0419544
-3.793782 -2.0008819 -1.0253203
-3.7594769 -1.9534152 -1.0123022
-3.8491557 -1.9700856 -1.033999
-3.8429701 -1.9372612 -1.0289364
-3.8626091 -1.9175265 -1.0311061
-3.9344721 -1.9231815 -1.0477402
-3.933079 -1.8926947 -1.0441241
-3.960408 -1.8760004 -1.0484635
-3.9894388 -1.8598613 -1.053285
-4.0201845 -1.8442452 -1.0585886
-4.0393867 -1.8231342 -1.0607584
-4.0664654 -1.8053991 -1.0650977
-4.0997047 -1.7901169 -1.0711246
-4.136476 -1.7760252 -1.0781157
-4.2304573 -1.7856889 -1.1005356
-4.2296796 -1.7548658 -1.0974017
-4.2610397 -1.7373021 -1.1029464
-4.3734326 -1.7518787 -1.1301879
-4.4066796 -1.7338891 -1.1362147
-4.5367432 -1.7529616 -1.1680367
-4.6045856 -1.7467647 -1.1832244
-4.6234031 -1.7215246 -1.185394
-4.6429958 -1.696452 -1.1878048
-4.6715908 -1.6744763 -1.1926264
-4.7632709 -1.6744064 -1.214082
-4.998271 -1.722572 -1.2731454
-5.1356421 -1.7347031 -1.3064138
-5.2668958 -1.7430786 -1.3379946
-5.3051906 -1.7197008 -1.3452269
-5.3470955 -1.6970921 -1.3534235
-5.4908786 -1.7056826 -1.3881382
-6.4447236 -1.9584986 -1.6330705
-6.2082191 -1.8451391 -1.5687034
-6.0143805 -1.7474773 -1.515667
-6.6094594 -1.8763597 -1.66658
-6.6068192 -1.8318822 -1.6629637
-6.6057563 -1.7880148 -1.6598299
-6.6775975 -1.7635466 -1.6754997
-6.7926192 -1.7493906 -1.7022591
-6.8427615 -1.7175961 -1.7123842
-7.0256996 -1.7177298 -1.756501
-7.0729299 -1.6833462 -1.7659029
-7.3062711 -1.6915419 -1.8227966
-7.5683761 -1.7033241 -1.8869225
-7.741766 -1.6924806 -1.9283874
-7.7633977 -1.6473619 -1.9312804
-7.7676558 -1.5985227 -1.9298339
-7.7963543 -1.5546241 -1.9346554
-7.8047934 -1.5065734 -1.9344143
-7.8329716 -1.4622148 -1.9392358
-7.8628092 -1.4179113 -1.9445394
-7.8570185 -1.3671458 -1.9409233
-7.8164439 -1.3107318 -1.9286286
-7.8272138 -1.2632098 -1.9293517
-7.8511214 -1.2176855 -1.93345
-7.8478856 -1.167919 -1.9307982
-7.886611 -1.1242585 -1.9387537
-7.9010539 -1.0768934 -1.9406823
-7.8950014 -1.0267678 -1.9375483
-7.8924842 -0.97723371 -1.9353787
-7.8992958 -0.92890114 -1.9356197
-7.9337835 -0.88363314 -1.9428519
-7.9091349 -0.83179331 -1.9353787
-7.8976712 -0.78162563 -1.9312804
-7.9177804 -0.73458391 -1.9351375
-7.9182711 -0.68565321 -1.9341732
-7.9232965 -0.63713235 -1.9344143
-7.9599638 -0.59094208 -1.9426109
-7.9295502 -0.53978753 -1.9341732
-7.9365873 -0.49136189 -1.9351375
-7.9598022 -0.44378623 -1.9402001
-7.9371729 -0.39369106 -1.9339322
-7.9384699 -0.3449401 -1.9336911
-7.925889 -0.29568347 -1.9300749
-7.9624758 -0.24812873 -1.9387537
-7.9881034 -0.19987059 -1.9447806
-7.9445438 -0.1500164 -1.9336911
-7.9598713 -0.10145018 -1.9373072
-7.9477277 -0.052525878 -1.9341732
-7.9527531 -0.0037601355 -1.9353787
-7.9526262 0.045037109 -1.9353787
-7.9492888 0.093797885 -1.9346554
-7.90975 0.14187019 -1.9250124
-7.9397774 0.19115283 -1.9327267
-7.9200239 0.23930718 -1.9281464
-7.9203463 0.28796986 -1.9286286
-7.9329748 0.33718309 -1.9322447
-7.9385114 0.38623098 -1.9341732
-7.9224253 0.43418798 -1.9307982
-7.9205809 0.4828501 -1.9310392
-7.8835778 0.52916098 -1.9226016
-7.5498824 -0.18807611 -1.9241024
-7.5470243 -0.1416745 -1.9230955
-7.5487189 -0.095376439 -1.9233472
-7.5491619 -0.049056575 -1.9233472
-7.5386753 -0.0027304508 -1.9205781
-7.5908103 0.043825049 -1.9341717
-7.5478182 0.089895651 -1.9230955
-7.5471249 0.13620649 -1.9230955
-7.5180888 0.18183507 -1.9157952
-7.5081253 0.22769821 -1.9135296
-7.5472074 0.27524218 -1.9241024
-7.5154018 0.32027 -1.9162987
-7.552928 0.36830819 -1.9266198
-7.5408626 0.41411498 -1.9241024
-7.5275536 0.45972863 -1.9213333
-7.5216942 0.50571358 -1.9205781
-7.5126586 0.55143154 -1.9190677
-7.5110631 0.59767139 -1.9195713
-7.5014687 0.64325136 -1.9180609
-7.4771423 0.68740785 -1.9127744
-7.5074577 0.73667437 -1.9218369
-7.5056844 0.78302652 -1.922592
-7.4891949 0.8277905 -1.9195713
-7.4839749 0.87372774 -1.9195713
-7.4755912 0.91927791 -1.9188161
-7.4784484 0.96624565 -1.9210817
-7.4742966 1.012374 -1.9215851
-7.4459047 1.0550946 -1.9157952
-7.4699268 1.1052934 -1.9238507
-7.435266 1.1468303 -1.9165505
-7.4280891 1.1924306 -1.9165505
-7.4091778 1.2360756 -1.9135296
-7.3842883 1.2785431 -1.9089985
-7.3905935 1.3263918 -1.9127744
-7.4003944 1.375073 -1.9175574
-7.3737597 1.4169859 -1.9127744
-7.3601804 1.4612616 -1.9115158
-7.344439 1.5050358 -1.9097537
-7.3568444 1.5546732 -1.9155436
-7.3452754 1.599373 -1.91504
-7.343823 1.6463175 -1.9173057
-7.3467855 1.6943916 -1.9208299
-7.3145919 1.7343044 -1.91504
-7.322619 1.7837334 -1.9200747
-7.2824306 1.8213527 -1.912271
-7.2514319 1.8609517 -1.9069847
-7.2520437 1.908612 -1.9102572
-7.2271147 1.9495457 -1.9067329
-7.2122178 1.9930805 -1.9059777
-7.1905403 2.0346618 -1.9034604
-7.1807094 2.0795512 -1.9042156
