# .PCD v0.7 - Point Cloud Data file format
VERSION 0.7
FIELDS x y z
SIZE 4 4 4
TYPE F F F
COUNT 1 1 1
WIDTH 1535
HEIGHT 1
VIEWPOINT 0 0 0 1 0 0 0
POINTS 1535
DATA ascii
10.317737 7.4587445 -1.8664536
10.348817 7.3849564 -1.8637899
10.389083 7.3179016 -1.862902
10.421608 7.2455502 -1.8606822
10.453637 7.1730757 -1.8584626
10.490083 7.1038084 -1.8571308
10.518672 7.0294189 -1.854467
10.555 6.9603901 -1.8532832
10.575955 6.8814731 -1.8494357
10.611321 6.8121767 -1.8482518
10.650414 6.7453513 -1.8478079
10.699151 6.6845903 -1.8491397
10.734914 6.6157031 -1.8482518
10.755021 6.5373836 -1.8447002
10.761847 6.4514403 -1.8389289
10.810596 6.3908205 -1.8405567
10.863277 6.3323355 -1.8429245
10.91136 6.2709804 -1.8445523
10.960819 6.2102485 -1.8464761
11.003036 6.145288 -1.8472159
11.052666 6.0843349 -1.8492876
11.111524 6.0281906 -1.8529873
11.120392 5.9449801 -1.8482518
11.146159 5.8711047 -1.8464761
11.178463 5.8007812 -1.8458841
11.211203 5.730732 -1.8454401
11.252339 5.6649461 -1.8464761
11.289545 5.5971136 -1.84692
11.32101 5.5264359 -1.8464761
11.372535 5.4654336 -1.8494357
11.414796 5.3997784 -1.8509154
11.437851 5.3250461 -1.8492876
11.450527 5.2457047 -1.846032
11.481598 5.1749401 -1.8458841
11.531218 5.1124082 -1.8488437
11.579595 5.0490665 -1.8516554
11.615811 4.9802585 -1.8525432
11.66529 4.9169564 -1.8556509
11.68793 4.8422594 -1.854467
11.721086 4.7719436 -1.855059
11.740962 4.6962628 -1.8535792
11.768637 4.6237717 -1.8534312
11.807858 4.5557442 -1.855207
11.834665 4.4828568 -1.855059
11.870292 4.4132571 -1.8563908
11.896218 4.3400006 -1.8562429
11.95056 4.2769198 -1.8606822
11.973778 4.2025299 -1.8602383
11.962866 4.1164341 -1.854467
11.993522 4.0448499 -1.8553549
12.036896 3.977387 -1.8583146
12.064838 3.9046729 -1.8589065
12.101769 3.8347521 -1.8609782
12.121292 3.7592535 -1.8603864
12.143184 3.6845207 -1.8602383
12.179786 3.614161 -1.8624581
12.190334 3.5360541 -1.8606822
12.197528 3.457145 -1.8584626
12.211839 3.3803911 -1.8574266
12.225668 3.3035917 -1.8563908
12.258141 3.2317908 -1.8583146
12.28636 3.1587307 -1.8596464
12.279608 3.0767961 -1.8556509
12.297295 3.0011573 -1.855503
12.347232 2.9331863 -1.8603864
12.366924 2.8578153 -1.8606822
12.408351 2.7872961 -1.8643819
12.43295 2.7127934 -1.8655657
12.446459 2.6358407 -1.8651217
12.459491 2.5588243 -1.8646778
12.487567 2.4848342 -1.8666016
12.507435 2.4091001 -1.8673415
12.54726 2.3370166 -1.871189
12.541896 2.2564833 -1.8682294
12.551608 2.1788089 -1.8676375
12.574495 2.1033835 -1.8691173
12.587165 2.0261884 -1.8691173
12.608156 1.9502766 -1.8704491
6.4967756 0.96473658 -0.9442296
6.1481166 0.87450504 -0.89066011
5.9857874 0.81400818 -0.86535519
5.9484954 0.77180105 -0.85899198
5.9393773 0.73359269 -0.85692024
5.9221568 0.69460517 -0.85366464
5.9056649 0.65596569 -0.85055703
5.9085951 0.61961395 -0.85040903
5.905396 0.58266938 -0.84937316
5.8940878 0.54506046 -0.84715343
5.8854971 0.5078668 -0.84537762
5.8855453 0.47150815 -0.84493369
5.8804369 0.43480438 -0.84374982
5.880034 0.39851445 -0.84330589
0 0 -0
0 0 -0
5.8666172 0.28924462 -0.84034622
0 0 -0
0 0 -0
0 0 -0
5.8719487 0.14518352 -0.84034622
5.8766842 0.10922392 -0.84093815
0 0 -0
0 0 -0
0 -0 -0
0 -0 -0
0 -0 -0
0 -0 -0
0 -0 -0
0 -0 -0
0 -0 -0
0 -0 -0
0 -0 -0
0 -0 -0
0 -0 -0
0 -0 -0
0 -0 -0
0 -0 -0
0 -0 -0
6.2113843 -0.57227701 -0.89480364
11.497969 -1.1315356 -1.690207
11.487859 -1.2017555 -1.6897631
11.470439 -1.2711308 -1.6882832
10.610792 -1.2417316 -1.5599828
10.598065 -1.3062094 -1.559243
10.582985 -1.3703237 -1.558207
10.563598 -1.4337695 -1.5565792
10.558518 -1.4991161 -1.5571712
10.570643 -1.5670667 -1.5604268
11.091543 -1.7139645 -1.640781
11.057384 -1.7782174 -1.6372294
11.03651 -1.8443996 -1.6357496
11.024011 -1.9119146 -1.6356016
11.022779 -1.9814465 -1.6372294
11.002635 -2.0475953 -1.6360456
10.989864 -2.1150677 -1.6360456
10.983469 -2.1838112 -1.6370815
10.965019 -2.2501688 -1.6363416
10.945201 -2.3161774 -1.6354537
10.930783 -2.3832922 -1.6354537
10.907269 -2.4483671 -1.6341218
8.3028288 -1.9170486 -1.2364941
10.853309 -2.5765467 -1.6305703
10.844021 -2.6447339 -1.6316061
10.824711 -2.710501 -1.6311622
10.807876 -2.7768691 -1.6311622
7.5266981 -1.982782 -1.1260996
7.4809737 -2.0198996 -1.1209202
10.761604 -2.9771829 -1.6321981
10.747891 -3.044507 -1.6329379
10.713811 -3.1059899 -1.6305703
10.690759 -3.1705449 -1.6299783
7.9700823 -2.4166725 -1.2076377
7.9371562 -2.4599652 -1.204826
7.9247413 -2.5095165 -1.2052699
7.9289541 -2.5644886 -1.2083775
10.575325 -3.4926462 -1.6279066
10.537764 -3.5520976 -1.6253909
10.484909 -3.6060715 -1.6205075
10.448587 -3.6654255 -1.6182878
10.392378 -3.7174726 -1.6129603
7.704689 -2.80918 -1.188548
10.391399 -3.8616087 -1.6202115
10.440575 -3.9529688 -1.6319021
10.458569 -4.0333304 -1.6387093
10.443748 -4.1014047 -1.6403371
10.412877 -4.1632056 -1.6394491
10.366983 -4.2188163 -1.6361935
10.316233 -4.2721281 -1.6321981
10.25337 -4.3199835 -1.6262788
10.234852 -4.3863225 -1.6276106
10.160603 -4.4284873 -1.6199156
10.119677 -4.4847364 -1.6176958
10.036967 -4.5219584 -1.6086689
10.000041 -4.57934 -1.6071891
9.9825134 -4.6456213 -1.6089649
9.9573965 -4.708477 -1.6095568
9.9274273 -4.7690578 -1.6094089
9.8775358 -4.8199039 -1.6060052
9.8300543 -4.8716354 -1.6030456
9.7637587 -4.9136281 -1.5969783
9.729022 -4.9711943 -1.5962384
9.6974583 -5.0303411 -1.5960904
9.6681604 -5.0906711 -1.5963864
9.6349983 -5.1489654 -1.5960904
9.5980072 -5.2051582 -1.5952026
9.5537586 -5.2572761 -1.5931308
9.4816008 -5.2936163 -1.5863236
9.4403372 -5.3468199 -1.5848438
9.396204 -5.3982382 -1.5829201
9.3569231 -5.4523044 -1.5818841
9.3232927 -5.5096149 -1.5818841
9.291007 -5.5677347 -1.5821801
9.2000446 -5.5902233 -1.5722654
9.189146 -5.6610961 -1.5764089
9.1408167 -5.7089891 -1.5740411
9.112299 -5.7692018 -1.575225
9.0517607 -5.8089776 -1.5707855
8.9943933 -5.8503861 -1.5669379
8.937685 -5.8918543 -1.5632384
8.9441252 -5.9751563 -1.5709335
8.8991041 -6.0243793 -1.5694537
8.8326139 -6.0587268 -1.5641264
8.7879639 -6.107728 -1.5627944
8.7430449 -6.1564097 -1.5614626
8.7002745 -6.2064934 -1.5605748
8.6572199 -6.2562842 -1.5596869
8.6170731 -6.3081174 -1.5593909
8.5869427 -6.367353 -1.5610187
8.531106 -6.4074473 -1.557911
8.4617224 -6.4369159 -1.5522878
8.4048328 -6.4754338 -1.5490322
8.3485689 -6.5141048 -1.5459245
8.3340473 -6.5854454 -1.550808
8.3189631 -6.6568518 -1.5556914
8.2964001 -6.7227163 -1.559243
8.2045383 -6.7320852 -1.5494761
8.1387367 -6.7620735 -1.5447407
8.0562286 -6.7774992 -1.5367496
8.0054569 -6.8191071 -1.5349739
8.0076475 -6.9062133 -1.5437047
7.9539485 -6.9454584 -1.5414851
7.8311677 -6.9233775 -1.525503
7.8489599 -7.0253911 -1.5376376
7.7976446 -7.0661135 -1.5360098
7.7439394 -7.1044645 -1.5339381
7.6965785 -7.1484809 -1.5331981
7.6453671 -7.188796 -1.5317183
7.5982485 -7.2328439 -1.5311264
7.5458932 -7.27178 -1.5294986
7.5060868 -7.3227787 -1.5305344
7.4406099 -7.3485417 -1.526243
7.1429305 -7.1415973 -1.4728215
7.0795159 -7.1655898 -1.4686779
7.0126233 -7.1855345 -1.4637945
6.9478121 -7.2070651 -1.459355
6.9048238 -7.2509933 -1.459651
6.842587 -7.2744918 -1.4558035
6.7695527 -7.2859068 -1.4495882
6.740767 -7.3447962 -1.4531398
6.6836185 -7.372828 -1.4504762
6.5907598 -7.3606443 -1.4398215
2.1732912 -2.4561613 -0.45218939
2.1542764 -2.4649806 -0.45130149
2.1513844 -2.4923816 -0.45411316
6.4196801 -7.5337238 -1.4424851
6.422998 -7.6319995 -1.4540277
6.3760476 -7.6712666 -1.4540277
6.2974882 -7.6720195 -1.4466286
6.2154245 -7.6674881 -1.4383416
6.1781478 -7.7178354 -1.4407094
6.1490722 -7.7788763 -1.4451488
2.0015514 -2.5629759 -0.44804588
1.9821657 -2.5705085 -0.44715801
1.9621643 -2.5771129 -0.44612214
1.9439385 -2.5859408 -0.44553021
1.9268566 -2.5962312 -0.44523424
1.8285125 -2.4954906 -0.42436877
1.8137455 -2.5074646 -0.42451674
1.811537 -2.5370634 -0.42792034
5.8999686 -8.37568 -1.4944268
5.8941884 -8.4775019 -1.5064133
5.8672371 -8.5502071 -1.5130725
5.8046832 -8.5713062 -1.5104089
5.7217622 -8.561533 -1.5022699
5.6832757 -8.6179476 -1.5061173
5.6103358 -8.6219845 -1.5006421
5.5439715 -8.6354389 -1.4969425
1.807363 -2.8521018 -0.46669164
1.7751582 -2.8396516 -0.46254814
1.7582197 -2.8513322 -0.46269611
5.3262687 -8.7621326 -1.4957587
5.2754555 -8.7997389 -1.4966465
5.2133107 -8.8183203 -1.4942788
5.184999 -8.8945751 -1.5019739
5.1032257 -8.8790588 -1.4938349
5.0501113 -8.9127865 -1.4942788
4.9909887 -8.9358339 -1.492947
4.9451256 -8.9827518 -1.4957587
4.8918018 -9.0164032 -1.4963505
4.8331227 -9.040144 -1.4953147
4.7817097 -9.0775042 -1.4966465
4.7263765 -9.1075516 -1.4967945
4.6740055 -9.1434259 -1.4979783
4.6187038 -9.1736994 -1.4982743
4.5495906 -9.1761694 -1.4939828
4.4884295 -9.1941357 -1.492355
4.4289331 -9.2152634 -1.4913192
4.3748426 -9.2476292 -1.4922071
4.3188524 -9.2760925 -1.492503
4.2622662 -9.3033171 -1.492651
4.2038827 -9.3265896 -1.4922071
4.1433706 -9.3449755 -1.4910232
4.0867434 -9.372036 -1.4913192
4.029161 -9.3969345 -1.4913192
3.967586 -9.4123669 -1.4898393
3.9090014 -9.4347067 -1.4895434
3.8536472 -9.4649267 -1.4905792
3.7951319 -9.4874754 -1.4904313
3.7368462 -9.5105839 -1.4904313
3.6766405 -9.5287199 -1.4896914
3.6167033 -9.5474005 -1.4890994
3.5556414 -9.5629225 -1.4880636
3.4914756 -9.5696936 -1.4856958
3.4330246 -9.5918684 -1.4858438
3.3783622 -9.6248837 -1.4877676
3.3195629 -9.6463671 -1.4879156
3.2641032 -9.6778002 -1.4896914
3.2049699 -9.6985855 -1.4898393
3.1460092 -9.7199497 -1.4901353
3.0875041 -9.7428417 -1.4907272
3.0270793 -9.7597132 -1.4904313
2.9662766 -9.7752647 -1.4899874
2.9037097 -9.7847481 -1.4886554
2.8427906 -9.799531 -1.4882115
2.7807209 -9.8101282 -1.4871757
2.7244313 -9.8413038 -1.4893954
2.6645105 -9.859745 -1.4896914
2.6029539 -9.8720827 -1.4890994
2.5430696 -9.8907423 -1.4895434
2.478729 -9.8917694 -1.4873236
2.4212689 -9.9202442 -1.4893954
2.361268 -9.9387627 -1.4899874
2.2997952 -9.9511366 -1.4896914
2.2391262 -9.9669905 -1.4899874
2.1768742 -9.9757109 -1.4892474
2.1141896 -9.9821072 -1.4882115
0.53393668 -2.5952806 -0.35792485
0.51915985 -2.6043279 -0.35881272
0.50597471 -2.6220317 -0.36103246
0.49132472 -2.6328652 -0.36221632
0.47726092 -2.647511 -0.36399209
0.46675509 -2.6835203 -0.3690235
0.45990205 -2.7438853 -0.37775442
0.44509935 -2.7593493 -0.37967819
0.4240804 -2.7356391 -0.37568268
0.40728685 -2.7381897 -0.37568268
0.38533169 -2.7044084 -0.37020734
0.36966205 -2.7135818 -0.37124321
0.35643554 -2.7422802 -0.37523875
0.34178126 -2.7620838 -0.37790242
0.32034135 -2.7258198 -0.37213111
0.30175725 -2.7110238 -0.36961541
0.28594065 -2.7206931 -0.37079927
1.0036746 -10.180891 -1.4922071
0.72772032 -7.873548 -1.1445973
0.67532355 -7.8305683 -1.1374941
0.62584525 -7.8168197 -1.1348305
0.57808858 -7.8234715 -1.1352744
0.53200752 -7.8554869 -1.1395659
0.63190168 -10.270163 -1.501086
0.20017079 -3.6014194 -0.50117147
0.177099 -3.582824 -0.4982118
0.15511188 -3.5838432 -0.4982118
0.13082695 -3.5224633 -0.48888892
0.10796811 -3.4826701 -0.48282167
0.08584509 -3.4526176 -0.47823423
0.18880872 -10.204762 -1.4886554
0.12632319 -10.216606 -1.4902833
0.021934481 -3.3972414 -0.46979925
0.00093879411 -10.281672 -1.4999021
-0.061904781 -10.241925 -1.4939828
-0.12461314 -10.230474 -1.492355
-0.18727446 -10.223584 -1.4914671
-0.24966156 -10.208401 -1.4893954
-0.31226408 -10.205688 -1.4892474
-0.37495199 -10.205557 -1.4895434
-0.43743759 -10.2001 -1.4890994
-0.50011307 -10.1992 -1.4893954
-0.56306702 -10.202851 -1.4904313
-0.62584198 -10.202166 -1.4908752
-0.68943036 -10.212934 -1.4930949
-0.7656191 -10.391966 -1.5206196
-0.84442449 -10.575368 -1.5488842
-0.91150457 -10.595607 -1.5527318
-0.97859192 -10.612465 -1.5561353
-1.047084 -10.640708 -1.5613147
-1.1146203 -10.655723 -1.5645703
-1.1805267 -10.653598 -1.5653101
-1.2461039 -10.648118 -1.5656061
-1.3059673 -10.596102 -1.558947
-1.3193547 -10.18969 -1.4988662
-1.3789239 -10.159842 -1.4956106
-1.439568 -10.139441 -1.4938349
-1.5007395 -10.123569 -1.492799
-0.45122132 -2.9255865 -0.4043912
-0.47670615 -2.9696314 -0.41149434
-1.6928623 -10.130322 -1.4982743
-0.52089083 -3.0083814 -0.41830149
-0.54231638 -3.0216761 -0.4208172
-0.5619331 -3.0241251 -0.4217051
-1.940215 -10.081841 -1.4976825
-2.005127 -10.085265 -1.5000501
-2.0675678 -10.075679 -1.500494
-2.1244357 -10.039581 -1.4969425
-0.62176144 -2.8556936 -0.39876789
-0.63927197 -2.8518248 -0.39876789
-0.65698099 -2.8488121 -0.39891586
-2.3793209 -10.022911 -1.5028617
-2.439369 -10.002357 -1.5019739
-2.5004561 -9.9862423 -1.5018259
-0.94163591 -3.6680369 -0.52810419
-0.760948 -2.8913927 -0.40883064
-0.77274221 -2.8647096 -0.40542707
-0.7887224 -2.8541954 -0.40453917
-0.7965135 -2.8150473 -0.39921182
-0.81294489 -2.8072574 -0.39876789
-0.81862146 -2.7633426 -0.39270061
-2.9791195 -9.8240767 -1.4975344
-1.0006832 -3.2310658 -0.46757951
-1.0169053 -3.2135513 -0.46580374
-3.1816711 -9.8362656 -1.5083371
-3.2146635 -9.7339201 -1.4953147
-3.2790694 -9.7280693 -1.4975344
-3.3377328 -9.7049608 -1.4970905
-1.1297386 -3.2228396 -0.47246292
-1.1484926 -3.2130535 -0.47201899
-3.5066533 -9.6167936 -1.4930949
-3.56973 -9.6062212 -1.4948708
-1.1636543 -3.0757592 -0.45352122
-1.1842847 -3.0731747 -0.45426112
-3.7633016 -9.5830708 -1.5019739
-1.2068509 -3.020761 -0.44819388
-1.2328207 -3.0316191 -0.45115352
-3.9447343 -9.5258827 -1.5041935
-4.007719 -9.512435 -1.5059694
-4.0667901 -9.4894829 -1.5062654
-4.133635 -9.4842958 -1.509521
-4.1889462 -9.452425 -1.5084851
-4.2521486 -9.4382658 -1.5104089
-4.303803 -9.39851 -1.5081891
-1.3270838 -2.8536069 -0.43235978
-1.3424538 -2.8409402 -0.43161988
-1.3679988 -2.8495865 -0.43443155
-1.3819873 -2.834029 -0.43324769
-4.6063275 -9.2948542 -1.5136645
-4.6708326 -9.2814331 -1.5161802
-4.7317452 -9.2605247 -1.517512
-4.789844 -9.2339497 -1.5179559
-4.8445687 -9.2008858 -1.517364
-4.8953385 -9.1605206 -1.5155882
-4.9500394 -9.1277027 -1.5151442
-4.7245855 -8.5859737 -1.4278349
-4.7453537 -8.4998341 -1.4180681
-4.7725563 -8.426672 -1.410521
-4.7837653 -8.3269148 -1.3983865
-4.8168397 -8.2666454 -1.3930591
-4.856904 -8.2190552 -1.3899515
-4.8833461 -8.14923 -1.3829963
-4.894733 -8.055728 -1.3718977
-4.9560027 -8.0449076 -1.3753012
-4.922482 -7.8818212 -1.3519201
-5.0813384 -8.0260973 -1.3828484
-5.2047496 -8.1104536 -1.4034178
-5.2625065 -8.0908003 -1.4056376
-5.3392725 -8.0996408 -1.4130367
-5.4526091 -8.1621141 -1.4302026
-5.392796 -7.9663587 -1.4009022
-5.4326229 -7.9200711 -1.3985344
-5.4969234 -7.9093256 -1.4026779
-5.5584488 -7.8940454 -1.4060816
-5.6257377 -7.8863578 -1.410965
-5.6722836 -7.8492861 -1.410521
-5.694047 -7.7784257 -1.4038618
-6.2948866 -8.4892378 -1.5428169
-6.3450751 -8.448081 -1.5423729
-6.4321246 -8.4554253 -1.5511039
-1.7130052 -2.224808 -0.38160196
-1.727841 -2.2158146 -0.38189793
-1.745084 -2.2098265 -0.38278583
-1.7604644 -2.2013936 -0.38322976
-1.7907523 -2.2112949 -0.38722527
-6.7527905 -8.2297659 -1.5543596
-6.8120098 -8.1988258 -1.5564313
-6.8704662 -8.1667109 -1.558355
-6.9230123 -8.1274118 -1.558947
-6.9733973 -8.0855293 -1.5590949
-7.0267811 -8.0470581 -1.5599828
-7.0812659 -8.0097179 -1.5611666
-7.1441321 -7.9815912 -1.5642743
-7.1962929 -7.9412694 -1.5650142
-7.2542453 -7.907166 -1.567086
-7.3080111 -7.8683023 -1.5682698
-7.3520875 -7.8189907 -1.567382
-7.4026532 -7.776597 -1.5679739
-7.4618979 -7.7431335 -1.5704895
-7.5168662 -7.704989 -1.5721173
-7.5626116 -7.6573138 -1.5718213
-7.6353292 -7.636641 -1.5772967
-7.6806359 -7.5882578 -1.5770007
-3.4904754 -3.4073169 -0.69132835
-3.4059272 -3.284261 -0.66942698
-3.351521 -3.1923797 -0.65403688
-7.9286685 -7.4577799 -1.5901712
-7.9373245 -7.3746624 -1.5826241
-3.5233946 -3.2344551 -0.67712206
-3.2625091 -2.958406 -0.62044495
-3.4095523 -3.0537689 -0.6463418
-3.5867789 -3.1729836 -0.67800999
-3.4504945 -3.0149512 -0.64708173
-3.4344802 -2.9640083 -0.64027452
-3.4337814 -2.9268451 -0.63657498
-3.7543783 -3.1604111 -0.69576782
-3.7706571 -3.1347871 -0.69517589
-3.8639784 -3.1724486 -0.70953012
-5.2210665 -4.2327819 -0.96716684
-5.3450036 -4.2791476 -0.98596054
-5.3323627 -4.21561 -0.97856146
-5.3713832 -4.1931558 -0.98107713
-5.4745674 -4.2198792 -0.99572736
-5.4602156 -4.1556683 -0.98818028
-5.5077524 -4.1387186 -0.99232376
-5.5306602 -4.1030784 -0.99187982
-5.5142374 -4.0386853 -0.98418474
-5.7320871 -4.144393 -1.0198485
-5.7308412 -4.0901885 -1.0149651
-5.6539469 -3.9831967 -0.99631929
-5.7870989 -4.0240703 -1.0161489
-5.8051572 -3.9840095 -1.0149651
-5.5936384 -3.7886271 -0.97234619
-5.7721996 -3.858077 -1.0003148
-5.7363143 -3.7833917 -0.98966008
-5.7784882 -3.7605271 -0.99306369
-5.6666207 -3.6384587 -0.96909058
-5.7247686 -3.6263714 -0.97545385
-5.6278028 -3.5167754 -0.95444036
-5.6181216 -3.4629822 -0.94896507
-5.8159032 -3.5357912 -0.97989327
-5.9579468 -3.5722351 -1.0009067
-5.9635768 -3.5260496 -0.9980951
-5.9167423 -3.4495535 -0.98625654
-5.98839 -3.4422548 -0.99498743
-5.7934089 -3.2830954 -0.95784396
-5.88166 -3.2855766 -0.96953458
-5.9632263 -3.2832825 -0.98004127
-5.8885012 -3.1952341 -0.96391124
-5.8827014 -3.1455233 -0.95961976
-5.9771471 -3.1489997 -0.97234619
-5.9006681 -3.0626214 -0.95621616
-5.9748302 -3.0547113 -0.96553904
-5.9095378 -2.9757519 -0.95148075
-6.0411077 -2.9956551 -0.97042245
-6.0460434 -2.9520245 -0.96820271
-6.1852779 -2.9731207 -0.98832828
-6.2650933 -2.9642878 -0.99853903
-6.3019929 -2.9345541 -1.0016466
-6.238955 -2.8587663 -0.98832828
-6.253674 -2.819212 -0.98788434
-5.7979822 -2.5711896 -0.91048974
-5.8190894 -2.5379369 -0.91137761
-6.2935987 -2.6989491 -0.98610854
-6.3546982 -2.6791 -0.99335963
-6.3125396 -2.6158371 -0.9838888
-6.5712166 -2.6758564 -1.0231041
-6.686687 -2.6751444 -1.0390861
-6.644062 -2.610925 -1.0296153
-6.5870614 -2.5419915 -1.0179247
-6.4499273 -2.4437361 -0.99350762
-6.4953923 -2.4154847 -0.99839103
-6.5203114 -2.3793116 -1.0000188
-6.4984717 -2.3262658 -0.99424756
-6.5452852 -2.2978084 -0.9994269
-6.5704837 -2.2614646 -1.0012027
-6.5982938 -2.2258458 -1.0034224
-6.6005578 -2.1815951 -1.0016466
-6.684392 -2.1638865 -1.0127453
-6.7908826 -2.1523986 -1.0273955
-6.6962738 -2.0773029 -1.0105256
-6.7959633 -2.0625865 -1.0241399
-6.8407283 -2.030411 -1.0291713
-6.8872533 -1.9983145 -1.0344987
-6.8727422 -1.9484687 -1.0303552
-6.7253885 -1.8622146 -1.0056422
-6.8140249 -1.8418033 -1.0176287
-6.9131804 -1.8231462 -1.0312431
-6.9117846 -1.7774932 -1.0293193
-7.1921401 -1.8025696 -1.0709022
-7.3414226 -1.7921581 -1.0922116
-7.3686385 -1.7509627 -1.0947274
-7.8427434 -1.8127799 -1.1659067
-7.9733744 -1.7914904 -1.1842564
-8.2180548 -1.7935327 -1.2200681
-8.2927637 -1.7565914 -1.2298349
-8.9689436 -1.8422982 -1.3314986
-9.3651657 -1.8638208 -1.3902475
-9.8707447 -1.9014877 -1.4655703
-10.468514 -1.9500313 -1.5548035
-11.257037 -2.0254383 -1.6728932
-11.371569 -1.9740794 -1.6884313
-11.573681 -1.9360673 -1.7172878
-11.871438 -1.9110429 -1.7606465
-12.246526 -1.894372 -1.8156958
-12.976961 -1.9258368 -1.9244626
-13.0512 -1.8550771 -1.9339334
-13.059397 -1.7745622 -1.9334894
-13.114175 -1.7001157 -1.9401486
-13.106692 -1.617438 -1.937485
-13.095742 -1.5345709 -1.9343773
-13.093116 -1.4528803 -1.9326016
-13.118505 -1.3742653 -1.9351172
-13.124722 -1.2935519 -1.9348212
-13.143246 -1.2139955 -1.9364491
-13.15833 -1.1340058 -1.9376329
-13.161097 -1.0529313 -1.937041
-13.145611 -0.97055638 -1.9337854
-13.138491 -0.88901132 -1.9318616
-13.127904 -0.80740839 -1.9294939
-13.107924 -0.7254777 -1.9257944
-13.163494 -0.64755768 -1.9334894
-13.16722 -0.5667758 -1.9334894
-13.161555 -0.48564515 -1.9321576
-13.149459 -0.40442348 -1.9299378
-13.132908 -0.32327157 -1.9271263
-13.126734 -0.24253801 -1.9259424
-13.133908 -0.162062 -1.9268303
-13.14059 -0.081507094 -1.9277182
-13.129963 -0.00087665406 -1.9260904
-13.137633 0.079736024 -1.9272742
-13.123052 0.16017531 -1.9252025
-13.107979 0.24043867 -1.9231308
-13.103291 0.32079029 -1.9226868
-13.101075 0.40118453 -1.9226868
-13.128016 0.48265639 -1.9271263
-13.092201 0.5617972 -1.9222429
-13.117154 0.64352679 -1.9265343
-13.084321 0.72241634 -1.9222429
-13.069771 0.80207998 -1.920763
-13.055723 0.88165897 -1.9194312
-12.160834 -0.3074232 -1.924988
-12.123011 -0.23204292 -1.9186134
-12.088669 -0.15718991 -1.9128764
-12.095329 -0.083053134 -1.9138325
-12.110419 -0.0088473307 -1.9162229
-12.121105 0.065519311 -1.917976
-12.082963 0.13946007 -1.9119202
-12.094711 0.21382354 -1.9139919
-12.108963 0.28840685 -1.9165417
-12.060587 0.36131275 -1.9090515
-12.069982 0.43573532 -1.910964
-12.097657 0.51107788 -1.9159043
-12.034143 0.58238912 -1.906183
-12.043159 0.65691686 -1.9082547
-12.040872 0.73091948 -1.9085735
-12.059801 0.80636704 -1.9123982
-12.041826 0.87941509 -1.9103265
-12.046045 0.95406491 -1.9119202
-12.037013 1.0277083 -1.911442
-12.035397 1.1019965 -1.9122388
-12.008758 1.1739033 -1.9090515
-12.030787 1.2506268 -1.9138325
-11.981672 1.3198841 -1.9071392
-11.926279 1.3879014 -1.8994898
-11.964573 1.4668182 -1.9071392
-11.939681 1.5381862 -1.9045894
-11.909473 1.6086433 -1.9012427
-11.909154 1.6830693 -1.9028364
-11.904463 1.7569755 -1.9037926
-11.782223 1.8128755 -1.885625
-11.843987 1.896842 -1.8975774
-11.87887 1.9772586 -1.9052268
-11.84803 2.046916 -1.9021989
-11.846909 2.1216638 -1.9041113
-11.847258 2.1968346 -1.9063424
-11.795742 2.2622359 -1.9001272
-11.76324 2.3309255 -1.8970993
-11.732273 2.3996968 -1.8943901
-11.722158 2.4726582 -1.8951869
-11.714483 2.5462146 -1.8964618
-11.714054 2.6214945 -1.8990116
-11.657342 2.6840193 -1.8923184
-11.65026 2.7577708 -1.893912
-11.583238 2.8170738 -1.885625
-11.617456 2.9010079 -1.8942307
-11.590831 2.9700315 -1.8927964
-11.586711 3.0448589 -1.8951869
-11.56781 3.1158962 -1.8951869
-11.548473 3.1868162 -1.8951869
-11.524901 3.2565427 -1.8945495
-11.485736 3.3217123 -1.8913622
-11.450938 3.3879242 -1.8889717
-11.458282 3.4666975 -1.8937526
-11.450943 3.5413136 -1.8961431
-11.444059 3.6162674 -1.898693
-11.386893 3.6752005 -1.8927964
-11.351939 3.7409835 -1.8907247
-11.318479 3.8071055 -1.8889717
-11.26129 3.8649471 -1.8832346
-11.276498 3.9476709 -1.8899279
-11.254852 4.0177836 -1.890406
-11.280085 4.1049953 -1.8990116
-11.225989 4.1634903 -1.8940713
-11.201156 4.2326422 -1.8942307
-11.133513 4.2853351 -1.8870593
-11.087708 4.3460035 -1.8837126
-11.05258 4.4106617 -1.8822784
-11.015247 4.4743094 -1.8805254
-10.983936 4.5403051 -1.8798879
-10.93403 4.5984311 -1.8760632
-10.938285 4.6794124 -1.8818003
-10.861387 4.7255673 -1.873354
-10.890871 4.8180819 -1.8837126
-10.851199 4.8803625 -1.8819597
-10.798603 4.9365916 -1.8779756
-10.743936 4.9915276 -1.8736727
-10.705071 5.0535645 -1.8722384
-10.685433 5.1247039 -1.8743101
-10.669763 5.1979542 -1.8771788
-10.638553 5.2637625 -1.8773381
-10.606937 5.3293834 -1.8774974
-10.603058 5.4091697 -1.8827565
-10.519699 5.4482503 -1.8736727
-10.486072 5.5126953 -1.8736727
-10.447694 5.5746093 -1.8728759
-10.405478 5.6343799 -1.8714416
-10.415703 5.7228394 -1.8797286
-10.358835 5.7746243 -1.8757445
-10.31977 5.8361325 -1.875107
-10.288048 5.9017997 -1.8759038
-10.234575 5.954886 -1.8727165
-10.199544 6.0185752 -1.8730353
-10.189532 6.0972657 -1.878135
-10.149396 6.1581364 -1.8776568
-10.110579 6.2197785 -1.8774974
-10.067198 6.2785645 -1.8765413
-10.029319 6.340745 -1.8767006
-9.9968729 6.4064255 -1.8779756
-9.9697952 6.4757104 -1.880366
-9.9397678 6.5432758 -1.8822784
-9.9076452 6.6096201 -1.883872
-9.8440018 6.6548076 -1.8794098
-9.8730288 6.7630615 -1.8931152
-9.8418884 6.8308315 -1.8951869
-9.8022127 6.8927951 -1.895665
-9.8152161 6.992332 -1.9066612
-9.7481108 7.0350943 -1.9018801
-9.6880245 7.0825405 -1.8985336
-9.6546984 7.1494889 -1.9006053
-9.5956421 7.1973405 -1.8975774
-9.5866747 7.2829552 -1.9047488
-9.559804 7.3554864 -1.9084141
-9.5222788 7.4200735 -1.9100078
-9.4509954 7.4581809 -1.9047488
-9.3973427 7.5098677 -1.9031551
-9.3909931 7.5996795 -1.911442
-9.351058 7.6627898 -1.9128764
-9.3486891 7.757215 -1.9222789
-9.2933569 7.8080812 -1.9206852
-9.234745 7.8560019 -1.9184541
-9.1833763 7.9099402 -1.9178166
-9.1592226 7.9875512 -1.9230757
-9.1455622 8.0749636 -1.9307251
-9.0664015 8.1046104 -1.9243506
-9.0465136 8.1872473 -1.9308845
-8.9851885 8.2325983 -1.9284941
-8.9460859 8.298317 -1.9310439
-8.8921213 8.3503504 -1.9304065
-8.8178205 8.382988 -1.9253068
-8.7726192 8.4430962 -1.926741
-8.7333765 8.5091658 -1.9296095
-8.6971664 8.578537 -1.933275
-8.6618309 8.6491785 -1.9372591
-8.5905457 8.683917 -1.9331156
-8.5571108 8.7569399 -1.9377372
-8.5258436 8.8327188 -1.9429961
-8.4823875 8.8962984 -1.945546
-8.4330559 8.953927 -1.946821
-8.3826637 9.0105619 -1.9479365
-8.3352346 9.07055 -1.9498489
-8.2966738 9.1405287 -1.9539924
-8.2147303 9.1625977 -1.9477772
-8.2434416 9.3089085 -1.9684945
-8.179018 9.35114 -1.9667414
-8.1163235 9.3951731 -1.9654665
-8.039299 9.4222679 -1.9606856
-7.9686103 9.4563198 -1.9574983
-7.9022274 9.4951725 -1.9554266
-7.8494592 9.5503445 -1.9568609
-7.8454633 9.6657791 -1.9708849
-7.797122 9.7276011 -1.9737535
-7.7348366 9.7721643 -1.973116
-7.6735144 9.8178844 -1.9727973
-7.6125255 9.8640022 -1.9726379
-7.5554476 9.9152374 -1.9735942
-7.4992151 9.967721 -1.974869
-7.4520416 10.032567 -1.9786938
-7.383337 10.06855 -1.9767814
-7.3387861 10.137653 -1.9815624
-7.2787404 10.185705 -1.9821998
-7.1973262 10.203554 -1.9769408
-7.1424804 10.258866 -1.9791719
-7.081635 10.305754 -1.9798093
-7.0204835 10.35228 -1.9804468
-6.9452996 10.377933 -1.9771001
-6.8760509 10.412115 -1.9755065
-6.8556919 10.521105 -1.988415
-6.7845998 10.553008 -1.9865026
-6.716547 10.589437 -1.9855465
-6.6472554 10.623755 -1.9842715
-6.5772777 10.65678 -1.9828373
-6.5081716 10.691034 -1.9817218
-6.4510889 10.745155 -1.9844309
-6.396102 10.803225 -1.987937
-6.3296943 10.842267 -1.987937
-6.2610784 10.877479 -1.9872994
-6.1888576 10.906246 -1.9855465
-6.1189299 10.938846 -1.9845903
-6.0474048 10.968405 -1.983156
-5.9861178 11.016581 -1.9852277
-5.9291277 11.07312 -1.9888932
-5.8652191 11.11715 -1.9903274
-5.8023586 11.163441 -1.9922397
-5.7351017 11.201469 -1.9927179
-5.6631513 11.230278 -1.9916023
-5.595015 11.266583 -1.9919211
-5.53055 11.310457 -1.993674
-5.4717522 11.366417 -1.9976581
-5.4141665 11.425649 -2.0022798
-5.342289 11.455075 -2.0016422
-5.2653127 11.473284 -1.9990925
-5.1883144 11.490979 -1.9965426
-5.1149039 11.516282 -1.995427
-5.0409837 11.540213 -1.9941522
-4.9770927 11.587254 -1.9970207
-4.9070535 11.620302 -1.9974988
-4.8420944 11.665693 -2.0002079
-4.7745256 11.705238 -2.001961
-4.712163 11.75814 -2.0061045
-4.6388426 11.784076 -2.0056264
-4.5717897 11.826129 -2.0080168
-4.5103507 11.883493 -2.0131166
-4.4380393 11.912795 -2.0134351
-4.3685894 11.950002 -2.0151882
-4.2978497 11.984015 -2.016463
-4.2248912 12.012024 -2.0167818
-4.161407 12.067586 -2.0218816
-4.091393 12.105051 -2.0239532
-4.0325603 12.176785 -2.0319214
-3.9550273 12.192847 -2.0304873
-3.8828287 12.225353 -2.0319214
-3.8024669 12.231979 -2.029053
-3.7348108 12.279637 -2.0331964
-3.6605201 12.306108 -2.0338337
-3.5959697 12.366254 -2.0402083
-3.5262311 12.409927 -2.0438738
-3.4571476 12.457014 -2.0481765
-3.3811641 12.479897 -2.0484953
-3.3131046 12.53286 -2.0539138
-3.2395928 12.566337 -2.056145
-3.1665165 12.602254 -2.0588541
-3.0987546 12.660762 -2.065388
-3.01735 12.664171 -2.0628381
-2.9418168 12.692064 -2.0644319
-2.8610628 12.697356 -2.06236
-2.7871108 12.732996 -2.065388
-2.7173433 12.789449 -2.0719218
-2.6643245 12.929645 -2.0923204
-2.5802996 12.922515 -2.0884957
-2.5013347 12.940042 -2.0888145
-2.4082808 12.882367 -2.0768621
-2.3241017 12.868728 -2.0722406
-2.2562852 12.946935 -2.0827587
-2.1746757 12.947879 -2.080687
-2.090461 12.931742 -2.075906
-2.0068295 12.91701 -2.0714438
-1.9353969 12.981808 -2.0800495
-1.8390924 12.87714 -2.0610852
-1.769264 12.955674 -2.0720813
-1.6816971 12.904613 -2.0620413
-1.6094152 12.970531 -2.071125
-1.5300304 12.982123 -2.0714438
-1.4490299 12.979494 -2.0695314
-1.3676019 12.971451 -2.0668223
-1.2920804 13.020858 -2.0735157
-1.2151805 13.060979 -2.0787747
-1.1418532 13.146871 -2.0915236
-1.0617993 13.161502 -2.0927987
-0.97984785 13.152018 -2.0902488
-0.8977161 13.137098 -2.0869021
-0.81721407 13.14433 -2.0872209
-0.73676759 13.15304 -2.0878584
-0.65545785 13.145481 -2.0859461
-0.57573551 13.170954 -2.089452
-0.49520594 13.18213 -2.0907269
-0.41384703 13.170119 -2.0883365
-0.33215457 13.13787 -2.0827587
-0.25168726 13.147556 -2.0840335
-0.17081761 13.134047 -2.0816431
-0.090245835 13.137809 -2.0821211
-0.0096026612 13.099613 -2.075906
0.070886612 13.120157 -2.0792527
0.15129817 13.111578 -2.0779777
0.23157227 13.100533 -2.0763841
0.31328928 13.15512 -2.0854678
0.39429697 13.162818 -2.0870614
0.47341824 13.114768 -2.0797307
0.5530473 13.091889 -2.0765436
0.63660997 13.155302 -2.0873802
0.71103019 13.035815 -2.0687346
0.790465 13.022338 -2.0673003
0.87377685 13.068464 -2.0755873
0.95258141 13.044149 -2.0725594
1.0316659 13.026249 -2.070647
1.1083839 12.982295 -2.0645912
1.1896406 12.992946 -2.0674598
1.2690535 12.982454 -2.0669816
1.3467497 12.955767 -2.0639536
1.4251387 12.937447 -2.06236
1.5018706 12.905904 -2.0586946
1.5819923 12.904285 -2.0599697
1.6593761 12.880628 -2.0577385
1.7363973 12.855528 -2.0553479
1.8160733 12.850497 -2.0563042
1.9005085 12.877201 -2.0625193
1.9722811 12.818461 -2.0548699
2.0597932 12.861682 -2.0639536
2.140455 12.859513 -2.0657067
2.2246964 12.877268 -2.0708063
2.2998397 12.841996 -2.0673003
2.3789535 12.829584 -2.0676191
2.4553986 12.803111 -2.0657067
2.5310328 12.773278 -2.0633163
2.6054046 12.738164 -2.0601289
2.6639578 12.629204 -2.0448301
2.7588 12.692691 -2.0580573
2.8394313 12.688048 -2.0601289
2.9105861 12.641525 -2.0553479
2.9685442 12.54081 -2.0416427
3.0543013 12.558811 -2.0476985
3.1334555 12.548454 -2.0491328
3.2123525 12.536642 -2.0504076
3.2831943 12.49378 -2.0465829
3.3633871 12.486746 -2.0488141
3.4307508 12.432565 -2.0432363
3.5131445 12.433131 -2.0469017
3.5759292 12.364871 -2.0390928
3.6567721 12.359736 -2.0419614
3.7285392 12.323837 -2.0397303
3.8081696 12.313931 -2.0419614
3.881573 12.283744 -2.0408459
3.9556587 12.255938 -2.0402083
4.0295496 12.227685 -2.039571
4.1010394 12.192437 -2.037818
4.1728897 12.15864 -2.0363836
4.245132 12.126285 -2.0352681
4.3148112 12.086991 -2.0330369
4.382143 12.041735 -2.0298498
4.4470224 11.990554 -2.0257063
4.5089965 11.932566 -2.0204473
4.5856748 11.913888 -2.0220408
4.6540074 11.873578 -2.0199692
4.7318969 11.857635 -2.0222003
4.8060508 11.832036 -2.0228376
4.8740354 11.791375 -2.0209253
4.9455285 11.759427 -2.0206065
5.0199194 11.734306 -2.0215628
5.09025 11.699662 -2.0209253
5.1507597 11.64293 -2.016463
5.2164335 11.598501 -2.0142319
5.2751899 11.539339 -2.0094512
5.3421512 11.498696 -2.0080168
5.4037557 11.446953 -2.0046701
5.4559622 11.376194 -1.9979769
5.5226364 11.33629 -1.9968613
5.574142 11.265912 -1.9903274
5.6431632 11.231498 -1.9903274
5.7204957 11.213369 -1.9933553
5.7674007 11.135979 -1.9857059
5.8351617 11.099507 -1.9855465
5.8952575 11.048687 -1.9828373
5.9667001 11.019252 -1.9841121
6.0437078 10.999738 -1.9872994
6.1033964 10.94865 -1.9847497
6.1889272 10.943649 -1.9908055
6.2426972 10.882348 -1.9865026
6.302402 10.831892 -1.9842715
6.3451676 10.753056 -1.9767814
6.4236999 10.735099 -1.9807656
6.4904728 10.69717 -1.9810842
6.5415044 10.633599 -1.9766221
6.5967021 10.577346 -1.9735942
6.6440711 10.509132 -1.9683352
6.7084289 10.468167 -1.9683352
6.7752228 10.430948 -1.9691319
6.8477826 10.402373 -1.9716817
6.903264 10.347841 -1.9692913
6.9594398 10.294657 -1.9672196
7.006855 10.228955 -1.9627573
7.0621696 10.175225 -1.9606856
7.1153855 10.11878 -1.9581358
7.164165 10.056437 -1.9544704
7.2303572 10.018694 -1.9557453
7.2870336 9.9677649 -1.9544704
7.35217 9.9284182 -1.955586
7.4034739 9.8704824 -1.9530362
7.4424005 9.7965698 -1.947299
7.496953 9.7436781 -1.9458648
7.5602384 9.7021666 -1.946821
7.6153469 9.6501694 -1.9457054
7.6620903 9.5878363 -1.9425181
7.7151866 9.5337353 -1.9410838
7.7597737 9.4694176 -1.9375778
7.7975593 9.3973141 -1.9324782
7.8487229 9.341733 -1.9308845
7.9026966 9.2896385 -1.9300877
7.9440861 9.2230215 -1.926263
7.9894977 9.1614542 -1.9235537
8.0390272 9.1048584 -1.9219601
8.0947418 9.0553608 -1.9219601
8.1362419 8.9901505 -1.9186134
8.1845818 8.9327793 -1.9170198
8.2405815 8.8838387 -1.9173385
8.2820959 8.8194342 -1.9143106
8.3136091 8.7448387 -1.9090515
8.3643723 8.6908178 -1.9084141
8.406518 8.6280174 -1.9058644
8.4558344 8.5727587 -1.9050674
8.5006037 8.5130291 -1.9033145
8.5386419 8.4468241 -1.9001272
8.569128 8.3735733 -1.8953463
8.6089821 8.309866 -1.8927964
8.6412315 8.2391729 -1.8886529
8.6959352 8.1900568 -1.8896091
8.7438574 8.1345282 -1.8891311
8.807416 8.0934162 -1.892159
8.8130522 7.9994102 -1.8825971
8.8457985 7.930685 -1.8790911
8.8913374 7.873641 -1.8784536
8.9305649 7.8111367 -1.8765413
8.9656258 7.7452211 -1.8738321
9.0167351 7.6932673 -1.8746289
9.053957 7.6295266 -1.8725572
9.0839071 7.5599351 -1.8690511
9.1377497 7.5103235 -1.8706448
9.1851931 7.4553585 -1.8709636
9.2346163 7.4019461 -1.8717604
9.2543163 7.3249245 -1.8665013
9.2850866 7.2570596 -1.8636328
9.3177176 7.1909032 -1.8612423
9.3224039 7.1036768 -1.8532741
9.3871155 7.0623674 -1.857577
9.4199696 6.9969831 -1.8555052
9.4332695 6.9174504 -1.8496087
9.4667406 6.8530707 -1.8478557
9.490942 6.7822266 -1.8443497
9.5444784 6.7323995 -1.8467401
9.5839882 6.6725807 -1.8464215
9.6320724 6.618681 -1.8478557
9.6651487 6.5544682 -1.8464215
9.666625 6.469233 -1.8389313
9.7028418 6.4076219 -1.8382938
9.7411489 6.3474264 -1.8381345
9.7151423 6.245892 -1.8257041
9.8108053 6.2226505 -1.8367002
9.8831139 6.1838059 -1.8432342
9.8822279 6.099196 -1.8359034
9.9363308 6.0487118 -1.8390907
9.9842606 5.9942365 -1.8411624
10.028498 5.9373879 -1.8425967
10.080086 5.8847022 -1.8454652
10.145949 5.8399792 -1.851043
10.163562 5.7673821 -1.8476963
10.17205 5.68997 -1.842756
10.194668 5.6207747 -1.8405249
10.278407 5.5849838 -1.8496087
10.287244 5.5082965 -1.8449872
10.307752 5.4381609 -1.8425967
10.342677 5.3757219 -1.8429154
10.383376 5.3162088 -1.8443497
10.419326 5.2541757 -1.8449872
10.464632 5.196732 -1.8473777
10.496322 5.1324244 -1.8473777
10.562306 5.0846248 -1.8535929
10.563867 5.0057683 -1.8483338
10.627486 4.9562955 -1.8542303
10.626294 4.8765802 -1.8486525
10.653316 4.8100681 -1.8481745
10.662782 4.7357931 -1.8446684
10.763107 4.7014999 -1.8572582
10.795381 4.636929 -1.8578956
10.819991 4.569066 -1.8572582
10.821382 4.4916139 -1.8526366
10.83594 4.41991 -1.8504056
10.855526 4.3504004 -1.8491306
10.867317 4.2779241 -1.8465807
10.942163 4.230031 -1.8550271
10.915304 4.1428418 -1.8459433
10.958096 4.0823379 -1.8489712
10.969957 4.0102773 -1.8467401
11.051042 3.9632223 -1.8564614
11.058389 3.8894434 -1.8535929
11.138975 3.8411508 -1.863314
11.180104 3.7787375 -1.8663419
11.156221 3.6945472 -1.8583738
11.142058 3.6141438 -1.8521585
11.146148 3.540031 -1.8491306
11.264758 3.5017607 -1.8655452
11.175527 3.3989618 -1.8468995
11.252947 3.3472159 -1.8564614
11.252418 3.2720408 -1.8529553
11.288426 3.2075236 -1.8556645
11.313602 3.1397829 -1.8566208
11.35743 3.0770175 -1.8607643
11.376096 3.0072718 -1.8607643
11.402937 2.9396312 -1.8621985
11.392036 2.8623905 -1.8574176
11.465002 2.8060505 -1.8666607
11.496408 2.7390823 -1.8690511
11.533195 2.673172 -1.8723978
11.543602 2.601053 -1.8714416
11.532342 2.5242624 -1.8669794
11.55051 2.4540694 -1.8674575
11.627232 2.3959041 -1.8776568
11.586533 2.3134954 -1.8685731
11.615048 2.2451692 -1.8709636
11.621813 2.1725881 -1.869848
11.628124 2.1000087 -1.8687325
11.645654 2.0294681 -1.8695292
11.667624 1.9596089 -1.8711228
11.67358 1.8870354 -1.8701667
11.741519 1.8241643 -1.8794098
6.0716567 0.90497959 -0.95222831
0 0 -0
0 0 -0
0 0 -0
5.9049144 0.73247659 -0.92178977
5.8975325 0.69484395 -0.91987735
0 0 -0
0 0 -0
0 0 -0
0 0 -0
0 0 -0
0 0 -0
0 0 -0
0 0 -0
0 0 -0
0 0 -0
0 0 -0
0 0 -0
0 0 -0
0 0 -0
0 0 -0
0 0 -0
0 0 -0
0 0 -0
0 0 -0
0 -0 -0
0 -0 -0
0 -0 -0
0 -0 -0
0 -0 -0
0 -0 -0
0 -0 -0
0 -0 -0
0 -0 -0
0 -0 -0
5.9506912 -0.39809033 -0.92402083
5.9619207 -0.4356018 -0.92625195
5.9788189 -0.47373351 -0.92943925
5.9964557 -0.51217288 -0.93278587
0 -0 -0
6.0653749 -0.59311318 -0.94505692
10.373285 -1.0783813 -1.6448256
10.331146 -1.1381199 -1.6390885
10.353387 -1.2049117 -1.6438694
10.368337 -1.2711785 -1.6475347
10.375029 -1.3366652 -1.6499252
10.380328 -1.4021496 -1.6521564
10.368597 -1.4654013 -1.6516782
10.326204 -1.5240945 -1.6462599
10.322513 -1.5883268 -1.6472161
10.285278 -1.6472642 -1.6427538
10.251605 -1.7064531 -1.6389291
10.241914 -1.7694917 -1.6390885
10.226977 -1.8316056 -1.638451
10.209722 -1.8932428 -1.6374948
10.195004 -1.9552952 -1.6370168
10.18572 -2.0183892 -1.6374948
10.175078 -2.0812452 -1.6378136
10.122512 -2.1352863 -1.6312796
10.10922 -2.1973567 -1.6312796
8.3354187 -1.8655062 -1.340121
10.073796 -2.3194752 -1.6300046
10.062257 -2.3819253 -1.6304828
10.073353 -2.4499195 -1.6347857
10.069624 -2.5145519 -1.636698
10.018621 -2.567225 -1.6308016
7.4552469 -1.9593035 -1.2056175
9.9806433 -2.6884353 -1.6298454
9.9801378 -2.7540886 -1.6325545
9.9906025 -2.8230577 -1.637176
9.9863691 -2.888145 -1.6394072
9.9675131 -2.9490857 -1.6392478
7.9866128 -2.4164724 -1.3082482
7.9367385 -2.4546409 -1.3023517
7.9224691 -2.5035911 -1.3025111
7.9060187 -2.551852 -1.3023517
8.691885 -2.8644726 -1.4386082
9.8091688 -3.2994876 -1.6319171
9.7728643 -3.3541658 -1.6292078
9.748373 -3.4127631 -1.6285704
9.7263193 -3.472182 -1.6284111
9.706687 -3.5324714 -1.6287298
7.6308737 -2.830272 -1.2751004
9.6228962 -3.6363173 -1.6218771
9.5653925 -3.6818192 -1.6158212
9.5159655 -3.7299953 -1.6111997
9.4433861 -3.7685568 -1.602594
9.4438658 -3.8360882 -1.6067375
9.5643034 -3.9535437 -1.6319171
9.5189342 -4.0033526 -1.6282517
9.4978218 -4.0632377 -1.6288892
9.4781427 -4.1238017 -1.6298454
9.4598837 -4.1850758 -1.6311202
9.4151192 -4.2345386 -1.6277736
9.3521471 -4.2754016 -1.6212397
9.3194704 -4.3297935 -1.6201241
9.2775507 -4.3797312 -1.617415
9.2353697 -4.429318 -1.6147057
9.1911554 -4.4776874 -1.6116778
9.1537743 -4.5291834 -1.6099248
9.1152258 -4.5799465 -1.6080124
9.0887108 -4.6366873 -1.6083312
9.0583363 -4.6914592 -1.6080124
9.0136509 -4.7386837 -1.6051439
8.9809208 -4.7920423 -1.6045064
8.9313812 -4.836247 -1.600841
8.9179783 -4.8999896 -1.603869
8.8920555 -4.9570203 -1.6046658
8.8185053 -4.9871907 -1.5966976
8.7063866 -4.9945412 -1.581558
8.7361622 -5.083117 -1.5928729
8.6707983 -5.1165581 -1.5864983
8.6434755 -5.1721992 -1.5872951
8.59132 -5.2128472 -1.5834703
8.5894451 -5.2840853 -1.5892074
8.5308924 -5.3204956 -1.5842671
8.5014238 -5.3748503 -1.5849046
8.4483356 -5.4141293 -1.5810798
8.3859787 -5.4470453 -1.5755022
8.350749 -5.4973125 -1.5751834
8.3382139 -5.5626922 -1.5793269
8.2793884 -5.5971637 -1.574546
8.2717667 -5.6662698 -1.5798049
8.1946688 -5.6876483 -1.5715179
8.1483097 -5.7298732 -1.5692869
8.1154108 -5.7814808 -1.569765
8.0621719 -5.8184581 -1.566259
8.0271158 -5.8683996 -1.5664183
8.0187254 -5.9381042 -1.5719961
7.9687128 -5.9771247 -1.5692869
7.9043736 -6.0050063 -1.5637091
7.8728561 -6.0576077 -1.5648247
7.8285303 -6.1003394 -1.5633904
7.765377 -6.1280785 -1.5581315
7.745368 -6.1897855 -1.5617968
7.7218237 -6.2489924 -1.5648247
7.6375184 -6.2587132 -1.5552628
7.5852966 -6.2941113 -1.5523943
7.538219 -6.33355 -1.5506413
7.4849281 -6.3675313 -1.5476134
7.4995742 -6.4597244 -1.5590876
7.4196181 -6.470582 -1.5504819
7.3745952 -6.5114126 -1.5493664
7.3124218 -6.5368023 -1.5445855
7.2685151 -6.5782351 -1.5437886
7.2076335 -6.6040373 -1.5393264
7.2545567 -6.7293715 -1.5586095
7.1836228 -6.7460508 -1.5520755
7.1206293 -6.7695966 -1.5472946
7.0711331 -6.8056302 -1.5455416
6.9967146 -6.8171997 -1.5382109
6.9238272 -6.8295002 -1.5311989
6.8510532 -6.8411636 -1.5241868
6.7964501 -6.8704395 -1.5213182
6.7652059 -6.9233093 -1.5238681
6.6972289 -6.9384093 -1.5179716
6.6763301 -7.0022354 -1.5230713
6.6366243 -7.0466619 -1.5238681
6.6020036 -7.0966468 -1.5259398
6.5396309 -7.1166697 -1.5214776
6.402946 -7.0543256 -1.4991666
2.194427 -2.4480729 -0.49198422
2.174783 -2.4563181 -0.49086866
2.1642201 -2.4748175 -0.49198422
6.1775546 -7.1510677 -1.4867362
6.122026 -7.1753201 -1.4838676
6.0906072 -7.2278471 -1.4870549
6.0638266 -7.2863288 -1.4915171
6.0415716 -7.3508539 -1.4972543
6.0280848 -7.4268765 -1.5053818
6.0299454 -7.5230365 -1.5176529
5.9603877 -7.5304799 -1.511597
2.0170271 -2.5811658 -0.49007183
1.9902942 -2.5794261 -0.4872033
1.9708395 -2.5868785 -0.48624709
1.9501812 -2.5926118 -0.48497218
1.8841978 -2.5371671 -0.47142622
1.828895 -2.4945464 -0.46058944
1.815291 -2.5081203 -0.46106753
1.8061814 -2.5280466 -0.46282056
5.5635395 -7.8875136 -1.5194058
5.5218072 -7.9312243 -1.5213182
5.4501138 -7.9315977 -1.5147843
5.4368076 -8.0171804 -1.5249836
5.3271122 -7.9601421 -1.5074536
5.2901387 -8.0108023 -1.5109595
5.2807708 -8.1043167 -1.5227525
5.2293425 -8.1340752 -1.5222744
5.1624126 -8.1393318 -1.5171747
1.7797259 -2.8449397 -0.50298035
1.7606807 -2.853286 -0.50250226
1.7431401 -2.8640358 -0.50250226
1.728583 -2.8797557 -0.50345844
4.9173527 -8.3057499 -1.5194058
4.8677902 -8.3383236 -1.519884
4.8091478 -8.3552008 -1.5174935
4.7597399 -8.3879862 -1.518131
4.7057724 -8.4127264 -1.5173341
4.6402407 -8.4163713 -1.5127126
4.5800266 -8.4290705 -1.5098441
4.5142398 -8.4309063 -1.5050631
4.4826941 -8.4968643 -1.5120751
4.4245548 -8.5128222 -1.5100033
4.376287 -8.547719 -1.5114377
4.3179779 -8.5629511 -1.5093659
4.2614031 -8.5813274 -1.5079316
4.2051992 -8.6002178 -1.5066568
4.1493526 -8.6196327 -1.5055412
4.0891986 -8.6297646 -1.5028319
4.0390911 -8.6609554 -1.5039475
3.985049 -8.6837816 -1.5036288
3.926816 -8.6972723 -1.5017165
3.8833952 -8.7437592 -1.5057006
3.8225577 -8.7511387 -1.5028319
3.7578797 -8.7490301 -1.4983698
3.6956761 -8.7519159 -1.4948637
3.6479616 -8.7890158 -1.4974136
3.5995579 -8.8249454 -1.499804
3.5357924 -8.82304 -1.4956605
3.4975007 -8.8849878 -1.5026727
3.4350858 -8.8860235 -1.4991666
3.389256 -8.930007 -1.5031507
3.3209565 -8.9145565 -1.4969355
3.2668731 -8.9366198 -1.4972543
3.214644 -8.9639311 -1.4985292
3.1504095 -8.9574108 -1.494067
3.0998945 -8.9896393 -1.4962981
3.0468898 -9.0150366 -1.4974136
2.990586 -9.0307512 -1.4969355
2.9259791 -9.0207596 -1.4921546
2.8678839 -9.0300751 -1.4907203
2.8168187 -9.0616426 -1.4931108
2.7686343 -9.1033125 -1.4972543
2.7141328 -9.1248608 -1.498051
2.6514761 -9.1185923 -1.4942263
2.596555 -9.1384878 -1.4948637
2.5472982 -9.1789808 -1.4990072
2.4898963 -9.1906261 -1.4983698
2.4221017 -9.1627817 -1.4911984
2.3687921 -9.1889429 -1.4931108
2.3133276 -9.2071342 -1.4937482
2.2586679 -9.2288265 -1.4950231
2.2029138 -9.2463531 -1.4956605
2.1461377 -9.259696 -1.4956605
2.0888469 -9.2707634 -1.4953419
2.0338233 -9.2920856 -1.4967761
1.9812843 -9.325634 -1.5002822
1.9276129 -9.3550196 -1.5031507
0.51991439 -2.6054375 -0.39015043
0.50448012 -2.6114864 -0.39062852
0.48899117 -2.617444 -0.39110661
0.47695774 -2.6427395 -0.39477199
0.46191987 -2.6524243 -0.39588755
0.44285586 -2.6386578 -0.39317834
0.42996603 -2.6617913 -0.396525
0.41877955 -2.6975467 -0.40194339
0.40207422 -2.6990891 -0.40178403
0.39053121 -2.7366881 -0.40752113
1.2854706 -9.4138403 -1.4950231
0.35832205 -2.7520428 -0.40927413
0.33644372 -2.7140219 -0.40274021
1.103653 -9.3653154 -1.4835489
0.92334789 -8.2720737 -1.3049015
0.87443775 -8.2952557 -1.3077701
0.82293749 -8.2945709 -1.3068138
0.75171781 -8.0812445 -1.271435
0.67964423 -7.8270402 -1.2295222
0.63128793 -7.827127 -1.2288847
0.58324975 -7.830853 -1.2288847
0.53801757 -7.8756514 -1.2355781
0.58504969 -9.4119549 -1.4835489
0.19881614 -3.5545559 -0.53596878
0.17685446 -3.5527508 -0.53549069
0.15535386 -3.5606732 -0.53660619
0.3548198 -9.4481411 -1.487533
0.25667953 -8.1733093 -1.2813156
0.23850013 -9.4379673 -1.485302
0.18039612 -9.4293823 -1.4837083
0.12247077 -9.4253759 -1.4829115
0.064642258 -9.4269381 -1.4830709
0.0068097473 -9.4419651 -1.4854612
-0.051194135 -9.4546623 -1.487533
-0.10928542 -9.4610806 -1.4886485
-0.16745739 -9.4671412 -1.4897641
-0.22568437 -9.4718571 -1.4907203
-0.28353259 -9.4614134 -1.4892861
-0.34179488 -9.465415 -1.4902422
-0.40040842 -9.4759617 -1.492314
-0.45897347 -9.4822016 -1.4937482
-0.51741523 -9.4841356 -1.494545
-0.57655561 -9.4965487 -1.4970949
-0.6344853 -9.4879074 -1.4962981
-0.69362444 -9.4966354 -1.4983698
-0.74985588 -9.4666128 -1.4942263
-0.80985868 -9.484457 -1.4978917
-0.86623931 -9.4596472 -1.4947044
-0.92205799 -9.4315557 -1.491039
-0.98062581 -9.4325943 -1.4921546
-1.0394572 -9.4352312 -1.4935888
-1.0980157 -9.4345589 -1.494545
-1.1569653 -9.4364634 -1.4959793
-1.2140878 -9.4233122 -1.4950231
-1.2754525 -9.4421005 -1.499326
-1.3322592 -9.4262762 -1.498051
-1.3881992 -9.4052277 -1.4959793
-1.4481339 -9.4111691 -1.4983698
-1.4950827 -9.3348446 -1.4873736
-0.49860531 -2.9936726 -0.45118695
-0.51881313 -3.0012579 -0.45293996
-0.53669673 -2.9951026 -0.45246187
-0.5613628 -3.025727 -0.45803961
-0.58270645 -3.0367689 -0.46043009
-1.8491708 -9.3315935 -1.4969355
-1.9154923 -9.364563 -1.5042663
-1.9661931 -9.320756 -1.4990072
-2.0287981 -9.3335991 -1.5031507
-0.65295017 -2.9163086 -0.44369683
-0.66750991 -2.8978167 -0.44130635
-0.69369078 -2.9292114 -0.44720283
-2.2633097 -9.3059397 -1.5072942
-2.3234763 -9.304328 -1.5093659
-2.3800328 -9.2879839 -1.5090472
-0.76185596 -2.8979378 -0.44497174
-0.77987975 -2.8941619 -0.44513112
-0.79263437 -2.8712406 -0.44210318
-0.80728453 -2.8558726 -0.44035017
-0.82342142 -2.8461237 -0.43955335
-2.7418487 -9.2669811 -1.5213182
-2.7772193 -9.1791134 -1.5093659
-2.8364055 -9.1713314 -1.5109595
-1.0167507 -3.2166603 -0.50584888
-1.0413197 -3.2253933 -0.50839871
-2.997942 -9.096941 -1.5074536
-3.0599976 -9.0970888 -1.5106409
-3.0978138 -9.0258512 -1.5017165
-1.1270107 -3.2184341 -0.51174539
-1.1271569 -3.1566021 -0.50234288
-3.2853677 -9.0276022 -1.5120751
-3.3513393 -9.0359678 -1.5170155
-1.1582007 -3.0642107 -0.49007183
-1.1826541 -3.0717878 -0.49262166
-1.1867102 -3.0267882 -0.48608774
-1.207821 -3.0258682 -0.4872033
-3.6247098 -8.9234266 -1.5160593
-3.6782634 -8.8982801 -1.5155811
-3.7324102 -8.8746338 -1.5154217
-3.784076 -8.845211 -1.5143062
-3.8394594 -8.824542 -1.5147843
-3.8955302 -8.8053312 -1.5155811
-3.9494855 -8.7812634 -1.5155811
-1.3195422 -2.8857424 -0.47349796
-1.3347284 -2.8722196 -0.47254178
-1.3510625 -2.8612974 -0.47206369
-4.1522732 -8.6576586 -1.5112783
-4.2308249 -8.6843815 -1.5206808
-4.2897229 -8.6697617 -1.5227525
-4.3419523 -8.6415129 -1.5224338
-4.3984828 -8.6217432 -1.5237087
-4.4553876 -8.6024828 -1.525143
-4.5067096 -8.572361 -1.5246649
-4.5582943 -8.5428047 -1.5243461
-4.6148567 -8.5224886 -1.5257804
-4.6604075 -8.4818983 -1.5235493
-4.6580491 -8.3557024 -1.5055412
-4.6771588 -8.2702475 -1.4950231
-4.7032561 -8.1985769 -1.4870549
-4.7261682 -8.1226311 -1.4782898
-4.7714033 -8.0858269 -1.4768556
-4.7732801 -7.9767656 -1.4618753
-4.7914104 -7.8966856 -1.4523135
-4.8294287 -7.8503199 -1.4491262
-4.8780284 -7.8213773 -1.4492856
-4.9217076 -7.7846231 -1.4480107
-4.9518037 -7.7268476 -1.4427516
-5.0050364 -7.7054257 -1.4445046
-5.0636206 -7.6918869 -1.4478513
-5.113461 -7.6647787 -1.4486481
-5.1703467 -7.6479807 -1.4515166
-5.2277761 -7.6315875 -1.4545445
-5.3245993 -7.6715488 -1.4687281
-5.4022336 -7.6823425 -1.4773337
-5.4842095 -7.6980987 -1.4870549
-5.5469389 -7.6859179 -1.4913578
-5.6091418 -7.6724591 -1.4955013
-5.6713881 -7.6585259 -1.4996448
-5.7342663 -7.6449065 -1.5039475
-5.8109255 -7.6488838 -1.5119158
-5.914937 -7.687417 -1.5270554
-6.0736413 -7.7942662 -1.5563784
-1.7506669 -2.2179484 -0.41740173
-1.7617779 -2.2040799 -0.41676426
-6.192481 -7.6519871 -1.5503225
-6.292501 -7.6787534 -1.5638685
-6.3394985 -7.6399989 -1.5638685
-6.3780022 -7.5911303 -1.5617968
-6.3982344 -7.5210223 -1.5552628
-6.4275117 -7.462173 -1.5511193
-6.5075655 -7.4620295 -1.5595657
-6.559763 -7.4293599 -1.5611594
-6.6321998 -7.4191475 -1.5676932
-6.6828971 -7.3841691 -1.5689682
-6.7427516 -7.3590388 -1.5724742
-6.799192 -7.3298321 -1.5751834
-6.8649879 -7.3102851 -1.5801237
-6.921957 -7.2809038 -1.5829922
-6.9377503 -7.2084188 -1.576299
-6.9839163 -7.1678352 -1.576777
-7.0277658 -7.1248479 -1.576777
-7.083209 -7.0934682 -1.5794863
-7.1378293 -7.0609822 -1.582036
-3.4897542 -3.4097834 -0.74887949
-3.4438443 -3.3238556 -0.73389924
-3.3941562 -3.2358973 -0.71828151
-3.4671266 -3.265099 -0.73007447
-7.4074411 -6.8911591 -1.5944664
-3.5127485 -3.2276504 -0.73134941
-3.528101 -3.2020545 -0.73039323
