# .PCD v0.7 - Point Cloud Data file format
VERSION 0.7
FIELDS x y z
SIZE 4 4 4
TYPE F F F
COUNT 1 1 1
WIDTH 1505
HEIGHT 1
VIEWPOINT 0 0 0 1 0 0 0
POINTS 1505
DATA ascii
-11.478457 14.314976 -2.0234201
-11.39164 14.386695 -2.0236435
-11.304375 14.457888 -2.0238669
-11.202089 14.509673 -2.0214107
-11.103209 14.56549 -2.0196245
-11.000481 14.615876 -2.0171683
-10.896367 14.663956 -2.0144887
-10.795605 14.716116 -2.0124793
-10.696362 14.770006 -2.0108047
-10.578948 14.798174 -2.0056691
-10.476489 14.846567 -2.0034363
-10.384627 14.909755 -2.0033245
-10.291821 14.971556 -2.0031013
-10.194742 15.027021 -2.0020964
-10.092948 15.075255 -2.0001986
-9.9909449 15.122805 -1.9983007
-9.8854837 15.164677 -1.9957329
-9.786335 15.215854 -1.9945048
-9.6762829 15.249604 -1.9910439
-9.5957127 15.329747 -1.993835
-9.4952049 15.378191 -1.9924953
-9.3903294 15.419188 -1.9902624
-9.2766104 15.444996 -1.9861317
-9.1771088 15.49393 -1.9851269
-9.0773563 15.542225 -1.984122
-8.9793406 15.593325 -1.9835639
-8.8780956 15.638621 -1.9823358
-8.7761478 15.682396 -1.9809961
-8.6658373 15.710715 -1.9777585
-8.5645294 15.754862 -1.976642
-8.4620667 15.796604 -1.9753023
-8.353384 15.826259 -1.9725113
-8.2556601 15.876334 -1.9723996
-8.1463099 15.903695 -1.969497
-8.0320101 15.920554 -1.9653661
-7.9222336 15.945509 -1.9623518
-7.8107066 15.966146 -1.9588909
-7.70785 16.003923 -1.9576628
-7.6082292 16.048222 -1.957328
-7.4978504 16.069389 -1.9542019
-7.3891568 16.093418 -1.9515225
-7.2857699 16.128492 -1.9502945
-7.1866703 16.172894 -1.9502945
-7.0873003 16.216684 -1.9502945
-6.9825621 16.247997 -1.9488431
-6.8780932 16.279551 -1.9475034
-6.7746439 16.313189 -1.9464986
-6.6759229 16.35813 -1.9469452
-6.5780144 16.405241 -1.9477267
-6.4794154 16.450842 -1.9483966
-6.379787 16.493996 -1.9488431
-6.2721109 16.516109 -1.9468335
-6.1716928 16.557077 -1.9471685
-6.0699844 16.594635 -1.9471685
-5.9690547 16.634373 -1.9475034
-5.8668756 16.670685 -1.9475034
-5.7680416 16.716703 -1.9487314
-5.6640878 16.748014 -1.9482849
-5.5571532 16.770191 -1.9468335
-5.4562964 16.810589 -1.947615
-5.3428116 16.811552 -1.9438192
-5.2386718 16.841171 -1.9434843
-5.136395 16.876801 -1.9439309
-5.0324607 16.907047 -1.9438192
-4.9325137 16.950966 -1.9453822
-4.8254218 16.970398 -1.9441541
-4.7214684 17.000645 -1.9442657
-4.6134248 17.015867 -1.9427028
-4.50283 17.020798 -1.9400233
-4.3836594 16.991335 -1.9334364
-4.2688985 16.976471 -1.9286358
-4.1663074 17.009102 -1.9294174
-4.0618634 17.034346 -1.9294174
-3.9572661 17.058949 -1.9294174
-3.3306236 14.768955 -1.662927
-3.1765592 14.499839 -1.6296575
-3.0765734 14.467541 -1.6237406
-2.9403648 14.256456 -1.5973929
-2.8466003 14.243047 -1.5938203
-2.7636843 14.283661 -1.5964998
-2.6783659 14.313047 -1.5979511
-2.5747559 14.24218 -1.588015
-2.4630637 14.118698 -1.5721617
-2.3778698 14.142365 -1.5731665
-2.2840626 14.113526 -1.5682542
-2.1838248 14.039884 -1.558318
-2.0408499 13.672653 -1.5151125
-1.952556 13.654423 -1.5116515
-1.8694105 13.671069 -1.5122098
-1.7818899 13.654692 -1.5090837
-1.6989307 13.672271 -1.5098653
-1.6206001 13.729809 -1.5152241
-1.5758697 14.093052 -1.5551921
-1.4847732 14.058972 -1.5502799
-1.4086092 14.169672 -1.561779
-1.3407376 14.382866 -1.5848889
-1.3266701 15.243216 -1.681013
-1.1904941 14.724115 -1.6216193
-1.1526165 15.433752 -1.7007737
-1.0401596 15.181773 -1.671635
-1.004276 16.106295 -1.775016
-0.90855443 16.167717 -1.7812679
-0.72043508 14.397395 -1.5815396
-0.63199353 14.399559 -1.5813164
-0.61005557 16.16184 -1.7790351
-0.47606924 15.064756 -1.6553353
-0.3828651 15.037591 -1.651986
-0.2893202 14.974082 -1.6446177
-0.19876134 15.075935 -1.6558936
-0.104742 14.86322 -1.6318904
-0.013804851 15.144814 -1.6634852
0.078827821 15.087971 -1.6571215
0.17316136 15.242218 -1.6745378
0.28093478 16.056612 -1.7661961
0.3840718 16.250299 -1.7881898
0.47889858 16.08374 -1.7697687
0.53116709 14.787472 -1.6244104
0.6219331 14.784926 -1.624522
0.71397918 14.808625 -1.627648
0.77317911 14.221495 -1.5621139
0.8529852 14.093482 -1.5482702
0.93349683 13.998744 -1.5382224
1.0418925 14.301983 -1.5730549
1.109908 14.045674 -1.544921
1.1882268 13.946514 -1.5345383
1.2718801 13.918179 -1.5321938
1.3592825 13.930882 -1.5345383
1.4440174 13.915361 -1.5337567
1.5437094 14.036628 -1.5484935
1.6168503 13.915348 -1.5358779
1.7022028 13.905166 -1.5358779
1.7901534 13.915157 -1.5382224
1.8780249 13.922623 -1.5403436
1.9639727 13.914774 -1.5407902
2.0448234 13.871984 -1.5373293
2.1329203 13.87882 -1.5395621
2.2262001 13.916498 -1.5453676
2.3100815 13.893754 -1.5443628
2.4032304 13.925344 -1.54961
2.5591464 14.304559 -1.5946019
2.5674195 13.859628 -1.5455909
2.6535342 13.849469 -1.5462607
2.7413573 13.847549 -1.5479354
2.8322406 13.859676 -1.5512846
2.9258347 13.882878 -1.5559735
3.0134938 13.876318 -1.5573133
3.1473653 14.075772 -1.5824329
3.5691626 15.514692 -1.7505662
3.3310664 14.083476 -1.5879033
3.7611601 15.47745 -1.7514594
3.84427 15.406836 -1.7459888
3.872925 15.125917 -1.7161804
3.7622521 14.327167 -1.6261966
3.8459589 14.288459 -1.6244104
3.9639359 14.374762 -1.6372492
4.0480127 14.335823 -1.6355746
4.1557631 14.379453 -1.6436129
4.2706804 14.444215 -1.6542189
4.3557773 14.406323 -1.6528791
4.3601756 14.107784 -1.6209494
4.4427671 14.068446 -1.6194981
4.5479183 14.099559 -1.6264199
4.7652078 14.468763 -1.6734214
4.8618121 14.462801 -1.6762124
4.9546537 14.444918 -1.6776638
4.9316196 14.095324 -1.6397054
5.0250263 14.084454 -1.6420499
5.1378446 14.1262 -1.6507579
5.4945011 14.823079 -1.7380623
5.5642858 14.733307 -1.7313638
5.6224732 14.615413 -1.721316
5.5884471 14.265116 -1.6832459
5.7380848 14.386552 -1.7021134
5.8983917 14.528782 -1.7236605
5.9991903 14.520788 -1.7271214
6.0558305 14.406752 -1.7177434
6.1534905 14.391252 -1.7204227
6.2678318 14.413371 -1.7277912
6.3557506 14.373733 -1.7276796
6.4458637 14.338995 -1.7282377
6.5229874 14.275674 -1.7253351
6.7129951 14.456204 -1.7526875
6.8104749 14.433616 -1.7550319
6.8941846 14.381699 -1.7538038
6.9879551 14.35074 -1.7552552
7.0789614 14.313828 -1.7560368
7.1728997 14.282557 -1.7575997
7.264915 14.247128 -1.7587161
7.3764091 14.249057 -1.7646332
7.4586163 14.193851 -1.7634051
7.5764308 14.20569 -1.7707735
7.6260858 14.089892 -1.7619537
7.8228955 14.244045 -1.7877431
7.9193382 14.212271 -1.7898643
8.0191078 14.185904 -1.792767
8.1262665 14.171778 -1.7973444
8.2255602 14.143126 -1.8001355
8.3283405 14.119779 -1.803708
8.4260435 14.087173 -1.8061641
8.5288115 14.062398 -1.8097367
8.627429 14.030117 -1.8124161
8.7433186 14.024985 -1.8187797
8.8663702 14.029879 -1.8265947
9.0069618 14.060564 -1.8379822
9.1190414 14.045042 -1.8433411
9.2372761 14.037803 -1.8499279
9.36238 14.039562 -1.8578546
9.4867401 14.038665 -1.8655579
9.6192989 14.048248 -1.8748242
9.7562971 14.062446 -1.884872
9.8892574 14.068984 -1.8940266
10.022663 14.074418 -1.9031813
10.173368 14.102115 -1.9155737
10.285502 14.07473 -1.920486
10.417194 14.072858 -1.9290824
10.560575 14.085003 -1.9398
10.682858 14.067425 -1.9464986
10.812593 14.058328 -1.9545369
10.959105 14.069333 -1.9655894
11.132004 14.111837 -1.981331
11.274203 14.113146 -1.9913789
11.411211 14.106285 -2.0004218
11.561152 14.113647 -2.0116978
11.706533 14.113579 -2.0220804
11.838288 14.095513 -2.0300071
11.912966 14.008983 -2.0279975
12.011667 13.950684 -2.0302303
12.102918 13.883461 -2.0312352
12.19511 13.817133 -2.0324633
12.243906 13.70203 -2.0264347
12.302416 13.598641 -2.0221922
12.353408 13.487722 -2.0168333
12.413637 13.387622 -2.013149
12.483987 13.298884 -2.0112512
12.54413 13.199702 -2.0077903
12.598017 13.094555 -2.0034363
12.662873 13.001347 -2.0009801
12.71799 12.898636 -1.9970726
12.769516 12.792927 -1.9927186
12.80751 12.674489 -1.9863549
12.846666 12.558153 -1.9803263
12.886308 12.443195 -1.9745208
12.948752 12.35086 -1.9723996
12.986682 12.235738 -1.9665942
13.072426 12.165978 -1.9682689
13.141708 12.080831 -1.9674873
13.203816 11.989279 -1.9657011
13.257158 11.890121 -1.9626868
13.316476 11.796691 -1.9606771
13.358694 11.688584 -1.9562114
13.407606 11.586904 -1.9528623
13.458042 11.486998 -1.9498479
13.505478 11.384989 -1.9464986
13.554461 11.284739 -1.9434843
13.603491 11.184948 -1.9405816
13.650264 11.083728 -1.9374555
13.693981 10.980491 -1.9339947
13.729936 10.871583 -1.929529
13.787773 10.780399 -1.9283009
13.839502 10.684665 -1.9262913
13.892157 10.589907 -1.9245051
13.937819 10.490125 -1.9218256
13.93173 10.352246 -1.9120011
14.017424 10.283027 -1.9151272
14.055305 10.178755 -1.9116662
14.092436 10.074405 -1.9082053
14.137747 9.9762859 -1.9059725
14.173415 9.8717432 -1.9025115
14.203421 9.7637615 -1.8983808
14.244971 9.6641531 -1.8959246
14.276752 9.558321 -1.8922404
14.316891 9.4584885 -1.8897843
14.357175 9.359067 -1.8874398
14.400958 9.2621956 -1.8856535
14.446611 9.1667376 -1.8842021
14.498374 9.075285 -1.883644
14.518273 8.9642258 -1.878955
14.536508 8.8527479 -1.8741543
14.564145 8.7475243 -1.8706934
14.607285 8.6519184 -1.8693538
14.638644 8.5495968 -1.8665627
14.67016 8.4477129 -1.8638833
14.710484 8.351161 -1.8624319
14.739769 8.2486095 -1.8596408
14.76922 8.146493 -1.8569614
14.797102 8.0438519 -1.8541703
14.814644 7.9360127 -1.8501512
14.85515 7.8407874 -1.8491465
14.878294 7.7366529 -1.8460205
14.898952 7.6316237 -1.8426712
14.918881 7.5266328 -1.839322
14.929185 7.4172635 -1.8348563
14.969953 7.3233366 -1.834298
14.989537 7.2192702 -1.831172
15.005715 7.1139627 -1.8277111
15.035575 7.0154524 -1.8260365
15.059373 6.9143558 -1.823692
15.081592 6.8128223 -1.8212359
15.115846 6.7169266 -1.8203428
15.154043 6.6228571 -1.8200078
15.187092 6.5266099 -1.8191147
15.206714 6.4247918 -1.8166585
15.246767 6.3317451 -1.8167702
15.28441 6.2376981 -1.8166585
15.349145 6.1545234 -1.8198961
15.39864 6.0649614 -1.8213475
15.438344 5.9714384 -1.8216825
15.491415 5.8829489 -1.823692
15.540257 5.7926445 -1.825255
15.582041 5.6995716 -1.8260365
15.612042 5.6021767 -1.8254783
15.655497 5.5095768 -1.8265947
15.694644 5.4153576 -1.8272645
15.721929 5.3170447 -1.8265947
15.744824 5.2173505 -1.8254783
15.805842 5.1301551 -1.8289392
15.827552 5.0300655 -1.8278228
15.865709 4.9352164 -1.8287159
15.900446 4.83922 -1.8292741
15.929839 4.7415657 -1.8292741
15.991075 4.6531739 -1.8330699
16.024105 4.5563259 -1.8336282
16.043142 4.4555244 -1.8326234
16.061546 4.3546615 -1.8316185
16.037048 4.2425561 -1.8257016
16.114738 4.1574817 -1.8317302
16.1544 4.062161 -1.8334049
16.189638 3.9655638 -1.834633
16.209801 3.8652291 -1.8341864
16.252573 3.7701867 -1.8364192
16.265705 3.6682055 -1.8353028
16.303438 3.5717349 -1.8370891
16.335739 3.4739056 -1.8383172
16.361614 3.3746099 -1.8388754
16.388834 3.2755167 -1.8396568
16.415453 3.1762168 -1.8404384
16.409235 3.0706806 -1.8375356
16.471773 2.9778943 -1.8425596
16.488756 2.8765986 -1.8424479
16.506096 2.7753713 -1.8424479
16.526739 2.6746747 -1.8428944
16.547749 2.573982 -1.8434527
16.574043 2.4740126 -1.8446808
16.597765 2.3735359 -1.8456856
16.61694 2.2723224 -1.8462437
6.6219645 0.86393422 -0.71229213
6.6251683 0.8230412 -0.71206886
6.5422602 0.77200443 -0.7021327
6.5300851 0.7299695 -0.70023477
6.5166526 0.68800879 -0.6982252
6.5158072 0.64751875 -0.697667
6.5117421 0.60678822 -0.69677383
6.5301929 0.56811434 -0.69844848
6.5335555 0.5280351 -0.69844848
6.5336995 0.48771393 -0.69811356
6.5514407 0.448634 -0.69978821
6.5580373 0.40867415 -0.70023477
6.5247025 0.36641899 -0.69621563
6.5218658 0.32612881 -0.69565743
6.5148091 0.28571284 -0.69465268
6.5134602 0.24562082 -0.6943177
6.5247774 0.20596449 -0.69543415
6.5239315 0.1658747 -0.69521087
6.5168777 0.12568769 -0.6943177
6.4986467 0.085449107 -0.69219649
6.5079923 0.045635819 -0.6932013
6.5200748 0.0057138563 -0.69454104
6.534893 -0.034370158 -0.69621563
6.5454898 -0.07459075 -0.69744372
6.5667682 -0.11513363 -0.69989985
6.5758724 -0.15565895 -0.70101625
6.59764 -0.19668449 -0.70358402
6.6112056 -0.23769782 -0.70525867
6.6155796 -0.27850938 -0.7059285
6.6365762 -0.32019666 -0.70849633
6.650363 -0.36177459 -0.71028256
6.6569452 -0.40311372 -0.71128738
6.716814 -0.44811618 -0.71832085
6.7188935 -0.4896822 -0.71887904
14.39835 -1.1377667 -1.5846657
14.702009 -1.2525722 -1.6197214
14.665348 -1.3401366 -1.6164837
14.624209 -1.4269125 -1.6127995
14.580584 -1.5130292 -1.6088921
14.536452 -1.5986643 -1.6049846
10.61445 -1.2334088 -1.1625458
10.603723 -1.2981524 -1.1622109
10.595557 -1.3631912 -1.1622109
10.57813 -1.4269834 -1.1612061
10.570159 -1.4920015 -1.1613178
10.56867 -1.5579898 -1.1622109
13.83855 -2.1267326 -1.5349848
13.79482 -2.2067389 -1.5315239
13.830034 -2.299489 -1.537106
14.021313 -2.4197898 -1.5605509
13.957291 -2.4970284 -1.5549688
13.867444 -2.5688674 -1.546484
14.215469 -2.7236483 -1.5881265
14.210188 -2.8131371 -1.5894663
13.309574 -2.7198429 -1.4882066
14.199879 -2.9926336 -1.592369
14.203585 -3.0845559 -1.5949367
14.181481 -3.1709991 -1.5946019
14.143356 -3.2537227 -1.5924807
14.145369 -3.3457036 -1.5950484
8.2659683 -2.008898 -0.91771412
8.2573433 -2.0605414 -0.91816068
13.839751 -3.5436432 -1.5670261
13.769689 -3.6158772 -1.561444
7.6470537 -2.0585163 -0.85173345
7.6218247 -2.101965 -0.85028213
14.054653 -3.9686267 -1.6027517
14.028128 -4.0542383 -1.6025285
8.0049639 -2.3669925 -0.89985132
7.9674602 -2.4091635 -0.89717191
7.9515786 -2.4577122 -0.89706028
7.9410868 -2.507952 -0.89761847
8.4504528 -2.7259264 -0.95958
13.643808 -4.4935374 -1.575846
13.61598 -4.5771699 -1.575846
13.566958 -4.6535373 -1.5733898
7.7684946 -2.7182038 -0.88667756
13.462032 -4.802979 -1.5678077
13.414564 -4.8790369 -1.5656865
13.353625 -4.9498582 -1.5620023
13.32672 -5.0331054 -1.5624489
13.291878 -5.1133547 -1.5620023
13.253775 -5.1922789 -1.5612208
13.202282 -5.2657738 -1.5588763
13.145783 -5.3369641 -1.5559735
13.083399 -5.4053826 -1.5524011
13.035328 -5.4793983 -1.5506147
12.95943 -5.5413074 -1.5454792
12.912426 -5.6151729 -1.5439162
12.866822 -5.6894741 -1.5425766
12.822606 -5.7642422 -1.54146
12.758976 -5.8300095 -1.5379992
12.703135 -5.8989797 -1.535543
12.661307 -5.9742694 -1.5348731
12.597528 -6.038959 -1.5315239
12.560237 -6.1161423 -1.5315239
12.511784 -6.1878095 -1.5301841
12.427401 -6.2412734 -1.5243788
12.351688 -6.29845 -1.5196898
12.310162 -6.3727493 -1.5193548
12.230361 -6.4268999 -1.5142193
12.184559 -6.4985499 -1.5134379
12.133093 -6.5670414 -1.5119865
12.07515 -6.6317983 -1.5097536
12.037703 -6.7076998 -1.5102003
11.997184 -6.7819242 -1.5103118
11.958793 -6.8573871 -1.5107584
11.927659 -6.9371305 -1.5122098
11.845495 -6.9869637 -1.5070742
11.75123 -7.0289097 -1.5003756
11.689187 -7.0895443 -1.4979196
11.628536 -7.1507244 -1.4956867
11.581068 -7.2198381 -1.4952401
11.528149 -7.2854538 -1.4941237
11.46733 -7.3458676 -1.4920025
11.395369 -7.3987756 -1.4884299
11.345606 -7.4658256 -1.4878718
11.2847 -7.5253768 -1.4858621
11.225963 -7.5861306 -1.4841875
11.171824 -7.6498165 -1.4831828
11.133657 -7.7244525 -1.4844108
11.083611 -7.7909074 -1.4840759
11.027504 -7.8530045 -1.4829595
10.9912 -7.9292407 -1.484634
10.93191 -7.9889102 -1.4831828
10.874698 -8.0499239 -1.4820663
10.818739 -8.1117296 -1.4811732
10.760848 -8.1719494 -1.4800568
10.702626 -8.2317648 -1.4789404
10.635451 -8.2844563 -1.4765959
10.591441 -8.3550978 -1.4776006
10.522894 -8.4062834 -1.4751445
10.452573 -8.4556923 -1.472465
10.388962 -8.5102234 -1.4707905
10.334253 -8.5719051 -1.4704555
10.283746 -8.6370716 -1.4707905
10.2245 -8.6948586 -1.4698973
10.17171 -8.7580795 -1.470009
10.110289 -8.813797 -1.4688926
10.057508 -8.8769817 -1.4691159
9.9946995 -8.9312429 -1.4678878
9.9286566 -8.9824009 -1.4662131
9.8623619 -9.0330858 -1.4645385
9.7958193 -9.0832949 -1.4628638
9.7268591 -9.1309881 -1.4608543
9.6641665 -9.1843376 -1.4598495
9.5954552 -9.2317505 -1.4579515
9.5251036 -9.2772799 -1.4558303
9.4531393 -9.320899 -1.4534858
9.4154634 -9.3983831 -1.4566119
9.3667059 -9.4651613 -1.4580632
9.3147049 -9.5288515 -1.4590679
9.2608938 -9.5908298 -1.4598495
6.9877706 -7.3262949 -1.0994679
6.9345078 -7.3603539 -1.0981282
9.0773726 -9.7538481 -1.4589564
9.0153351 -9.807168 -1.4586214
8.955658 -9.8630362 -1.4587331
8.8943081 -9.9170609 -1.4586214
6.7483006 -7.6179543 -1.1053849
6.6713285 -7.6248159 -1.1002494
6.5379949 -7.5656085 -1.0854009
2.1230075 -2.4877982 -0.32947043
2.0942516 -2.4848223 -0.32712594
2.0834167 -2.5029716 -0.32790744
2.061708 -2.5080323 -0.32679102
2.0494123 -2.5244927 -0.32734925
2.0338838 -2.53702 -0.32734925
2.0281491 -2.5619171 -0.32913551
2.000149 -2.5586565 -0.32690266
1.9722656 -2.5551493 -0.32466981
1.9336566 -2.5371716 -0.32042742
1.9055027 -2.532315 -0.31808293
1.8863724 -2.5391734 -0.31741306
1.8754594 -2.5571103 -0.31830621
1.8655629 -2.5766182 -0.31942263
1.8653224 -2.6098435 -0.32243696
1.8658897 -2.6447859 -0.32567459
1.8893849 -2.7132657 -0.33348957
1.873827 -2.7264454 -0.33371285
1.8659894 -2.751049 -0.33549914
1.8612373 -2.7806134 -0.33795527
1.840854 -2.7870066 -0.3372854
1.8248039 -2.7999144 -0.33750868
7.224772 -11.233315 -1.4625289
7.1386714 -11.250583 -1.4589564
7.0689774 -11.293331 -1.4588447
6.9911962 -11.322964 -1.4570584
6.9159021 -11.356312 -1.4558303
6.8348341 -11.379792 -1.4533743
6.753232 -11.40185 -1.4508065
6.6826429 -11.442215 -1.4506948
6.6157804 -11.489031 -1.4514763
6.5461421 -11.531137 -1.4516996
6.475265 -11.571086 -1.4516996
6.4055843 -11.613211 -1.4520345
6.3365793 -11.656661 -1.4525927
6.2578974 -11.682182 -1.4509181
6.1689348 -11.687843 -1.4467874
6.0916018 -11.714895 -1.4454477
6.0164342 -11.745861 -1.4446661
5.9478312 -11.789654 -1.4455593
5.8890867 -11.853516 -1.4490201
5.8306556 -11.918884 -1.4527044
5.7707806 -11.982191 -1.4561653
5.7073684 -12.038925 -1.4588447
5.6279287 -12.062011 -1.4573934
5.5442739 -12.075545 -1.4548256
5.4823494 -12.136506 -1.4581748
5.4089885 -12.172641 -1.4585098
5.2971845 -12.120917 -1.448127
5.1979918 -12.095673 -1.4410936
5.0865459 -12.039462 -1.4303759
5.001143 -12.042913 -1.4270266
4.9290323 -12.077973 -1.4275849
4.8507624 -12.097844 -1.4263568
4.7600513 -12.085773 -1.4213328
4.6761246 -12.089727 -1.4183185
4.5955048 -12.10147 -1.416309
4.5128341 -12.107092 -1.4136295
4.435389 -12.126155 -1.4126247
4.355866 -12.139112 -1.4109502
4.2822895 -12.168423 -1.411285
4.2068963 -12.192591 -1.4110618
4.1335969 -12.22288 -1.41162
4.0619597 -12.25839 -1.412848
3.9842126 -12.275521 -1.4119549
3.9030972 -12.281743 -1.4098337
3.8199894 -12.280789 -1.406931
3.7445641 -12.303997 -1.406931
3.6698482 -12.329599 -1.4072659
3.5980136 -12.365243 -1.408829
3.5242486 -12.394734 -1.4097221
3.451055 -12.426658 -1.4109502
3.3752618 -12.449517 -1.4111735
3.3013511 -12.4796 -1.4122899
3.2341499 -12.536187 -1.4165323
3.1622581 -12.576034 -1.4188768
3.0859792 -12.599061 -1.4193233
3.0049264 -12.602293 -1.417537
2.9358535 -12.656311 -1.4216678
2.8616388 -12.689597 -1.423454
2.7796819 -12.688474 -1.4213328
2.6930919 -12.664466 -1.4166439
2.6099129 -12.654474 -1.4136295
2.528127 -12.649786 -1.411285
2.446497 -12.644571 -1.4089406
2.3639293 -12.632972 -1.4059262
2.2895529 -12.664841 -1.4079357
2.2143621 -12.693336 -1.4096104
2.1362708 -12.705703 -1.4094988
2.0585873 -12.720534 -1.4097221
1.9786638 -12.721143 -1.4083824
1.8952886 -12.697661 -1.4043633
1.8135426 -12.68249 -1.4013488
0.39431119 -2.8859575 -0.28927919
0.37389484 -2.8676293 -0.2869347
0.34526101 -2.7811151 -0.27688688
0.22903366 -1.9433345 -0.18187922
0.21235551 -1.9022368 -0.17707859
0.20172359 -1.9133865 -0.17819501
0.27867502 -2.8065503 -0.27889645
1.1920102 -12.787863 -1.4049214
0.25222901 -2.901829 -0.28927919
0.15734972 -1.9504477 -0.18187922
0.14619341 -1.9622773 -0.18310729
0.13353878 -1.9542146 -0.1821025
0.15303618 -2.4598339 -0.23892847
0.11021688 -1.9676124 -0.18344221
0.11603089 -2.3255534 -0.22363347
0.10816876 -2.472162 -0.24004489
0.093898028 -2.4966121 -0.24272431
0.11517562 -3.6542797 -0.37278768
0.092573978 -3.6479635 -0.37200618
0.070284866 -3.6534307 -0.37256441
0.047787756 -3.6478312 -0.37189454
0.02521438 -3.6212254 -0.36888021
0.0030066033 -3.6342306 -0.37033156
-0.019339161 -3.6431241 -0.37133634
-0.042165618 -3.6846716 -0.37602532
-0.22996712 -13.139411 -1.4384142
-0.086440802 -3.6441379 -0.37155962
-0.10761713 -3.6038065 -0.36709392
-0.13011976 -3.6140027 -0.36832199
-0.55293947 -13.14371 -1.4399772
-0.63472527 -13.163892 -1.4426565
-0.72055387 -13.253024 -1.453151
-0.2299339 -3.7942207 -0.38908747
-0.25010413 -3.7461357 -0.38384026
-0.27488968 -3.7693088 -0.38663134
-0.29824731 -3.7705231 -0.38696626
-1.1452174 -13.441531 -1.4776006
-0.34359089 -3.7566829 -0.38584983
-1.301686 -13.340418 -1.4678878
-1.3773642 -13.272873 -1.4611892
-1.4548692 -13.228611 -1.4571701
-1.5346351 -13.207589 -1.4558303
-0.3589499 -2.9296184 -0.29363322
-0.37159458 -2.8859644 -0.28894424
-1.7955465 -13.311042 -1.4710138
-1.8737164 -13.275174 -1.4682226
-1.9573094 -13.278174 -1.4698973
-2.0493102 -13.33467 -1.4777123
-0.48819613 -3.0498376 -0.30903989
-0.50396705 -3.0291393 -0.30703032
-2.3018456 -13.337778 -1.4826245
-2.377867 -13.291121 -1.4789404
-2.4631755 -13.296801 -1.4812849
-2.5435951 -13.27558 -1.480615
-0.55304003 -2.7919419 -0.28179914
-0.57095641 -2.7923906 -0.28224573
-0.57414591 -2.7227118 -0.27465403
-0.58999789 -2.7152534 -0.27420747
-0.59450525 -2.6572728 -0.26795548
-3.0505579 -13.260123 -1.4906628
-3.1266029 -13.218913 -1.488095
-3.215162 -13.230381 -1.4916676
-3.3097527 -13.264399 -1.4979196
-3.385164 -13.220736 -1.4952401
-0.72951251 -2.7768042 -0.28459021
-0.75041085 -2.7866697 -0.28626484
-3.6250355 -13.145648 -1.4940121
-3.7040071 -13.11742 -1.4933422
-0.7985425 -2.7618835 -0.28503677
-0.80899411 -2.7350135 -0.282469
-0.92698801 -3.0648303 -0.32176712
-4.0359588 -13.058647 -1.4975846
-4.1270804 -13.068699 -1.5017154
-4.2279334 -13.107443 -1.509307
-4.3278623 -13.140718 -1.5163405
-4.4166431 -13.138407 -1.5192432
-4.5319943 -13.21258 -1.5313007
-4.5988688 -13.144189 -1.5265
-4.6644077 -13.073605 -1.521476
-1.1681018 -3.2107165 -0.34588188
-1.1484085 -3.0972631 -0.33315465
-1.1666893 -3.0882988 -0.33293134
-1.1920387 -3.0977769 -0.33494091
-5.0947771 -13.004872 -1.531189
-1.2936499 -3.2426028 -0.35425505
-1.2529683 -3.0854392 -0.33616897
-1.2388662 -2.997787 -0.3264561
-5.4166341 -12.886001 -1.5324171
-1.3118929 -3.0673358 -0.33683884
-1.3461436 -3.09477 -0.3411929
-5.5906177 -12.64324 -1.5151125
-5.6933503 -12.664895 -1.5220343
-5.7693014 -12.626107 -1.5215877
-5.8437357 -12.584161 -1.5208062
-5.924233 -12.555257 -1.5216994
-1.3362912 -2.7868354 -0.30926317
-1.3651117 -2.8027072 -0.31227753
-1.3681868 -2.7657733 -0.30870494
-1.378442 -2.7440054 -0.30703032
-6.3201175 -12.394183 -1.5250486
-6.3882813 -12.340167 -1.5231507
-1.4619977 -2.7815063 -0.31506857
-1.4678142 -2.7514389 -0.31238917
-6.6162333 -12.223986 -1.5235972
-6.7370358 -12.266779 -1.534315
-6.842165 -12.279032 -1.5412368
-6.9188461 -12.239413 -1.5415717
-6.991838 -12.193281 -1.5411252
-4.9462852 -8.5043821 -1.0673149
-7.1384177 -12.102283 -1.5405669
-7.2196827 -12.070194 -1.5421299
-7.3003073 -12.036714 -1.5435812
-7.3750668 -11.993386 -1.5438045
-7.4569292 -11.961401 -1.5455909
-5.1837583 -8.2023106 -1.0521315
-5.223269 -8.1536131 -1.0498987
-5.2683301 -8.1139088 -1.0488939
-5.3458753 -8.1237679 -1.0545877
-5.6354461 -8.4504671 -1.1031522
-8.0128775 -11.857503 -1.5698172
-8.0939045 -11.820413 -1.5714918
-8.1668472 -11.771344 -1.5716035
-8.2446356 -11.729141 -1.5727199
-8.3078022 -11.66619 -1.5710453
-8.438529 -11.697201 -1.5824329
-1.7229712 -2.3571537 -0.29006067
-1.7350371 -2.3433425 -0.28961411
-8.6816168 -11.578853 -1.5879033
-8.6767759 -11.425646 -1.5738363
-1.7554609 -2.2818635 -0.28548333
-1.7175237 -2.2044098 -0.27599373
-1.675627 -2.1236091 -0.26594594
-1.6830436 -2.1062996 -0.26494116
-8.5744381 -10.599371 -1.4936771
-8.6330166 -10.538872 -1.4925607
-1.6447648 -1.9824117 -0.25143242
-1.6652058 -1.9821752 -0.25288376
-8.833909 -10.388022 -1.4940121
-1.6868113 -1.9585789 -0.2524372
-1.6876963 -1.9354575 -0.25053927
-1.7284737 -1.9578485 -0.25545153
-9.1073713 -10.191812 -1.4975846
-2.3943722 -2.646168 -0.36296314
-2.4253294 -2.6475492 -0.3654193
-1.7050564 -1.8383257 -0.2437291
-2.4834812 -2.6451199 -0.36966169
-2.5222547 -2.6536038 -0.37334588
-9.4646196 -9.8375139 -1.4956867
-9.6086979 -9.8653955 -1.5091954
-9.6592827 -9.7963448 -1.5076324
-3.2542453 -3.2597866 -0.47951779
-3.3984995 -3.3627858 -0.49916685
-3.2854755 -3.2112703 -0.47817808
-3.0928061 -2.9860303 -0.44502029
-3.3483648 -3.1933455 -0.48186228
-10.042244 -9.4614344 -1.5120981
-10.093562 -9.3935452 -1.5110934
-3.1541817 -2.8991416 -0.44334567
-3.5338719 -3.2084143 -0.4982737
-3.555711 -3.1886611 -0.49860865
-3.5692587 -3.1615119 -0.4977155
-3.4397652 -3.0093269 -0.47549868
-3.4326019 -2.9660714 -0.47170281
-3.422015 -2.9204369 -0.46746042
-10.585631 -8.9234724 -1.517457
-3.4369755 -2.8610559 -0.46444607
-3.8781736 -3.1883066 -0.52607268
-3.9115496 -3.1757262 -0.52808225
-10.673516 -8.558423 -1.499036
-10.695445 -8.4687109 -1.494682
-10.703367 -8.3686466 -1.4884299
-3.9552712 -3.0532687 -0.52339327
-10.749146 -8.1938944 -1.4805033
-10.796044 -8.1253939 -1.4800568
-10.864043 -8.0726309 -1.4826245
-10.911769 -8.0046425 -1.4824013
-10.979996 -7.9515281 -1.4850807
-11.084358 -7.9238844 -1.492784
-11.223707 -7.9198952 -1.5052879
-11.321833 -7.8855257 -1.5120981
-11.4175 -7.8485594 -1.5185734
-11.52383 -7.8179684 -1.5265
-11.683061 -7.8217497 -1.5415717
-11.856861 -7.8331814 -1.5585413
-3.0921133 -2.0152907 -0.37669516
-3.095227 -1.9903665 -0.37546709
-3.1199675 -1.9793237 -0.37714174
-3.1817508 -1.9912523 -0.38372862
-3.3723187 -2.0818558 -0.40728518
-12.204194 -7.432291 -1.5673611
-3.5006907 -2.1022298 -0.42079389
-12.404778 -7.3472996 -1.5817629
-7.6107898 -4.4448042 -0.95221162
-7.6723657 -4.4178586 -0.95667732
-7.72439 -4.3849268 -0.95991492
-7.8430715 -4.3888917 -0.97174901
-7.9934139 -4.408843 -0.98760223
-7.8657818 -4.2757025 -0.96784157
-7.8498225 -4.2048335 -0.96248269
-7.9862075 -4.2150383 -0.97654963
-7.9669557 -4.1425738 -0.97085589
-7.9365034 -4.0650682 -0.96382242
-7.9320183 -4.0015225 -0.9601382
-7.6627383 -3.8068573 -0.92329621
-7.6886301 -3.7610781 -0.92363119
-8.2102509 -3.9540238 -0.98581594
-8.2244806 -3.8988893 -0.98458791
-8.152792 -3.8038096 -0.97275382
-8.2301636 -3.7785938 -0.97945237
-5.799861 -2.619705 -0.67701316
-5.7949395 -2.5747864 -0.67444539
-8.1089211 -3.5436833 -0.95623076
-8.3240681 -3.5770469 -0.97989893
-8.3119907 -3.5115933 -0.97576815
-8.7197523 -3.620991 -1.0227696
-8.429903 -3.4401202 -0.98492283
-8.4038124 -3.3694675 -0.97922909
-8.2921104 -3.2657595 -0.96326423
-8.2220907 -3.1800427 -0.9524349
-8.5006409 -3.2279701 -0.98358309
-8.5007334 -3.1684608 -0.9812386
-8.5050821 -3.1107795 -0.97945237
-8.3575182 -2.9987869 -0.95958
-8.5548019 -3.0104637 -0.98090369
-8.5665369 -2.9556468 -0.98012221
-7.8276548 -2.6470439 -0.89036173
-7.7946978 -2.5827088 -0.88455635
-7.8718362 -2.5547757 -0.8918131
-8.6857395 -2.7601755 -0.98592758
-8.7167454 -2.7112567 -0.98760223
-8.7389212 -2.659457 -0.98827207
-8.738883 -2.600966 -0.9863742
-8.8186073 -2.5659003 -0.99385422
-8.8131561 -2.5057621 -0.9913981
-8.939436 -2.4824879 -1.0043486
-8.7741861 -2.3786979 -0.98335981
-8.8280048 -2.3352368 -0.98793715
-9.0067091 -2.3234801 -1.007028
-9.032361 -2.2710807 -1.0083678
-9.0528831 -2.2172716 -1.0091492
-9.0837173 -2.1658316 -1.0111588
-9.1161957 -2.1145461 -1.0133916
-9.115427 -2.0555093 -1.0118287
-9.378314 -2.0544131 -1.0406324
-9.3324232 -1.9844264 -1.0339339
-9.4047651 -1.9395735 -1.0408556
-9.5041914 -1.8993611 -1.0509034
-9.6990891 -1.8765036 -1.0718923
-10.099182 -1.889715 -1.1163259
-10.352126 -1.8713852 -1.1439016
-10.857788 -1.8940904 -1.200281
-11.37194 -1.9119759 -1.2575535
-12.022076 -1.9455322 -1.3302327
-13.261208 -2.0626836 -1.4697857
-13.560608 -2.0241222 -1.5023853
-14.652916 -2.0953684 -1.6249685
-15.613649 -2.1351008 -1.7324802
-15.880687 -2.0724409 -1.7612839
-16.627794 -2.0662749 -1.8444575
-17.438557 -2.0584722 -1.9347762
-17.439995 -1.9502175 -1.9335481
-17.413092 -1.8390994 -1.9291941
-17.420094 -1.7318268 -1.9287474
-17.420496 -1.6239839 -1.927631
-17.424192 -1.516546 -1.9269612
-17.436142 -1.409845 -1.9272962
-17.419689 -1.3009814 -1.9245051
-17.431311 -1.1943436 -1.9249517
-17.427401 -1.086684 -1.9237236
-17.417866 -0.9788385 -1.9219372
-17.424536 -0.87199575 -1.9220489
-17.433529 -0.76523882 -1.9224955
-17.426973 -0.65784168 -1.9212674
-17.453527 -0.55162191 -1.9238352
-15.581392 1.1485281 -1.91342
-15.558226 1.2428466 -1.9114368
-15.542398 1.3376055 -1.9104452
-15.524017 1.4320345 -1.9092057
-15.520864 1.5278448 -1.9099494
-15.50034 1.6219134 -1.9085859
-15.479248 1.7157879 -1.9072225
-15.451674 1.808772 -1.9051154
-15.423543 1.9014823 -1.9030083
-15.396825 1.9941707 -1.901149
-15.368567 2.0864692 -1.8991659
-15.344668 2.1791942 -1.8978025
-15.317266 2.2712677 -1.8960673
-15.305984 2.3656647 -1.8964391
-15.289221 2.4592206 -1.8961911
-15.270907 2.5524962 -1.8958193
-15.244205 2.6442823 -1.8944559
-15.223785 2.7370667 -1.8939601
-15.1989 2.8289733 -1.8929685
-15.160794 2.9182386 -1.8903656
-15.153308 3.0133381 -1.891729
-15.131618 3.1056616 -1.8913572
-15.098685 3.1955717 -1.889622
-15.077825 3.2879436 -1.889498
-15.055429 3.3799627 -1.88925
-15.034408 3.4722774 -1.88925
-14.988683 3.5587292 -1.8861514
-14.962708 3.6496902 -1.8856556
-14.938107 3.7409484 -1.8854077
-14.912951 3.8320425 -1.8851599
-14.868048 3.9179103 -1.8824329
-14.849476 4.0106182 -1.8831767
-14.811198 4.0979519 -1.8814414
-14.780047 4.1871309 -1.8806977
-14.743594 4.2747006 -1.8793342
-14.692353 4.3577471 -1.8761116
-14.665339 4.4478154 -1.8761116
-14.630189 4.5353656 -1.87512
-14.586003 4.6199546 -1.8730129
-14.566822 4.7124205 -1.8742524
-14.531981 4.7998443 -1.8735087
-14.48251 4.8822622 -1.8709058
-14.426946 4.9623175 -1.8675592
-14.417761 5.0583034 -1.87041
-14.386453 5.1466737 -1.87041
-14.35367 5.2345104 -1.8702861
-14.315701 5.3204098 -1.8695424
-14.279074 5.4067435 -1.8690466
-14.257666 5.498899 -1.8706579
-14.229198 5.5884557 -1.8714015
-14.204775 5.6797128 -1.8727651
-14.177929 5.7701316 -1.8738805
-14.158758 5.8638525 -1.8761116
-14.144458 5.9598675 -1.8790864
-14.133159 6.0574913 -1.8825569
-14.138475 6.1627355 -1.8883824
-14.122168 6.2590227 -1.8913572
-14.094353 6.3504491 -1.8928446
-14.05422 6.4363976 -1.8927206
-14.034253 6.5317245 -1.8954475
-14.001087 6.6211081 -1.8964391
-13.975402 6.7141991 -1.8985462
-13.947317 6.8063526 -1.9004054
-13.923962 6.9010587 -1.9030083
-13.895536 6.9935031 -1.9049915
-13.884172 7.0948906 -1.9094536
-13.874728 7.197772 -1.9142876
-13.858397 7.2975669 -1.9182539
-13.838737 7.3960285 -1.9218484
-13.81054 7.4902654 -1.9243274
-13.779968 7.583477 -1.9265584
-13.751371 7.6780462 -1.9291613
-13.724722 7.7740173 -1.9321361
-13.686227 7.863523 -1.9334995
-13.651436 7.9553466 -1.9354826
-13.620304 8.0495644 -1.9380856
-13.597041 8.1487999 -1.9419279
-13.56968 8.2459917 -1.9452745
-13.54924 8.3478384 -1.9497366
-13.532268 8.4523735 -1.9548185
-13.497755 8.5463953 -1.9574214
-13.467607 8.643528 -1.960768
-13.432617 8.7379055 -1.9634949
-13.392833 8.8294477 -1.9656019
-13.35408 8.9219332 -1.967957
-13.321269 9.0187263 -1.9713036
-13.285317 9.1137676 -1.9742783
-13.249516 9.2092733 -1.9773771
-13.213852 9.305253 -1.9805996
-13.171046 9.3965311 -1.9828308
-13.125206 9.4858894 -1.98469
-13.082767 9.5779705 -1.9871689
-13.034909 9.6663399 -1.9889041
-12.986459 9.7544832 -1.9906394
-12.939787 9.8441973 -1.9927466
-12.894074 9.9349174 -1.9951016
-12.84617 10.024225 -1.9972087
-12.791428 10.108397 -1.9983242
-12.749305 10.202815 -2.0015469
-12.695712 10.288348 -2.0030341
-12.644618 10.376126 -2.0050173
-12.569265 10.444004 -2.0031581
-12.539871 10.55032 -2.0088599
-12.471123 10.623846 -2.00824
-12.436507 10.726742 -2.0133219
-12.391381 10.821126 -2.0167925
-12.341847 10.912073 -2.0196433
-12.290185 11.001495 -2.0222461
-12.245977 11.098023 -2.0262125
-12.193735 11.187715 -2.0289392
-12.144488 11.280559 -2.0322859
-12.096005 11.374578 -2.0358803
-12.039639 11.461584 -2.0382354
-11.974801 11.540751 -2.039227
-11.920807 11.630642 -2.0422018
-11.858396 11.712633 -2.043813
-11.79262 11.79149 -2.0449286
-11.730506 11.874215 -2.0467877
-11.667821 11.956622 -2.0486469
-11.604567 12.038706 -2.0505064
-11.540059 12.119745 -2.0522416
-11.476353 12.201892 -2.0542247
-11.405994 12.277168 -2.0550923
-11.337828 12.354966 -2.0564559
-11.269135 12.432388 -2.0578191
-11.203892 12.513869 -2.0599263
-11.126897 12.582379 -2.0599263
-11.050136 12.651163 -2.0600502
-10.976839 12.723988 -2.0609179
-10.907568 12.801675 -2.0626531
-10.840313 12.882029 -2.0648842
-10.75726 12.943722 -2.0641406
-10.67449 13.005649 -2.0635207
-10.583241 13.057025 -2.0612898
-10.481225 13.094601 -2.0569515
-10.3853 13.139203 -2.0538528
-10.30082 13.197985 -2.0531092
-10.215405 13.255439 -2.0522416
-10.128472 13.310762 -2.051126
-10.031113 13.352032 -2.0479033
-9.9531355 13.418909 -2.0487709
-9.8577147 13.462113 -2.0460441
-9.7708588 13.516716 -2.0451765
-9.6756353 13.559451 -2.0425737
-9.5825405 13.604773 -2.0404665
-9.4988832 13.663314 -2.0404665
-9.4081316 13.711522 -2.0389791
-9.3271599 13.773921 -2.0397227
-9.2452259 13.835017 -2.0403426
-9.1459599 13.869946 -2.0371199
-9.0828686 13.959906 -2.0422018
-8.9788179 13.986981 -2.0379875
-8.8774319 14.017499 -2.0343931
-8.7791634 14.052349 -2.0315423
-8.6802826 14.085678 -2.0285676
-8.5854454 14.125106 -2.0265844
-8.4899416 14.163051 -2.0244772
-8.4043941 14.21744 -2.0248489
-8.3090048 14.255023 -2.0228658
-8.2119884 14.289392 -2.0205109
-8.1182861 14.329149 -2.0190234
-8.0282764 14.375227 -2.0185277
-7.9380069 14.420739 -2.0180318
-7.8489003 14.468303 -2.0179079
-7.7524929 14.502188 -2.0159247
-7.6541162 14.531923 -2.0134459
-7.5547523 14.559237 -2.0107191
-7.4314098 14.539049 -2.0014229
-7.3233228 14.547147 -1.9962171
-7.2445016 14.613146 -1.9991919
-7.1564417 14.660889 -1.9996877
-7.0676384 14.707208 -2.0000594
-6.9709001 14.736841 -1.9982003
-6.8836951 14.786533 -1.9991919
-6.7911844 14.824884 -1.9986961
-6.6992774 14.864466 -1.9984481
-6.6055322 14.899849 -1.9977045
-6.5123978 14.93646 -1.9972087
-6.4186721 14.971579 -1.9965889
-6.3224487 15.000623 -1.9952255
-6.2223139 15.019881 -1.9926226
-6.1375179 15.076159 -1.9951016
-6.0482125 15.121827 -1.9962171
-5.9560385 15.160501 -1.996465
-5.8618321 15.193984 -1.9960932
-5.7660332 15.223169 -1.9952255
-5.6700974 15.251752 -1.9943578
-5.5764074 15.286256 -1.9943578
-5.4815049 15.317381 -1.993986
-5.3867593 15.348854 -1.9937382
-5.2915106 15.378802 -1.9933662
-5.1973653 15.411922 -1.9934902
-5.1020794 15.441638 -1.9932424
-5.0081515 15.475485 -1.9936142
-4.9080071 15.489841 -1.9915071
-4.8114018 15.514926 -1.9908873
-4.713233 15.53466 -1.9896479
-4.613028 15.547115 -1.9875407
-4.5136771 15.561786 -1.9858055
-4.4164839 15.58346 -1.9850618
-4.3199887 15.607396 -1.98469
-4.2215543 15.62403 -1.9834504
-4.1271248 15.655396 -1.9841942
-4.0302467 15.677542 -1.9838223
-3.927948 15.677912 -1.9807236
-3.8182712 15.64677 -1.9736586
-3.4899569 14.69191 -1.8480994
-3.3872371 14.658905 -1.8411583
-3.2937498 14.663921 -1.8391751
-3.1538103 14.455054 -1.8099234
-3.0451236 14.379968 -1.7979006
-2.9227123 14.232166 -1.7767054
-2.8384275 14.265404 -1.7786885
-2.746341 14.259166 -1.7757138
-2.6384568 14.16649 -1.7618316
-2.5216281 14.016386 -1.7407606
-2.4371042 14.040393 -1.7418761
-2.3283286 13.920021 -1.7247713
-2.255955 14.01536 -1.7350589
-2.1823468 14.109351 -1.7452227
-2.0935488 14.107753 -1.7433635
-1.951404 13.729327 -1.6940322
-1.8593814 13.684013 -1.6868433
-1.7732157 13.678435 -1.6847361
-1.691439 13.706785 -1.6869671
-1.6075346 13.718877 -1.6872151
-1.540495 13.883323 -1.7066749
-1.4523873 13.864881 -1.7032044
-1.365828 13.858718 -1.7013451
-1.2870581 13.935016 -1.7098975
-1.2948154 15.026191 -1.8457444
-1.1994302 14.994287 -1.8407865
-1.108353 15.01423 -1.8423978
-1.0176115 15.041538 -1.8450007
-0.92475182 15.038586 -1.8438852
-0.83191192 15.034069 -1.8426456
-0.70957232 14.426394 -1.7660459
-0.62052923 14.41858 -1.7645586
-0.55142921 14.948665 -1.8303748
-0.45641059 14.84465 -1.8169885
-0.36592519 14.87197 -1.8200872
-0.27453789 14.866991 -1.8192196
-0.18343215 14.878318 -1.820459
-0.091675967 14.803751 -1.811039
-0.00083961192 14.827849 -1.8140137
0.08508312 14.005976 -1.7113849
0.182597 14.946801 -1.8290114
0.2743237 14.946392 -1.8291354
0.36612538 14.948395 -1.8296312
0.45790103 14.947851 -1.829879
0.54997611 14.954676 -1.8311186
0.64176857 14.952011 -1.8312424
0.73199028 14.917068 -1.8274001
0.77244049 13.988894 -1.7118807
0.85174716 13.877915 -1.6986183
0.93715215 13.876389 -1.6991141
1.0568163 14.338457 -1.7577415
1.1529218 14.433583 -1.7705081
1.1990546 13.933901 -1.708782
1.2894548 13.979637 -1.7154752
1.3724841 13.943812 -1.7120047
1.4615294 13.968682 -1.7162188
1.5481967 13.968328 -1.7173344
1.6309896 13.933927 -1.7142357
1.7158483 13.918733 -1.713616
1.7943332 13.854803 -1.7069228
1.8854549 13.888762 -1.7126244
1.9823653 13.959455 -1.7230361
2.0652146 13.92838 -1.720681
2.1473026 13.893872 -1.7179542
2.2539544 14.013672 -1.7348111
2.3241868 13.905622 -1.7229121
2.4104843 13.896966 -1.7236557
2.5206528 14.020594 -1.7412564
2.5875609 13.902433 -1.7282418
2.6720655 13.882398 -1.727746
2.7717164 13.938732 -1.7370421
2.8619804 13.944791 -1.7400168
2.9429684 13.905611 -1.73729
3.0303512 13.896986 -1.7385294
3.1318719 13.950744 -1.7478256
3.2259011 13.968003 -1.7525356
3.3553424 14.132344 -1.7762096
3.4678674 14.217531 -1.7898439
3.5755351 14.277802 -1.8003795
3.6793787 14.319023 -1.80856
3.7517409 14.237647 -1.8009992
3.8475716 14.245971 -1.8050895
3.9317346 14.210618 -1.8036021
3.9953184 14.103168 -1.7928187
4.0908995 14.109837 -1.796909
4.1951795 14.144402 -1.8047177
4.2827535 14.121243 -1.8050895
4.3522735 14.039728 -1.7979006
4.4431329 14.027894 -1.7998837
4.527595 13.995646 -1.799264
4.6326852 14.026019 -1.8069487
4.7186599 13.99733 -1.8069487
4.8196301 14.012214 -1.8127743
4.8989449 13.963651 -1.8102953
4.9908843 13.951079 -1.8126503
5.0842133 13.941634 -1.8155011
5.1828003 13.945519 -1.8202112
5.2745972 13.93016 -1.8224422
5.3738999 13.933639 -1.8272761
5.4654617 13.916103 -1.8293833
5.5676966 13.924687 -1.8350849
5.6661263 13.92243 -1.8394231
5.7628384 13.914904 -1.8431414
5.868535 13.927745 -1.8497107
5.9710865 13.931602 -1.8551644
6.0715261 13.929267 -1.8598745
6.1757803 13.934387 -1.8657
6.2844024 13.947797 -1.8727651
6.3810239 13.933331 -1.8761116
6.4923606 13.949692 -1.8837963
6.5990458 13.954443 -1.8899938
6.6995864 13.944993 -1.8943319
6.8033061 13.941075 -1.8995378
6.9111953 13.94441 -1.9058591
7.0033188 13.915036 -1.9077183
7.1210828 13.93542 -1.9166425
7.2311335 13.939026 -1.9233358
7.3382583 13.935658 -1.9291613
7.4516945 13.942876 -1.9365982
7.5626559 13.943991 -1.9432913
7.6715178 13.93992 -1.9493648
7.7931929 13.957562 -1.9586608
7.9041224 13.954377 -1.9651061
8.0143166 13.948633 -1.9713036
8.131732 13.954062 -1.9792362
8.2490091 13.957721 -1.9870449
8.3809214 13.984293 -1.9983242
8.4861536 13.964828 -2.0030341
8.593544 13.947975 -2.00824
8.7084064 13.942112 -2.0151811
8.8431625 13.96638 -2.0267084
8.96943 13.975321 -2.0361283
9.0999269 13.989058 -2.046416
9.2178183 13.981834 -2.0537288
9.3348598 13.972039 -2.0607939
9.4354372 13.936683 -2.0641406
9.5320005 13.89489 -2.0666194
9.6063175 13.820661 -2.0642645
9.6772251 13.741987 -2.0612898
9.7285099 13.636309 -2.0542247
9.8085098 13.571534 -2.0534811
9.8816328 13.497484 -2.051374
9.9406214 13.404717 -2.046416
10.004804 13.31967 -2.0426974
10.064713 13.229602 -2.0382354
10.127527 13.144017 -2.034517
10.190283 13.058943 -2.0309224
10.254836 12.976708 -2.0278237
10.324966 12.901921 -2.0259645
10.395814 12.828304 -2.0243533
10.46174 12.748935 -2.0218742
10.516938 12.657029 -2.0174122
10.582903 12.578593 -2.0151811
10.631569 12.480186 -2.0097275
10.682019 12.384664 -2.0047696
10.733658 12.291234 -2.0001833
10.791782 12.205815 -1.9969608
10.851912 12.123104 -1.994234
10.914764 12.043791 -1.9921268
10.976382 11.963432 -1.9898957
11.037425 11.882771 -1.9876647
11.095173 11.798922 -1.9849378
11.147518 11.70978 -1.9813434
11.201254 11.622584 -1.9781207
11.246716 11.527358 -1.9735346
11.304683 11.445426 -1.9713036
11.362068 11.363216 -1.9690725
11.421694 11.283525 -1.9673373
11.475088 11.197984 -1.9646103
11.526435 11.110837 -1.9616356
11.5793 11.025535 -1.9590328
11.632999 10.941361 -1.9566777
11.678831 10.850192 -1.9530833
11.722522 10.757531 -1.9492408
11.770662 10.669408 -1.9462661
11.818902 10.581761 -1.9434153
11.867997 10.495239 -1.9408123
11.923203 10.414389 -1.939325
11.973354 10.329368 -1.937094
12.019892 10.241549 -1.9343671
12.065042 10.152909 -1.9315163
12.101928 10.057761 -1.927426
12.144237 9.9675789 -1.9243274
12.182812 9.8747568 -1.9207329
12.216057 9.7781181 -1.9163947
12.254025 9.68575 -1.9129242
12.303838 9.6030531 -1.9114368
12.346809 9.5152645 -1.9089578
12.384429 9.4237051 -1.9057351
12.418218 9.3296595 -1.9020168
12.458491 9.2408743 -1.8994138
12.501348 9.1542912 -1.8973067
12.53798 9.0634613 -1.8943319
12.576393 8.9742565 -1.891729
12.619052 8.8883505 -1.8898698
12.656242 8.7988605 -1.8872669
12.690355 8.7075644 -1.8842921
12.718073 8.6122885 -1.8804498
12.754176 8.5230646 -1.8779708
12.787178 8.4320831 -1.87512
12.822872 8.3431826 -1.8727651
12.855452 8.2525549 -1.8700382
12.88908 8.1629028 -1.8675592
12.922091 8.0731487 -1.8650802
12.962091 7.9879827 -1.8637168
13.001534 7.9026299 -1.8623534
13.044671 7.8196445 -1.8616097
13.084718 7.7349124 -1.8604941
13.119073 7.646986 -1.8586349
13.138215 7.5505252 -1.8546686
13.157532 7.454607 -1.8508263
13.196094 7.3698635 -1.8498347
13.20977 7.2715311 -1.8453726
13.248905 7.1875019 -1.8446288
13.281381 7.0999923 -1.8430176
13.307136 7.0091181 -1.8405386
13.327872 6.9159112 -1.8374399
13.362104 6.8299384 -1.8363243
13.390465 6.7411299 -1.8344651
13.404015 6.6451793 -1.8306228
13.416 6.548882 -1.8266565
13.458614 6.4677291 -1.8270283
13.516884 6.3939357 -1.8296312
13.572954 6.3188329 -1.8319862
13.617785 6.2383246 -1.8328538
13.659426 6.1562805 -1.8333496
13.700571 6.0739603 -1.8338454
13.74395 5.9925566 -1.834713
13.784109 5.9096761 -1.8352088
13.821939 5.825758 -1.8354567
13.847342 5.7366614 -1.8340933
13.88228 5.651588 -1.8340933
13.91946 5.5674067 -1.8344651
13.957977 5.4837074 -1.8350849
14.002471 5.402245 -1.8365723
14.046491 5.3204427 -1.8380597
14.106776 5.2445264 -1.841778
14.142419 5.1592298 -1.8422738
14.167269 5.0700169 -1.8414062
14.187812 4.9793787 -1.8400428
14.207776 4.8886795 -1.8386793
14.233744 4.8001423 -1.8381835
14.262929 4.7127151 -1.8381835
14.300075 4.6278601 -1.8392991
14.338607 4.5433254 -1.8406625
14.379483 4.4593735 -1.8423978
14.412271 4.372787 -1.8431414
14.440734 4.2848372 -1.8433894
14.454364 4.1925573 -1.841778
14.483636 4.1048698 -1.8422738
14.511419 4.0167165 -1.8426456
14.54154 3.9291532 -1.8433894
14.569213 3.8408654 -1.8438852
14.578091 3.7476933 -1.842026
14.6114 3.6608253 -1.8433894
14.635515 3.5715728 -1.8436372
14.655223 3.4812453 -1.8433894
14.664706 3.388577 -1.841902
14.683286 3.2980976 -1.8416541
14.7333 3.2144954 -1.8454965
14.771192 3.1279373 -1.8478515
14.822183 3.0438287 -1.8519418
14.829875 2.950695 -1.8505783
14.854522 2.8609581 -1.851446
14.883503 2.7719381 -1.8529334
14.909997 2.6823184 -1.8541728
14.932041 2.5917997 -1.8549166
14.951577 2.5007842 -1.8554124
14.977417 2.4107296 -1.8567758
15.006637 2.3210585 -1.8586349
15.032374 2.2306828 -1.8601223
15.058551 2.140218 -1.8617337
7.0558276 0.95931321 -0.85131073
6.4563808 0.83759767 -0.77508277
6.4653378 0.79845208 -0.77557856
6.4277363 0.75380427 -0.77024883
6.4204059 0.71303803 -0.76876146
6.4059091 0.6716671 -0.76640642
6.3990469 0.63127887 -0.76504302
6.3988476 0.59163851 -0.76454723
6.3984027 0.5520243 -0.76405144
6.4006805 0.51267499 -0.76392746
6.4037056 0.4733915 -0.76392746
6.4124298 0.4344916 -0.76467115
6.4020996 0.39434677 -0.76305985
6.3964729 0.35461882 -0.76206827
6.3658223 0.31375808 -0.75797796
6.3626704 0.2744793 -0.75735825
6.3810925 0.23605405 -0.75946534
6.3625841 0.19628762 -0.75698638
6.3626771 0.15721951 -0.75686246
6.3635221 0.1181759 -0.75686246
6.3671036 0.079164304 -0.75723428
6.3704467 0.0401132 -0.75760615
6.3795033 0.0010239262 -0.75872165
6.38832 -0.038174983 -0.75983721
6.3978877 -0.077494241 -0.76107669
6.4141579 -0.11706036 -0.76318377
6.4301825 -0.15682903 -0.76529092
6.4400091 -0.19661599 -0.76665431
6.4604969 -0.23693144 -0.76938117
6.4688354 -0.27699414 -0.77062064
6.4818802 -0.3174116 -0.77247989
6.4877372 -0.35761604 -0.77347147
6.4982963 -0.39820862 -0.77508277
6.5046406 -0.43867642 -0.77619833
6.5701089 -0.4836182 -0.7847507
13.578973 -1.0845884 -1.6634171
13.53746 -1.1649065 -1.659079
13.475714 -1.2429317 -1.6522617
13.327607 -1.3117796 -1.6346612
13.267002 -1.3880545 -1.6280919
13.226675 -1.4659326 -1.6241256
10.586997 -1.2389445 -1.2933087
10.58609 -1.3047322 -1.2941765
10.578869 -1.3697902 -1.2943003
10.560432 -1.4333395 -1.2930609
10.570105 -1.5007623 -1.2954159
10.585236 -1.5692316 -1.2985146
12.949522 -2.0012732 -1.5985924
12.911527 -2.0765932 -1.5953697
12.866244 -2.1503768 -1.5912794
12.841076 -2.227246 -1.589792
12.823261 -2.3052928 -1.5892962
12.821557 -2.3862929 -1.5909076
12.81252 -2.4660456 -1.5916513
12.805906 -2.5463576 -1.5927668
12.809482 -2.6288769 -1.5952457
12.806701 -2.7103024 -1.596981
12.791768 -2.7892547 -1.5972289
12.765699 -2.8657341 -1.5961134
12.747875 -2.9440091 -1.5961134
12.723779 -3.0207973 -1.5953697
8.277319 -2.018461 -1.0260772
12.806069 -3.2068512 -1.6108632
12.818827 -3.2937663 -1.6150774
12.826201 -3.379694 -1.6186719
7.5815516 -2.0470724 -0.94278425
12.648917 -3.4995172 -1.6011952
12.608113 -3.5716529 -1.5987163
12.437289 -3.6058302 -1.5793804
7.9989748 -2.3719406 -1.0040145
7.9795227 -2.4195364 -1.0033947
7.9427276 -2.4616928 -1.000544
7.9435544 -2.5154769 -1.0026511
8.4925375 -2.7468572 -1.0767719
12.536402 -4.1405463 -1.6109872
12.519222 -4.2202439 -1.6121026
12.442423 -4.2795482 -1.6054095
12.422484 -4.3581133 -1.6062771
7.7297339 -2.764698 -0.9872815
12.331712 -4.4969664 -1.6014432
12.289005 -4.5670156 -1.59946
12.244048 -4.6360073 -1.5972289
12.200559 -4.7053342 -1.5952457
12.162222 -4.7764788 -1.5940063
12.10873 -4.8414345 -1.5907836
12.056739 -4.906662 -1.5878088
11.997069 -4.9683962 -1.5838425
11.941669 -5.0315104 -1.580496
11.894155 -5.097651 -1.578265
11.853557 -5.1665707 -1.5770254
11.808024 -5.2331734 -1.5751662
11.760313 -5.2985964 -1.5730591
11.720363 -5.3673511 -1.5720675
11.668317 -5.4303703 -1.5694646
11.604279 -5.4874382 -1.5652504
11.536404 -5.5422063 -1.5605403
11.492371 -5.6080999 -1.5591769
11.458632 -5.6789513 -1.5593009
11.404073 -5.7393374 -1.556574
11.350087 -5.7997198 -1.5539712
11.293148 -5.8582854 -1.5509964
11.233285 -5.9149837 -1.5476497
11.184528 -5.9772496 -1.5459145
11.137175 -6.0400863 -1.5444272
11.091211 -6.1035242 -1.5431876
11.054419 -6.1719475 -1.5433116
10.990438 -6.2249866 -1.5395932
10.957198 -6.2952719 -1.5403368
10.890074 -6.3458962 -1.5362465
10.837264 -6.4045181 -1.5342634
10.762016 -6.4494672 -1.5290576
10.667123 -6.4818811 -1.521001
10.64658 -6.5591846 -1.5238518
10.606975 -6.6249127 -1.5239757
10.559419 -6.6856241 -1.5229841
10.522373 -6.7529697 -1.5236039
10.461609 -6.8049607 -1.5207531
10.406404 -6.8602839 -1.51877
10.409491 -6.954329 -1.5255871
10.350191 -7.0069427 -1.5231081
10.293093 -7.0607748 -1.521001
10.234095 -7.1130376 -1.518646
10.183767 -7.1711278 -1.5176544
10.130689 -7.227139 -1.516291
10.073286 -7.2798629 -1.5143079
10.014817 -7.3315687 -1.5122007
9.9545002 -7.381649 -1.5098457
9.8907728 -7.4288816 -1.5069948
9.8284206 -7.4768128 -1.504392
9.7768564 -7.5327382 -1.5035243
9.7281055 -7.5907545 -1.5031525
9.6743402 -7.6447644 -1.5020369
9.6187286 -7.6971607 -1.5006735
9.5728607 -7.7572846 -1.5009215
9.5258503 -7.8165059 -1.5010453
9.4700775 -7.8684664 -1.4998059
9.4079533 -7.9149256 -1.4975748
9.3614769 -7.9744334 -1.4979467
9.3033543 -8.0239468 -1.4964594
9.2614183 -8.0874071 -1.4976988
9.1900635 -8.1250191 -1.4941043
9.1230326 -8.1660328 -1.4912535
9.0624619 -8.2125273 -1.4895183
9.0082445 -8.2646246 -1.4888985
8.9515486 -8.3143396 -1.4879069
8.8974724 -8.3663893 -1.4874111
8.8387833 -8.4139833 -1.4861716
8.776988 -8.4584179 -1.4844364
8.7171106 -8.5044899 -1.483073
8.6555872 -8.5487518 -1.4814616
8.6029701 -8.6016998 -1.4814616
8.5437527 -8.6479712 -1.4803461
8.4926081 -8.702363 -1.4807179
