# .PCD v0.7 - Point Cloud Data file format
VERSION 0.7
FIELDS x y z
SIZE 4 4 4
TYPE F F F
COUNT 1 1 1
WIDTH 1509
HEIGHT 1
VIEWPOINT 0 0 0 1 0 0 0
POINTS 1509
DATA ascii
8.839263 -2.2057247 -1.6592408
7.3684702 -1.8868778 -1.3788453
8.832448 -2.3195224 -1.6632727
8.7886219 -2.3657537 -1.6575915
8.7682543 -2.4180672 -1.6564919
8.7248697 -2.4638093 -1.6509939
8.701088 -2.5148413 -1.6493446
8.6826649 -2.5673468 -1.6487948
7.9817004 -2.4134686 -1.5153778
7.9150834 -2.446434 -1.5052983
7.8961735 -2.4937699 -1.5045651
7.8807235 -2.5421731 -1.5045651
7.9079285 -2.604625 -1.5129954
8.5990582 -2.8908298 -1.6520935
8.6034756 -2.9511924 -1.6564919
8.5907726 -3.0058746 -1.6575915
8.5693893 -3.057539 -1.6570417
8.5338383 -3.1040144 -1.6537429
8.5118666 -3.1552937 -1.6531931
8.4601574 -3.1953065 -1.6467788
7.5751677 -2.9143353 -1.4739599
8.4239702 -3.3003192 -1.647512
8.3989954 -3.3501248 -1.6465956
8.3646183 -3.3960505 -1.6438466
8.3408976 -3.4461849 -1.6432968
8.3141575 -3.4950132 -1.6421973
8.2699585 -3.5363004 -1.6376156
8.2165508 -3.573257 -1.6312013
8.1818838 -3.6180401 -1.6286356
8.1577368 -3.6673689 -1.6282691
8.1145144 -3.7079585 -1.624054
8.0746698 -3.7498121 -1.620572
8.0283928 -3.7883801 -1.6158071
7.9083705 -3.7912531 -1.5958312
7.9795318 -3.8857551 -1.6154405
7.9819751 -3.9477165 -1.6209384
8.0401821 -4.0380888 -1.6381654
8.0371485 -4.0985103 -1.642747
8.0162134 -4.1500077 -1.6436633
7.9662323 -4.1863127 -1.6385319
7.9343238 -4.2318759 -1.6372491
7.949707 -4.3029399 -1.6460458
7.8817945 -4.3289232 -1.6372491
7.8301806 -4.3633275 -1.6319344
7.7852883 -4.4011316 -1.6280859
7.7658124 -4.4532194 -1.6297352
7.7289939 -4.4953494 -1.6277193
7.6860237 -4.5336995 -1.6244205
7.6563735 -4.5797653 -1.624054
7.5776944 -4.5960717 -1.6130581
7.6565409 -4.7083907 -1.636516
7.619164 -4.7500811 -1.6346834
7.5441675 -4.7678585 -1.6246037
7.4617915 -4.7801232 -1.6128749
7.4570565 -4.841877 -1.6183728
7.4066763 -4.8740325 -1.6137911
7.3561826 -4.9057527 -1.6092095
7.3267574 -4.9513474 -1.6093928
7.2816381 -4.9862132 -1.606094
7.2549448 -5.0336003 -1.6070104
7.2062287 -5.0655847 -1.6029785
7.1702065 -5.1062841 -1.6018789
7.1873736 -5.1852665 -1.6130581
7.1331978 -5.2130299 -1.6079266
7.1097689 -5.2631335 -1.6099426
7.0340805 -5.2742252 -1.5998629
6.9921913 -5.3101521 -1.5976638
6.9360995 -5.3349762 -1.5921658
6.8962541 -5.3719978 -1.5905164
6.854672 -5.4075141 -1.5885005
6.8259716 -5.4531531 -1.5896001
6.8336558 -5.5283198 -1.5994965
6.7996063 -5.5701466 -1.5994965
6.7554636 -5.6036043 -1.597114
6.692347 -5.6209254 -1.59015
6.6697145 -5.6720724 -1.5930822
6.6288257 -5.7077589 -1.591616
6.5758939 -5.7328215 -1.5872177
6.5730247 -5.8016849 -1.5952814
6.5182433 -5.8248768 -1.5905164
6.4816508 -5.8641028 -1.5903332
6.4382977 -5.8971233 -1.5885005
6.3947835 -5.9298329 -1.5866679
6.3511109 -5.9622307 -1.5848353
6.3279476 -6.0139551 -1.5883173
6.2717991 -6.0342674 -1.5833691
6.2381768 -6.0760665 -1.5842855
6.1930771 -6.1066365 -1.5822695
6.1728854 -6.1618834 -1.5868511
6.1162901 -6.180778 -1.581903
6.0590086 -6.1985073 -1.5767716
5.9983258 -6.2122316 -1.5707239
5.9852009 -6.2752395 -1.5775046
5.9452357 -6.3104148 -1.5771381
5.8903298 -6.3295045 -1.5727397
2.2094133 -2.403919 -0.56954664
2.1946216 -2.4174304 -0.56954664
2.2210996 -2.4769557 -0.58109236
5.7130136 -6.4493432 -1.5670586
5.6940494 -6.5079503 -1.5729231
5.6482248 -6.5360718 -1.5712737
5.5926962 -6.5526605 -1.5668752
5.5460482 -6.5793371 -1.5650426
5.503058 -6.6102214 -1.5643096
5.4617701 -6.6431036 -1.5641263
5.391161 -6.6398602 -1.5553296
5.399518 -6.73417 -1.5699908
5.4221754 -6.8480968 -1.5892336
2.0174987 -2.5808454 -0.57156259
1.9944158 -2.5838385 -0.56936342
1.9731601 -2.5889909 -0.56771404
1.953099 -2.5955513 -0.56643116
1.9365499 -2.6066973 -0.56624788
1.8088714 -2.4663444 -0.53106099
1.7931275 -2.4766009 -0.53087771
1.772752 -2.4803591 -0.52922833
4.8522811 -6.8766971 -1.5298557
4.8723626 -6.9958811 -1.5501982
4.8232188 -7.0167341 -1.5481822
4.7502699 -7.0022678 -1.538286
4.741672 -7.082746 -1.5498316
4.6629 -7.058393 -1.5379194
4.6463456 -7.1280475 -1.5470827
4.5993309 -7.1514621 -1.5459831
4.5706382 -7.20362 -1.5512978
4.5331326 -7.2423615 -1.5536802
4.484477 -7.2633486 -1.552214
4.4347119 -7.2823319 -1.5503814
1.7334785 -2.8867731 -0.58860624
1.7162341 -2.898201 -0.58878952
1.6984187 -2.9086771 -0.58878952
4.2355261 -7.3557477 -1.5432341
4.1971073 -7.3935666 -1.5457997
4.1521425 -7.4200382 -1.5459831
4.1122336 -7.4557052 -1.5481822
4.0682869 -7.4842515 -1.5489153
4.0139318 -7.4934754 -1.5456165
3.9738429 -7.5292654 -1.547999
3.9144161 -7.5282135 -1.5426843
3.8748732 -7.5652142 -1.5454333
3.8239527 -7.5800705 -1.5436006
3.7673094 -7.5831428 -1.5393856
3.7289176 -7.6228933 -1.5428675
3.6816478 -7.6447444 -1.5426843
3.6334076 -7.664526 -1.5421345
3.5775812 -7.6679678 -1.538286
3.5304639 -7.6897755 -1.538286
3.484833 -7.7148767 -1.539019
3.4274492 -7.713655 -1.5344373
3.3875349 -7.7516551 -1.5379194
3.3352499 -7.7614565 -1.5357202
3.2929204 -7.7944527 -1.538286
3.2450325 -7.8145113 -1.538286
3.1925647 -7.8233533 -1.5360868
3.1455991 -7.8455324 -1.5366366
3.0887539 -7.8427339 -1.5322381
3.0419922 -7.8652058 -1.5329713
2.9866943 -7.8653426 -1.5293059
2.9500525 -7.9148393 -1.5355369
2.9024456 -7.9355612 -1.5360868
2.8540311 -7.9541464 -1.53627
2.8041925 -7.9687266 -1.5357202
2.7485106 -7.9662676 -1.5318717
2.7027283 -7.9922948 -1.5337043
2.6604412 -8.0292568 -1.5377362
2.6062682 -8.0304699 -1.5348039
2.558434 -8.0509949 -1.5357202
2.5072336 -8.0609093 -1.5346206
2.4451306 -8.0347614 -1.526557
2.4098079 -8.0967236 -1.5357202
2.3510175 -8.0802078 -1.5296725
2.3062339 -8.1115017 -1.5329713
2.2464221 -8.0895061 -1.5260072
2.1977725 -8.1069326 -1.5267402
2.1344101 -8.0689459 -1.5168439
2.0907545 -8.1047354 -1.5212423
2.0450613 -8.1336193 -1.5243578
2.0014312 -8.1717949 -1.5293059
1.9521645 -8.187747 -1.530039
1.8956679 -8.1727571 -1.5249076
1.8463503 -8.1880703 -1.5256406
1.7922872 -8.1819601 -1.5223418
1.7416409 -8.1908808 -1.5219753
1.6925415 -8.2071896 -1.5230749
0.51356238 -2.5713081 -0.4496913
0.49777547 -2.5744109 -0.4496913
0.48142728 -2.574518 -0.4491415
0.46667075 -2.5832276 -0.45024109
0.45098054 -2.5870109 -0.45042437
1.3896368 -8.2658653 -1.5234414
1.3230274 -8.1762218 -1.5049317
1.2607445 -8.1064758 -1.4902705
1.1722232 -7.8544583 -1.4413387
1.1009017 -7.6999588 -1.4109167
1.0573649 -7.7338405 -1.416048
1.0156168 -7.7840486 -1.4242951
0.96128798 -7.7374539 -1.4143987
0.91114265 -7.7207518 -1.4101837
0.86703002 -7.7555065 -1.4156816
0.81953007 -7.7616582 -1.4158648
0.77111185 -7.7587147 -1.4143987
0.72476852 -7.7770033 -1.4169644
0.67558658 -7.7646551 -1.4138489
0.62579107 -7.742198 -1.4089007
0.57329386 -7.6792293 -1.3964387
0.52730697 -7.6992755 -1.3995543
0.48011637 -7.7033472 -1.3997375
0.42886743 -7.635479 -1.3865424
0.3805342 -7.6085119 -1.3810445
0.33349702 -7.6028466 -1.3795784
0.28787953 -7.632256 -1.3847098
0.24241084 -7.6771116 -1.3927734
0.19913268 -7.8288145 -1.420813
0.15152963 -7.8524952 -1.4250281
0.10534459 -8.0046558 -1.4532509
0.05790291 -8.2420635 -1.4974178
0.0073672784 -8.2825699 -1.5049317
-0.043836985 -8.3561878 -1.5186765
-0.095097616 -8.3547783 -1.5184933
-0.14651434 -8.3628836 -1.5201427
-0.19780207 -8.3608446 -1.5199594
-0.24909952 -8.3594732 -1.5199594
-0.30021128 -8.3528757 -1.5190431
-0.35257274 -8.3773956 -1.5239912
-0.40302253 -8.3554363 -1.5203259
-0.45118922 -8.2958717 -1.5096966
-0.50582302 -8.3547678 -1.5212423
-0.5582543 -8.3691626 -1.524541
-0.61016715 -8.3734236 -1.5260072
-0.65944386 -8.3430614 -1.521059
-0.71045667 -8.3368988 -1.5206925
-0.76025605 -8.3176985 -1.5179435
-0.8108964 -8.3089628 -1.5172105
-0.86125535 -8.2979641 -1.5161109
-0.91279912 -8.2983866 -1.5172105
-0.96880436 -8.3365717 -1.5254574
-1.0210131 -8.3392525 -1.5271068
-1.0798124 -8.3923073 -1.538286
-1.1244541 -8.3348637 -1.5287561
-1.1788715 -8.3511686 -1.5331545
-1.2300911 -8.3437786 -1.5331545
-1.2787263 -8.3195553 -1.530039
-1.3353394 -8.3464985 -1.5366366
-1.3810462 -8.3051767 -1.5304055
-1.435323 -8.3159208 -1.5340708
-1.4844174 -8.2963123 -1.5320549
-1.5327883 -8.2735157 -1.5294892
-1.5796405 -8.243679 -1.5256406
-1.6229396 -8.1971865 -1.5186765
-0.61129934 -2.9898388 -0.52977812
-0.62983578 -2.9869936 -0.52996141
-0.64961201 -2.9897976 -0.53124428
-0.66815931 -2.9867146 -0.5314275
-0.68625247 -2.9816005 -0.53124428
-0.70476061 -2.9782903 -0.5314275
-0.71977216 -2.9605362 -0.52886182
-0.73530644 -2.9455719 -0.52684593
-2.090466 -8.163681 -1.5318717
-2.1470094 -8.1754217 -1.5366366
-0.78199112 -2.9040091 -0.52153122
-0.79770464 -2.8915746 -0.52006507
-0.81382924 -2.8809493 -0.51896548
-0.82930779 -2.868346 -0.51749939
-1.0581515 -3.5777915 -0.65641433
-2.4934092 -8.2461214 -1.5668752
-2.4940357 -8.0691185 -1.5353537
-2.547348 -8.0658503 -1.5377362
-1.0415297 -3.227962 -0.59318787
-1.0613164 -3.2215106 -0.59318787
-2.7003939 -8.0325041 -1.5406684
-1.0988559 -3.2026646 -0.59208828
-1.1227064 -3.2079248 -0.59447074
-2.8434944 -7.9694014 -1.538286
-2.8946922 -7.958271 -1.5395688
-1.1518399 -3.1065207 -0.57852668
-1.1621969 -3.0764029 -0.57394505
-1.1874043 -3.0857294 -0.5772438
-1.2350006 -3.1516125 -0.591905
-1.2688822 -3.1805003 -0.59923559
-3.2048805 -7.8936982 -1.5490986
-3.2570086 -7.8829708 -1.5509312
-3.3022687 -7.8555875 -1.5494651
-3.3635478 -7.8659101 -1.5556961
-3.4113567 -7.8442221 -1.5555128
-1.3012079 -2.9419312 -0.56056666
-1.3172196 -2.9294086 -0.55965036
-1.3339437 -2.9185886 -0.55910057
-3.5837913 -7.7171259 -1.5470827
-3.654566 -7.7447791 -1.5573455
-3.6998937 -7.7177768 -1.5564291
-3.7394331 -7.6790199 -1.5531304
-3.7934525 -7.6700296 -1.5560626
-3.8448553 -7.6553946 -1.5578953
-3.8948815 -7.6377892 -1.5591781
-3.9493554 -7.6285882 -1.5622936
-3.9988327 -7.6094332 -1.5633932
-4.0514617 -7.5960302 -1.5657756
-4.1120315 -7.5969648 -1.5712737
-4.1514702 -7.5586658 -1.5685247
-4.1934643 -7.5253215 -1.5668752
-4.2395601 -7.4994493 -1.5668752
-4.2698483 -7.4460044 -1.5610108
-4.3031006 -7.3984199 -1.5564291
-4.3653955 -7.4006672 -1.5626602
-4.3905387 -7.3399954 -1.5553296
-4.4375324 -7.3162794 -1.5560626
-4.494184 -7.3081741 -1.5602777
-4.5311408 -7.2679472 -1.5575287
-4.5693488 -7.2300353 -1.5553296
-4.6613479 -7.2763643 -1.5718235
-4.7262492 -7.2789578 -1.5787874
-4.7729845 -7.2531061 -1.5795206
-4.8103085 -7.2130504 -1.5771381
-4.8731899 -7.2110934 -1.5833691
-4.9062371 -7.1648335 -1.5797038
-4.9125633 -7.0804768 -1.567425
-4.9621344 -7.0590477 -1.569441
-5.0384274 -7.0749135 -1.5800704
-5.08922 -7.0542293 -1.5824528
-5.1335683 -7.024457 -1.5828193
-5.1800823 -6.9975667 -1.5839189
-5.2241001 -6.9672236 -1.5842855
-5.285182 -6.9593086 -1.5899667
-5.3056097 -6.8979158 -1.5831859
-5.3629365 -6.8846207 -1.5877675
-5.4111671 -6.859303 -1.5896001
-5.4506989 -6.8228993 -1.5888671
-5.4547472 -6.742703 -1.5776879
-5.5645399 -6.7927618 -1.5978471
-5.6111355 -6.7645435 -1.5993131
-5.6664453 -6.7465487 -1.603345
-3.5870955 -4.2177892 -0.99307227
-3.6109836 -4.1934648 -0.99252248
-3.5772169 -4.103054 -0.97566211
-3.7207174 -4.2151723 -1.0090164
-3.7596116 -4.206924 -1.0126816
-3.8776841 -4.2858391 -1.0383388
-3.719991 -4.0611515 -0.98757434
-3.9085972 -4.2148633 -1.0324743
-3.9020908 -4.1563969 -1.0236776
-3.9390328 -4.1444902 -1.026793
-3.9875615 -4.14433 -1.0330241
-4.0177169 -4.1247149 -1.0343069
-4.00844 -4.0649834 -1.0251436
-4.0333071 -4.0403113 -1.0251436
-4.1677232 -4.1240544 -1.0539163
-3.4843614 -3.4056983 -0.86918509
-3.4889278 -3.3685484 -0.86496997
-3.4177678 -3.259547 -0.8413288
-3.4262557 -3.2277281 -0.83839655
-4.2490897 -3.9540846 -1.0429204
-3.498174 -3.215379 -0.84664351
-3.5251153 -3.2004628 -0.84847611
-3.5527365 -3.1859932 -0.85049206
-3.4059193 -3.0168076 -0.80907416
-3.4125288 -2.9854946 -0.80614191
-3.7119327 -3.2074811 -0.8754161
-3.7278049 -3.1814535 -0.8744998
-3.768301 -3.1762619 -0.87963122
-3.8957541 -3.2430286 -0.90583813
-4.3370094 -3.5655844 -1.0075502
-4.3702531 -3.5482011 -1.0102992
-4.3789039 -3.510864 -1.0071837
-4.4065294 -3.4888117 -1.0086498
-4.4162369 -3.452625 -1.0059009
-4.4762454 -3.4555013 -1.0150641
-4.4825091 -3.4166467 -1.011582
-4.5057454 -3.3908517 -1.0121318
-4.4743891 -3.3244421 -1.0000364
-4.5176897 -3.3137887 -1.0053511
-4.4726501 -3.238723 -0.99032331
-4.6035981 -3.2906885 -1.0157971
-4.4662747 -3.1512847 -0.97987717
-4.4871397 -3.1249447 -0.98024374
-4.5313425 -3.1146173 -0.98592496
-4.5910435 -3.1143515 -0.99508822
-4.5643215 -3.0554948 -0.98482537
-4.5436134 -3.0014198 -0.97602862
-4.5866499 -2.9895899 -0.98152661
-4.5660477 -2.9363961 -0.97291315
-4.6246514 -2.9341331 -0.98189312
-4.7750573 -2.9886379 -1.0110322
-4.7498097 -2.932425 -1.0015025
-4.7047429 -2.8648744 -0.98775762
-4.7947078 -2.8794847 -1.0035183
-4.8528848 -2.874059 -1.0123152
-4.8958945 -2.8591025 -1.0178131
-4.907382 -2.8255737 -1.0165303
-4.901545 -2.782305 -1.011582
-4.9159513 -2.750737 -1.0110322
-4.8785071 -2.6906075 -0.99948657
-4.798192 -2.6080351 -0.97896087
-4.9267554 -2.6388941 -1.0027853
-4.8933001 -2.5824573 -0.99233925
-4.9465575 -2.5718868 -1.0002196
-4.8922491 -2.5056312 -0.98555839
-4.9154305 -2.4795511 -0.98720783
-4.9948201 -2.481276 -1.0005862
-5.0231967 -2.457062 -1.0033351
-4.9850373 -2.4005985 -0.99233925
-5.0716243 -2.4040787 -1.0071837
-5.1014247 -2.3799813 -1.0102992
-5.1275458 -2.3539674 -1.0126816
-5.1418929 -2.3224611 -1.0126816
-5.1533513 -2.2896698 -1.0121318
-5.1510897 -2.2509196 -1.0088331
-5.1747389 -2.2235405 -1.010849
-5.2507677 -2.2181478 -1.0234942
-5.2443056 -2.1775925 -1.0194625
-5.2575684 -2.1453731 -1.0194625
-5.2359605 -2.0991693 -1.0124984
-5.1600199 -2.0320556 -0.99472165
-5.3475113 -2.0680959 -1.0297253
-5.5264425 -2.0984194 -1.0628963
-5.3641968 -1.9992276 -1.0280759
-5.3551288 -1.9585083 -1.0238608
-5.3661199 -1.9252809 -1.0236776
-5.3935962 -1.8978671 -1.026793
-5.4395237 -1.8766017 -1.0335739
-5.5617537 -1.8806709 -1.0553824
-5.3949556 -1.7874435 -1.0203788
-5.6302304 -1.8271501 -1.0643624
-5.7949843 -1.8414036 -1.0944179
-5.7489138 -1.7879986 -1.0832387
-5.8331327 -1.7750179 -1.0975333
-5.8156481 -1.7307788 -1.0920354
-6.1603012 -1.7923017 -1.1569113
-6.2468286 -1.7759804 -1.1715724
-6.2235088 -1.728146 -1.1649749
-6.3820086 -1.7300605 -1.1935643
-6.4086604 -1.6951431 -1.1966798
-6.843483 -1.7653282 -1.278416
-7.1249456 -1.7913958 -1.3304633
-7.0641909 -1.7301013 -1.3167185
-7.6560726 -1.8253732 -1.4281436
-7.831841 -1.8165753 -1.4596652
-8.0346346 -1.8117439 -1.4963182
-8.4614029 -1.8535142 -1.575672
-9.0582047 -1.9261051 -1.6872804
-9.0284529 -1.861949 -1.6794001
-9.1997299 -1.838503 -1.7098221
-9.3980789 -1.8182536 -1.7453755
-9.6284056 -1.8016061 -1.7869767
-10.009784 -1.8094854 -1.8571671
-10.406135 -1.8152845 -1.9301066
-10.463611 -1.7592249 -1.9389035
-10.478089 -1.6956166 -1.9396365
-10.492182 -1.6318969 -1.9403695
-10.500053 -1.567197 -1.940003
-10.513364 -1.5032971 -1.9407361
-10.475638 -1.4323657 -1.9319394
-10.473507 -1.3666618 -1.9299234
-10.52462 -1.307707 -1.9379871
-10.517802 -1.2413756 -1.9352381
-10.513497 -1.1755048 -1.9330389
-10.526378 -1.1115928 -1.9341385
-10.526153 -1.0463023 -1.9328556
-10.545099 -0.98288184 -1.9352381
-10.543097 -0.91747773 -1.933772
-10.568125 -0.85435426 -1.9374373
-10.536896 -0.78678358 -1.9306564
-10.541525 -0.72211558 -1.9306564
-10.52319 -0.65601277 -1.9264414
-10.528 -0.59148651 -1.9266247
-10.524558 -0.52653265 -1.9253418
-10.524644 -0.46181589 -1.9247919
-10.561663 -0.39852789 -1.9312062
-10.586508 -0.33443001 -1.9354213
-9.8570499 0.72442269 -1.9266616
-9.7869158 0.77966464 -1.9135906
-9.8122396 0.84230536 -1.9196383
-9.8225136 0.90393615 -1.9227598
-9.8177576 0.96428496 -1.9229549
-9.8379936 1.0272607 -1.9282223
-9.8178577 1.0860947 -1.9254911
-9.7642498 1.1408467 -1.9161267
-9.7716675 1.2025361 -1.9190531
-9.7563238 1.2614644 -1.9174924
-9.7629776 1.3232819 -1.9204187
-9.743022 1.3815079 -1.9180776
-9.7333918 1.4411201 -1.9178826
-9.692379 1.4958755 -1.9114445
-9.7198162 1.5612336 -1.9188579
-9.7003794 1.6192279 -1.9169071
-9.6776991 1.6765399 -1.9143709
-9.6913624 1.740226 -1.9192481
-9.6477184 1.7935596 -1.9126151
-9.6606092 1.8573554 -1.9174924
-9.632678 1.9133464 -1.9141757
-9.6140308 1.9710357 -1.9128102
-9.6007957 2.0297863 -1.9126151
-9.6140347 2.0942969 -1.9178826
-9.5541105 2.1427255 -1.908323
-9.5417395 2.2015288 -1.9085182
-9.5204172 2.2582226 -1.9069575
-9.5368738 2.3240306 -1.9132004
-9.5205307 2.3820276 -1.9128102
-9.501936 2.4394238 -1.9120299
-9.4820471 2.4964314 -1.9110544
-9.4551888 2.5514975 -1.9087132
-9.4440813 2.6107726 -1.9096887
-9.4250526 2.6678696 -1.9091034
-9.4056797 2.7248313 -1.9085182
-9.401948 2.7863953 -1.9112494
-9.3593321 2.836349 -1.905982
-9.3099003 2.8838525 -1.899349
-9.2967043 2.9424031 -1.9003243
-9.260745 2.9936571 -1.8966177
-9.2198496 3.0430434 -1.8919355
-9.2251692 3.1077018 -1.8970078
-9.2216949 3.1696694 -1.9003243
-9.2039232 3.2268422 -1.9007145
-9.1737919 3.2796226 -1.8985686
-9.1636324 3.3395455 -1.9007145
-9.1328554 3.3919523 -1.8985686
-9.1072845 3.4461904 -1.8975931
-9.096034 3.505888 -1.8997391
-9.0816545 3.5645018 -1.9012998
-9.0441294 3.61397 -1.8979833
-9.0108833 3.6649601 -1.8956422
-8.9891319 3.7205563 -1.8958373
-8.9462481 3.767266 -1.8915453
-8.922965 3.8220882 -1.8915453
-8.9640818 3.9049768 -1.9055918
-8.8870468 3.9364641 -1.8940815
-8.8707743 3.9945452 -1.8958373
-8.8425303 4.047267 -1.895057
-8.8442068 4.1138601 -1.9009097
-8.8010645 4.1596656 -1.8970078
-8.7612305 4.2067952 -1.8938864
-8.7246752 4.2553134 -1.8915453
-8.7247658 4.3218307 -1.897398
-8.7094727 4.3810143 -1.8999342
-8.642251 4.4138465 -1.8909601
-8.6280651 4.4735646 -1.8938864
-8.5726814 4.5118008 -1.8876435
-8.5924139 4.5897384 -1.8983735
-8.5537434 4.636764 -1.8960325
-8.5002117 4.6754508 -1.8903748
-8.4482412 4.7146115 -1.8851074
-8.4626799 4.7910085 -1.895057
-8.4186659 4.8345394 -1.8917404
-8.3922329 4.8880792 -1.8925208
-8.3544827 4.9349904 -1.890765
-8.3349819 4.992713 -1.8933011
-8.2891026 5.034595 -1.8897895
-8.2697458 5.0925627 -1.8925208
-8.2108898 5.1260657 -1.8860828
-8.1784534 5.1758256 -1.8858877
-8.1704798 5.2412705 -1.8915453
-8.1233664 5.2816801 -1.8880337
-8.1030893 5.3395209 -1.8909601
-8.033473 5.3646255 -1.8821809
-8.0028419 5.4154663 -1.8827662
-7.9702716 5.4650235 -1.8829614
-7.925313 5.5059896 -1.8802301
-7.9202499 5.574841 -1.8872533
-7.8986702 5.6324463 -1.8903748
-7.8258028 5.6532335 -1.8810104
-7.7933421 5.7028832 -1.8815957
-7.7566276 5.7494268 -1.8812056
-7.7251248 5.7998571 -1.8821809
-7.69876 5.8542733 -1.8845221
-7.6393847 5.8834457 -1.8786694
-7.6302056 5.9513245 -1.8854976
-7.5966239 6.0004625 -1.8862779
-7.5397511 6.0310307 -1.8812056
-7.5323234 6.1012597 -1.8888141
-7.4962616 6.1486063 -1.8892043
-7.4387784 6.1781921 -1.8841319
-7.4337544 6.2514982 -1.8927158
-7.4198961 6.3179793 -1.8991538
-7.353508 6.3396893 -1.8919355
-7.3617539 6.4259734 -1.9044213
-7.269278 6.4242539 -1.8903748
-7.2355695 6.473969 -1.8919355
-7.2066121 6.5281219 -1.8948618
-7.1664205 6.5722179 -1.8948618
-7.1209283 6.6113949 -1.8934963
-7.088088 6.6623535 -1.8956422
-7.0470748 6.7057199 -1.8956422
-7.0163908 6.7590413 -1.8985686
-6.9340653 6.7622447 -1.8872533
-6.9063997 6.8184471 -1.8911551
-6.8894029 6.8856583 -1.8981783
-6.8718405 6.9529171 -1.9052017
-6.8365846 7.0026717 -1.9073477
-6.773066 7.0233064 -1.901495
-6.7596059 7.095983 -1.9100789
-6.7078743 7.1287532 -1.9077379
-6.6686802 7.1748071 -1.9091034
-6.6159091 7.2061968 -1.9065672
-6.572227 7.2473822 -1.9067624
-6.5223999 7.2817273 -1.9052017
-6.474998 7.3186722 -1.9044213
-6.4531994 7.3848543 -1.9114445
-6.4173765 7.4354501 -1.9143709
-6.3767219 7.4806581 -1.9159316
-6.3521752 7.5451565 -1.9225646
-6.3045053 7.5824823 -1.9221745
-6.2441702 7.6043458 -1.9178826
-6.1992464 7.6448021 -1.9184678
-6.1571259 7.6888208 -1.9200284
-6.1201725 7.7395353 -1.9233451
-6.0773969 7.7831273 -1.9249058
-6.0438967 7.8389139 -1.929588
-5.9867744 7.8641443 -1.9266616
-5.9425325 7.906219 -1.9280272
-5.8898182 7.9370189 -1.9266616
-5.8439045 7.976965 -1.927637
-5.8023195 8.0230045 -1.9301732
-5.7489934 8.0528679 -1.9288076
-5.7000384 8.0887938 -1.9290026
-5.6642976 8.1437464 -1.93388
-5.6120019 8.1751146 -1.9330995
-5.5688853 8.2199516 -1.9356357
-5.508533 8.2392893 -1.9321241
-5.4540939 8.2672033 -1.9307585
-5.4123592 8.3144875 -1.934075
-5.3771381 8.3723001 -1.9399277
-5.331439 8.4142494 -1.9420737
-5.2776308 8.4434776 -1.9412934
-5.2288108 8.480711 -1.9424639
-5.1720905 8.5050926 -1.940708
-5.1127458 8.5248909 -1.9379768
-5.0703254 8.5729866 -1.9418787
-5.0126872 8.5954638 -1.9399277
-4.957408 8.6218071 -1.9389523
-4.9121494 8.6657162 -1.9420737
-4.8670163 8.7102489 -1.9453902
-4.8106413 8.7347937 -1.9442197
-4.7513418 8.7538023 -1.9418787
-4.713264 8.8121977 -1.9485117
-4.6668763 8.8557034 -1.9518282
-4.6151619 8.8893948 -1.9529988
-4.5707994 8.9376316 -1.9574858
-4.5114622 8.956749 -1.9555349
-4.46557 9.0027142 -1.9596318
-4.4162707 9.042284 -1.9623631
-4.3611302 9.0700951 -1.9625582
-4.3003612 9.0860453 -1.9602171
-4.2519817 9.1282654 -1.9637288
-4.2199969 9.206789 -1.975239
-4.1577826 9.2199917 -1.9725078
-4.105505 9.2551918 -1.9746538
-4.0474629 9.2775116 -1.9740685
-4.0066962 9.3400307 -1.9822624
-3.9329276 9.3255777 -1.9738734
-3.8808894 9.3622198 -1.9766047
-3.8204117 9.3785887 -1.975044
-3.7693517 9.4182453 -1.9785556
-3.7111328 9.4402828 -1.9783605
-3.658082 9.475687 -1.9810917
-3.5991764 9.4961195 -1.9807016
-3.5473371 9.535491 -1.9844083
-3.4867442 9.5515499 -1.9832377
-3.4350131 9.5921555 -1.9873346
-3.3767419 9.6149025 -1.9877249
-3.3164055 9.631731 -1.9869444
-3.259125 9.6574755 -1.9881151
-3.1958051 9.665185 -1.9855789
-3.1436903 9.7070065 -1.9902611
-3.0831811 9.7233086 -1.9896758
-3.0150344 9.7148781 -1.9840181
-2.9510956 9.7191172 -1.9810917
-2.8939164 9.7455044 -1.9828476
-2.8348846 9.7659035 -1.9834329
-2.7898903 9.8359547 -1.9943579
-2.7355053 9.8746281 -1.998845
-2.6692338 9.8703976 -1.994553
-2.6041179 9.8695192 -1.9910414
-2.5513279 9.9157085 -1.9972843
-2.4909151 9.9330788 -1.9976745
-2.4313157 9.9538927 -1.998845
-2.3699672 9.9676695 -1.99865
-2.3089831 9.9829788 -1.998845
-2.2509108 10.011312 -2.0017715
-2.1923685 10.038351 -2.0045025
-2.1236181 10.018032 -1.9976745
-2.0577662 10.009738 -1.9933825
-1.9934366 10.007747 -1.9904561
-1.93589 10.040014 -1.994553
-1.8823342 10.095092 -2.0033321
-1.8167077 10.086181 -1.9992352
-1.7512616 10.076845 -1.9951383
-1.6979785 10.13867 -2.0054781
-1.635425 10.146961 -2.0050879
-1.5746337 10.166497 -2.0070388
-1.5096306 10.158505 -2.0035272
-1.4457515 10.156896 -2.0013812
-1.3906707 10.219027 -2.0121112
-1.3199925 10.166091 -1.9998205
-1.2518197 10.127276 -1.9904561
-1.1965103 10.193213 -2.0021615
-1.1381654 10.23838 -2.0097702
-1.0622318 10.120315 -1.9847986
-1.0031958 10.157876 -1.9910414
-0.94409984 10.198998 -1.9980646
-0.88639146 10.261274 -2.0093799
-0.82482219 10.284118 -2.0128915
-0.75273925 10.167699 -1.9887003
-0.6893428 10.157448 -1.9857739
-0.63044155 10.217285 -1.9968941
-0.56610906 10.191583 -1.9910414
-0.50351578 10.193885 -1.9908463
-0.44087327 10.194823 -1.9904561
-0.37820196 10.194396 -1.9898708
-0.31664094 10.228875 -1.9963088
-0.254114 10.24043 -1.9982598
-0.19125691 10.240816 -1.9980646
-0.12851432 10.249642 -1.9996253
-0.065121688 10.170796 -1.9838231
-0.0027196237 10.210236 -1.9916266
0.060023148 10.225752 -1.9947481
0.12284926 10.232057 -1.9961138
0.18543272 10.220324 -1.9939678
0.24833132 10.226837 -1.9955285
0.3112869 10.231983 -1.9968941
0.3729848 10.200477 -1.9910414
0.43665776 10.223474 -1.9961138
0.498564 10.203948 -1.9927973
0.56067902 10.191883 -1.9910414
0.62314469 10.187272 -1.9908463
0.6857729 10.185214 -1.9912364
0.74940729 10.196465 -1.9943579
0.81211352 10.193629 -1.9947481
0.87355316 10.175752 -1.9922119
0.93354416 10.14383 -1.9869444
0.99519199 10.132054 -1.9857739
1.0599936 10.15112 -1.9908463
1.1192371 10.117129 -1.9853837
1.1814075 10.111046 -1.9855789
1.2431856 10.10166 -1.9851887
1.3064036 10.103568 -1.9871396
1.3707466 10.112856 -1.9906512
1.4417295 10.167374 -2.0033321
1.4992003 10.125349 -1.996699
1.5593538 10.103359 -1.9941628
1.6230297 10.104253 -1.9963088
1.6856441 10.097973 -1.9970891
1.7376882 10.030424 -1.9855789
1.7998948 10.023435 -1.9863592
1.8538297 9.9717035 -1.9781654
1.9244298 10.00926 -1.9881151
1.9733816 9.9347363 -1.9754342
2.0376534 9.9387732 -1.9787507
2.1126041 9.9922924 -1.9922119
2.1657302 9.9417686 -1.9846034
2.2206781 9.9014969 -1.9791409
2.2860236 9.9077539 -1.9832377
2.3402057 9.8658667 -1.9775802
2.4030206 9.8608503 -1.979531
2.4677675 9.8630457 -1.9830427
2.5265315 9.8410683 -1.9816771
2.5886164 9.8320198 -1.9830427
2.6514521 9.8254194 -1.9849936
2.7072453 9.7928963 -1.9816771
2.7664807 9.7732687 -1.9810917
2.8255773 9.7532845 -1.9805065
2.8775628 9.7094345 -1.975044
2.9416375 9.7066126 -1.9781654
2.9959152 9.6715174 -1.9746538
3.0312212 9.5772152 -1.9588515
3.0929468 9.5677671 -1.9608024
3.1783488 9.6296349 -1.9777752
3.2239068 9.5699863 -1.9693863
3.279696 9.5416775 -1.9676305
3.3411024 9.5297031 -1.9693863
3.3945587 9.4951706 -1.96646
3.4497325 9.4658709 -1.9647042
3.4852045 9.3838463 -1.9518282
3.5614669 9.4118166 -1.9623631
3.6187968 9.3888721 -1.962168
3.6734703 9.3591871 -1.9606073
3.7333763 9.3428459 -1.961973
3.7780654 9.2888746 -1.9553399
3.8349898 9.2655182 -1.9553399
3.8811088 9.2165041 -1.9498774
3.9426088 9.204236 -1.9524136
3.9915664 9.1627884 -1.9487067
4.0409584 9.12288 -1.9453902
4.0928316 9.0889711 -1.9434394
4.145257 9.0565529 -1.9418787
4.19206 9.0122738 -1.9377817
4.235961 8.9624414 -1.9325143
4.2968183 8.9486589 -1.9352455
4.3482051 8.9150734 -1.9336848
4.4115343 8.9058018 -1.9375867
4.4643326 8.875061 -1.9368063
4.5231671 8.8562355 -1.9387572
4.5602636 8.7952299 -1.9313438
4.6251097 8.7879124 -1.9360259
4.6807933 8.7628279 -1.9368063
4.7326026 8.7304935 -1.9360259
4.7789912 8.6884003 -1.9330995
4.8140464 8.6263714 -1.9256861
4.8688192 8.6000843 -1.9264665
4.925405 8.5768509 -1.9280272
4.9922571 8.571044 -1.9336848
5.0342765 8.5225182 -1.929588
5.0834503 8.4864197 -1.9284174
5.1308432 8.447525 -1.9266616
5.163033 8.3841505 -1.9192481
5.2169776 8.356473 -1.9202236
5.3043504 8.381485 -1.9336848
5.3175426 8.2893467 -1.9196383
5.3538675 8.2343636 -1.9143709
5.4032121 8.1997204 -1.9139807
5.4550571 8.1688585 -1.9145659
5.5006795 8.1287355 -1.9130052
5.5510077 8.0956402 -1.9132004
5.5905027 8.0469303 -1.9096887
5.6228337 7.9884167 -1.903836
5.6677575 7.9481759 -1.9024704
5.738822 7.9442534 -1.9100789
5.7816663 7.9009771 -1.908128
5.8060875 7.8330503 -1.9001293
5.8552189 7.7988458 -1.9005195
5.8881173 7.7432561 -1.8956422
5.9289346 7.6984348 -1.8934963
5.9905386 7.6804695 -1.8981783
6.0478888 7.6566505 -1.901495
6.0659566 7.5834031 -1.8923256
6.0543356 7.4744072 -1.8739872
6.1498508 7.4977779 -1.8895944
6.2114086 7.4787626 -1.8944716
6.2660193 7.4510174 -1.897203
6.3160715 7.4176564 -1.8985686
6.3473754 7.362421 -1.8942766
6.3930759 7.3240747 -1.8944716
6.4223056 7.2670736 -1.8897895
6.4510765 7.20999 -1.8851074
6.4886093 7.163003 -1.8831564
6.5350904 7.125946 -1.8839368
6.5846982 7.0921812 -1.8856926
6.6260757 7.0495009 -1.8851074
6.67732 7.0172367 -1.8874484
6.7059603 6.9613018 -1.8833516
6.7430692 6.9144068 -1.8817908
6.7695179 6.8568511 -1.8773037
6.7982883 6.8020062 -1.873597
6.8378038 6.7580967 -1.8730117
6.8672099 6.7043672 -1.8696952
6.9004512 6.6546164 -1.8675492
6.9454145 6.616209 -1.8687197
6.9894519 6.5768285 -1.8696952
7.0239272 6.5284772 -1.8681345
7.0551825 6.4772978 -1.8657933
7.1100526 6.4477201 -1.8698903
7.1326761 6.3889236 -1.8654032
7.1666012 6.3404894 -1.8640376
7.2068481 6.2976871 -1.8644278
7.2453542 6.2533484 -1.8644278
7.2798553 6.2055931 -1.8634523
7.2967849 6.1431236 -1.8579898
7.3622475 6.1214333 -1.8652081
7.3928466 6.0705433 -1.8634523
7.4299555 6.0250673 -1.8634523
7.4675503 5.9799776 -1.8636475
7.4848676 5.9188385 -1.8587701
7.5233636 5.8746114 -1.8593554
7.5615978 5.8301344 -1.8599406
7.5831804 5.7729359 -1.8564291
7.6278691 5.7333679 -1.8587701
7.6676307 5.6899624 -1.8599406
7.7308846 5.663671 -1.866964
7.7432365 5.6000381 -1.8615015
7.7766533 5.5518508 -1.8613063
7.785717 5.4865189 -1.8552585
7.8594971 5.4666405 -1.865013
7.9017873 5.424417 -1.867159
7.9414182 5.3802309 -1.8687197
7.943296 5.3106909 -1.8613063
7.9831009 5.2667122 -1.8630621
8.0530796 5.242238 -1.8720363
8.0603352 5.1768293 -1.8661835
8.1002331 5.1325231 -1.8681345
8.1257515 5.0790858 -1.8667688
8.143404 5.0208974 -1.8636475
8.2092571 4.9922352 -1.8718412
8.2170229 4.9281526 -1.8665738
8.2699013 4.891119 -1.8718412
8.2989092 4.8397899 -1.8716462
8.2893353 4.7662935 -1.862672
8.3551168 4.7361345 -1.8710608
8.3677511 4.6756911 -1.8673542
8.4598608 4.6592655 -1.8817908
8.476222 4.6007199 -1.8790596
8.4895887 4.5407624 -1.875743
8.4964647 4.4776139 -1.8710608
8.538578 4.4330773 -1.8743774
8.5638714 4.3797092 -1.8739872
8.6028471 4.3332553 -1.8767184
8.6037922 4.2677517 -1.8710608
8.6403923 4.2200437 -1.8734019
8.6820345 4.1745958 -1.8769135
8.6995077 4.1174703 -1.8751577
8.7468357 4.0743642 -1.880035
8.7734537 4.0214348 -1.8804252
8.8060112 3.971154 -1.8821809
8.8293152 3.9166491 -1.8819859
8.8675652 3.8686731 -1.8851074
8.8532772 3.7979543 -1.8769135
8.8818369 3.7458463 -1.8780841
8.942709 3.7070475 -1.8862779
8.938036 3.6410093 -1.8804252
8.9319792 3.5748041 -1.8743774
8.9820433 3.5310516 -1.8804252
9.0255013 3.4843473 -1.8851074
9.046711 3.4289021 -1.8851074
9.0740147 3.3757212 -1.8864729
9.0521746 3.3045144 -1.8774989
9.1350718 3.2713871 -1.890765
9.134613 3.2081263 -1.8864729
9.1643276 3.1555281 -1.8886189
9.1853752 3.0998645 -1.8890091
9.1744232 3.0335963 -1.8827662
9.2040615 2.980871 -1.8851074
9.2736006 2.9406388 -1.8958373
9.2680511 2.8764164 -1.8909601
9.2958498 2.822628 -1.893106
9.2923088 2.7593968 -1.8888141
9.3194265 2.7053347 -1.8909601
9.3245268 2.6448905 -1.8886189
9.3717728 2.5962636 -1.895057
9.3790054 2.5364075 -1.8933011
9.3868046 2.4768102 -1.8917404
9.354332 2.4069529 -1.8819859
9.3812923 2.3526103 -1.8845221
9.4098434 2.2984927 -1.8874484
9.407548 2.2368567 -1.8841319
9.4440298 2.1843927 -1.8888141
9.4505568 2.1248989 -1.8874484
9.4959965 2.0739827 -1.8940815
9.5325308 2.0207593 -1.8989588
9.5466719 1.9626256 -1.899349
9.5344868 1.8992242 -1.8944716
9.5652218 1.8443975 -1.8983735
9.5860004 1.7874684 -1.9003243
9.5620384 1.7223612 -1.8933011
9.6014156 1.6686919 -1.8991538
9.6143761 1.6102331 -1.8997391
9.6453781 1.554641 -1.9040312
6.0791888 0.94204468 -1.1843429
5.9403024 0.88326091 -1.1552744
5.8873496 0.83850902 -1.143569
5.8807216 0.8007834 -1.141228
5.8738527 0.76317078 -1.1388868
5.8725848 0.72639388 -1.1377163
5.8623195 0.68863326 -1.1347899
5.8605857 0.65200025 -1.1336194
5.8488688 0.61439174 -1.1304979
5.8535047 0.57858849 -1.1306931
5.8549914 0.54248059 -1.1303029
5.8249865 0.50367868 -1.1236699
5.8211241 0.46737966 -1.1223042
5.8131227 0.43085781 -1.1201582
5.8244638 0.39577773 -1.121914
0 0 -0
0 0 -0
5.8278232 0.28835651 -1.1213287
0 0 -0
0 0 -0
0 0 -0
0 0 -0
0 0 -0
0 0 -0
0 0 -0
0 0 -0
0 -0 -0
0 -0 -0
0 -0 -0
0 -0 -0
0 -0 -0
0 -0 -0
0 -0 -0
0 -0 -0
0 -0 -0
0 -0 -0
0 -0 -0
0 -0 -0
0 -0 -0
0 -0 -0
0 -0 -0
0 -0 -0
6.1058464 -0.63711578 -1.1818067
9.0321484 -0.99908268 -1.7682482
8.8368645 -1.0323807 -1.7304007
8.6950569 -1.0699158 -1.7032832
8.5395088 -1.1039878 -1.6734344
8.6132402 -1.1673077 -1.6896268
8.7020502 -1.2337785 -1.7089407
8.7108097 -1.2895941 -1.7122573
8.7182417 -1.3454137 -1.7153788
8.7069168 -1.3984154 -1.7147934
8.6904335 -1.450521 -1.7132328
8.6804037 -1.5036497 -1.7130377
8.6468801 -1.552547 -1.7081604
8.6072998 -1.6000134 -1.7021127
8.5732422 -1.6481644 -1.6972353
8.5418043 -1.6965315 -1.6929433
8.403451 -1.7226976 -1.6669964
8.3572187 -1.7667173 -1.659778
8.3673038 -1.8225582 -1.66407
8.3463936 -1.8717172 -1.6621192
8.3251953 -1.9206884 -1.6601682
8.3084822 -1.9706023 -1.6591928
8.2752705 -2.016434 -1.6549008
7.3246336 -1.8323404 -1.4625417
7.3104029 -1.8765169 -1.4619564
8.0214586 -2.1117029 -1.6106153
7.9572182 -2.1470776 -1.6000804
7.8748875 -2.1767764 -1.5858388
7.8764815 -2.2293305 -1.5889602
8.1226511 -2.3529725 -1.6428051
8.1099415 -2.4033253 -1.6431954
7.9401741 -2.4060888 -1.6110054
7.8887243 -2.4434412 -1.6033969
7.8520775 -2.4849901 -1.5989099
7.8170848 -2.5267851 -1.594813
7.725996 -2.5497937 -1.5790106
7.8691373 -2.6507125 -1.6123711
7.7497735 -2.6635468 -1.590716
7.7166252 -2.7052054 -1.5872045
7.7442093 -2.7683561 -1.5965687
7.7768359 -2.833962 -1.6071036
7.8117056 -2.9010968 -1.6182238
7.8387036 -2.9659874 -1.6277832
7.6144552 -2.9346402 -1.5838879
7.7834573 -3.0547881 -1.6238813
7.8529072 -3.1378014 -1.6428051
7.8380485 -3.1877749 -1.6437806
7.8192472 -3.2361834 -1.6439757
7.7847815 -3.2780085 -1.6408542
7.7618165 -3.3245544 -1.640269
7.7358766 -3.3697667 -1.6390984
7.7114677 -3.4155805 -1.6383181
7.6841054 -3.4600132 -1.6369524
7.649354 -3.5009725 -1.6340261
7.641067 -3.5540483 -1.6369524
7.5818753 -3.5832596 -1.6287587
7.5570936 -3.6284397 -1.6281734
7.5470285 -3.6807616 -1.6309047
7.5427566 -3.7361445 -1.6350015
7.5021677 -3.7735391 -1.6310997
7.463151 -3.8114686 -1.6275882
7.4082804 -3.840934 -1.6205648
7.3724232 -3.8799214 -1.6178336
7.3692389 -3.9361777 -1.6225158
7.3802981 -4.0004883 -1.6305145
7.4286537 -4.0858846 -1.6470971
7.4094381 -4.1347351 -1.6484628
7.4009972 -4.1897869 -1.6523646
7.371748 -4.2331657 -1.6515843
7.3303809 -4.2694311 -1.6480726
7.3293786 -4.3292966 -1.6539253
7.3203444 -4.3847733 -1.6580222
7.266479 -4.4133115 -1.6517793
7.2467785 -4.4624443 -1.6535351
7.2109418 -4.5016308 -1.6515843
7.1434069 -4.5206113 -1.6422199
7.1122327 -4.5622387 -1.6414396
7.077528 -4.6015148 -1.6398787
7.0164042 -4.6232648 -1.6320752
6.9683304 -4.6531549 -1.627393
6.9981279 -4.7354074 -1.6414396
6.9406309 -4.758842 -1.6346114
6.8661976 -4.7699966 -1.6236863
6.8552456 -4.8250237 -1.6281734
6.7959666 -4.8459229 -1.620955
6.7446404 -4.8720217 -1.6156876
6.7154107 -4.9138937 -1.6158826
6.6985269 -4.9649363 -1.6191993
6.666368 -5.0047665 -1.6188091
6.6511469 -5.0574512 -1.6227108
6.600565 -5.0832033 -1.6178336
6.5800772 -5.1320539 -1.6205648
6.5122933 -5.143755 -1.6113956
6.4691219 -5.1744256 -1.6084692
6.420485 -5.2004385 -1.6041772
6.3907299 -5.2416024 -1.6047626
6.3931508 -5.309546 -1.6137367
6.3461914 -5.336678 -1.6100299
6.2968998 -5.3615265 -1.605738
6.2601695 -5.3968601 -1.6047626
6.2276759 -5.4358153 -1.6049576
6.2052279 -5.4836688 -1.607884
6.1590395 -5.5105209 -1.6045674
6.1192975 -5.5429401 -1.6030067
6.0887852 -5.5836978 -1.6039822
6.046504 -5.6136112 -1.6018362
6.0176625 -5.6559811 -1.6033969
5.9551377 -5.6664271 -1.5957884
5.9379139 -5.7198734 -1.6006657
5.8935785 -5.7472973 -1.5981295
5.8693686 -5.7943778 -1.6012509
5.8260746 -5.8226547 -1.5991049
5.7654209 -5.8331776 -1.5920817
5.7110238 -5.849493 -1.5868143
5.7185922 -5.9296131 -1.5993
5.7050986 -5.9887381 -1.6059331
5.6823578 -6.0386329 -1.6100299
2.2249138 -2.3926401 -0.61058229
2.2115173 -2.407692 -0.61097246
2.19802 -2.4226696 -0.61136264
5.4238381 -6.0549798 -1.5776449
5.384634 -6.0859418 -1.5770597
5.3646126 -6.1388092 -1.5823271
5.356318 -6.2057681 -1.5913013
5.2678823 -6.1795454 -1.5758892
5.2380767 -6.2215071 -1.5784254
5.2016845 -6.2557926 -1.5790106
5.1737809 -6.3004789 -1.5823271
5.138113 -6.3359156 -1.5833026
5.0930099 -6.3596663 -1.5813518
5.0386853 -6.371562 -1.5764744
2.0470357 -2.6203225 -0.6220926
1.9985855 -2.5908866 -0.61155772
1.9725525 -2.5898333 -0.6082412
1.9542677 -2.5987515 -0.6074608
1.9382854 -2.6106937 -0.6074608
1.8677541 -2.5481596 -0.58912235
1.763011 -2.4363785 -0.55888331
1.7394818 -2.4351757 -0.55595696
4.6753707 -6.6343484 -1.5751088
4.6239362 -6.6476111 -1.5714021
4.5836148 -6.6766667 -1.5715972
4.5222111 -6.6746197 -1.5643789
4.533493 -6.7805214 -1.5831075
4.4934235 -6.810667 -1.5836928
4.4515491 -6.8381095 -1.5836928
4.4137468 -6.8718977 -1.5852535
4.3389583 -6.8474813 -1.5731579
4.3186908 -6.9089088 -1.5813518
4.2684975 -6.9227538 -1.5784254
4.2269592 -6.950491 -1.5788156
4.1938148 -6.9922781 -1.5825223
1.7068367 -2.8844342 -0.62736005
1.695034 -2.9050205 -0.62970114
1.6776659 -2.9162166 -0.62989622
1.6524875 -2.9136562 -0.62696987
3.9151738 -7.0063205 -1.5571605
3.8792059 -7.0430989 -1.5600868
3.8377883 -7.0702171 -1.5608672
3.7910967 -7.0875778 -1.5595016
3.7466226 -7.1089706 -1.5591114
3.7011249 -7.1283436 -1.558331
3.639904 -7.1168613 -1.5507225
3.5935206 -7.1338058 -1.549552
3.5884602 -7.2339234 -1.566915
3.534539 -7.2364163 -1.562623
3.4955945 -7.2694592 -1.5651592
3.4471488 -7.2827916 -1.5634034
3.3874927 -7.2717981 -1.5563802
3.3383157 -7.2826385 -1.5542341
3.3044508 -7.327126 -1.5595016
3.2550566 -7.3374014 -1.5573556
3.2064452 -7.3491449 -1.5555998
3.1601315 -7.3659768 -1.5550145
3.1171615 -7.3906507 -1.556185
3.064996 -7.3933291 -1.5526735
3.0140252 -7.3983712 -1.5497471
2.9667513 -7.4121723 -1.5487716
2.9233677 -7.4357133 -1.5499421
2.8720381 -7.4388709 -1.5468208
2.8266873 -7.4572706 -1.5470158
2.7801936 -7.4726357 -1.5466256
2.735971 -7.4941607 -1.5476011
2.6905973 -7.5126543 -1.5479913
2.644125 -7.5280967 -1.5477961
2.5819237 -7.4978094 -1.5380417
2.5336747 -7.5070052 -1.536676
2.4894118 -7.5279975 -1.5378466
2.4525385 -7.5720572 -1.5438944
2.40692 -7.5897679 -1.5444796
2.3594329 -7.6015835 -1.5438944
2.3118916 -7.613102 -1.5433091
2.2642977 -7.6243234 -1.5427238
2.2212994 -7.6512604 -1.5454551
2.1622717 -7.6222844 -1.536676
2.1251454 -7.6703811 -1.5438944
2.0695953 -7.6520319 -1.5374564
2.0258558 -7.6769152 -1.5399926
1.9801788 -7.6949005 -1.5411631
1.9353111 -7.7164192 -1.5431139
1.8821123 -7.704329 -1.5382367
1.8409265 -7.7414961 -1.5435042
1.7883102 -7.7306676 -1.5390171
1.7371864 -7.7252274 -1.5357006
1.6893343 -7.7338247 -1.5353104
1.6489633 -7.7776265 -1.5421386
1.5994332 -7.7789516 -1.5403827
1.5417149 -7.7385998 -1.530238
1.4932748 -7.7430987 -1.5292625
1.4509465 -7.780077 -1.5349202
1.4004015 -7.7733889 -1.5317987
1.3520072 -7.7779698 -1.5310184
0.43149671 -2.5712337 -0.47928649
1.2288539 -7.6225853 -1.4964874
1.1846097 -7.6464591 -1.4998039
1.1114508 -7.4770164 -1.4642975
1.0699711 -7.5147681 -1.4705404
1.0168376 -7.4696841 -1.4602007
0.97035438 -7.4709196 -1.4592252
0.92245191 -7.4601851 -1.4559087
0.87574583 -7.457912 -1.4543478
0.82726216 -7.4387751 -1.4494706
0.78242129 -7.4515147 -1.4510313
0.73302615 -7.4190855 -1.4436179
0.68613529 -7.4087944 -1.4406916
0.64100009 -7.4167733 -1.4414719
0.59579277 -7.4244776 -1.4422523
0.54971969 -7.4211469 -1.4408866
0.50377625 -7.418509 -1.4397161
0.45770505 -7.4126501 -1.4379603
0.4120504 -7.4123812 -1.4373751
0.36723697 -7.428484 -1.4401063
0.32270631 -7.4550943 -1.4449836
0.27652165 -7.4451728 -1.4426425
0.23367582 -7.5388794 -1.460981
0.18772858 -7.5529175 -1.4635172
0.14165425 -7.5686364 -1.4664435
0.096283637 -7.6556654 -1.4836115
0.049979828 -7.7630157 -1.5048763
0.0023622441 -7.8700819 -1.5261412
-0.045951188 -7.8738713 -1.5269215
-0.094239719 -7.8714795 -1.5265313
-0.14271547 -7.8805594 -1.5284822
-0.1915693 -7.900126 -1.5325792
-0.23962086 -7.885077 -1.5298479
-0.28785446 -7.8795381 -1.5290675
-0.33573538 -7.8668447 -1.5269215
-0.38543838 -7.8940248 -1.5327742
-0.43300417 -7.8758421 -1.5296527
-0.48216119 -7.8867426 -1.532384
-0.53311819 -7.9217997 -1.5399926
-0.58070737 -7.904685 -1.5372612
-0.62896466 -7.8980403 -1.536676
-0.67691034 -7.8881693 -1.5355055
-0.72502851 -7.8809376 -1.5349202
-0.775675 -7.899766 -1.5396024
-0.82382655 -7.8919315 -1.5390171
-0.87622935 -7.9227967 -1.5462354
-0.92140818 -7.8880467 -1.5403827
-0.97410774 -7.9172878 -1.547406
-1.0206549 -7.8955994 -1.5442846
-1.0669726 -7.8736377 -1.5411631
-1.1185716 -7.8902483 -1.5458453
-1.167683 -7.8880873 -1.5468208
-1.2142649 -7.8691425 -1.5444796
-1.2689081 -7.9012461 -1.5524783
-1.3160726 -7.8855724 -1.5509176
-1.3647679 -7.8792815 -1.5513078
-1.4134355 -7.8726897 -1.551698
-1.4647641 -7.8802609 -1.5550145
-1.5053068 -7.8306737 -1.5468208
-1.551797 -7.8135943 -1.54526
-1.6008937 -7.80969 -1.5464306
-1.6510158 -7.8102756 -1.5485765
-1.7124841 -7.8622866 -1.5612574
-0.67365414 -3.0073621 -0.5737102
-0.69319737 -3.0079503 -0.57468563
-0.70982897 -2.9960063 -0.57312495
-0.72146136 -2.9639611 -0.56746733
-0.73725265 -2.949964 -0.56551641
-0.75265539 -2.9349356 -0.56337041
-0.7676518 -2.9188809 -0.56102931
-0.78426903 -2.9093812 -0.56005388
-0.80053729 -2.8988426 -0.55888331
-0.82124877 -2.9042563 -0.56102931
-2.2473121 -7.7580905 -1.5673052
-2.2739625 -7.6736307 -1.5526735
-1.0766077 -3.5550513 -0.69954348
-2.372894 -7.6610742 -1.55599
-2.4183764 -7.641695 -1.5550145
-2.4625034 -7.6183133 -1.5532587
-1.0654323 -3.2304649 -0.63730961
-1.0814754 -3.2127137 -0.63496858
-1.1021247 -3.2087998 -0.63555384
-1.1185467 -3.1927218 -0.63360292
-2.6956954 -7.5410385 -1.5536488
-2.7654312 -7.5888581 -1.5673052
-1.1549218 -3.1118324 -0.62092203
-1.167744 -3.0881765 -0.61741042
-1.1916105 -3.093765 -0.62014169
-1.2736579 -3.247072 -0.6544776
-2.9645166 -7.419404 -1.5499421
-3.0343807 -7.4610333 -1.5628182
-3.0786028 -7.4386497 -1.5620377
-3.1051502 -7.3744264 -1.5522833
-3.1746764 -7.4120297 -1.5645739
-1.303762 -2.9947896 -0.61038715
-1.3129748 -2.9661093 -0.60590011
-1.3291357 -2.953526 -0.60492462
-1.3476415 -2.9462068 -0.60511976
-3.4113026 -7.3342795 -1.5696462
-3.4809737 -7.3655243 -1.5811566
-3.5129385 -7.3166199 -1.5751088
-3.5685177 -7.3169641 -1.5799861
-3.599412 -7.266808 -1.5737432
-3.6333525 -7.2235589 -1.569061
-3.6753759 -7.1967621 -1.5680856
-3.7248838 -7.1845226 -1.5704267
-3.7698109 -7.1632676 -1.5708169
-3.8155417 -7.1434617 -1.5715972
-3.8639765 -7.1285377 -1.5735481
-3.9076436 -7.1046944 -1.5735481
-3.9435148 -7.0668817 -1.5704267
-4.0003343 -7.0664482 -1.5758892
-4.0480146 -7.0494237 -1.5776449
-4.0931678 -7.0278425 -1.5784254
-4.1392064 -7.0076613 -1.5795959
-4.1851516 -6.9871798 -1.5807664
-4.2284546 -6.9622068 -1.5809616
-4.2726374 -6.9386358 -1.5815468
-4.3265605 -6.9305906 -1.5858388
-4.3789716 -6.9196582 -1.5895455
-4.4393559 -6.9207249 -1.5961785
-4.45714 -6.8555341 -1.5872045
-4.5002003 -6.8296943 -1.5875946
-4.5403876 -6.7995062 -1.5870093
-4.5974164 -6.794261 -1.5924718
-2.9309807 -4.275537 -0.99178874
-4.6910806 -6.752635 -1.5961785
-4.746541 -6.743773 -1.6010559
-4.8026385 -6.7352819 -1.6061282
-3.0407691 -4.210269 -0.99373966
-3.0648077 -4.189158 -0.99315441
-4.9123645 -6.6276193 -1.6016411
-4.9729629 -6.6240177 -1.6082742
-5.0242009 -6.6074309 -1.6117858
-5.0784149 -6.5943494 -1.6162729
-3.2841706 -4.2114873 -1.0230032
-3.2904932 -4.1666307 -1.0167603
-3.3166099 -4.1471276 -1.0169554
-3.359899 -4.1487989 -1.022613
-3.4456348 -4.2016554 -1.0415368
-3.4093049 -4.1057467 -1.0222229
-3.4091792 -4.054728 -1.0144192
-3.468971 -4.0748 -1.0251492
-3.4471512 -3.999217 -1.0109076
-3.4529183 -3.9565649 -1.00525
-3.5089595 -3.9713109 -1.0148094
-3.5613861 -3.9811318 -1.0231982
-3.5416243 -3.9105079 -1.0101272
-3.5430105 -3.8641295 -1.0034941
-3.5993569 -3.8775325 -1.0130537
-3.6586871 -3.8932464 -1.0233934
-3.6872401 -3.8756969 -1.0247591
-3.7163956 -3.8586497 -1.0263197
-3.7221959 -3.8175194 -1.0212474
-3.7731154 -3.8225234 -1.0290509
-3.7153697 -3.7181458 -1.0062255
-3.7185793 -3.6759768 -1.0007629
-3.5515587 -3.4681234 -0.94808853
-3.516993 -3.3924873 -0.93267637
-3.4418619 -3.2795296 -0.90633917
-3.4490614 -3.2462525 -0.90282756
-3.4782553 -3.2337074 -0.90536374
-3.4936962 -3.2083251 -0.90419322
-3.5104098 -3.1841929 -0.90341282
-3.4327061 -3.0755723 -0.87746584
-3.414046 -3.0213118 -0.86751622
-3.4517243 -3.0170839 -0.87258857
-3.6884849 -3.1842241 -0.92994511
-3.7169113 -3.1691661 -0.9322862
-3.7820594 -3.1848259 -0.94418669
-4.1364079 -3.4399295 -1.0308068
-4.1725984 -3.4269307 -1.0347086
-4.1585011 -3.3728514 -1.0257344
-4.15768 -3.3301086 -1.0202719
-4.2595901 -3.3690104 -1.0409515
-4.2198796 -3.2957356 -1.0257344
-4.2648797 -3.2889416 -1.0319774
-4.2436161 -3.2312291 -1.0216376
-4.2570901 -3.2004163 -1.0200769
-4.3026409 -3.1935194 -1.0265149
-4.3371887 -3.1780698 -1.0302216
-4.2437463 -3.0697954 -1.0025188
-4.2656956 -3.0459776 -1.0032991
-4.2570443 -3.000541 -0.99666601
-4.2802062 -2.9777234 -0.99783653
-4.4051399 -3.0246623 -1.0235884
-4.4601583 -3.0223265 -1.0323676
-4.4435563 -2.9714668 -1.0239787
-4.4428744 -2.9317255 -1.0194916
-4.42872 -2.8835454 -1.011883
-4.447155 -2.856847 -1.0120782
-4.4853139 -2.842627 -1.0169554
-4.5725384 -2.8587112 -1.033343
-4.3704095 -2.6952512 -0.98203427
-4.4027882 -2.6780648 -0.98574096
-4.6193361 -2.7710354 -1.0321724
-4.5991049 -2.7206755 -1.0235884
-4.4496417 -2.5955822 -0.98535079
-4.576025 -2.6317728 -1.0107125
-4.5391827 -2.5736647 -0.99861693
-4.589139 -2.5648968 -1.0064205
-4.6314244 -2.5513546 -1.0124683
-4.6349235 -2.51634 -1.009737
-4.6546006 -2.4901657 -1.0107125
-4.6810727 -2.4675016 -1.0132487
-4.7030892 -2.4423473 -1.0148094
-4.706634 -2.4076395 -1.0122732
-4.7143106 -2.375186 -1.0107125
-4.7331891 -2.3483934 -1.011688
-4.6893411 -2.2909057 -0.99881202
-4.6980057 -2.2595398 -0.99764144
-4.752563 -2.2499669 -1.0066156
-4.8276277 -2.249331 -1.0200769
-4.9028616 -2.2478578 -1.0335381
-4.7162776 -2.1274412 -0.98983783
-4.7866235 -2.1239083 -1.0023236
-5.1025305 -2.2266302 -1.0680691
-4.8700161 -2.0897489 -1.0148094
-4.9749293 -2.0986919 -1.0347086
-5.07832 -2.1056738 -1.0542177
-5.0502687 -2.0578284 -1.0454386
-5.0491409 -2.021337 -1.0425122
-5.1308236 -2.0175812 -1.0573391
-5.0342202 -1.9440399 -1.0341233
-5.2625036 -1.9951236 -1.0801647
-5.3196912 -1.9795473 -1.0897241
-5.1106114 -1.8661768 -1.0429025
-5.1108851 -1.830817 -1.0405613
-5.13868 -1.8052707 -1.044073
-5.2386899 -1.8043495 -1.0628016
-5.4132247 -1.8273485 -1.0971376
-5.4476161 -1.8017941 -1.1020148
-5.4837627 -1.7764903 -1.1072823
-5.5347624 -1.7555519 -1.1156712
-5.5679121 -1.7285328 -1.1203532
-5.6534939 -1.7171242 -1.1359605
-5.7363224 -1.7038924 -1.1509825
-5.8286176 -1.692441 -1.1679553
-6.2144427 -1.7631211 -1.2456013
-6.2345963 -1.7275742 -1.2475522
-6.1627069 -1.6670212 -1.2305793
-6.814858 -1.7985029 -1.3626554
-6.870409 -1.7681354 -1.3718247
-7.0951838 -1.7795988 -1.41572
-7.1583738 -1.748824 -1.42645
-7.3254604 -1.7420574 -1.4584448
-7.8873835 -1.8245386 -1.5710119
-7.8572822 -1.7668616 -1.562623
-8.3394213 -1.8215245 -1.6586075
-8.5116348 -1.8044713 -1.6913826
-8.7531195 -1.7995838 -1.7382044
-8.8390255 -1.760778 -1.7534214
-9.0827255 -1.7514206 -1.8006332
-9.4915104 -1.7698607 -1.8812056
-9.7454395 -1.7553738 -1.9303683
-9.7550611 -1.695376 -1.9301732
-9.8117123 -1.643259 -1.9395375
-9.8467865 -1.5870793 -1.9446099
-9.8776627 -1.5299309 -1.9489019
-9.8402967 -1.4623791 -1.9395375
-9.8286934 -1.3990724 -1.9354407
-9.8234873 -1.3368883 -1.9327093
-9.8363676 -1.2772183 -1.9336848
-9.8138447 -1.2131131 -1.927637
-9.8503265 -1.1563005 -1.9334897
-9.8796568 -1.0983281 -1.9379768
-9.8979149 -1.0389142 -1.9403179
-9.9031277 -0.97806597 -1.9401228
-9.8942928 -0.91592872 -1.9371965
-9.8987494 -0.8551169 -1.9370013
-9.8637266 -0.79115289 -1.9290026
-9.8537235 -0.72953081 -1.9260763
-9.8844347 -0.67084581 -1.9313438
-9.8873854 -0.61012316 -1.9311486
-9.8654823 -0.5480324 -1.9260763
-9.8951082 -0.48879206 -1.9313438
-9.8724442 -0.42696878 -1.9262714
-9.8984013 -0.36725456 -1.9309536
-9.882822 -0.30596796 -1.927442
-9.9247141 -0.24631533 -1.9354407
-9.9436893 -0.18574145 -1.9389523
-9.8877602 -0.12401786 -1.927637
-9.9001045 -0.063419387 -1.9299781
-9.9160004 -0.0026746891 -1.9330995
-9.8805218 0.057957537 -1.9260763
-9.8829222 0.11861785 -1.9266616
-9.8927956 0.17945303 -1.9288076
-9.8777809 0.23981582 -1.9260763
-9.8869076 0.30074951 -1.9282223
-9.9132996 0.36245134 -1.93388
-9.9363661 0.42436245 -1.9389523
-9.9159422 0.48445928 -1.9354407
-9.9069071 0.54496932 -1.9342701
-9.8759661 0.60406691 -1.9288076
-9.8554382 0.66353136 -1.9254911
-9.3404484 -0.23603167 -1.9328606
-9.3153076 -0.17820889 -1.9272839
-9.3357935 -0.12130295 -1.9314147
-9.3432102 -0.064064577 -1.9328606
-9.3404922 -0.006732265 -1.932241
-9.3080702 0.050406583 -1.9254249
-9.2811689 0.10721486 -1.9198482
-9.3272943 0.16498965 -1.9297624
-9.3202372 0.22207814 -1.9285231
-9.301096 0.27873507 -1.9248053
-9.3246326 0.33671722 -1.9301755
-9.2950191 0.39277029 -1.9243922
-9.2748432 0.44894534 -1.9206743
-9.2865686 0.50664514 -1.9237726
-9.2998877 0.56462419 -1.9272839
-9.2864857 0.62102419 -1.9252183
-9.2688389 0.67699605 -1.9223268
