# .PCD v0.7 - Point Cloud Data file format
VERSION 0.7
FIELDS x y z
SIZE 4 4 4
TYPE F F F
COUNT 1 1 1
WIDTH 1515
HEIGHT 1
VIEWPOINT 0 0 0 1 0 0 0
POINTS 1515
DATA ascii
3.8982975 -8.1072311 -1.5278525
3.8590128 -8.1532612 -1.5321422
3.8130715 -8.1857166 -1.5338581
3.7475886 -8.1758213 -1.5275095
3.6985669 -8.2013569 -1.5280242
3.6493728 -8.2265978 -1.5285389
3.5968575 -8.2443199 -1.527681
3.5434854 -8.2598972 -1.52648
3.4946506 -8.2860231 -1.5273378
3.4388399 -8.2954779 -1.5251073
3.3852742 -8.3100357 -1.5239061
3.3382463 -8.3407116 -1.5257936
3.2927713 -8.3757086 -1.5285389
3.2423811 -8.3985119 -1.5290537
3.1813633 -8.3933754 -1.5244209
3.1287725 -8.4099674 -1.5239061
3.0801504 -8.437336 -1.5254503
3.0293181 -8.4588594 -1.5259651
2.9773583 -8.4772873 -1.5259651
2.9272106 -8.5009861 -1.5269947
2.8693259 -8.5019846 -1.5239061
2.817723 -8.5213013 -1.5242493
2.7681153 -8.5468655 -1.5257936
2.7138345 -8.558054 -1.5247641
2.6510556 -8.5416126 -1.5187585
2.6077514 -8.5878849 -1.5242493
2.5468783 -8.576335 -1.5192733
2.4933832 -8.5889626 -1.5187585
2.4398293 -8.6012564 -1.5182438
2.3809602 -8.5942278 -1.5142974
2.3418071 -8.6590805 -1.5233914
2.2740605 -8.6180363 -1.5134394
2.2162306 -8.6127443 -1.5100077
2.1681325 -8.6452932 -1.5134394
2.1159799 -8.662262 -1.5141258
2.059145 -8.6597471 -1.5113804
2.0064149 -8.6741381 -1.5117235
1.9579055 -8.7074327 -1.5154984
1.8993986 -8.6961823 -1.5113804
1.8276272 -8.6209326 -1.4959377
0.52639109 -2.5562706 -0.41563717
0.51242727 -2.5681481 -0.41718143
0.49665979 -2.571244 -0.41718143
0.48285878 -2.5848966 -0.41906887
0.46821076 -2.5945978 -0.42026997
0.46020478 -2.6430418 -0.42833447
1.4417888 -8.6078949 -1.4811814
0.43776157 -2.7107389 -0.43931594
0.41795629 -2.6929288 -0.43571264
0.39766264 -2.6701059 -0.43125144
1.1438217 -8.0340157 -1.3744555
1.0329159 -7.5879321 -1.2948399
1.0523702 -8.1031351 -1.3842357
0.33153221 -2.6751499 -0.43056509
0.94895172 -8.0821714 -1.3784019
0.89923388 -8.0868626 -1.3782302
0.85144597 -8.1098642 -1.3813188
0.79634953 -8.0610132 -1.3718816
0.74487776 -8.0441666 -1.3681067
0.67636919 -7.8267608 -1.3293285
0.6280964 -7.8278179 -1.3288137
0.58005399 -7.8315244 -1.3288137
0.53438711 -7.8703208 -1.3349907
0.49837965 -8.0730629 -1.3698226
0.44589043 -8.022851 -1.360557
0.17631511 -3.5542529 -0.58087373
0.33713078 -7.7895293 -1.3190334
0.29865021 -8.0434828 -1.3629591
0.24980699 -8.061903 -1.3658761
0.2006273 -8.0751028 -1.3679352
0.15482388 -8.2781067 -1.4031101
0.10684266 -8.5054722 -1.4425747
0.056715094 -8.8340225 -1.4997126
0.0025112866 -8.8460264 -1.5017717
-0.051908426 -8.8695192 -1.5058897
-0.10661633 -8.8926754 -1.5100077
-0.16134061 -8.9007196 -1.511552
-0.21556693 -8.8838034 -1.5088066
-0.27061412 -8.9000387 -1.5118952
-0.32568806 -8.9110088 -1.5141258
-0.38065392 -8.9157333 -1.5153269
-0.43593094 -8.9250374 -1.5173858
-0.49008924 -8.9113741 -1.5154984
-0.54409629 -8.8973827 -1.513611
-0.59947491 -8.9056721 -1.5156701
-0.65526497 -8.9175463 -1.5184155
-0.70942122 -8.9064837 -1.5172143
-0.76329762 -8.8931284 -1.5156701
-0.81812167 -8.891221 -1.5161848
-0.87333667 -8.8928967 -1.5173858
-0.92993456 -8.9069672 -1.5208176
-0.98814768 -8.9334068 -1.52648
-1.0401968 -8.9036913 -1.5223619
-1.0919185 -8.8736744 -1.5182438
-1.142426 -8.8365202 -1.5129247
-1.2039083 -8.8830366 -1.5223619
-1.2617131 -8.8988914 -1.52648
-1.3125374 -8.8656445 -1.5220187
-1.3690166 -8.8710546 -1.5244209
-1.4215463 -8.8508158 -1.5223619
-1.4763142 -8.844841 -1.5228766
-1.5275283 -8.8181438 -1.519788
-0.53325844 -2.9742804 -0.48735979
-0.54933614 -2.9593296 -0.48530078
-0.57176459 -2.9781542 -0.48924723
-0.59406048 -2.9948816 -0.49285051
-0.61440527 -3.0008309 -0.49456638
-1.8771628 -8.8793163 -1.541751
-1.9230081 -8.8281651 -1.534716
-0.66673249 -2.9765167 -0.49233577
-0.68232435 -2.9608507 -0.49027675
-0.6966117 -2.9403129 -0.48735979
-0.71370655 -2.9321547 -0.48667344
-2.1921878 -8.7621565 -1.5342013
-2.2400279 -8.7256393 -1.5300832
-2.2819819 -8.6679077 -1.5221902
-0.78159857 -2.8994896 -0.48409969
-0.7962234 -2.883245 -0.48204064
-0.81121534 -2.8688264 -0.4803248
-0.82770592 -2.8600099 -0.47963846
-2.5473545 -8.5957184 -1.5225334
-2.6023355 -8.5874691 -1.5239061
-2.6785991 -8.647562 -1.5378045
-0.99013102 -3.1309309 -0.53300148
-1.04085 -3.2222831 -0.55084634
-1.0575132 -3.206481 -0.5491305
-2.8786879 -8.5456123 -1.5316274
-1.1012669 -3.206305 -0.55153269
-1.1254843 -3.2125027 -0.55393487
-1.1196299 -3.1341088 -0.54072279
-3.0757303 -8.4399967 -1.525622
-3.14187 -8.4597521 -1.5328286
-1.1666657 -3.0853281 -0.53557527
-1.1774234 -3.0569696 -0.53162879
-1.2091203 -3.0827 -0.53780586
-1.2528782 -3.137429 -0.54947364
-3.4006352 -8.3612204 -1.5331718
-3.4514978 -8.3392868 -1.5330001
-3.5125453 -8.3415575 -1.5374614
-3.5659902 -8.3252811 -1.5384909
-3.621335 -8.3131781 -1.5403783
-3.6746702 -8.2962055 -1.5414078
-3.7117488 -8.2429619 -1.535574
-1.3368258 -2.9225841 -0.52081889
-1.3543178 -2.9134333 -0.52064735
-3.8708463 -8.1901665 -1.5388341
-3.9107907 -8.144948 -1.534716
-3.9671731 -8.1340799 -1.5372897
-4.0288181 -8.133419 -1.5419226
-4.0764337 -8.1041451 -1.5410646
-4.1256351 -8.0781031 -1.5408931
-4.1764841 -8.0552597 -1.5414078
-4.2350106 -8.046917 -1.5448395
-4.2726989 -7.9990568 -1.5405499
-4.3212304 -7.9718237 -1.5403783
-4.3942828 -7.9891796 -1.5491291
-4.4542651 -7.9818516 -1.5530757
-4.5017009 -7.9517984 -1.5525608
-4.5592399 -7.9394035 -1.5556494
-4.6143169 -7.9223452 -1.55788
-4.6588311 -7.8870978 -1.5565073
-4.6808076 -7.8144188 -1.5475849
-4.6928611 -7.7266135 -1.535574
-4.7065983 -7.6431508 -1.5244209
-4.7288814 -7.5748534 -1.5163563
-4.7826481 -7.5573487 -1.5187585
-4.8480825 -7.5577102 -1.5249356
-4.9271278 -7.5781989 -1.5354023
-4.9930525 -7.5774364 -1.5415794
-5.0569634 -7.5728722 -1.5470701
-5.1199007 -7.5661759 -1.5522177
-5.1879611 -7.5663037 -1.5589095
-5.2702699 -7.5861053 -1.569891
-5.2838235 -7.5069032 -1.559939
-5.3269253 -7.4703307 -1.5590811
-5.3870869 -7.4574676 -1.5633707
-5.4403081 -7.4346075 -1.5656013
-5.4881706 -7.4042516 -1.5662876
-5.5394144 -7.3783154 -1.5680035
-5.5887575 -7.3496761 -1.5692046
-5.6283383 -7.3082218 -1.5676603
-5.6870127 -7.2914147 -1.5716069
-5.7420273 -7.2695236 -1.5745238
-5.8019114 -7.2533855 -1.5788134
-5.8624325 -7.2375512 -1.5832746
-5.9492221 -7.2532353 -1.5949425
-5.9142942 -7.1211133 -1.5733227
-5.9654875 -7.0937366 -1.5753816
-6.0357304 -7.0885 -1.5825883
-6.0778241 -7.04984 -1.5822451
-6.1274462 -7.0198355 -1.583961
-6.1704035 -6.9821062 -1.583961
-6.2374377 -6.9712758 -1.5903096
-6.2926636 -6.9467435 -1.5935698
-6.340497 -6.9138098 -1.5949425
-4.0176396 -4.3279438 -0.98958975
-6.4039435 -6.813231 -1.5896232
-4.1227465 -4.3332634 -1.0028018
-4.1403708 -4.2986627 -1.0005713
-4.2217016 -4.3295946 -1.014298
-4.2412658 -4.2965994 -1.0125822
-4.2961068 -4.2990603 -1.0196172
-4.3427267 -4.2926998 -1.0245931
-3.490541 -3.4085667 -0.81079793
-3.5021698 -3.3781958 -0.80856735
-3.392993 -3.2329884 -0.7773388
-3.4206595 -3.2195337 -0.77922624
-4.5373125 -4.217823 -1.0400358
-3.5172477 -3.2299426 -0.79278147
-3.5421093 -3.2129323 -0.79398257
-3.575701 -3.203625 -0.7972427
-3.4646776 -3.0660958 -0.76687211
-3.4173951 -2.9870927 -0.75160104
-3.4274545 -2.9589882 -0.7497136
-4.6519995 -3.9660707 -1.0257943
-3.7529371 -3.1603141 -0.8156023
-3.8215017 -3.1781616 -0.82675534
-4.5521255 -3.7384977 -0.98701596
-4.5604386 -3.6987083 -0.98375583
-4.6345749 -3.7119088 -0.99525207
-4.6572638 -3.6834018 -0.99525207
-4.6634693 -3.6420252 -0.99164879
-4.7091365 -3.6313856 -0.99679631
-4.7666068 -3.6292717 -1.0045177
-4.8147764 -3.6194866 -1.01018
-4.8036642 -3.565222 -1.0029734
-4.7125888 -3.4530191 -0.97860831
-4.7911687 -3.4655991 -0.99096245
-4.8227673 -3.4435759 -0.99319303
-4.8180342 -3.3957627 -0.98770231
-4.8250289 -3.3565743 -0.98478538
-4.8569055 -3.3347099 -0.98718756
-4.9229536 -3.335784 -0.99679631
-4.8606043 -3.2502215 -0.9794662
-4.889502 -3.2263029 -0.98135364
-4.8547096 -3.1607747 -0.97002906
-4.8416815 -3.110168 -0.96333718
-4.9289179 -3.1236312 -0.97740722
-4.9939418 -3.1220431 -0.98684436
-5.0641623 -3.1228752 -0.99731106
-5.0908046 -3.0963495 -0.99885535
-5.0944986 -3.0559356 -0.99576682
-4.979166 -2.9453955 -0.96865636
-5.128212 -2.9912033 -0.99508047
-5.0422673 -2.8997827 -0.97414708
-5.2031021 -2.9499044 -1.0028018
-5.2520671 -2.9352195 -1.0089788
-5.2648005 -2.9000871 -1.0079494
-5.2426643 -2.8461149 -1.0000564
-5.2244096 -2.7948468 -0.99302143
-5.2292576 -2.756309 -0.99061924
-5.3090286 -2.7568476 -1.0029734
-5.3188272 -2.7206323 -1.0016007
-5.3011041 -2.6706655 -0.99490887
-5.3712306 -2.6647861 -1.0053756
-5.3653483 -2.6209726 -1.001086
-5.3600192 -2.5777588 -0.99696791
-5.4843783 -2.5962265 -1.0179013
-5.3171225 -2.4772711 -0.98272634
-5.3922291 -2.4720953 -0.99422252
-5.5078859 -2.4843102 -1.0134401
-5.4203587 -2.4049394 -0.99387938
-5.4503641 -2.3783307 -0.99679631
-5.4874902 -2.3545504 -1.001086
-5.5009265 -2.3204527 -1.0009143
-5.5014091 -2.2809987 -0.99834061
-5.5262508 -2.2516584 -1.0003996
-5.5637441 -2.2272222 -1.0048609
-5.5809731 -2.1944833 -1.0055472
-5.6577511 -2.1846719 -1.0173866
-5.7290888 -2.1719058 -1.0281965
-5.7210698 -2.1288137 -1.0242499
-5.7543845 -2.1010997 -1.0280248
-5.7727337 -2.067744 -1.0290544
-5.7936783 -2.0352213 -1.0305986
-5.7660012 -1.9858468 -1.0232204
-5.7155342 -1.9293311 -1.0117242
-5.796484 -1.9171036 -1.0244216
-5.7940788 -1.8769497 -1.0218477
-5.8374171 -1.8514833 -1.0276817
-5.9117098 -1.8351882 -1.0391779
-5.9681091 -1.812614 -1.0474139
-6.1217294 -1.8182907 -1.0733234
-6.2803698 -1.8235215 -1.1000906
-6.2829099 -1.782533 -1.0985464
-6.3706341 -1.7652433 -1.1124448
-6.4089255 -1.7335757 -1.1174208
-6.4946971 -1.7140659 -1.130976
-6.8781533 -1.7701271 -1.1980658
-6.9557776 -1.7446568 -1.2100768
-7.260169 -1.773676 -1.2627534
-7.3581367 -1.7498229 -1.2783676
-7.8333049 -1.8120371 -1.3614149
-7.9096375 -1.7786267 -1.3730828
-7.9598646 -1.7386745 -1.3801177
-8.0301371 -1.7024606 -1.390756
-7.990252 -1.6428466 -1.3818336
-9.6553001 -1.9232745 -1.6757591
-9.7859058 -1.8869233 -1.696864
-9.9629126 -1.8577034 -1.7262051
-10.116652 -1.8221927 -1.7514281
-10.436307 -1.8136905 -1.8059922
-10.962216 -1.8358067 -1.8969324
-11.210597 -1.8067321 -1.9387991
-11.180582 -1.7315825 -1.9315926
-11.196843 -1.6638155 -1.9326221
-11.260486 -1.6027112 -1.9420593
-11.261322 -1.5323935 -1.940515
-11.237295 -1.4589572 -1.9346812
-11.23137 -1.3881679 -1.9321073
-11.278814 -1.323817 -1.9389708
-11.279871 -1.2538254 -1.9377697
-11.290291 -1.184898 -1.9382844
-11.285584 -1.1144392 -1.9362254
-11.298096 -1.0457153 -1.9372549
-11.307244 -0.97662592 -1.9377697
-11.297311 -0.9059692 -1.9350243
-11.285955 -0.8353985 -1.9321073
-11.276125 -0.76513457 -1.9295336
-11.291424 -0.69659734 -1.931421
-11.284665 -0.62670153 -1.9295336
-11.279442 -0.55701196 -1.9279894
-11.276742 -0.48753738 -1.9269598
-11.268692 -0.41793489 -1.9250724
-11.258243 -0.34838882 -1.9228418
-11.298578 -0.28025177 -1.9295336
-11.307965 -0.21106599 -1.9309063
-11.312003 -0.14171436 -1.931421
-11.324481 -0.072376899 -1.93348
-11.324713 -0.0028898225 -1.93348
-11.314666 0.066538416 -1.9317642
-11.290401 0.1356761 -1.9276462
-11.264731 0.20450057 -1.9233565
-11.276068 0.27392817 -1.9255872
-11.279099 0.34326202 -1.926445
-11.314192 0.41383502 -1.9329653
-11.278958 0.48185882 -1.927303
-11.270869 0.55081517 -1.926445
-11.294821 0.62147993 -1.9312495
-11.280961 0.69016933 -1.9295336
-11.229333 0.75619292 -1.9212976
-10.569689 -0.26899022 -1.9319394
-10.517082 -0.20308483 -1.9218597
-10.539756 -0.1388351 -1.9258916
-10.478477 -0.073723651 -1.9143459
-10.528869 -0.0094745653 -1.9236923
-10.536593 0.055170417 -1.9251585
-10.508533 0.11950874 -1.9200271
-10.466319 0.18326436 -1.9123299
-10.512171 0.24859481 -1.9211267
-10.497674 0.31271157 -1.9187442
-10.490645 0.37694189 -1.917828
-10.494028 0.44155192 -1.9189276
-10.509778 0.50683272 -1.9224095
-10.495672 0.57072324 -1.9203936
-10.471366 0.63386613 -1.916545
-10.492783 0.6998052 -1.9213099
-10.488291 0.76417458 -1.9213099
-10.494185 0.82936668 -1.9233259
-10.467349 0.8919068 -1.919294
-10.453848 0.955401 -1.917828
-10.444854 1.0192403 -1.9172782
-10.401246 1.0794548 -1.9103141
-10.367065 1.140247 -1.9051826
-10.323744 1.1996397 -1.8984019
-10.3923 1.2722772 -1.9126965
-10.325795 1.3284949 -1.9017006
-10.320373 1.3922219 -1.9022504
-10.334997 1.458817 -1.9066488
-10.337523 1.5239239 -1.9088479
-10.317289 1.5856827 -1.906832
-10.28698 1.6456982 -1.9029834
-10.284447 1.7100767 -1.9044496
-10.29701 1.7771604 -1.9088479
-10.2743 1.8382311 -1.9066488
-10.269593 1.9024916 -1.9079316
-10.256761 1.9652839 -1.9077483
-10.2204 2.0234091 -1.9031667
-10.247282 2.0941508 -1.9106805
-10.209229 2.1517174 -1.9059157
-10.188149 2.2126508 -1.9044496
-10.173422 2.2749078 -1.9042664
-10.13053 2.3306768 -1.8987683
-10.111255 2.3916614 -1.8978521
-10.127913 2.4613175 -1.9038998
-10.146958 2.5319819 -1.9104973
-10.115042 2.59005 -1.9073818
-10.061876 2.6423292 -1.9002345
-10.008451 2.6940541 -1.8930871
-10.007844 2.7598562 -1.8962027
-9.9831524 2.8190744 -1.8947365
-9.975111 2.8830059 -1.8965691
-9.9638329 2.9461088 -1.8978521
-9.9446278 3.0069058 -1.8976687
-9.9748306 3.0829613 -1.9071985
-9.9229155 3.1337473 -1.9007843
-9.8857241 3.1888409 -1.8973023
-9.888381 3.2568183 -1.9017006
-9.8346663 3.3061552 -1.8951031
-9.8281431 3.3712213 -1.8978521
-9.8174791 3.4350331 -1.8998679
-9.7888107 3.4925647 -1.8984019
-9.7644243 3.551554 -1.8978521
-9.7359962 3.609009 -1.8965691
-9.6759624 3.6544406 -1.8890553
-9.7249231 3.7412717 -1.90335
-9.6779852 3.7915497 -1.8985851
-9.644495 3.8468554 -1.8965691
-9.6279964 3.9089186 -1.8980353
-9.5783901 3.9574115 -1.8929039
-9.5793028 4.0267744 -1.8980353
-9.5209703 4.071177 -1.8912544
-9.4768782 4.1212873 -1.8874059
-9.4577065 4.1821418 -1.8886888
-9.4408331 4.2441249 -1.8905214
-9.4029903 4.2966619 -1.888139
-9.3746662 4.3534484 -1.8877724
-9.2953215 4.3861394 -1.8769598
-9.3453579 4.4800601 -1.8929039
-9.3168087 4.5368876 -1.8927206
-9.2491417 4.5743594 -1.8844737
-9.2569189 4.6491127 -1.8919876
-9.2071991 4.6951075 -1.8875892
-9.1939316 4.7596478 -1.890888
-9.1610737 4.8141422 -1.8901548
-9.1166153 4.8623986 -1.8870394
-9.0528908 4.8999972 -1.879892
-9.0295477 4.9592381 -1.8813581
-9.016983 5.0245972 -1.8852067
-8.9782801 5.0754762 -1.8835573
-8.9563503 5.135849 -1.8855733
-8.9102221 5.1823058 -1.8824577
-8.8680944 5.2308874 -1.8802586
-8.8358316 5.2852025 -1.8802586
-8.8158445 5.3469653 -1.8830075
-8.7728214 5.3947787 -1.8808084
-8.7270403 5.4407053 -1.8780594
-8.684351 5.4883742 -1.8760434
-8.6571341 5.5457993 -1.8775096
-8.6641693 5.6255798 -1.8866729
-8.5851421 5.6494565 -1.8767766
-8.569128 5.7145715 -1.8809916
-8.5208702 5.7582369 -1.8780594
-8.4861889 5.8109665 -1.8782426
-8.4673357 5.8746953 -1.8820913
-8.4343472 5.9288001 -1.8828243
-8.4250364 5.9998283 -1.8890553
-8.3705235 6.0387578 -1.8850235
-8.3142633 6.0760846 -1.8806251
-8.2302055 6.0924783 -1.8698125
-8.2469397 6.1835527 -1.8824577
-8.2221527 6.2441454 -1.8855733
-8.1649828 6.2800946 -1.8811749
-8.1619711 6.3578639 -1.889605
-8.1220341 6.4072161 -1.8894218
-8.0679731 6.4452739 -1.8859398
-8.0244522 6.4915652 -1.8850235
-7.992075 6.5469098 -1.8868561
-7.9684 6.609632 -1.890888
-7.9359751 6.6653552 -1.8929039
-7.9293776 6.7432179 -1.901334
-7.8535833 6.7622399 -1.8929039
-7.8326921 6.8283882 -1.8980353
-7.7862244 6.872417 -1.8969357
-7.7519727 6.9272685 -1.8989516
-7.7443151 7.0063591 -1.9077483
-7.6555066 7.0119162 -1.8962027
-7.6036878 7.0507364 -1.8940035
-7.5875187 7.1228256 -1.9009675
-7.5351195 7.1611214 -1.8987683
-7.4825368 7.1990428 -1.8965691
-7.4579425 7.2640243 -1.9017006
-7.4006305 7.297225 -1.8984019
-7.4023333 7.3890271 -1.9106805
-7.3520155 7.4294167 -1.9093977
-7.2959828 7.4638433 -1.9066488
-7.278729 7.5381713 -1.9143459
-7.2228394 7.572732 -1.9117801
-7.1823053 7.6233473 -1.9134295
-7.1300364 7.6615167 -1.9119635
-7.1008554 7.7246618 -1.9169116
-7.0592718 7.7746363 -1.918561
-7.0061836 7.8119502 -1.9170948
-6.9587703 7.8555284 -1.9172782
-6.9330964 7.9239726 -1.9236923
-6.8837028 7.96562 -1.9235091
-6.8372498 8.0106983 -1.9242421
-6.7898693 8.0547552 -1.9247919
-6.7516403 8.1098642 -1.9280908
-6.7054982 8.155695 -1.9291904
-6.6559496 8.1974487 -1.9293736
-6.6049104 8.2373676 -1.9291904
-6.5756025 8.3047142 -1.9356046
-6.5160441 8.3340626 -1.9330389
-6.4593778 8.3668842 -1.9313896
-6.4108982 8.4102697 -1.9323058
-6.366858 8.4596586 -1.9346883
-6.3107266 8.4930429 -1.9334054
-6.2695436 8.5466642 -1.9368875
-6.2187142 8.5873613 -1.9374373
-6.1601887 8.6173601 -1.9356046
-6.1168337 8.6686506 -1.9387201
-6.0786991 8.7277994 -1.9436682
-6.0278163 8.7689838 -1.9445846
-5.9567876 8.7805862 -1.9389035
-5.9060802 8.8218727 -1.940003
-5.8507552 8.8563051 -1.9396365
-5.8043571 8.9043903 -1.9423854
-5.7645016 8.9629889 -1.9475169
-5.680428 8.9525375 -1.9374373
-5.6457324 9.019721 -1.9445846
-5.5861502 9.0475006 -1.9431185
-5.5463824 9.1076345 -1.9487997
-5.4964685 9.1516075 -1.9509989
-5.431695 9.1707821 -1.9478834
-5.3768091 9.2064838 -1.9484332
-5.3373885 9.2691193 -1.9548475
-5.2469249 9.2427063 -1.9422022
-5.2496457 9.3811007 -1.9649271
-5.2147775 9.4544535 -1.9737238
-5.1331911 9.4430885 -1.9645605
-5.0765452 9.4770069 -1.9651103
-5.0173821 9.5062389 -1.9647437
-4.9535155 9.5263796 -1.9625446
-4.8927288 9.5522203 -1.9616283
-4.83004 9.5741625 -1.9599789
-4.765954 9.5930538 -1.9577798
-4.7290354 9.6671524 -1.9671263
-4.6747489 9.7066154 -1.9693254
-4.6277366 9.7617655 -1.9748234
-4.5640111 9.7819586 -1.973174
-4.5178514 9.8401537 -1.9794049
-4.4715538 9.8990459 -1.9858192
-4.3963585 9.8939562 -1.9792217
-4.3272996 9.9018288 -1.9753731
-4.278883 9.9570961 -1.9812376
-4.1993413 9.9396973 -1.972441
-4.1529784 10.000684 -1.9795883
-4.0982237 10.04236 -1.982887
-4.0456748 10.090129 -1.9874686
-3.9847679 10.117507 -1.9880184
-3.9222584 10.140849 -1.9878352
-3.8617065 10.16932 -1.9887515
-3.7978625 10.189139 -1.9880184
-3.7406752 10.227022 -1.9909507
-3.6864862 10.27384 -1.9957156
-3.622725 10.294412 -1.995349
-3.5582089 10.312729 -1.994616
-3.4995887 10.348336 -1.997365
-3.4273677 10.343486 -1.9922335
-3.3768878 10.404528 -2.000114
-3.3076234 10.408189 -1.9968152
-3.2536263 10.460203 -2.0030463
-3.1873786 10.473387 -2.0017633
-3.1281037 10.509706 -2.0050621
-3.0767436 10.57401 -2.0138588
-3.0091157 10.583234 -2.0120261
-2.9412277 10.591079 -2.0100102
-2.8803029 10.624107 -2.0129426
-2.8087745 10.617822 -2.0083609
-2.7425895 10.631048 -2.0076277
-2.6847394 10.677232 -2.013309
-2.6243205 10.71451 -2.0173409
-2.5619488 10.744755 -2.0200899
-2.4855299 10.715263 -2.0114763
-2.4193029 10.728395 -2.0111098
-2.3481691 10.71903 -2.0065281
-2.2794912 10.719775 -2.0039625
-2.2212198 10.770145 -2.0109265
-2.1516252 10.76622 -2.0076277
-2.0810418 10.756056 -2.0032294
-2.0283873 10.840128 -2.0167911
-1.9614856 10.850435 -2.0164244
-1.9001099 10.892287 -2.0221057
-1.814981 10.795163 -2.00158
-1.7732131 10.957483 -2.0301695
-1.6929495 10.884619 -2.0144086
-1.6394854 10.984252 -2.0312691
-1.5621741 10.925011 -2.0182571
-1.4991064 10.963611 -2.0237551
-1.4371507 11.013544 -2.0314522
-1.3614219 10.956792 -2.0191736
-1.2967025 10.986418 -2.0232053
-1.228611 10.988305 -2.0221057
-1.1518701 10.907651 -2.0056119
-1.0945506 11.011359 -2.0237551
-1.02441 10.990461 -2.0186238
-0.95780712 11.006333 -2.0204563
-0.88621366 10.96203 -2.0111098
-0.82149857 11.001574 -2.0175242
-0.75424761 11.010329 -2.0182571
-0.6820851 10.941164 -2.0045123
-0.61786312 10.997163 -2.0142252
-0.55061996 11.005656 -2.0151417
-0.48264885 10.999006 -2.013309
-0.41459453 10.987025 -2.01056
-0.349347 11.058143 -2.0233886
-0.28178951 11.071871 -2.0255878
-0.2132019 11.039973 -2.0193567
-0.14573058 11.061717 -2.0232053
-0.077979602 11.080097 -2.026504
-0.0099781007 11.065621 -2.0237551
0.057827488 11.047779 -2.0204563
0.12594855 11.076707 -2.0259542
0.19391157 11.075726 -2.0259542
0.2607303 11.02617 -2.0169742
0.32849765 11.028294 -2.0177073
0.396054 11.023123 -2.0171576
0.46322897 11.009681 -2.0151417
0.53030121 10.996812 -2.013309
0.59712636 10.981572 -2.0111098
0.66520911 10.989476 -2.013309
0.7359612 11.035213 -2.0226555
0.79973119 10.976564 -2.0125759
0.86830568 10.98713 -2.0155082
0.93470401 10.969842 -2.013309
0.99841875 10.924741 -2.0059783
1.0672462 10.936998 -2.0094604
1.1320012 10.907754 -2.0052454
1.2058921 10.96412 -2.0171576
1.2725768 10.951632 -2.0162413
1.3383178 10.931908 -2.0140421
1.3934557 10.830862 -1.9966319
1.4541054 10.779242 -1.9885682
1.5317568 10.851883 -2.0039625
1.5931538 10.807268 -1.997365
1.6639149 10.826439 -2.0028629
1.7287607 10.806318 -2.0010302
1.7864904 10.744111 -1.9913173
1.8609065 10.782352 -2.0006638
1.9403592 10.845244 -2.014775
1.9950517 10.769338 -2.0026796
2.0686769 10.796479 -2.0101936
2.1215222 10.716078 -1.997365
2.1939261 10.735606 -2.0035961
2.2510409 10.680579 -1.9957156
2.3161161 10.664645 -1.995349
2.3862283 10.671339 -1.9993808
2.4498987 10.648832 -1.9979148
2.5099888 10.611596 -1.9936997
2.5854981 10.638982 -2.0019467
2.6635795 10.674424 -2.011843
2.7090333 10.579787 -1.9968152
2.7783926 10.580081 -2.000114
2.8348272 10.531507 -1.9940662
2.8965197 10.50349 -1.9920503
2.9635844 10.494981 -1.9938829
3.0276518 10.475655 -1.9936997
3.0854619 10.435197 -1.9894845
3.1445968 10.400072 -1.986369
3.2118342 10.391851 -1.9885682
3.274945 10.370074 -1.9882017
3.3288567 10.319844 -1.9823372
3.3915005 10.297358 -1.9819707
3.4730997 10.331332 -1.9927833
3.5310044 10.294019 -1.9896678
3.5921531 10.266591 -1.9885682
3.6590438 10.255468 -1.9907675
3.7128296 10.207879 -1.9858192
3.7480619 10.111163 -1.971158
3.8027389 10.068662 -1.9673095
3.872565 10.066242 -1.9715246
3.9324646 10.037714 -1.9706082
3.9939809 10.013396 -1.9706082
4.0597839 9.9996319 -1.9728074
4.1218147 9.9763498 -1.973174
4.1799035 9.9436207 -1.9717078
4.2365866 9.9078436 -1.969692
4.3000441 9.8879728 -1.9709748
4.3646102 9.8703928 -1.9728074
4.4222703 9.8371496 -1.9715246
4.4564004 9.7526045 -1.9597956
4.5306478 9.7562838 -1.9662099
4.5761638 9.6980715 -1.9599789
4.6190114 9.6352377 -1.9528315
4.685792 9.6226244 -1.9561303
4.7565126 9.6174841 -1.9610785
4.7942586 9.545949 -1.9522817
4.8688173 9.5478802 -1.9588794
4.9255028 9.5143337 -1.9581462
4.9755578 9.4682684 -1.9548475
5.0099678 9.393322 -1.945501
5.0637665 9.3554888 -1.9440348
5.11587 9.3147631 -1.9420189
5.184412 9.3038073 -1.9464172
5.2351127 9.2606964 -1.9440348
5.2874355 9.2207241 -1.9423854
5.3424311 9.1855583 -1.9418356
5.4016886 9.1576853 -1.9429352
5.4562635 9.1218376 -1.9423854
5.4983673 9.0654917 -1.9374373
5.5338068 8.9989243 -1.93029
5.5738378 8.9406071 -1.9249753
5.6417203 8.9270144 -1.9295568
5.6921473 8.8856068 -1.9280908
5.7342486 8.8315487 -1.9238757
5.8115659 8.8315115 -1.931756
5.8509197 8.7736025 -1.9268079
5.902442 8.7342787 -1.9260749
5.9659204 8.7124977 -1.9293736
6.0209479 8.6781511 -1.9299234
6.0718217 8.6378269 -1.9291904
6.1121631 8.5827913 -1.9251585
6.1342292 8.5028706 -1.9154454
6.1700463 8.4428473 -1.9103141
6.2164702 8.3977184 -1.9086647
6.2849822 8.382226 -1.9139793
6.3339186 8.340373 -1.9132463
6.3849745 8.3013515 -1.9132463
6.42975 8.2542629 -1.9114137
6.4778404 8.2115679 -1.9106805
6.5182872 8.1593761 -1.9077483
6.5682292 8.1192274 -1.9077483
6.6073341 8.0658436 -1.9046328
6.6579561 8.0266638 -1.9049994
6.6906438 7.9660873 -1.9002345
6.7349391 7.919642 -1.8989516
6.7834063 7.8781681 -1.8989516
6.808363 7.80972 -1.892354
6.8633103 7.7759056 -1.89437
6.9063077 7.7285151 -1.8930871
6.9489827 7.6808901 -1.8918042
7.0119162 7.6555066 -1.8962027
7.0460577 7.5986414 -1.8927206
7.0905309 7.5531144 -1.8921708
7.1394515 7.5123162 -1.8929039
7.1704173 7.4527817 -1.888872
7.208467 7.400898 -1.8868561
7.2323465 7.3348274 -1.8811749
7.2542982 7.2673516 -1.8751272
7.3246064 7.2482891 -1.8819079
7.3682404 7.2025223 -1.8817247
7.4186597 7.163322 -1.8833741
7.4418445 7.09799 -1.8780594
7.4809637 7.0481491 -1.8769598
7.5111165 6.9900584 -1.873661
7.5176797 6.9105735 -1.8644978
7.565763 6.8696027 -1.8659639
7.6026487 6.8184562 -1.864681
7.6406636 6.7684193 -1.8637648
7.6583757 6.7006941 -1.8579003
7.6993465 6.6535773 -1.8579003
7.7392793 6.6055713 -1.8577169
7.7729001 6.5522571 -1.8560675
7.8220234 6.5119882 -1.8582667
7.8580365 6.4607487 -1.8573505
7.8753996 6.3944402 -1.8520358
7.9198556 6.3503022 -1.8533186
7.9671488 6.3083005 -1.8553345
8.0126753 6.2647457 -1.8569839
7.9848237 6.1643972 -1.8414063
8.052206 6.1379347 -1.8483704
8.0700798 6.0736322 -1.8437889
8.1482258 6.054491 -1.8533186
8.1661987 5.9904246 -1.8489202
8.2012091 5.9390516 -1.8485537
8.2422943 5.8920488 -1.8496534
8.2847176 5.8458986 -1.8511194
8.305912 5.7848406 -1.8478206
8.3574524 5.7449059 -1.851486
8.4112558 5.7062116 -1.8557011
8.4575462 5.6621509 -1.8582667
8.4945898 5.6117754 -1.8588165
8.5313339 5.5611587 -1.8593663
8.5810051 5.5188107 -1.8628484
8.6064062 5.4607878 -1.8610158
8.6289186 5.4010959 -1.8586333
8.6936817 5.3676748 -1.8655974
8.7323303 5.3178096 -1.8668802
8.7580538 5.2600799 -1.8654141
8.7808599 5.2007313 -1.8633982
8.8244905 5.1536961 -1.8659639
8.8542423 5.0984721 -1.8655974
8.8571482 5.0280309 -1.8595496
8.8946953 4.9774303 -1.8610158
8.9465885 4.9346304 -1.8655974
8.9844723 4.8838682 -1.8672467
9.0116701 4.8272557 -1.866697
9.0376425 4.7700348 -1.8659639
9.0719738 4.7172127 -1.8670635
9.0902481 4.6560807 -1.8648643
9.1476097 4.6148295 -1.8709121
9.1467009 4.544179 -1.8648643
9.192955 4.4970427 -1.8687129
9.2017756 4.4315925 -1.8648643
9.2794266 4.3990536 -1.8753104
9.2821913 4.3308096 -1.8703623
9.3184166 4.278286 -1.8723782
9.3203039 4.2101011 -1.86743
9.3333836 4.1472445 -1.8648643
9.358655 4.0898976 -1.8648643
9.3609943 4.0226932 -1.8602827
9.3999901 3.9713011 -1.863215
9.4359827 3.9184508 -1.8655974
9.4252615 3.8463628 -1.8586333
9.4751463 3.7990689 -1.863948
9.5522432 3.7621155 -1.8747606
9.530221 3.6860547 -1.8657806
9.5453072 3.6247168 -1.8643146
9.5793428 3.5705435 -1.866697
9.6333847 3.523519 -1.8731112
9.6733284 3.4709845 -1.8767766
9.7000084 3.4135227 -1.8778762
9.7031136 3.3478477 -1.8743941
9.6955357 3.2787986 -1.8688961
9.7285357 3.2235756 -1.8714619
9.7490673 3.1641252 -1.8716451
9.7767305 3.1069264 -1.8732945
9.8256483 3.0562236 -1.879159
9.9081678 3.015342 -1.891621
9.885026 2.9421489 -1.8835573
9.9255457 2.8880327 -1.8879557
9.8995838 2.8147073 -1.8795255
9.8825684 2.7444406 -1.872928
9.9257889 2.6909542 -1.8780594
9.9373608 2.6287427 -1.877143
9.9809084 2.5748413 -1.8824577
9.9841261 2.5104344 -1.8800753
10.031806 2.4570785 -1.8863063
10.052431 2.3968463 -1.8874059
10.085143 2.3393419 -1.890888
10.083005 2.2737396 -1.8877724
10.082362 2.2086728 -1.8850235
10.174572 2.1635363 -1.9000512
10.138554 2.0909369 -1.8907046
10.156976 2.0298448 -1.8918042
10.112295 1.956465 -1.8809916
10.155997 1.9003482 -1.8870394
10.166499 1.8378215 -1.8868561
10.220195 1.7828413 -1.8949198
10.229973 1.7199348 -1.8947365
10.178226 1.6470795 -1.8830075
6.0996079 0.94852912 -1.1116447
5.9643312 0.89003694 -1.0850713
0 0 -0
0 0 -0
0 0 -0
0 0 -0
0 0 -0
0 0 -0
0 0 -0
0 0 -0
0 0 -0
0 0 -0
0 0 -0
0 0 -0
0 0 -0
0 0 -0
0 0 -0
0 0 -0
0 0 -0
0 0 -0
0 0 -0
0 0 -0
0 0 -0
0 0 -0
0 0 -0
0 0 -0
0 -0 -0
0 -0 -0
0 -0 -0
0 -0 -0
0 -0 -0
0 -0 -0
0 -0 -0
0 -0 -0
0 -0 -0
0 -0 -0
5.9326391 -0.39584661 -1.0693105
5.9438252 -0.43324074 -1.0718763
5.9616356 -0.47132888 -1.0757248
0 -0 -0
0 -0 -0
6.0644679 -0.59195876 -1.0968003
9.6189928 -0.99830204 -1.763702
9.3283291 -1.0260396 -1.7103719
9.1763592 -1.0663563 -1.6830653
9.1062174 -1.1148789 -1.6711531
9.1577072 -1.1782571 -1.6821491
9.209734 -1.2424402 -1.6933281
9.22822 -1.3026354 -1.6982764
9.2278337 -1.3603809 -1.6997424
9.2115393 -1.4157819 -1.6982764
9.1648207 -1.4662211 -1.691129
9.1372261 -1.5193647 -1.687647
9.0841379 -1.5678791 -1.6794001
9.0191879 -1.6137221 -1.6689539
8.9955835 -1.666526 -1.6663883
8.9504299 -1.7150319 -1.6597906
8.9214153 -1.7662916 -1.6563087
8.9132996 -1.8215896 -1.6568584
8.3719263 -1.7645578 -1.5558794
8.7701902 -1.9047573 -1.6339504
8.8792191 -1.9855602 -1.6570417
8.8639946 -2.0393436 -1.6564919
8.8608818 -2.0959561 -1.6583246
8.8488092 -2.1505179 -1.6585078
8.8306789 -2.203583 -1.6575915
7.3903742 -1.8924856 -1.3830603
8.8086777 -2.3132811 -1.658691
8.813303 -2.3723962 -1.6623564
8.7568817 -2.4149315 -1.6542927
8.7296 -2.4651446 -1.6519103
8.7029772 -2.5153871 -1.6497111
8.6892643 -2.5692976 -1.6500776
7.9798183 -2.4128997 -1.5150113
7.9207187 -2.4481757 -1.5063978
7.8999233 -2.4949541 -1.5052983
7.8807235 -2.5421731 -1.5045651
7.9135308 -2.6064701 -1.5140949
8.6214218 -2.8983469 -1.6564919
8.6192837 -2.9566143 -1.6596074
8.6056194 -3.0110686 -1.6605238
8.5666122 -3.0565481 -1.6564919
8.5403051 -3.1063664 -1.6550258
8.5109444 -3.154952 -1.6530099
8.4610767 -3.1956539 -1.6469622
7.5724154 -2.9132764 -1.4734101
8.406579 -3.2935066 -1.6440299
8.3816462 -3.3432055 -1.6431135
8.3527775 -3.3912435 -1.6414641
8.3399887 -3.4458096 -1.6431135
8.3168764 -3.496156 -1.642747
8.2880363 -3.54403 -1.6412809
8.2228613 -3.5760012 -1.6324842
8.1791868 -3.6168475 -1.6280859
8.1532536 -3.6653538 -1.6273527
8.1091499 -3.7055073 -1.6229544
8.065753 -3.745672 -1.6187392
8.0017214 -3.7757959 -1.6103091
7.9438295 -3.8082502 -1.6031618
8.0086994 -3.8999569 -1.6214882
8.0242729 -3.9686337 -1.6297352
8.0516024 -4.0438242 -1.6405479
8.0467815 -4.1034226 -1.644763
8.0240707 -4.1540751 -1.6453128
7.9879885 -4.1977444 -1.6431135
7.9551415 -4.2429781 -1.6416475
7.9073434 -4.2800121 -1.6370658
7.8852415 -4.3308163 -1.6379821
7.838768 -4.3681126 -1.633767
7.7972693 -4.4079041 -1.6306515
7.7734876 -4.4576201 -1.6313846
7.7238951 -4.492384 -1.6266197
7.6911044 -4.536696 -1.6255201
7.658061 -4.5807748 -1.6244205
7.5617237 -4.5863857 -1.609576
7.6238813 -4.6883087 -1.6293687
7.5582643 -4.7121177 -1.621305
7.4976296 -4.7384496 -1.6143409
7.4526854 -4.7742906 -1.6108589
7.4051108 -4.8081522 -1.606827
7.3615084 -4.8443127 -1.6037116
7.3422785 -4.896481 -1.606094
7.3414192 -4.9612546 -1.6126915
7.3278737 -5.0178704 -1.6165401
7.2767534 -5.0487299 -1.6119585
7.2408123 -5.0898924 -1.6108589
7.2182536 -5.1404977 -1.6128749
7.1467128 -5.1559353 -1.6037116
7.1371665 -5.2159295 -1.608843
7.0844836 -5.2444177 -1.6040781
7.0443058 -5.2818913 -1.6022455
7.0282054 -5.3375001 -1.606094
6.9719453 -5.3625445 -1.6005961
6.8939271 -5.3701859 -1.5899667
6.8731961 -5.4221263 -1.592899
6.8551588 -5.4764686 -1.5965642
6.8046122 -5.5048261 -1.5925324
6.7714677 -5.5470977 -1.5927156
6.7501669 -5.5992112 -1.5958312
6.703639 -5.6304088 -1.592899
6.6674676 -5.6701617 -1.5925324
6.6288257 -5.7077589 -1.591616
6.5892324 -5.7444491 -1.5905164
6.5568094 -5.787374 -1.5912496
6.4969845 -5.805881 -1.5852017
6.4692574 -5.852891 -1.5872177
6.4252481 -5.8851719 -1.5852017
6.3421597 -5.8810401 -1.5732895
6.3647294 -5.9750142 -1.5883173
6.3087068 -5.9956708 -1.5833691
6.2618809 -6.0247259 -1.5808034
6.2459235 -6.083611 -1.5863013
6.2063775 -6.11975 -1.5857515
6.1673193 -6.1563277 -1.5853851
6.1259708 -6.1905599 -1.5844687
6.0892453 -6.2294378 -1.5848353
6.0365672 -6.251833 -1.5809867
5.9885936 -6.2787962 -1.578421
5.944562 -6.3096991 -1.5769548
2.2355075 -2.4025505 -0.57266217
2.219393 -2.4147747 -0.57229567
2.2065172 -2.4305305 -0.57284546
2.1941876 -2.4469509 -0.57357848
5.752779 -6.4942288 -1.5782377
5.6862807 -6.4990726 -1.5707239
5.6507959 -6.5390468 -1.5720067
5.6003551 -6.5616331 -1.5690745
5.5637898 -6.6003823 -1.5701741
5.5043159 -6.6117325 -1.564676
5.4467854 -6.6248798 -1.5597279
5.448792 -6.7108331 -1.5723733
5.4044375 -6.7403054 -1.5714569
5.3751841 -6.7887535 -1.5751222
2.0187099 -2.5823941 -0.5719291
1.9986211 -2.5892851 -0.57064629
1.9797161 -2.5975909 -0.56972992
1.9590108 -2.6034057 -0.56826383
1.9347908 -2.6043303 -0.56569809
1.8094529 -2.4671371 -0.53124428
1.7931275 -2.4766009 -0.53087771
1.7658913 -2.4707627 -0.52702916
4.8653173 -6.8951707 -1.5340708
4.8302221 -6.9353805 -1.5364532
4.8204346 -7.0126839 -1.5472659
4.7315044 -6.9746084 -1.5320549
4.7465944 -7.0900979 -1.551481
4.7176323 -7.1412349 -1.5564291
4.6678205 -7.1609888 -1.5544132
4.6136894 -7.1737857 -1.5509312
4.5627375 -7.1911693 -1.5485488
4.5446081 -7.2606936 -1.5577121
4.4762135 -7.2499652 -1.5492818
4.4295988 -7.2739358 -1.5485488
1.7309476 -2.8825595 -0.58768994
1.7092199 -2.8863597 -0.58622378
1.7043684 -2.9188638 -0.5909887
4.2183557 -7.3259311 -1.5368198
4.208756 -7.414084 -1.5501982
4.1579037 -7.4303322 -1.5481822
4.1017876 -7.4367676 -1.5441504
4.0565486 -7.4626594 -1.5443337
4.0190382 -7.5030074 -1.5476325
3.9683361 -7.5188327 -1.5457997
3.9112413 -7.5221081 -1.5414014
3.8735287 -7.5625892 -1.5448835
3.8150964 -7.5625172 -1.5399354
3.7668722 -7.582262 -1.5392022
3.7336698 -7.632607 -1.5448835
3.6714096 -7.6234879 -1.538286
3.634671 -7.667191 -1.5426843
3.5950401 -7.7053838 -1.5459831
3.5435908 -7.7183638 -1.5441504
3.4787619 -7.7014384 -1.53627
3.4318407 -7.723537 -1.5364532
3.3824167 -7.7399449 -1.5355369
3.3441777 -7.7822299 -1.5399354
3.2929204 -7.7944527 -1.538286
3.2322125 -7.7836432 -1.5320549
3.1843922 -7.803329 -1.5320549
3.1401107 -7.8318458 -1.5338875
3.0865922 -7.8372455 -1.5311385
3.0451841 -7.8734574 -1.5346206
2.9905338 -7.875452 -1.5313219
2.9552031 -7.9286566 -1.538286
2.9051473 -7.9429469 -1.5375528
2.8600082 -7.9708014 -1.5395688
2.8028872 -7.9650173 -1.5349871
2.7565274 -7.9895 -1.5364532
2.7049332 -7.9988132 -1.5349871
2.6471436 -7.9891315 -1.5298557
2.5995908 -8.0098991 -1.5307721
2.5489054 -8.0210142 -1.5298557
2.5098619 -8.0693579 -1.53627
2.4574394 -8.075201 -1.5344373
2.4137347 -8.1099138 -1.538286
2.3565111 -8.0990858 -1.5333377
2.2944026 -8.0698967 -1.5249076
2.2482636 -8.096137 -1.52729
2.2008598 -8.1183186 -1.5289394
2.1562855 -8.1516275 -1.5327879
2.1054907 -8.161849 -1.5322381
2.0520144 -8.1612673 -1.5296725
2.0037704 -8.1813431 -1.5311385
1.9507962 -8.1820087 -1.5289394
1.8963344 -8.1756296 -1.5254574
1.8420246 -8.168891 -1.5219753
1.7828192 -8.1387482 -1.5140949
1.7361193 -8.1649189 -1.5170271
1.6883708 -8.1869707 -1.5192263
1.6253872 -8.1335526 -1.5071309
1.5804929 -8.1694326 -1.512079
1.5279855 -8.1664143 -1.5096966
1.4799474 -8.1872444 -1.5118958
0.45233235 -2.5947583 -0.45189047
1.3725187 -8.164073 -1.5041987
1.3245981 -8.1859264 -1.5067643
1.2441212 -7.9996243 -1.4701113
1.1804972 -7.9098787 -1.4517848
1.1015977 -7.7048244 -1.411833
1.0551003 -7.7172828 -1.4129326
1.0149806 -7.7791748 -1.4233787
0.96371305 -7.7569647 -1.418064
0.91252583 -7.7324672 -1.4123828
0.86571878 -7.7437825 -1.4134824
0.82076937 -7.7733893 -1.418064
0.7681936 -7.7293673 -1.4089007
0.72303438 -7.7584057 -1.4134824
0.67550135 -7.7636757 -1.4136657
0.62587029 -7.7431779 -1.4090841
0.57424593 -7.6919737 -1.3988212
0.52629864 -7.6845641 -1.3968053
0.47754586 -7.6621385 -1.3920404
0.42886743 -7.635479 -1.3865424
0.38068166 -7.6114573 -1.3815943
0.33354017 -7.6038284 -1.3797616
0.28784239 -7.6312733 -1.3845265
0.24340531 -7.7085543 -1.3986379
0.19815582 -7.7904873 -1.4136657
0.15152963 -7.8524952 -1.4250281
0.10574714 -8.0351276 -1.4589322
0.057798598 -8.2273178 -1.4946688
0.0074272235 -8.3464689 -1.5168439
-0.043842092 -8.3571711 -1.5188599
-0.095175609 -8.361659 -1.5197761
-0.14661738 -8.3687811 -1.5212423
-0.19768605 -8.3559303 -1.5190431
-0.24936263 -8.3683176 -1.5216088
-0.30105758 -8.3764534 -1.5234414
-0.35071471 -8.3331966 -1.5157443
-0.40254936 -8.3456163 -1.5184933
-0.45497635 -8.3655672 -1.5227084
-0.50273621 -8.3037415 -1.5117124
-0.55524671 -8.3240414 -1.5161109
-0.60688281 -8.3283215 -1.5175769
-0.66254044 -8.3822622 -1.5283896
-0.70595169 -8.2840052 -1.5107962
-0.75766248 -8.2893076 -1.5126288
-0.81251889 -8.3255959 -1.5203259
-0.86399424 -8.3243647 -1.521059
-0.91645205 -8.3316107 -1.5234414
-0.96823716 -8.3316889 -1.524541
-1.0222074 -8.3490105 -1.5289394
-1.0715356 -8.3279552 -1.5261904
-1.1174906 -8.2832279 -1.5190431
-1.170355 -8.2908173 -1.5217921
-1.2265078 -8.3194647 -1.5285729
-1.2797714 -8.3263569 -1.5313219
-1.3289738 -8.3066988 -1.5291227
-1.3823359 -8.3129339 -1.5318717
-1.4304755 -8.2878275 -1.5287561
-1.4840713 -8.2943773 -1.5316883
-1.5365479 -8.2938147 -1.5333377
-1.5864841 -8.2794027 -1.5324215
-1.6233213 -8.1991148 -1.5190431
-0.61228329 -2.9946547 -0.53069448
-0.63105202 -2.9927652 -0.53106099
-0.6502378 -2.9926796 -0.53179407
-0.66987526 -2.9943898 -0.53289366
-0.68669325 -2.9835167 -0.53161079
-0.70747554 -2.9897704 -0.53362674
-0.71977216 -2.9605362 -0.52886182
-0.73721021 -2.9532027 -0.52831203
-2.1007066 -8.2036791 -1.5395688
-2.1460106 -8.1716185 -1.5359035
-0.78301305 -2.9078062 -0.5222643
-0.79953378 -2.8982086 -0.52134794
-0.81516486 -2.8856795 -0.51988184
-1.0116161 -3.4992189 -0.63992047
-1.045331 -3.534426 -0.64798415
-2.4524431 -8.1106176 -1.5404851
-2.4914234 -8.0606651 -1.5337043
-2.5464602 -8.0630379 -1.5371864
-1.0403225 -3.2242196 -0.59245479
-1.0585489 -3.2131069 -0.59153849
-2.7138622 -8.0725737 -1.5485488
-1.1007694 -3.2082441 -0.59318787
-1.121408 -3.2042131 -0.59373766
-2.8299515 -7.9314394 -1.5307721
-2.901412 -7.9767485 -1.5432341
-1.1371487 -3.066884 -0.57064629
-1.1594185 -3.0690455 -0.57247889
-1.1842278 -3.0774715 -0.57559443
-1.2192239 -3.1113377 -0.58384132
-1.2477602 -3.1275392 -0.58860624
-3.2096875 -7.9055395 -1.551481
-3.2525043 -7.8720675 -1.548732
-3.3175056 -7.8918381 -1.5567957
-3.3511806 -7.8369851 -1.5498316
-3.3999884 -7.818078 -1.5501982
-1.3063759 -2.9536195 -0.56294912
-1.3135922 -2.9213388 -0.55800098
-1.3359864 -2.9230595 -0.56001687
-3.5817213 -7.7126679 -1.5461663
-3.6512103 -7.7376661 -1.5558794
-3.6952195 -7.7080255 -1.5544132
-3.7411544 -7.6825552 -1.5538634
-3.7895308 -7.6620989 -1.5544132
-3.8408847 -7.6474876 -1.5562459
-3.8908625 -7.6299071 -1.5575287
-3.9412208 -7.612874 -1.5589949
-3.9942601 -7.6007309 -1.5615606
-4.0366588 -7.5682726 -1.5599113
-4.0909753 -7.5580597 -1.5630267
-4.142952 -7.5431557 -1.5652258
-4.1867657 -7.513299 -1.5643096
-4.2139215 -7.4540915 -1.5571622
-4.2326851 -7.3811903 -1.5470827
-4.2853088 -7.3678269 -1.5498316
-4.3269405 -7.3354669 -1.5485488
-4.3769145 -7.3172159 -1.5503814
-4.4283566 -7.3011494 -1.5527638
-4.4699831 -7.2688155 -1.5516642
-4.5275006 -7.2621074 -1.5562459
-4.6050596 -7.2865458 -1.5677916
-4.6571059 -7.2697415 -1.5703573
-4.7117953 -7.2566957 -1.5738393
-4.7427239 -7.2071171 -1.5692577
-4.8070364 -7.2081428 -1.5760385
-4.8500733 -7.1768827 -1.575672
-4.9029045 -7.1599665 -1.5786042
-4.9075203 -7.0732074 -1.5657756
-4.9813547 -7.0863929 -1.575672
-5.0355763 -7.0709095 -1.579154
-5.0857692 -7.0494456 -1.5813532
-5.1300883 -7.0196948 -1.5817198
-5.1748185 -6.9904556 -1.5822695
-5.2229209 -6.9656506 -1.5839189
-5.2619958 -6.9287748 -1.5828193
-5.2792397 -6.8636289 -1.5751222
-5.3333364 -6.8466182 -1.5787874
-5.3770728 -6.8160801 -1.5793374
-5.4194078 -6.7837267 -1.5795206
-5.4448552 -6.730474 -1.5747557
-5.5396223 -6.7623415 -1.5905164
-5.6004663 -6.7516804 -1.5961977
-5.6715031 -6.7525711 -1.6048112
-3.6017425 -4.235014 -0.99728739
-3.6238117 -4.2083645 -0.99618781
-3.595304 -4.1238031 -0.98079354
-3.6888425 -4.1790562 -1.0000364
-3.7452011 -4.1907969 -1.0086498
-3.8598776 -4.2661557 -1.0333906
-3.6974163 -4.0365028 -0.98134333
-3.893224 -4.1982832 -1.0282592
-3.8926713 -4.1463623 -1.0211118
-3.9146538 -4.1188364 -1.0201955
-3.9977849 -4.1549568 -1.035773
-4.0074286 -4.114151 -1.0315579
-4.0277658 -4.0845842 -1.0302751
-4.0562248 -4.0632725 -1.0311915
-4.1649284 -4.1212883 -1.0531832
-3.4935 -3.4146321 -0.87156755
-3.4839778 -3.3637681 -0.86368716
-3.4255927 -3.2670107 -0.84334469
-3.4319797 -3.2331214 -0.83986264
-4.3181729 -4.0183806 -1.0605139
-3.5010688 -3.2180405 -0.84737653
-3.5265708 -3.2017846 -0.84884268
-3.5607867 -3.1932135 -0.85250795
-3.3823726 -2.9959471 -0.80320966
-3.4051306 -2.9790211 -0.80430925
-3.7290397 -3.2222657 -0.87963122
-3.7240665 -3.1782625 -0.87358344
-3.7607849 -3.1699257 -0.87779856
-4.2342124 -3.5248246 -0.98794085
-4.3856068 -3.6055434 -1.0192792
-4.3626213 -3.5420043 -1.0084666
-4.391942 -3.5213189 -1.0102992
-4.4335041 -3.5101714 -1.0150641
-4.4224324 -3.4574695 -1.007367
-4.4832482 -3.4609082 -1.0167135
-4.4973636 -3.4279706 -1.0150641
-4.5175271 -3.3997195 -1.0148808
-4.4507174 -3.3068516 -0.99453843
-4.5486026 -3.336467 -1.0124984
-4.4535413 -3.224884 -0.98592496
-4.6115956 -3.2964058 -1.0176299
-4.475913 -3.1580865 -0.98207641
-4.4992399 -3.1333728 -0.98299271
-4.5758982 -3.1452475 -0.99600452
-4.6235838 -3.1364286 -1.0024188
-4.573307 -3.061511 -0.98684126
-4.564939 -3.0155091 -0.98079354
-4.6097088 -3.0046222 -0.98665798
-4.5941586 -2.9544771 -0.97914416
-4.6487231 -2.9494078 -0.98720783
-4.7750573 -2.9886379 -1.0110322
-4.7314081 -2.9210622 -0.99747062
-4.6728382 -2.8454432 -0.98079354
-4.7433014 -2.8486073 -0.99233925
-4.8342767 -2.8630369 -1.0082833
-4.8695793 -2.8437324 -1.0121318
-4.8537126 -2.7946668 -1.0049845
-4.870769 -2.7648323 -1.0049845
-4.9056568 -2.7449758 -1.0088331
-4.8673167 -2.6844349 -0.99710411
-4.7990556 -2.6085045 -0.97914416
-4.8990259 -2.6240389 -0.99692082
-4.8654799 -2.5677724 -0.98647475
-4.8759108 -2.5351486 -0.98537517
-4.8712506 -2.4948745 -0.98116004
-4.9198189 -2.4817653 -0.98812413
-5.0273943 -2.4974608 -1.007367
-5.0231967 -2.457062 -1.0033351
-4.9876943 -2.4018784 -0.99288905
-5.0742893 -2.4053421 -1.0077335
-5.1156783 -2.3866322 -1.0132314
-5.1284389 -2.3543777 -1.0128649
-5.1015782 -2.3042483 -1.0044347
-5.1264009 -2.277693 -1.0066339
-5.1159587 -2.2355652 -1.0016857
-5.1684165 -2.2208233 -1.0095662
-5.2489567 -2.2173824 -1.0231278
-5.2515688 -2.180609 -1.0209286
-5.248467 -2.1416583 -1.0176299
-5.248735 -2.1042917 -1.0150641
-5.213985 -2.0533121 -1.0055343
-5.3465943 -2.0677414 -1.0295421
-5.5310373 -2.1001644 -1.0638126
-5.4167023 -2.0188005 -1.038522
-5.3440499 -1.9544556 -1.0216616
-5.3670449 -1.9256129 -1.0238608
-5.4751992 -1.9265875 -1.0429204
-5.5129375 -1.9019349 -1.0480518
-5.5794473 -1.8866552 -1.0588645
-5.3958888 -1.7877527 -1.0205621
-5.6405158 -1.8304888 -1.0663784
-5.8137217 -1.8473589 -1.0980831
-5.8108673 -1.8072717 -1.0953342
-5.8321919 -1.7747316 -1.0973501
-5.8194165 -1.7319007 -1.0927685
-6.1716285 -1.7955979 -1.1591104
-6.2704682 -1.7827026 -1.1761541
-6.2623444 -1.7389325 -1.1724888
-6.3620839 -1.7246579 -1.1897157
-6.3554397 -1.6810625 -1.186417
-6.8625212 -1.7702402 -1.2820814
-7.1182718 -1.7897174 -1.3291805
-7.1042938 -1.7399253 -1.3244156
-7.7966409 -1.8588953 -1.4550836
-7.8433323 -1.8192414 -1.4618644
-8.0499783 -1.8152045 -1.4992504
-8.5190201 -1.8661383 -1.5866679
-9.0466661 -1.9236511 -1.6850812
-9.0611877 -1.8687013 -1.685631
-9.1592426 -1.83041 -1.702125
-9.3671932 -1.812277 -1.739511
-9.5443382 -1.7858723 -1.7710326
-10.032034 -1.8135084 -1.8613822
-10.404198 -1.8149465 -1.9297402
-10.427741 -1.7531928 -1.9321226
-10.492646 -1.6979728 -1.9423854
-10.486354 -1.63099 -1.9392699
-10.517554 -1.5698098 -1.9433018
-10.528934 -1.5055242 -1.9436682
-10.494144 -1.4348967 -1.9354213
-10.501777 -1.3703517 -1.9352381
-10.521694 -1.3073432 -1.9374373
-10.505111 -1.2398771 -1.9328556
-10.536944 -1.1781274 -1.9374373
-10.537131 -1.1127288 -1.9361545
-10.52811 -1.0464969 -1.9332222
-10.596976 -0.98771918 -1.9449512
-10.577374 -0.92046195 -1.9401863
-10.565186 -0.8541165 -1.9368875
-10.54768 -0.78758919 -1.9326724
-10.58664 -0.72520781 -1.9390867
-10.550663 -0.65772641 -1.9315728
-10.512296 -0.59060359 -1.9236923
-10.510812 -0.52584445 -1.9227761
-10.550179 -0.46293733 -1.9295568
-10.521385 -0.39700657 -1.9236923
-10.525589 -0.33250323 -1.9240589
-9.9069357 0.72809482 -1.9366112
-9.8758841 0.78676283 -1.9313438
-9.8591442 0.84633732 -1.9290026
-9.803957 0.90222627 -1.9190531
-9.8363037 0.96610868 -1.9266616
-9.8360434 1.0270567 -1.9278321
-9.7769156 1.0815606 -1.9172972
-9.8129578 1.1465434 -1.9258813
-9.7872429 1.2044547 -1.9221745
-9.7514601 1.2608349 -1.9165169
-9.774641 1.324864 -1.9227598
-9.7449646 1.3817835 -1.9184678
-9.7401829 1.4421265 -1.9192481
-9.6952868 1.4963245 -1.9120299
-9.7285309 1.5626345 -1.9206138
-9.6984444 1.6189047 -1.9165169
-9.7153873 1.6830736 -1.9219794
-9.6836395 1.7388384 -1.9176874
-9.6843596 1.8003758 -1.9200284
-9.6914291 1.8632846 -1.9237353
-9.6384497 1.9144936 -1.9153464
-9.6418934 1.9767514 -1.9184678
-9.6017561 2.0299892 -1.9128102
-9.5852861 2.0880308 -1.9120299
-9.553154 2.1425109 -1.908128
-9.5570297 2.2050586 -1.9116396
-9.5127831 2.2564108 -1.9053967
-9.5044756 2.3161316 -1.9065672
-9.4967451 2.3760736 -1.9079329
-9.4534893 2.4269798 -1.9020802
-9.4554911 2.4894364 -1.9055918
-9.4523478 2.5507307 -1.908128
-9.4261208 2.6058052 -1.905982
-9.4080667 2.6630592 -1.9055918
-9.379303 2.7171867 -1.9030557
-9.4226351 2.7925289 -1.9155414
-9.3809195 2.8428938 -1.9104691
-9.3595524 2.8992393 -1.9096887
-9.3874035 2.9711208 -1.9192481
-9.3270016 3.0150843 -1.9104691
-9.2738667 3.060879 -1.9032507
-9.2214518 3.1064489 -1.8962275
-9.2235498 3.1703072 -1.9007145
-9.2113276 3.229439 -1.9022753
-9.2171965 3.2951455 -1.9077379
-9.2032547 3.3539908 -1.9091034
-9.1705494 3.4059572 -1.9065672
-9.1687412 3.4694541 -1.9106642
-9.1125059 3.5122392 -1.9032507
-9.1245623 3.5813489 -1.9104691
-9.0623446 3.6212509 -1.9018852
-9.0335951 3.6742008 -1.9005195
-9.0190353 3.7329376 -1.9022753
-8.9878263 3.7847803 -1.9005195
-8.9959869 3.8533773 -1.9073477
-8.9011431 3.8775501 -1.8919355
-8.8969107 3.9408345 -1.8962275
-8.8725624 3.9953508 -1.8962275
-8.8532314 4.0521665 -1.897398
-8.8015242 4.0939999 -1.8915453
-8.7895384 4.1542158 -1.8944716
-8.7559261 4.2042475 -1.8927158
-8.7352533 4.2604742 -1.8938864
-8.7010374 4.3100734 -1.8921306
-8.6498957 4.3510375 -1.8866681
-8.6466179 4.4160776 -1.8919355
-8.6184874 4.4685979 -1.8917404
-8.6152067 4.5341887 -1.897203
-8.5803032 4.5832672 -1.8956422
-8.5373621 4.6278815 -1.8923256
-8.4821663 4.6655221 -1.8862779
-8.4705076 4.7270408 -1.8901796
-8.4165936 4.7649102 -1.8845221
-8.4033575 4.8257456 -1.8882288
-8.3981647 4.8915353 -1.8938864
-8.3283062 4.9195237 -1.8847171
-8.297122 4.9700289 -1.8845221
-8.2790432 5.0284839 -1.8874484
-8.2254868 5.0653005 -1.8821809
-8.1884279 5.1120391 -1.8808154
-8.1875696 5.1815963 -1.8880337
-8.1283808 5.2142577 -1.8815957
-8.1307659 5.2864923 -1.8897895
-8.0613251 5.3119936 -1.8810104
-8.0212393 5.3564539 -1.8792546
-7.9963441 5.411068 -1.8812056
-7.977551 5.470016 -1.8847171
-7.9228964 5.5043106 -1.8796448
-7.8793502 5.5460453 -1.8773037
-7.8363886 5.5880227 -1.8751577
-7.8011584 5.6354265 -1.8749627
-7.7403164 5.6640711 -1.8685247
-7.758203 5.7505951 -1.8815957
-7.7251248 5.7998571 -1.8821809
-7.6886115 5.8465543 -1.8819859
-7.659586 5.8990078 -1.8837417
-7.6101003 5.9356389 -1.8804252
-7.5889282 5.9943824 -1.8843269
-7.5382195 6.0298052 -1.8808154
-7.482028 6.0605097 -1.8759381
-7.4666896 6.1243448 -1.8815957
-7.4236898 6.1656575 -1.8802301
-7.4097366 6.2312951 -1.8864729
-7.378829 6.2830029 -1.8884239
-7.3067145 6.2993369 -1.8796448
-7.279007 6.3537273 -1.8825712
-7.2670736 6.4223056 -1.8897895
-7.231915 6.4706988 -1.8909601
-7.2233286 6.5432687 -1.899349
-7.1787071 6.5834889 -1.8981783
-7.0957747 6.5880356 -1.8866681
-7.064507 6.6401839 -1.8892043
-7.035708 6.694901 -1.8925208
-6.9966154 6.7399869 -1.893106
-6.9558301 6.7834749 -1.8933011
-6.9391994 6.8508368 -1.9003243
-6.9053564 6.901607 -1.9026655
-6.8525386 6.9333825 -1.8997391
-6.7790394 6.9437141 -1.8909601
-6.7308598 6.9795303 -1.8893993
-6.7596059 7.095983 -1.9100789
-6.7011538 7.1216092 -1.9057869
-6.6600008 7.1654668 -1.9065672
-6.6165724 7.2069197 -1.9067624
-6.5544405 7.2277637 -1.901495
-6.5040793 7.2612691 -1.8997391
-6.4873443 7.3326306 -1.908128
-6.4590073 7.3915019 -1.9132004
-6.4148135 7.4324799 -1.9135906
-6.3620901 7.4634891 -1.9114445
-6.3363857 7.5263972 -1.9176874
-6.2951012 7.5711689 -1.9192481
-6.2479043 7.6088943 -1.9190531
-6.2159233 7.6653724 -1.9237353
-6.1816449 7.7194467 -1.9278321
-6.1268635 7.7479987 -1.9254911
-6.0719652 7.7761693 -1.9231499
-6.0307236 7.8218246 -1.9252959
-5.9879622 7.865705 -1.9270518
-5.9448891 7.9093552 -1.9288076
-5.8909869 7.9385943 -1.9270518
-5.8404274 7.9722176 -1.9264665
-5.8023195 8.0230045 -1.9301732
-5.7495632 8.0536661 -1.9290026
-5.6830926 8.0647392 -1.9231499
-5.6609383 8.1389151 -1.9327093
-5.6253219 8.1945219 -1.9377817
-5.5765853 8.2313204 -1.938367
-5.5145283 8.2482595 -1.9342701
-5.4729943 8.2958593 -1.9375867
