# .PCD v0.7 - Point Cloud Data file format
VERSION 0.7
FIELDS x y z
SIZE 4 4 4
TYPE F F F
COUNT 1 1 1
WIDTH 1523
HEIGHT 1
VIEWPOINT 0 0 0 1 0 0 0
POINTS 1523
DATA ascii
5.8475204 0.86947632 -1.4974174
5.8297505 0.83030361 -1.4913759
5.8117208 0.79138184 -1.4853343
5.8164673 0.75570685 -1.4853343
5.7979436 0.71715069 -1.4792928
5.7791662 0.67885035 -1.4732512
0 0 -0
0 0 -0
0 0 -0
0 0 -0
0 0 -0
0 0 -0
0 0 -0
0 0 -0
5.7972002 0.35817578 -1.4704821
5.8070192 0.32302865 -1.472496
5.804059 0.28715193 -1.4712373
0 0 -0
5.8158498 0.21622978 -1.4735029
5.8160996 0.18051024 -1.4732512
5.8170977 0.14481992 -1.4732512
5.8188448 0.10914237 -1.4735029
5.8165016 0.073399723 -1.4727477
5.7374849 0.037189122 -1.4521058
5.7724457 0.0019983209 -1.4611681
5.8217063 -0.033703171 -1.4740064
5.8213897 -0.069423854 -1.4740064
5.7395725 -0.10367924 -1.452861
0 -0 -0
0 -0 -0
0 -0 -0
0 -0 -0
0 -0 -0
0 -0 -0
0 -0 -0
5.8289618 -0.39199334 -1.4792928
5.8467159 -0.42923853 -1.4845791
5.8700204 -0.46717656 -1.4913759
5.8901858 -0.5051688 -1.4974174
5.9679289 -0.54873896 -1.5185629
5.883543 -0.57741237 -1.4974174
7.5865407 -0.79145759 -1.9437375
7.5007381 -0.8290658 -1.922592
7.5041614 -0.87608343 -1.9248576
7.5082502 -0.92329234 -1.927375
7.4794083 -0.96636957 -1.9213333
7.4627881 -1.0108159 -1.9185643
7.4209909 -1.0515655 -1.9092503
7.2526016 -1.0731483 -1.8667076
7.0364079 -1.0853311 -1.8115784
6.8862805 -1.1054833 -1.7738186
6.7543135 -1.1268598 -1.7408419
6.6547713 -1.1522713 -1.7164239
6.6075673 -1.1859044 -1.7058512
6.5402203 -1.21529 -1.6899921
6.5497479 -1.2586837 -1.6945232
6.6463223 -1.3195741 -1.7222137
6.6570625 -1.364215 -1.7272483
6.6514072 -1.4056364 -1.7280035
6.6190157 -1.4412758 -1.7217102
6.5939937 -1.4782641 -1.7174308
6.5470767 -1.5099984 -1.7073616
6.5141459 -1.5445615 -1.7010683
6.5139489 -1.5867925 -1.7035856
6.4993958 -1.6255577 -1.7023269
6.4358654 -1.6516968 -1.6879783
6.3844285 -1.6803195 -1.6769021
6.3936205 -1.7247541 -1.6821884
6.385716 -1.7647254 -1.6829436
6.3617301 -1.8001858 -1.6794194
6.303154 -1.8254594 -1.666581
6.3011141 -1.8668491 -1.6690984
6.2913933 -1.9060379 -1.6696018
6.2398262 -1.9322973 -1.6587774
6.2370796 -1.9734669 -1.6612947
6.2036719 -2.0048559 -1.6555048
6.1921725 -2.0431864 -1.6557566
6.1749334 -2.0795982 -1.6544979
6.1620569 -2.1174479 -1.6544979
6.120635 -2.1452956 -1.6466942
6.1155586 -2.1857417 -1.6489599
6.0947576 -2.2205749 -1.646946
6.0674081 -2.2528775 -1.64317
6.0525651 -2.2897215 -1.6429182
6.0474329 -2.3302956 -1.6454356
6.0339212 -2.3677115 -1.6456873
6.0129886 -2.4021776 -1.6439252
6.0160666 -2.4463172 -1.6489599
6.0125685 -2.4879949 -1.6522323
5.9891615 -2.5214612 -1.6499667
5.9789152 -2.5604482 -1.6514771
5.940022 -2.5870399 -1.6449322
5.9311156 -2.6265731 -1.646946
5.9166527 -2.6637108 -1.6474494
5.8834763 -2.6923141 -1.6426666
5.884397 -2.7365248 -1.6477011
5.8569946 -2.7676182 -1.6446804
5.8390303 -2.8030851 -1.6444286
5.8095422 -2.832922 -1.6409044
5.7790408 -2.8620734 -1.6371285
5.7682877 -2.9009573 -1.6391423
5.7538271 -2.9380565 -1.6401492
5.7356911 -2.9733062 -1.6401492
5.7207651 -3.010246 -1.6411562
5.7064557 -3.0475707 -1.6424148
5.6782889 -3.0774555 -1.6396458
5.6465783 -3.1052444 -1.6358697
5.6291089 -3.1407757 -1.6363733
5.6072049 -3.173826 -1.6356181
5.5918217 -3.2105806 -1.6368767
5.5711803 -3.244344 -1.6366249
5.552835 -3.2794511 -1.6371285
5.5334387 -3.3139582 -1.6373801
5.5163093 -3.3498576 -1.6383871
5.4923544 -3.3816125 -1.6373801
5.4805331 -3.4208858 -1.6401492
5.4668007 -3.4591062 -1.6424148
5.4348822 -3.4857929 -1.6391423
5.4190717 -3.5227671 -1.6409044
5.3876562 -3.5495629 -1.6378837
5.3786535 -3.5911517 -1.6419114
5.365335 -3.6300519 -1.6446804
5.3389692 -3.6601686 -1.6434218
5.3219743 -3.6967235 -1.6451838
5.2841535 -3.7187271 -1.640401
5.2375946 -3.7342267 -1.632849
5.2294903 -3.7770591 -1.6376319
5.1929379 -3.7993617 -1.6333525
5.1710825 -3.8323057 -1.6338559
5.1281199 -3.8494389 -1.6275626
5.1167312 -3.890203 -1.6315904
5.0728269 -3.9061749 -1.6250453
5.0304465 -3.9229453 -1.6190038
5.0427389 -3.9825268 -1.6310868
5.018208 -4.0133934 -1.6310868
5.0183077 -4.0642076 -1.639394
4.9753146 -4.0801954 -1.6333525
4.9568868 -4.1162105 -1.6356181
4.9330187 -4.1477933 -1.6361215
4.9347425 -4.2011948 -1.6454356
4.9118037 -4.233922 -1.6464425
4.8893785 -4.2671623 -1.6477011
4.8761587 -4.3086166 -1.6522323
4.8460231 -4.3352289 -1.6509737
4.8214836 -4.3668308 -1.6517289
4.7888913 -4.3911009 -1.6497151
4.7739167 -4.4315948 -1.6539944
4.7656775 -4.4786973 -1.6607912
4.7198758 -4.4905114 -1.6542462
4.6650472 -4.4932055 -1.6444286
4.6512485 -4.5352569 -1.6494633
4.589582 -4.5303988 -1.6371285
2.3106687 -2.3093114 -0.80943513
2.2964554 -2.3234458 -0.80943513
2.2828319 -2.3381853 -0.80968684
4.5200205 -4.6862469 -1.6532393
4.4604702 -4.6816635 -1.6416596
4.4243636 -4.7011919 -1.6388905
4.3908215 -4.7232895 -1.6371285
4.4056168 -4.7979007 -1.6539944
4.3969016 -4.8477812 -1.6620499
4.3489904 -4.8544865 -1.6550014
4.3043704 -4.8644109 -1.6492115
4.2585187 -4.8725138 -1.6429182
4.2215843 -4.8904934 -1.6401492
4.1946373 -4.9199867 -1.6414078
4.1581359 -4.9382291 -1.6388905
4.1289949 -4.9651384 -1.639394
4.1009088 -4.9933715 -1.640401
4.0714121 -5.0199432 -1.6409044
4.0399284 -5.044075 -1.6406527
4.0101032 -5.0702868 -1.6411562
1.9998837 -2.5610659 -0.80490392
1.9853138 -2.5748215 -0.8054074
1.9671322 -2.5838749 -0.8044005
1.9471697 -2.5904815 -0.80263835
1.9289308 -2.5992718 -0.80163145
1.8545955 -2.5314345 -0.77595478
1.7102604 -2.3647707 -0.71881175
1.688969 -2.3657689 -0.71579099
1.7329684 -2.4591453 -0.74222279
3.677825 -5.286787 -1.6348629
3.6518908 -5.3188276 -1.6378837
3.5963829 -5.3074865 -1.6273109
3.5599828 -5.3238225 -1.6255488
3.515522 -5.327795 -1.6200107
3.4864619 -5.3549428 -1.6217728
3.4619086 -5.3892622 -1.6258005
3.4272213 -5.4079504 -1.6250453
3.3950005 -5.4305191 -1.6255488
3.356535 -5.4430108 -1.6230315
3.3210623 -5.4601965 -1.6220245
3.2830157 -5.473002 -1.619759
3.2533145 -5.4997067 -1.6217728
3.2253597 -5.5295963 -1.6247936
3.1855795 -5.5392156 -1.6217728
3.1567829 -5.5679183 -1.6245419
3.1121709 -5.5685983 -1.6190038
3.0784109 -5.5884366 -1.6192555
3.026053 -5.5740504 -1.6094379
1.5956028 -2.9830246 -0.83964288
1.5786232 -2.9953272 -0.84039807
1.5602144 -3.0049572 -0.84039807
2.9416826 -5.7508869 -1.6398975
2.8684528 -5.6936364 -1.6179968
2.8248596 -5.6937909 -1.6129622
2.7911446 -5.7136254 -1.6137174
2.7497413 -5.7175617 -1.6099415
2.7191627 -5.743948 -1.6127105
2.6818235 -5.7561383 -1.6114519
2.6432271 -5.7654476 -1.6094379
2.607403 -5.7806754 -1.6091863
2.571492 -5.7956805 -1.6089345
2.5416887 -5.8246551 -1.6127105
2.5020847 -5.8312473 -1.6101931
2.4692674 -5.8536234 -1.6122071
2.4321916 -5.8659825 -1.6114519
2.396153 -5.8807955 -1.6114519
2.3564265 -5.8864026 -1.6089345
2.325577 -5.9142604 -1.6127105
2.2861059 -5.9202933 -1.6104449
2.2356682 -5.8971071 -1.6001239
2.1997797 -5.9116211 -1.6003757
2.1674492 -5.9359164 -1.6033964
2.1342506 -5.9582148 -1.6059138
2.1088803 -6.0031557 -1.6147243
2.069169 -6.0077472 -1.6124587
2.0282426 -6.00841 -1.6091863
1.9925532 -6.0244174 -1.6101931
1.9534624 -6.0300851 -1.6084311
1.9199377 -6.0530276 -1.6114519
1.8775949 -6.0480576 -1.6069206
1.841012 -6.0613165 -1.6074241
1.8018564 -6.0660043 -1.605662
1.7659519 -6.081593 -1.6069206
1.7256962 -6.0820732 -1.6041516
1.6888617 -6.0944128 -1.604655
1.6529521 -6.1102657 -1.6061654
1.6144409 -6.11655 -1.6051586
1.5785692 -6.1329017 -1.6069206
1.5387888 -6.1340237 -1.604655
1.5011221 -6.1433501 -1.604655
1.462503 -6.1486793 -1.6036482
1.4275848 -6.1697946 -1.6069206
1.3911878 -6.1850471 -1.6086828
1.3567238 -6.2095399 -1.6129622
1.3179947 -6.2149076 -1.6122071
0.79969317 -3.8890395 -0.99244392
1.2450346 -6.2476978 -1.6167382
0.75795978 -3.929919 -1.0007511
0.74448436 -3.9915781 -1.015855
0.71963513 -3.9941661 -1.0153515
0.69362116 -3.9899254 -1.013086
0.66304642 -3.9578359 -1.0035201
0.64013636 -3.9704287 -1.0057857
0.61828285 -3.9905403 -1.0100652
0.59520978 -4.0038314 -1.0125824
0.56953931 -3.9997432 -1.0105686
0.54198182 -3.981107 -1.0047787
0.52477998 -4.0400214 -1.0193793
0.50152624 -4.0556517 -1.0226517
0.73714352 -6.2751355 -1.6031446
0.4445456 -3.9970562 -1.0057857
0.4220351 -4.0189586 -1.0108204
0.39727205 -4.0205092 -1.0105686
0.37491825 -4.0479264 -1.0171137
0.34882206 -4.0356879 -1.0133376
0.32389796 -4.0358229 -1.0128342
0.29970127 -4.0454555 -1.014848
0.27395377 -4.0337005 -1.0113238
0.24913855 -4.0343394 -1.011072
0.22341089 -4.0183988 -1.0065409
0.19903758 -4.0254936 -1.0080513
0.17416604 -4.0227714 -1.0070443
0.14875905 -4.0044217 -1.0020097
0.12382451 -3.9936514 -0.99898899
0.098979473 -3.9807911 -0.99546474
0.074479073 -3.977453 -0.99445778
0.050023373 -3.9739642 -0.99345088
0.025683021 -3.9809706 -0.99521297
0.0012581677 -3.98686 -0.99672335
-0.023271216 -3.9984062 -0.99974418
-0.047907814 -4.0068979 -1.0020097
-0.072684318 -4.0171723 -1.0047787
-0.097705454 -4.0321312 -1.0088065
-0.12276645 -4.0420966 -1.0115756
-0.14834084 -4.0625443 -1.0171137
-0.17305958 -4.0567231 -1.015855
-0.19940759 -4.0855513 -1.0236586
-0.22203352 -4.0397987 -1.012079
-0.24870335 -4.0692725 -1.0201344
-0.27055341 -4.0213203 -1.0080513
-0.30039075 -4.090044 -1.0264277
-0.32080141 -4.0292745 -1.011072
-0.34560117 -4.0281944 -1.0113238
-0.3674776 -3.9951582 -1.0032684
-0.39292914 -4.00246 -1.0057857
-0.41848406 -4.0095997 -1.008303
-0.44902998 -4.0608249 -1.0224
-0.47584525 -4.0743351 -1.0266794
-0.50012749 -4.0655751 -1.025169
-0.52146912 -4.034595 -1.0178689
-0.5475136 -4.0409098 -1.0203861
-0.57827002 -4.0796366 -1.0314623
-0.60385776 -4.0798411 -1.0324693
-0.62814242 -4.0712767 -1.0312107
-0.65556502 -4.0826349 -1.0352383
-0.67869276 -4.0670805 -1.0322175
-0.70462549 -4.0685611 -1.0337279
-0.72735465 -4.0517774 -1.0304554
-0.74919742 -4.0310621 -1.026176
-0.76880503 -3.9997776 -1.0191275
-0.78937602 -3.9750502 -1.0138412
-0.81161499 -3.9597027 -1.011072
-0.8374964 -3.9622233 -1.013086
-0.86405683 -3.9674122 -1.015855
-0.89050066 -3.9714794 -1.0183723
-0.91833156 -3.9810295 -1.0224
-0.94586658 -3.9885035 -1.0259242
-0.98268783 -4.0334015 -1.0395178
-0.74894005 -2.9935772 -0.76236129
-0.76681316 -2.9870508 -0.76185787
-0.78611201 -2.9860332 -0.76286477
-0.80719125 -2.991432 -0.76563382
-0.81882995 -2.9621687 -0.75908881
-0.8361997 -2.9542949 -0.75833362
-0.86130947 -2.9732785 -0.76487863
-1.1689689 -3.9450631 -1.0299519
-1.1982033 -3.9544885 -1.0344831
-1.2213001 -3.9433641 -1.0334762
-1.2457651 -3.9367189 -1.0337279
-1.2484729 -3.8626947 -1.0156033
-1.087199 -3.2943249 -0.86204702
-1.0910239 -3.2389803 -0.84870523
-1.099557 -3.1992748 -0.83964288
-1.1194867 -3.1933811 -0.83989465
-1.3989391 -3.9137161 -1.0407764
-1.1297715 -3.1002898 -0.817994
-1.1416999 -3.0742462 -0.8127076
-1.1667045 -3.0834768 -0.81723881
-1.2447507 -3.2297857 -0.86003315
-1.542369 -3.9302261 -1.0578941
-1.2196738 -3.0524917 -0.81472147
-1.2358291 -3.0386746 -0.81295937
-1.2511209 -3.0229859 -0.81069374
-1.268895 -3.0134685 -0.81019032
-1.6229657 -3.7894285 -1.0319659
-1.6778705 -3.852159 -1.0526078
-1.7014753 -3.8417912 -1.0526078
-1.7301803 -3.8427515 -1.0558803
-1.7654034 -3.8575847 -1.0631806
-1.7682294 -3.8019235 -1.0503422
-1.7617577 -3.7279987 -1.0322175
-1.8021882 -3.7537637 -1.0427903
-1.8820205 -3.8592029 -1.0765222
-1.8171958 -3.6689203 -1.0246656
-1.8461952 -3.6706707 -1.0284415
-1.8634024 -3.6489301 -1.0254208
-1.8964452 -3.6580496 -1.0314623
-1.9202067 -3.6489139 -1.0322175
-1.9466627 -3.6447463 -1.0344831
-1.9583846 -3.6131625 -1.0286933
-1.9786525 -3.5976861 -1.0276864
-2.0030477 -3.5897033 -1.028945
-2.004539 -3.5411279 -1.0181205
-2.0662215 -3.5984256 -1.0390143
-2.1320901 -3.6609514 -1.0616701
-2.1279397 -3.6027994 -1.0480766
-2.1370788 -3.5680866 -1.0415316
-2.1564205 -3.5507703 -1.040273
-2.1842551 -3.5473619 -1.0432937
-2.1906083 -3.5092621 -1.0357418
-2.1950243 -3.4687653 -1.0274346
-2.2355971 -3.4853745 -1.0367486
-2.2759283 -3.5008035 -1.0458111
-2.2851207 -3.4681842 -1.0400212
-2.318717 -3.4726107 -1.0458111
-2.3334737 -3.4486988 -1.0427903
-2.3529491 -3.4319212 -1.0420351
-2.3838999 -3.4317272 -1.0465662
-2.4199491 -3.4384053 -1.053363
-2.4747081 -3.4707754 -1.0684669
-2.4562953 -3.400604 -1.0508456
-2.4999712 -3.4167125 -1.0609149
-2.5168552 -3.3958657 -1.0591528
-2.5266066 -3.3656521 -1.0543699
-2.553067 -3.3577902 -1.0568873
-2.5848398 -3.3566318 -1.0616701
-2.5952702 -3.3277338 -1.0573907
-2.6504269 -3.3558002 -1.0719911
-2.6177785 -3.2729597 -1.0498388
-2.6372027 -3.2560837 -1.049587
-2.6657231 -3.2503181 -1.0531112
-2.6491408 -3.1899693 -1.038259
-2.6499805 -3.1514308 -1.0307071
-2.8543282 -3.3525116 -1.104968
-2.902014 -3.3664575 -1.1157924
-2.6897221 -3.081702 -1.0236586
-2.8886404 -3.2689433 -1.0943953
-2.9312267 -3.2764039 -1.1032058
-2.9415307 -3.2475963 -1.0994298
-2.9555159 -3.2230659 -1.0971643
-2.9851124 -3.2155106 -1.1009402
-3.0286446 -3.2225239 -1.1100025
-3.0783777 -3.2354338 -1.1213305
-2.9028134 -3.0136297 -1.0480766
-3.2441866 -3.3269978 -1.1684043
-3.250263 -3.2925642 -1.1631179
-4.6795521 -4.6828752 -1.681685
-2.8905556 -2.8571126 -1.0168619
-2.9038777 -2.8352659 -1.0153515
-3.4638231 -3.3408144 -1.2114503
-3.4513261 -3.2881193 -1.1996191
-3.2825689 -3.0891123 -1.1321549
-3.4538507 -3.210593 -1.1862773
-3.4414089 -3.1598823 -1.1749493
-3.4442458 -3.1237514 -1.1691595
-3.3869436 -3.0341022 -1.142476
-3.1431386 -2.7810822 -1.0513492
-3.0763469 -2.6884973 -1.0224
-3.0883899 -2.665776 -1.0208896
-3.1621301 -2.6957548 -1.0405247
-3.2674437 -2.7511101 -1.0707325
-3.269381 -2.7186327 -1.0656978
-3.3211503 -2.727392 -1.0775292
-3.3182807 -2.6911108 -1.0709842
-3.3437948 -2.6779602 -1.074005
-3.3320789 -2.6351776 -1.0646909
-3.3245411 -2.596215 -1.0568873
-3.3097546 -2.5521252 -1.0468179
-3.3946488 -2.5845387 -1.0694737
-3.4096696 -2.5630794 -1.0692221
-3.4540851 -2.5634527 -1.0785362
-3.4049571 -2.4947298 -1.0576425
-3.3590386 -2.4295442 -1.0380074
-3.3636441 -2.401576 -1.0347348
-3.3767345 -2.3797767 -1.0342314
-3.3968341 -2.3628819 -1.0359935
-3.4487655 -2.3677435 -1.0478249
-3.5505545 -2.4057181 -1.0752636
-3.4984779 -2.339232 -1.0543699
-3.4432981 -2.2718778 -1.032721
-3.499346 -2.2781687 -1.0458111
-3.5157015 -2.2582235 -1.0465662
-3.5466576 -2.2474892 -1.0518526
-3.5291984 -2.206188 -1.0422868
-3.5443163 -2.1855078 -1.0427903
-3.546911 -2.1571805 -1.0395178
-3.5625701 -2.1368701 -1.040273
-3.5839441 -2.1198983 -1.0427903
-3.6069152 -2.1037197 -1.0458111
-3.6306617 -2.0878215 -1.0490836
-3.6518226 -2.0702784 -1.0516008
-3.6627674 -2.0468879 -1.0510974
-3.6710196 -2.0220401 -1.0498388
-3.662945 -1.9883939 -1.0437971
-3.6460633 -1.9503577 -1.0352383
-3.6468325 -1.9220819 -1.0319659
-3.6482511 -1.8943164 -1.028945
-3.6959925 -1.8904085 -1.0395178
-3.6911008 -1.8594204 -1.0347348
-3.8125415 -1.8913701 -1.0667048
-3.7988577 -1.8556204 -1.0594045
-3.8284872 -1.8410858 -1.0646909
-3.8397117 -1.8175601 -1.0646909
-3.881495 -1.8082728 -1.0735015
-3.9233074 -1.7985408 -1.0823121
-3.9986684 -1.8034865 -1.1006885
-4.0344281 -1.7899088 -1.1077369
-4.0577531 -1.77054 -1.1112612
-4.0827699 -1.7517155 -1.115289
-4.1201921 -1.7379174 -1.1228409
-4.1459756 -1.7189062 -1.1271204
-4.20753 -1.7142531 -1.141469
-4.3069162 -1.7240174 -1.1663904
-4.3381286 -1.7057052 -1.1721803
-4.3972645 -1.6978835 -1.1857737
-4.4175539 -1.6746448 -1.1885428
-4.4440722 -1.653584 -1.193074
-4.5841317 -1.673761 -1.2290716
-4.661736 -1.6697568 -1.2476997
-4.864552 -1.708815 -1.3008151
-4.9188666 -1.6940647 -1.3128982
-5.0153613 -1.692953 -1.336561
-5.0844593 -1.681601 -1.3526717
-5.4141555 -1.7538879 -1.4400226
-5.3676209 -1.7024891 -1.4244152
-5.4445133 -1.6901858 -1.4425399
-5.9538994 -1.8083788 -1.5782232
-6.0984745 -1.8115035 -1.6144726
-6.2823415 -1.824258 -1.6612947
-6.3772092 -1.8094565 -1.6839505
-6.3378296 -1.756333 -1.670357
-6.4633937 -1.748504 -1.7013199
-6.5273376 -1.7228942 -1.7156687
-6.5790243 -1.6934279 -1.7267449
-6.6794062 -1.6756402 -1.7509111
-6.842802 -1.6720788 -1.7919433
-7.1353874 -1.697263 -1.8674628
-7.2531548 -1.678327 -1.8961602
-7.3567915 -1.6548221 -1.9210817
-7.386662 -1.6139899 -1.926368
-7.3907456 -1.5674309 -1.9248576
-7.4324541 -1.5286833 -1.9334165
-7.4568801 -1.4860771 -1.9374442
-7.468709 -1.4408447 -1.9381994
-7.4964366 -1.3985412 -1.943234
-7.4524927 -1.3430741 -1.9293888
-7.456779 -1.2966578 -1.9283818
-7.4397783 -1.2467195 -1.9218369
-7.4501543 -1.2015089 -1.922592
-7.4812961 -1.1594797 -1.9288853
-7.5016713 -1.1155472 -1.9324095
-7.5141234 -1.070316 -1.9339199
-7.5349336 -1.0261496 -1.9376959
-7.5487657 -0.98089492 -1.9397098
-7.537354 -0.93241853 -1.9351786
-7.5333214 -0.88502294 -1.9326613
-7.5270677 -0.83749783 -1.9296405
-7.5320649 -0.79129684 -1.9296405
-7.5175161 -0.74316084 -1.9246058
-7.5392809 -0.69862854 -1.929137
-7.5559602 -0.65343988 -1.9324095
-7.5424628 -0.60566974 -1.9278784
-7.5759568 -0.56159812 -1.9356821
-7.5473962 -0.51293516 -1.927375
-7.5648909 -0.46751177 -1.9311509
-7.5830779 -0.42194676 -1.9351786
-7.5613589 -0.37421274 -1.9288853
-7.5625458 -0.32776812 -1.9286336
-7.5779543 -0.28186336 -1.9321579
-7.5737371 -0.23518007 -1.9306474
-7.1961513 0.52855158 -1.9253534
-7.1918111 0.57261968 -1.9250906
-7.1987362 0.61764598 -1.927982
-7.2005754 0.66233611 -1.9295592
-7.1848536 0.70537245 -1.9264048
-7.1717539 0.74854183 -1.9240391
-7.1948361 0.79561257 -1.9316621
-7.2118597 0.84232217 -1.9377079
-7.1902761 0.88455212 -1.9332392
-7.1961956 0.9301402 -1.9363936
-7.1597586 0.97012722 -1.927982
-7.1622686 1.0152605 -1.9303478
-7.1301351 1.0553697 -1.9232504
-7.1349678 1.1008669 -1.9264048
-7.1166472 1.1427881 -1.9232504
-7.104743 1.1856387 -1.9219362
-7.0954328 1.2288805 -1.9214104
-7.0830112 1.271541 -1.9200962
-7.0798182 1.3158599 -1.9214104
-7.0754008 1.3600051 -1.9224619
-7.0584064 1.4017006 -1.9200962
-7.0411663 1.4432389 -1.9177303
-7.0378418 1.4876136 -1.9193076
-7.0229254 1.5295361 -1.9177303
-7.026588 1.5755568 -1.9214104
-6.9961057 1.6138668 -1.9156275
-7.0039082 1.6609968 -1.9206219
-6.985148 1.7018838 -1.918256
-6.9680223 1.7430718 -1.916416
-6.9469166 1.7831535 -1.9135245
-6.9451747 1.8282031 -1.9161532
-6.9235797 1.8680172 -1.9132617
-6.9259362 1.9143221 -1.9172046
-6.9038482 1.953891 -1.9143132
-6.9000697 1.9986328 -1.9166789
-6.8886018 2.0412073 -1.9169418
-6.8722539 2.0823169 -1.9158903
-6.8289351 2.1150205 -1.9072158
-6.8544617 2.1691144 -1.918256
-6.8116465 2.2016315 -1.9098445
-6.8199978 2.2506459 -1.9161532
-6.7649159 2.2785845 -1.9043244
-6.7644935 2.3247564 -1.9082673
-6.7992663 2.3834622 -1.9224619
-6.773612 2.4212379 -1.9193076
-6.7323403 2.4531708 -1.9116845
-6.7189698 2.4951055 -1.9122102
-6.7026315 2.5359437 -1.9119474
-6.6806436 2.5745928 -1.9101074
-6.650351 2.6098943 -1.9059016
-6.6386909 2.6524415 -1.9072158
-6.6267595 2.6949439 -1.9085301
-6.6145563 2.7373996 -1.9098445
-6.5923004 2.775687 -1.9082673
-6.5645027 2.8115242 -1.905113
-6.5595112 2.8571465 -1.908793
-6.5524416 2.9020314 -1.9119474
-6.5301132 2.9402003 -1.9106331
-6.5049319 2.977 -1.9085301
-6.4594245 3.0042396 -1.9003814
-6.47576 3.0603127 -1.9108959
-6.4620786 3.1024959 -1.9124731
-6.4446545 3.1429343 -1.9129988
-6.3768353 3.1584299 -1.8982785
-6.3909488 3.214411 -1.9085301
-6.3556395 3.2456636 -1.9037986
-6.3373179 3.2854884 -1.9043244
-6.3272843 3.3297052 -1.9074787
-6.3118401 3.3711941 -1.9090558
-6.2588058 3.3923831 -1.899067
-6.2522435 3.4386292 -1.9035357
-6.224287 3.4731653 -1.9014329
-6.2104149 3.5155704 -1.9037986
-6.2012763 3.5608191 -1.9077415
-6.1876473 3.6036596 -1.9103702
-6.1596045 3.6381228 -1.9085301
-6.131372 3.6723776 -1.9066901
-6.1046004 3.7074251 -1.9053758
-6.0924163 3.7513907 -1.908793
-6.0357304 3.7677493 -1.8980156
-6.040216 3.8222589 -1.906953
-6.0012207 3.8493493 -1.9019586
-6.0033708 3.9029322 -1.9103702
-5.9704485 3.9338541 -1.9074787
-5.9269428 3.9575522 -1.90117
-5.9193273 4.0052018 -1.9066901
-5.9033928 4.0474496 -1.9095817
-5.8523006 4.0654268 -1.9009072
-5.8335571 4.1057029 -1.90301
-5.8208232 4.1503839 -1.9072158
-5.7842984 4.1781106 -1.9035357
-5.7492104 4.2066851 -1.9003814
-5.7411165 4.2550988 -1.9064273
-5.6902118 4.2717056 -1.8980156
-5.6708055 4.3117967 -1.9003814
-5.6450062 4.3470998 -1.9006443
-5.6265945 4.3881831 -1.9035357
-5.5942636 4.418438 -1.9016957
-5.5715675 4.4562969 -1.9032729
-5.5433698 4.4897923 -1.90301
-5.5157166 4.5237212 -1.90301
-5.4811764 4.5519309 -1.9006443
-5.4472361 4.5805087 -1.8985413
-5.4175591 4.6125946 -1.8980156
-5.3628507 4.6230659 -1.8885525
-5.3518262 4.6711144 -1.8948613
-5.3339071 4.71345 -1.8988042
-5.2797222 4.7235694 -1.8896041
-5.2327647 4.7396803 -1.8830324
-5.2128272 4.7801776 -1.8864497
-5.2017798 4.829143 -1.8932841
-5.1593981 4.8490739 -1.8885525
-5.1547074 4.9045868 -1.8980156
-5.1168737 4.9287591 -1.8951242
-5.0899882 4.9634314 -1.8964385
-5.0498261 4.9850783 -1.8927584
-5.0368843 5.0337052 -1.8995929
-5.0140409 5.072752 -1.9027472
-4.9767551 5.097208 -1.9003814
-4.9527521 5.1352892 -1.9032729
-4.8958645 5.1390324 -1.8932841
-4.8761392 5.1816254 -1.8980156
-4.8357158 5.2022591 -1.8945985
-4.8017468 5.2297001 -1.8938098
-4.7728081 5.2626386 -1.8951242
-4.7281976 5.2781687 -1.8901298
-4.7059503 5.318644 -1.8943356
-4.652914 5.3241677 -1.885924
-4.6441097 5.3803754 -1.8959128
-4.5859761 5.3793964 -1.8853983
-4.5727644 5.4310555 -1.8938098
-4.5214677 5.4374943 -1.8861868
-4.4953651 5.4740839 -1.8893412
-4.4604769 5.5000648 -1.8888154
-4.4182034 5.5167856 -1.8851354
-4.3962369 5.558929 -1.8903927
-4.3739195 5.6010098 -1.8956499
-4.3094292 5.5887699 -1.8822439
-4.2674599 5.6051264 -1.8788266
-4.2300892 5.6273484 -1.8775123
-4.1972051 5.6555228 -1.8783009
-4.1726866 5.6951809 -1.8830324
-4.1410546 5.725368 -1.8846097
-4.0923944 5.7318215 -1.8783009
-4.0654826 5.7686553 -1.8822439
-4.0454335 5.8156719 -1.8896041
-4.0047598 5.8332253 -1.8872383
-3.9732208 5.864079 -1.8893412
-3.9355562 5.885941 -1.8885525
-3.9041476 5.9172273 -1.8909184
-3.8735557 5.9499664 -1.8938098
-3.832804 5.9671273 -1.8917069
-3.8017976 5.9994984 -1.8945985
-3.7577558 6.0112576 -1.8909184
-3.7476327 6.0777326 -1.9048501
-3.7152822 6.1088576 -1.9074787
-3.6420062 6.07196 -1.8885525
-3.6046808 6.0941925 -1.8885525
-3.5672197 6.1161957 -1.8885525
-3.5382793 6.1530252 -1.8932841
-3.5004585 6.1746202 -1.8932841
-3.4789743 6.2254634 -1.9024843
-3.4174423 6.204433 -1.8893412
-3.4004757 6.2642946 -1.9014329
-3.369709 6.2995062 -1.9059016
-3.31885 6.2970161 -1.8988042
-3.3028178 6.3609357 -1.9122102
-3.2562592 6.3664775 -1.9077415
-3.217134 6.3863378 -1.9077415
-3.1538839 6.3575516 -1.8930212
-3.1211653 6.3897886 -1.8969642
-3.0793915 6.4036021 -1.8953871
-3.052834 6.4494123 -1.9035357
-3.0070941 6.4549031 -1.8995929
-2.9674311 6.4732327 -1.8995929
-2.9288459 6.4939575 -1.9003814
-2.8791664 6.4897566 -1.8938098
-2.845463 6.5214505 -1.8980156
-2.809958 6.549428 -1.90117
-2.7764654 6.5825491 -1.9059016
-2.7426717 6.6155052 -1.9106331
-2.6987531 6.6241674 -1.9082673
-2.6634333 6.6540389 -1.9122102
-2.6225548 6.6702561 -1.9122102
-2.5787983 6.6790214 -1.9101074
-2.5364008 6.6911097 -1.9090558
-2.4909251 6.6947904 -1.9056387
-2.4451692 6.6972594 -1.9019586
-2.3994772 6.699419 -1.8982785
-2.3682327 6.7422371 -1.9064273
-2.3356109 6.782186 -1.9137874
-2.2834663 6.765306 -1.9048501
-2.246454 6.7929311 -1.908793
-2.1999764 6.7919006 -1.9045873
-2.165549 6.8282647 -1.9111588
-2.1176074 6.822072 -1.9056387
-2.0810323 6.852479 -1.9106331
-2.0364761 6.8567944 -1.9082673
-1.996785 6.8775001 -1.9106331
-1.9569165 6.8979769 -1.9129988
-1.9065727 6.8810296 -1.9048501
-1.8630568 6.8879414 -1.9035357
-1.8160832 6.8815174 -1.8985413
-1.7803134 6.9177608 -1.9056387
-1.7411174 6.9416566 -1.9093188
-1.697576 6.9484601 -1.9082673
-1.6535708 6.9531131 -1.9066901
-1.6154397 6.9828691 -1.9122102
-1.5676978 6.9709988 -1.9061644
-1.5228374 6.9710603 -1.9035357
-1.4852344 7.0048141 -1.9103702
-1.4424199 7.0147405 -1.9106331
-1.3967139 7.0102115 -1.906953
-1.3553168 7.0271759 -1.9093188
-1.315178 7.0514846 -1.9137874
-1.272228 7.0613208 -1.9143132
-1.2255747 7.0499821 -1.9090558
-1.1821345 7.0564175 -1.908793
-1.1392752 7.0663958 -1.9095817
-1.0926486 7.0522766 -1.9037986
-1.0538909 7.0893879 -1.9122102
-1.0081978 7.0804377 -1.9080044
-0.96512401 7.0893588 -1.908793
-0.92247522 7.1018448 -1.9106331
-0.87900001 7.1083288 -1.9108959
-0.83233345 7.0877151 -1.9037986
-0.7890414 7.0946069 -1.9043244
-0.74428755 7.0878 -1.90117
-0.70163608 7.1008749 -1.9035357
-0.65698683 7.0935173 -1.9003814
-0.61121041 7.0714612 -1.8932841
-0.57150656 7.1212425 -1.9059016
-0.52673382 7.1101818 -1.9019586
-0.48172703 7.0930648 -1.8964385
-0.43872955 7.1045542 -1.8988042
-0.39608979 7.1244531 -1.9035357
-0.35165516 7.1122942 -1.8995929
-0.30950505 7.1490197 -1.9090558
-0.26538405 7.1440349 -1.9072158
-0.22216868 7.165781 -1.9127359
-0.17786254 7.1535058 -1.9090558
-0.13346471 7.1274514 -1.9016957
-0.089764938 7.1310306 -1.9024843
-0.046129417 7.1507435 -1.9077415
-0.0022519699 7.1479974 -1.906953
0.041665088 7.1575246 -1.9095817
0.085593745 7.1580992 -1.9098445
0.12956624 7.1603332 -1.9106331
0.1739694 7.1786942 -1.9158903
0.21715975 7.1495247 -1.9082673
0.26155481 7.1625204 -1.9122102
0.30442497 7.1357179 -1.9053758
0.34928867 7.1558805 -1.9114217
0.3934553 7.1584191 -1.9127359
0.43654487 7.1423879 -1.9090558
0.48120555 7.1520891 -1.9124731
0.52501005 7.1480398 -1.9122102
0.56824583 7.1369896 -1.9101074
0.60979581 7.1074138 -1.90301
0.65392578 7.109303 -1.9045873
0.69781858 7.1080375 -1.9053758
0.7386108 7.0767531 -1.8980156
0.78361201 7.086472 -1.9019586
0.82674277 7.0786557 -1.90117
0.86921734 7.0657887 -1.899067
0.9134227 7.0670204 -1.9009072
0.95780551 7.0689316 -1.90301
0.99804366 7.0409503 -1.8969642
1.0441972 7.0547366 -1.9024843
1.0877591 7.0501037 -1.90301
1.1273223 7.0204339 -1.8967013
1.1711725 7.0181432 -1.8980156
1.2152017 7.0165286 -1.8995929
1.2609617 7.0241342 -1.9037986
1.3054489 7.0238533 -1.9059016
1.3483396 7.0147638 -1.9056387
1.3941773 7.0205531 -1.9095817
1.4339322 6.9957991 -1.905113
1.4770303 6.987813 -1.9053758
1.5176188 6.9682488 -1.9024843
1.5561215 6.9399772 -1.897227
1.5988921 6.9312382 -1.8974899
1.6445104 6.9344397 -1.90117
1.6842858 6.9129705 -1.8980156
1.7287799 6.9109292 -1.9003814
1.7699518 6.8955193 -1.899067
1.8060846 6.8612037 -1.8924955
1.8433721 6.8322945 -1.8875011
1.8850024 6.8199253 -1.8872383
1.9386433 6.8500056 -1.899067
1.9709686 6.8046203 -1.8896041
2.0239286 6.8303246 -1.9003814
2.0588024 6.7946944 -1.8938098
2.1058815 6.7994442 -1.8988042
2.1373687 6.7542009 -1.8896041
2.1796622 6.7437129 -1.8903927
2.2243273 6.7402897 -1.8932841
2.2681081 6.733829 -1.8953871
2.3021677 6.6988006 -1.8893412
2.3470592 6.6954741 -1.8924955
2.3919966 6.6918483 -1.8956499
2.4131837 6.6226573 -1.8798782
2.4665432 6.6420937 -1.8898669
2.507935 6.6286387 -1.8903927
2.5492547 6.6149263 -1.8909184
2.5760429 6.5641341 -1.8806667
2.6424141 6.6136055 -1.8998557
2.6589463 6.5382838 -1.8825067
2.6938469 6.5093656 -1.8788266
2.7490938 6.5291696 -1.8896041
2.7564242 6.4359097 -1.8669978
2.8066545 6.4436412 -1.8743579
2.8469207 6.4280629 -1.8748838
2.8819501 6.4007969 -1.8719922
2.9223754 6.3856249 -1.8727808
2.9615018 6.3675733 -1.8727808
3.0079396 6.3649826 -1.8775123
3.0373302 6.3264031 -1.8714665
3.0718603 6.2989759 -1.8688378
3.0898905 6.2385116 -1.8562205
3.1268101 6.2168493 -1.8554319
3.1706035 6.2087159 -1.858849
3.2201893 6.2114134 -1.8656836
3.2690282 6.212028 -1.8719922
3.3016267 6.1816411 -1.8688378
3.3330557 6.1493917 -1.8651578
3.3521211 6.0950112 -1.8546432
3.3998022 6.0928626 -1.8604263
3.4452057 6.0861597 -1.864895
3.4805627 6.0615592 -1.8638434
3.522547 6.0484257 -1.8664721
3.541924 5.9967937 -1.8570091
3.5846038 5.9848795 -1.8601635
3.6207578 5.9619474 -1.8599006
3.672452 5.9642634 -1.8677864
3.7033575 5.9326153 -1.864895
3.7474306 5.922009 -1.8688378
3.7727547 5.8818507 -1.8633177
3.8092999 5.8593998 -1.8635806
3.8504906 5.8439717 -1.8662093
3.898066 5.8378863 -1.8719922
3.9208336 5.794682 -1.8656836
3.9579525 5.7729025 -1.8664721
3.9899962 5.7437544 -1.864895
4.0207205 5.7128525 -1.862792
4.0618615 5.6967149 -1.8656836
4.0984344 5.6740308 -1.8664721
4.1280437 5.6417694 -1.8641063
4.1717772 5.6287346 -1.8683121
4.2230382 5.6254048 -1.8759352
4.255723 5.5970831 -1.8751466
4.2687893 5.5433488 -1.8656836
4.3151851 5.5330267 -1.8712037
4.3562317 5.5155296 -1.8743579
4.3972254 5.4977369 -1.8775123
4.4412017 5.483397 -1.881981
4.4680319 5.4478378 -1.8790895
4.5038414 5.4232888 -1.880141
4.5270958 5.3837376 -1.8759352
4.5569167 5.3521862 -1.8746209
4.593452 5.3285089 -1.8761981
4.6216187 5.295136 -1.8743579
4.6482711 5.2601724 -1.8719922
4.6785288 5.2293954 -1.8712037
4.7137671 5.204165 -1.8725179
4.7449579 5.1744328 -1.8722551
4.7976284 5.1678448 -1.8806667
4.8041339 5.1115975 -1.8706779
4.8467155 5.0939045 -1.8751466
4.8584657 5.043921 -1.8675236
4.9169455 5.0423326 -1.8783009
4.9403348 5.0045161 -1.8754095
4.9695845 4.972744 -1.8748838
5.0054936 4.9475827 -1.8769866
5.0184956 4.8999281 -1.8704151
5.0352697 4.8563194 -1.8654207
5.0705619 4.8306551 -1.8675236
5.1127563 4.8113518 -1.8722551
5.1584382 4.7949958 -1.8783009
5.1707034 4.7475958 -1.8719922
5.2526317 4.7637353 -1.8914441
5.2939811 4.7423582 -1.8959128
5.308526 4.697001 -1.8906555
5.2943769 4.6268878 -1.8751466
5.3241282 4.5955758 -1.8756723
5.3397422 4.5521817 -1.8712037
5.3963618 4.5435629 -1.8814553
5.4092999 4.4980307 -1.8761981
5.4188995 4.4500623 -1.8698894
5.473084 4.4386029 -1.8793523
5.4896712 4.3964953 -1.8756723
5.5286541 4.3723025 -1.8798782
5.5721097 4.3513584 -1.8856611
5.5887699 4.3094292 -1.8822439
5.5943775 4.2592793 -1.8751466
5.6319766 4.2335668 -1.8790895
5.6438994 4.1885819 -1.8743579
5.7029648 4.1783876 -1.8856611
5.7339683 4.1472731 -1.8875011
5.7388892 4.0974388 -1.8806667
5.7670774 4.0643716 -1.8817182
5.8220091 4.0498405 -1.8917069
5.8443623 4.012403 -1.8909184
5.8560905 3.9678102 -1.8867126
5.8827324 3.9334116 -1.8875011
5.8914537 3.8871484 -1.8825067
5.9248981 3.8572414 -1.8856611
5.955761 3.825506 -1.8880268
5.9978681 3.800765 -1.8940727
6.0038939 3.753154 -1.8885525
6.0399508 3.7243445 -1.8927584
6.0511475 3.680197 -1.8890783
6.0951295 3.6558983 -1.8959128
6.1058197 3.6115556 -1.8922327
6.1286983 3.5745089 -1.8924955
6.1680818 3.5469344 -1.8980156
6.1771383 3.5018854 -1.8940727
6.20609 3.468152 -1.8964385
6.2196465 3.4258187 -1.8940727
6.2006927 3.3659637 -1.8817182
6.2373948 3.3364975 -1.8867126
6.2671394 3.3031099 -1.8896041
6.3027034 3.2725937 -1.8943356
6.3398466 3.2426436 -1.8995929
6.3604856 3.2041159 -1.8998557
6.3731108 3.1615994 -1.8977528
6.3880548 3.1203187 -1.8964385
6.3888192 3.0722857 -1.8909184
6.4363303 3.0466442 -1.8995929
6.4382849 2.9993558 -1.8945985
6.4688473 2.9654214 -1.8982785
6.4534969 2.9106054 -1.8882897
6.5029864 2.8850334 -1.8977528
6.509069 2.8400631 -1.8943356
6.5175056 2.7962682 -1.8917069
6.5487652 2.7622221 -1.8959128
6.5700474 2.7238343 -1.897227
6.5937853 2.6863811 -1.89933
6.6217899 2.6505311 -1.9027472
6.6325407 2.6077332 -1.90117
6.6538177 2.5690718 -1.9027472
6.669456 2.5281963 -1.9027472
6.6984076 2.4922705 -1.9066901
6.7162933 2.4521151 -1.9074787
6.7366629 2.4128096 -1.9090558
6.756803 2.3733463 -1.9106331
6.7584662 2.3274467 -1.906953
6.7771907 2.2874756 -1.9082673
6.7874346 2.2446373 -1.9072158
6.8010798 2.2029481 -1.9072158
6.8172278 2.1620507 -1.9080044
6.827601 2.1193225 -1.9072158
6.8432465 2.0782299 -1.9080044
6.8678937 2.0397706 -1.9114217
6.8821335 1.9981294 -1.9119474
6.8951921 1.9561269 -1.9122102
6.9182234 1.9168717 -1.9153646
6.9289231 1.8741344 -1.9151018
6.9132371 1.8244488 -1.9074787
6.9495311 1.7884841 -1.9145761
6.9603744 1.745809 -1.9145761
6.9775167 1.7046698 -1.916416
6.9981704 1.6642784 -1.9193076
7.0026102 1.6200032 -1.9177303
7.0058289 1.5755247 -1.9158903
7.019135 1.5333312 -1.9169418
6.9859366 1.4812349 -1.905113
7.0213561 1.4437791 -1.9124731
7.012104 1.3970906 -1.9074787
7.0442295 1.3586029 -1.9140503
7.0751972 1.3195966 -1.920359
7.0689173 1.2735955 -1.916416
7.0832529 1.231353 -1.918256
7.0773525 1.1856382 -1.9145761
7.0416293 1.1352863 -1.9027472
6.5135598 1.0092719 -1.7552811
6.5034056 0.96687722 -1.7508124
5.8730392 0.8364737 -1.5757458
5.8627644 0.79834175 -1.57154
5.8503299 0.76011926 -1.5668085
5.8261571 0.72066039 -1.5589226
5.8113041 0.68265074 -1.5536654
5.7942867 0.64463753 -1.5478823
5.7789416 0.60706019 -1.5426251
5.769115 0.5702638 -1.5389451
5.7715449 0.53476566 -1.5386822
5.7766399 0.4995079 -1.5392079
5.7699785 0.46328342 -1.5365793
5.7679019 0.42751515 -1.535265
5.7656031 0.39178985 -1.5339507
0 0 -0
0 0 -0
0 0 -0
0 0 -0
0 0 -0
0 0 -0
0 0 -0
0 0 -0
0 0 -0
0 0 -0
0 0 -0
0 -0 -0
0 -0 -0
0 -0 -0
0 -0 -0
0 -0 -0
0 -0 -0
0 -0 -0
0 -0 -0
0 -0 -0
0 -0 -0
0 -0 -0
0 -0 -0
0 -0 -0
0 -0 -0
0 -0 -0
6.5741653 -0.6453191 -1.7592241
7.0767531 -0.7386108 -1.8980156
7.2063437 -0.79688698 -1.9348165
7.20611 -0.84164965 -1.9361308
7.2075129 -0.88667542 -1.9379708
7.2048073 -0.93125468 -1.9387594
7.2142549 -0.97752023 -1.9429651
7.1832843 -1.018243 -1.9361308
7.1272717 -1.0549455 -1.9224619
7.0720348 -1.0911466 -1.9090558
6.8413444 -1.0985346 -1.8472831
6.6194029 -1.1045648 -1.7878761
6.493669 -1.1245593 -1.7550182
6.4040294 -1.1495373 -1.7321492
6.3437362 -1.1789284 -1.7174289
6.2747979 -1.2059828 -1.7003428
6.2294273 -1.2369381 -1.6898283
6.3096194 -1.2931695 -1.7142745
6.3081732 -1.333258 -1.7161145
6.2876186 -1.3692681 -1.7126974
6.2856889 -1.409301 -1.7145374
6.2900848 -1.4508811 -1.7182175
6.2660437 -1.4858844 -1.7140117
6.2268124 -1.5169908 -1.7056
6.2164512 -1.554935 -1.7053372
6.1899724 -1.5887285 -1.7006056
6.148385 -1.6183237 -1.6916684
6.1094637 -1.6482232 -1.6835196
6.0731974 -1.6784778 -1.6761594
6.0470028 -1.7112414 -1.6716907
6.0391688 -1.7491187 -1.6724794
6.0486736 -1.7921752 -1.6782624
6.0412564 -1.8303752 -1.6793138
6.0234604 -1.86541 -1.6774738
6.0100617 -1.9017516 -1.6769481
5.979919 -1.9326552 -1.6716907
5.967948 -1.9693109 -1.6716907
5.9228373 -1.9948 -1.6622277
5.9104857 -2.0311043 -1.6622277
5.8897176 -2.0644581 -1.6598619
5.8769398 -2.1005578 -1.6598619
5.8630338 -2.1362481 -1.6595991
5.8353448 -2.1668065 -1.6553932
5.8246465 -2.2035954 -1.6561818
5.82722 -2.2455411 -1.6609133
5.7863894 -2.2706754 -1.6530275
5.7893701 -2.3129416 -1.6580219
5.7464709 -2.3367853 -1.6496103
5.7445049 -2.3771682 -1.6532904
5.7138057 -2.4056292 -1.6485589
5.7219958 -2.4505231 -1.6553932
5.7254262 -2.4936807 -1.6609133
5.6985502 -2.5236831 -1.6574962
5.7040706 -2.5681117 -1.6638049
5.7004871 -2.6086857 -1.667485
5.6861229 -2.6444283 -1.6680107
5.6706624 -2.6796803 -1.6682736
5.6532435 -2.7140067 -1.6680107
5.633883 -2.7473741 -1.6672221
5.6143255 -2.780606 -1.6664335
5.5687165 -2.8006916 -1.6577591
5.5247917 -2.8212004 -1.6496103
5.5219374 -2.8625984 -1.654079
5.4974389 -2.8928308 -1.651976
5.4872441 -2.9306002 -1.6543418
5.4878187 -2.9743319 -1.6601248
5.4711561 -3.0088787 -1.6606505
5.436584 -3.0334573 -1.6556561
5.4229064 -3.0696111 -1.6572334
5.4064794 -3.1042693 -1.6580219
5.3881636 -3.1378701 -1.6582848
5.3837605 -3.1797068 -1.6630163
5.3567004 -3.2082181 -1.6606505
5.3212471 -3.2315073 -1.6556561
5.3152843 -3.2726994 -1.6601248
5.2820091 -3.297075 -1.655919
5.2600489 -3.3283906 -1.6553932
5.2127299 -3.3434083 -1.6467187
5.2042494 -3.3832204 -1.6506617
5.1809754 -3.4134965 -1.6498731
5.1446896 -3.4350398 -1.6448787
5.1139274 -3.4600525 -1.6417243
5.1061273 -3.500643 -1.646193
5.0663285 -3.5192442 -1.6401472
5.0320168 -3.5413773 -1.6359414
5.0133343 -3.5744276 -1.6369928
5.0085125 -3.6175532 -1.6427759
5.0087996 -3.6647429 -1.6503989
5.0156708 -3.7172434 -1.6603876
4.9881387 -3.7444727 -1.6588105
4.9550862 -3.7674155 -1.6553932
4.924233 -3.7918603 -1.6527647
4.8856597 -3.8101339 -1.6475074
4.8750591 -3.8502085 -1.651976
4.8626432 -3.8890903 -1.655919
4.8049541 -3.8915215 -1.6440902
4.7683053 -3.9105275 -1.6396215
4.7063713 -3.9082682 -1.6262155
4.6756568 -3.9314828 -1.6238497
4.6418967 -3.9519653 -1.6204325
4.6745534 -4.02952 -1.6409358
4.6431994 -4.0524158 -1.6385701
4.6095719 -4.0731616 -1.6354157
4.5751467 -4.0930042 -1.6319984
4.5399361 -4.1119299 -1.6283184
4.5295515 -4.1534052 -1.6338385
4.532968 -4.2080388 -1.6446159
4.5260425 -4.2536173 -1.6517131
4.5173292 -4.2979383 -1.6582848
4.5151901 -4.3490062 -1.667485
4.4877295 -4.3759551 -1.6672221
2.3504415 -2.319433 -0.85918176
2.3368478 -2.3344934 -0.85944462
2.3163764 -2.3426113 -0.85707885
4.3863997 -4.4923668 -1.6701136
4.330626 -4.4900241 -1.6590734
4.287025 -4.4997439 -1.6527647
4.2586732 -4.5252609 -1.6525018
4.2229452 -4.5428252 -1.6493474
4.1832476 -4.5558567 -1.6446159
4.2044668 -4.6357632 -1.6645935
4.1740122 -4.6593175 -1.6638049
4.135756 -4.6740007 -1.6598619
4.1050949 -4.6971097 -1.6590734
4.069263 -4.7141743 -1.6561818
4.0246153 -4.7206955 -1.6496103
3.9918461 -4.7408724 -1.6480331
3.961448 -4.7637925 -1.6475074
3.9315312 -4.7872643 -1.6472446
3.9525146 -4.8735037 -1.6690621
3.915904 -4.8893795 -1.6661706
3.8906167 -4.9193697 -1.6682736
1.9943217 -2.5527971 -0.84209567
1.9774425 -2.5634575 -0.84156996
1.9610918 -2.5747747 -0.8413071
1.9458359 -2.5875309 -0.84156996
1.9304974 -2.6001964 -0.84183282
1.9082354 -2.6034305 -0.83894134
1.7147157 -2.3695831 -0.75640243
1.704628 -2.3863423 -0.75850528
1.6999558 -2.4109542 -0.76323682
3.5342641 -5.0805631 -1.6456673
3.5052078 -5.1053357 -1.6467187
3.4748981 -5.1283445 -1.6472446
3.4417572 -5.1471634 -1.6464559
3.4042666 -5.1593251 -1.6435645
3.3672829 -5.1720295 -1.6409358
3.3313141 -5.1860981 -1.6388329
3.3030443 -5.2121463 -1.6406729
3.2597523 -5.2143149 -1.63489
3.2287092 -5.2358608 -1.6354157
3.2065461 -5.2720618 -1.6406729
3.1671908 -5.2800527 -1.6369928
3.1327691 -5.2960649 -1.6359414
3.0938966 -5.3043518 -1.6325243
3.0574448 -5.3165436 -1.6304213
3.0242898 -5.3343644 -1.6301584
2.9896197 -5.3494515 -1.629107
2.9590666 -5.3719206 -1.6304213
2.9283504 -5.3942161 -1.6317356
2.8860979 -5.3950658 -1.6264783
1.5734868 -2.9841442 -0.87863362
1.5569247 -2.9971681 -0.87968504
1.5389444 -3.0075238 -0.87994796
2.7337341 -5.4263525 -1.6149124
2.723105 -5.4888368 -1.6288441
2.6847181 -5.4959054 -1.6259526
2.6463475 -5.5027094 -1.6230612
2.6121211 -5.5179715 -1.6227983
2.5892112 -5.5575109 -1.6298956
2.5466218 -5.5548735 -1.6243755
2.5287476 -5.6064577 -1.6351528
2.4841301 -5.5989361 -1.6283184
2.4493432 -5.6131887 -1.6280556
2.4095314 -5.6156979 -1.6243755
2.3716555 -5.622375 -1.6220096
2.3348963 -5.6314735 -1.6204325
2.2915652 -5.624248 -1.6141238
2.2527115 -5.6274533 -1.6109694
2.2149637 -5.6330881 -1.6086037
2.1820948 -5.6510735 -1.609918
2.1613951 -5.7013483 -1.6206954
2.1287258 -5.7208333 -1.6225355
2.0906065 -5.7256298 -1.6201696
2.0596628 -5.7501588 -1.6235869
2.0284965 -5.7745228 -1.627004
1.9920845 -5.7841239 -1.6262155
1.9482293 -5.7715545 -1.6191182
1.9251934 -5.8209596 -1.6298956
1.8790398 -5.8005352 -1.6206954
1.8472028 -5.8239121 -1.6241126
1.8102896 -5.8314509 -1.6230612
1.7730733 -5.8378325 -1.6217468
1.7341996 -5.8384275 -1.6188554
1.6961921 -5.8415456 -1.6167524
1.6637385 -5.8639102 -1.6201696
1.6282419 -5.8758683 -1.6206954
1.5926611 -5.8876109 -1.6212211
1.5537989 -5.8870106 -1.6183296
1.5212524 -5.91045 -1.6222725
1.485427 -5.9215446 -1.6227983
1.4428867 -5.9052405 -1.615701
1.4057333 -5.9102278 -1.6146495
1.3677039 -5.9112215 -1.6125467
1.3292923 -5.910089 -1.609918
1.2940323 -5.9228473 -1.6112323
1.258466 -5.9344511 -1.6122837
1.2189224 -5.92694 -1.608078
1.1827208 -5.9352536 -1.6083409
0.74591672 -3.8647432 -1.0318826
0.7200681 -3.8578653 -1.0287282
0.69450295 -3.8517656 -1.0258368
0.66887474 -3.8445473 -1.0226824
0.64766139 -3.8628531 -1.0266254
0.62640184 -3.8819952 -1.0308312
0.60493165 -3.9010212 -1.035037
0.5805589 -3.9017966 -1.0342485
0.55782974 -3.9138823 -1.0366142
0.53211415 -3.904803 -1.0331969
0.50591046 -3.8907719 -1.0284654
0.48049036 -3.8813543 -1.0250483
0.45486778 -3.8688974 -1.0208424
0.42941624 -3.8562725 -1.0166366
0.40484104 -3.8501985 -1.0142708
0.38528186 -3.8938975 -1.025574
0.3613821 -3.8961883 -1.025574
0.33522972 -3.8723783 -1.0184766
0.31346565 -3.899368 -1.0253111
0.28974706 -3.9041045 -1.0260997
0.26428643 -3.8836684 -1.0200539
0.23932478 -3.8669198 -1.0150595
0.2155399 -3.8673522 -1.0147966
0.19209115 -3.8743839 -1.0163738
0.16827318 -3.8745258 -1.0161109
0.1445677 -3.8774135 -1.0166366
0.12053566 -3.8705127 -1.0145338
0.096641429 -3.8653922 -1.0129565
0.073029444 -3.8717003 -1.0145338
0.049427599 -3.8846176 -1.0179509
0.025627511 -3.8906364 -1.0195282
0.0017557094 -3.8984392 -1.021631
-0.022205107 -3.9051301 -1.023471
-0.04609596 -3.899132 -1.0218939
-0.070213452 -3.9093871 -1.0247854
-0.094387926 -3.916599 -1.0268883
-0.11803512 -3.9034092 -1.023471
-0.14198376 -3.9026115 -1.023471
-0.16493632 -3.8785319 -1.0171623
-0.18873143 -3.8774469 -1.0171623
-0.21166974 -3.8608019 -1.0129565
-0.23759784 -3.8960257 -1.0229453
-0.25864223 -3.8521378 -1.0113794
-0.28276944 -3.857214 -1.0132194
-0.30765927 -3.8707948 -1.0174252
-0.33347008 -3.8928664 -1.0239967
-0.3574385 -3.8917077 -1.0242596
-0.38074431 -3.8836801 -1.0226824
-0.40627226 -3.897584 -1.0271511
-0.43113554 -3.9036486 -1.0295169
-0.45339856 -3.8865552 -1.025574
-0.48054034 -3.9105127 -1.0329341
-0.50514489 -3.9122748 -1.0342485
-0.52978915 -3.913882 -1.0355628
-0.55392987 -3.9115129 -1.0358256
-0.57975858 -3.9204476 -1.0392429
-0.60601223 -3.9311194 -1.0431857
-0.63012171 -3.9273269 -1.0431857
-0.65611511 -3.9348066 -1.0463401
-0.68337756 -3.9487691 -1.0513345
-0.70742327 -3.943552 -1.0510716
-0.725784 -3.9078345 -1.0423971
-0.75084203 -3.9089923 -1.0439743
-0.77217984 -3.8910632 -1.0402943
-0.79293817 -3.8711295 -1.0360885
-0.81368083 -3.8520322 -1.0321455
-0.8366847 -3.8441389 -1.0313569
-0.85687613 -3.8238699 -1.0271511
-0.88639951 -3.8448634 -1.0345113
-0.91376185 -3.8553109 -1.0389799
-0.93214387 -3.8280721 -1.0329341
-0.75037479 -3.0023847 -0.80266625
-0.76662266 -2.9893134 -0.80030048
-0.78593338 -2.9882853 -0.80135196
-0.80576319 -2.9889956 -0.8029291
-0.82383096 -2.9830651 -0.80266625
-0.84290791 -2.9807391 -0.80345488
-0.86386734 -2.9847779 -0.8060835
-1.1317461 -3.8211992 -1.0452887
-1.1534916 -3.8086431 -1.0437114
-1.1748401 -3.7950425 -1.0418714
-1.1937352 -3.7739651 -1.0379285
-1.21301 -3.7546351 -1.0345113
-1.1283313 -3.4209607 -0.9409321
-1.0805885 -3.2100818 -0.88231373
-1.0899117 -3.1732819 -0.87363923
-1.1272442 -3.2175202 -0.88835955
-1.2756273 -3.5703022 -0.99245322
-1.1359093 -3.119143 -0.8639133
-1.1419215 -3.0768418 -0.85366166
-1.1713679 -3.0977502 -0.86181039
-1.4781002 -3.8367996 -1.0797237
-1.2061204 -3.0750597 -0.85944462
-1.2263983 -3.0711846 -0.8604961
-1.2426744 -3.0573459 -0.85865605
-1.2591959 -3.0443149 -0.85707885
-1.4973395 -3.5575817 -1.0111165
-1.5761404 -3.6813545 -1.0505459
-1.6125748 -3.7034564 -1.060009
-1.5891474 -3.589402 -1.0289911
-1.6357099 -3.6341252 -1.0452887
-1.6603876 -3.6292839 -1.0468658
-1.6834393 -3.6207771 -1.0473915
-1.6986136 -3.5955513 -1.0429229
-1.7223145 -3.5885398 -1.0439743
-1.7404934 -3.5701001 -1.0416086
-1.7597961 -3.5541663 -1.0400314
-1.786775 -3.5536439 -1.0431857
-1.809863 -3.5451913 -1.0439743
-1.8275838 -3.5263109 -1.0416086
-1.8464897 -3.5099082 -1.0400314
-1.8734477 -3.5087242 -1.0431857
-1.8917222 -3.4912255 -1.0413457
-1.911713 -3.4770164 -1.0405571
-1.9381846 -3.474488 -1.0434486
-1.9551883 -3.4549742 -1.0410829
-1.955686 -3.4069374 -1.0297798
-1.9916105 -3.4207168 -1.0379285
-1.9885124 -3.3677294 -1.0250483
-2.0140979 -3.3637412 -1.0276768
-2.0537362 -3.3826537 -1.0376656
-2.0800195 -3.379025 -1.0405571
-2.1027577 -3.369472 -1.0416086
-2.1197805 -3.3507998 -1.0397686
-2.1481164 -3.3499105 -1.0437114
-2.1802032 -3.3544612 -1.0494945
-2.1938419 -3.330548 -1.0460773
-2.2131648 -3.3154194 -1.0455515
-2.243201 -3.3161595 -1.0502831
-2.2766035 -3.3214293 -1.0565917
-2.3029969 -3.3161132 -1.0594833
-2.327189 -3.3074422 -1.0613233
-2.3788142 -3.3370883 -1.0760436
-2.3404775 -3.241097 -1.0487058
-2.3808355 -3.2547033 -1.0581689
-2.4438586 -3.298162 -1.0778836
-2.4327633 -3.2414434 -1.063689
-2.4648728 -3.2425818 -1.0692092
-2.4811897 -3.2228105 -1.067632
-2.4920156 -3.196115 -1.063689
-2.5193555 -3.1906059 -1.0671062
-2.5334604 -3.1683068 -1.0647405
-2.5206618 -3.1129701 -1.0508088
-2.5121765 -3.0638788 -1.0389799
-2.550658 -3.0721555 -1.0473915
-2.5688393 -3.0557086 -1.0471287
-2.5575118 -3.0046318 -1.0345113
-2.5664482 -2.9779224 -1.0305684
-2.5999017 -2.979562 -1.036877
-2.6194129 -2.964999 -1.0374027
-2.6575029 -2.9711585 -1.0455515
-2.7087231 -2.991261 -1.0589576
-2.7465925 -2.9959145 -1.0668434
-2.7261863 -2.9372928 -1.0513345
-2.8538647 -3.0371993 -1.0949697
-2.7487226 -2.8896396 -1.0460773
-2.7590373 -2.8650768 -1.0431857
-2.7240155 -2.7942219 -1.0226824
-2.7512784 -2.7877529 -1.0266254
-2.7867496 -2.789242 -1.0337226
-2.780477 -2.7490335 -1.0247854
-2.7959116 -2.7305732 -1.0242596
-3.4564891 -3.3341529 -1.2679335
-3.4622097 -3.2989082 -1.2624134
-2.8555372 -2.6879025 -1.0279397
-3.3942931 -3.1556869 -1.2221954
-3.4007976 -3.1230567 -1.2174639
-3.3591387 -3.0470467 -1.1951205
-3.3914282 -3.0386074 -1.2001148
-2.9409804 -2.6028798 -1.0295169
-2.973608 -2.5993853 -1.0355628
-2.9989977 -2.5892849 -1.0389799
-3.00822 -2.5652022 -1.0366142
-2.9899476 -2.5181158 -1.0245225
-3.0083098 -2.5021896 -1.025574
-4.6254401 -3.7986841 -1.5902033
-4.6531582 -3.7738771 -1.5917804
-3.1276698 -2.5054865 -1.0513345
-3.1952088 -2.5275357 -1.0694721
-3.1756728 -2.480572 -1.0573803
-3.183192 -2.4551492 -1.0547518
-3.2250681 -2.456023 -1.063952
-3.1930261 -2.4008317 -1.0479172
-3.2076972 -2.3811946 -1.0479172
-3.2409289 -2.3751502 -1.054226
-3.2929711 -2.3823547 -1.0668434
-3.3263748 -2.3755567 -1.0731521
-3.3432546 -2.3567688 -1.0739408
-3.3227983 -2.311974 -1.0623747
-3.317034 -2.2778933 -1.0558032
-3.3205636 -2.2504637 -1.0523859
-3.3495502 -2.2402337 -1.0573803
-3.3326271 -2.1994526 -1.0473915
-3.3403993 -2.1752787 -1.0455515
-3.3658619 -2.1625609 -1.0494945
-3.4263415 -2.1718135 -1.0647405
-3.4616947 -2.1645541 -1.0718378
-3.4740896 -2.1427665 -1.0715749
-3.481401 -2.1179008 -1.0697349
-3.4554389 -2.0731807 -1.0573803
-3.4531453 -2.0431001 -1.0526488
-3.5222955 -2.0549188 -1.0705235
-3.5164354 -2.0226893 -1.0647405
-3.5212252 -1.9967936 -1.0623747
-3.5578384 -1.9887956 -1.0699978
-3.5995562 -1.9832152 -1.079198
-3.5650156 -1.9357826 -1.0647405
-3.5734227 -1.9120518 -1.063689
-3.5577719 -1.8756986 -1.0552775
-3.5503743 -1.8440548 -1.0494945
-3.5908306 -1.8371686 -1.0584317
-3.6037593 -1.815969 -1.0589576
-3.7367132 -1.8542602 -1.0960212
-3.7575576 -1.8359537 -1.0989127
-3.7461426 -1.8019954 -1.0920782
-3.7466633 -1.7740238 -1.0889239
-3.7705979 -1.7571106 -1.0928668
-3.7883253 -1.737157 -1.0949697
-3.8340964 -1.7297407 -1.1054842
-3.9178438 -1.7386459 -1.1273018
-3.9991889 -1.7454302 -1.1483309
-5.4826875 -2.3524907 -1.584946
-4.0389767 -1.7040939 -1.153851
-4.0600529 -1.6837115 -1.1570053
-4.1659207 -1.6977036 -1.1851317
-4.3419824 -1.7384132 -1.2337613
-4.350771 -1.7110329 -1.2332356
-4.382791 -1.6926419 -1.2395443
-4.4364023 -1.6821263 -1.2521617
-4.4981866 -1.6740427 -1.2671449
-4.6851158 -1.7109069 -1.3184031
-4.6619153 -1.6700956 -1.3086772
-4.7776771 -1.678533 -1.3391693
-4.8864155 -1.6830992 -1.3675585
-5.0383539 -1.7008878 -1.4083022
-5.1971021 -1.7189931 -1.450886
-5.2378435 -1.6968783 -1.4595605
-5.3953147 -1.7113518 -1.5016185
-5.3605599 -1.6642065 -1.4887382
-5.9366198 -1.8030566 -1.6498731
-6.0104675 -1.7852654 -1.6677479
-6.0481806 -1.7561494 -1.6753708
-6.1331019 -1.7400595 -1.6963998
-6.1994538 -1.7178433 -1.7121717
-6.2573795 -1.6926118 -1.7255776
-6.3320198 -1.6711625 -1.7437152
-6.4561543 -1.6615971 -1.7757845
-6.5701113 -1.6479897 -1.8049622
-6.7675605 -1.6534116 -1.8575348
-6.9850287 -1.6611553 -1.9156275
-7.0336318 -1.6271745 -1.9264048
-7.0594864 -1.5875825 -1.9308735
-7.0785213 -1.546294 -1.9335021
-7.1020341 -1.5058315 -1.937445
-7.1054692 -1.4610608 -1.9358679
-7.1057839 -1.4157397 -1.9335021
-7.1456013 -1.3781374 -1.9421766
-7.1690993 -1.3370948 -1.9463824
-7.0926566 -1.2778685 -1.9229876
-7.1355362 -1.2404332 -1.9327135
-7.1677547 -1.2007678 -1.939548
-7.1473632 -1.1523156 -1.9319249
-7.1485782 -1.1075531 -1.9303478
-7.175281 -1.0666454 -1.9358679
-7.1797805 -1.0223269 -1.9353422
-7.2145991 -0.98215318 -1.943228
