# .PCD v0.7 - Point Cloud Data file format
VERSION 0.7
FIELDS x y z
SIZE 4 4 4
TYPE F F F
COUNT 1 1 1
WIDTH 1519
HEIGHT 1
VIEWPOINT 0 0 0 1 0 0 0
POINTS 1519
DATA ascii
7.5809641 -3.639905 -1.6334409
7.5514359 -3.6829119 -1.63188
7.517271 -3.7235165 -1.6293439
7.4793882 -3.7620773 -1.6260273
7.4500499 -3.8047757 -1.6246618
7.4082804 -3.840934 -1.6205648
7.3715553 -3.8794646 -1.6176385
7.3701038 -3.93664 -1.6227108
7.3630543 -3.9911382 -1.6266127
7.4217796 -4.0821023 -1.6455364
7.4231405 -4.1423841 -1.6515843
7.4155059 -4.1980028 -1.6556811
7.3589911 -4.2258377 -1.6486579
7.3634315 -4.2886868 -1.6556811
7.3395114 -4.3352838 -1.6562663
7.3127723 -4.3802366 -1.6562663
7.2547441 -4.4061823 -1.6490481
7.2175508 -4.4444408 -1.6467069
7.2067823 -4.4990335 -1.6506088
7.1558375 -4.5284801 -1.6451463
7.1155348 -4.5643573 -1.6422199
7.0619063 -4.5913548 -1.6361721
7.0024829 -4.614089 -1.6287587
6.9715929 -4.655334 -1.6281734
6.9591413 -4.7090187 -1.6320752
6.9471016 -4.7632799 -1.6361721
6.9153275 -4.8041377 -1.6355869
6.8400083 -4.8142958 -1.6244667
6.7871833 -4.8396583 -1.6188091
6.7597451 -4.8829355 -1.6193943
6.7272825 -4.9225826 -1.6188091
6.6780424 -4.949749 -1.6141269
6.6373506 -4.982975 -1.6115907
6.6027474 -5.0206385 -1.6106153
6.5834718 -5.0700355 -1.6135416
6.5599713 -5.1163683 -1.6154925
6.5230675 -5.152267 -1.6141269
6.4905653 -5.1915822 -1.6139318
6.4730668 -5.243041 -1.6176385
6.4521484 -5.2919917 -1.6205648
6.3720274 -5.2919974 -1.6082742
6.3281779 -5.3215261 -1.6053479
6.2976465 -5.3621626 -1.6059331
6.2549706 -5.3923764 -1.6033969
6.2335868 -5.4409757 -1.6065184
6.1890616 -5.469378 -1.603592
6.148808 -5.5013638 -1.6018362
6.1207509 -5.5442572 -1.6033969
6.0844483 -5.57972 -1.6028117
6.0342865 -5.6022654 -1.5985197
5.9683571 -5.6096258 -1.5899357
5.9878178 -5.6975312 -1.6047626
5.9442701 -5.7259984 -1.6024214
5.8893661 -5.7431879 -1.5969589
5.8609943 -5.786108 -1.5989099
5.8108149 -5.8073997 -1.594813
5.7985101 -5.8666654 -1.601446
5.7391114 -5.8782701 -1.594813
5.7111044 -5.9218464 -1.597154
5.6733079 -5.9553576 -1.5967638
5.704535 -6.0622067 -1.616468
2.2309225 -2.3991065 -0.61233807
2.2154968 -2.4120274 -0.61214298
2.200655 -2.425576 -0.61214298
5.402246 -6.0308685 -1.571207
5.4028282 -6.1065116 -1.5825223
5.3749371 -6.1506271 -1.5854486
5.3505516 -6.1990852 -1.5895455
5.3175035 -6.2377706 -1.5911062
5.296813 -6.2912912 -1.5965687
5.2449446 -6.3078346 -1.5924718
5.1837382 -6.3126078 -1.5854486
5.1022887 -6.2917271 -1.5719874
5.056232 -6.3137279 -1.5696462
5.0368609 -6.3692541 -1.5758892
2.0271194 -2.59481 -0.61565459
1.9860113 -2.574574 -0.6074608
1.9672066 -2.5828092 -0.60648537
1.951911 -2.5956151 -0.60668045
1.9353634 -2.6067553 -0.60648537
1.8080627 -2.4666603 -0.56902802
1.7739296 -2.4514797 -0.56259006
1.7628427 -2.4679062 -0.56395566
4.6861029 -6.6495824 -1.5788156
4.6272955 -6.6524429 -1.5725726
4.5897198 -6.6855621 -1.5737432
4.5238609 -6.6770558 -1.5649642
4.5258627 -6.7691054 -1.5803763
4.4934235 -6.810667 -1.5836928
4.4403148 -6.820847 -1.5795959
4.4063282 -6.8603435 -1.5825223
4.3573279 -6.8764801 -1.5799861
4.2921834 -6.8664899 -1.5714021
4.2762175 -6.9352775 -1.5813518
4.2172785 -6.9345675 -1.5751088
4.1902843 -6.9863901 -1.5811566
1.712827 -2.8945653 -0.62970114
1.6886121 -2.8940058 -0.62716496
1.6742445 -2.9102645 -0.62853056
1.6713462 -2.9469349 -0.63457835
3.9256968 -7.0251579 -1.5614525
3.8825173 -7.0491133 -1.5614525
3.8391917 -7.072803 -1.5614525
3.7836971 -7.0737391 -1.5563802
3.7347364 -7.0864096 -1.5540391
3.690733 -7.1083217 -1.553844
3.6537447 -7.1439328 -1.5567703
3.6204281 -7.1872411 -1.5614525
3.5788743 -7.2145925 -1.562623
3.519908 -7.2064505 -1.55599
3.4828472 -7.2429399 -1.5593065
3.4295309 -7.2455564 -1.5552096
3.3899767 -7.2771325 -1.5575507
3.343627 -7.2942295 -1.5567703
3.2891335 -7.2931495 -1.5520881
3.2514782 -7.3293324 -1.5555998
3.2037005 -7.3428521 -1.5542341
3.163224 -7.373188 -1.5565752
3.1217337 -7.4014959 -1.5585262
3.064996 -7.3933291 -1.5526735
3.0132854 -7.3965545 -1.5493569
2.9689374 -7.4176359 -1.5499421
2.9201391 -7.4274979 -1.5481863
2.8766286 -7.4507661 -1.5493569
2.8339849 -7.476531 -1.5511127
2.7856634 -7.4873443 -1.5497471
2.738997 -7.5024529 -1.5493569
2.6945641 -7.523735 -1.5503323
2.6525722 -7.5521574 -1.5528685
2.6055446 -7.5664363 -1.5524783
2.5578146 -7.5785637 -1.551698
2.504494 -7.5736284 -1.547406
2.4609966 -7.5981841 -1.5493569
2.4051418 -7.5841584 -1.5433091
2.366698 -7.6250019 -1.5487716
2.3147399 -7.6224871 -1.54526
2.2609487 -7.6130404 -1.5403827
2.2229393 -7.6569118 -1.5466256
2.1716352 -7.6553102 -1.5435042
2.1243603 -7.6675458 -1.5433091
2.0780411 -7.6832767 -1.5438944
2.0406125 -7.7328687 -1.5515029
1.9770031 -7.6825523 -1.5386269
1.9355495 -7.7173705 -1.5433091
1.8830427 -7.7081404 -1.5390171
1.8368448 -7.7243204 -1.5399926
1.7885311 -7.7316232 -1.5392122
1.7386917 -7.7319255 -1.5370662
1.6926808 -7.749156 -1.5384319
1.6438813 -7.7536392 -1.5372612
1.5944985 -7.7549338 -1.5355055
1.550332 -7.7818856 -1.5390171
1.5019972 -7.7883625 -1.5384319
1.4468139 -7.7579002 -1.5304332
1.3991852 -7.7666321 -1.5304332
1.353182 -7.7847342 -1.532384
1.3053902 -7.7928905 -1.532384
1.252247 -7.7678313 -1.525751
1.1753091 -7.5863657 -1.4877083
1.1182215 -7.5226135 -1.4734668
1.0720426 -7.5293331 -1.4734668
1.0188197 -7.484262 -1.463127
0.96795702 -7.4524393 -1.4555185
0.92413479 -7.4738126 -1.4586399
0.8719762 -7.4257665 -1.44791
0.82509708 -7.4192796 -1.4455688
0.78313714 -7.458343 -1.452397
0.73283356 -7.4171333 -1.4432278
0.68622559 -7.409771 -1.4408866
0.64116871 -7.4187279 -1.4418621
0.59712386 -7.4410977 -1.4455688
0.5505873 -7.4328842 -1.4432278
0.50337851 -7.4126377 -1.4385456
0.45698154 -7.4009027 -1.4356192
0.41286469 -7.4270701 -1.4403014
0.3681542 -7.4470963 -1.4438131
0.32372063 -7.4786115 -1.4496658
0.27739164 -7.4686956 -1.4473246
0.23328276 -7.526135 -1.4584448
0.18753482 -7.5450735 -1.4619564
0.14161785 -7.5666752 -1.4660534
0.095771842 -7.6144757 -1.4754176
0.050565764 -7.8561883 -1.5234098
0.0023605966 -7.8592935 -1.5239952
-0.045792747 -7.8473907 -1.521654
-0.094013885 -7.8528461 -1.5228246
-0.14267966 -7.8785982 -1.528092
-0.1915693 -7.900126 -1.5325792
-0.24027944 -7.9066443 -1.5341399
-0.28807017 -7.8854184 -1.530238
-0.33514789 -7.853126 -1.5241902
-0.38505456 -7.886188 -1.5312135
-0.43419185 -7.897387 -1.5339447
-0.48360103 -7.9102373 -1.5370662
-0.53186423 -7.9032068 -1.5362859
-0.57905138 -7.8821878 -1.5327742
-0.6301347 -7.9127054 -1.5396024
-0.67850631 -7.9067359 -1.5392122
-0.72799826 -7.9131665 -1.5413582
-0.77577096 -7.9007421 -1.5397974
-0.82403046 -7.8938828 -1.5394073
-0.87396228 -7.9023252 -1.5421386
-0.92163604 -7.8899951 -1.5407729
-0.96847194 -7.8715367 -1.5382367
-1.0201514 -7.8917084 -1.5435042
-1.0693458 -7.8911319 -1.5446748
-1.1170558 -7.8795667 -1.5436993
-1.170127 -7.9045801 -1.5501373
-1.2196546 -7.904037 -1.5515029
-1.2673516 -7.8915625 -1.5505275
-1.3133255 -7.8691268 -1.5476011
-1.3592395 -7.8473911 -1.5448698
-1.4077114 -7.8408341 -1.54526
-1.4620736 -7.8657975 -1.5520881
-1.5110508 -7.8605309 -1.5528685
-1.5563858 -7.8366814 -1.5499421
-1.5989227 -7.8000822 -1.5444796
-1.6408665 -7.7622976 -1.5388221
-1.7058003 -7.8316212 -1.5550145
-0.67300993 -3.0044913 -0.57312495
-0.69231492 -3.0041277 -0.57390529
-0.70801717 -2.9883718 -0.5715642
-0.72517854 -2.979207 -0.57058877
-0.73844349 -2.9547212 -0.56649184
-0.75363141 -2.9387352 -0.56415075
-0.77089947 -2.9312105 -0.56356549
-0.78656977 -2.9179032 -0.56180966
-0.80341315 -2.9092407 -0.56102931
-0.82205051 -2.9070873 -0.56161457
-2.2541378 -7.781641 -1.5721824
-2.2756355 -7.6792727 -1.553844
-1.0700628 -3.5334635 -0.69505638
-2.3885713 -7.7116632 -1.5665249
-2.4272583 -7.6697459 -1.5608672
-2.4715571 -7.6463094 -1.5591114
-1.0746577 -3.258405 -0.64316237
-1.0902456 -3.2387376 -0.64043111
-1.1088219 -3.228277 -0.6396507
-1.1247141 -3.2103066 -0.63730961
-2.7132001 -7.5899844 -1.5639887
-2.7566967 -7.5649004 -1.5622329
-1.1515059 -3.1026385 -0.61897117
-1.172605 -3.1010182 -0.62014169
-1.188435 -3.0855289 -0.61838585
-1.2431898 -3.1694725 -0.63789493
-3.0023773 -7.5141187 -1.5702316
-3.0439909 -7.4846535 -1.5678905
-3.0789781 -7.4395556 -1.5622329
-3.1161919 -7.4006386 -1.5579408
-3.1557484 -7.367856 -1.5550145
-1.2920077 -2.9678159 -0.60453445
-1.3078096 -2.9544523 -0.60336393
-1.3234963 -2.9410067 -0.60219336
-1.3341678 -2.9167786 -0.59868175
-3.3947525 -7.2987099 -1.5618427
-3.4516294 -7.3034568 -1.5675004
-3.4861863 -7.260922 -1.5628182
-3.5440047 -7.2667203 -1.5688659
-3.6046374 -7.2773542 -1.5760843
-3.6501043 -7.2568517 -1.5764744
-3.6856387 -7.2168503 -1.5725726
-3.72082 -7.1766868 -1.5686709
-3.7675266 -7.1589284 -1.5698414
-3.8141551 -7.1408668 -1.5710119
-3.8625739 -7.1259508 -1.5729629
-3.9076436 -7.1046944 -1.5735481
-3.9530759 -7.0840096 -1.5743284
-3.9950182 -7.0570602 -1.5737432
-4.0343361 -7.0256104 -1.5721824
-4.0941553 -7.0295372 -1.5788156
-4.1362128 -7.0025949 -1.5784254
-4.182127 -6.982132 -1.5795959
-4.2310004 -6.9663978 -1.581937
-4.2726374 -6.9386358 -1.5815468
-4.3317552 -6.9389095 -1.5877897
-4.3805451 -6.9221439 -1.5901308
-4.4234657 -6.8959608 -1.5903258
-4.4555359 -6.8530674 -1.5866191
-4.4980412 -6.8264184 -1.5868143
-4.5491037 -6.8125553 -1.5901308
-4.6001654 -6.7983222 -1.5934473
-2.9165576 -4.2545075 -0.98671639
-4.7050729 -6.7727699 -1.6010559
-4.7380719 -6.7317433 -1.5981295
-4.7832747 -6.7081337 -1.5994951
-3.0361736 -4.2039094 -0.99217892
-4.9249001 -6.7304482 -1.6195894
-4.9082756 -6.6221042 -1.6002755
-4.9417481 -6.5824518 -1.5979344
-5.0236073 -6.6066504 -1.6115907
-5.109539 -6.6347523 -1.6264175
-3.276931 -4.202208 -1.0206621
-3.2880611 -4.1635523 -1.01598
-3.3129334 -4.1425328 -1.0157849
-3.3543422 -4.1419406 -1.0208572
-3.4307048 -4.1834574 -1.0368546
-3.3948901 -4.0883951 -1.0177357
-3.4091792 -4.054728 -1.0144192
-3.4581602 -4.0621066 -1.0218327
-3.4586802 -4.0125866 -1.0144192
-3.4780755 -3.9853785 -1.0128585
-3.4972672 -3.9580836 -1.0112978
-3.5443802 -3.9621298 -1.0181259
-3.5554538 -3.925771 -1.0142242
-3.5416844 -3.862684 -1.003104
-3.5886781 -3.8660336 -1.0099322
-3.6177068 -3.8496578 -1.0114928
-3.6973829 -3.8863535 -1.0276854
-3.7095904 -3.8515871 -1.0243689
-3.7331536 -3.8287528 -1.0243689
-3.7744937 -3.8239191 -1.0294412
-3.7167563 -3.719533 -1.0066156
-3.7409043 -3.6980362 -1.0070058
-3.5747206 -3.4907305 -0.95452648
-3.5021656 -3.3781917 -0.92857951
-3.4283676 -3.2666781 -0.90263247
-3.4476326 -3.2449083 -0.90243739
-3.5192084 -3.2717626 -0.91648388
-3.497309 -3.2116413 -0.90516865
-3.5213089 -3.1940744 -0.90633917
-3.4341674 -3.0768807 -0.87785602
-3.4089036 -3.0167632 -0.86615056
-3.4369519 -3.0041783 -0.86868674
-3.6795743 -3.1765354 -0.92760402
-3.7258689 -3.1768 -0.93462729
-3.801569 -3.201247 -0.94925904
-4.1288657 -3.43366 -1.0288559
-4.1907916 -3.4418664 -1.0393908
-4.1684051 -3.3808808 -1.0282706
-4.1270547 -3.3055899 -1.0124683
-4.2518964 -3.3629279 -1.0390006
-4.164989 -3.2528851 -1.011883
-4.2695408 -3.2925341 -1.0331479
-4.2857609 -3.2633047 -1.0321724
-4.2704196 -3.2104325 -1.0233934
-4.3388743 -3.2204006 -1.035489
-4.3316498 -3.1740131 -1.0288559
-4.2508993 -3.0749674 -1.0042745
-4.2760735 -3.0533845 -1.0058353
-4.2786922 -3.0157924 -1.0019335
-4.3212738 -3.0062799 -1.0077862
-4.4010968 -3.0218875 -1.022613
-4.4528499 -3.0173764 -1.0306118
-4.4614954 -2.9834573 -1.0282706
-4.4600677 -2.9430656 -1.0235884
-4.4476266 -2.8958499 -1.0163702
-4.4727392 -2.8732746 -1.0181259
-4.4588008 -2.8258321 -1.0107125
-4.5509129 -2.8451977 -1.0282706
-4.3687396 -2.694222 -0.98164403
-4.3977594 -2.6750078 -0.98457038
-4.5898952 -2.7533829 -1.0253443
-4.5543594 -2.6942189 -1.0132487
-4.4860759 -2.6168239 -0.99373966
-4.5530663 -2.6185756 -1.0054451
-4.5460091 -2.5775332 -1.0001776
-4.6285262 -2.5868993 -1.0153947
-4.6004944 -2.5343249 -1.0054451
-4.6159582 -2.5060492 -1.0054451
-4.6373024 -2.4809163 -1.0068107
-4.6828084 -2.468416 -1.0136389
-4.6952543 -2.4382808 -1.0130537
-4.6944084 -2.4013889 -1.009542
-4.7011704 -2.3685694 -1.0077862
-4.7226448 -2.3431649 -1.0093468
-4.6981544 -2.2952089 -1.0007629
-4.6971216 -2.259115 -0.99744636
-4.7685208 -2.2575173 -1.0101272
-4.8462992 -2.2580256 -1.0241737
-4.8252892 -2.2123129 -1.0165652
-4.7395248 -2.1379213 -0.99491018
-4.8538675 -2.1537278 -1.0169554
-5.0476909 -2.202713 -1.0561686
-4.871819 -2.0905221 -1.0151995
-4.9098592 -2.0712583 -1.0206621
-5.07832 -2.1056738 -1.0542177
-5.0248346 -2.0474713 -1.0399761
-5.0181804 -2.0089502 -1.0358791
-5.1289978 -2.0168638 -1.0569489
-4.9408889 -1.9080218 -1.0142242
-5.2304029 -1.9829612 -1.0733365
-5.3445115 -1.9887776 -1.0949916
-5.0829711 -1.8560904 -1.0370497
-5.0822597 -1.8205696 -1.0345136
-5.1322021 -1.8029964 -1.0427073
-5.1746998 -1.7823247 -1.0493404
-5.4057899 -1.8248404 -1.0955768
-5.4364409 -1.7981005 -1.0996737
-5.4921608 -1.779209 -1.109038
-5.5487866 -1.7599971 -1.1185975
-5.5922675 -1.7360884 -1.1254256
-5.6225233 -1.7077241 -1.1295226
-5.7175174 -1.6983106 -1.1470807
-5.7956495 -1.682875 -1.1611272
-6.2078376 -1.7612485 -1.2442356
-6.3073778 -1.7477276 -1.2625741
-6.175962 -1.6706042 -1.2333106
-6.8186512 -1.7995033 -1.3634359
-6.8628101 -1.7661811 -1.3702639
-7.1085029 -1.7829373 -1.4184513
-7.1745715 -1.7527784 -1.4297665
-7.2767954 -1.7304925 -1.4484951
-7.9160509 -1.8311657 -1.5768646
-7.8783345 -1.7715924 -1.566915
-8.3250484 -1.818387 -1.6556811
-8.5231485 -1.8069106 -1.6937237
-8.7742548 -1.8039263 -1.7424964
-8.9429121 -1.7814586 -1.7744911
-9.1077652 -1.7562457 -1.8057055
-9.4866896 -1.7689624 -1.8802301
-9.6826973 -1.7440799 -1.9176874
-9.7115765 -1.6878239 -1.9213941
-9.7991362 -1.6411544 -1.9370013
-9.8138638 -1.5817769 -1.9379768
-9.8873549 -1.531431 -1.9508528
-9.8315649 -1.4610826 -1.9377817
-9.8286934 -1.3990724 -1.9354407
-9.8351488 -1.338474 -1.9350505
-9.8422041 -1.2779753 -1.9348553
-9.8615408 -1.2190032 -1.9371965
-9.8688345 -1.158471 -1.9371965
-9.8474884 -1.0947558 -1.9315388
-9.8481674 -1.0336984 -1.9303683
-9.862133 -0.97402209 -1.931929
-9.8737841 -0.91403258 -1.9330995
-9.8704119 -0.85267228 -1.9313438
-9.9663801 -0.79937452 -1.9494871
-9.8918695 -0.73235053 -1.9336848
-9.9118338 -0.67270213 -1.9368063
-9.8707438 -0.6090982 -1.9278321
-9.8899641 -0.54938954 -1.9309536
-9.9264555 -0.49033684 -1.9375867
-9.889102 -0.42768726 -1.929588
-9.9376059 -0.36870453 -1.9387572
-9.9406614 -0.30775183 -1.9389523
-9.9158888 -0.24609736 -1.9336848
-9.9064255 -0.18504974 -1.9315388
-9.9181623 -0.12439562 -1.9336848
-9.9354124 -0.063641429 -1.9370013
-9.9199228 -0.0026752884 -1.93388
-9.91681 0.058174662 -1.9332947
-9.9152861 0.11901008 -1.9330995
-9.9192724 0.17993641 -1.934075
-9.8777809 0.23981582 -1.9260763
-9.8996515 0.3011387 -1.9307585
-9.8956575 0.36180425 -1.9303683
-9.9138288 0.42339727 -1.9344652
-9.9032078 0.48383561 -1.9329045
-9.8990726 0.54453748 -1.9327093
-9.8945665 0.60520679 -1.9325143
-9.8769665 0.66498333 -1.929783
-9.3247986 -0.23563553 -1.9295559
-9.318243 -0.17826515 -1.9279035
-9.3240528 -0.12114991 -1.9289362
-9.2884197 -0.063686535 -1.921294
-9.2592821 -0.0066702543 -1.9150976
-9.3256817 0.050501198 -1.9291427
-9.3281317 0.10775533 -1.9297624
-9.3312073 0.16505869 -1.9305886
-9.3339319 0.22240387 -1.9314147
-9.3030519 0.2787936 -1.9252183
-9.3148546 0.33636454 -1.92811
-9.2969742 0.39285284 -1.9248053
-9.3061171 0.45045775 -1.9272839
-9.270937 0.50579298 -1.9204679
-9.2754717 0.5631429 -1.9221202
-9.2689133 0.6198498 -1.9215006
-9.2454185 0.67528641 -1.9173696
-9.2235441 0.73061258 -1.9136518
-9.2188873 0.78719348 -1.9136518
-9.2723455 0.84909564 -1.9260446
-9.2484589 0.90416569 -1.9221202
-9.2553892 0.96221083 -1.9248053
-9.2687616 1.0211248 -1.9289362
-9.2467718 1.0761685 -1.9256315
-9.2108593 1.1293145 -1.9194351
-9.192111 1.1843102 -1.9169565
-9.1517038 1.2362378 -1.909934
-9.1613846 1.2948322 -1.9136518
-9.1542358 1.3511639 -1.9138584
-9.1670475 1.4105805 -1.9184024
-9.14083 1.4640174 -1.9146845
-9.133605 1.5203981 -1.9150976
-9.1433868 1.5797431 -1.9192286
-9.0959606 1.6290905 -1.9111732
-9.1146545 1.6902224 -1.9173696
-9.0800886 1.7415105 -1.9122061
-9.0730715 1.7979528 -1.9130322
-9.0973368 1.8608435 -1.9206743
-9.0244751 1.9037062 -1.9074554
-8.9858532 1.9532255 -1.9016721
-9.0032988 2.0149479 -1.9080751
-9.0050678 2.0734458 -1.9111732
-9.0388308 2.139703 -1.921294
-8.9989109 2.1886506 -1.9155108
-8.9720221 2.2405076 -1.9126191
-8.9154539 2.2845891 -1.9033245
-8.9078922 2.3409908 -1.9047704
-8.927372 2.4047647 -1.9122061
-8.9416876 2.4675641 -1.9186089
-8.9084892 2.5173285 -1.9146845
-8.852458 2.5602553 -1.9058031
-8.8112497 2.6070306 -1.9002264
-8.8007069 2.6627462 -1.9014657
-8.7926149 2.7192976 -1.9033245
-8.7953568 2.7793875 -1.907662
-8.8125896 2.8444209 -1.9153042
-8.7633753 2.8880293 -1.9082817
-8.7111759 2.9302056 -1.9006394
-8.6819277 2.97979 -1.8981609
-8.7262774 3.054987 -1.9122061
-8.7027607 3.1068285 -1.9111732
-8.6320448 3.141433 -1.8996067
-8.6217804 3.1977413 -1.9016721
-8.6056585 3.2519667 -1.9024984
-8.5718451 3.299437 -1.8994001
-8.5687475 3.3587546 -1.9033245
-8.5116262 3.3967636 -1.8950627
-8.5042219 3.4544487 -1.8981609
-8.4204731 3.4807765 -1.8839092
-8.4774256 3.5653756 -1.9018787
-8.4364977 3.6092439 -1.8975413
-8.4204731 3.6636736 -1.8989871
-8.391571 3.712501 -1.8975413
-8.3329401 3.7478688 -1.8892795
-8.3898754 3.8355374 -1.9078685
-8.318265 3.8646846 -1.896715
-8.2864323 3.9118927 -1.8948562
-8.2807999 3.9715483 -1.8991936
-8.2360439 4.0124283 -1.894443
-8.2200384 4.0672269 -1.8965086
-8.2097912 4.1250548 -1.9000198
-8.1712523 4.1686826 -1.8969216
-8.1455193 4.2187419 -1.8969216
-8.1316051 4.2750163 -1.8998133
-8.082777 4.3128552 -1.894443
-8.060463 4.3646984 -1.8954757
-7.9151897 4.3490582 -1.8669724
-8.0131321 4.4670954 -1.8971282
-7.9591689 4.5012488 -1.8907253
-7.9322486 4.5504875 -1.8909318
-7.9100981 4.6025171 -1.8923776
-7.867383 4.6425133 -1.8888663
-7.8421073 4.692709 -1.8896925
-7.8123293 4.740231 -1.889486
-7.7955976 4.7957673 -1.8925842
-7.7552319 4.8367791 -1.889899
-7.7063861 4.8722482 -1.8851485
-7.6746979 4.918386 -1.8847355
-7.671453 4.9829717 -1.8915514
-7.6145811 5.0127339 -1.8849419
-7.5910058 5.0642486 -1.8868009
-7.5346603 5.0937443 -1.8803979
-7.5008421 5.1382217 -1.8797783
-7.50213 5.2070212 -1.8882467
-7.4532313 5.241137 -1.8839092
-7.4161501 5.2833643 -1.8826699
-7.395494 5.337358 -1.8857682
-7.3626051 5.3826356 -1.8857682
-7.3530293 5.445178 -1.8919646
-7.300694 5.4761033 -1.8870075
-7.2576065 5.5136938 -1.8845289
-7.2151079 5.551559 -1.8822569
-7.2125525 5.6203818 -1.8907253
-7.1594963 5.6499853 -1.8857682
-7.1315732 5.699306 -1.887627
-7.0987506 5.7448034 -1.8882467
-7.0565562 5.7826715 -1.8863878
-6.9968457 5.8058681 -1.8797783
-6.9738255 5.8593903 -1.8832896
-6.9228358 5.8893909 -1.8791587
-6.9102926 5.9521909 -1.8857682
-6.8470931 5.9713292 -1.8783325
-6.7978559 6.0022211 -1.8748212
-6.7616282 6.0444713 -1.8750278
-6.7534318 6.1121068 -1.8832896
-6.7136374 6.1514473 -1.8826699
-6.6972871 6.2124867 -1.8888663
-6.6419234 6.2373891 -1.8839092
-6.6269283 6.300272 -1.8907253
-6.5909657 6.3435297 -1.8915514
-6.528091 6.3606367 -1.8845289
-6.5014787 6.41294 -1.8882467
-6.4973192 6.4879694 -1.8987806
-6.434679 6.5047603 -1.8919646
-6.4008002 6.5504184 -1.8938234
-6.357769 6.5867538 -1.8929973
-6.3482933 6.6582136 -1.9024984
-6.3032947 6.6927671 -1.9012591
-6.2427821 6.7105436 -1.8952693
-6.1577935 6.7011743 -1.8816372
-6.1796927 6.8083811 -1.9014657
-6.115593 6.8214021 -1.894443
-6.0794606 6.8653903 -1.896302
-6.037221 6.902564 -1.896302
-5.997952 6.9431796 -1.8973347
-5.9730196 7.0006924 -1.903118
-5.9223852 7.0282321 -1.9006394
-5.8728905 7.0569186 -1.898574
-5.8245091 7.0867739 -1.8969216
-5.777216 7.1178212 -1.8956823
-5.7462845 7.1691675 -1.9000198
-5.7185831 7.2250051 -1.9055965
-5.6783619 7.2653537 -1.9070424
-5.642045 7.3109026 -1.909934
-5.5941148 7.3414927 -1.9089013
-5.5577865 7.3874073 -1.9119995
-5.503602 7.4095883 -1.9089013
-5.4643989 7.4518976 -1.9111732
-5.4065228 7.4686427 -1.9068358
-5.3708344 7.516005 -1.9105537
-5.3065677 7.5232334 -1.9039441
-5.2988834 7.6110573 -1.9181958
-5.2426624 7.6297188 -1.9146845
-5.1979456 7.6649823 -1.9155108
-5.1442857 7.6869745 -1.9130322
-5.1099634 7.7379894 -1.9179893
-5.0794821 7.7954297 -1.9245987
-5.0310254 7.8256273 -1.9243922
-4.9823895 7.8555236 -1.9241856
-4.9107394 7.8486223 -1.9148911
-4.8789339 7.9052496 -1.9215006
-4.8690047 7.9985538 -1.937198
-4.8153019 8.0207291 -1.9353391
-4.7689881 8.0551758 -1.9365784
-4.714046 8.0749912 -1.9343064
-4.6526952 8.0834131 -1.9293493
-4.6213593 8.144146 -1.937198
-4.5598364 8.1518545 -1.932241
-4.5135112 8.1865349 -1.9338933
-4.4692678 8.2252512 -1.9365784
-4.4251814 8.264595 -1.9394701
-4.372561 8.2881298 -1.9386438
-4.3441873 8.3582115 -1.9489712
-4.2834558 8.3664207 -1.9446337
-4.2360048 8.4004078 -1.9464926
-4.192215 8.4420156 -1.9502105
-4.140337 8.4675798 -1.9502105
-4.0874538 8.4910612 -1.9497973
-4.0285726 8.5018349 -1.9464926
-3.9899788 8.5556555 -1.9533086
-3.9251633 8.553299 -1.9471122
-3.8750234 8.5825729 -1.9483515
-3.8203027 8.601717 -1.9473188
-3.7729354 8.6375484 -1.9502105
-3.7329955 8.691103 -1.957233
-3.6735072 8.6994228 -1.9539282
-3.6088057 8.6946888 -1.9477319
-3.5698013 8.7520008 -1.9557872
-3.5076609 8.7528515 -1.9510366
-3.462132 8.7951488 -1.9557872
-3.4088066 8.8180513 -1.9562002
-3.3535941 8.8360577 -1.9555806
-3.3020468 8.8638029 -1.957233
-3.2512929 8.8940058 -1.959505
-3.1983109 8.9183931 -1.9605377
-3.1477492 8.9498482 -1.9632229
-3.0946887 8.9745436 -1.964462
-3.0423837 9.0017061 -1.966321
-2.9953988 9.0452824 -1.9718977
-2.9419551 9.0700064 -1.9733435
-2.8770647 9.058979 -1.9669406
-2.8211353 9.0755272 -1.9667341
-2.7733686 9.1188774 -1.9725174
-2.7237806 9.1572924 -1.9772679
-2.6634429 9.1597395 -1.9741697
-2.6034453 9.162734 -1.9712781
-2.5432494 9.1643934 -1.9681799
-2.4954145 9.2109909 -1.9749959
-2.4451022 9.2497778 -1.9801595
-2.3851249 9.2522898 -1.9774745
-2.3316474 9.280035 -1.9803661
-2.2655895 9.257102 -1.9723108
-2.2067051 9.2622633 -1.970452
-2.1580069 9.3108959 -1.9780941
-2.0943825 9.2953272 -1.9718977
-2.0481887 9.3577051 -1.9826381
-1.9886986 9.3605251 -1.9805727
-1.9274735 9.3543444 -1.9766483
-1.8641 9.3362503 -1.9702454
-1.8047358 9.3369455 -1.9679734
-1.7502886 9.3632317 -1.9712781
-1.6957606 9.3901634 -1.9747894
-1.6387838 9.4042473 -1.9756155
-1.5873712 9.4517574 -1.9836708
-1.5260669 9.4410353 -1.9793334
-1.4726163 9.4792271 -1.9855298
-1.4080757 9.4455032 -1.9764417
-1.3516146 9.4646206 -1.9787138
-1.2872916 9.4271717 -1.9690061
-1.2289176 9.4310122 -1.9681799
-1.1688576 9.4208975 -1.964462
-1.1189342 9.4949398 -1.9787138
-1.0583729 9.4812069 -1.9743763
-1.0035639 9.5196323 -1.9811922
-0.94339395 9.5080853 -1.9774745
-0.88285953 9.4903135 -1.9725174
-0.82994699 9.556962 -1.9855298
-0.76987422 9.5443201 -1.9818119
-0.71129686 9.5488644 -1.9818119
-0.65309316 9.5589056 -1.9830512
-0.59309214 9.5412493 -1.9785072
-0.53524876 9.5574083 -1.9811922
-0.47615671 9.5517178 -1.9793334
-0.41608572 9.521224 -1.9723108
-0.35975209 9.5793295 -1.9840839
-0.29979876 9.5441942 -1.9762352
-0.24227092 9.586936 -1.9849101
-0.18227911 9.5275898 -1.9721043
-0.12382824 9.5295067 -1.9723108
-0.065225691 9.5114975 -1.9683864
-0.00686824 9.518568 -1.9698323
0.051510442 9.5135384 -1.9687996
0.11046896 9.5639191 -1.9795399
0.16883926 9.5454521 -1.9758221
0.22687078 9.521739 -1.9710715
0.28491032 9.507453 -1.9683864
0.34225413 9.4781475 -1.9626032
0.40197262 9.5130167 -1.970452
0.46104476 9.5250311 -1.9735501
0.51948059 9.5220222 -1.9735501
0.57736355 9.5098658 -1.9716911
0.63263762 9.4602604 -1.9619836
0.69259608 9.4825478 -1.9675603
0.75169349 9.4898243 -1.9700388
0.81015742 9.487958 -1.9706584
0.8640784 9.436039 -1.9607443
0.92738473 9.4860659 -1.9725174
0.98183072 9.4441891 -1.9648752
1.035905 9.4029741 -1.9574395
1.0991215 9.4440632 -1.9675603
1.1581197 9.4458818 -1.9694191
1.2096825 9.3891068 -1.9588853
1.2723768 9.4193239 -1.9669406
1.3289167 9.4026194 -1.9650817
1.3801578 9.3507309 -1.9557872
1.4397383 9.3565922 -1.9588853
1.4980503 9.3533783 -1.9601246
1.5583045 9.3613834 -1.9638424
1.6113856 9.3265772 -1.9584723
1.6737556 9.3454084 -1.9646686
1.7346336 9.3542032 -1.9687996
1.7728344 9.2434473 -1.9473188
1.8397859 9.2842236 -1.9584723
1.9145575 9.359992 -1.9772679
1.9828566 9.3997669 -1.9884214
2.0332227 9.3539591 -1.9811922
2.0751967 9.2725601 -1.966321
2.138638 9.2882566 -1.9725174
2.1723785 9.1768904 -1.9512432
2.2420547 9.2185307 -1.9632229
2.2997615 9.2093458 -1.9642556
2.3416555 9.1381922 -1.9518628
2.3934553 9.1075649 -1.9483515
2.4546366 9.1125479 -1.9526889
2.4941087 9.0378933 -1.9396766
2.5630846 9.0704403 -1.9502105
2.6167889 9.0479631 -1.9487646
2.6747549 9.0401812 -1.9506235
2.7262077 9.0104876 -1.9477319
2.7904043 9.0225677 -1.9541348
2.8468924 9.0090084 -1.9549609
2.8891954 8.9513311 -1.9460795
2.9486585 8.9473743 -1.9491777
3.0006959 8.9207668 -1.9473188
3.056329 8.9049635 -1.9479384
3.1151137 8.8980474 -1.9506235
3.15518 8.8382206 -1.9415355
3.2160423 8.8370838 -1.9456664
3.2797308 8.8428707 -1.9514498
3.3187113 8.7823076 -1.9423617
3.3658588 8.7444296 -1.9384373
3.4130237 8.7072144 -1.9347194
3.4642103 8.6806564 -1.9334803
3.4997356 8.6157236 -1.923566
3.5577672 8.6067476 -1.9264576
3.6127858 8.590167 -1.9276969
3.6735072 8.586729 -1.9320344
3.718709 8.5469799 -1.92811
3.7556453 8.4891043 -1.9200548
3.8044524 8.4587612 -1.9184024
3.885977 8.5002193 -1.9334803
3.9207468 8.4389467 -1.9248053
3.9615943 8.3917246 -1.9194351
4.017241 8.3760815 -1.9215006
4.0719881 8.3583117 -1.9231529
4.0980325 8.2823038 -1.9111732
4.1377931 8.2351456 -1.9060097
4.1900234 8.213088 -1.9068358
4.2263908 8.1602898 -1.9004329
4.2923164 8.1645155 -1.907662
4.3556886 8.1630592 -1.9136518
4.3907866 8.1086464 -1.9070424
4.4597745 8.1167116 -1.9155108
4.4885325 8.05159 -1.9064227
4.5402598 8.0281563 -1.9074554
4.5874867 7.9967518 -1.9066293
4.6197386 7.9396982 -1.8996067
4.680799 7.9322696 -1.9047704
4.7158179 7.8807302 -1.8991936
4.7524118 7.832406 -1.894443
4.8270383 7.8464346 -1.9051834
4.8875184 7.8365941 -1.9101405
4.9208713 7.7833004 -1.9043573
4.9637852 7.7455454 -1.9024984
4.9867024 7.677197 -1.8929973
5.0439363 7.6619825 -1.8969216
5.0680494 7.5967035 -1.8882467
5.1321011 7.591403 -1.8948562
5.16255 7.5363603 -1.8888663
5.2254305 7.5286565 -1.8950627
5.2715273 7.4964519 -1.8950627
5.3083425 7.4512148 -1.891758
5.3510995 7.414536 -1.8907253
5.3976483 7.3831425 -1.8911383
5.4475069 7.3561749 -1.8927907
5.5001731 7.3327866 -1.8954757
5.5373683 7.2887716 -1.8927907
5.5700545 7.2391481 -1.8886598
5.5969286 7.1824522 -1.8826699
5.6566525 7.1679454 -1.8880402
5.6864791 7.1155214 -1.8832896
5.7374177 7.0896235 -1.8857682
5.7820511 7.0557995 -1.8861812
5.8096166 7.0013638 -1.8810176
5.8461733 6.9580932 -1.8789521
5.874176 6.9049497 -1.8742015
5.9336734 6.888793 -1.8797783
5.9713292 6.8470931 -1.8783325
5.9963927 6.7912545 -1.8729624
6.0183887 6.7324486 -1.866766
6.0681195 6.7048249 -1.869451
6.0760975 6.6313939 -1.8591237
6.1286492 6.6068993 -1.8628416
6.1764402 6.5770164 -1.8651136
6.2133093 6.5354486 -1.8640809
6.2526145 6.4964967 -1.8638743
6.3094282 6.4755292 -1.869038
6.3366752 6.4241543 -1.8653201
6.3490119 6.3581495 -1.8572649
6.357996 6.2894831 -1.8483834
6.4223595 6.2756553 -1.8560256
6.4727125 6.2476826 -1.8595369
6.512342 6.2091994 -1.8599499
6.5325122 6.1523523 -1.8547863
6.5808845 6.1221509 -1.8578845
6.6291318 6.0915871 -1.8609827
6.6192937 6.0080509 -1.8475572
6.6749744 5.9843049 -1.8529273
6.7071729 5.9393435 -1.8516881
6.7199235 5.8774629 -1.8450786
6.801765 5.8757782 -1.8578845
6.8659735 5.8580666 -1.8657333
6.9189968 5.8303294 -1.8704838
6.9411039 5.7764993 -1.866766
6.9446707 5.7077065 -1.858091
7.0091891 5.6890359 -1.8661463
7.0134268 5.6214428 -1.8578845
7.0316768 5.5655508 -1.853547
7.0973001 5.5470052 -1.8620154
7.1257806 5.4991674 -1.8605696
7.1842918 5.4743185 -1.867179
7.2013273 5.4177804 -1.8628416
7.2485728 5.3839936 -1.8665594
7.2767377 5.3359442 -1.8653201
7.350554 5.3210306 -1.8760605
7.3528147 5.2542105 -1.8682117
7.4152975 5.2304277 -1.8760605
7.4127235 5.160789 -1.867179
7.4716673 5.1340494 -1.8742015
7.476306 5.069984 -1.8673856
7.5406122 5.0463276 -1.875854
7.5395923 4.9789348 -1.8677987
7.6109877 4.9592886 -1.8781259
7.6190529 4.8982081 -1.8725492
7.6597056 4.8581796 -1.8752344
7.682735 4.8069367 -1.873582
7.6921024 4.7473722 -1.8686248
7.7670531 4.7280684 -1.8799849
7.7791409 4.6702485 -1.875854
7.7924957 4.6134558 -1.8721361
7.8231916 4.5670352 -1.8727558
7.8671789 4.5282216 -1.8766801
7.8803492 4.4716544 -1.8731688
7.9341092 4.438026 -1.8795718
7.9449115 4.3802829 -1.8756474
7.9974298 4.3454666 -1.8818438
8.032568 4.3009324 -1.8839092
8.0397692 4.2415199 -1.8793652
8.0456753 4.1817293 -1.8746147
8.1182117 4.156364 -1.8857682
8.1156054 4.0923748 -1.8791587
8.1440687 4.0442419 -1.8799849
8.1731253 3.9963441 -1.8810176
8.1966105 3.9456949 -1.8808111
8.2356977 3.9024506 -1.8843223
8.2257919 3.8361278 -1.8764735
8.2865238 3.8027244 -1.8851485
8.2981081 3.746573 -1.8824635
8.3316708 3.7003524 -1.8849419
8.3766346 3.658953 -1.8901056
8.3692608 3.5947421 -1.8832896
8.3884554 3.5421796 -1.8826699
8.4154539 3.492893 -1.8839092
8.4385395 3.4419301 -1.8843223
8.4676743 3.3933635 -1.8861812
8.4901571 3.3420599 -1.8865943
8.5105038 3.2899022 -1.8865943
8.5433359 3.2424819 -1.889486
8.5218115 3.1746278 -1.8801914
8.5438871 3.123287 -1.8808111
8.5794687 3.0767498 -1.8845289
8.5963392 3.0234001 -1.8841158
8.6434031 2.9804859 -1.8905187
8.6643095 2.928335 -1.8911383
8.6746836 2.8726556 -1.889486
8.6949387 2.8202803 -1.8901056
8.737258 2.7748737 -1.8956823
8.7485142 2.7194679 -1.894443
8.7304001 2.6552014 -1.8868009
8.7437143 2.6007457 -1.8861812
8.7773581 2.5522377 -1.8901056
8.7777948 2.4940534 -1.8868009
8.8268728 2.4495676 -1.8942366
8.858736 2.3999667 -1.8979543
8.8704576 2.344815 -1.8973347
8.8827829 2.2898543 -1.8969216
8.9014111 2.2364998 -1.8979543
8.9453783 2.1892841 -1.9045638
8.94627 2.1314065 -1.9018787
8.9953995 2.0848696 -1.9097275
8.9698429 2.0210314 -1.9014657
8.9476662 1.9584227 -1.89403
8.9642992 1.9045008 -1.8950627
8.980608 1.8504485 -1.8960954
9.0215378 1.8012499 -1.9024984
9.0266562 1.7447464 -1.9012591
9.0208416 1.68627 -1.8977478
9.0570154 1.6355834 -1.9033245
9.0524225 1.5774596 -1.9002264
9.0879841 1.5262618 -1.9058031
9.0450191 1.4620371 -1.8946496
0 0 -0
0 0 -0
0 0 -0
0 0 -0
0 0 -0
0 0 -0
0 0 -0
0 0 -0
0 0 -0
0 0 -0
0 0 -0
0 0 -0
0 0 -0
0 0 -0
0 0 -0
0 0 -0
0 0 -0
0 0 -0
0 0 -0
0 0 -0
0 0 -0
0 0 -0
0 0 -0
0 0 -0
0 0 -0
0 0 -0
0 -0 -0
0 -0 -0
0 -0 -0
0 -0 -0
0 -0 -0
0 -0 -0
0 -0 -0
0 -0 -0
0 -0 -0
0 -0 -0
5.89008 -0.39403966 -1.2066457
5.8826723 -0.42981693 -1.205613
5.8906536 -0.46675363 -1.207885
5.9081516 -0.50463647 -1.2122225
0 -0 -0
5.9453349 -0.58138281 -1.2215171
6.0798492 -0.6322127 -1.2508465
8.9565706 -0.98674476 -1.862635
8.6480923 -1.0065185 -1.7983993
8.394105 -1.0292107 -1.7457302
8.2682705 -1.0653232 -1.720325
8.1432829 -1.1000618 -1.6951264
8.01334 -1.1326228 -1.6688951
8.1214266 -1.1987669 -1.6934741
8.1651716 -1.256461 -1.704421
8.1698685 -1.3085489 -1.7071061
8.1510687 -1.3568869 -1.7048341
8.1454821 -1.407375 -1.7054538
8.150177 -1.4597425 -1.7083454
8.1218262 -1.5061564 -1.7042145
8.0980177 -1.5531988 -1.7011162
8.0528231 -1.5958225 -1.6934741
8.0380869 -1.6442235 -1.6924413
8.0249739 -1.6929076 -1.6918217
7.9991379 -1.7387915 -1.688517
7.9663572 -1.7829266 -1.6837664
7.9619417 -1.8333101 -1.6852123
7.9210267 -1.8751434 -1.6788093
7.8656383 -1.913076 -1.6693082
7.3003125 -1.8231224 -1.548892
7.5287881 -1.9293195 -1.6011481
7.7477093 -2.036149 -1.6515453
7.7322354 -2.0828862 -1.6509256
7.7079911 -2.1271682 -1.6484472
7.6684299 -2.166975 -1.6426638
7.6343107 -2.2080073 -1.6381198
7.5952864 -2.2473149 -1.6325431
7.5654335 -2.2890601 -1.6290318
7.5512457 -2.3354375 -1.6290318
7.5218458 -2.3770106 -1.6257271
7.4894276 -2.4174097 -1.6218027
7.4856048 -2.4669929 -1.6242813
7.4758911 -2.5147486 -1.6255205
7.4742022 -2.5653365 -1.6286187
7.461091 -2.6121187 -1.6292384
7.4145141 -2.6469955 -1.6224223
7.4192801 -2.7001355 -1.6271729
7.4200029 -2.7520723 -1.6310973
7.4331813 -2.8089612 -1.6379132
7.4377213 -2.8629518 -1.6428703
7.4582753 -2.9235303 -1.6515453
7.484726 -2.9870067 -1.661666
7.4580984 -3.0295622 -1.6598071
7.4456987 -3.0778835 -1.661253
7.4059286 -3.1147878 -1.6565024
7.3659863 -3.1513205 -1.6517519
7.339334 -3.1933355 -1.6500995
7.2990217 -3.2292049 -1.6453489
7.2692542 -3.2695158 -1.6430769
7.2107916 -3.2965662 -1.6341954
7.1788926 -3.3353899 -1.6315104
7.1644855 -3.3822997 -1.6329561
7.1374216 -3.4232347 -1.6315104
7.0749407 -3.446826 -1.6218027
7.0571656 -3.4919076 -1.6226289
7.0364814 -3.535583 -1.6228354
7.0207562 -3.5818038 -1.6242813
6.9960399 -3.6234651 -1.6236616
6.945961 -3.6517551 -1.6170522
6.9208336 -3.6929243 -1.6164325
6.9006252 -3.7367177 -1.6170522
6.8792825 -3.7799311 -1.6174653
6.850832 -3.8192122 -1.616226
6.8051248 -3.848654 -1.6108558
6.8424897 -3.9253893 -1.6257271
6.7861376 -3.9486029 -1.6178783
6.7752647 -3.9981229 -1.621183
6.8841043 -4.1194978 -1.6540239
6.867063 -4.1667352 -1.6560893
6.8338666 -4.2041788 -1.6542304
6.7988091 -4.2403359 -1.6519583
6.7767982 -4.2845874 -1.6529911
6.7396712 -4.3192253 -1.650306
6.7196069 -4.3647618 -1.6519583
6.6649113 -4.3876195 -1.6449358
6.6101894 -4.4099708 -1.6379132
6.5951648 -4.4586668 -1.6410115
6.6217675 -4.5360951 -1.65485
6.5825562 -4.56883 -1.6519583
6.5311875 -4.5928135 -1.6459686
6.4789762 -4.6157713 -1.6397722
6.4433913 -4.6502852 -1.6379132
6.3997288 -4.6787629 -1.6339889
6.3701134 -4.7173605 -1.6337824
6.3676615 -4.7763181 -1.6408049
6.3281064 -4.8076053 -1.6381198
6.2752237 -4.8284445 -1.6319234
6.2315865 -4.8560328 -1.6282057
6.1886153 -4.8838739 -1.6246943
6.1524167 -4.9168682 -1.623042
6.1411467 -4.9699135 -1.6282057
6.0757227 -4.9789748 -1.6187046
6.0307512 -5.0042906 -1.6147802
5.9886947 -5.0317597 -1.6116819
5.9741035 -5.0823579 -1.616226
5.9376168 -5.114449 -1.6147802
5.9341459 -5.1752214 -1.6226289
5.8883438 -5.1992316 -1.6187046
5.8731093 -5.2502613 -1.623455
5.818294 -5.2658467 -1.6170522
5.7822666 -5.2981434 -1.6160194
5.7367363 -5.3215461 -1.6123016
5.7282271 -5.3794179 -1.6193242
5.6632004 -5.3841286 -1.6100296
5.659667 -5.4472718 -1.6187046
5.6170259 -5.4730201 -1.6160194
5.5457211 -5.4702806 -1.6048659
5.5307465 -5.5228715 -1.6104426
5.4891849 -5.5490522 -1.6081706
5.4591365 -5.5868278 -1.6094099
5.4498968 -5.6462655 -1.6170522
2.2652814 -2.3762438 -0.65351629
2.2499876 -2.3893864 -0.65330976
2.2346177 -2.4024308 -0.65310317
2.2291036 -2.4261827 -0.65599483
5.2175775 -5.7484784 -1.5992892
5.1828609 -5.7811131 -1.5994958
5.1498857 -5.8157358 -1.6003219
5.1108832 -5.8435431 -1.5992892
5.0742917 -5.8740525 -1.5990827
5.0527611 -5.9221959 -1.6038332
5.0201111 -5.9575768 -1.6050725
4.9596767 -5.9596901 -1.5972238
4.921773 -5.9884982 -1.5968107
4.8793859 -6.0117478 -1.5949517
4.8277192 -6.0232515 -1.5899947
4.8143539 -6.0826802 -1.59805
1.9937433 -2.5513773 -0.64401519
1.980442 -2.5666609 -0.64484137
1.9605047 -2.5733168 -0.64339554
1.9429134 -2.5829523 -0.64277589
1.9276116 -2.5956106 -0.64298242
1.8202264 -2.4827261 -0.61034822
1.7797124 -2.458976 -0.60126019
1.7486618 -2.4475605 -0.59547693
4.4819961 -6.3543282 -1.6019744
4.4110541 -6.3359404 -1.5902013
4.3626742 -6.3491783 -1.5866899
4.3164945 -6.3653007 -1.5840049
4.2610302 -6.3672724 -1.5778085
4.2218814 -6.3932977 -1.5778085
4.1745605 -6.4067864 -1.5747102
4.1267042 -6.4191122 -1.5714055
4.0893359 -6.4476171 -1.5722318
4.0408735 -6.458487 -1.5687205
3.9929466 -6.4698381 -1.5654157
3.9801393 -6.5385113 -1.5763626
3.9600911 -6.5963635 -1.5846244
3.9180467 -6.6180124 -1.5840049
3.8640456 -6.6191144 -1.5784281
1.6721611 -2.9056618 -0.66818106
1.6571983 -2.9209731 -0.6694203
1.6468874 -2.9447489 -0.67272502
3.7009132 -6.7128062 -1.5786346
3.6461065 -6.7104568 -1.5726448
3.6039393 -6.7309775 -1.5722318
3.5885966 -6.80229 -1.5840049
3.544986 -6.8207088 -1.5831786
3.5070815 -6.8501701 -1.5850376
3.4508851 -6.8436041 -1.5784281
3.3983834 -6.8436179 -1.573471
3.3692226 -6.8907104 -1.5796673
3.3285763 -6.9147801 -1.5804936
3.274353 -6.9103165 -1.5747102
3.2256868 -6.9169765 -1.5716121
3.1807356 -6.9313035 -1.5703728
3.1337166 -6.9408803 -1.5681008
3.0743876 -6.9224219 -1.5594258
3.0338128 -6.9456387 -1.5604587
3.0034959 -6.9928908 -1.5670681
2.9780421 -7.0526505 -1.5765692
2.9159558 -7.0256071 -1.5662419
2.8605967 -7.0134702 -1.5594258
2.8000369 -6.9872966 -1.5495117
2.7592614 -7.0098085 -1.550751
2.7116113 -7.0147433 -1.5480659
2.6681714 -7.0303345 -1.5478593
2.622251 -7.0392389 -1.546207
2.5790098 -7.0551963 -1.546207
2.5346804 -7.0681248 -1.5455873
2.4912634 -7.0835443 -1.5455873
2.4605126 -7.1356959 -1.5538491
2.4279621 -7.1840281 -1.5612848
2.3696852 -7.1560645 -1.5517837
2.3193915 -7.1509256 -1.5474463
2.2879112 -7.2041883 -1.5561211
2.2419212 -7.2124853 -1.5548819
2.1962004 -7.2214255 -1.5538491
2.154918 -7.2450809 -1.5561211
2.1123352 -7.2647433 -1.557567
2.0709293 -7.2888618 -1.5600455
2.0274751 -7.3061457 -1.5610783
1.9867015 -7.3335586 -1.564383
1.9376647 -7.3304758 -1.5610783
1.8669995 -7.2427444 -1.5393909
1.8382624 -7.3166933 -1.553023
1.797521 -7.3449421 -1.5567408
1.7510586 -7.3501225 -1.5555015
1.6966459 -7.3206954 -1.5468266
1.6594388 -7.3653302 -1.5542623
1.6121223 -7.3658156 -1.5521967
1.5701503 -7.3908815 -1.5555015
1.525166 -7.4022937 -1.5559146
1.4827836 -7.4268641 -1.5592194
1.4329135 -7.4137278 -1.5544688
1.3855985 -7.4127626 -1.5524033
1.3362623 -7.3999419 -1.5478593
1.2918401 -7.4137855 -1.5490986
1.2411386 -7.3906951 -1.5424892
1.1790565 -7.2948208 -1.5203887
1.1354761 -7.3096528 -1.5220411
1.091758 -7.324224 -1.5236934
1.0467968 -7.3307853 -1.5236934
0.99954516 -7.32059 -1.5201823
0.95283753 -7.3130021 -1.5172906
0.90782732 -7.31774 -1.517084
0.86290944 -7.3231726 -1.517084
0.81709033 -7.32055 -1.5154316
0.77154118 -7.3195877 -1.5141923
0.72690445 -7.327105 -1.514812
0.68193251 -7.3314271 -1.514812
0.63583386 -7.3228016 -1.5121269
0.59159845 -7.3353424 -1.5139859
0.54614216 -7.3329797 -1.5127466
0.50073713 -7.3303361 -1.5115073
0.45520291 -7.3244815 -1.5096483
0.41107342 -7.3417902 -1.5127466
0.36630985 -7.3500376 -1.5139859
0.32188812 -7.3677869 -1.5172906
0.27634332 -7.3608236 -1.5154316
0.23114219 -7.3614025 -1.5152251
0.18582056 -7.3568139 -1.5139859
0.14063899 -7.3558588 -1.5135727
0.0956802 -7.3702803 -1.5164644
0.050590225 -7.3902969 -1.5205953
0.0053022844 -7.4677649 -1.5369124
-0.040513903 -7.4666781 -1.5367059
-0.08654175 -7.4848781 -1.5406302
-0.13241468 -7.4812713 -1.5400106
-0.17822334 -7.4764056 -1.5391845
-0.22412363 -7.4761491 -1.5393909
-0.272214 -7.5362349 -1.5524033
-0.31630453 -7.4835892 -1.5416629
-0.36174437 -7.4717345 -1.5395975
-0.40907452 -7.4967299 -1.5453808
-0.45423636 -7.4804058 -1.5424892
-0.50025719 -7.4794302 -1.5429022
-0.54706675 -7.4889059 -1.5455873
-0.59277582 -7.482482 -1.5449677
-0.64067316 -7.5021014 -1.5499247
-0.68767416 -7.5087471 -1.5521967
-0.73192596 -7.4858842 -1.5482724
-0.78421611 -7.5425634 -1.5612848
-0.82941061 -7.527884 -1.5592194
-0.87287164 -7.4993281 -1.5542623
-0.92565489 -7.5491877 -1.5660354
-0.96795881 -7.5123124 -1.5594258
-1.0171778 -7.5295029 -1.564383
-1.0576097 -7.4824295 -1.5557081
-1.1050721 -7.4864469 -1.5579801
-1.1505411 -7.476624 -1.5573604
-1.2007265 -7.4964757 -1.5631437
-1.2510382 -7.5150261 -1.5687205
-1.2997906 -7.522635 -1.5720252
-1.339371 -7.4779196 -1.5641764
-1.3868346 -7.478219 -1.5660354
-1.4347209 -7.4801393 -1.5683074
-1.4794502 -7.4654365 -1.5670681
-1.5271899 -7.4658041 -1.5691335
-1.5757972 -7.469696 -1.5720252
-1.6186917 -7.4465008 -1.5691335
-1.6681978 -7.4536157 -1.5728514
-0.69804376 -3.0304527 -0.61695766
-0.71392095 -3.0146868 -0.61447912
-0.73240525 -3.0102496 -0.61447912
-0.7461217 -2.9867132 -0.61034822
-1.8800237 -7.33638 -1.5592194
-0.77426308 -2.9451573 -0.60332566
-0.7933374 -2.9441302 -0.60415184
-0.80696321 -2.9231727 -0.60064059
-0.82727849 -2.9266405 -0.60249949
-2.1033657 -7.2724385 -1.5585997
-2.143508 -7.2443838 -1.555295
-2.204917 -7.2872863 -1.5676877
-1.0754631 -3.4765987 -0.72869891
-2.3068528 -7.2997975 -1.5765692
-2.3519006 -7.286437 -1.5767757
-2.3849289 -7.2365556 -1.568927
-1.0915282 -3.2442052 -0.6830523
-1.1072851 -3.2254155 -0.68036723
-1.11962 -3.1973202 -0.67561668
-2.5937102 -7.2652321 -1.588962
-2.6282029 -7.2215967 -1.5827656
-1.1571898 -3.119292 -0.66281086
-1.1790743 -3.1194553 -0.66446322
-1.2147102 -3.1550796 -0.67417085
-1.2354747 -3.1512108 -0.67499703
-2.8484871 -7.137579 -1.5827656
-2.8878107 -7.1090884 -1.580287
-2.9268918 -7.0803843 -1.5778085
-2.9535928 -7.0226068 -1.5687205
-1.2776828 -2.9858875 -0.64608061
-1.2948087 -2.9752998 -0.64546102
-1.30077 -2.9395604 -0.63905811
-1.3272098 -2.950263 -0.64339554
-3.1879585 -6.9731951 -1.5790477
-3.2282119 -6.9481788 -1.5778085
-3.2682784 -6.9229307 -1.5765692
-3.3073106 -6.895689 -1.5749168
-3.3607001 -6.8981361 -1.580287
-3.4038308 -6.8791394 -1.5807
-3.4437799 -6.8537526 -1.5796673
-3.4831014 -6.8272638 -1.5784281
-3.5276268 -6.810976 -1.5796673
-3.5866518 -6.8221135 -1.5875161
-3.6192327 -6.7827125 -1.5833852
-3.6677704 -6.773284 -1.5864834
-3.7069058 -6.7463636 -1.5854506
-3.7491837 -6.7252007 -1.5858637
-3.7995288 -6.7182517 -1.5897881
-3.8567455 -6.7228198 -1.5966041
-3.90924 -6.7184801 -1.6013547
-3.9608316 -6.7120633 -1.6056921
-3.9401493 -6.5843611 -1.580287
-4.0368109 -6.6529145 -1.6032135
-4.0929356 -6.6530213 -1.6094099
-2.6306648 -4.2176309 -1.0098077
-2.6533573 -4.1964478 -1.0085684
-2.6637473 -4.1561975 -1.0025786
-2.6966603 -4.1512628 -1.0054703
-2.7188535 -4.1297345 -1.004231
-2.7305677 -4.0926251 -0.99906731
-2.7879572 -4.1236196 -1.0112535
-2.8121011 -4.1048212 -1.0108404
-2.8740535 -4.1405416 -1.0244725
-2.9247305 -4.1588459 -1.033767
-2.9127266 -4.0882254 -1.0201349
-2.9669573 -4.1107407 -1.0306689
-3.0030954 -4.1074662 -1.0345932
-3.021837 -4.0803123 -1.0323212
-3.0444682 -4.0585632 -1.031495
-3.0687218 -4.0390272 -1.0312884
-3.0898674 -4.0154686 -1.0300492
-3.161355 -4.0566349 -1.0461597
-3.2401295 -4.1055222 -1.0645423
-3.2035685 -4.0083623 -1.0436811
-3.1948671 -3.9475574 -1.0325277
-3.1266284 -3.8151143 -1.0017524
-3.1699712 -3.8199537 -1.0083618
-3.2141197 -3.8251531 -1.0151778
-3.252111 -3.8225009 -1.0199285
-3.3106229 -3.8432498 -1.0312884
-3.3572927 -3.8494115 -1.0387241
-3.386677 -3.8353405 -1.040583
-3.4218836 -3.8276188 -1.0443008
-3.4571223 -3.8196089 -1.0480187
-3.4600041 -3.7759602 -1.0416157
-3.455162 -3.7245295 -1.0329407
-3.4973736 -3.7239437 -1.0389307
-3.5113935 -3.6931953 -1.0362456
-3.5421302 -3.6800401 -1.0387241
-3.5803478 -3.6743557 -1.0434747
-3.5808396 -3.6300261 -1.0368651
-3.6009717 -3.6059091 -1.0362456
-3.641114 -3.6016374 -1.0416157
-3.658946 -3.5751252 -1.0403764
-3.4970806 -3.3752456 -0.98646802
-3.4688649 -3.3071349 -0.97221637
-3.4385226 -3.2381573 -0.9575516
-3.5034566 -3.2589858 -0.97056401
-3.4823234 -3.1996899 -0.9587909
-3.493197 -3.1703708 -0.95631236
-3.3894689 -3.038491 -0.92140609
-3.3919342 -3.0033653 -0.91686207
-3.6017766 -3.1499841 -0.97056401
-3.6662009 -3.1668437 -0.9831633
-3.783067 -3.2274866 -1.0102208
-3.9614148 -3.3378837 -1.0540085
-3.9148893 -3.2578075 -1.0356259
-3.9733546 -3.2654107 -1.0461597
-3.981921 -3.2317195 -1.0430615
-3.9902239 -3.1980464 -1.0399634
-4.0051684 -3.1698592 -1.0387241
-4.019918 -3.141609 -1.0374848
-3.9601126 -3.055907 -1.0164171
-3.9959095 -3.0445979 -1.0209612
-4.001224 -3.0100217 -1.0174499
-3.9614952 -2.9422383 -1.0021654
-3.9384456 -2.8877871 -0.9914251
-4.0210791 -2.9106164 -1.0083618
-3.9990602 -2.8574438 -0.9980346
-4.0484986 -2.8554122 -1.0062964
-4.0378389 -2.8109493 -0.99906731
-4.2291899 -2.9058168 -1.0436811
-4.2275057 -2.8666317 -1.0387241
-4.1214204 -2.7579181 -1.0073291
-4.1219363 -2.7217934 -1.0031983
-4.1664305 -2.714613 -1.0102208
-4.1739554 -2.6831765 -1.0079488
-4.1771207 -2.6491296 -1.004644
-4.1883202 -2.6203353 -1.0034047
-4.1860023 -2.5832808 -0.99886078
-4.2310252 -2.5753553 -1.0060898
-4.3339877 -2.6017261 -1.0275706
-4.319561 -2.5571382 -1.0201349
-4.2946115 -2.506906 -1.0102208
-4.3319602 -2.4931991 -1.0155909
-4.3097343 -2.4453232 -1.006503
-4.3255115 -2.419311 -1.0067095
-4.4036794 -2.4276853 -1.0219939
-4.4107552 -2.3964145 -1.0201349
-4.4667788 -2.3914762 -1.0300492
-4.4294462 -2.3366282 -1.0176564
-4.4332824 -2.3039904 -1.0151778
-4.4891391 -2.2981498 -1.0250921
-4.4996614 -2.2687993 -1.0242659
-4.5906134 -2.2794461 -1.042442
-4.5473804 -2.2232969 -1.0290164
-4.4701333 -2.1516366 -1.0077422
-4.5177341 -2.1405094 -1.0157975
-4.5219159 -2.108613 -1.0137321
-4.5489969 -2.0873575 -1.0170368
-4.640192 -2.0948405 -1.0352128
-4.6413341 -2.061166 -1.0325277
-4.6108561 -2.0138474 -1.0226135
-4.7957339 -2.0596647 -1.0622703
-4.7965641 -2.0252514 -1.0595852
-4.8206482 -2.0006588 -1.0622703
-4.8391752 -1.9736291 -1.0637162
-4.7976098 -1.9224231 -1.0515299
-4.8102255 -1.8933078 -1.0517365
-4.8518682 -1.8754005 -1.0585525
-4.855051 -1.8424697 -1.0566936
-4.8231721 -1.7965895 -1.0469859
-4.8350239 -1.7672973 -1.0471925
-4.8190684 -1.7280173 -1.0412027
-4.9237266 -1.731532 -1.0622703
-4.9786568 -1.7166001 -1.0721844
-5.1883826 -1.7533832 -1.1165918
-5.3615866 -1.7753496 -1.1527374
-5.4840617 -1.7786489 -1.1775228
-5.5508237 -1.7627381 -1.1899155
-5.5783529 -1.7338743 -1.1936334
-5.5785899 -1.6964815 -1.1913614
-5.8355403 -1.7355945 -1.245683
-5.9372125 -1.7262591 -1.2657179
-6.1923976 -1.7593366 -1.3194197
-6.2483301 -1.7338684 -1.3293339
-7.5026031 -2.0325062 -1.6013547
-6.8083196 -1.7996138 -1.447065
-6.8002849 -1.7529192 -1.442934
-7.1677113 -1.8008235 -1.5205953
-7.5017543 -1.8359063 -1.5908208
-7.5262032 -1.7930171 -1.5937124
-7.5589857 -1.7518855 -1.5984631
-7.7862639 -1.7543005 -1.6453489
-8.1409702 -1.7818199 -1.7197053
-8.3020096 -1.7637644 -1.752133
-8.4573784 -1.7426136 -1.7833215
-8.7998953 -1.7569865 -1.8547863
-9.0497112 -1.7492039 -1.9062161
-9.1535654 -1.7110863 -1.9262512
-9.1764097 -1.6571498 -1.9289362
-9.228817 -1.6082057 -1.9380243
-9.2356157 -1.5510622 -1.9374046
-9.2324028 -1.4923341 -1.9347194
-9.2471867 -1.4365585 -1.9359587
-9.250021 -1.3789259 -1.9347194
-9.2515268 -1.3211744 -1.9332737
-9.296298 -1.2694151 -1.9411224
-9.3039122 -1.2123502 -1.9411224
-9.313118 -1.1554807 -1.9415355
-9.3025417 -1.0962528 -1.9378177
-9.2877007 -1.0367639 -1.9332737
-9.3182135 -0.98232162 -1.9384373
-9.291935 -0.92193824 -1.9316213
-9.3276176 -0.86771744 -1.9380243
-9.3512869 -0.81207711 -1.9419485
-9.333662 -0.75287306 -1.937198
-9.3020039 -0.69289786 -1.9295559
-9.3334131 -0.63767737 -1.9353391
-9.3166428 -0.57912099 -1.9310017
-9.3082981 -0.52128726 -1.9285231
-9.3386831 -0.46552795 -1.9343064
-9.3354988 -0.40796155 -1.9330671
-9.3593369 -0.35148105 -1.9376111
-9.285037 -0.29164734 -1.9215006
-8.7734814 0.64158678 -1.9282478
-8.8102379 0.69865322 -1.937417
-8.7610588 0.74886966 -1.9273746
-8.7417221 0.8012743 -1.9240999
-8.7949142 0.86060733 -1.9371986
-8.7419071 0.90960068 -1.9265013
-8.7448921 0.96418661 -1.9284662
-8.7300873 1.0168089 -1.9265013
-8.7178726 1.0696427 -1.9251914
-8.6995306 1.1216154 -1.9225717
-8.6905508 1.1747119 -1.922135
-8.6464615 1.2228165 -1.9138391
-8.6629305 1.2794148 -1.919297
-8.6934967 1.3384905 -1.9280295
-8.6909018 1.3927349 -1.9293394
-8.6841183 1.4463559 -1.9297761
-8.6750793 1.4996134 -1.9297761
-8.6772413 1.5548816 -1.9323958
-8.6713753 1.6088074 -1.933269
-8.6345062 1.6568309 -1.9271562
-8.5523863 1.6955372 -1.9107827
-8.5494699 1.749548 -1.9125292
-8.5223417 1.7985458 -1.9088179
-8.518774 1.852464 -1.9105644
-8.5024862 1.9036326 -1.9094728
-8.4973021 1.9573013 -1.9110011
-8.4746876 2.0069277 -1.9085996
-8.4299746 2.0510416 -1.9011769
-8.4115505 2.1013083 -1.8998671
-8.4145689 2.1570027 -1.9035784
-8.4351511 2.2175298 -1.9114376
-8.4025412 2.2641644 -1.9070715
-8.4073038 2.3208752 -1.9114376
-8.399478 2.3742766 -1.9129659
-8.4091244 2.4328249 -1.918642
-8.3846807 2.4816058 -1.9164588
-8.3786364 2.5358346 -1.918642
-8.3107128 2.571039 -1.9064165
-8.3050165 2.6252208 -1.9088179
-8.2748222 2.6716306 -1.9055432
-8.2768097 2.7284667 -1.9099095
-8.2552872 2.7776444 -1.9088179
-8.2307053 2.8257096 -1.9070715
-8.195713 2.8700285 -1.9029235
