# .PCD v0.7 - Point Cloud Data file format
VERSION 0.7
FIELDS x y z
SIZE 4 4 4
TYPE F F F
COUNT 1 1 1
WIDTH 1529
HEIGHT 1
VIEWPOINT 0 0 0 1 0 0 0
POINTS 1529
DATA ascii
8.3937912 12.416548 -2.0120313
8.4569426 12.346011 -2.0089138
8.5398808 12.304469 -2.0106759
8.6152182 12.251838 -2.0106759
8.6862087 12.193096 -2.009727
8.7533226 12.129125 -2.0079651
8.8188105 12.06319 -2.0059319
8.8802814 11.992129 -2.0030856
8.9364567 11.91443 -1.9991548
8.9848223 11.827025 -1.9935975
9.0372858 11.74576 -1.9891247
9.1037054 11.683053 -1.9879047
9.1696959 11.619973 -1.9866848
9.2296896 11.549559 -1.9842451
9.2910337 11.481156 -1.9822119
9.3512583 11.41167 -1.9800433
9.4116135 11.342639 -1.9780101
9.4733858 11.275574 -1.9763836
9.5321217 11.205159 -1.9742149
9.5838852 11.126942 -1.9706908
9.6304903 11.043284 -1.9662179
9.6849546 10.969131 -1.9635071
9.7514172 10.908759 -1.9633715
9.8108559 10.84064 -1.9618806
9.8691559 10.771471 -1.9602541
9.9209137 10.695457 -1.9574076
9.9721107 10.619215 -1.9545612
10.026159 10.546338 -1.9523926
10.076941 10.470343 -1.9496816
10.128551 10.395541 -1.9472419
10.176145 10.316974 -1.9441245
10.221056 10.236111 -1.9406004
10.259019 10.148814 -1.9358563
10.310469 10.075288 -1.9338232
10.366393 10.00633 -1.9327389
10.414689 9.9302273 -1.930299
10.457393 9.8491545 -1.9269105
10.497318 9.7659073 -1.9231154
10.542454 9.6879044 -1.9204044
10.572354 9.5963984 -1.9149828
10.625875 9.5267172 -1.914034
10.658911 9.4390049 -1.9094255
10.68978 9.3499422 -1.904546
10.730455 9.2699251 -1.901564
10.769797 9.1891184 -1.8984466
10.823705 9.1209478 -1.8980399
10.874897 9.05056 -1.8972267
10.910325 8.9673052 -1.8937026
10.948219 8.8864555 -1.8907206
10.987078 8.8067169 -1.8880098
11.011388 8.7157688 -1.8828591
11.057634 8.6425486 -1.8816392
11.10026 8.5666685 -1.8798772
11.140794 8.4893894 -1.8778441
11.179215 8.4107437 -1.8755399
11.22425 8.337265 -1.8744556
11.257618 8.2553473 -1.8714736
11.289601 8.1727533 -1.8683561
11.296007 8.0722198 -1.8610368
11.325894 7.9890499 -1.8577838
11.37714 7.921104 -1.8581904
11.421447 7.84834 -1.8575127
11.468568 7.7775555 -1.8573772
11.494666 7.6927114 -1.853853
11.539171 7.6203985 -1.8534464
11.582392 7.5472884 -1.8529042
11.62015 7.4707198 -1.8515488
11.66577 7.3992796 -1.8515488
11.703392 7.3228302 -1.8503289
11.735457 7.2430758 -1.8482958
11.741597 7.147748 -1.8421963
11.797126 7.0827084 -1.8440939
11.829279 7.0036268 -1.8423319
11.838661 6.9114299 -1.8370458
11.860238 6.8267961 -1.8337927
11.914828 6.7612295 -1.8358259
11.941391 6.6797714 -1.8335216
11.947447 6.5872388 -1.8281
11.971972 6.5052915 -1.8256601
12.024763 6.4387259 -1.8276933
12.069302 6.3675961 -1.8285066
12.105508 6.2920499 -1.8281
12.130659 6.2108798 -1.8260669
12.181809 6.1430225 -1.8281
12.211287 6.0641947 -1.8268801
12.258057 5.9939413 -1.828371
12.297282 5.9199038 -1.8287777
12.345014 5.849853 -1.8305397
12.388757 5.7777648 -1.8317596
12.404165 5.6925478 -1.8287777
12.483107 5.6363096 -1.8354192
12.540998 5.5700655 -1.8389434
12.562227 5.4874578 -1.8370458
12.59202 5.40871 -1.8365036
12.617668 5.3282614 -1.8354192
12.607117 5.2328873 -1.8290488
12.633483 5.1531878 -1.8282355
12.693375 5.0869994 -1.8324373
12.755693 5.0213585 -1.8370458
12.786263 4.9429965 -1.8370458
12.82191 4.8665581 -1.837859
12.798609 4.7680759 -1.8301331
12.848096 4.6969399 -1.833115
12.895327 4.6247067 -1.8358259
12.935611 4.5497694 -1.837588
12.959538 4.4690204 -1.8370458
12.982021 4.3878317 -1.8363681
12.975782 4.2971902 -1.831624
13.040545 4.2300262 -1.8371813
13.077585 4.1535306 -1.8388078
13.091472 4.0696802 -1.8371813
13.152216 4.0002322 -1.8423319
13.182211 3.9211516 -1.8431451
13.186996 3.8346598 -1.8404343
13.188356 3.7474446 -1.8373169
13.248335 3.6767859 -1.842603
13.283077 3.5987952 -1.844365
13.302035 3.5164642 -1.8439584
13.306092 3.4303257 -1.8415186
13.33746 3.3512726 -1.8430096
13.355847 3.2689013 -1.8427385
13.358305 3.1827559 -1.8402988
13.427772 3.1123657 -1.847347
13.426319 3.0253417 -1.8445005
13.458179 2.9458687 -1.8463982
13.434329 2.8543801 -1.8405699
13.490405 2.7798944 -1.8459916
13.548015 2.7052159 -1.8516843
13.56825 2.6227882 -1.8522265
13.593826 2.5413065 -1.8535819
13.611114 2.4582007 -1.853853
13.622037 2.3739576 -1.8533108
13.619736 2.2875395 -1.8510066
13.626669 2.2028203 -1.8500578
13.647761 2.1203842 -1.8511422
13.617397 2.0301738 -1.8451784
6.522614 0.93134981 -0.86303627
6.32304 0.86328578 -0.83470786
6.2368493 0.81256229 -0.82210237
6.2377844 0.7737903 -0.8215602
6.215848 0.73236948 -0.81790054
6.2074246 0.69278651 -0.81613851
6.2017055 0.65364635 -0.81478304
6.1770077 0.61274296 -0.81085235
6.159934 0.5729019 -0.80800593
6.1475406 0.53372234 -0.80583727
6.1161351 0.49320215 -0.80109328
0 0 -0
0 0 -0
0 0 -0
0 0 -0
0 0 -0
0 0 -0
0 0 -0
0 0 -0
0 0 -0
0 0 -0
0 0 -0
0 0 -0
0 0 -0
0 -0 -0
0 -0 -0
0 -0 -0
0 -0 -0
0 -0 -0
0 -0 -0
6.1928754 -0.26181972 -0.80963242
6.199069 -0.30019644 -0.81071681
6.2713084 -0.34227234 -0.8208825
6.2957916 -0.38236591 -0.82454216
6.3269382 -0.42323524 -0.82915056
6.3143411 -0.46132731 -0.82779515
6.3538618 -0.503425 -0.83362347
6.4009995 -0.54669893 -0.84053618
12.376607 -1.1332273 -1.6619246
12.353643 -1.2076057 -1.6597559
12.31348 -1.280004 -1.6552831
12.231533 -1.3474001 -1.6451174
10.592326 -1.2327098 -1.4205232
10.568829 -1.2957515 -1.4183545
10.570505 -1.3618418 -1.4197099
10.560968 -1.4265429 -1.4195744
10.559864 -1.4924258 -1.4206587
10.555409 -1.557915 -1.4213364
11.918564 -1.833849 -1.6113672
11.917849 -1.9086684 -1.6128582
11.90689 -1.9819217 -1.6129937
11.885718 -2.0534258 -1.6117738
11.849488 -2.1221256 -1.6085209
11.782665 -2.1848593 -1.601066
11.755415 -2.2545033 -1.5991684
11.744275 -2.3271682 -1.599575
11.758896 -2.4051411 -1.6036413
11.767183 -2.4821541 -1.6068944
11.732368 -2.5501015 -1.6041834
11.723269 -2.6235564 -1.6051322
11.733984 -2.701663 -1.6089275
8.3012533 -1.9651346 -1.1286999
11.625818 -2.8274279 -1.5984907
11.61594 -2.9006293 -1.599575
11.608481 -2.9745538 -1.601066
7.5577149 -1.9862273 -1.0307025
7.5530391 -2.0346246 -1.0317868
11.544122 -3.1856158 -1.5999817
11.521498 -3.2555811 -1.599575
11.517486 -3.3308933 -1.6018792
11.511082 -3.4057162 -1.6039124
7.9716687 -2.4119515 -1.1010492
7.9453607 -2.4573071 -1.0994227
7.932023 -2.5066097 -1.0996938
7.9457226 -2.5646653 -1.1038955
11.409664 -3.7600043 -1.6051322
11.428637 -3.8441546 -1.6112317
11.506981 -3.9492607 -1.6260059
11.496559 -4.0247021 -1.628039
7.7541394 -2.768223 -1.088037
7.6979036 -2.8015203 -1.0823443
11.353645 -4.2108307 -1.6182799
11.309058 -4.2734122 -1.6155691
11.248412 -4.3295555 -1.610554
11.177357 -4.3811393 -1.6040479
11.13186 -4.442296 -1.6013371
11.072265 -4.4974675 -1.5965931
11.048123 -4.5668349 -1.5971353
11.011674 -4.6310821 -1.5959153
10.97303 -4.6942749 -1.5944244
10.923124 -4.7524252 -1.5913069
10.897383 -4.8209624 -1.5918491
10.865789 -4.8869238 -1.591578
10.831995 -4.9518557 -1.5910358
10.79332 -5.0144691 -1.589816
10.730094 -5.0653763 -1.5849364
10.67201 -5.1182671 -1.5808702
10.605667 -5.1667314 -1.5755839
10.563108 -5.2264371 -1.5739574
10.538809 -5.2951555 -1.5751773
10.48935 -5.3511667 -1.572602
10.436084 -5.4049482 -1.5694846
10.373782 -5.4536681 -1.5650116
10.321768 -5.5074239 -1.5621653
10.289523 -5.5715966 -1.5624363
10.253406 -5.6336732 -1.5621653
10.21951 -5.6969633 -1.5623008
10.181775 -5.7580986 -1.5618942
10.126486 -5.8091259 -1.5587767
10.063247 -5.8552079 -1.5544393
10.004091 -5.9032507 -1.5507797
9.9557781 -5.9574013 -1.5488821
9.9097195 -6.0127239 -1.5473911
9.8405714 -6.0536895 -1.5422405
9.8057632 -6.1155291 -1.5426471
9.7596798 -6.1702867 -1.5412917
9.7424908 -6.2434187 -1.5446802
9.730587 -6.3203487 -1.5490177
9.6701059 -6.3657722 -1.5454935
9.5698729 -6.3843007 -1.5354633
9.5132818 -6.4312482 -1.532617
9.4630146 -6.4822211 -1.5308549
9.4230623 -6.540163 -1.5308549
9.3884287 -6.6018476 -1.5318037
9.3227282 -6.64151 -1.5276018
9.2858181 -6.7014871 -1.5282795
9.2237282 -6.7431355 -1.5247555
9.1694393 -6.7901707 -1.5225868
9.1188841 -6.839766 -1.5210959
9.0262518 -6.8572335 -1.5124211
8.9863625 -6.9143009 -1.5128278
9.0125427 -7.0228982 -1.5247555
8.9622812 -7.0725422 -1.5235356
8.9163942 -7.125545 -1.523129
8.8601818 -7.1701488 -1.5209603
8.8114223 -7.2206116 -1.5201471
8.7707634 -7.2777047 -1.5208248
8.7183571 -7.3250108 -1.5194693
8.6521168 -7.360393 -1.5156741
8.5970325 -7.4049377 -1.5139121
8.5491943 -7.455595 -1.5135055
8.4980879 -7.5033212 -1.5125567
8.4496727 -7.5533428 -1.51215
8.3870049 -7.5904212 -1.509168
8.3110523 -7.6149678 -1.5037464
8.280879 -7.6813169 -1.5068638
8.2314243 -7.729948 -1.5064572
8.1701956 -7.7673397 -1.5038819
8.1209545 -7.8159509 -1.5036108
8.0664568 -7.8594103 -1.502391
8.0110264 -7.9018002 -1.5010356
7.9630928 -7.9515061 -1.5011711
7.9085789 -7.9945822 -1.5000867
7.8386016 -8.0216999 -1.4960204
7.0164847 -7.2691345 -1.343806
7.7409406 -8.118722 -1.4962915
7.7072825 -8.1833763 -1.4995445
7.1305237 -7.6647182 -1.3938212
7.0947566 -7.7207274 -1.3961256
7.1011891 -7.8235369 -1.4071045
7.1191916 -7.9407291 -1.4206587
6.7799983 -7.6564212 -1.3607489
2.1595759 -2.4695084 -0.41045934
2.1437349 -2.4819629 -0.4103238
2.1329675 -2.5003457 -0.41127259
6.7317982 -7.9886961 -1.3908393
6.5825124 -7.9095311 -1.3694236
6.496109 -7.9038477 -1.3612911
6.4362502 -7.9297118 -1.3588513
6.391191 -7.9736934 -1.3596646
6.3605928 -8.0360641 -1.3637308
2.0041149 -2.5646462 -0.40693521
1.9841033 -2.5714047 -0.40598643
1.9652855 -2.5795903 -0.40530872
1.9494205 -2.5916007 -0.40530872
1.8856264 -2.5390904 -0.39432976
1.8547775 -2.5298398 -0.39080566
1.8508399 -2.5572236 -0.39351651
1.8408749 -2.5765927 -0.39487192
6.351099 -9.0039501 -1.4690474
6.336494 -9.1012936 -1.4788065
6.28053 -9.1400023 -1.4788065
6.1981926 -9.1398277 -1.4724361
6.1425457 -9.1785097 -1.4725716
6.0833821 -9.211894 -1.4718938
5.9948297 -9.2000723 -1.4638969
1.8049275 -2.8079913 -0.4183208
1.7913789 -2.8248699 -0.41926962
1.7782165 -2.8425274 -0.42035395
5.8244863 -9.4371634 -1.4788065
5.7499847 -9.4456434 -1.4744692
5.6750889 -9.4527159 -1.4699962
5.605876 -9.4686031 -1.4670143
5.5506692 -9.5079556 -1.4678276
5.4971681 -9.5504217 -1.469183
5.4448214 -9.5951738 -1.470945
5.3906808 -9.6370487 -1.4723005
5.3343182 -9.6751499 -1.4731138
5.2739058 -9.7059574 -1.4728427
5.2105103 -9.7311478 -1.4717582
5.1474667 -9.7568016 -1.4708095
5.0870461 -9.787323 -1.4706739
5.0282512 -9.8209982 -1.4710805
4.9799418 -9.8755512 -1.4747403
4.9196935 -9.9068089 -1.4748758
4.8544612 -9.9279089 -1.4735204
4.7934532 -9.9575081 -1.4735204
4.7297192 -9.9813604 -1.4727072
4.6654544 -10.003908 -1.4717582
4.6130757 -10.052157 -1.4747403
4.5659885 -10.112781 -1.4796197
4.5826817 -10.318078 -1.5061861
4.5633106 -10.446781 -1.5212314
4.5006886 -10.478226 -1.5217736
4.4147253 -10.454532 -1.5141832
4.3550525 -10.492404 -1.5158097
4.2939582 -10.527185 -1.5170295
4.2178574 -10.524825 -1.5128278
4.1477547 -10.536678 -1.5107946
4.0787377 -10.550841 -1.509168
4.0089998 -10.562701 -1.5072705
3.9399617 -10.57596 -1.505644
3.8872423 -10.633435 -1.5105236
3.8148992 -10.637502 -1.5076771
3.749228 -10.659775 -1.5075415
3.6889188 -10.697565 -1.5097102
3.6168649 -10.701226 -1.5069994
3.5470858 -10.710991 -1.5052373
3.4822147 -10.735381 -1.505644
3.40728 -10.728217 -1.5015777
3.3349175 -10.728107 -1.4985957
3.2693167 -10.749316 -1.4987313
3.2016037 -10.763476 -1.497918
3.1321797 -10.771502 -1.4962915
3.0633197 -10.780988 -1.4949361
2.9910166 -10.777623 -1.4918187
2.9212024 -10.782385 -1.489921
2.8549879 -10.800106 -1.489921
2.7889135 -10.818379 -1.4900565
2.7227221 -10.836249 -1.4901921
2.6535895 -10.842166 -1.4887011
2.5881615 -10.863063 -1.4893788
2.5207872 -10.875843 -1.4889722
2.4553137 -10.896905 -1.4897854
2.3864985 -10.903055 -1.4885656
2.3201714 -10.920401 -1.4889722
2.2471216 -10.90532 -1.484906
2.1854045 -10.945135 -1.4885656
0.50609761 -2.6198528 -0.32669398
0.4923802 -2.6355696 -0.32845604
0.47760829 -2.6463411 -0.32954037
0.46425387 -2.6658146 -0.3318446
0.44870868 -2.6734984 -0.3325223
0.44051918 -2.727061 -0.33957052
0.42864627 -2.7610414 -0.34390789
0.40921265 -2.7469606 -0.34160367
0.38492411 -2.6974366 -0.33441991
0.37051114 -2.7154541 -0.33658859
0.35537919 -2.729466 -0.33821511
0.34240779 -2.7620752 -0.34241691
0.22186866 -1.8854499 -0.22137733
0.21073541 -1.8907143 -0.22191951
1.1679125 -11.077991 -1.4855837
1.1020702 -11.106639 -1.4885656
1.0339923 -11.114179 -1.4887011
0.6790843 -7.8205953 -1.0355821
0.63004911 -7.8117766 -1.03382
0.28342071 -3.8080418 -0.48405901
0.53582859 -7.8436317 -1.0372086
0.23550014 -3.7924447 -0.4814837
0.62165928 -11.099201 -1.4824662
0.18415435 -3.6990635 -0.46833605
0.15972194 -3.6605308 -0.46291435
0.13383377 -3.5703554 -0.45044443
0.11061575 -3.5295177 -0.44475162
0.086700551 -3.440989 -0.43255278
0.065319508 -3.427588 -0.43065518
0.044002868 -3.4061291 -0.42767325
0.023040902 -3.3974183 -0.42645338
0.0081504993 -11.197838 -1.4935807
-0.06109589 -11.297743 -1.5072705
-0.13038218 -11.294184 -1.5068638
-0.19990678 -11.306049 -1.5086259
-0.26955834 -11.316495 -1.5102524
-0.33940485 -11.328493 -1.51215
-0.40998015 -11.355901 -1.5162163
-0.48027772 -11.36802 -1.5182494
-0.5503087 -11.370797 -1.5190626
-0.62060755 -11.377099 -1.5204182
-0.69088441 -11.380988 -1.5215025
-0.76129842 -11.385432 -1.5227224
-0.83078313 -11.375606 -1.5220447
-0.90080148 -11.373258 -1.5224513
-0.97149628 -11.378375 -1.5239422
-1.0417459 -11.377133 -1.5246199
-1.1131732 -11.38729 -1.5269241
-1.185686 -11.405868 -1.5304483
-1.2591193 -11.429892 -1.5347856
-1.3310599 -11.437696 -1.5369543
-1.3980815 -11.403746 -1.5334302
-1.4687866 -11.400848 -1.5342435
-0.39526537 -2.9240639 -0.36532363
-0.41306105 -2.9206026 -0.36518809
-0.43256465 -2.9287949 -0.36667907
-1.7574747 -11.422083 -1.5426471
-1.821887 -11.375865 -1.5377675
-0.49388257 -2.9652939 -0.37291402
-0.52539045 -3.0393364 -0.3836219
-0.54420418 -3.0370307 -0.38375744
-2.0745087 -11.187447 -1.5182494
-2.1319196 -11.116124 -1.5101168
-2.1971984 -11.088256 -1.5080837
-2.2618186 -11.058064 -1.5057795
-2.3165417 -10.981933 -1.4971048
-0.61606407 -2.8329256 -0.35827541
-0.62802643 -2.8049207 -0.35488686
-0.61521888 -2.6706696 -0.33658859
-2.5974481 -10.972874 -1.5042886
-0.89866817 -3.693989 -0.48175478
-0.92107713 -3.6874442 -0.48161924
-2.8127532 -10.976952 -1.511879
-0.75879002 -2.8862693 -0.36993209
-0.76102614 -2.8241582 -0.36179951
-0.77596885 -2.8108397 -0.36057964
-3.1198149 -11.040959 -1.5312616
-0.80875242 -2.7953951 -0.35976639
-3.2820511 -11.09305 -1.5442736
-3.3328419 -11.015803 -1.536141
-0.99880695 -3.2286999 -0.42401358
-1.0087487 -3.1913342 -0.4195407
-3.5377808 -10.961077 -1.5373609
-3.6021795 -10.930694 -1.536141
-1.08627 -3.2285707 -0.42767325
-3.747622 -10.919403 -1.5410206
-1.1307178 -3.2290244 -0.42970639
-1.1465126 -3.2108283 -0.42807987
-1.1621268 -3.1925604 -0.42645338
-3.9772635 -10.723816 -1.526382
-1.1697 -3.0946453 -0.41425452
-1.1968514 -3.1086769 -0.41737202
-4.1002269 -10.46061 -1.4987313
-1.2161829 -3.0468245 -0.41045934
-1.2441757 -3.0622535 -0.41384789
-1.2678618 -3.0664649 -0.41560996
-4.3257513 -10.285598 -1.4881589
-4.3965745 -10.277081 -1.4908698
-4.4559932 -10.241734 -1.4896499
-4.5251646 -10.228696 -1.4918187
-4.5951562 -10.217003 -1.4942584
-4.6552887 -10.183208 -1.4934452
-4.718936 -10.157148 -1.4938518
-1.3394035 -2.8365977 -0.39080566
-1.3512139 -2.8167124 -0.3890436
-1.3754138 -2.8226197 -0.39121228
-1.3931465 -2.8150153 -0.39134783
-5.0256152 -10.002304 -1.4930385
-5.0882444 -9.9739265 -1.4934452
-5.1438799 -9.9319601 -1.4918187
-5.2199378 -9.9291515 -1.4962915
-5.2821627 -9.8995581 -1.4966981
-5.3446927 -9.8704462 -1.4972403
-5.4118352 -9.8496227 -1.4991379
-5.48037 -9.8309431 -1.5014422
-4.8353868 -8.5500574 -1.3054475
-4.8986034 -8.539134 -1.3084294
-4.947917 -8.5037775 -1.3076161
-4.9944639 -8.463872 -1.3061252
-5.8246284 -9.7338753 -1.5135055
-5.8883557 -9.7047291 -1.5145898
-5.9457159 -9.665041 -1.5140476
-4.9180903 -7.8856182 -1.2330676
-5.1749749 -8.1852522 -1.2864715
-5.2154794 -8.1383295 -1.2840317
-5.2636981 -8.1036825 -1.2836251
-5.3525438 -8.1308174 -1.2933842
-5.6442513 -8.4604769 -1.3530229
-5.6361327 -8.3370361 -1.3383844
-5.6625466 -8.2663307 -1.3324205
-6.4774599 -9.3327131 -1.5158097
-6.5323229 -9.2895508 -1.5152675
-6.5914989 -9.2525225 -1.5158097
-6.6551046 -9.2215443 -1.5174361
-5.6994505 -7.7959986 -1.2828119
-1.6984361 -2.2930624 -0.35204044
-1.7772713 -2.3689926 -0.36681461
-6.8830042 -9.0601768 -1.5182494
-1.7312939 -2.2496324 -0.35000733
-1.7481096 -2.2428746 -0.35068503
-1.7667487 -2.2383285 -0.35176936
-7.0977125 -8.8815641 -1.5170295
-7.2200084 -8.9217978 -1.5318037
-7.2683358 -8.8696651 -1.5304483
-7.3207245 -8.8226128 -1.5300417
-7.3747211 -8.7775278 -1.5300417
-7.4342179 -8.738904 -1.5312616
-7.5006304 -8.7081385 -1.5339724
-7.5578279 -8.6664314 -1.5347856
-7.6174192 -8.6273222 -1.536141
-7.6761546 -8.5870686 -1.5373609
-7.7373419 -8.5493565 -1.5391231
-7.7896543 -8.5017204 -1.5391231
-7.8517795 -8.4646597 -1.5411562
-7.9184904 -8.4322128 -1.5441381
-7.9864635 -8.4007006 -1.5473911
-8.0419807 -8.3558216 -1.5482043
-8.0882607 -8.3013525 -1.5472555
-8.1508722 -8.2635593 -1.5495598
-8.2161236 -8.2281141 -1.5524062
-8.2706814 -8.1817274 -1.5532194
-3.4845524 -3.4047 -0.62814081
-3.3492672 -3.2325587 -0.59845698
-3.3762093 -3.2187843 -0.59981245
-8.5360537 -8.0394659 -1.5658249
-8.5569324 -7.9606185 -1.5605388
-3.1934185 -2.9341881 -0.55494779
-3.4035666 -3.08901 -0.59046
-3.5744178 -3.2043178 -0.61838174
-3.5398662 -3.1343739 -0.60848713
-3.4389679 -3.0075736 -0.5866648
-3.4933443 -3.0175061 -0.59317082
-3.4251196 -2.9220576 -0.57758343
-3.6755733 -3.0969963 -0.61919504
-3.7752283 -3.1415687 -0.63356256
-3.8196917 -3.1391063 -0.63803548
-3.7827263 -3.0700276 -0.62814081
-9.2647018 -7.4260626 -1.5860207
-9.3085394 -7.3678455 -1.5857496
-9.2958078 -7.26544 -1.5757195
-9.3841352 -7.2421646 -1.5833099
-9.4331236 -7.1880512 -1.5841231
-9.5213871 -7.1633935 -1.5917135
-5.8795362 -4.3670259 -0.96360892
-9.6565132 -7.0811672 -1.5998461
-6.0747323 -4.3973837 -0.98759997
-6.0717745 -4.3387127 -0.98258489
-6.0359426 -4.2573996 -0.97214806
-6.020484 -4.191411 -0.96523541
-6.2502265 -4.2946744 -0.99912107
-6.2420216 -4.2328863 -0.99342829
-6.0677962 -4.060596 -0.96049142
-6.1455088 -4.0582328 -0.96916616
-6.1910458 -4.0339713 -0.97255468
-5.7381544 -3.6888812 -0.89488876
-5.7330718 -3.63609 -0.89041585
-6.2634091 -3.9188054 -0.97241914
-6.1844783 -3.8168123 -0.95588297
-6.1857781 -3.7653975 -0.95235884
-6.2886114 -3.7753122 -0.96509987
-6.2937551 -3.7260544 -0.96225345
-6.3182101 -3.6883657 -0.96252453
-6.2909198 -3.6208599 -0.9546631
-6.2639027 -3.554318 -0.94693714
-6.4101062 -3.5854707 -0.96645528
-6.5829511 -3.6293125 -0.99003971
-6.4144483 -3.4852509 -0.96035588
-6.4881182 -3.4738898 -0.96848845
-6.5732799 -3.4677653 -0.97838306
-6.5223479 -3.3898966 -0.96726853
-6.5289149 -3.3425875 -0.96509987
-6.6333423 -3.344847 -0.97797644
-6.6821365 -3.3181851 -0.98231381
-6.7210622 -3.2862618 -0.98516017
-6.6759324 -3.2135866 -0.97526556
-6.6606073 -3.1560159 -0.96997941
-6.6627865 -3.1071308 -0.96740407
-6.7150431 -3.0814812 -0.97241914
-6.7266006 -3.0369587 -0.97133482
-5.7925577 -2.5725207 -0.82874393
-5.8254838 -2.5444658 -0.83131927
-6.7267413 -2.8891664 -0.9632023
-6.7525568 -2.8513064 -0.96442217
-6.8422151 -2.839828 -0.97513002
-6.9384055 -2.8299754 -0.98678666
-6.9078174 -2.768182 -0.97973847
-6.8979373 -2.715219 -0.97580773
-7.0373745 -2.720361 -0.99383491
-6.9335165 -2.6314209 -0.97621435
-6.9105382 -2.5742998 -0.97052157
-6.9168987 -2.5284469 -0.96916616
-6.9649234 -2.4976654 -0.97391015
-6.9941373 -2.4598138 -0.97594327
-6.9941125 -2.411684 -0.97377461
-7.0491385 -2.3823662 -0.97960293
-7.266778 -2.4063537 -1.0088801
-7.3360667 -2.3794525 -1.0167416
-7.1560068 -2.2726068 -0.98881984
-7.1338649 -2.2174783 -0.98366922
-7.2819371 -2.2146068 -1.0029162
-7.2716475 -2.1628213 -0.99952769
-7.2029648 -2.0943685 -0.98787105
-7.196619 -2.0447159 -0.98516017
-7.2834949 -2.0211883 -0.99573249
-7.3081913 -1.979828 -0.99749458
-7.333612 -1.9384938 -0.99939215
-7.3444085 -1.8932118 -0.99925661
-7.5816975 -1.9048576 -1.0311091
-7.6221132 -1.8653685 -1.0351754
-7.8512311 -1.8704685 -1.0658081
-7.8625603 -1.8222591 -1.0658081
-8.2640724 -1.8619791 -1.1205673
-8.2627602 -1.8084823 -1.1188053
-8.4161634 -1.788022 -1.13873
-9.2857599 -1.9133388 -1.2586852
-9.1117525 -1.8192663 -1.2327965
-9.6772156 -1.8705214 -1.310056
-10.302064 -1.9258274 -1.3954477
-10.730984 -1.9379562 -1.4534601
-11.36442 -1.9804481 -1.5398008
-11.771099 -1.9769915 -1.5945599
-12.248569 -1.9800024 -1.6590782
-12.626641 -1.9617077 -1.7097712
-13.010817 -1.9397225 -1.7612774
-13.821837 -1.9740421 -1.8717446
-14.281325 -1.95034 -1.9335521
-14.289094 -1.8621625 -1.93301
-14.254039 -1.7687157 -1.9266394
-14.300046 -1.6853971 -1.931519
-14.283532 -1.5946531 -1.9278593
-14.306842 -1.5084358 -1.9297569
-14.279349 -1.4170012 -1.9247419
-14.276923 -1.3283482 -1.9232509
-14.267038 -1.2391779 -1.9208111
-14.301038 -1.1537657 -1.9244708
-14.312788 -1.0663626 -1.9251485
-14.308188 -0.9777776 -1.9236575
-14.280297 -0.88787448 -1.919049
-14.276573 -0.79973656 -1.9178292
-14.300013 -0.71306014 -1.9204044
-14.314017 -0.62573642 -1.92176
-14.296796 -0.53711379 -1.9189135
-14.25823 -0.44807199 -1.9132208
-13.030341 0.96029526 -1.9164715
-13.03209 1.0408605 -1.9176553
-13.10133 1.1273396 -1.92905
-13.050835 1.2037063 -1.9225388
-13.012692 1.2807562 -1.9179513
-13.004589 1.3605765 -1.9179513
-12.983217 1.4389281 -1.9160275
-12.972179 1.5183345 -1.9157317
-12.953785 1.5968119 -1.9143997
-12.926088 1.6739769 -1.9117361
-12.860695 1.7458036 -1.9034491
-12.855616 1.8255173 -1.904337
-12.881347 1.9098787 -1.9099603
-12.858635 1.9872187 -1.9083325
-12.804213 2.0593238 -1.9019693
-12.81182 2.1412756 -1.9050769
-12.810134 2.2218764 -1.9068527
-12.809886 2.3028872 -1.9089245
-12.78482 2.3794522 -1.9072967
-12.754441 2.4548616 -1.9049289
-12.731379 2.5315313 -1.9037451
-12.715606 2.609602 -1.9037451
-12.667425 2.6808143 -1.8988616
-12.644939 2.757225 -1.8979738
-12.629713 2.8351943 -1.8982698
-12.610152 2.9121902 -1.8979738
-12.597819 2.990881 -1.8988616
-12.587877 3.0702333 -1.9001935
-12.554412 3.1438086 -1.8979738
-12.529139 3.2193046 -1.8970859
-12.510105 3.2963734 -1.8972338
-12.485825 3.37204 -1.896642
-12.449649 3.4443674 -1.8942742
-12.422571 3.5190744 -1.8933864
-12.396945 3.5941296 -1.8927944
-12.390777 3.6749103 -1.89531
-12.367995 3.7508695 -1.89531
-12.346637 3.8272734 -1.895606
-12.310664 3.8990757 -1.8936822
-12.258279 3.9654045 -1.8892429
-12.247804 4.0451989 -1.8914626
-12.229312 4.1224861 -1.8924985
-12.199111 4.1958375 -1.8917586
-12.169403 4.2693009 -1.8911666
-12.141115 4.343224 -1.8908707
-12.10123 4.4128942 -1.8887988
-12.084123 4.4908533 -1.8904266
-12.045241 4.5607123 -1.8886509
-12.005958 4.6302633 -1.8868752
-11.984685 4.7067361 -1.888059
-11.952825 4.7790823 -1.8876151
-11.922359 4.8519607 -1.887467
-11.877745 4.9189677 -1.8850993
-11.839137 4.9882989 -1.8837675
-11.798307 5.0565619 -1.8821397
-11.767965 5.1292553 -1.8822876
-11.73175 5.1993613 -1.8815478
-11.692414 5.2679977 -1.8803639
-11.662567 5.3408771 -1.8808079
-11.63406 5.4144239 -1.8815478
-11.600618 5.4857073 -1.8815478
-11.564066 5.5554986 -1.8811039
-11.504875 5.6142035 -1.8769603
-11.505654 5.7022605 -1.8828796
-11.459848 5.7674141 -1.8811039
-11.413677 5.832221 -1.879328
-11.37592 5.9012332 -1.879032
-11.373624 5.9888973 -1.8848034
-11.327068 6.053443 -1.8831756
-11.309707 6.133677 -1.8865792
-11.28832 6.2120175 -1.8893908
-11.267261 6.2908082 -1.8923504
-11.237914 6.3651872 -1.8939782
-11.181497 6.4241667 -1.8910186
-11.158103 6.5021162 -1.8938303
-11.133322 6.5795169 -1.8964939
-11.121582 6.6649938 -1.9015254
-11.093154 6.7408137 -1.9037451
-11.044007 6.8040838 -1.9024132
-11.027213 6.8874402 -1.9068527
-10.991429 6.9592052 -1.9080366
-10.956012 7.0313244 -1.9093684
-10.931729 7.1108217 -1.9127719
-10.900277 7.1859298 -1.9149917
-10.869959 7.2620182 -1.9175074
-10.835022 7.3352327 -1.9192832
-10.795519 7.4054937 -1.9203191
-10.749876 7.4715943 -1.9203191
-10.71434 7.544817 -1.9222429
-10.691997 7.6276498 -1.9266822
-10.640183 7.6896348 -1.9257944
-10.605568 7.7641253 -1.9281621
-10.54899 7.8225732 -1.9265343
-10.509492 7.8936877 -1.9281621
-10.493916 7.9831762 -1.9343773
-10.494086 8.0854473 -1.9437002
-10.441938 8.1478605 -1.9432563
-10.387093 8.2080975 -1.9423684
-10.318002 8.2568455 -1.9388168
-10.290962 8.339304 -1.9434042
-10.258712 8.4179773 -1.9471039
-10.224361 8.4953032 -1.9505074
-10.18642 8.5699778 -1.9533191
-10.144937 8.6419392 -1.9555387
-10.090221 8.702733 -1.9552429
-10.041102 8.7683849 -1.9561307
-9.9908161 8.833107 -1.9568707
-9.9585342 8.9140329 -1.96131
-9.9395571 9.007515 -1.9685612
-9.8746281 9.0596409 -1.9666374
-9.8282728 9.1288099 -1.9685612
-9.7799988 9.1963968 -1.970189
-9.7348471 9.2671442 -1.9725567
-9.6877708 9.3363104 -1.9746284
-9.6444588 9.4093914 -1.9775881
-9.5858383 9.4676962 -1.9774401
-9.5401525 9.5389242 -1.9801039
-9.4835281 9.5993929 -1.9805478
-9.4348087 9.6680193 -1.9827675
-9.3869772 9.737834 -1.9852831
-9.333869 9.8024111 -1.986763
-9.2816772 9.868144 -1.9885387
-9.2270107 9.9314308 -1.9898707
-9.1618872 9.9834871 -1.9889827
-9.0997934 10.038783 -1.9888347
-9.0301094 10.085587 -1.987059
-8.9706755 10.143768 -1.9876509
-8.9193249 10.211284 -1.9901665
-8.8629618 10.273308 -1.9916464
-8.8170757 10.347823 -1.9956419
-8.7674246 10.418378 -1.9988976
-8.7096539 10.479584 -2.0003774
-8.6476984 10.535887 -2.0009692
-8.5803976 10.585676 -2.0003774
-8.5189915 10.642757 -2.0012653
-8.4615002 10.704916 -2.0031891
-8.3999157 10.762092 -2.0042248
-8.3403625 10.822047 -2.0058527
-8.2971573 10.903715 -2.0116239
-8.2235632 10.945722 -2.0099962
-8.1680298 11.011863 -2.0129559
-8.1143303 11.080925 -2.0165074
-8.0166397 11.089625 -2.0089602
-7.9541883 11.146657 -2.0104401
-7.8998804 11.215468 -2.0141397
-7.8405108 11.277535 -2.0166554
-7.770606 11.324615 -2.0165074
-7.7043004 11.376996 -2.0173953
-7.6436877 11.438034 -2.0199111
-7.5798941 11.494627 -2.0216868
-7.5081429 11.539263 -2.0213907
-7.4361296 11.583449 -2.0210948
-7.3723221 11.640556 -2.0231667
-7.2997103 11.683896 -2.0228705
-7.2258067 11.725098 -2.0222788
-7.1521859 11.766679 -2.0218346
-7.086462 11.82137 -2.0237584
-7.0102715 11.858669 -2.0227227
-6.9338903 11.895479 -2.0216868
-6.8627415 11.941231 -2.0222788
-6.8029909 12.007209 -2.0264223
-6.74751 12.081538 -2.0320456
-6.6751595 12.126179 -2.0326374
-6.6025152 12.170385 -2.0332294
-6.5286469 12.212413 -2.0335252
-6.4572768 12.259243 -2.0347092
-6.3864884 12.307412 -2.0361891
-6.3135519 12.351651 -2.037077
-6.2412019 12.397224 -2.0382607
-6.1702867 12.44592 -2.0400364
-6.0916352 12.479102 -2.0392966
-6.0158067 12.518027 -2.0395925
-5.9405756 12.55828 -2.0401845
-5.8621554 12.591805 -2.0397406
-5.7880778 12.63473 -2.0409243
-5.7141004 12.678123 -2.0422564
-5.6394076 12.720179 -2.0434401
-5.5569048 12.744569 -2.0418122
-5.4754839 12.771153 -2.0406284
-5.4004745 12.812713 -2.0419602
-5.3281894 12.861141 -2.044476
-5.2517843 12.900004 -2.045512
-5.1721654 12.931067 -2.0453639
-5.0927248 12.962561 -2.0453639
-5.0173631 13.004638 -2.0471396
-4.9427271 13.049052 -2.0493593
-4.8780718 13.120851 -2.0560186
-4.8056049 13.172833 -2.0595701
-4.7206893 13.190898 -2.0577943
-4.6409726 13.223349 -2.0583863
-4.5603919 13.253447 -2.0586822
-4.4821439 13.29055 -2.0601621
-4.3955469 13.302776 -2.0577943
-4.3156667 13.335143 -2.0586822
-4.2346582 13.364201 -2.0591261
-4.1525774 13.389933 -2.0591261
-4.0709143 13.417053 -2.0594223
-3.9935749 13.458846 -2.0620859
-3.9144983 13.495444 -2.0640097
-3.8305397 13.515404 -2.0634177
-3.7551875 13.566295 -2.0677092
-3.6692965 13.579533 -2.0662293
-3.5833848 13.592229 -2.0647495
-3.4979477 13.606297 -2.0635657
-3.4216037 13.656284 -2.0680051
-3.3433712 13.700082 -2.0715566
-3.2590177 13.719376 -2.0714087
-3.1818986 13.76995 -2.0761442
-3.0984311 13.79404 -2.076884
-3.0105731 13.798298 -2.0746644
-2.9174545 13.77684 -2.0685971
-2.8137748 13.701479 -2.0543907
-2.7240565 13.690356 -2.0500994
-2.6267283 13.63786 -2.0395925
-2.5368443 13.620664 -2.0345612
-2.4465704 13.598985 -2.0289378
-2.3585181 13.587431 -2.0249424
-2.2716782 13.581162 -2.0218346
-2.1859467 13.580198 -2.0196149
-2.1012192 13.584559 -2.0182831
-2.0140538 13.571761 -2.0144355
-1.9272639 13.559384 -2.010736
-1.8446941 13.575854 -2.011476
-1.7612325 13.585938 -2.011328
-1.6765062 13.58569 -2.0097003
-1.5916191 13.582952 -2.0077765
-1.505957 13.57182 -2.0046687
-1.4234772 13.588675 -2.0058527
-1.3394904 13.591248 -2.0049648
-1.2540716 13.577545 -2.0017092
-1.1706529 13.583999 -2.0015612
-1.0875962 13.59487 -2.0021532
-1.0042318 13.602273 -2.0023012
-0.92048424 13.604232 -2.0017092
-0.83729601 13.614559 -2.002449
-0.75423402 13.628328 -2.0037808
-0.6702584 13.625785 -2.0027452
-0.58604532 13.615808 -2.0006733
-0.50223458 13.612229 -1.9996374
-0.41906586 13.626917 -2.0014131
-0.3354933 13.631209 -2.0017092
-0.25186563 13.634 -2.001857
-0.16836174 13.648145 -2.0037808
-0.084663495 13.656833 -2.0049648
-0.00086532644 13.649183 -2.0037808
0.082878411 13.647943 -2.003633
0.16676494 13.659044 -2.0054088
0.25080904 13.670618 -2.0073326
0.33466139 13.667833 -2.0071845
0.41858006 13.6675 -2.0074804
0.50250721 13.666651 -2.0077765
0.58716202 13.682083 -2.0105882
0.6717338 13.691065 -2.012512
0.75600094 13.691623 -2.0132518
0.83987558 13.684752 -2.0129559
0.92389458 13.680327 -2.0131037
1.0084003 13.682291 -2.0142877
1.0927284 13.680776 -2.0150275
1.1785188 13.695491 -2.0182831
1.2638943 13.702774 -2.0205028
1.3495005 13.710508 -2.0228705
1.4352491 13.717708 -2.0252383
1.5198284 13.712575 -2.0258303
1.6052043 13.713796 -2.027458
1.6905313 13.713504 -2.0289378
1.7779486 13.728374 -2.0327854
1.8598878 13.700546 -2.0302696
1.9454482 13.699647 -2.0318975
2.0304871 13.6943 -2.0329335
2.118556 13.707973 -2.0369289
2.2052979 13.711314 -2.0394447
2.2919974 13.713132 -2.0418122
2.3816767 13.730967 -2.0466957
2.4690349 13.733615 -2.0493593
2.5547047 13.725985 -2.0505433
2.6437399 13.735301 -2.0543907
2.7297051 13.727551 -2.0557227
2.8202496 13.741544 -2.0604579
2.9059467 13.730753 -2.0614939
2.9956229 13.737787 -2.0653415
3.0831106 13.733622 -2.0675611
3.1719956 13.734681 -2.0706687
3.2651231 13.752487 -2.0764401
3.3583539 13.768704 -2.0820634
3.4507046 13.779497 -2.0869467
3.5401132 13.777222 -2.0899065
3.6276071 13.766716 -2.0916822
3.7163947 13.760429 -2.094198
3.8081436 13.764055 -2.0983415
3.8933353 13.743284 -2.0987854
3.9822724 13.735284 -2.101301
4.0664754 13.71059 -2.101301
4.128418 13.612509 -2.0899065
4.2001491 13.549136 -2.0839872
4.2984395 13.571193 -2.0915344
4.3977675 13.594433 -2.0993774
4.4572091 13.494884 -2.0879827
4.5279202 13.43167 -2.0823593
4.6147547 13.416727 -2.0844312
4.7002659 13.397491 -2.085911
4.7800508 13.36188 -2.0848751
4.8765206 13.372251 -2.0912383
4.9598579 13.345785 -2.0918303
5.0304437 13.285504 -2.0870948
5.0894423 13.196258 -2.0777719
5.1703172 13.164781 -2.0777719
5.2333694 13.088731 -2.0706687
5.3079886 13.042633 -2.068449
5.3822393 12.996113 -2.0662293
5.4584241 12.954641 -2.0648975
5.5152082 12.868184 -2.0563145
5.5912957 12.827755 -2.0552788
5.6586776 12.76789 -2.0511351
5.7356944 12.730224 -2.0506911
5.8116384 12.690295 -2.0499513
5.8860559 12.647223 -2.0487676
5.9588957 12.601035 -2.0471396
6.0292482 12.549973 -2.0447719
6.0983315 12.496743 -2.0421083
6.1687455 12.446684 -2.0400364
6.2356629 12.390048 -2.0369289
6.2985168 12.326015 -2.0326374
6.3749399 12.288892 -2.0329335
6.4465361 12.242544 -2.0317495
6.5210676 12.201886 -2.0316014
6.5925131 12.155559 -2.0305657
6.6602979 12.10275 -2.0284939
6.7320223 12.057338 -2.0277541
6.7966156 11.999454 -2.0249424
6.8592744 11.93866 -2.0216868
6.9274192 11.887803 -2.0202069
6.9967084 11.839114 -2.019171
7.068203 11.794264 -2.0188751
7.1353016 11.74222 -2.0173953
7.201509 11.688956 -2.0157676
7.2673321 11.635323 -2.0141397
7.3211269 11.562939 -2.0092564
7.3860612 11.508644 -2.0076284
7.4527626 11.457305 -2.0065925
7.512579 11.395673 -2.0037808
7.5636783 11.321404 -1.9987495
7.596405 11.220732 -1.9889827
7.6802182 11.195929 -1.9929782
7.7419968 11.138848 -1.9912025
7.809628 11.090325 -1.9910544
7.8717856 11.034147 -1.9895747
7.9318099 10.97522 -1.9876509
7.9960818 10.922355 -1.9869109
8.0535231 10.860376 -1.9845432
8.1134758 10.802058 -1.9829154
8.1766081 10.748137 -1.9821756
8.2393856 10.693847 -1.9814357
8.2963276 10.632174 -1.9793639
8.3552771 10.57331 -1.9778841
8.4138165 10.514122 -1.9764042
8.4675856 10.449237 -1.9738885
8.5133457 10.374914 -1.9695971
8.5616741 10.304227 -1.9660455
8.6120033 10.236364 -1.9630859
8.6618223 10.168274 -1.9601263
8.7098389 10.098459 -1.9568707
8.7605782 10.032164 -1.9543549
8.8121424 9.9671078 -1.9521352
8.8652172 9.9040079 -1.9503595
8.9198427 9.8428307 -1.9490275
8.9733829 9.7806273 -1.9475478
9.0184183 9.7094431 -1.9442922
9.0581751 9.6330318 -1.9400007
9.1041546 9.5636616 -1.937189
9.1516829 9.4962263 -1.9348212
9.2097788 9.4398937 -1.9348212
9.2383356 9.3536558 -1.928606
9.2885618 9.2898006 -1.9271263
9.3397589 9.2270727 -1.9259424
9.3891201 9.1626844 -1.9244626
9.4373322 9.097352 -1.9228348
9.4836626 9.0304089 -1.920911
9.5266457 8.9605303 -1.9183953
9.5662308 8.8877726 -1.9152876
9.6038246 8.813529 -1.9118841
9.6489286 8.7464657 -1.9101083
9.6972561 8.6824789 -1.9090724
9.745903 8.6188831 -1.9081845
9.7918997 8.5530663 -1.9068527
9.8224783 8.4740906 -1.9025612
9.8509521 8.3937798 -1.8979738
9.8863783 8.3198061 -1.8948661
9.9303951 8.2532988 -1.8935343
9.976263 8.188448 -1.8926464
10.02094 8.1227217 -1.8916105
10.056692 8.0499582 -1.8889469
10.088826 7.9746089 -1.8856913
10.121974 7.9003859 -1.8827317
10.161642 7.83149 -1.8811039
10.204782 7.765399 -1.8802159
10.230886 7.6865997 -1.8762205
10.257204 7.6083622 -1.8723729
10.292523 7.5371027 -1.8703011
10.328156 7.4662757 -1.8683773
10.364113 7.3958702 -1.8666016
10.413342 7.3349853 -1.8673415
10.453279 7.2675653 -1.8664536
10.486259 7.1954551 -1.8643819
10.524479 7.1270962 -1.863346
10.559789 7.0568905 -1.8618661
10.588853 6.9827094 -1.8593504
10.609116 6.9030452 -1.8553549
10.617148 6.8159165 -1.8492876
10.647072 6.7432351 -1.8472159
10.698313 6.6840663 -1.8489918
10.719758 6.6063647 -1.8455881
10.736427 6.5260839 -1.8414446
10.784752 6.4651675 -1.8429245
10.815704 6.3938398 -1.8414446
10.847897 6.3233719 -1.8402607
10.89421 6.261126 -1.8415927
10.942748 6.2000117 -1.8433684
10.998718 6.1428771 -1.8464761
11.036203 6.0752745 -1.8464761
11.07675 6.0093293 -1.847068
11.107308 5.9379873 -1.846032
11.146159 5.8711047 -1.8464761
11.181974 5.8026028 -1.8464761
11.230577 5.740633 -1.8486958
11.27354 5.6756172 -1.8500276
11.307267 5.6058979 -1.8498796
11.339674 5.5355449 -1.8495836
11.368077 5.4632921 -1.8486958
11.405855 5.3955503 -1.8494357
11.431575 5.322125 -1.8482518
11.477503 5.258059 -1.8504715
11.518566 5.1915984 -1.8519514
11.546588 5.1192212 -1.8513595
11.579595 5.0490665 -1.8516554
11.61672 4.980648 -1.8526913
11.647062 4.9092755 -1.8526913
11.68062 4.839232 -1.8532832
11.721086 4.7719436 -1.855059
11.745554 4.6980987 -1.8543191
11.761272 4.6208787 -1.8522474
11.791249 4.5493379 -1.8525432
11.83374 4.4825063 -1.854911
11.866584 4.4118791 -1.8557988
11.901793 4.3420339 -1.8571308
11.924486 4.2675915 -1.8565388
11.965379 4.1995826 -1.8589065
11.980635 4.1225467 -1.8572787
12.001956 4.0476937 -1.8566868
12.027505 3.9742849 -1.8568348
12.05637 3.901933 -1.8575747
12.081027 3.8281817 -1.8577226
12.103344 3.7536888 -1.8575747
12.106274 3.6733251 -1.854467
12.154185 3.6065671 -1.8584626
12.184635 3.5344014 -1.8597944
12.206092 3.4595714 -1.8597944
12.228043 3.3848748 -1.8599424
12.227577 3.3041074 -1.8566868
12.270573 3.2350671 -1.8602383
12.303601 3.1631618 -1.8623101
12.339088 3.0916936 -1.8648258
12.359748 3.0163929 -1.8651217
12.379948 2.9409552 -1.8654177
12.395833 2.8644927 -1.8651217
12.42958 2.7920628 -1.8676375
12.450343 2.7165866 -1.8682294
12.466777 2.6401417 -1.8682294
12.481773 2.5633984 -1.8680815
12.477867 2.4829049 -1.8651217
12.481214 2.404052 -1.863346
12.509341 2.3299575 -1.8654177
12.529243 2.2542078 -1.8663056
12.567199 2.181514 -1.8700051
12.599857 2.1076236 -1.8729649
12.625245 2.0323148 -1.8748885
12.637478 1.9548094 -1.8748885
6.4586225 0.95907795 -0.93845832
6.1451793 0.87408775 -0.89021617
5.9975476 0.8156051 -0.86713099
5.9386873 0.77053046 -0.85751218
5.924654 0.73177707 -0.85470051
5.91921 0.69426012 -0.8532207
5.9125457 0.65672863 -0.8515929
5.9066277 0.61940801 -0.85011303
5.8965378 0.58179712 -0.8480413
5.8871942 0.54442436 -0.84611756
5.881556 0.50752747 -0.84478569
5.8796301 0.47103542 -0.84404582
5.8794508 0.43473163 -0.84360182
5.8770738 0.39831442 -0.84286195
0 0 -0
0 0 -0
5.8597026 0.28890508 -0.83931035
0 0 -0
0 0 -0
5.8600736 0.18087691 -0.83871841
0 0 -0
5.8618517 0.10895118 -0.83871841
0 0 -0
0 0 -0
0 -0 -0
0 -0 -0
0 -0 -0
0 -0 -0
0 -0 -0
0 -0 -0
0 -0 -0
0 -0 -0
0 -0 -0
0 -0 -0
0 -0 -0
0 -0 -0
0 -0 -0
0 -0 -0
0 -0 -0
0 -0 -0
11.544228 -1.1360928 -1.6971622
11.492777 -1.2022705 -1.690503
11.444882 -1.268296 -1.6844357
10.602934 -1.2408112 -1.558799
10.589231 -1.3051198 -1.557911
10.577101 -1.3695611 -1.5573192
10.564578 -1.4339026 -1.5567272
10.571247 -1.5009248 -1.5590949
10.571622 -1.5672119 -1.5605748
11.091543 -1.7139645 -1.640781
11.0691 -1.780103 -1.6390052
11.029681 -1.8432578 -1.6347138
11.018164 -1.9109 -1.6347138
11.012072 -1.9795206 -1.6356016
10.999719 -2.0470521 -1.6356016
10.998605 -2.1167507 -1.6373774
10.97668 -2.1824603 -1.6360456
10.957269 -2.2485774 -1.6351577
10.940363 -2.3151531 -1.6347138
10.937547 -2.3847678 -1.6364895
10.88218 -2.4427326 -1.6302743
8.3143921 -1.9197201 -1.2382699
10.844649 -2.5744901 -1.6292384
10.838256 -2.6433275 -1.6307182
10.828548 -2.7114623 -1.6317542
10.796382 -2.7739146 -1.6293864
7.50279 -1.97648 -1.1223999
10.770122 -2.9085155 -1.6307182
10.755885 -2.9756 -1.6313101
10.727909 -3.0388446 -1.6298304
10.707162 -3.1040616 -1.6295344
10.691707 -3.1708262 -1.6301264
7.9700823 -2.4166725 -1.2076377
7.9390454 -2.460551 -1.2051219
7.9247413 -2.5095165 -1.2052699
7.9176626 -2.5608349 -1.2066017
10.548092 -3.483649 -1.6236151
10.521832 -3.5467253 -1.6228752
10.489585 -3.6076801 -1.6212474
10.45232 -3.6667354 -1.6188797
10.395171 -3.7184722 -1.6134044
7.6935396 -2.8051131 -1.1867721
10.409013 -3.8681562 -1.6230232
10.43595 -3.9512174 -1.6311622
10.4558 -4.0322623 -1.6382654
10.44467 -4.1017666 -1.640485
10.410122 -4.1621041 -1.6390052
10.369732 -4.2199349 -1.6366376
10.307096 -4.2683434 -1.6307182
10.258839 -4.322288 -1.6271666
10.202128 -4.3722944 -1.6222832
10.155164 -4.426116 -1.6190276
10.112444 -4.4815297 -1.6165119
10.044181 -4.525209 -1.6098528
10.046797 -4.6007571 -1.6148841
9.9959621 -4.6518822 -1.6111846
9.9439859 -4.7021341 -1.6073371
9.8917704 -4.7519236 -1.6034895
9.8579836 -4.81036 -1.6027496
9.8194208 -4.8663645 -1.6012698
9.7814264 -4.9225216 -1.5999379
9.7334251 -4.9734449 -1.5969783
9.6974583 -5.0303411 -1.5960904
9.662035 -5.0874448 -1.5953505
9.6349983 -5.1489654 -1.5960904
9.5980072 -5.2051582 -1.5952026
9.5632896 -5.2625217 -1.5947586
9.5178671 -5.313869 -1.5925388
9.4730358 -5.3653445 -1.5904671
9.4210711 -5.4125285 -1.5872115
9.3620501 -5.4552927 -1.582772
9.3335085 -5.5156541 -1.58366
9.2714968 -5.5560403 -1.5787766
9.2448368 -5.6174474 -1.5801084
9.205143 -5.6709538 -1.5792205
9.1500435 -5.7147532 -1.5756689
9.0997658 -5.7612648 -1.5730052
9.0426054 -5.8031011 -1.5691577
8.9919062 -5.8487682 -1.566494
8.9550238 -5.9032869 -1.566346
8.9054766 -5.9493313 -1.5639783
8.8532448 -5.9933267 -1.5611666
8.8065176 -6.040822 -1.5593909
8.7611656 -6.0890989 -1.557911
8.7381935 -6.1529927 -1.5605748
8.703495 -6.2087913 -1.5611666
8.6307697 -6.237165 -1.5548035
8.6106892 -6.3034434 -1.558207
8.570261 -6.3549805 -1.557911
8.5121288 -6.3931904 -1.5543596
8.4680185 -6.4417067 -1.5534716
8.4126663 -6.4814706 -1.550512
8.3555861 -6.5195813 -1.5472564
8.2968035 -6.5560093 -1.5437047
8.2772675 -6.6234803 -1.5477003
8.2095795 -6.6523485 -1.542521
8.1579046 -6.6938124 -1.5404491
8.1075506 -6.7361569 -1.5386734
8.0940647 -6.8093371 -1.5441488
8.0167494 -6.8287282 -1.5371935
7.9919219 -6.8926473 -1.5405972
7.9293671 -6.9239893 -1.5366017
7.8800654 -6.9666166 -1.5352699
7.8253813 -7.0042815 -1.5329021
7.7800579 -7.0501728 -1.5324582
7.7359238 -7.0971093 -1.5323102
7.6900573 -7.1424227 -1.5318662
7.6468081 -7.1901512 -1.5320143
7.6054111 -7.2396636 -1.5326061
7.547317 -7.2731528 -1.5297945
7.4912224 -7.3082743 -1.5274268
7.4413137 -7.3492365 -1.5263909
7.1317415 -7.1304078 -1.4704537
7.0614462 -7.147296 -1.4648304
7.0008821 -7.173501 -1.4612788
6.9505577 -7.2099137 -1.459947
6.8864117 -7.2316532 -1.4556555
6.8283587 -7.2593622 -1.4526958
6.7769566 -7.2938776 -1.451216
6.7400985 -7.3440676 -1.4529918
6.6829543 -7.3720951 -1.4503281
6.5696511 -7.3370647 -1.435086
2.1752565 -2.458384 -0.45263332
2.1614323 -2.4731746 -0.45292929
2.1475084 -2.4878881 -0.45322526
6.4581614 -7.5788941 -1.451364
6.396255 -7.6002159 -1.4478124
6.3589816 -7.6507292 -1.4500322
6.2880774 -7.6605515 -1.4444089
6.210443 -7.6613412 -1.4371578
6.1688786 -7.7062531 -1.4384896
6.1754403 -7.8122416 -1.451512
2.0173709 -2.5832474 -0.45189342
1.9948423 -2.5869598 -0.45026562
1.9717455 -2.5897062 -0.44848984
1.9469085 -2.5898948 -0.44627011
1.9292132 -2.5994089 -0.44582617
1.8542191 -2.5306017 -0.43087998
1.8380773 -2.5411298 -0.43073198
1.8362364 -2.5716822 -0.43428355
5.9933586 -8.5082893 -1.5186958
5.9173317 -8.5107975 -1.5124806
5.8649993 -8.5469446 -1.5124806
5.8013563 -8.5663919 -1.509521
5.7486849 -8.6018276 -1.509521
5.6996074 -8.6427183 -1.5105568
5.6459298 -8.6766987 -1.5104089
5.5541215 -8.6512527 -1.4997542
1.7941358 -2.8312128 -0.46299207
1.7756821 -2.8404903 -0.46269611
1.7608137 -2.8555422 -0.46343604
5.3077784 -8.7317066 -1.4904313
5.268846 -8.7887106 -1.4947227
5.1836214 -8.7680874 -1.4855479
5.1227522 -8.7877665 -1.4834762
5.0859804 -8.8490467 -1.4886554
5.0447493 -8.9033203 -1.492651
4.9991856 -8.9505138 -1.4954627
4.9427414 -8.9784203 -1.4950187
4.8880296 -9.009449 -1.4951667
4.838717 -9.0506105 -1.4970905
4.7771015 -9.0687542 -1.4951667
4.7222776 -9.0996504 -1.4954627
4.6699548 -9.1355 -1.4966465
4.6151466 -9.1666327 -1.4970905
4.5592532 -9.1956644 -1.4972384
4.4979725 -9.2136889 -1.4956106
4.4392123 -9.2366581 -1.4948708
4.3756886 -9.2494173 -1.492503
4.3201046 -9.2787819 -1.492947
4.2622662 -9.3033171 -1.492651
4.2014451 -9.3211794 -1.4913192
4.1381612 -9.3332214 -1.4890994
4.0823965 -9.3620634 -1.4896914
4.0299401 -9.3987532 -1.4916152
3.9668179 -9.4105444 -1.4895434
3.9097581 -9.4365339 -1.4898393
3.8521559 -9.4612627 -1.4899874
3.7921941 -9.4801292 -1.4892474
3.7368462 -9.5105839 -1.4904313
3.6773524 -9.5305653 -1.4899874
3.6188047 -9.5529499 -1.4899874
3.558398 -9.5703392 -1.4892474
3.4965587 -9.5836306 -1.4879156
3.436023 -9.6002493 -1.4871757
3.3734505 -9.6108856 -1.4855479
3.3150592 -9.6332741 -1.4858438
3.2580998 -9.6599941 -1.4868797
3.1978352 -9.6769867 -1.4864358
3.1414425 -9.7058353 -1.4879156
3.0839202 -9.7315283 -1.4889514
3.0238576 -9.7493229 -1.4888035
2.9665637 -9.7762108 -1.4901353
2.909616 -9.8046589 -1.4917631
2.8505027 -9.8261271 -1.492355
2.7882698 -9.836772 -1.4913192
2.7262774 -9.8479757 -1.4904313
2.6650264 -9.8616543 -1.4899874
2.6039622 -9.8759079 -1.4896914
2.5420849 -9.8869104 -1.4889514
2.4811318 -9.9013634 -1.4888035
2.4215035 -9.9212046 -1.4895434
2.362639 -9.9445362 -1.4908752
2.3015759 -9.9588461 -1.4908752
2.2393429 -9.9679556 -1.4901353
2.1772957 -9.977643 -1.4895434
2.1131656 -9.9772692 -1.4874716
0.53811294 -2.6156251 -0.36103246
0.52243948 -2.6208177 -0.36132842
0.50821829 -2.6336856 -0.36280826
0.49277276 -2.6406436 -0.36340016
0.48076162 -2.6669784 -0.36695173
0.47216496 -2.7147021 -0.37375891
0.46202204 -2.7565663 -0.37967819
0.44557062 -2.7622786 -0.38012215
0.42604461 -2.7483451 -0.37760645
0.40249875 -2.7059062 -0.37079927
0.38366264 -2.6926584 -0.36843157
0.36859745 -2.7057416 -0.37005937
0.35834149 -2.7569921 -0.37745845
0.34577563 -2.7944751 -0.38278583
0.32367685 -2.7543061 -0.37642258
0.30393699 -2.7306831 -0.37257507
0.29119131 -2.7708576 -0.37834635
1.0025117 -10.16908 -1.4904313
0.72735685 -7.8696089 -1.1440053
0.67540836 -7.8315539 -1.1376421
0.62616038 -7.8207631 -1.1354223
0.57917958 -7.8382664 -1.1374941
0.53200752 -7.8554869 -1.1395659
0.63190168 -10.270163 -1.501086
0.20120755 -3.6201818 -0.50398308
0.17874821 -3.6164091 -0.50324321
0.15434788 -3.5660577 -0.49554813
0.1314818 -3.5402529 -0.49155262
0.10790749 -3.4806931 -0.48252571
0.08635433 -3.4733801 -0.48134184
0.18679047 -10.095003 -1.4722295
0.12549938 -10.149361 -1.4802206
0.021988902 -3.4061422 -0.47113109
0.00094036921 -10.209476 -1.4890994
-0.061941318 -10.247859 -1.4948708
-0.12479552 -10.245308 -1.4945748
-0.18767542 -10.245338 -1.4947227
-0.25041464 -10.239051 -1.4939828
-0.31287125 -10.225459 -1.4922071
-0.37549832 -10.220382 -1.4917631
-0.43773499 -10.207017 -1.4901353
-0.50030726 -10.203151 -1.4899874
-0.56252092 -10.192976 -1.4889514
-0.62481064 -10.185385 -1.4883596
-0.68916345 -10.208987 -1.492503
-0.76096141 -10.328841 -1.5111488
-0.84607983 -10.596071 -1.5519918
-0.91447514 -10.630094 -1.557911
-0.98241055 -10.653827 -1.5623505
-1.0488292 -10.658424 -1.5639783
-1.1141053 -10.650805 -1.5638304
-1.1791095 -10.64082 -1.5633864
-1.2446082 -10.635348 -1.5636824
-1.3097209 -10.62653 -1.5635344
-1.3737555 -10.609467 -1.5622026
-1.3765278 -10.142202 -1.492947
-1.4373419 -10.123774 -1.4914671
-1.4995784 -10.115742 -1.4916152
-0.45212811 -2.9314508 -0.4052791
-0.47513482 -2.959867 -0.41001451
-1.6834015 -10.073745 -1.4896914
-0.52021444 -3.0044837 -0.41770959
-0.54319179 -3.0265429 -0.4215571
-0.55813116 -3.0037074 -0.41859746
-1.9450772 -10.10709 -1.5015299
-2.0053198 -10.086235 -1.5001981
-2.0645843 -10.061147 -1.4982743
-2.1256647 -10.045387 -1.4978304
-0.62049675 -2.849896 -0.39787999
-0.63407093 -2.828666 -0.39521632
-0.65341896 -2.8333945 -0.39654815
-2.3692653 -9.9805727 -1.4963505
-2.4332736 -9.9773769 -1.4981264
-2.4951689 -9.9651365 -1.4985703
-0.93351108 -3.6364279 -0.52322078
-0.76019174 -2.8885236 -0.40838671
-0.77609551 -2.8771214 -0.40735084
-0.78687584 -2.8475232 -0.4035033
-0.80298489 -2.8378837 -0.4027634
-0.81872988 -2.8272042 -0.4018755
-2.8889668 -9.7416677 -1.4818484
-2.9756744 -9.8127193 -1.4957587
-1.0015619 -3.2338996 -0.46802348
-1.0195937 -3.2220366 -0.46713558
-3.152441 -9.7459345 -1.4941308
-3.2183867 -9.7451897 -1.4970905
-3.2746453 -9.7149496 -1.4954627
-3.334837 -9.6965446 -1.4957587
-1.1313759 -3.2275054 -0.47320282
-1.1524911 -3.2242274 -0.47379476
-3.5086868 -9.6223688 -1.4939828
-3.5842032 -9.645155 -1.501086
-1.1640046 -3.076684 -0.45366922
-1.181793 -3.0667157 -0.45322526
-3.7586007 -9.571104 -1.5000501
-1.2064836 -3.0198429 -0.44804588
-1.2328207 -3.0316191 -0.45115352
-3.9394355 -9.5130911 -1.5021218
-3.9985008 -9.4905624 -1.5024178
-4.060945 -9.4758482 -1.5040456
-4.1253352 -9.4652576 -1.5064133
-4.191752 -9.4587536 -1.509521
-4.2529616 -9.4400692 -1.5107048
-4.3161588 -9.4254847 -1.5126286
-1.3350139 -2.8706424 -0.43517146
-1.3462597 -2.8489866 -0.43295172
-1.3611454 -2.8353238 -0.43206385
-1.3832887 -2.8366952 -0.43369165
-4.6203833 -9.3232098 -1.5183998
-4.6708326 -9.2814331 -1.5161802
-4.7267942 -9.2508373 -1.5158842
-4.7843781 -9.2234154 -1.5161802
-4.8404212 -9.1930103 -1.5160322
-4.9009333 -9.1709871 -1.517364
-4.9674878 -9.1598682 -1.5206196
-4.7193398 -8.5764437 -1.4262071
-4.7439075 -8.4972439 -1.4176241
-4.7637815 -8.4111824 -1.4078573
-4.7788377 -8.3183403 -1.3969066
-4.8108635 -8.2563915 -1.3912833
-4.8533816 -8.2130957 -1.3889157
-4.8909731 -8.1619539 -1.385216
-4.9024377 -8.0684052 -1.3741174
-4.9731245 -8.0726929 -1.3801847
-4.9397736 -7.9095006 -1.3568035
-5.0771055 -8.019413 -1.3816645
-5.198339 -8.1004667 -1.4016421
-5.2544165 -8.0783653 -1.4034178
-5.3370948 -8.0963383 -1.4124447
-5.4690933 -8.1867838 -1.4346421
-5.4371567 -8.0318718 -1.4127407
-5.4471703 -7.9412742 -1.402382
-5.508214 -7.9255667 -1.4056376
-5.5635743 -7.9013224 -1.4074134
-5.6217165 -7.8807225 -1.409929
-5.6769185 -7.8556981 -1.4117048
-5.6712604 -7.7473059 -1.3980905
-6.2901731 -8.4828825 -1.541633
-6.3397288 -8.4409637 -1.5410411
