# .PCD v0.7 - Point Cloud Data file format
VERSION 0.7
FIELDS x y z
SIZE 4 4 4
TYPE F F F
COUNT 1 1 1
WIDTH 1505
HEIGHT 1
VIEWPOINT 0 0 0 1 0 0 0
POINTS 1505
DATA ascii
-9.4805861 15.354515 -1.9893693
-9.3903294 15.419188 -1.9902624
-9.3021946 15.48759 -1.9917138
-9.1978731 15.528986 -1.9897043
-9.103919 15.587705 -1.9900391
-9.0081034 15.643271 -1.9900391
-8.8682833 15.621337 -1.980103
-8.7640152 15.660716 -1.9782051
-8.6562376 15.693313 -1.9755256
-8.5540867 15.735654 -1.9741859
-8.4465809 15.767697 -1.9716182
-8.3343649 15.790227 -1.9679339
-8.2208147 15.809328 -1.9639149
-8.1213903 15.85505 -1.9633566
-8.0114193 15.879742 -1.9602306
-7.9023356 15.905461 -1.957328
-7.8019724 15.948294 -1.9566581
-7.7039685 15.995866 -1.9566581
-7.5988631 16.028467 -1.9548718
-7.4928079 16.058582 -1.9528623
-7.3891568 16.093418 -1.9515225
-7.2730875 16.100418 -1.9468335
-7.1794062 16.156548 -1.9482849
-7.0729728 16.183905 -1.9462754
-6.9703979 16.219694 -1.9453822
-6.8680372 16.255751 -1.9446007
-6.7670212 16.294834 -1.9442657
-6.668788 16.340649 -1.944824
-6.5672884 16.378492 -1.944489
-6.4775944 16.446218 -1.9478383
-6.3808622 16.496777 -1.949178
-6.2802258 16.537477 -1.9494013
-6.1696105 16.551491 -1.9464986
-6.0682774 16.589968 -1.9466102
-5.9653621 16.624084 -1.9462754
-5.869185 16.677246 -1.9482849
-5.7716074 16.727036 -1.9499595
-5.6707735 16.767784 -1.9506294
-5.5646558 16.79283 -1.949513
-5.4556828 16.808699 -1.9473917
-5.3518419 16.839964 -1.9471685
-5.247232 16.86869 -1.9467219
-5.1416035 16.893913 -1.9459404
-5.0358629 16.918476 -1.945159
-4.9283485 16.936653 -1.9437076
-4.8262372 16.973267 -1.944489
-4.7217345 17.001602 -1.9443774
-4.6160254 17.025457 -1.9438192
-4.5102015 17.048658 -1.943261
-4.4030252 17.066389 -1.9421445
-4.289742 17.059353 -1.9382371
-4.1897159 17.104658 -1.94047
-4.0858374 17.134876 -1.9410281
-3.9882588 17.192537 -1.944824
-3.3179426 14.71273 -1.6564517
-3.1816638 14.523136 -1.632337
-3.0782273 14.475316 -1.6246337
-2.9423723 14.26619 -1.5985093
-2.8460159 14.240124 -1.5934855
-2.7616074 14.272928 -1.5952717
-2.669591 14.266162 -1.5925922
-2.5768776 14.253915 -1.5893546
-2.4507654 14.048213 -1.5641235
-2.3762219 14.132565 -1.5720501
-2.2837451 14.111565 -1.568031
-2.184283 14.04283 -1.558653
-2.0446651 13.698208 -1.5180151
-1.9552293 13.673114 -1.5137727
-1.8721038 13.690761 -1.5144426
-1.7830474 13.66356 -1.5100886
-1.6980728 13.665368 -1.5090837
-1.6226975 13.747573 -1.5172337
-1.5810612 14.139468 -1.5604392
-1.4881139 14.090597 -1.5538523
-1.4032992 14.116273 -1.5557503
-1.3536543 14.52139 -1.6005189
-1.333479 15.321425 -1.6898328
-1.1873696 14.685485 -1.6172652
-1.1504695 15.405014 -1.6975361
-1.0395479 15.17285 -1.6706303
-1.0054514 16.125139 -1.7771372
-0.90844291 16.165731 -1.7810446
-0.72490734 14.48672 -1.5915875
-0.63713849 14.516708 -1.5944902
-0.60551703 16.041681 -1.7655263
-0.47691745 15.091574 -1.6583496
-0.38220677 15.011762 -1.6490834
-0.28830135 14.921423 -1.6387006
-0.21415931 16.241501 -1.78685
-0.10458735 14.841358 -1.6294342
-0.013786206 15.124939 -1.6612524
0.078905299 15.102877 -1.6587962
0.17376953 15.295877 -1.6805664
0.28055286 16.034752 -1.7637401
0.38585445 16.325804 -1.7966745
0.47795296 16.051954 -1.7661961
0.53155923 14.798395 -1.6256384
0.62114006 14.766062 -1.6224008
0.71168339 14.760981 -1.6222892
0.79118818 14.552917 -1.5994024
0.85328519 14.098442 -1.5488285
0.93349683 13.998744 -1.5382224
1.0509865 14.426865 -1.5871218
1.1061517 13.998122 -1.5395621
1.1899978 13.967308 -1.5368828
1.2708856 13.907293 -1.5309657
1.3588002 13.925938 -1.53398
1.4470937 13.945014 -1.537106
1.540234 14.005018 -1.544921
1.6184555 13.929168 -1.5374409
1.7032893 13.914042 -1.5368828
1.789266 13.908257 -1.5374409
1.8740405 13.893078 -1.5369943
1.9642503 13.916741 -1.5410135
2.0432296 13.86117 -1.5361012
2.1372969 13.907305 -1.5427998
2.2274556 13.924348 -1.5462607
2.3073113 13.877089 -1.5424649
2.4015405 13.915551 -1.5484935
2.5717449 14.374991 -1.60264
2.5712202 13.880147 -1.5479354
2.6576474 13.870941 -1.5487168
2.7444446 13.863147 -1.5497216
2.8262725 13.830468 -1.5479354
2.9221463 13.865375 -1.553964
3.0120177 13.86952 -1.5565318
3.1376085 14.032131 -1.5774089
3.547554 15.420753 -1.7397369
3.3274071 14.068003 -1.586117
3.7562327 15.457171 -1.7491149
3.8286338 15.344163 -1.7387321
3.8990507 15.227963 -1.7280145
3.7599809 14.318516 -1.6251918
3.8653288 14.360429 -1.6327835
3.9491436 14.321114 -1.6309973
4.0396419 14.306176 -1.6321137
4.1521764 14.367042 -1.6421615
4.2658911 14.428015 -1.652321
4.3396726 14.353055 -1.6466272
4.3636966 14.119178 -1.6222892
4.4517441 14.096875 -1.6228473
4.5482235 14.100505 -1.6265316
4.7670727 14.474427 -1.6740912
4.8713107 14.49106 -1.6795617
4.9623914 14.467478 -1.6803432
4.9404802 14.120649 -1.6427197
5.0383825 14.121893 -1.6465155
5.1375046 14.125266 -1.6506463
5.5093517 14.863147 -1.7428629
5.5516467 14.699839 -1.7273446
5.6067748 14.574603 -1.7164037
5.593884 14.278995 -1.6849205
5.7358761 14.381014 -1.7014436
5.8423238 14.390666 -1.7069141
6.0098143 14.546506 -1.7302474
6.0369625 14.361861 -1.7122729
6.1597414 14.405871 -1.7222091
6.2698131 14.417928 -1.7283494
6.3605728 14.384639 -1.7290193
6.4495306 14.347153 -1.7292426
6.5370283 14.306405 -1.7291309
6.6983471 14.424658 -1.74878
6.8172598 14.447995 -1.7568182
6.89891 14.391556 -1.7550319
6.9888248 14.352528 -1.7554785
7.0670676 14.289778 -1.7530223
7.1621966 14.261243 -1.7549202
7.2694292 14.255981 -1.7598325
7.3709269 14.238467 -1.7632935
7.4516826 14.180655 -1.7617304
7.5993447 14.248656 -1.776244
7.6398029 14.115237 -1.7651914
7.8123717 14.224882 -1.785287
7.9241753 14.220951 -1.7909808
8.0244875 14.195419 -1.7939951
8.1312103 14.180399 -1.7984608
8.2155685 14.125944 -1.7979026
8.360651 14.17456 -1.8108531
8.422473 14.081203 -1.8053826
8.5252047 14.05645 -1.8089552
8.6352367 14.042815 -1.8140907
8.7527809 14.040165 -1.8207893
8.8891973 14.066001 -1.8313953
8.9919538 14.037134 -1.8348563
9.1304045 14.062545 -1.8456856
9.2569408 14.067689 -1.853947
9.3761635 14.060232 -1.8606457
9.4995365 14.057603 -1.8681257
9.6221066 14.052348 -1.8753824
9.7602615 14.068161 -1.8856535
9.8892574 14.068984 -1.8940266
10.007676 14.053371 -1.9002787
10.148949 14.068265 -1.9108847
10.284916 14.073928 -1.9203743
10.418377 14.074455 -1.9293057
10.548056 14.068306 -1.9374555
10.682258 14.066634 -1.9463869
10.816834 14.063842 -1.9553183
10.942616 14.048165 -1.9625751
11.108002 14.081409 -1.976977
11.282267 14.12324 -1.9928302
11.418086 14.114784 -2.0016499
11.550447 14.100578 -2.0097997
11.698286 14.103635 -2.0206292
11.826145 14.081055 -2.0278859
11.947729 14.049863 -2.0340261
12.037602 13.980807 -2.0346961
12.121855 13.905185 -2.0344727
12.162231 13.77988 -2.0268812
12.24192 13.699807 -2.0260997
12.30775 13.604537 -2.0230854
12.367502 13.503112 -2.0191779
12.425799 13.400739 -2.0151587
12.484667 13.299609 -2.0113628
12.538654 13.193939 -2.0068972
12.592505 13.088825 -2.002543
12.646926 12.984972 -1.9984124
12.704734 12.885191 -1.9949514
12.759687 12.78308 -1.9911555
12.816693 12.683577 -1.9878063
12.863721 12.574825 -1.9830056
12.92205 12.47771 -1.980103
12.975358 12.376238 -1.9765304
13.034418 12.280716 -1.9739627
13.088429 12.180873 -1.9707251
13.150487 12.088902 -1.9688271
13.204552 11.989946 -1.9658127
13.260858 11.893438 -1.9632449
13.309038 11.790101 -1.9595608
13.37066 11.699055 -1.9579978
13.422644 11.599899 -1.9550951
13.481473 11.506998 -1.9533088
13.522194 11.39908 -1.9489547
13.575845 11.302543 -1.9466102
13.623447 11.201358 -1.9434843
13.675721 11.104401 -1.9411398
13.725768 11.00598 -1.938572
13.771227 10.90428 -1.935446
13.809692 10.797539 -1.9314269
13.835569 10.681628 -1.9257331
13.853433 10.560386 -1.9190346
13.913205 10.471599 -1.9183648
13.926945 10.34869 -1.9113313
13.986976 10.26069 -1.9108847
14.023916 10.156022 -1.9073122
14.060907 10.051866 -1.9038513
14.086595 9.9401894 -1.898939
14.152214 9.8569765 -1.8996089
14.199327 9.7609472 -1.8978225
14.25484 9.6708479 -1.8972644
14.294918 9.5704842 -1.8946966
14.325182 9.4639664 -1.8909007
14.356343 9.3585243 -1.8873281
14.381736 9.2498312 -1.8830857
14.403818 9.1395826 -1.8785084
14.452045 9.0462847 -1.8775036
14.493752 8.9490852 -1.8757174
14.539903 8.8548155 -1.8746009
14.577775 8.7557116 -1.8724797
14.620965 8.6600218 -1.87114
14.653232 8.5581169 -1.8684605
14.67705 8.4516802 -1.8647764
14.700113 8.345274 -1.8610922
14.719824 8.2374468 -1.8570731
14.733544 8.1268139 -1.8523841
14.775275 8.0319853 -1.8513793
14.805884 7.9313202 -1.8490348
14.829664 7.8273349 -1.8459089
14.848318 7.7210641 -1.8422246
14.872418 7.6180315 -1.839322
14.902911 7.5185752 -1.8373123
14.936305 7.4208007 -1.8357494
14.975308 7.3259568 -1.8349679
15.012815 7.2304821 -1.8340747
15.048817 7.1343975 -1.8330699
15.075199 7.0339417 -1.8309487
15.060276 6.9147706 -1.8238037
15.10061 6.821414 -1.8235804
15.112213 6.7153125 -1.8198961
15.131279 6.6129074 -1.8172168
15.168832 6.5187621 -1.8168818
15.216783 6.4290462 -1.8178866
15.261451 6.3378439 -1.8185564
15.302812 6.2452083 -1.8188914
15.339921 6.1508245 -1.8187797
15.374599 6.0554924 -1.8184448
15.417027 5.9631929 -1.8191147
15.44032 5.863544 -1.8175516
15.487182 5.7728586 -1.8188914
15.549376 5.687623 -1.822129
15.596142 5.5964704 -1.8235804
15.644248 5.5056176 -1.825255
15.667402 5.4059567 -1.8240269
15.707808 5.3122687 -1.8249201
15.765577 5.2242279 -1.8279344
15.773705 5.1197238 -1.8251433
15.823764 5.0288615 -1.8273762
15.867607 4.9358068 -1.8289392
15.905199 4.8406672 -1.8298323
15.939363 4.744401 -1.8303906
15.967221 4.6462321 -1.8302789
15.996385 4.5484433 -1.8303906
16.014418 4.4475465 -1.8292741
16.052916 4.3523207 -1.8306139
16.064907 4.2499275 -1.8289392
16.131096 4.1617026 -1.8336282
16.166929 4.0653114 -1.8348563
16.200256 3.9681647 -1.835861
16.223333 3.8684566 -1.8357494
16.247732 3.7690637 -1.835861
16.293818 3.674546 -1.8385404
16.319941 3.5753505 -1.838987
16.335739 3.4739056 -1.8383172
16.3694 3.3762159 -1.8397685
16.393705 3.2764907 -1.8402151
16.426186 3.1782937 -1.8416665
16.449284 3.0781758 -1.842113
16.472752 2.9780712 -1.8426712
16.492672 2.8772817 -1.8428944
16.510017 2.7760305 -1.8428944
16.521833 2.6738808 -1.8423363
16.561497 2.5761206 -1.8450156
16.583872 2.4754798 -1.8457972
16.595797 2.3732545 -1.8454622
16.618908 2.2725918 -1.846467
6.6219645 0.86393422 -0.71229213
6.6360164 0.82438952 -0.71329695
6.5777884 0.77619904 -0.70615184
6.5547748 0.73273098 -0.70302582
6.542347 0.69072312 -0.70112789
6.5434957 0.65027201 -0.70079297
6.537468 0.60918701 -0.69967657
6.5341525 0.56845909 -0.69889504
6.5256314 0.52739424 -0.69755536
6.5227985 0.48689955 -0.69688553
6.5276465 0.44700316 -0.69710881
6.5312581 0.40700373 -0.69722044
6.5415697 0.36736727 -0.69811356
6.5307984 0.32657602 -0.69666219
6.5346646 0.28658485 -0.69688553
6.5303421 0.24625847 -0.69621563
6.5287504 0.20609015 -0.69588071
6.5199575 0.16577342 -0.69476432
6.51191 0.12559158 -0.6937595
6.5145454 0.085659139 -0.69398278
6.5169358 0.045699086 -0.69420606
6.4992061 0.005694279 -0.69219649
6.5279369 -0.034334 -0.69543415
6.550458 -0.074647062 -0.69800192
6.5727296 -0.11523778 -0.70056969
6.5808401 -0.15577623 -0.7015745
6.5877066 -0.19638897 -0.70246762
6.6022673 -0.23737702 -0.70425391
6.5977082 -0.27775809 -0.70391899
6.6137462 -0.31909657 -0.7059285
6.6354785 -0.36096582 -0.70860797
6.634131 -0.40173355 -0.70871961
6.6543465 -0.44395238 -0.71128738
6.6683464 -0.48600128 -0.71318531
14.488501 -1.1448879 -1.5948251
14.730724 -1.2550179 -1.622959
14.677223 -1.3412216 -1.6178235
14.622231 -1.4267197 -1.6125762
14.559826 -1.5108757 -1.6065476
14.523611 -1.5972524 -1.6035333
10.597669 -1.2314595 -1.1606479
10.58794 -1.2962209 -1.1604246
10.578802 -1.3610362 -1.160313
10.573206 -1.4263192 -1.1606479
10.579015 -1.4932512 -1.1623225
10.569654 -1.5581348 -1.1623225
13.813011 -2.1228087 -1.5320821
13.814445 -2.209878 -1.5337567
13.816311 -2.2972076 -1.535543
13.987039 -2.4138758 -1.5566435
13.949465 -2.4956286 -1.5540757
13.891872 -2.5733919 -1.549275
14.254509 -2.7311273 -1.5925922
14.214087 -2.8139088 -1.5899129
13.330994 -2.7242193 -1.4906628
14.218354 -2.9965267 -1.5944902
14.211353 -3.0862429 -1.59583
14.185361 -3.1718662 -1.5950484
14.154978 -3.2563958 -1.5938203
14.135698 -3.3434165 -1.593932
8.2852821 -2.0135908 -0.91994697
8.2766275 -2.0653527 -0.92039353
13.862856 -3.5495584 -1.5697056
13.878301 -3.6443949 -1.5740596
7.6317 -2.054384 -0.84994721
7.6160769 -2.1003802 -0.8496123
13.91598 -3.9294739 -1.5865636
13.982303 -4.0409956 -1.5971696
8.007823 -2.3678377 -0.90018624
7.9569969 -2.4060001 -0.89594388
7.9411345 -2.4544847 -0.89583224
7.9259248 -2.5031643 -0.89583224
8.4665318 -2.7311122 -0.96147794
13.68062 -4.5056601 -1.5802
13.620689 -4.578753 -1.5764041
13.579179 -4.6577282 -1.5748411
7.7619286 -2.7159066 -0.88589603
13.466712 -4.8046484 -1.5683659
13.414564 -4.8790369 -1.5656865
13.359216 -4.95193 -1.5626721
13.317424 -5.0295949 -1.5613325
13.270545 -5.1051488 -1.5594345
13.23712 -5.1857543 -1.5592113
13.188437 -5.260252 -1.5572016
13.134734 -5.3324785 -1.5546339
13.066866 -5.3985529 -1.5503914
13.006927 -5.4674616 -1.5471538
12.964911 -5.5436516 -1.546149
12.917894 -5.6175508 -1.5445861
12.863187 -5.6878667 -1.5421299
12.826232 -5.765872 -1.5419066
12.760784 -5.8308353 -1.5382224
12.692319 -5.8939576 -1.5342033
12.620865 -5.9551878 -1.5298493
12.580503 -6.0307975 -1.5294027
12.528072 -6.100481 -1.5275048
12.487732 -6.1759157 -1.5271698
12.42296 -6.2390437 -1.5238205
12.338408 -6.2916784 -1.5180151
12.291629 -6.3631558 -1.5170103
12.249715 -6.4370694 -1.5166755
12.192451 -6.5027585 -1.5144426
12.133967 -6.5675144 -1.5120981
12.071666 -6.6298847 -1.509307
12.018604 -6.6970587 -1.5077441
11.97642 -6.7701883 -1.5076324
11.93293 -6.8425584 -1.5074091
11.888144 -6.9141498 -1.5070742
11.8318 -6.9788861 -1.5052879
11.781933 -7.0472727 -1.5043948
11.706181 -7.0998507 -1.5001523
11.631075 -7.1522856 -1.4960216
11.592031 -7.2266722 -1.4966915
11.528989 -7.2859845 -1.4942354
11.466494 -7.3453317 -1.4918909
11.418707 -7.4139271 -1.4915559
11.373001 -7.4838514 -1.4915559
11.312811 -7.5441217 -1.489658
11.256428 -7.6067171 -1.4883183
11.191503 -7.6632905 -1.4858621
11.123858 -7.7176547 -1.4830711
11.093368 -7.7977648 -1.4854156
11.037218 -7.8599215 -1.4842992
10.993618 -7.930985 -1.484969
10.903025 -7.9678025 -1.4791636
10.882685 -8.0558367 -1.4831828
10.821124 -8.1135178 -1.4815081
10.771928 -8.1803637 -1.4816197
10.719169 -8.2444878 -1.4812849
10.655835 -8.300333 -1.4794985
10.596123 -8.3587904 -1.4782705
10.530659 -8.4124851 -1.4762609
10.457981 -8.4600677 -1.4732466
10.387424 -8.5089645 -1.4705671
10.328135 -8.5668306 -1.4695624
10.254828 -8.6127853 -1.4665481
10.196489 -8.6710396 -1.4657665
10.141586 -8.7321444 -1.4655433
10.04362 -8.755681 -1.4589564
10.019509 -8.8434458 -1.4634221
9.9672813 -8.906744 -1.4637569
9.9176016 -8.9724016 -1.4645385
9.8513689 -9.0230179 -1.4628638
9.787075 -9.0751867 -1.4615241
9.7246857 -9.1289473 -1.4605193
9.6612844 -9.1815996 -1.4594029
9.6011848 -9.2372627 -1.4588447
9.5464611 -9.2980804 -1.4591796
9.4885216 -9.3557835 -1.4590679
9.4239035 -9.4068079 -1.4579515
9.3590164 -9.4573917 -1.4568352
9.3001165 -9.5139284 -1.4567235
9.2422552 -9.5715284 -1.4568352
7.0028605 -7.3421144 -1.1019241
9.1315985 -9.6921806 -1.4580632
9.0760183 -9.7523937 -1.4587331
9.0065928 -9.797657 -1.4571701
8.9443016 -9.8505287 -1.4568352
8.8936443 -9.9163218 -1.4585098
6.7450056 -7.6142349 -1.1048267
6.6811442 -7.6360335 -1.1019241
6.5172014 -7.5415487 -1.0818284
2.1301043 -2.4961123 -0.33069852
2.1115458 -2.5053365 -0.33014029
2.0923185 -2.5136633 -0.32947043
2.0749621 -2.5241516 -0.32913551
2.0575559 -2.5345213 -0.32880059
2.0401006 -2.5447729 -0.32846567
2.0318506 -2.5665915 -0.32980537
2.0050459 -2.5649192 -0.3277958
1.9698364 -2.5520029 -0.32422325
1.935464 -2.5395424 -0.32076234
1.9090883 -2.5370789 -0.31875277
1.8922997 -2.5471497 -0.31852949
1.8783985 -2.5611165 -0.31886441
1.870809 -2.5838618 -0.32042742
1.8699459 -2.6163106 -0.3233301
1.8710464 -2.6520934 -0.32667938
1.8984725 -2.7263126 -0.33527583
1.8755158 -2.7289021 -0.33404776
1.8576205 -2.738714 -0.33382449
1.8595787 -2.7781363 -0.33762032
1.8441408 -2.7919815 -0.33795527
1.8280602 -2.8049092 -0.33817855
7.224772 -11.233315 -1.4625289
7.148788 -11.266525 -1.4610776
7.0705595 -11.295857 -1.4591796
6.9911962 -11.322964 -1.4570584
6.9107332 -11.347825 -1.4547139
6.8297172 -11.371273 -1.4522578
6.7476606 -11.392446 -1.4495784
6.6816406 -11.440498 -1.4504715
6.6247072 -11.504532 -1.4534858
6.5569358 -11.550149 -1.4541557
6.4747796 -11.570219 -1.4515879
6.4079843 -11.617561 -1.4525927
6.3403764 -11.663646 -1.4534858
6.2639976 -11.69357 -1.4523695
6.1754293 -11.700148 -1.4483503
6.092977 -11.717541 -1.4457825
6.0182467 -11.749399 -1.4451127
5.9464879 -11.786992 -1.4452243
5.8833385 -11.841947 -1.4475688
5.8380795 -11.93406 -1.4546024
5.774662 -11.990249 -1.4571701
5.7090712 -12.042517 -1.4592913
5.626668 -12.05931 -1.4570584
5.5430303 -12.072836 -1.4544907
5.4692574 -12.107526 -1.4546024
5.3847752 -12.118154 -1.4518112
5.3031545 -12.134576 -1.4498017
5.1960301 -12.091107 -1.4405353
5.0896401 -12.046784 -1.431269
5.0118151 -12.06861 -1.4301527
4.9448042 -12.116616 -1.4322739
4.8651867 -12.133816 -1.4307108
4.7622361 -12.09132 -1.4220027
4.6728983 -12.081387 -1.4173137
4.5969162 -12.105186 -1.4167556
4.5211649 -12.12944 -1.416309
4.4401684 -12.139221 -1.4141878
4.3652644 -12.165301 -1.4140761
4.2898774 -12.189982 -1.4138528
4.2088413 -12.198227 -1.4117316
4.1316867 -12.217233 -1.4109502
4.0603967 -12.253674 -1.4122899
3.9817581 -12.26796 -1.4110618
3.9021943 -12.278902 -1.4094988
3.8226461 -12.28933 -1.4079357
3.7431173 -12.299244 -1.4063728
3.6672966 -12.321027 -1.4062612
3.5991242 -12.36906 -1.4092755
3.5269668 -12.404293 -1.4108385
3.4462681 -12.409423 -1.4089406
3.3685 -12.424581 -1.4082707
3.2990634 -12.470954 -1.411285
3.2353914 -12.540998 -1.4170904
3.1617734 -12.574106 -1.4186535
3.0840878 -12.591339 -1.4184302
3.0065401 -12.609059 -1.4183185
2.9374254 -12.663087 -1.4224494
2.8587964 -12.676995 -1.4220027
2.7779803 -12.680708 -1.4204397
2.6974332 -12.684878 -1.4189883
2.6177425 -12.692431 -1.4179837
2.5312436 -12.665378 -1.4130714
2.4512169 -12.668962 -1.4117316
2.3695965 -12.663252 -1.4093871
2.2890227 -12.661907 -1.4076009
2.2124832 -12.682567 -1.4083824
2.1349523 -12.697864 -1.4086057
2.0566819 -12.708762 -1.4083824
1.9778999 -12.716232 -1.4078242
1.8995439 -12.726164 -1.4076009
0.4151071 -2.9051259 -0.29173532
0.39390719 -2.8830037 -0.28894424
0.38264096 -2.9346359 -0.29452637
0.3632789 -2.9260807 -0.2932983
0.22565466 -1.9147146 -0.17864159
1.4139358 -12.645245 -1.3915243
0.85901242 -8.1354055 -0.88109541
0.1897828 -1.9126105 -0.17797174
0.17453769 -1.8761396 -0.17372933
0.25895178 -2.9790494 -0.29798728
0.63218272 -7.8212237 -0.84358358
0.14486079 -1.9444395 -0.18109772
0.13367468 -1.9561975 -0.1823258
0.12173104 -1.9579726 -0.18243743
0.11774731 -2.101557 -0.19851393
0.097644843 -1.9583266 -0.1823258
0.09630923 -2.2021227 -0.20967817
0.091947578 -2.4449742 -0.23691891
0.11483005 -3.6433539 -0.37155962
0.092092901 -3.6290884 -0.36988497
0.070361763 -3.6574049 -0.37301096
0.047656484 -3.6378946 -0.37077811
0.025144082 -3.6112881 -0.36776379
0.0029879583 -3.6143556 -0.36809871
-0.019106722 -3.5984061 -0.36631241
-0.042323295 -3.6985834 -0.3775883
-0.062863991 -3.575048 -0.36374465
-0.084892713 -3.5785689 -0.3641912
-0.10616913 -3.5551345 -0.36162344
-0.12951377 -3.5971198 -0.36642405
-0.55285597 -13.141725 -1.4397539
-0.63462961 -13.161907 -1.4424332
-0.72276455 -13.293708 -1.4577283
-0.2299339 -3.7942207 -0.38908747
-0.25142598 -3.7659667 -0.38607311
-0.27387923 -3.7554331 -0.38506836
-0.29644743 -3.7477379 -0.38439849
-0.31985921 -3.7507992 -0.38495669
-0.34331968 -3.7537141 -0.38551491
-1.3026508 -13.350308 -1.4690042
-1.3773642 -13.272873 -1.4611892
-1.454652 -13.226635 -1.4569468
-1.5333737 -13.196732 -1.4546024
-0.35943279 -2.9335639 -0.29407981
-0.37920082 -2.9451022 -0.29564279
-1.7902339 -13.271648 -1.4665481
-1.8759381 -13.290917 -1.470009
-1.9599174 -13.29587 -1.4719069
-2.0595729 -13.401461 -1.485304
-0.4891378 -3.0557253 -0.30970973
-0.50494486 -3.0350211 -0.30770019
-2.305732 -13.360301 -1.4851923
-2.3820665 -13.314599 -1.4816197
-2.4633565 -13.297778 -1.4813964
-2.5357423 -13.234589 -1.475926
-0.55053163 -2.7792692 -0.28034779
-0.57811803 -2.8274415 -0.28626484
-0.58746475 -2.7859175 -0.28191078
-0.59358263 -2.7317622 -0.27610537
-0.61748838 -2.7600722 -0.2797896
-3.0481074 -13.249471 -1.4894347
-3.1304908 -13.235353 -1.489993
-3.2179778 -13.241968 -1.4930073
-3.3027766 -13.236437 -1.494682
-3.3753054 -13.182228 -1.4907744
-0.74086916 -2.8200569 -0.28961411
-0.75247699 -2.7943466 -0.28715798
-3.6205449 -13.129362 -1.4921142
-3.7040071 -13.11742 -1.4933422
-0.81068134 -2.8038898 -0.28994903
-0.80476809 -2.7207189 -0.28079435
-0.91462213 -3.0239275 -0.3169665
-4.039773 -13.07099 -1.499036
-4.1279783 -13.071542 -1.5020503
-4.2404404 -13.146219 -1.5138844
-4.3412285 -13.181306 -1.5211412
-4.4188595 -13.145 -1.5200248
-4.5345736 -13.220099 -1.5321938
-4.6018224 -13.152631 -1.5275048
-4.6774302 -13.110107 -1.5258301
-1.1731963 -3.224725 -0.3475565
-1.1553159 -3.1158991 -0.3353875
-1.1642317 -3.0817912 -0.33214986
-1.1799083 -3.0662422 -0.33114508
-5.1045637 -13.029855 -1.5342033
-1.2980675 -3.2536793 -0.35559475
-1.2626867 -3.1093791 -0.33907169
-1.2555611 -3.0381992 -0.33136836
-5.4505191 -12.966619 -1.5422416
-1.316581 -3.0783005 -0.33817855
-1.3405958 -3.0820115 -0.33962989
-5.6111126 -12.689592 -1.5208062
-5.701499 -12.683022 -1.5242672
-5.7796259 -12.648704 -1.5243788
-5.8500133 -12.59768 -1.5224808
-5.9335618 -12.575029 -1.5241555
-1.3234048 -2.7599518 -0.3059139
-1.3568461 -2.7857313 -0.31015632
-1.3681868 -2.7657733 -0.30870494
-1.3699687 -2.7271323 -0.30490911
-6.3259859 -12.405692 -1.5265
-6.3869109 -12.33752 -1.5228158
-1.4578376 -2.7735889 -0.31406379
-1.4664114 -2.7488084 -0.31205422
-6.6200175 -12.230977 -1.5244905
-6.7408624 -12.273747 -1.5352081
-6.8499041 -12.292921 -1.5430231
-6.9232469 -12.247199 -1.5425766
-6.991838 -12.193281 -1.5411252
-4.95228 -8.5146904 -1.0686547
-7.1429615 -12.109986 -1.5415717
-7.2201929 -12.071047 -1.5422416
-7.2972155 -12.031616 -1.5429114
-7.3750668 -11.993386 -1.5438045
-7.4506207 -11.951282 -1.5442511
-5.1604004 -8.1653471 -1.0472193
-5.223269 -8.1536131 -1.0498987
-5.280776 -8.1330795 -1.0514617
-5.3513374 -8.1320696 -1.0557041
-5.6409593 -8.4587345 -1.1042686
-8.0045319 -11.845152 -1.5681427
-8.1045713 -11.835993 -1.573613
-8.17591 -11.784408 -1.5733898
-8.2492075 -11.735645 -1.573613
-8.3118372 -11.671857 -1.5718268
-8.3989954 -11.642397 -1.5748411
-8.5289049 -11.670877 -1.5860053
-1.7427231 -2.3537261 -0.29106545
-1.7708431 -2.3612759 -0.29363322
-8.6942043 -11.448597 -1.5770739
-8.7648935 -11.395823 -1.5771856
-1.7340113 -2.2255776 -0.27900809
-1.6547017 -2.0970814 -0.26215008
-1.6880054 -2.1125112 -0.26583427
-8.5463142 -10.564603 -1.4886532
-8.6374245 -10.544253 -1.4933422
-1.6352487 -1.9709384 -0.24975778
-1.6760705 -1.9951119 -0.25478169
-8.874465 -10.435717 -1.5010456
-1.6757888 -1.9457766 -0.25053927
-1.6929202 -1.9414502 -0.25143242
-0 -0 -0
-9.0981016 -10.181437 -1.4960216
-2.3863721 -2.6373246 -0.36162344
-1.7205918 -1.8780668 -0.24819478
-1.7070835 -1.8405118 -0.24406402
-2.5011642 -2.6639583 -0.37256441
-2.5249929 -2.6564853 -0.37379247
-9.5335159 -9.9091282 -1.506851
-9.5816574 -9.8376312 -1.5048413
-9.6446304 -9.7814846 -1.5052879
-3.2380986 -3.2436097 -0.47695002
-9.8239765 -9.7218103 -1.5147775
-3.2854755 -3.2112703 -0.47817808
-3.0649266 -2.9591086 -0.44066626
-3.2922769 -3.1398451 -0.47315419
-10.036458 -9.4559822 -1.511205
-10.082651 -9.3833895 -1.5094187
-3.1878343 -2.930079 -0.4484812
-3.5316648 -3.2064102 -0.49793878
-3.5468338 -3.1806989 -0.49726892
-3.5581012 -3.1516273 -0.49604085
-3.4420087 -3.0112901 -0.47583359
-3.4183164 -2.9537251 -0.46958163
-3.4114332 -2.9114046 -0.46589741
-10.607665 -8.9420471 -1.5206946
-3.4369755 -2.8610559 -0.46444607
-3.8981309 -3.2047164 -0.52897537
-3.9030638 -3.1688356 -0.52685416
-10.701426 -8.5808029 -1.5030551
-10.713364 -8.4828997 -1.4972497
-10.649351 -8.3264103 -1.4807266
-3.9434724 -3.0441592 -0.52171862
-10.764952 -8.2059441 -1.4827362
-10.829391 -8.1504936 -1.4847457
-10.871222 -8.0779648 -1.4836293
-10.920583 -8.0111084 -1.4836293
-10.980801 -7.9521108 -1.4851923
-11.091634 -7.9290857 -1.4937887
-11.207468 -7.9084358 -1.5030551
-11.281877 -7.8576946 -1.5066277
-11.41832 -7.8491225 -1.518685
-11.52383 -7.8179684 -1.5265
-11.735083 -7.8565807 -1.5486052
-11.885052 -7.8518066 -1.5623372
-11.87057 -7.7380309 -1.553964
-5.6978769 -3.664387 -0.72312146
-5.7202539 -3.6293566 -0.72312146
-3.1623774 -1.9791248 -0.38116086
-3.4036038 -2.1011736 -0.41141593
-12.2339 -7.4503827 -1.5712686
-3.4666152 -2.0817623 -0.41632822
-12.415037 -7.3533769 -1.5831027
-7.6150804 -4.44731 -0.95276982
-7.6508365 -4.4054604 -0.95388627
-7.7382169 -4.392777 -0.96170121
-7.8560791 -4.3961716 -0.97342366
-7.9838424 -4.403563 -0.9863742
-7.8055396 -4.2429523 -0.9601382
-7.8314271 -4.1949787 -0.9601382
-7.9598427 -4.2011218 -0.97320038
-7.9837074 -4.1512852 -0.9729771
-7.9418101 -4.0677867 -0.96449226
-7.9204845 -3.995703 -0.95868689
-7.6636281 -3.8072996 -0.92340785
-7.6886301 -3.7610781 -0.92363119
-8.2380056 -3.967392 -0.98927689
-8.2298679 -3.9014437 -0.98525774
-8.1608963 -3.8075914 -0.97375858
-8.2301636 -3.7785938 -0.97945237
-5.7889938 -2.6147954 -0.67567343
-5.7840424 -2.5699439 -0.67310566
-8.0907097 -3.5357237 -0.95399791
-8.3313723 -3.5801861 -0.98079205
-8.2955141 -3.5046315 -0.97375858
-8.6821251 -3.6053636 -1.0181923
-8.5209894 -3.4772961 -0.99597543
-8.4434738 -3.3853717 -0.98402971
-8.2634468 -3.2544694 -0.95980328
-8.210042 -3.1753819 -0.95098352
-8.4950666 -3.2258532 -0.98291326
-8.5230808 -3.1767917 -0.98391807
-8.5256138 -3.1182902 -0.9819085
-8.3706131 -3.0034862 -0.96114302
-8.5444908 -3.0068347 -0.97967565
-8.5674763 -2.9559708 -0.98023385
-8.5826283 -2.902391 -0.97989893
-7.7965846 -2.5833342 -0.88477963
-7.8378091 -2.5437305 -0.88779396
-8.7179394 -2.7704096 -0.98972344
-8.7499561 -2.7215884 -0.99150974
-8.7560339 -2.6646655 -0.99028164
-8.738883 -2.600966 -0.9863742
-8.7489529 -2.54563 -0.9857043
-8.7825689 -2.4970641 -0.98782551
-8.9537983 -2.4864771 -1.0060233
-8.797205 -2.3849394 -0.98603922
-8.8222408 -2.3337119 -0.98726732
-9.0557833 -2.3361421 -1.0127218
-9.0362167 -2.2720501 -1.0088143
-9.0760479 -2.2229462 -1.0118287
-9.0479517 -2.1573024 -1.007028
-9.145237 -2.1212835 -1.0167409
-9.0630798 -2.0437026 -1.0058
-9.3666658 -2.0518608 -1.0392927
-9.3372831 -1.98546 -1.034492
-9.3998995 -1.9385698 -1.0402974
-9.4457235 -1.8876741 -1.044205
-9.6551847 -1.8680074 -1.0668683
-10.116764 -1.8930055 -1.1183355
-10.377552 -1.8759824 -1.1468042
-10.801008 -1.8841833 -1.1938057
-11.382719 -1.9137887 -1.2587816
-12.0466 -1.9495019 -1.3330238
-13.221931 -2.0565729 -1.46532
-13.610734 -2.0316057 -1.5080791
-14.634225 -2.092695 -1.6228473
-15.30843 -2.0933552 -1.6978711
-15.86295 -2.0701256 -1.7592744
-17.014368 -2.1143224 -1.8882213
-17.337893 -2.0465875 -1.9233886
-17.390615 -1.9446945 -1.927966
-17.442739 -1.8422314 -1.9325433
-17.388449 -1.7286801 -1.925175
-17.391802 -1.6213082 -1.9243934
-17.413303 -1.5155979 -1.9257331
-17.419304 -1.408483 -1.9253982
-17.420681 -1.3010554 -1.9246167
-17.426353 -1.1940037 -1.9243934
-17.436327 -1.0872408 -1.9247284
-17.445646 -0.98040038 -1.9250633
-17.463243 -0.87393373 -1.9264029
-17.471256 -0.76689565 -1.9267379
-17.464708 -0.65926701 -1.9255098
-17.484318 -0.55259579 -1.9272962
-15.604154 1.1502075 -1.9162707
-15.5879 1.2452193 -1.9151552
-15.551296 1.3383719 -1.9115607
-15.515124 1.4312135 -1.9080901
-15.479388 1.5237589 -1.9047436
-15.463825 1.6180899 -1.9039999
-15.438812 1.7113028 -1.9021406
-15.435905 1.8069249 -1.9031322
-15.422559 1.9013609 -1.9028844
-15.385016 1.9926404 -1.8996617
-15.37545 2.0874043 -1.9000336
-15.362352 2.1817069 -1.9000336
-15.348677 2.2759275 -1.9000336
-15.318732 2.367636 -1.8980504
-15.313713 2.4631619 -1.8992898
-15.294396 2.5564241 -1.8987941
-15.258869 2.6468275 -1.8963151
-15.257967 2.7432148 -1.8982983
-15.23597 2.835876 -1.8976785
-15.21536 2.928746 -1.8973067
-15.181531 3.0189528 -1.8953235
-15.15203 3.1098528 -1.8939601
-15.109365 3.1978323 -1.8909854
-15.077825 3.2879436 -1.889498
-15.029289 3.3740921 -1.8859035
-15.010237 3.4666932 -1.8861514
-14.986752 3.5582705 -1.8859035
-14.918365 3.63887 -1.879954
-14.926558 3.738055 -1.8839203
-14.889886 3.8261139 -1.8821851
-14.835424 3.9093111 -1.8782188
-14.816905 4.0018187 -1.8789624
-14.772945 4.0873647 -1.8764834
-14.766682 4.1833434 -1.8789624
-14.734063 4.2719369 -1.8780948
-14.700915 4.3602872 -1.8772272
-14.656792 4.4452229 -1.8749961
-14.627345 4.5344839 -1.8747482
-14.601139 4.6247497 -1.8749961
-14.573431 4.7145591 -1.87512
-14.525385 4.7976656 -1.8726411
-14.499434 4.8879695 -1.8731369
-14.461663 4.9742618 -1.8721453
-14.414952 5.0573173 -1.8700382
-14.381781 5.1450019 -1.8697903
-14.350873 5.2334905 -1.8699142
-14.317561 5.3211012 -1.8697903
-14.292994 5.412015 -1.8709058
-14.25674 5.4985418 -1.8705339
-14.229198 5.5884557 -1.8714015
-14.186348 5.6723433 -1.8702861
-14.164143 5.7645197 -1.8720213
-14.147758 5.8592958 -1.8746243
-14.138971 5.9575553 -1.8783426
-14.12495 6.0539727 -1.8814414
-14.111188 6.1508384 -1.8846641
-14.094953 6.2469587 -1.8876388
-14.07264 6.3406644 -1.8898698
-14.047003 6.4330916 -1.891729
-14.023458 6.5266991 -1.8939601
-14.010057 6.625351 -1.8976785
-14.000445 6.7262325 -1.9020168
-13.993688 6.8289857 -1.9068507
-13.962191 6.9200096 -1.9083381
-13.932762 7.0122423 -1.9101973
-13.894775 7.1003094 -1.910941
-13.862397 7.1913738 -1.9125522
-13.824157 7.2795334 -1.91342
-13.82211 7.3871408 -1.9194933
-13.801818 7.4855337 -1.9230878
-13.773884 7.5801272 -1.9256908
-13.73751 7.6703053 -1.9271781
-13.704865 7.7627678 -1.9292853
-13.662137 7.8496795 -1.9300289
-13.629147 7.9423552 -1.93226
-13.60322 8.0394659 -1.9356066
-13.579168 8.1380863 -1.939325
-13.577312 8.2506294 -1.94639
-13.561067 8.3551264 -1.9514719
-13.527219 8.4492188 -1.9540749
-13.478474 8.5341845 -1.9545707
-13.462598 8.6403112 -1.9600244
-13.427627 8.7346582 -1.9627512
-13.385377 8.8245316 -1.9644865
-13.343354 8.9147663 -1.9663457
-13.304014 9.0070429 -1.9687006
-13.250134 9.0896282 -1.9689486
-13.232406 9.1973791 -1.9747741
-13.204117 9.2983961 -1.9791123
-13.158931 9.387886 -1.9809715
-13.11073 9.4754267 -1.9824588
-13.057147 9.5592108 -1.9832026
-13.008608 9.6468325 -1.9848139
-12.960279 9.7348146 -1.9865491
-12.90662 9.8189611 -1.9875407
-12.857919 9.9070549 -1.9893999
-12.792194 9.9821005 -1.9886563
-12.761845 10.085015 -1.9936142
-12.743107 10.197854 -2.0005553
-12.692629 10.28585 -2.0025384
-12.656123 10.38557 -2.0068767
-12.611239 10.478886 -2.0099752
-12.564926 10.571403 -2.0129499
-12.511155 10.657953 -2.0148094
-12.459799 10.746835 -2.0171642
-12.402592 10.830917 -2.0186517
-12.347052 10.916675 -2.0205109
-12.290185 11.001495 -2.0222461
-12.23936 11.092026 -2.0250969
-12.184231 11.178993 -2.027328
-12.126313 11.263674 -2.0291872
-12.071429 11.351464 -2.0316663
-12.002988 11.426687 -2.031914
-11.95051 11.517337 -2.0350127
-11.898081 11.608465 -2.0382354
-11.849218 11.703568 -2.0422018
-11.798233 11.797103 -2.0459201
-11.738874 11.882687 -2.0482752
-11.67683 11.965855 -2.0502584
-11.607321 12.041564 -2.051002
-11.539374 12.119026 -2.0521176
-11.468195 12.193217 -2.0527372
-11.39654 12.266991 -2.0533571
-11.325752 12.341805 -2.0542247
-11.265804 12.428713 -2.0571995
-11.201244 12.510912 -2.0594306
-11.13347 12.589813 -2.0611658
-11.06776 12.671343 -2.0633969
-11.000819 12.751788 -2.0655038
-10.924299 12.821314 -2.0658758
-10.851173 12.894937 -2.0669913
-10.772481 12.962039 -2.0671153
-10.704705 13.042467 -2.0694702
-10.638221 13.124865 -2.0721972
-10.505406 13.124815 -2.0617855
-10.400065 13.157887 -2.0568275
-10.2996 13.196421 -2.0528612
-10.208743 13.246793 -2.050878
-10.114654 13.2926 -2.0482752
-10.016213 13.332196 -2.0448046
-9.8993464 13.346379 -2.0374918
-9.8360262 13.432489 -2.0414581
-9.750514 13.488568 -2.0408382
-9.6543112 13.529564 -2.0379875
-9.5825405 13.604773 -2.0404665
-9.4932194 13.655167 -2.039227
-9.4182358 13.726251 -2.0412102
-9.3510818 13.809253 -2.0450525
-9.2507381 13.843268 -2.0415821
-9.1579762 13.888171 -2.0398467
-9.0525675 13.913326 -2.0352607
-8.9573784 13.953579 -2.0330296
-8.85779 13.98648 -2.0298069
-8.7712784 14.039725 -2.0296831
-8.6860085 14.094971 -2.0299308
-8.5998745 14.148849 -2.0300548
-8.5113668 14.198797 -2.0296831
-8.4119673 14.230253 -2.0267084
-8.3095045 14.25588 -2.0229897
-8.2114935 14.28853 -2.0203869
-8.128068 14.346417 -2.0215025
-8.0427895 14.401218 -2.0222461
-7.9356146 14.416393 -2.0174122
-7.8370728 14.446496 -2.0148094
-7.7431383 14.484685 -2.0134459
-7.64117 14.50734 -2.0099752
-7.5410433 14.532813 -2.0070004
-7.4458594 14.567324 -2.0053892
-7.3496442 14.599442 -2.00353
-7.2546372 14.633595 -2.0020425
-7.149478 14.646621 -1.9977045
-7.0659194 14.703629 -1.9995637
-6.981082 14.75837 -2.0011749
-6.8774142 14.773039 -1.9973326
-6.7845731 14.81045 -1.9967129
-6.6956086 14.856323 -1.9973326
-6.6079445 14.905292 -1.9984481
-6.5167594 14.946466 -1.9985721
-6.414763 14.962458 -1.9953494
-6.3189807 14.992393 -1.99411
-6.2257314 15.028132 -1.9937382
-6.1363955 15.073402 -1.9947298
-6.050055 15.126434 -1.9968368
-5.9600291 15.170661 -1.9978284
-5.8675456 15.208797 -1.9980763
-5.7713046 15.237089 -1.9970847
-5.6749372 15.264773 -1.9960932
-5.5777674 15.289985 -1.9948536
-5.4848475 15.326724 -1.9952255
-5.3972721 15.378817 -1.9977045
-5.3011942 15.406953 -1.9970847
-5.2068758 15.44013 -1.9972087
-5.1126614 15.473673 -1.9974566
-5.0173149 15.503808 -1.9973326
-4.9184952 15.52295 -1.9958452
-4.8146338 15.525352 -1.9922508
-4.713521 15.53561 -1.9897718
-4.6138749 15.54997 -1.9879125
-4.5106373 15.551302 -1.984442
-4.4202709 15.596826 -1.9867971
-4.3199887 15.607396 -1.98469
-4.2197433 15.617324 -1.9825828
-4.1263661 15.652517 -1.9838223
-4.0290117 15.672736 -1.9832026
-3.9337339 15.701014 -1.9836984
-3.8368499 15.722926 -1.9834504
-3.4922495 14.701565 -1.8493389
-3.3946068 14.69081 -1.8452486
-3.2857063 14.628098 -1.8345891
-3.1576164 14.472505 -1.8121545
-3.0371094 14.342108 -1.7930665
-2.9275012 14.255495 -1.7796801
-2.841331 14.280002 -1.7805479
-2.7493424 14.274755 -1.777697
-2.6351879 14.14893 -1.7596006
-2.5263698 14.042754 -1.7441071
-2.4338815 14.021817 -1.739521
-2.3244016 13.896532 -1.7217965
-2.2575309 14.025157 -1.7362984
-2.1852272 14.127983 -1.7475777
-2.1210628 14.293266 -1.7667896
-1.9518226 13.732274 -1.694404
-1.8585804 13.678113 -1.6860995
-1.7721958 13.670563 -1.6837445
-1.6927749 13.717618 -1.6883307
-1.6096119 13.736616 -1.6894461
-1.5410419 13.888253 -1.7072946
-1.4528005 13.868828 -1.7037002
-1.3681618 13.882419 -1.7043198
-1.2941701 14.012087 -1.7195655
-1.2934536 15.010373 -1.8437612
-1.1986398 14.984396 -1.839547
-1.1071855 14.998396 -1.8404146
-1.0157382 15.013818 -1.8415302
-0.92377859 15.022738 -1.841902
-0.8312549 15.02218 -1.8411583
-0.71210301 14.477931 -1.7724912
-0.62329727 14.483019 -1.7726152
-0.55340034 15.002212 -1.8370681
-0.45501143 14.799026 -1.8112869
-0.36641181 14.89181 -1.8225662
-0.27495751 14.88981 -1.8220704
-0.18338352 14.874349 -1.8199632
-0.091936842 14.846418 -1.8163687
-0.00083848619 14.879449 -1.820459
0.085449733 14.065513 -1.7188218
0.18207246 14.904136 -1.8236817
0.27452484 14.957305 -1.8304988
0.36629596 14.955338 -1.8304988
0.45823607 14.958761 -1.8312424
0.55008578 14.957651 -1.8314904
0.6410439 14.935158 -1.8291354
0.73125958 14.902202 -1.8255409
0.77534443 14.041405 -1.71845
0.85418189 13.917533 -1.7035762
0.93735301 13.879358 -1.6994859
1.0562322 14.33054 -1.7567499
1.1579045 14.495898 -1.7783167
1.1976069 13.917094 -1.7066749
1.2893636 13.978649 -1.7153512
1.3720949 13.939862 -1.7115089
1.4598759 13.952892 -1.7142357
1.5527912 14.00975 -1.7225403
1.6354917 13.972363 -1.7190697
1.7169417 13.927596 -1.7147315
1.7943332 13.854803 -1.7069228
1.8841193 13.87893 -1.7113849
1.979992 13.942755 -1.7209289
2.0650692 13.927399 -1.7205571
2.1486673 13.902698 -1.7190697
2.2492249 13.984282 -1.7310926
2.3258233 13.91541 -1.7241515
2.4131989 13.912609 -1.7256389
2.5174909 14.003015 -1.7390252
2.5917389 13.92487 -1.7310926
2.6696262 13.869731 -1.7261347
2.7757821 13.959169 -1.739645
2.8629785 13.949651 -1.7406366
2.9415298 13.898815 -1.7364224
3.0284479 13.888261 -1.737414
3.1336114 13.958489 -1.7488172
3.2185299 13.936098 -1.7484453
3.348922 14.105312 -1.7727391
3.461987 14.193431 -1.7867452
3.5721593 14.264326 -1.7986442
3.6702385 14.283464 -1.8039739
3.7530057 14.242444 -1.8016189
3.8501596 14.25555 -1.806329
3.9269705 14.193404 -1.8013711
4.0064106 14.14231 -1.7979006
4.1088648 14.171782 -1.8049655
4.1909461 14.130133 -1.8028585
4.282465 14.120294 -1.8049655
4.3537431 14.044467 -1.7985202
4.435041 14.002354 -1.796537
4.5413427 14.038131 -1.8048416
4.6392221 14.045805 -1.8095516
4.7215137 14.005792 -1.8080642
4.8109136 13.986879 -1.8094276
4.9314737 14.056345 -1.8225662
5.0002446 13.97724 -1.8161209
5.0757122 13.918329 -1.8124024
5.1706991 13.912966 -1.8158729
5.2686224 13.914384 -1.820335
5.363543 13.906791 -1.8236817
5.4741697 13.93827 -1.832358
5.5735922 13.939429 -1.8370681
5.668745 13.928864 -1.8402907
5.763598 13.916737 -1.8433894
5.8569736 13.900312 -1.8459923
5.9609208 13.90789 -1.8519418
6.0675602 13.920172 -1.8586349
6.1705527 13.922594 -1.8640887
6.2774715 13.932418 -1.8706579
6.374825 13.9198 -1.8742524
6.4877539 13.939795 -1.8824329
6.6088042 13.975074 -1.8928446
6.7000165 13.945888 -1.8944559
6.7985182 13.931266 -1.8981743
6.9006181 13.923073 -1.9028844
7.0113497 13.93099 -1.9099494
7.1179218 13.929235 -1.9157749
7.2311335 13.939026 -1.9233358
7.3442698 13.947072 -1.9307727
7.4563723 13.951627 -1.9378376
7.5706992 13.958818 -1.9453984
7.6830015 13.960784 -1.9523395
7.7941604 13.959295 -1.9589088
7.9055896 13.956967 -1.9654781
8.0113497 13.943471 -1.9705598
8.1247358 13.94206 -1.9775009
8.2439604 13.949178 -1.9858055
8.3651066 13.957909 -1.9944818
8.4866686 13.965675 -2.0031581
8.6023941 13.962337 -2.0103471
8.728385 13.974092 -2.019891
8.8511257 13.978955 -2.0285676
8.9699659 13.976155 -2.0362523
9.1010094 13.990721 -2.0466638
9.2342052 14.006686 -2.0574474
9.3447838 13.98689 -2.063025
9.4426699 13.947365 -2.0657518
9.5617542 13.938256 -2.0731888
9.6606913 13.898878 -2.0761635
9.6743679 13.737931 -2.0606699
9.7112198 13.612076 -2.0505064
9.781189 13.533736 -2.0476553
9.8581839 13.46546 -2.046416
9.9264345 13.38559 -2.0434413
9.9910955 13.301422 -2.0398467
10.053897 13.215387 -2.0360043
10.119048 13.133014 -2.0327816
10.181735 13.047992 -2.0291872
10.245607 12.965032 -2.0259645
10.309464 12.882554 -2.0228658
10.370197 12.796698 -2.0192714
10.431524 12.712117 -2.0159247
10.488399 12.622686 -2.0118346
10.534986 12.521649 -2.0058851
10.594888 12.437134 -2.0026624
10.661927 12.361372 -2.0009272
10.727783 12.284508 -1.9990679
10.793755 12.208046 -1.9973326
10.863826 12.136412 -1.996465
10.920762 12.050408 -1.9932424
10.971686 11.958315 -1.9890281
11.029321 11.874047 -1.9861773
11.084976 11.788078 -1.9830786
11.142729 11.704749 -1.9804757
11.199876 11.621155 -1.9778728
11.248102 11.528779 -1.9737825
11.301893 11.442602 -1.9708078
11.355753 11.356902 -1.967957
11.419576 11.281432 -1.9669654
11.470827 11.193826 -1.9638667
11.527149 11.111526 -1.9617596
11.582893 11.028955 -1.9596524
11.639505 10.94748 -1.9577932
11.686829 10.857621 -1.9544467
11.737876 10.77162 -1.9518437
11.775808 10.674072 -1.9471338
11.813726 10.577128 -1.9425477
11.852386 10.481437 -1.9382095
11.898539 10.392849 -1.9352348
11.943299 10.303442 -1.9321361
12.009316 10.23254 -1.9326319
12.068839 10.156104 -1.9321361
12.113376 10.067274 -1.9292853
12.161112 9.9814272 -1.9270542
12.208251 9.8953743 -1.9248232
12.249371 9.8047791 -1.9217244
12.289838 9.7140522 -1.9186257
12.329654 9.6231985 -1.915527
12.361744 9.5267715 -1.9113128
12.392326 9.4297132 -1.9069747
12.419804 9.3308516 -1.9022646
12.459289 9.2414646 -1.8995378
12.496544 9.150774 -1.8965631
12.536372 9.0622988 -1.8940841
12.578009 8.9754095 -1.891977
12.624731 8.8923492 -1.8907374
12.668464 8.8073559 -1.8891262
12.705083 8.7176695 -1.8865232
12.745188 8.6306467 -1.8845401
12.762426 8.5285769 -1.8792104
12.783036 8.4293518 -1.8745003
12.818713 8.340477 -1.8721453
12.847101 8.2471943 -1.8687987
12.87902 8.1565323 -1.8660718
12.913676 8.0678921 -1.8638408
12.959558 7.9864211 -1.863345
12.994749 7.8985071 -1.8613619
13.025096 7.8079114 -1.8587589
13.043715 7.7106781 -1.8545446
13.085637 7.6275001 -1.853801
13.121007 7.540638 -1.8521897
13.143717 7.4467816 -1.8488431
13.171835 7.356318 -1.8463641
13.19673 7.2643542 -1.8435134
13.229715 7.1770935 -1.841902
13.258627 7.087831 -1.8397949
13.293088 7.0017204 -1.8385555
13.311137 6.9072285 -1.8350849
13.356803 6.827229 -1.8355807
13.399328 6.7455912 -1.8357046
13.42802 6.6570778 -1.8339694
13.448996 6.5649848 -1.8312424
13.482763 6.479332 -1.8303748
13.511501 6.3913903 -1.8288875
13.53697 6.302084 -1.8270283
13.593428 6.2271681 -1.8295072
13.629571 6.142828 -1.8292593
13.687871 6.0683308 -1.8321102
13.731215 5.9870052 -1.8329778
13.764956 5.9014664 -1.832606
13.808224 5.8199778 -1.8335975
13.826256 5.7279282 -1.8312424
13.879522 5.6504655 -1.8337214
13.929595 5.5714593 -1.8358285
13.969984 5.4884233 -1.8366961
14.004323 5.4029593 -1.8368201
14.028859 5.313766 -1.8357046
14.074222 5.2324262 -1.8374399
14.106062 5.1459699 -1.8374399
14.142043 5.0609913 -1.8380597
14.177512 4.9757648 -1.8386793
14.209653 4.8893251 -1.8389273
14.238445 4.8017273 -1.8388033
14.271409 4.7155161 -1.8392991
14.302907 4.6287761 -1.8396709
14.330093 4.5406284 -1.839547
14.381378 4.4599614 -1.8426456
14.41702 4.374227 -1.8437612
14.437881 4.2839904 -1.8430176
14.461036 4.1944914 -1.8426456
14.47027 4.1010828 -1.8405386
14.512376 4.0169811 -1.8427696
14.54154 3.9291532 -1.8433894
14.571133 3.8413713 -1.844133
14.595389 3.7521391 -1.844257
14.618137 3.6625128 -1.844257
14.627803 3.5696914 -1.8426456
14.658119 3.4819331 -1.8437612
14.678242 3.3917036 -1.8436372
14.708458 3.3037498 -1.8448768
14.723605 3.2123809 -1.844257
14.759542 3.1254714 -1.8463641
14.759001 3.030859 -1.8438852
14.782187 2.9412103 -1.844505
14.805801 2.8515787 -1.8452486
14.838628 2.7635841 -1.8472317
14.870932 2.6752939 -1.8492149
14.897821 2.5858629 -1.8505783
14.917323 2.4950576 -1.8510741
14.941169 2.4048979 -1.8521897
14.967411 2.3149946 -1.853677
14.98526 2.223695 -1.8541728
15.00157 2.1321239 -1.8545446
7.0794258 0.96251774 -0.85428548
6.4750781 0.84001988 -0.77743781
6.4722319 0.79930222 -0.77644622
6.4277363 0.75380427 -0.77024883
6.4263234 0.71369416 -0.76950514
6.4059091 0.6716671 -0.76640642
6.3990469 0.63127887 -0.76504302
6.4028001 0.59200323 -0.76504302
6.4003801 0.55219454 -0.76429933
6.4036479 0.51291215 -0.76429933
6.4304252 0.47536185 -0.76727408
6.3946095 0.43328738 -0.76244009
6.3941765 0.39386016 -0.76206827
6.4202514 0.35593277 -0.76504302
6.374742 0.31419608 -0.75909352
6.384481 0.27541617 -0.76008511
6.3810925 0.23605405 -0.75946534
6.3824205 0.19689596 -0.75946534
6.3835087 0.15773045 -0.75946534
6.3724508 0.11834009 -0.75797796
6.3800025 0.079322323 -0.75884563
6.3783846 0.040161736 -0.75859773
6.3864493 0.0010237747 -0.75958931
6.3853431 -0.038156651 -0.75946534
6.403841 -0.077567436 -0.76182038
6.4072127 -0.11693235 -0.76231617
6.4212546 -0.15660967 -0.76417536
6.4300909 -0.1963114 -0.76541483
6.4495893 -0.23652944 -0.76801777
6.4549561 -0.27639732 -0.76888537
6.4640408 -0.31653482 -0.77024883
6.4748569 -0.35690376 -0.77186012
6.4784875 -0.39699122 -0.77260381
6.4858303 -0.43740445 -0.77384329
6.5443792 -0.4817197 -0.78152806
13.578973 -1.0845884 -1.6634171
13.53054 -1.1643105 -1.6582112
13.468797 -1.2422931 -1.6513941
13.331557 -1.3121687 -1.635157
13.261081 -1.3874345 -1.6273483
13.201034 -1.4630883 -1.620903
10.594882 -1.239868 -1.2943003
10.587074 -1.3048537 -1.2943003
10.577885 -1.3696626 -1.2941765
10.572231 -1.4349422 -1.2945483
10.575017 -1.5014603 -1.2960356
10.580328 -1.5685035 -1.2978948
12.956387 -2.0023346 -1.59946
12.923283 -2.078485 -1.5968571
12.887776 -2.1539774 -1.5940063
12.846942 -2.2282641 -1.5905358
12.833028 -2.3070495 -1.5905358
12.822533 -2.3864746 -1.5910316
12.813495 -2.4662333 -1.5917752
12.814665 -2.5481002 -1.5938823
12.810453 -2.6290765 -1.5953697
12.807672 -2.7105079 -1.597105
12.797585 -2.7905238 -1.5979726
12.758923 -2.864212 -1.5952457
12.759477 -2.9466894 -1.5976008
12.767223 -3.0311158 -1.6009474
8.2522545 -2.0123453 -1.0228546
12.794518 -3.2039576 -1.6093758
12.816904 -3.2932723 -1.6148295
12.836756 -3.3824761 -1.6200353
7.5968785 -2.0512133 -0.94476742
12.649874 -3.4997818 -1.6013192
12.613841 -3.573276 -1.59946
12.441101 -3.6069357 -1.5798762
8.0284653 -2.3806899 -1.0078568
7.9681277 -2.4160795 -1.0019073
7.9408321 -2.4611051 -1.000296
7.9331493 -2.5121803 -1.0012876
8.4632702 -2.7373867 -1.0729295
12.523211 -4.136188 -1.6092519
12.496655 -4.2126341 -1.6091279
12.453683 -4.283422 -1.6068969
12.385032 -4.3449702 -1.6013192
7.7082458 -2.7570088 -0.98443073
12.300949 -4.485745 -1.5973529
12.261103 -4.556643 -1.5957415
12.205073 -4.6212463 -1.5920231
12.168157 -4.6928339 -1.5909076
12.134515 -4.765594 -1.5902878
12.082011 -4.8307486 -1.5871892
12.049386 -4.9036689 -1.5868173
12.011737 -4.9744725 -1.5858257
11.961785 -5.0399885 -1.5832229
11.910571 -5.1046886 -1.580496
11.851737 -5.1657772 -1.5767776
11.808931 -5.2335753 -1.5752902
11.766645 -5.3014503 -1.5739267
11.715852 -5.3652849 -1.5714477
11.662919 -5.4278579 -1.5687209
11.609661 -5.489984 -1.565994
11.554291 -5.5508018 -1.5630193
11.495937 -5.6098409 -1.5596727
11.439074 -5.6692553 -1.556574
11.388119 -5.7313066 -1.554343
11.352737 -5.801075 -1.554343
11.309883 -5.8669686 -1.5533514
11.249966 -5.9237695 -1.5500048
11.193279 -5.9819274 -1.5471539
11.139791 -6.0415058 -1.544799
11.094688 -6.1054382 -1.5436834
11.04922 -6.1690445 -1.542568
11.005116 -6.2333016 -1.5417002
10.970103 -6.3026881 -1.542196
10.900361 -6.3518925 -1.5377339
10.859473 -6.4176464 -1.5374861
10.769676 -6.4540586 -1.5301732
10.720544 -6.5143495 -1.5288097
10.6677 -6.5721984 -1.5269505
10.606133 -6.6243873 -1.5238518
10.556066 -6.6835008 -1.5224884
10.564126 -6.7797709 -1.5298012
10.508187 -6.8352642 -1.5276942
10.450309 -6.8892345 -1.5253391
10.389689 -6.9410977 -1.5226123
10.332936 -6.9952593 -1.5205052
10.284092 -7.0545993 -1.5196376
10.234909 -7.1136036 -1.51877
10.181334 -7.1694136 -1.5172826
10.123419 -7.221952 -1.5151755
10.070873 -7.2781191 -1.5139359
10.014017 -7.3309827 -1.5120767
9.9385605 -7.3698268 -1.5073668
9.8709393 -7.4139819 -1.5038962
9.8252621 -7.4744091 -1.5038962
9.7800007 -7.535161 -1.5040201
9.7359285 -7.5968595 -1.504392
9.6883535 -7.6558399 -1.5042681
9.6303492 -7.7064614 -1.5025327
9.577486 -7.7610335 -1.5016651
9.5258503 -7.8165059 -1.5010453
9.4708414 -7.8691006 -1.4999299
9.4003601 -7.9085369 -1.4963354
9.347126 -7.9622064 -1.4955916
9.2943382 -8.0161686 -1.494972
9.244977 -8.0730467 -1.494972
9.1870909 -8.1223898 -1.4936085
9.1245117 -8.1673565 -1.4915015
9.0639324 -8.2138596 -1.4897661
9.0053205 -8.261941 -1.4884027
8.9406433 -8.3042088 -1.4860477
8.8873529 -8.3568716 -1.4856758
8.8272858 -8.4030352 -1.4841884
8.7784166 -8.459795 -1.4846842
8.7298946 -8.516964 -1.485304
8.6795883 -8.5724611 -1.4856758
8.6219139 -8.6206455 -1.4848082
8.5632782 -8.6677389 -1.4838166
8.5050812 -8.715147 -1.482949
8.4452486 -8.7607393 -1.4818335
6.9880252 -7.3383861 -1.2276164
8.3187513 -8.8441982 -1.4784869
8.2548733 -8.8848963 -1.4767516
8.1874542 -8.9214878 -1.4743966
8.1345577 -8.9737635 -1.4747684
8.0852995 -9.0301609 -1.475884
6.7151561 -7.5928535 -1.2279882
6.6651773 -7.630177 -1.2273685
2.1351905 -2.4736075 -0.37002116
2.1231899 -2.4904389 -0.3706409
2.1104243 -2.5064569 -0.3711367
2.0899317 -2.5132535 -0.37014511
7.6202307 -9.2838573 -1.4621258
7.5899873 -9.3635883 -1.4674555
2.0302966 -2.5350273 -0.36754221
2.0097816 -2.541209 -0.36655062
1.9837731 -2.540194 -0.36444351
1.9548249 -2.5350263 -0.36171666
1.9224105 -2.5248611 -0.35824612
