# .PCD v0.7 - Point Cloud Data file format
VERSION 0.7
FIELDS x y z
SIZE 4 4 4
TYPE F F F
COUNT 1 1 1
WIDTH 1530
HEIGHT 1
VIEWPOINT 0 0 0 1 0 0 0
POINTS 1530
DATA ascii
-0.53820294 6.1991105 -1.8850926
-0.50100112 6.21277 -1.8883454
-0.46294183 6.21668 -1.8886411
-0.42452765 6.215591 -1.8874582
-0.38602567 6.2123585 -1.885684
-0.34747246 6.2069798 -1.8833183
-0.30990422 6.2194901 -1.886571
-0.27060914 6.1955066 -1.878587
-0.2334505 6.2199607 -1.885684
-0.1948607 6.2079091 -1.8815441
-0.15645176 6.1965733 -1.8776999
-0.11837243 6.194551 -1.8768127
-0.080697358 6.2209511 -1.8847969
-0.042353433 6.1964927 -1.8771085
-0.0043375087 6.204278 -1.8794742
0.033746704 6.2070537 -1.8803612
0.072249576 6.2430277 -1.8915981
0.11025134 6.2252746 -1.8862754
0.14878756 6.2388062 -1.8907111
0.18646529 6.2177238 -1.8845011
0.2232013 6.1773219 -1.8723772
0.25989175 6.147203 -1.8635058
0.29843599 6.1626678 -1.8688287
0.3355678 6.1483202 -1.8649844
0.37346044 6.1490059 -1.8658715
0.41169259 6.1542239 -1.8682373
0.44944644 6.1515822 -1.8682373
0.48748496 6.1525178 -1.8694201
0.52514571 6.148459 -1.8691243
0.5630362 6.1470237 -1.8697157
0.59999973 6.1358471 -1.8673501
0.63625497 6.1187477 -1.8632102
0.67692393 6.1432147 -1.8720814
0.71747547 6.1636167 -1.8797698
0.75074887 6.1221189 -1.8682373
0.79257035 6.150558 -1.878587
0.8236469 6.0963516 -1.8632102
0.86772019 6.1384768 -1.8779956
0.90620553 6.1387076 -1.8797698
0.94182146 6.119813 -1.8756299
0.98131764 6.1261816 -1.8794742
1.0199865 6.1266413 -1.8815441
1.0606489 6.1381526 -1.8871626
1.0974501 6.1268277 -1.885684
1.1348488 6.1190391 -1.8853883
1.1689552 6.0941353 -1.8797698
1.2040982 6.075603 -1.8762213
1.2411634 6.0671644 -1.8759257
1.2799445 6.0669122 -1.8782912
1.3153205 6.0505433 -1.8756299
1.3524212 6.0423589 -1.8756299
1.3886137 6.0302229 -1.8744471
1.4258083 6.0225186 -1.8747427
1.4618322 6.0099435 -1.87356
1.5000694 6.006422 -1.8753341
1.5376071 5.9998808 -1.8762213
1.5736644 5.9875617 -1.8753341
1.6096286 5.9750257 -1.8744471
1.6449898 5.9604325 -1.8729686
1.681012 5.9483881 -1.8723772
1.7185404 5.9416323 -1.87356
1.7555072 5.9328079 -1.8741513
1.7880048 5.9091234 -1.8700114
1.8256398 5.9026046 -1.87149
1.8603841 5.8867369 -1.8700114
1.8908951 5.8579383 -1.864393
1.9369678 5.8770733 -1.8744471
1.9711653 5.8596454 -1.8726728
2.0070822 5.8474398 -1.8726728
2.0457642 5.8431296 -1.8753341
2.0815785 5.8304667 -1.8753341
2.1199276 5.8247662 -1.8776999
2.1559598 5.8125448 -1.8779956
2.1932726 5.8036747 -1.8794742
2.2302144 5.793674 -1.880657
2.2646761 5.7772121 -1.8797698
2.2951252 5.7507863 -1.8756299
2.3321655 5.7410207 -1.8771085
2.3684425 5.7292509 -1.8779956
2.4035521 5.7146106 -1.8779956
2.4329355 5.6865807 -1.87356
2.4643521 5.663662 -1.8708986
2.5025353 5.6562967 -1.87356
2.5418963 5.6512899 -1.8771085
2.576524 5.6355867 -1.8771085
2.6122622 5.6222706 -1.8779956
2.6495652 5.6121831 -1.8800656
2.6831248 5.5940971 -1.8794742
2.7153072 5.5732346 -1.8779956
2.7503002 5.5581813 -1.878587
2.7822084 5.5369334 -1.8771085
2.8226414 5.5325222 -1.8815441
2.8508244 5.5040708 -1.8776999
2.8849874 5.4873204 -1.8779956
2.9159048 5.4644585 -1.8762213
2.949379 5.4464636 -1.8762213
2.9832025 5.4291015 -1.8765171
3.0159934 5.4098601 -1.8762213
3.0543034 5.4003997 -1.8794742
3.0907092 5.3873572 -1.8815441
3.1213055 5.3641634 -1.8800656
3.1565878 5.3490238 -1.8815441
3.1883683 5.3279152 -1.8809526
3.2190177 5.3049846 -1.8797698
3.249506 5.2818785 -1.878587
3.2783153 5.2561665 -1.8765171
3.3079526 5.231915 -1.8750385
3.3374157 5.2074976 -1.87356
3.3693056 5.1869216 -1.87356
3.4021189 5.1677461 -1.8741513
3.4369442 5.1515422 -1.8759257
3.4754436 5.140645 -1.8797698
3.5069206 5.1192231 -1.8797698
3.5388103 5.0983934 -1.8800656
3.5744224 5.0828357 -1.8824311
3.6022174 5.056139 -1.880657
3.6382046 5.0409131 -1.8833183
3.6679389 5.016952 -1.8827269
3.7014956 4.9981904 -1.8842055
3.7298017 4.9723272 -1.8830227
3.764286 4.9546728 -1.8850926
3.7934515 4.9299679 -1.8845011
3.8230426 4.9058456 -1.8842055
3.8518889 4.8807955 -1.8836141
3.8656631 4.8369193 -1.8756299
3.9036818 4.8235059 -1.8797698
3.9325993 4.7987232 -1.8794742
3.9662397 4.7796493 -1.8815441
3.9844317 4.7420573 -1.8762213
4.0066447 4.709516 -1.8729686
4.0473113 4.698596 -1.878587
4.0798321 4.6779933 -1.8803612
4.1154137 4.6607494 -1.8836141
4.1394777 4.6304245 -1.8815441
4.148582 4.5836887 -1.8726728
4.1998601 4.5835042 -1.8833183
4.2240071 4.5534458 -1.8815441
4.2394428 4.5142107 -1.8759257
4.2703524 4.4915748 -1.8774042
4.3071055 4.4749241 -1.8815441
4.3378153 4.4518328 -1.8830227
4.3717575 4.4319344 -1.8859797
4.3907695 4.396914 -1.8824311
4.4210615 4.3732495 -1.8839097
4.4437127 4.3420339 -1.8821355
4.4826427 4.3266282 -1.8874582
4.4987354 4.2891536 -1.8830227
4.5291409 4.265399 -1.8847969
4.5636206 4.2453365 -1.8883454
4.5839562 4.2120838 -1.8859797
4.6033492 4.1780992 -1.8833183
4.6417012 4.1612539 -1.8886411
4.6521287 4.1193943 -1.8824311
4.6765981 4.0901432 -1.8821355
4.7160645 4.0738611 -1.8880496
4.7307987 4.0361662 -1.8839097
4.7430568 3.9965975 -1.8788826
4.7807064 3.9784193 -1.8842055
4.8065038 3.9502237 -1.8847969
4.838068 3.9266777 -1.887754
4.8583441 3.8939307 -1.8862754
4.879149 3.8616755 -1.8850926
4.9140415 3.8404891 -1.8895282
4.946589 3.8172688 -1.8930767
4.9653592 3.7833712 -1.8913025
5.012907 3.7712121 -1.9007651
5.0244493 3.7318377 -1.8963295
5.0364685 3.6930289 -1.8921895
5.0683188 3.6687787 -1.895738
5.076745 3.6276131 -1.8904153
5.1012497 3.5980465 -1.8913025
5.1193113 3.5639489 -1.8898239
5.1410828 3.5324702 -1.8898239
5.1713576 3.5067568 -1.8930767
5.2030978 3.4818671 -1.8969209
5.2219729 3.4482968 -1.8960338
5.2590394 3.4266212 -1.901948
5.2823763 3.3958378 -1.902835
5.3079538 3.366432 -1.9046093
5.3163629 3.3261986 -1.9001737
5.3415489 3.296526 -1.901948
5.3559642 3.2602115 -1.899878
5.3766866 3.2277784 -1.9001737
5.3889923 3.1903465 -1.8975123
5.4084668 3.1572201 -1.8975123
5.4335327 3.127311 -1.8995823
5.4542809 3.0948558 -1.9001737
5.4706664 3.0599315 -1.8992865
5.4893389 3.0263064 -1.8992865
5.5145197 2.9962165 -1.9016522
5.526063 2.9587159 -1.8992865
5.5517173 2.9287651 -1.901948
5.578907 2.8994915 -1.9052007
5.5948925 2.8643348 -1.9046093
5.6021271 2.8247893 -1.9010608
5.5962539 2.7788897 -1.8930767
5.6295042 2.7524726 -1.8986951
5.6540337 2.7216084 -1.9013565
5.6568146 2.6803191 -1.8966252
5.6731544 2.6455591 -1.8966252
5.6927533 2.6122935 -1.897808
5.7182517 2.5816386 -1.9010608
5.7357311 2.5472791 -1.9016522
5.7626328 2.5170088 -1.9054965
5.7674356 2.477078 -1.901948
5.780766 2.4408998 -1.9013565
5.800046 2.4072149 -1.902835
5.8120537 2.3704987 -1.901948
5.8362432 2.3387012 -1.9052007
5.8593721 2.3063462 -1.9081578
5.8760862 2.2713838 -1.9090449
5.8872333 2.2342689 -1.9081578
5.9062023 2.2001047 -1.909932
5.9222827 2.1648076 -1.9108192
5.9444461 2.1316535 -1.9137763
5.9574137 2.0951388 -1.9137763
5.9828 2.0629058 -1.9179162
5.9935355 2.0255454 -1.9173248
6.010385 1.9902333 -1.9188033
6.0161233 1.9512534 -1.9167334
6.028893 1.9145916 -1.917029
6.0460005 1.8792646 -1.9188033
6.0473647 1.8390737 -1.9155505
6.0676913 1.804657 -1.9185076
6.0795674 1.7676591 -1.9188033
6.0792723 1.7271887 -1.9152548
6.0906763 1.69011 -1.9155505
6.0907898 1.6499583 -1.9122977
6.1044931 1.6135316 -1.9134805
6.1068783 1.5741367 -1.9111149
6.1192017 1.5373344 -1.912002
6.1415095 1.5029386 -1.9161419
6.1506157 1.4652268 -1.9161419
6.1622825 1.4281069 -1.917029
6.1625419 1.3883789 -1.9143677
6.172811 1.3509486 -1.9149591
6.1819186 1.3132461 -1.9152548
6.1936026 1.2760612 -1.9164376
6.2088103 1.2395306 -1.9188033
6.225678 1.2032239 -1.9217603
6.2348218 1.1653523 -1.9223518
6.2446747 1.1275837 -1.9232389
6.250535 1.0890819 -1.9229432
6.2561579 1.0505506 -1.9226475
6.2568278 1.0112288 -1.9208733
6.2581949 0.97208524 -1.9193947
6.2687659 0.93437183 -1.9208733
6.2819467 0.89697051 -1.9232389
6.285439 0.85814977 -1.9226475
6.2801666 0.81820863 -1.9193947
6.2936006 0.78071779 -1.9220561
6.2679138 0.73850739 -1.9125934
6.2951121 0.70257872 -1.9196904
6.3164048 0.66574281 -1.9250132
6.3232226 0.62725663 -1.9259002
6.3193431 0.5877381 -1.9235346
6.3237824 0.54903495 -1.9238303
6.34798 0.51191324 -1.9303359
6.3452859 0.47252712 -1.9285617
6.350925 0.43377975 -1.9294487
6.342979 0.39415064 -1.926196
6.3557696 0.35581145 -1.9294487
6.364512 0.31713969 -1.9315187
6.37111 0.27829054 -1.9329972
6.3726974 0.23919292 -1.9329972
6.371181 0.19999617 -1.9321102
6.3675132 0.16077872 -1.9306316
6.3616943 0.12157717 -1.9285617
6.3537235 0.082428202 -1.9259002
6.3493333 0.043407977 -1.9244218
6.348525 0.0044476534 -1.924126
6.3627615 -0.03458323 -1.9285617
6.3624296 -0.073623747 -1.9285617
6.3771405 -0.11293117 -1.933293
6.3772821 -0.15208115 -1.9335887
6.3743196 -0.19115141 -1.9329972
6.385437 -0.23070753 -1.9368415
6.3848557 -0.26992378 -1.9371371
6.3888044 -0.30937231 -1.9389114
6.3820167 -0.34830746 -1.9374329
6.3711772 -0.38693956 -1.9347715
6.3877463 -0.42729908 -1.9406856
6.385004 -0.4664855 -1.9406856
6.4029722 -0.50731301 -1.9471912
6.4025946 -0.54683506 -1.9480784
6.4143395 -0.58750349 -1.9528097
6.4096632 -0.62675714 -1.9525141
6.4009457 -0.66558063 -1.9510355
6.4328237 -0.70881712 -1.9622724
6.4539733 -0.75125545 -1.9702564
6.3838177 -0.7828235 -1.9498526
6.3826838 -0.82246721 -1.9510355
6.3756237 -0.86135948 -1.9504441
6.3683267 -0.90019608 -1.9498526
6.3645735 -0.93953335 -1.9504441
6.3634095 -0.97929418 -1.9519225
6.3374724 -1.0151491 -1.9457127
6.2679892 -1.0435092 -1.9259002
6.2821774 -1.0855263 -1.9324058
6.1080213 -1.0940827 -1.8797698
5.9649982 -1.1062905 -1.8368921
5.8783522 -1.1275789 -1.811757
5.7495046 -1.139492 -1.773315
5.6918654 -1.1644135 -1.7573467
5.6229224 -1.1863053 -1.7378299
5.578198 -1.2126698 -1.7260016
5.5287018 -1.2374877 -1.7126948
5.4781818 -1.2615297 -1.6990921
5.4638309 -1.2935793 -1.6970222
5.5449009 -1.348749 -1.7254102
5.5216913 -1.3790441 -1.7206789
5.4899912 -1.4069713 -1.7132862
5.4720154 -1.4382031 -1.7103291
5.4566312 -1.4700128 -1.7082591
5.4576383 -1.5062612 -1.711512
5.4400196 -1.5373827 -1.7088506
5.4304838 -1.5707332 -1.7088506
5.4124994 -1.6015855 -1.7061892
5.3915982 -1.6314466 -1.7026407
5.3687091 -1.6605471 -1.6985008
5.3474884 -1.690004 -1.6949522
5.3133812 -1.7151557 -1.6872638
5.2954988 -1.745334 -1.6848983
5.2828794 -1.7771847 -1.6843069
5.2754893 -1.8108066 -1.6854897
5.2642794 -1.8431424 -1.6854897
5.2492723 -1.8741242 -1.6843069
5.2251062 -1.9017247 -1.6801668
5.2187133 -1.9357424 -1.6819412
5.1897588 -1.9613122 -1.6763227
5.1597958 -1.9862566 -1.6704085
5.1528478 -2.0199707 -1.6721828
5.1510034 -2.0557983 -1.6757313
5.1453729 -2.0902414 -1.6780969
5.1121454 -2.1133809 -1.6712956
5.0937982 -2.1424868 -1.6695215
5.0858259 -2.1759555 -1.6712956
5.057487 -2.2006423 -1.6662686
5.0403948 -2.2300873 -1.6650858
5.0222602 -2.2590134 -1.6636072
4.996141 -2.2842269 -1.6594673
4.9776993 -2.3128273 -1.6579888
5.0031528 -2.3620842 -1.6715914
4.9541106 -2.3762157 -1.659763
4.9703541 -2.4216292 -1.6704085
4.9545455 -2.4516575 -1.6701128
4.9214835 -2.473006 -1.663903
4.8943033 -2.4970798 -1.659763
4.8729515 -2.5239887 -1.657693
4.8683653 -2.5596194 -1.6615373
4.8770099 -2.6024835 -1.6701128
4.8617897 -2.6328142 -1.6704085
4.8287988 -2.6533964 -1.6644944
4.8049173 -2.6787894 -1.661833
4.779243 -2.7030489 -1.6585802
4.7310796 -2.7142611 -1.6473433
4.7523184 -2.7653372 -1.6609459
4.7146926 -2.7823086 -1.6535531
4.7057295 -2.8160899 -1.6565102
4.6948953 -2.8488748 -1.6588759
4.6789541 -2.8786294 -1.6594673
4.655529 -2.9037464 -1.6573974
4.6634631 -2.9485922 -1.66686
4.6573477 -2.9848821 -1.6712956
4.6293316 -3.007159 -1.6677471
4.5964298 -3.0260532 -1.6624244
4.5706239 -3.0494282 -1.659763
4.5502439 -3.0763457 -1.6591716
4.5289178 -3.1025882 -1.6582845
4.4995933 -3.1232381 -1.6544403
4.4725299 -3.1452937 -1.6514832
4.4562588 -3.1748943 -1.6526661
4.443666 -3.2072089 -1.6553274
4.4053946 -3.2208843 -1.6482304
4.390923 -3.2518339 -1.6503004
4.3624811 -3.2724099 -1.6470476
4.3392768 -3.2968047 -1.6458647
4.322752 -3.3262804 -1.6473433
4.3037682 -3.3539159 -1.6479347
4.2876072 -3.3838108 -1.649709
4.2704954 -3.4130371 -1.6511875
4.2620974 -3.4493916 -1.6562146
4.2378964 -3.4730566 -1.6550317
4.2172413 -3.4996045 -1.6553274
4.1883745 -3.5192702 -1.6523703
4.1674294 -3.5455225 -1.6526661
4.1463199 -3.57165 -1.6529617
4.1423264 -3.61272 -1.6603545
4.118649 -3.6368043 -1.659763
4.0955443 -3.6613708 -1.6594673
4.070168 -3.6838677 -1.6582845
4.0467834 -3.708127 -1.6579888
4.0148497 -3.7244427 -1.6541445
3.9529235 -3.712388 -1.6375849
2.3715672 -2.2550218 -0.97194612
2.3693874 -2.280792 -0.97697318
2.364243 -2.3039534 -0.98081738
3.9068751 -3.8538945 -1.657693
3.8770707 -3.8717194 -1.6550317
3.8505538 -3.8927193 -1.6538489
3.8139105 -3.9032915 -1.6482304
3.7898884 -3.9266198 -1.6482304
3.7545168 -3.9380472 -1.6432034
3.7329028 -3.9637918 -1.6443862
3.6961479 -3.9733334 -1.6387677
3.6639416 -3.9874973 -1.6352192
3.6329851 -4.0028305 -1.6322622
3.6160083 -4.0335817 -1.6358107
3.6038575 -4.0699964 -1.6417248
3.5781877 -4.0913134 -1.6414292
3.5486448 -4.1081319 -1.6393592
3.5264714 -4.133462 -1.6408377
3.5078142 -4.1630573 -1.6440905
3.482204 -4.1845026 -1.6440905
3.4667749 -4.2183356 -1.6491176
3.4396222 -4.2380447 -1.6485261
3.4033961 -4.2463989 -1.6434991
3.3784626 -4.2686996 -1.6440905
1.9997226 -2.559027 -0.96425772
1.9822321 -2.5689802 -0.96337056
1.9635367 -2.5772955 -0.96189201
1.9459628 -2.5870051 -0.96100491
1.9272044 -2.5950623 -0.95952636
1.9050308 -2.5983648 -0.95627356
1.6997072 -2.3484657 -0.85632426
1.6808218 -2.3526332 -0.85395861
1.6652534 -2.361341 -0.85336721
3.1638384 -4.5446649 -1.67307
3.1353521 -4.5632052 -1.6727742
3.0938892 -4.562592 -1.6653814
3.0615847 -4.575139 -1.6630158
3.0276637 -4.5850701 -1.659763
2.9989517 -4.6027608 -1.6594673
2.9634204 -4.6098261 -1.6553274
2.9309857 -4.621469 -1.6529617
2.8959863 -4.628839 -1.6491176
2.8991399 -4.6977339 -1.6677471
2.8692672 -4.7138023 -1.6671557
2.837831 -4.7272239 -1.6656772
2.8077986 -4.7429037 -1.6650858
2.7685292 -4.7427182 -1.6588759
2.7212663 -4.7281561 -1.647639
2.6917322 -4.7439337 -1.6473433
2.6639724 -4.7628613 -1.6482304
2.6572995 -4.8201079 -1.6627201
2.61992 -4.822053 -1.657693
2.602459 -4.8607755 -1.6656772
2.5765967 -4.8842564 -1.6683385
2.5421731 -4.8914981 -1.6653814
2.5116763 -4.9061542 -1.6650858
2.4879777 -4.9342675 -1.6695215
1.5096723 -3.0406573 -1.0097967
1.494344 -3.0567284 -1.0121624
1.4755602 -3.06584 -1.0121624
1.4595844 -3.080879 -1.0142324
2.3087993 -4.9511247 -1.6500046
2.281564 -4.9721437 -1.6523703
2.2407911 -4.9634128 -1.6446819
2.2149472 -4.987545 -1.6482304
2.1823905 -4.996665 -1.6467519
2.1456578 -4.9959183 -1.6420206
2.1112466 -5.0001893 -1.6390635
2.0900486 -5.0359893 -1.6467519
2.0515316 -5.0301437 -1.640542
2.025604 -5.0550508 -1.6446819
1.9875499 -5.0496073 -1.6387677
1.9582511 -5.0661626 -1.6402463
1.9274678 -5.0789757 -1.640542
1.895934 -5.0898118 -1.6402463
1.8695881 -5.1148071 -1.6446819
1.8333315 -5.1126947 -1.6402463
1.801926 -5.1238475 -1.6402463
1.7766818 -5.1528692 -1.6461605
1.7450309 -5.1636734 -1.6461605
1.7127137 -5.1724701 -1.6455691
1.6821228 -5.1865163 -1.6467519
1.6540269 -5.2085757 -1.6505961
1.6194841 -5.2104168 -1.6479347
1.587483 -5.2202559 -1.6479347
1.5526985 -5.2207417 -1.6449777
1.5179677 -5.2209978 -1.6420206
1.4859037 -5.2302136 -1.6420206
1.4525063 -5.2346301 -1.640542
1.4231081 -5.2535863 -1.6437948
1.3874274 -5.24929 -1.6396549
1.3599623 -5.2762046 -1.6455691
1.3261656 -5.2788911 -1.6437948
1.2930685 -5.2841454 -1.6429076
1.2610642 -5.2938385 -1.6434991
1.2261851 -5.2912397 -1.6402463
1.1909653 -5.2865491 -1.6364021
0.7513507 -3.4339335 -1.047056
0.73066348 -3.4403479 -1.0476474
0.71127558 -3.4531868 -1.0503087
0.68614513 -3.4378138 -1.0440989
0.66123027 -3.4222629 -1.037889
0.63969249 -3.4234388 -1.0370018
0.61561811 -3.4103782 -1.0316792
0.59418875 -3.4112682 -1.030792
0.57198036 -3.4073131 -1.0284263
0.55228251 -3.418303 -1.030792
0.53276461 -3.4310668 -1.0337491
0.51296997 -3.4427748 -1.0364105
0.49034986 -3.4354548 -1.0331577
0.46783894 -3.4279876 -1.0299048
0.44691989 -3.431741 -1.0302006
0.42761961 -3.4486387 -1.0346363
0.40633926 -3.450249 -1.0343405
0.38664553 -3.4659684 -1.0384804
0.36747548 -3.4882257 -1.0446903
0.34540468 -3.4837606 -1.0426203
0.32473043 -3.4934237 -1.044986
0.30510819 -3.5162878 -1.0514916
0.28391114 -3.5228546 -1.0529702
0.26349699 -3.5407252 -1.0579971
0.24189687 -3.5441813 -1.0585886
0.21759546 -3.5046012 -1.0458732
0.19469769 -3.4810722 -1.0381848
0.17171611 -3.4497621 -1.0281307
0.15000284 -3.438344 -1.0242864
0.12979998 -3.4630647 -1.0316792
0.10899905 -3.4781182 -1.0361148
0.088042431 -3.4940009 -1.0408461
0.066711865 -3.500206 -1.0426203
0.045445435 -3.5167878 -1.0476474
0.023747336 -3.4998059 -1.0423247
0.0022797787 -3.5094385 -1.0452816
-0.019222982 -3.503655 -1.0435075
-0.040500775 -3.4843667 -1.0375932
-0.062014516 -3.4916935 -1.039959
-0.08332441 -3.4864724 -1.0384804
-0.10414395 -3.4667983 -1.0325663
-0.12537943 -3.4651394 -1.0322706
-0.14595385 -3.4480796 -1.0272435
-0.16655439 -3.4356692 -1.023695
-0.1885681 -3.4517522 -1.0290178
-0.20806643 -3.4228778 -1.0204422
-0.22944711 -3.4272556 -1.0222164
-0.25026339 -3.422925 -1.0213294
-0.27095979 -3.4175158 -1.0201465
-0.291518 -3.4110298 -1.0186679
-0.3127034 -3.4120307 -1.0195551
-0.33242556 -3.3976882 -1.0157109
-0.35435325 -3.4060361 -1.0189637
-0.38193798 -3.4645681 -1.037889
-0.39888367 -3.4251533 -1.0263563
-0.41338462 -3.3695431 -1.0097967
-0.43515024 -3.3754702 -1.0124581
-0.4557257 -3.3717899 -1.0121624
-0.47466862 -3.3566337 -1.0083182
-0.50083351 -3.3914597 -1.0201465
-0.5174216 -3.3609419 -1.0115709
-0.53743011 -3.3539307 -1.0103881
-0.55925387 -3.3581085 -1.0127538
-0.58602703 -3.3903847 -1.0239908
-0.61624771 -3.4393833 -1.0405504
-0.64256388 -3.4637153 -1.0494217
-0.66488415 -3.4653366 -1.0511959
-0.68557757 -3.4583805 -1.0503087
-0.70908165 -3.4653397 -1.0538572
-0.73486531 -3.4824221 -1.0606586
-0.75682783 -3.480648 -1.0615456
-0.77921343 -3.4805996 -1.0630242
-0.79798359 -3.464582 -1.0594757
-0.81570661 -3.4447467 -1.0547444
-0.83479637 -3.4313228 -1.052083
-0.85814893 -3.4354043 -1.0550401
-0.87328482 -3.4069393 -1.0476474
-0.78565824 -2.9885259 -0.91546589
-0.80398071 -2.9836488 -0.91546589
-0.82633823 -2.9933934 -0.92019719
-0.84313142 -2.9827509 -0.91842294
-0.86407095 -2.9866984 -0.92138004
-0.90405989 -3.0546231 -0.94503665
-1.0489173 -3.4659648 -1.0798795
-1.0712932 -3.463114 -1.0810624
-1.1129564 -3.5211489 -1.1020577
-1.1386483 -3.5269811 -1.1061976
-1.069085 -3.2432039 -1.0160066
-1.0691708 -3.1777294 -0.99678558
-1.0818273 -3.1512311 -0.99028003
-1.0973552 -3.1337142 -0.98673153
-1.105644 -3.0963328 -0.97667742
-1.1203755 -3.0778203 -0.97283322
-1.1375787 -3.0664096 -0.97135472
-1.1556972 -3.0575845 -0.97076327
-1.1943374 -3.1021445 -0.98791432
-1.3412793 -3.4211705 -1.0964392
-1.3664943 -3.4235232 -1.0999877
-1.387475 -3.4150741 -1.0999877
-1.409498 -3.4091449 -1.1008748
-1.4274272 -3.3933876 -1.0985092
-1.4493488 -3.3872001 -1.0993962
-1.4674374 -3.3721113 -1.0973263
-1.481531 -3.3481925 -1.0922993
-1.4961702 -3.3259704 -1.0878637
-1.5074155 -3.2967448 -1.0810624
-1.5147367 -3.2597098 -1.0715997
-1.5310394 -3.2425795 -1.0689384
-1.5422323 -3.2150357 -1.0627285
-1.5606753 -3.2029357 -1.0618414
-1.595125 -3.2232671 -1.0721911
-1.6333132 -3.250124 -1.0849066
-1.6454114 -3.2247236 -1.0795839
-1.6625311 -3.2094772 -1.0778096
-1.6790813 -3.1932967 -1.0757396
-1.690999 -3.168606 -1.0707126
-1.6908516 -3.1220484 -1.0579971
-1.6957169 -3.0856602 -1.0488302
-1.7104322 -3.0676877 -1.0461688
-1.7296932 -3.0579667 -1.0464646
-1.7417696 -3.0356951 -1.0423247
-1.7728536 -3.0464189 -1.0500131
-1.7934544 -3.0387745 -1.0511959
-1.802747 -3.0121377 -1.0455774
-1.8206997 -3.0002027 -1.0452816
-1.8385738 -2.9881611 -1.044986
-1.8422149 -2.9533167 -1.0364105
-1.8720419 -2.9605291 -1.0432117
-1.8932647 -2.9538126 -1.044986
-1.9233208 -2.9605663 -1.0517873
-1.9330465 -2.9359424 -1.047056
-1.9250489 -2.8850863 -1.0325663
-1.9892589 -2.9420738 -1.0582929
-1.9959372 -2.9132621 -1.052083
-2.0023372 -2.8844795 -1.0458732
-2.0216467 -2.8744836 -1.0467602
-2.0325954 -2.8526881 -1.0432117
-2.0316136 -2.8145995 -1.0334533
-2.0471542 -2.7997673 -1.0325663
-2.0551991 -2.7748699 -1.0278349
-2.0991259 -2.7981255 -1.0417333
-2.1023867 -2.7669363 -1.0346363
-2.1199074 -2.7547414 -1.0349319
-2.1502745 -2.7590134 -1.0417333
-2.1429009 -2.7150209 -1.0296092
-2.1607125 -2.7033138 -1.0302006
-2.1844699 -2.6989162 -1.0337491
-2.2070436 -2.6928508 -1.0367062
-2.2332847 -2.6910207 -1.0414375
-2.2731049 -2.7050607 -1.0526744
-2.2624259 -2.6590464 -1.0396632
-2.2980247 -2.6675529 -1.0488302
-2.3250225 -2.665642 -1.0538572
-2.3685212 -2.6821187 -1.0665727
-2.3613787 -2.6411829 -1.0556315
-2.4217682 -2.6755171 -1.0760354
-2.4071639 -2.6267979 -1.0618414
-2.4206378 -2.6091769 -1.0606586
-2.4300628 -2.587311 -1.0577015
-2.433387 -2.5591969 -1.052083
-2.4331462 -2.5276983 -1.044986
-2.4426105 -2.5065632 -1.0423247
-2.4505658 -2.4840469 -1.0390718
-2.4468622 -2.4500358 -1.030792
-2.4829016 -2.4558032 -1.039959
-2.5088549 -2.4512048 -1.0446903
-2.5162876 -2.4284666 -1.0414375
-2.5373633 -2.4189143 -1.0440989
-2.5556345 -2.4065747 -1.0455774
-2.5836413 -2.4032116 -1.0511959
-2.6152194 -2.4028268 -1.0582929
-2.6539626 -2.4085653 -1.068347
-2.6743815 -2.3973372 -1.0707126
-2.7112105 -2.4005158 -1.0798795
-2.7273269 -2.3850927 -1.0804709
-2.7216699 -2.350827 -1.0721911
-2.6938951 -2.2981191 -1.0550401
-2.6962578 -2.2716968 -1.0503087
-2.7262993 -2.2685542 -1.0568143
-2.726146 -2.2402582 -1.0511959
-2.7390988 -2.2228868 -1.0509001
-2.7489598 -2.2030506 -1.0494217
-2.7699161 -2.192071 -1.0523787
-2.7690139 -2.1638563 -1.0467602
-2.7777016 -2.1433232 -1.044986
-2.7908003 -2.1262391 -1.044986
-2.8037944 -2.1090751 -1.044986
-2.8143821 -2.0901227 -1.0440989
-2.8202207 -2.0677302 -1.0414375
-2.8630326 -2.0722342 -1.0529702
-2.8679216 -2.0490737 -1.0500131
-2.8882465 -2.0369444 -1.0529702
-2.8614924 -1.9918914 -1.0381848
-2.9319208 -2.0143325 -1.0600671
-2.9465971 -1.9979132 -1.0609542
-2.9516556 -1.9750137 -1.0582929
-2.9445875 -1.9442307 -1.0511959
-2.9780707 -1.9402083 -1.05918
-2.9609928 -1.9033 -1.0485345
-2.9750354 -1.886631 -1.0494217
-3.0092301 -1.8825294 -1.0577015
-3.0394211 -1.8755699 -1.0645027
-3.0810628 -1.8752649 -1.075444
-3.0900543 -1.8548493 -1.0745568
-3.1054871 -1.8382877 -1.0760354
-3.1051588 -1.8124551 -1.0718955
-3.1228445 -1.7971808 -1.0742611
-3.138798 -1.7808144 -1.0760354
-3.1496656 -1.7615216 -1.0760354
-3.1679437 -1.7463138 -1.0786967
-3.1911895 -1.7336845 -1.0831324
-3.2354527 -1.7321094 -1.0949607
-3.2679868 -1.7238148 -1.1026491
-3.3098638 -1.7200322 -1.1135902
-3.3484151 -1.7140584 -1.1233486
-3.3946934 -1.7115473 -1.1357684
-3.4171093 -1.6966343 -1.1399083
-3.5055482 -1.7138242 -1.1668177
-3.5590343 -1.7130014 -1.1816031
-3.5936489 -1.7025859 -1.189883
-3.5685327 -1.6639483 -1.1777589
-3.712379 -1.7033851 -1.223298
-3.8263662 -1.7273573 -1.2584872
-3.8884017 -1.7267259 -1.275934
-3.9068019 -1.7062764 -1.2785953
-4.021647 -1.7271407 -1.3137846
-4.1236906 -1.7410834 -1.3445382
-4.1916447 -1.7395539 -1.3637593
-4.2358508 -1.727513 -1.3749962
-4.2978001 -1.7221023 -1.3921473
-4.3500628 -1.7121463 -1.4060456
-4.3791976 -1.6926566 -1.4122554
-4.4127216 -1.6745688 -1.4199438
-4.4802041 -1.6688066 -1.4388691
-4.5468826 -1.6619505 -1.4574987
-4.6595025 -1.6707863 -1.4912094
-4.9427156 -1.7382116 -1.580809
-4.9478698 -1.7059823 -1.5790347
-5.0695562 -1.7132169 -1.6154069
-5.1842589 -1.7166182 -1.6494132
-5.2619352 -1.7065893 -1.6712956
-5.3597107 -1.7020333 -1.6996837
-5.4229617 -1.6855637 -1.7168347
-5.4816403 -1.6669912 -1.7325072
-5.5439558 -1.6488513 -1.7493626
-5.6053362 -1.6297419 -1.7659222
-5.6823101 -1.6143801 -1.787509
-5.8439879 -1.6216393 -1.8363007
-6.0290136 -1.6332194 -1.8924853
-6.1128049 -1.6157291 -1.9161419
-6.1429543 -1.5834383 -1.9226475
-6.162746 -1.548277 -1.9259002
-6.1888318 -1.5145223 -1.931223
-6.1980081 -1.4765199 -1.931223
-6.2162571 -1.4406191 -1.9341801
-6.231503 -1.4039198 -1.9362501
-6.2427998 -1.3662705 -1.9371371
-6.2426558 -1.3261527 -1.9344758
-6.238512 -1.2853167 -1.9306316
-6.2444077 -1.2466396 -1.9300402
-6.2763252 -1.2130157 -1.9377286
-6.2601748 -1.1700928 -1.9303359
-6.2803974 -1.1340363 -1.9344758
-6.2778268 -1.0938388 -1.9315187
-6.2966671 -1.0573556 -1.9353629
-6.3275552 -1.0226644 -1.9430513
-6.3280473 -0.9829399 -1.9412771
-6.3349042 -0.94423413 -1.9415728
-6.3528724 -0.90710223 -1.945417
-6.3677835 -0.86939752 -1.948374
-6.3767872 -0.8308031 -1.9495569
-0 -0 -0
-6.4073739 -0.75494802 -1.9560626
-6.429924 -0.71763325 -1.961681
-6.4351563 -0.67826664 -1.9619766
-0 -0 -0
-0 -0 -0
-0 -0 -0
-0 -0 -0
-0 -0 -0
-0 -0 -0
-0 -0 -0
-0 -0 -0
-0 -0 -0
-0 -0 -0
-0 -0 -0
-0 -0 -0
-0 0 -0
-0 0 -0
-6.098732 0.51988006 -1.9310033
-0 0 -0
-0 0 -0
-0 0 -0
-0 0 -0
-0 0 -0
-0 0 -0
-0 0 -0
-0 0 -0
-0 0 -0
-0 0 -0
-0 0 -0
-0 0 -0
-0 0 -0
-6.0794721 1.0494844 -1.9466445
-6.067297 1.0857606 -1.9448044
-6.0539699 1.1217532 -1.9426576
-6.01893 1.1534988 -1.9334568
-6.0117388 1.1904086 -1.9334568
-5.9987264 1.2261288 -1.9316167
-5.9994721 1.2646817 -1.934377
-5.9897389 1.3010656 -1.9337635
-5.9649243 1.334051 -1.928243
-5.9668293 1.3729756 -1.9316167
-5.957366 1.4093423 -1.9313099
-5.9449072 1.4449695 -1.9300833
-5.9350057 1.481189 -1.9297765
-5.9331818 1.5194681 -1.9322301
-5.8988919 1.5493119 -1.9239494
-5.8901935 1.5857252 -1.9242561
-5.8757653 1.6205707 -1.9227226
-5.8455606 1.6508982 -1.9159753
-5.8243489 1.6835611 -1.9122951
-5.8358135 1.7257489 -1.9196557
-5.8187375 1.7595946 -1.9175088
-5.8032851 1.7938582 -1.9159753
-5.7894464 1.8285723 -1.9150553
-5.7781172 1.8640611 -1.9150553
-5.7683787 1.9000758 -1.9156687
-5.7710457 1.9402901 -1.9205757
-5.7545304 1.9741189 -1.9190423
-5.7468009 2.0109637 -1.9205757
-5.7307677 2.0449073 -1.919349
-5.727951 2.0836132 -1.9227226
-5.7079196 2.1160717 -1.9202691
-5.6832533 2.1466806 -1.9162821
-5.6770806 2.1842475 -1.9187356
-5.6742053 2.2232091 -1.922416
-5.6418934 2.2505741 -1.9159753
-5.6209235 2.2822838 -1.9135219
-5.5927401 2.3109119 -1.9086148
-5.622323 2.3636367 -1.9239494
-5.5937128 2.3920994 -1.9190423
-5.5728207 2.4237185 -1.9168955
-5.5447879 2.45209 -1.9122951
-5.5244298 2.4837234 -1.9104549
-5.5004296 2.5136161 -1.907388
-5.4883556 2.548923 -1.9086148
-5.4700303 2.581332 -1.9076947
-5.4609537 2.61814 -1.9101483
-5.4482093 2.653266 -1.911375
-5.4343858 2.6879122 -1.9122951
-5.4109869 2.7177873 -1.9098415
-5.3933611 2.7505047 -1.9095348
-5.3763828 2.783546 -1.9095348
-5.3465652 2.8098383 -1.9049344
-5.3351016 2.8457282 -1.9070814
-5.3367906 2.888835 -1.9141352
-5.3089542 2.9160259 -1.9104549
-5.2818174 2.9434478 -1.9070814
-5.2686281 2.9786124 -1.9089215
-5.2419968 3.0061474 -1.9058546
-5.2308564 3.0425637 -1.9086148
-5.2055316 3.0707321 -1.9061612
-5.2037435 3.1128793 -1.9126017
-5.2040739 3.156601 -1.9199624
-5.181365 3.1864779 -1.9187356
-5.1633306 3.2192178 -1.919349
-5.1418719 3.2498214 -1.9187356
-5.1098142 3.2736061 -1.9141352
-5.091228 3.3059347 -1.9147487
-5.0748219 3.3397286 -1.9162821
-5.0463171 3.3655217 -1.9132152
-5.04213 3.4076173 -1.9196557
-5.0093479 3.4304221 -1.9150553
-5.0085344 3.4752057 -1.9230293
-4.9801097 3.5009441 -1.9202691
-4.946907 3.5231512 -1.9156687
-4.9321423 3.5584519 -1.9184289
-4.9017634 3.5824685 -1.9150553
-4.8842788 3.6158764 -1.9168955
-4.862 3.6457779 -1.9168955
-4.8281703 3.6669047 -1.9122951
-4.8123689 3.7016847 -1.9150553
-4.787313 3.729388 -1.9141352
-4.7598567 3.7551541 -1.9122951
-4.7285471 3.7777529 -1.9089215
-4.7089777 3.8096895 -1.9104549
-4.6803598 3.8342881 -1.908308
-4.6574774 3.8635421 -1.9086148
-4.6322265 3.8908224 -1.9080014
-4.6053658 3.9167049 -1.9067746
-4.5761986 3.9405408 -1.9046278
-4.5591068 3.9748018 -1.9076947
-4.517509 3.9875808 -1.9003341
-4.4915376 4.0139561 -1.8997207
-4.461884 4.0369687 -1.8975738
-4.447556 4.073916 -1.9021742
-4.4371285 4.1147227 -1.9086148
-4.4076347 4.1379614 -1.9067746
-4.3773332 4.1603374 -1.9046278
-4.3503518 4.1857977 -1.9040143
-4.3354936 4.2230406 -1.9089215
-4.3013687 4.2415419 -1.9052411
-4.2766089 4.2691998 -1.9058546
-4.2623816 4.3075409 -1.911375
-4.2325444 4.3302093 -1.9098415
-4.2098613 4.3602076 -1.9116817
-4.17449 4.3770008 -1.9076947
-4.1436396 4.398375 -1.9058546
-4.1068497 4.4132638 -1.9012542
-4.075829 4.4341745 -1.8994139
-4.047905 4.458395 -1.8991073
-4.0325441 4.4966145 -1.9049344
-3.9960437 4.5112963 -1.9006407
-3.9720473 4.5400295 -1.902481
-3.9503372 4.5715189 -1.9055479
-3.9191239 4.592051 -1.9040143
-3.9019132 4.6291137 -1.9095348
-3.8624773 4.6397991 -1.9040143
-3.8272877 4.6553226 -1.9006407
-3.8034494 4.6846313 -1.9030943
-3.7639191 4.6945119 -1.8975738
-3.7379966 4.7212501 -1.8991073
-3.7118876 4.7478471 -1.9006407
-3.6832671 4.771287 -1.9009475
-3.6441152 4.7809262 -1.8957337
-3.6335936 4.8282967 -1.9058546
-3.5919816 4.8344545 -1.8994139
-3.5729437 4.8709879 -1.9052411
-3.5228975 4.8650622 -1.8942002
-3.4852328 4.8757448 -1.8899065
-3.4574447 4.9001493 -1.8911333
-3.4262252 4.9197092 -1.89052
-3.3938179 4.9375014 -1.8892932
-3.3773465 4.9787149 -1.8972671
-3.3541448 5.0104189 -1.9015609
-3.3270097 5.0364652 -1.9037077
-3.2887697 5.04562 -1.8994139
-3.2567191 5.0641031 -1.8988006
-3.223546 5.0807753 -1.8975738
-3.1907957 5.0980382 -1.8966538
-3.1584549 5.1159005 -1.8960404
-3.1284895 5.1376233 -1.8969605
-3.1155224 5.1877332 -1.9086148
-3.067147 5.1789041 -1.8981873
-3.0247557 5.1795421 -1.89144
-3.0062115 5.2211027 -1.9000274
-2.9675429 5.2278605 -1.8957337
-2.9437728 5.2609229 -1.9012542
-2.913275 5.2822208 -1.902481
-2.876265 5.2916336 -1.8994139
-2.8419452 5.3058257 -1.8981873
-2.8120003 5.3282151 -1.9000274
-2.7753036 5.3377676 -1.8972671
-2.7468369 5.3631687 -1.9003341
-2.705307 5.3629241 -1.8942002
-2.6731963 5.3811274 -1.8948137
-2.6413822 5.3999939 -1.8957337
-2.6044834 5.408381 -1.8929734
-2.5700266 5.4216795 -1.8920534
-2.5367115 5.4373465 -1.8920534
-2.4997282 5.4450235 -1.8892932
-2.4713624 5.4715366 -1.8932801
-2.436198 5.4831181 -1.8920534
-2.405937 5.5058131 -1.8948137
-2.3732355 5.5230961 -1.8957337
-2.3326375 5.5217705 -1.8902133
-2.3078337 5.5579572 -1.8978806
-2.2603881 5.5394039 -1.8865329
-2.2295425 5.5611205 -1.8892932
-2.1978183 5.5808959 -1.89144
-2.1614745 5.5889497 -1.8895998
-2.127816 5.6038866 -1.8902133
-2.0864141 5.5981064 -1.8837727
-2.0536594 5.615273 -1.8853061
-2.0204511 5.6313519 -1.8865329
-1.9849124 5.6409497 -1.8856128
-1.9462297 5.6413245 -1.8816259
-1.9085314 5.6441431 -1.8785589
-1.8873266 5.6964083 -1.8923601
-1.8541003 5.7133136 -1.8942002
-1.8149763 5.7118821 -1.8899065
-1.7807422 5.7256379 -1.8908266
-1.7455767 5.7364564 -1.8908266
-1.7062759 5.7333746 -1.8862263
-1.6694702 5.7382522 -1.8843861
-1.6360502 5.754797 -1.8865329
-1.6057982 5.7830706 -1.8926668
-1.571528 5.7974081 -1.8942002
-1.5359262 5.8069415 -1.8942002
-1.4993163 5.8125696 -1.8929734
-1.4594487 5.8050437 -1.887453
-1.4244808 5.8166628 -1.8883731
-1.3869992 5.8178868 -1.8859196
-1.3508456 5.8244333 -1.8853061
-1.3159188 5.8363266 -1.8865329
-1.2825246 5.8554487 -1.8902133
-1.2503295 5.8808975 -1.8960404
-1.216526 5.8996453 -1.8997207
-1.1739687 5.8752632 -1.8892932
-1.1380773 5.8832908 -1.8895998
-1.1033554 5.8976479 -1.8920534
-1.0639343 5.8865104 -1.8862263
-1.0310625 5.9116812 -1.8923601
-0.99476969 5.9178967 -1.8923601
-0.95965415 5.931406 -1.8948137
-0.92324167 5.9371824 -1.8948137
-0.88805705 5.9512086 -1.8975738
-0.84829599 5.9339314 -1.8902133
-0.8118701 5.9390244 -1.8902133
-0.77602839 5.9486136 -1.8917466
-0.7388109 5.9475956 -1.8899065
-0.70063293 5.9378381 -1.8853061
-0.66460806 5.9458089 -1.8865329
-0.62891066 5.9573474 -1.8889865
-0.59319067 5.9696188 -1.8917466
-0.55663872 5.9740939 -1.8920534
-0.52013648 5.9792933 -1.8926668
-0.48328549 5.9804749 -1.8920534
-0.44651023 5.9823785 -1.8917466
-0.4092111 5.976459 -1.8889865
-0.37259156 5.9798074 -1.8892932
-0.335255 5.9705772 -1.8856128
-0.29908738 5.9820285 -1.8886797
-0.26196158 5.9742417 -1.8856128
-0.22476424 5.9614697 -1.8810124
-0.18880776 5.9827147 -1.887453
-0.15178293 5.9713907 -1.883466
-0.11501316 5.9655485 -1.8813192
-0.078259192 5.954721 -1.8776388
-0.041849919 5.9741249 -1.8837727
-0.0051835775 5.9609437 -1.8794791
0.031392183 5.9608636 -1.8794791
0.067933656 5.9577036 -1.8785589
0.10453878 5.9600296 -1.8794791
0.1413113 5.9678397 -1.8822392
0.17784096 5.9640059 -1.8813192
0.21408817 5.9532909 -1.8782523
0.25073352 5.9547181 -1.8791723
0.28740445 5.9559193 -1.8800924
0.3237882 5.9511929 -1.8791723
0.35989386 5.9424434 -1.8770255
0.39558661 5.9287271 -1.8733451
0.43389973 5.9527678 -1.8819325
0.47116905 5.9594817 -1.8849995
0.50796998 5.9593239 -1.8859196
0.54417878 5.9523034 -1.8846928
0.57883811 5.9299064 -1.8785589
0.61511397 5.9252963 -1.8782523
0.65125078 5.9195185 -1.8776388
0.68943125 5.9314833 -1.8828527
0.72465444 5.9176941 -1.8797857
0.76241112 5.9244642 -1.883466
0.79811132 5.9149585 -1.8819325
0.83505601 5.9146624 -1.883466
0.87063682 5.9047189 -1.8819325
0.90525836 5.8889179 -1.8785589
0.94348294 5.89641 -1.8828527
0.97823793 5.8820601 -1.8800924
1.0131766 5.8693814 -1.8779455
1.0471572 5.8518114 -1.8742652
1.0816549 5.8377895 -1.8718117
1.1206824 5.8478684 -1.8773322
1.1511765 5.8138061 -1.8684381
1.1893078 5.8187556 -1.8724251
1.2269536 5.8206615 -1.875492
1.2636565 5.8176742 -1.8770255
1.3018242 5.8209567 -1.8807058
1.3385845 5.8174968 -1.8822392
1.3757899 5.8156576 -1.8843861
1.4132479 5.8145051 -1.8868396
1.4493598 5.8075709 -1.887453
1.4814224 5.7847381 -1.8828527
1.5197926 5.7865858 -1.8865329
1.5560126 5.7799091 -1.887453
1.5894222 5.7629128 -1.8849995
1.6216465 5.7420607 -1.8813192
1.6589645 5.7393169 -1.8837727
1.694149 5.7290297 -1.8837727
1.7292699 5.7185264 -1.8837727
1.766013 5.713264 -1.8856128
1.8001752 5.6995978 -1.8846928
1.8377451 5.6965971 -1.887453
1.8717703 5.6825013 -1.8865329
1.9038707 5.6627903 -1.8837727
1.937654 5.6483011 -1.8828527
1.9713312 5.6336107 -1.8819325
2.0061815 5.6223049 -1.8822392
2.0406415 5.6098895 -1.8822392
2.0746937 5.5963702 -1.8819325
2.1089933 5.5835352 -1.8819325
2.1432135 5.5704894 -1.8819325
2.1797848 5.563437 -1.8840793
2.2114105 5.5437694 -1.8819325
2.2468178 5.5336232 -1.8831593
2.2832747 5.5258904 -1.8853061
2.3163998 5.5100217 -1.8846928
2.3486676 5.4922042 -1.883466
2.3800442 5.4724531 -1.8816259
2.4151182 5.4612284 -1.8828527
2.44663 5.4419665 -1.8813192
2.4815583 5.4303141 -1.8825459
2.5116227 5.4080801 -1.8800924
2.5532925 5.4106417 -1.8865329
2.5815039 5.3845749 -1.8828527
2.6199141 5.3797574 -1.8868396
2.6532965 5.3644338 -1.8871464
2.6857347 5.3472018 -1.8868396
2.7184939 5.3306217 -1.8868396
2.7511508 5.3138409 -1.8868396
2.785476 5.30023 -1.8880664
2.8170488 5.2813597 -1.887453
2.8466821 5.2589531 -1.8856128
2.8793552 5.2422214 -1.8859196
2.9082222 5.218636 -1.8837727
2.9378455 5.1965508 -1.8822392
2.969202 5.1776013 -1.8819325
3.0028303 5.1625757 -1.8831593
3.0325155 5.1407747 -1.8819325
3.0659568 5.1253376 -1.8831593
3.105248 5.1194482 -1.8880664
3.1341081 5.0962453 -1.8865329
3.1622968 5.072073 -1.8846928
3.1948848 5.0549874 -1.8856128
3.2217329 5.0288782 -1.8831593
3.2535658 5.0106115 -1.8837727
3.2863426 4.9937339 -1.8849995
3.31745 4.974267 -1.8853061
3.347909 4.9538178 -1.8853061
3.3787801 4.9339676 -1.8856128
3.410619 4.9154882 -1.8865329
3.4423583 4.8968043 -1.887453
3.469578 4.8717146 -1.8859196
3.5038614 4.8565078 -1.8883731
3.5285385 4.828002 -1.8856128
3.5580962 4.8062606 -1.8856128
3.5875199 4.784338 -1.8856128
3.6225667 4.769814 -1.8886797
3.6471219 4.7414622 -1.8862263
3.6849222 4.7302556 -1.8908266
3.712698 4.7060623 -1.8902133
3.7284305 4.6668353 -1.883466
3.7659774 4.6549683 -1.8880664
3.7890389 4.6251473 -1.8853061
3.8124843 4.5959516 -1.8828527
3.8357143 4.5666428 -1.8803991
3.86798 4.5480957 -1.8825459
3.9001622 4.5293245 -1.8846928
3.9441464 4.5239587 -1.8926668
3.9667904 4.4939647 -1.8902133
3.9999995 4.4759269 -1.8929734
4.0267496 4.450593 -1.8926668
4.0494804 4.4208894 -1.89052
4.0784726 4.3980527 -1.89144
4.1073365 4.3750262 -1.8923601
4.1288571 4.3442235 -1.8899065
4.1580753 4.3215504 -1.8911333
4.1964703 4.3082261 -1.8966538
4.2168102 4.2762976 -1.8938936
4.2429695 4.2503428 -1.8938936
4.2689691 4.2242289 -1.8938936
4.2948084 4.1979551 -1.8938936
4.3191161 4.1702018 -1.8932801
4.3246446 4.1245751 -1.8843861
4.3519497 4.0999198 -1.8853061
4.3846903 4.0802703 -1.8886797
4.4089432 4.0526457 -1.8883731
4.4598045 4.0491843 -1.8997207
4.4788961 4.0166607 -1.8972671
4.5063081 3.991627 -1.8984939
4.5235505 3.9576356 -1.895427
4.545588 3.9279387 -1.8945069
4.5703282 3.9005914 -1.8948137
4.5949035 3.8730881 -1.8951203
4.6105342 3.8381245 -1.8917466
4.6428218 3.8170142 -1.895427
4.6572866 3.7812572 -1.8917466
4.6893129 3.7597523 -1.895427
4.7137866 3.7320898 -1.8960404
4.7395973 3.7054408 -1.8972671
4.7645049 3.6780338 -1.8981873
4.7786551 3.6423848 -1.8948137
4.8069992 3.6175723 -1.8972671
4.8268137 3.5863066 -1.896347
4.8494954 3.5571852 -1.8966538
4.8588943 3.5184329 -1.8917466
4.8982034 3.5012798 -1.8988006
4.9273729 3.476645 -1.9018675
4.9486122 3.4463458 -1.9018675
4.9539757 3.4051368 -1.8957337
4.9818664 3.3794832 -1.8984939
5.0072546 3.3520277 -1.9003341
5.0301108 3.322814 -1.9012542
5.0448222 3.28825 -1.8991073
5.0536947 3.2500281 -1.8948137
5.0912247 3.2301729 -1.9015609
5.1028795 3.1938248 -1.8984939
5.1321006 3.1684523 -1.9021742
5.1392493 3.1294794 -1.8975738
5.1771245 3.1091537 -1.9046278
5.1854568 3.0710258 -1.9006407
5.2025585 3.0381911 -1.9000274
5.2277021 3.0100098 -1.902481
5.2526956 2.9816341 -1.9049344
5.2767062 2.9526005 -1.9070814
5.2997251 2.9229245 -1.9089215
5.3209057 2.8921685 -1.9101483
5.3444252 2.8626103 -1.9122951
5.3223219 2.8088915 -1.8978806
5.3428349 2.7779372 -1.8991073
5.372488 2.7516077 -1.9037077
5.3858709 2.716877 -1.902481
5.4527378 2.7087531 -1.9205757
5.4153852 2.6489072 -1.9012542
5.4435439 2.6214085 -1.9055479
5.4707079 2.593256 -1.9095348
5.4908299 2.5616508 -1.9110683
5.5168257 2.5326748 -1.9147487
5.5305271 2.4979932 -1.9141352
5.5527096 2.4671021 -1.9165888
5.572104 2.4348896 -1.9181222
5.5878139 2.4010296 -1.9184289
5.6006875 2.3659577 -1.9178156
5.615099 2.331548 -1.9178156
5.6284184 2.2966909 -1.9175088
5.6432881 2.2624664 -1.9178156
5.6579499 2.2281458 -1.9181222
5.6679635 2.1920149 -1.9168955
5.6893158 2.1602349 -1.9196557
5.7051396 2.126282 -1.9205757
5.7288065 2.0951569 -1.9242561
5.7487216 2.0625362 -1.9267097
5.762167 2.0275397 -1.9270163
5.7780986 1.9933865 -1.928243
5.7902207 1.9578952 -1.928243
5.7958002 1.920236 -1.9260962
5.79842 1.8817012 -1.9230293
5.8053207 1.844647 -1.9214958
5.8192568 1.809839 -1.922416
5.8266096 1.7729911 -1.9211892
5.8410282 1.7382915 -1.922416
5.8570681 1.7040132 -1.9242561
5.867413 1.6680428 -1.9242561
5.8775377 1.6320096 -1.9242561
5.8865223 1.5956662 -1.9239494
5.8925214 1.5585443 -1.9227226
5.8927565 1.5199836 -1.9196557
5.9019723 1.4837977 -1.9196557
5.9137392 1.4482347 -1.9205757
5.9243655 1.4123625 -1.9211892
5.9468288 1.3792076 -1.9257895
5.9486799 1.3412284 -1.9236426
5.9577274 1.3049062 -1.9239494
5.9833117 1.2720832 -1.9297765
5.9835463 1.2338099 -1.927323
5.9919376 1.1972587 -1.9276297
6.0113196 1.162818 -1.9316167
6.0136638 1.1250371 -1.9300833
6.0138969 1.086933 -1.9279364
6.020453 1.050012 -1.9279364
6.0136409 1.0108449 -1.9236426
6.0234885 0.97453427 -1.9248694
6.0284142 0.93741041 -1.9245628
6.0359354 0.9006837 -1.9251761
6.0470018 0.86443806 -1.9270163
6.0606799 0.82847667 -1.9297765
6.0684805 0.79164231 -1.9306966
6.0675564 0.75368899 -1.9288565
6.0777383 0.71711308 -1.9306966
6.0886455 0.6805461 -1.9328434
6.0983863 0.64377254 -1.9346836
6.0927496 0.60540211 -1.9316167
6.1001406 0.56835878 -1.9328434
6.0968757 0.53034216 -1.9306966
6.1038098 0.49322841 -1.9319234
6.1143146 0.45633215 -1.934377
6.1207981 0.41906616 -1.9356037
6.122304 0.38144276 -1.935297
6.1159763 0.34339124 -1.9325367
6.1208205 0.30599988 -1.9334568
6.1187792 0.26827142 -1.9322301
6.1127009 0.23043683 -1.9297765
6.1225619 0.19319423 -1.9325367
6.1141167 0.15538324 -1.9294698
6.1273265 0.11810093 -1.9334568
6.1260324 0.080477484 -1.9328434
6.1435428 0.043004051 -1.9383639
6.139884 0.0053045973 -1.9371371
6.1512222 -0.03243148 -1.9408175
6.1509075 -0.070174061 -1.9408175
6.1541677 -0.1079815 -1.9420443
6.1667109 -0.14605874 -1.9463379
6.1656985 -0.18389422 -1.9463379
6.1635032 -0.22168839 -1.9460312
6.1677327 -0.25974411 -1.9478713
6.1660228 -0.29758373 -1.9478713
6.1659813 -0.33551592 -1.9484848
6.1524062 -0.37265065 -1.9448044
6.1689973 -0.41166514 -1.9509383
6.1464205 -0.4480527 -1.9444977
6.1549416 -0.48666042 -1.9481781
6.1508913 -0.52433622 -1.9478713
6.1342883 -0.56085181 -1.9435776
6.1487303 -0.60024095 -1.9494048
6.155345 -0.63904065 -1.9527785
6.1598229 -0.67773551 -1.9555386
6.1697297 -0.71716982 -1.960139
6.172771 -0.75594008 -1.9625926
6.1548004 -0.79209793 -1.9582989
6.1734052 -0.83303457 -1.9659662
6.1766596 -0.87209737 -1.9687264
6.1165795 -0.90191692 -1.9509383
6.1419744 -0.94420886 -1.9610591
6.1219678 -0.97961903 -1.9564588
6.1083307 -1.0159136 -1.9540052
6.1029201 -1.0535367 -1.9543118
6.0635495 -1.0850892 -1.9435776
6.0024981 -1.112206 -1.9257895
0 -0 -0
5.7232423 -1.1332259 -1.838689
5.6042824 -1.1454278 -1.8018858
5.524507 -1.1644664 -1.7779639
0 -0 -0
5.3983426 -1.2072232 -1.7411609
5.346312 -1.2300708 -1.7264396
5.2942061 -1.2523258 -1.7117183
5.246654 -1.2751129 -1.6985306
5.252583 -1.3107414 -1.703131
5.2997622 -1.3571244 -1.7215325
5.2913351 -1.3896177 -1.7215325
5.2891426 -1.4237918 -1.7236794
5.277554 -1.4554588 -1.7227592
5.2749357 -1.4896259 -1.7249061
5.2565532 -1.5193195 -1.7218392
5.2170129 -1.5426317 -1.7117183
5.1901402 -1.5693758 -1.7058913
5.1704106 -1.5980984 -1.7025176
5.1605077 -1.6297934 -1.7025176
5.1377292 -1.6573334 -1.6982239
5.1482549 -1.6956795 -1.7052778
5.0881362 -1.7105446 -1.6884098
5.113555 -1.7540935 -1.7006774
5.0721521 -1.7747422 -1.6902499
5.0566854 -1.8042308 -1.6887164
5.031209 -1.8300153 -1.6838094
5.0020375 -1.8542314 -1.6776755
5.0092635 -1.8919547 -1.6841161
4.9948955 -1.9216295 -1.6831959
4.9697185 -1.9470305 -1.6785957
4.9550261 -1.976429 -1.6776755
4.9383965 -2.0050042 -1.6761421
4.9339175 -2.0385406 -1.6789023
4.9204392 -2.0684071 -1.6785957
4.9024043 -2.096313 -1.6767554
4.8911948 -2.1271136 -1.6773689
4.8632541 -2.1505382 -1.672155
4.849967 -2.1803381 -1.672155
4.8546758 -2.2183673 -1.6785957
4.8228459 -2.2396905 -1.672155
4.8012662 -2.2655835 -1.6693949
4.8035803 -2.3028221 -1.675222
4.7859373 -2.3305852 -1.6739953
4.774106 -2.3611739 -1.6749153
4.7357154 -2.3784564 -1.666328
4.7235756 -2.4087672 -1.667248
4.6977201 -2.4320142 -1.6632611
4.6793389 -2.4590211 -1.6620343
4.6650023 -2.4881349 -1.6623409
4.6622019 -2.5235107 -1.6669413
4.6416254 -2.5493197 -1.6651012
4.6200762 -2.5745077 -1.6629543
4.6340175 -2.6196766 -1.6739953
4.598042 -2.6366932 -1.6666346
4.601521 -2.6763458 -1.6739953
4.5833731 -2.7035625 -1.6733818
4.5920167 -2.7467866 -1.6828893
4.5718217 -2.7729359 -1.6816626
4.5587745 -2.8034296 -1.6831959
4.5366416 -2.8283267 -1.6813558
4.4918494 -2.8388147 -1.6709284
4.4847636 -2.8729997 -1.6749153
4.4590688 -2.8952785 -1.6718484
4.4412198 -2.9225843 -1.6718484
4.4334965 -2.9566476 -1.6758354
4.4121175 -2.9816628 -1.6746086
4.4086585 -3.0188997 -1.6804358
4.3572121 -3.0230987 -1.6675547
4.3292379 -3.0432067 -1.6638744
4.3089333 -3.0686085 -1.6632611
4.2776752 -3.0860772 -1.6583539
4.2640371 -3.1161988 -1.6605008
4.2394819 -3.1383383 -1.6583539
4.2239528 -3.1671481 -1.6598874
4.2180815 -3.2033708 -1.6654079
4.1870317 -3.2204854 -1.6608075
4.1701956 -3.2484562 -1.6620343
4.156909 -3.27929 -1.6647944
4.1448884 -3.3112712 -1.6681681
4.1207933 -3.3336475 -1.6666346
4.0862737 -3.3474064 -1.6608075
4.071517 -3.3772788 -1.6632611
4.0580049 -3.4083207 -1.666328
4.0391903 -3.4350064 -1.667248
4.0173163 -3.4591045 -1.6669413
3.998168 -3.4855659 -1.6678613
3.9809866 -3.5138128 -1.6697016
3.9607704 -3.5394423 -1.6703149
3.9347441 -3.5598462 -1.6684748
3.9051082 -3.5768487 -1.6651012
3.8970432 -3.6136894 -1.671235
2.3956158 -2.248323 -1.0173672
2.3817751 -2.2629797 -1.0173672
2.3671594 -2.2768915 -1.0170605
3.8010499 -3.702261 -1.6684748
3.7633545 -3.7108085 -1.6617275
3.7337797 -3.7271044 -1.6586607
3.6961148 -3.7350571 -1.6519134
3.6777835 -3.7624311 -1.6540602
3.6513236 -3.7815025 -1.6525267
3.6326494 -3.8086576 -1.6546736
3.6294401 -3.852356 -1.6641811
3.5934169 -3.8613122 -1.6583539
3.5657928 -3.8790829 -1.6565138
3.5489604 -3.9086421 -1.6598874
3.5077567 -3.9112091 -1.6516067
3.479275 -3.9276702 -1.6494598
3.4544833 -3.9482284 -1.6491531
3.4227262 -3.9607067 -1.6454729
3.3977416 -3.9809096 -1.6451662
3.3677316 -3.995132 -1.642406
3.3687248 -4.0464492 -1.655287
3.3371854 -4.0589542 -1.6519134
3.2990217 -4.0630956 -1.6451662
3.2728386 -4.0817757 -1.6445528
3.2435968 -4.0965562 -1.642406
2.0005045 -2.5579672 -1.0050995
1.9824455 -2.5671797 -1.0038728
1.9649256 -2.5770242 -1.0029527
1.947932 -2.5875111 -1.0023394
1.9325862 -2.6001787 -1.002646
1.917721 -2.613523 -1.0032594
1.7799852 -2.4571576 -0.93640047
1.6547587 -2.313921 -0.87536871
1.6635702 -2.356699 -0.88824981
0 -0 -0
3.0186744 -4.3914986 -1.6758354
2.9884667 -4.4052114 -1.6739953
2.9698501 -4.4361224 -1.6789023
2.9326098 -4.4391704 -1.6730752
2.9068749 -4.4594731 -1.6739953
2.8825455 -4.4820294 -1.6758354
2.8463242 -4.4859676 -1.6706216
2.8182404 -4.5025411 -1.6703149
2.7855618 -4.5116487 -1.667248
2.7538674 -4.522151 -1.6647944
2.726068 -4.5389633 -1.6647944
2.6952569 -4.5506907 -1.6629543
2.6600864 -4.5548124 -1.6583539
2.6278155 -4.5636244 -1.6555938
2.5992944 -4.5788345 -1.655287
2.5660396 -4.5855594 -1.6519134
2.5341787 -4.5945497 -1.6494598
2.5027585 -4.6041584 -1.647313
2.46907 -4.6093588 -1.6436327
2.4829295 -4.7043986 -1.6727685
2.4570897 -4.7254567 -1.6749153
2.4237113 -4.7319717 -1.6718484
2.3882029 -4.7340059 -1.667248
2.359534 -4.749423 -1.6675547
2.3219864 -4.7467098 -1.6614208
1.4890908 -3.0910571 -1.0642911
1.4700965 -3.1001358 -1.0642911
1.4615051 -3.1315262 -1.0722651
2.1984458 -4.7884235 -1.6565138
2.1662819 -4.7957501 -1.654367
2.132952 -4.8002529 -1.6513
2.1015532 -4.8088889 -1.6497666
2.0761385 -4.8313136 -1.6531402
2.0471954 -4.845715 -1.6537535
2.0188835 -4.861702 -1.6549803
1.9922495 -4.8819299 -1.6577406
1.960133 -4.888761 -1.6559004
1.9416027 -4.9299235 -1.6660212
1.9147483 -4.9506221 -1.6690881
1.8823096 -4.9569383 -1.667248
1.8495333 -4.9621511 -1.6651012
1.8125163 -4.9555268 -1.6589673
1.7778993 -4.9549074 -1.6549803
1.7490418 -4.9702129 -1.6565138
1.7191327 -4.9826508 -1.6571271
1.6885273 -4.9931054 -1.6571271
1.6578585 -5.0033722 -1.6571271
1.6253654 -5.008018 -1.655287
1.5948943 -5.0188041 -1.6555938
1.5629394 -5.0248599 -1.654367
1.5306935 -5.0298023 -1.6528335
1.500345 -5.0409241 -1.6534469
1.4704491 -5.0536909 -1.6546736
1.4386322 -5.0598717 -1.6537535
1.4052681 -5.0603495 -1.6509933
1.3766804 -5.0780635 -1.6540602
1.34428 -5.0818143 -1.6525267
1.3118855 -5.0853586 -1.6509933
1.2820491 -5.0988512 -1.6528335
1.2500602 -5.103848 -1.6519134
1.2187201 -5.1114221 -1.6519134
0.74858177 -3.2253804 -1.0256479
0.73003215 -3.2354841 -1.0274881
1.1291088 -5.1543746 -1.6589673
0.69047058 -3.2451303 -1.0277947
0.671314 -3.2530348 -1.0290215
0.65264535 -3.2636263 -1.0311683
0.63098252 -3.2591588 -1.0284082
0.60817522 -3.2479994 -1.023501
0.58924907 -3.2572899 -1.0253413
0.57153863 -3.2739718 -1.029635
0.55537915 -3.3008838 -1.0373023
0.54027736 -3.3361764 -1.0477297
0.52374065 -3.3648231 -1.0560105
0.50420702 -3.3755047 -1.0584639
0.48160258 -3.3653433 -1.0541703
0.46313262 -3.3842671 -1.0593841
0.43399823 -3.3228643 -1.038529
0.41008684 -3.2971275 -1.0293282
0.38606235 -3.2674425 -1.0189006
0.36262882 -3.2394798 -1.0090865
0.3499265 -3.3097968 -1.0311683
0.33365053 -3.3526096 -1.0443561
0.31712657 -3.3981888 -1.0584639
0.29618743 -3.3991225 -1.0581573
0.27081266 -3.3449006 -1.0400624
0.25685513 -3.4347734 -1.0685848
0.2351914 -3.4277384 -1.0658246
0.21350569 -3.4186671 -1.062451
0.19130202 -3.3980556 -1.055397
0.1698802 -3.3877578 -1.0517168
0.14726357 -3.3468966 -1.0382223
0.12683165 -3.3505907 -1.0391424
0.1060914 -3.3455977 -1.0373023
