# .PCD v0.7 - Point Cloud Data file format
VERSION 0.7
FIELDS x y z
SIZE 4 4 4
TYPE F F F
COUNT 1 1 1
WIDTH 1579
HEIGHT 1
VIEWPOINT 0 0 0 1 0 0 0
POINTS 1579
DATA ascii
-4.3537807 4.1890984 -1.9055479
-4.3307219 4.2183909 -1.9067746
-4.3006911 4.2408733 -1.9049344
-4.2752619 4.2678547 -1.9052411
-4.2449784 4.289947 -1.903401
-4.2252278 4.3227205 -1.9064679
-4.1893706 4.3389769 -1.9021742
-4.1692362 4.3714895 -1.9052411
-4.1416821 4.3962965 -1.9049344
-4.1074977 4.4139605 -1.9015609
-4.0880647 4.4474912 -1.9052411
-4.0543017 4.4654431 -1.9021742
-4.0306382 4.4944882 -1.9040143
-4.0029845 4.519135 -1.9040143
-3.9808197 4.5500598 -1.9067746
-3.9434934 4.5635958 -1.9021742
-3.9191239 4.592051 -1.9040143
-3.8963935 4.6225629 -1.9067746
-3.8636949 4.6412625 -1.9046278
-3.8339353 4.6634116 -1.9040143
-3.7974515 4.6772408 -1.9000274
-3.7692764 4.7011962 -1.9003341
-3.7444942 4.7294598 -1.902481
-3.7136459 4.7500968 -1.9015609
-3.6861744 4.7750545 -1.902481
-3.6608438 4.8028822 -1.9046278
-3.6261551 4.8184085 -1.9018675
-3.5885766 4.8298702 -1.8975738
-3.5509942 4.8410521 -1.8932801
-3.5323851 4.87817 -1.8994139
-3.4874463 4.8788428 -1.8911333
-3.4585419 4.9017048 -1.8917466
-3.4289441 4.923615 -1.8920534
-3.3986688 4.944562 -1.8920534
-3.3800175 4.9826541 -1.8988006
-3.3366768 4.9843144 -1.89144
-3.3070798 5.0062828 -1.8920534
-3.279417 5.0312653 -1.8938936
-3.2505429 5.0544953 -1.8951203
-3.2189581 5.0735412 -1.8948137
-3.1968536 5.1077213 -1.9003341
-3.1624539 5.1223807 -1.8984939
-3.1299741 5.1400628 -1.8978806
-3.095927 5.1550908 -1.896347
-3.0627832 5.1715326 -1.895427
-3.0300338 5.1885843 -1.8948137
-2.9971907 5.2054286 -1.8942002
-2.9633157 5.2204099 -1.8929734
-2.9293694 5.2351713 -1.8917466
-2.8999491 5.2580481 -1.8935869
-2.8708124 5.2815971 -1.8957337
-2.8419452 5.3058257 -1.8981873
-2.805783 5.3164287 -1.8957337
-2.7779372 5.3428349 -1.8991073
-2.7429333 5.3555431 -1.8975738
-2.707021 5.3663235 -1.895427
-2.6744661 5.3836851 -1.8957337
-2.6413822 5.3999939 -1.8957337
-2.6069603 5.4135265 -1.8948137
-2.5773623 5.4371619 -1.8975738
-2.5487788 5.4632258 -1.9012542
-2.5072703 5.4614601 -1.8951203
-2.4705791 5.4698014 -1.8926668
-2.4381294 5.4874673 -1.8935869
-2.4036512 5.5005798 -1.8929734
-2.3732355 5.5230961 -1.8957337
-2.3370802 5.5322928 -1.8938936
-2.3009017 5.541254 -1.8920534
-2.2643418 5.5490985 -1.8899065
-2.2408712 5.5893931 -1.8991073
-2.1971211 5.5791245 -1.8908266
-2.160445 5.5862861 -1.8886797
-2.1251144 5.5967674 -1.8877597
-2.087743 5.6016741 -1.8849995
-2.060848 5.6349401 -1.8920534
-2.0262337 5.6474791 -1.8920534
-1.9905961 5.6571116 -1.8911333
-1.9493321 5.6503229 -1.8846928
-1.9234624 5.6883273 -1.8935869
-1.8831382 5.6837583 -1.8880664
-1.8494023 5.6988273 -1.8892932
-1.8126718 5.7046247 -1.887453
-1.7753748 5.7083683 -1.8849995
-1.7408693 5.7209759 -1.8856128
-1.7076325 5.737936 -1.8877597
-1.6737216 5.7528758 -1.8892932
-1.6383911 5.7630372 -1.8892932
-1.6022356 5.7702303 -1.8883731
-1.5663022 5.7781153 -1.8877597
-1.5308188 5.7876172 -1.8877597
-1.4962281 5.8005877 -1.8889865
-1.4615358 5.8133516 -1.8902133
-1.4215399 5.8046441 -1.8843861
-1.3878815 5.8215904 -1.8871464
-1.3523496 5.830924 -1.887453
-1.3178012 5.8446832 -1.8892932
-1.2815073 5.8507996 -1.8886797
-1.2428147 5.8455181 -1.8843861
-1.2084602 5.8604918 -1.8868396
-1.1773224 5.8920646 -1.8948137
-1.1415085 5.9010468 -1.895427
-1.1059783 5.9116821 -1.8966538
-1.0727279 5.9352169 -1.9021742
-1.0310625 5.9116812 -1.8923601
-0.99587291 5.9244671 -1.8945069
-0.95935047 5.9295268 -1.8942002
-0.9182753 5.9052043 -1.8843861
-0.88468999 5.9286146 -1.8902133
-0.84668183 5.9226241 -1.8865329
-0.81019658 5.926765 -1.8862263
-0.77467602 5.9382315 -1.8883731
-0.73693645 5.9324827 -1.8849995
-0.70219183 5.9510717 -1.8895998
-0.66545242 5.9533763 -1.8889865
-0.62821245 5.9507217 -1.8868396
-0.59178168 5.9554114 -1.8871464
-0.55452383 5.9513483 -1.8846928
-0.51840812 5.9593801 -1.8862263
-0.48267362 5.9728851 -1.8895998
-0.44502634 5.9624457 -1.8853061
-0.4092111 5.976459 -1.8889865
-0.37259156 5.9798074 -1.8892932
-0.33594629 5.9829316 -1.8895998
-0.29851922 5.9706206 -1.8849995
-0.26196158 5.9742417 -1.8856128
-0.22551344 5.9814434 -1.887453
-0.18833032 5.9674931 -1.8825459
-0.15211897 5.9847121 -1.8877597
-0.115885 6.0112271 -1.8960404
-0.078517996 5.9747076 -1.8840793
-0.041849919 5.9741249 -1.8837727
-0.0051887273 5.9685583 -1.8819325
0.031485721 5.9779959 -1.8849995
0.068021946 5.9653172 -1.8810124
0.10496069 5.9838209 -1.8871464
0.14176561 5.9868703 -1.8883731
0.17795518 5.9678116 -1.8825459
0.21436329 5.9609003 -1.8807058
0.25069329 5.9537668 -1.8788656
0.28717414 5.9511662 -1.8785589
0.32404765 5.9559445 -1.8807058
0.36099061 5.9604945 -1.8828527
0.39755672 5.9581676 -1.8828527
0.43431598 5.9584637 -1.8837727
0.47094345 5.9566355 -1.8840793
0.50764585 5.9555302 -1.8846928
0.54313672 5.9409294 -1.8810124
0.58050585 5.9469576 -1.8840793
0.61787093 5.9518042 -1.8868396
0.65542161 5.9573617 -1.8899065
0.68789023 5.9182472 -1.8785589
0.72372746 5.9101362 -1.8773322
0.7598561 5.9046402 -1.8770255
0.79543471 5.8951507 -1.875492
0.83279085 5.8986406 -1.8782523
0.8692466 5.8953032 -1.8788656
0.90627193 5.895503 -1.8807058
0.94077277 5.8794932 -1.8773322
0.97589296 5.8679767 -1.875492
1.0109073 5.8562508 -1.8736519
1.0469893 5.8508744 -1.8739586
1.0851265 5.8565063 -1.8779455
1.1203237 5.8459988 -1.8767188
1.1587638 5.8520856 -1.8810124
1.1948404 5.845798 -1.8813192
1.2297046 5.8336997 -1.8797857
1.2666897 5.831625 -1.8816259
1.3030717 5.8265295 -1.8825459
1.3392253 5.8202796 -1.8831593
1.3753513 5.8138051 -1.8837727
1.4094234 5.7987828 -1.8816259
1.4470533 5.7983365 -1.8843861
1.4828403 5.7902703 -1.8846928
1.5188248 5.7829037 -1.8853061
1.5542794 5.7734756 -1.8853061
1.5906885 5.7674999 -1.8865329
1.6276004 5.7631269 -1.8883731
1.6631962 5.7539458 -1.8886797
1.6968499 5.7381563 -1.8868396
1.7303725 5.7221704 -1.8849995
1.766013 5.713264 -1.8856128
1.8001752 5.6995978 -1.8846928
1.8359907 5.6911621 -1.8856128
1.87326 5.6870213 -1.8880664
1.9066021 5.6709094 -1.8865329
1.9425985 5.6627049 -1.8877597
1.9798239 5.6578655 -1.8902133
2.0087419 5.6294761 -1.8846928
2.0478034 5.6295667 -1.8889865
2.0816453 5.6151109 -1.8883731
2.117069 5.6049032 -1.8892932
2.1500525 5.5882545 -1.8880664
2.1843009 5.5749569 -1.8880664
2.2174087 5.5587974 -1.8871464
2.2507584 5.5433235 -1.8865329
2.2843657 5.5285292 -1.8862263
2.317507 5.5126538 -1.8856128
2.3512883 5.4983296 -1.8856128
2.3849812 5.483799 -1.8856128
2.4181993 5.4681916 -1.8853061
2.4513154 5.4523826 -1.8849995
2.4855161 5.4389706 -1.8856128
2.5168366 5.419301 -1.8840793
2.5520735 5.4080596 -1.8856128
2.5843854 5.3905821 -1.8849995
2.6174126 5.3746233 -1.8849995
2.6562514 5.3704052 -1.8892932
2.6870167 5.3497534 -1.8877597
2.7180614 5.3297739 -1.8865329
2.7493997 5.3104606 -1.8856128
2.7752881 5.2808537 -1.8810124
2.8080866 5.264565 -1.8813192
2.8376169 5.2422142 -1.8794791
2.8711045 5.2272067 -1.8803991
2.9059048 5.2144794 -1.8822392
2.9387827 5.1982079 -1.8828527
2.9682548 5.1759501 -1.8813192
3.0037875 5.1642213 -1.8837727
3.035418 5.1456928 -1.8837727
3.0679119 5.1286044 -1.8843861
3.1062355 5.1210756 -1.8886797
3.1336093 5.0954342 -1.8862263
3.1683414 5.0817642 -1.8883731
3.197937 5.0598145 -1.887453
3.2289231 5.0400972 -1.887453
3.2597878 5.0201898 -1.887453
3.2910531 5.0008888 -1.8877597
3.3237891 4.983768 -1.8889865
3.3516407 4.9593372 -1.887453
3.3836215 4.9410343 -1.8883731
3.4100761 4.9147067 -1.8862263
3.4423583 4.8968043 -1.887453
3.4701304 4.8724895 -1.8862263
3.498848 4.8495622 -1.8856128
3.5319092 4.832612 -1.887453
3.5648937 4.8154392 -1.8892932
3.5926602 4.7911906 -1.8883731
3.6225667 4.769814 -1.8886797
3.6546679 4.7512684 -1.8902133
3.6843371 4.7295051 -1.89052
3.7091599 4.7015791 -1.8883731
3.7355614 4.6757579 -1.8871464
3.7617857 4.6497893 -1.8859196
3.7884357 4.6244116 -1.8849995
3.8216019 4.6069384 -1.887453
3.854696 4.5892324 -1.8899065
3.8784649 4.5604196 -1.8877597
3.9007833 4.5300455 -1.8849995
3.92788 4.5053082 -1.8846928
3.9573402 4.483263 -1.8856128
3.9879465 4.4624448 -1.8871464
4.0171685 4.4400082 -1.8880664
4.0539818 4.4258018 -1.8926668
4.0849457 4.4050303 -1.8945069
4.1034269 4.3708634 -1.89052
4.1216426 4.3366356 -1.8865329
4.1521344 4.3153787 -1.8883731
4.1791992 4.2905021 -1.8886797
4.2067838 4.2661333 -1.8892932
4.2342262 4.2415876 -1.8899065
4.2615256 4.216866 -1.89052
4.2975316 4.2006159 -1.8951203
4.3266492 4.1774726 -1.8966538
4.3473783 4.1462488 -1.8945069
4.3665009 4.1136227 -1.8917466
4.3909626 4.0861049 -1.89144
4.4173536 4.0603733 -1.8920534
4.4506421 4.0408688 -1.8957337
4.4675565 4.0064955 -1.8923601
4.5041704 3.9897339 -1.8975738
4.5328646 3.9657815 -1.8994139
4.5556726 3.9366493 -1.8988006
4.5956717 3.9222126 -1.9055479
4.6043658 3.8810611 -1.8991073
4.6368728 3.8600419 -1.9027876
4.6487045 3.8218489 -1.8978806
4.6735454 3.7944527 -1.8984939
4.6945119 3.7639191 -1.8975738
4.7212501 3.7379966 -1.8991073
4.7298479 3.6978216 -1.8932801
4.7584767 3.6733818 -1.8957337
4.7778978 3.641808 -1.8945069
4.8031964 3.6147115 -1.8957337
4.8107672 3.574389 -1.8899065
4.8587065 3.5639389 -1.9003341
4.8704596 3.5268042 -1.896347
4.8834891 3.4907663 -1.8929734
4.9118166 3.4656734 -1.8957337
4.9306455 3.4338384 -1.8948137
4.9531913 3.4045978 -1.895427
4.9763517 3.3757441 -1.896347
5.0017176 3.3483222 -1.8981873
5.0229626 3.3180938 -1.8984939
5.0408349 3.2856522 -1.8975738
5.0633025 3.2562044 -1.8984939
5.0831866 3.2250752 -1.8984939
5.1044936 3.1948342 -1.8991073
5.1215706 3.1619539 -1.8981873
5.1416888 3.130964 -1.8984939
5.1787567 3.1101336 -1.9052411
5.1846375 3.0705409 -1.9003341
5.2083125 3.0415499 -1.9021742
5.2244024 3.0081105 -1.9012542
5.2518678 2.9811645 -1.9046278
5.2733836 2.950742 -1.9058546
5.3097277 2.9284387 -1.9126017
5.3443232 2.9048915 -1.9187356
5.3167343 2.8477852 -1.9021742
5.3383174 2.8173292 -1.9037077
5.3504362 2.7818875 -1.9018675
5.3809605 2.755945 -1.9067746
5.3994694 2.7237332 -1.907388
5.4416552 2.7032504 -1.9165888
5.4350524 2.6585226 -1.908308
5.4521198 2.6255364 -1.9086148
5.4793096 2.5973313 -1.9126017
5.4942803 2.5632598 -1.9122951
5.5021191 2.5259268 -1.9095348
5.5287919 2.49721 -1.9135219
5.5448804 2.4636252 -1.9138285
5.5651259 2.4318419 -1.9156687
5.5799427 2.397649 -1.9156687
5.6077023 2.3689194 -1.9202691
5.6194949 2.3333721 -1.919349
5.6372313 2.3002853 -1.9205757
5.6556573 2.2674229 -1.9221092
5.6703491 2.2330263 -1.922416
5.678617 2.1961327 -1.9205757
5.696435 2.1629364 -1.9221092
5.7087073 2.1276109 -1.9218025
5.7225485 2.0928695 -1.9221092
5.7334905 2.0570748 -1.9214958
5.7451067 2.0215404 -1.9211892
5.7421055 1.9809768 -1.9159753
5.7622676 1.948449 -1.9187356
5.7605615 1.9085681 -1.9141352
5.7721634 1.873186 -1.9141352
5.7935276 1.8409022 -1.9175088
5.8110766 1.8072965 -1.9196557
5.8138609 1.7691143 -1.9168955
5.83008 1.7350357 -1.9187356
5.851584 1.7024189 -1.922416
5.8518486 1.6636211 -1.9190423
5.8619461 1.6276835 -1.9190423
5.8736606 1.5921823 -1.9196557
5.8704362 1.5527073 -1.915362
5.8918347 1.5197461 -1.919349
5.9093571 1.4856528 -1.9221092
5.9155879 1.4486871 -1.9211892
5.9401059 1.4161118 -1.9264029
5.9523921 1.3804967 -1.9276297
5.9533224 1.3422742 -1.9251761
5.9530783 1.3038888 -1.922416
5.9609666 1.2673368 -1.922416
5.9732919 1.2316974 -1.9239494
5.9807367 1.1950228 -1.9239494
5.9926295 1.1592062 -1.9254829
6.0052433 1.1234634 -1.927323
6.0026569 1.0849037 -1.9242561
6.0260792 1.0509921 -1.9297765
6.0324144 1.013997 -1.9297765
6.0573149 0.98000044 -1.9359103
6.0538087 0.94135433 -1.9328434
6.0660605 0.90517318 -1.9349903
6.0667892 0.8672629 -1.9334568
6.0795412 0.83105135 -1.9359103
6.0637612 0.79102755 -1.9291631
6.0628333 0.7531032 -1.927323
6.0635591 0.71544278 -1.9260962
6.0631051 0.67769629 -1.9245628
6.0690427 0.64068049 -1.9251761
6.0690708 0.60305375 -1.9239494
6.1010885 0.56844687 -1.9331502
6.1054096 0.53108293 -1.9334568
6.1142459 0.49406976 -1.935297
6.110518 0.4560495 -1.9331502
6.1113019 0.41841781 -1.9325367
6.1166043 0.38108873 -1.9334568
6.120728 0.34365714 -1.9340702
6.1293759 0.30642599 -1.9362171
6.139699 0.26918468 -1.9389772
6.147893 0.23175688 -1.9411242
6.14254 0.19382086 -1.9389772
6.140759 0.1560553 -1.9380572
6.1330361 0.11820991 -1.935297
6.1384048 0.080637693 -1.9368304
6.1416392 0.042991083 -1.9377506
6.1408358 0.0053052409 -1.9374439
6.1493187 -0.032421086 -1.940204
6.1509075 -0.070174061 -1.9408175
6.1494098 -0.10789713 -1.9405107
6.1467285 -0.14558172 -1.9398974
6.1466713 -0.18332316 -1.940204
6.1349673 -0.22065668 -1.9368304
6.139204 -0.25853732 -1.9386706
6.1470089 -0.29666251 -1.9417375
6.1327176 -0.33369967 -1.9377506
6.1533561 -0.37270838 -1.9451112
6.1490541 -0.41033056 -1.9444977
6.1559134 -0.44874647 -1.9475647
6.1577883 -0.48688602 -1.9490981
6.1632199 -0.52538949 -1.9518584
6.1570368 -0.56293595 -1.9509383
6.1951475 -0.60478091 -1.9644327
6.1913199 -0.64278227 -1.9644327
6.1513081 -0.67679709 -1.9527785
6.1839113 -0.71882093 -1.9647394
6.1595449 -0.75431782 -1.9582989
6.1614084 -0.79294956 -1.9604458
6.1611433 -0.83137763 -1.9619793
6.1521564 -0.86863309 -1.9607525
6.136353 -0.90483636 -1.9573789
6.1400928 -0.9439193 -1.9604458
6.1106896 -0.97781223 -1.9527785
6.0876751 -1.0124744 -1.947258
6.0691552 -1.0477015 -1.943271
6.069171 -1.0860962 -1.9454179
6.0118566 -1.1139419 -1.9288565
0 -0 -0
5.7008348 -1.1287845 -1.8313284
5.5921597 -1.1429477 -1.7978989
5.4993615 -1.1591609 -1.7696832
0 -0 -0
5.3881254 -1.2049361 -1.7377872
5.3435292 -1.22943 -1.7255195
5.3025417 -1.2542994 -1.7144786
5.2559028 -1.2773626 -1.7015976
5.2849035 -1.318814 -1.7138652
5.3071384 -1.359015 -1.723986
5.3033023 -1.3927631 -1.7255195
5.2845473 -1.4225538 -1.7221459
5.2665439 -1.45242 -1.719079
5.2593651 -1.4852252 -1.7196923
5.2492385 -1.5172037 -1.7193856
5.2480445 -1.5518146 -1.7221459
5.2147374 -1.5768191 -1.7141719
5.1904154 -1.6042862 -1.7092649
5.1468945 -1.6254908 -1.6979172
5.1214252 -1.6520702 -1.6927035
5.1220393 -1.6870389 -1.6963837
5.1088853 -1.7175249 -1.6954637
5.1000509 -1.7494582 -1.6960771
5.0649657 -1.772226 -1.6877964
5.1006083 -1.8199131 -1.7037444
5.0535693 -1.838154 -1.6914767
5.0109615 -1.8575416 -1.6807425
5.00036 -1.8885897 -1.6810491
4.9931188 -1.9209456 -1.6825826
4.9830108 -1.9522414 -1.6831959
4.9647498 -1.9803101 -1.6810491
4.9410419 -2.0060787 -1.6770622
4.9400749 -2.0410862 -1.6810491
4.9178071 -2.0673001 -1.6776755
4.9024043 -2.096313 -1.6767554
4.876358 -2.1206574 -1.672155
4.8658652 -2.1516936 -1.6730752
4.8603835 -2.1850235 -1.6758354
4.8339005 -2.2088687 -1.671235
4.8098984 -2.2336743 -1.6675547
4.7969627 -2.2635517 -1.6678613
4.7829838 -2.2929428 -1.6678613
4.7688241 -2.3222473 -1.6678613
4.7570448 -2.352731 -1.6687815
4.7348647 -2.3780291 -1.6660212
4.7210321 -2.4074695 -1.666328
4.7171583 -2.4420829 -1.6703149
4.6843939 -2.461679 -1.6638744
4.6633229 -2.4872386 -1.6617275
4.6538324 -2.5189784 -1.6638744
4.6474643 -2.5525284 -1.667248
4.6184134 -2.5735807 -1.6623409
4.605021 -2.6032763 -1.6632611
4.5914373 -2.6329041 -1.6641811
4.5793095 -2.6634204 -1.6657145
4.5669789 -2.6938872 -1.667248
4.5675149 -2.7321234 -1.6736885
4.5669394 -2.7699733 -1.6798223
4.5433717 -2.7939532 -1.6773689
4.5285654 -2.8232894 -1.6782889
4.4950671 -2.8408496 -1.672155
4.4871678 -2.8745406 -1.6758354
4.4726381 -2.904093 -1.6770622
4.4682493 -2.9403796 -1.6822759
4.444581 -2.9640431 -1.6801291
4.4152713 -2.9837954 -1.6758354
4.4086585 -3.0188997 -1.6804358
4.3447018 -3.0144148 -1.6626476
4.3152237 -3.0333512 -1.6583539
4.2880034 -3.0536964 -1.6549803
4.2853928 -3.0916476 -1.6614208
4.257122 -3.1111429 -1.6577406
4.2593689 -3.1530669 -1.666328
4.2399421 -3.1791425 -1.666328
4.2089872 -3.1964612 -1.6617275
4.1892948 -3.2222269 -1.6617275
4.180706 -3.2566473 -1.666328
4.1591506 -3.281059 -1.6657145
4.1478624 -3.3136482 -1.6693949
4.1318913 -3.3426294 -1.671235
4.1149845 -3.3709359 -1.6727685
4.0861664 -3.3894353 -1.6693949
4.0572762 -3.4077084 -1.6660212
4.0268664 -3.4245212 -1.6620343
4.0101051 -3.4528923 -1.6638744
4.0053411 -3.4918222 -1.6709284
3.9931154 -3.524523 -1.6749153
3.9437404 -3.5242171 -1.6629543
3.9453292 -3.5694268 -1.6730752
3.8917749 -3.5646312 -1.659274
2.4086683 -2.232934 -1.0170605
2.3963096 -2.2489746 -1.017674
2.3872936 -2.2682266 -1.0198208
0 -0 -0
3.7826443 -3.6843259 -1.660194
3.7653873 -3.7128139 -1.6626476
3.7371471 -3.7304673 -1.660194
3.7128484 -3.7519743 -1.6595807
3.6791139 -3.7637928 -1.6546736
3.6546285 -3.7849269 -1.6540602
3.6346197 -3.8107245 -1.6555938
3.6170418 -3.8391905 -1.6583539
3.5921204 -3.8599184 -1.6577406
3.5741646 -3.8881943 -1.6605008
3.543843 -3.9030037 -1.6574339
3.5141101 -3.9182963 -1.6546736
3.4849539 -3.9340837 -1.6522201
3.4526036 -3.946079 -1.6482331
3.4264593 -3.9650285 -1.647313
3.3927996 -3.9751167 -1.6427126
3.3536258 -3.9783907 -1.635352
3.3474162 -4.0208421 -1.6445528
3.325099 -4.0442472 -1.6457795
3.2912245 -4.0534878 -1.6411792
3.2603383 -4.0661788 -1.6381122
3.2430062 -4.0958099 -1.6420993
2.0092957 -2.5692165 -1.0096999
1.9865158 -2.5724545 -1.0060196
1.9666562 -2.5792954 -1.0038728
1.9462155 -2.5852292 -1.0014192
1.9274786 -2.5933015 -0.99988574
1.9143442 -2.6089175 -1.0014192
1.847514 -2.5504515 -0.97351027
1.6746792 -2.3418007 -0.88640964
1.6542442 -2.3434763 -0.88303602
3.0308807 -4.3518023 -1.6675547
3.0175965 -4.3899298 -1.675222
2.9922061 -4.4107261 -1.6761421
2.9407368 -4.3926148 -1.6620343
2.9315608 -4.4375815 -1.6724617
2.8949246 -4.4411311 -1.6669413
2.882031 -4.4812288 -1.6755286
2.8351095 -4.4682841 -1.6638744
2.8227837 -4.5098028 -1.6730752
2.7925596 -4.5229883 -1.6715417
2.7583213 -4.5294685 -1.6675547
2.734396 -4.5528364 -1.6700082
2.7098029 -4.5752621 -1.672155
2.6759207 -4.5819387 -1.6684748
2.6434832 -4.5908475 -1.6657145
2.6091583 -4.5962191 -1.6617275
2.5757964 -4.6030045 -1.6583539
2.5442879 -4.6128879 -1.6562071
2.5145726 -4.6259031 -1.655287
2.4825473 -4.6345325 -1.6528335
2.4638336 -4.6681986 -1.6595807
2.4553339 -4.7220788 -1.6736885
2.417639 -4.7201104 -1.6675547
2.3796325 -4.7170081 -1.6611142
2.3489516 -4.7281108 -1.6598874
2.3240769 -4.7509856 -1.6629543
1.4857885 -3.0841961 -1.0618376
1.4660211 -3.0915344 -1.0612242
1.448231 -3.1030593 -1.0621443
2.2032092 -4.7988043 -1.660194
2.1631489 -4.7888103 -1.6519134
2.1341109 -4.8028626 -1.6522201
2.1023152 -4.8106337 -1.6503799
2.0742605 -4.8269405 -1.6516067
2.0471954 -4.845715 -1.6537535
2.0298285 -4.8880754 -1.6641811
2.0026731 -4.9074883 -1.6666346
1.9689834 -4.9108491 -1.6635677
1.9416027 -4.9299235 -1.6660212
1.9068558 -4.930203 -1.6620343
1.879608 -4.9498191 -1.6647944
1.8468754 -4.9550157 -1.6626476
1.8118628 -4.9537392 -1.6583539
1.780148 -4.9611793 -1.6571271
1.7518836 -4.9782939 -1.659274
1.7175815 -4.9781518 -1.6555938
1.6873085 -4.9894986 -1.6559004
1.655465 -4.9961433 -1.6546736
1.6227227 -4.9998693 -1.6525267
1.5914375 -5.0079179 -1.6519134
1.560397 -5.0166798 -1.6516067
1.5312474 -5.0316234 -1.6534469
1.4998024 -5.0390997 -1.6528335
1.4691205 -5.0491214 -1.6531402
1.438112 -5.0580406 -1.6531402
1.4085764 -5.0722723 -1.6549803
1.3779246 -5.0826573 -1.6555938
1.3467121 -5.0910163 -1.6555938
1.3168741 -5.1047139 -1.6574339
1.2834404 -5.1043897 -1.6546736
1.2509651 -5.1075463 -1.6531402
1.2196023 -5.1151257 -1.6531402
0.75502771 -3.2531977 -1.0348487
1.1544391 -5.119493 -1.6497666
1.1268706 -5.1441464 -1.6555938
0.69304144 -3.2572339 -1.0317818
0.67496282 -3.2707472 -1.0348487
0.65674442 -3.2841611 -1.0379156
0.63296902 -3.2694385 -1.0317818
0.61394531 -3.2788744 -1.0336219
0.59466052 -3.2872632 -1.0351554
0.5720287 -3.2767849 -1.030555
0.55427593 -3.294313 -1.0351554
0.54027736 -3.3361764 -1.0477297
0.52038109 -3.3431909 -1.0489565
0.50182199 -3.3595006 -1.0532502
0.47823966 -3.3417869 -1.0465029
0.45927063 -3.3559752 -1.0501833
0.43387529 -3.3219204 -1.0382223
0.41383564 -3.327354 -1.0391424
0.39040509 -3.3043082 -1.0308617
0.36748412 -3.2829928 -1.0231944
0.35531268 -3.3609114 -1.0477297
0.33355659 -3.3516624 -1.0440495
0.31642163 -3.3906071 -1.0560105
0.2934714 -3.3678305 -1.0480365
0.27295423 -3.3714652 -1.0486498
0.2550886 -3.4110439 -1.0609175
0.23447821 -3.4172928 -1.062451
0.21303362 -3.4110675 -1.0599974
0.19071706 -3.3876019 -1.0520234
0.16992754 -3.3887084 -1.0520234
0.14817683 -3.3678164 -1.0449696
0.1266176 -3.3448837 -1.0373023
0.10621075 -3.3494031 -1.038529
0.085657202 -3.3499918 -1.038529
0.064737163 -3.3314216 -1.0323951
0.044344019 -3.3355629 -1.0336219
0.023883037 -3.336724 -1.0339286
0.0034081908 -3.335856 -1.0336219
-0.017065497 -3.336766 -1.0339286
-0.037627477 -3.3442123 -1.0363821
-0.057842702 -3.3267887 -1.0308617
-0.078572415 -3.3396926 -1.0351554
-0.099091455 -3.3400991 -1.035462
-0.11824284 -3.3023319 -1.023501
-0.13826199 -3.2958384 -1.0216609
-0.15839015 -3.2930267 -1.0210475
-0.17807387 -3.2824888 -1.0179806
-0.19930823 -3.2993855 -1.0238078
-0.21891361 -3.2886035 -1.0207409
-0.23985113 -3.2976406 -1.0241145
-0.26105818 -3.3084416 -1.0281014
-0.28224471 -3.3172092 -1.0314751
-0.30224606 -3.3116238 -1.0302483
-0.323116 -3.3153906 -1.0320884
-0.34355125 -3.3142922 -1.0323951
-0.36096132 -3.2856317 -1.0238078
-0.38023418 -3.2757916 -1.0213542
-0.39916819 -3.2639496 -1.0182873
-0.41541621 -3.2321749 -1.0087799
-0.43677014 -3.2408838 -1.0124601
-0.45691407 -3.2400277 -1.0130736
-0.47984442 -3.2578783 -1.0198208
-0.50228691 -3.2708652 -1.0250345
-0.52264822 -3.2696013 -1.0256479
-0.54926616 -3.3057659 -1.038529
-0.57650948 -3.3426635 -1.0517168
-0.60489732 -3.3830972 -1.0661312
-0.62894237 -3.3971028 -1.0719584
-0.651568 -3.4025276 -1.0750253
-0.66595626 -3.365788 -1.0642911
-0.67934602 -3.3262036 -1.0526369
-0.70603049 -3.3517742 -1.062451
-0.72638106 -3.3464489 -1.0621443
-0.79804778 -3.5704193 -1.1375905
-0.77999544 -3.3920074 -1.0802392
-0.806934 -3.4130912 -1.0888265
-0.82718623 -3.4053013 -1.0879065
-0.85429263 -3.4250946 -1.0961871
-0.86773068 -3.3902841 -1.086373
-0.84762537 -3.2293246 -1.034542
-0.81196076 -3.0181983 -0.9658429
-0.82869208 -3.0067368 -0.96369606
-0.84686661 -3.0006795 -0.9633894
-0.86526251 -2.9954267 -0.9633894
-0.98355705 -3.3277547 -1.0768656
-1.0130546 -3.3517203 -1.0869863
-1.067353 -3.4545577 -1.1237894
-1.0913981 -3.4570189 -1.1268563
-1.150894 -3.5689147 -1.1670331
-1.1361225 -3.4505973 -1.1293099
-1.0689566 -3.1810427 -1.0400624
-1.0819654 -3.1555185 -1.0336219
-1.0909271 -3.1191754 -1.023501
-1.100444 -3.0855312 -1.0143003
-1.1141471 -3.0644104 -1.0093932
-1.1312739 -3.0530546 -1.0078597
-1.1832986 -3.1341996 -1.0382223
-1.5034239 -3.9085507 -1.3081114
-1.4759637 -3.7681026 -1.2627209
-1.5039961 -3.7713513 -1.2670146
-1.9673886 -4.8458056 -1.6439394
-1.4116138 -3.4174824 -1.150165
-1.4111524 -3.3578699 -1.1323768
-1.4126343 -3.3045192 -1.1167355
-1.4438972 -3.3210993 -1.1256295
-1.4530793 -3.2869353 -1.1167355
-1.461897 -3.2527845 -1.1078414
-1.4739127 -3.2264407 -1.1017076
-1.4916766 -3.2130203 -1.1001741
-1.5093313 -3.1995037 -1.0986407
-1.5248183 -3.1816003 -1.0955738
-1.5284693 -3.1396699 -1.0839194
-1.5341967 -3.1029339 -1.0741053
-1.5574807 -3.1019664 -1.0771722
-1.5773499 -3.0940471 -1.0777856
-1.5831717 -3.0589557 -1.0685848
-1.587294 -3.0213828 -1.0584639
-1.6071472 -3.0141058 -1.0593841
-1.6124668 -2.9799159 -1.05049
-1.6220115 -2.9541168 -1.0446628
-1.647523 -2.9574101 -1.0495698
-1.663764 -2.9439316 -1.0483432
-1.6884276 -2.9452255 -1.0526369
-1.7399775 -2.9923964 -1.0741053
-1.7355692 -2.9431374 -1.0596907
-1.7472413 -2.9218154 -1.0557038
-1.7606922 -2.9037161 -1.0529435
-1.7804711 -2.8961008 -1.0541703
-1.8022375 -2.8915823 -1.0566238
-1.8199459 -2.8804693 -1.0566238
-1.8416947 -2.875659 -1.0590774
-1.8525642 -2.8539281 -1.0550903
-1.8663769 -2.8369424 -1.0529435
-1.8647316 -2.7969339 -1.0419025
-1.8706628 -2.7688808 -1.035462
-1.9085966 -2.7879739 -1.047423
-2.0125067 -2.9013145 -1.0964938
-1.9558065 -2.7830279 -1.0547837
-1.9678752 -2.7639983 -1.0520234
-1.9764421 -2.7402949 -1.047423
-1.9864779 -2.7188959 -1.0437428
-1.9929267 -2.6928883 -1.0382223
-2.0116971 -2.6836545 -1.0394491
-2.0310049 -2.67505 -1.0409825
-2.0421565 -2.6557486 -1.0382223
-2.0625088 -2.6484234 -1.0403692
-2.0793102 -2.6364655 -1.0406759
-2.1073329 -2.6385276 -1.0468097
-2.13486 -2.639605 -1.0526369
-2.1594627 -2.6367624 -1.0569305
-2.1895809 -2.6403089 -1.0639844
-2.2081895 -2.629739 -1.0652112
-2.2310684 -2.6241145 -1.0685848
-2.2390518 -2.6010008 -1.0645978
-2.2437079 -2.5743015 -1.0590774
-2.2777317 -2.5811763 -1.0679715
-2.2897203 -2.5628943 -1.0661312
-2.2721894 -2.5121017 -1.0501833
-2.2946341 -2.5058315 -1.0535569
-2.3047876 -2.4861224 -1.0511034
-2.3154378 -2.4670773 -1.0489565
-2.3102007 -2.4314401 -1.0394491
-2.3323369 -2.4247625 -1.0428227
-2.3312287 -2.3940454 -1.035462
-2.3425324 -2.376308 -1.0339286
-2.3826268 -2.3874822 -1.0455829
-2.4155021 -2.3908901 -1.0538636
-2.4342115 -2.3800149 -1.0557038
-2.4460299 -2.3623903 -1.054477
-2.4577236 -2.3447101 -1.0532502
-2.4672136 -2.3250179 -1.0511034
-2.4814334 -2.3098354 -1.0511034
-2.4976621 -2.2964983 -1.0520234
-2.5067725 -2.2766519 -1.0498766
-2.5299079 -2.2694871 -1.0538636
-2.5459235 -2.2558141 -1.0547837
-2.5654488 -2.245163 -1.0572373
-2.5777359 -2.2281349 -1.0566238
-2.5985999 -2.2184539 -1.0596907
-2.6121631 -2.2024674 -1.0596907
-2.6263597 -2.1870067 -1.0599974
-2.6367881 -2.1684334 -1.0587707
-2.6470876 -2.1498144 -1.0575439
-2.6520588 -2.1269839 -1.0541703
-2.6628208 -2.1088991 -1.0532502
-2.6764607 -2.0931067 -1.0535569
-2.690007 -2.0772264 -1.0538636
-2.711787 -2.0676038 -1.0575439
-2.7229013 -2.0497813 -1.0569305
-2.7484171 -2.0426829 -1.0621443
-2.7516882 -2.0190268 -1.0584639
-2.7655668 -2.0032208 -1.0590774
-2.7971671 -2.0000477 -1.0667447
-2.8023863 -1.9779097 -1.0639844
-2.8238437 -1.9672029 -1.0676647
-2.8405681 -1.9530731 -1.0695049
-2.8477716 -1.9324019 -1.0676647
-2.8453362 -1.9053639 -1.0621443
-2.8649166 -1.8931141 -1.0652112
-2.8756812 -1.8749801 -1.0649046
-2.8895335 -1.8588439 -1.0658246
-2.8992772 -1.8400596 -1.0652112
-2.9387548 -1.839904 -1.0759454
-2.9524188 -1.8233371 -1.0768656
-2.9773729 -1.8135999 -1.0820793
-2.9762039 -1.7879487 -1.0774789
-2.9879375 -1.7701384 -1.0777856
-3.016005 -1.7618477 -1.0842261
-3.034183 -1.7475817 -1.0869863
-3.0680285 -1.7420832 -1.0955738
-3.092782 -1.7311238 -1.1007875
-3.1266849 -1.7249806 -1.1093749
-3.1388829 -1.7066718 -1.1099882
-3.1677563 -1.6972634 -1.1167355
-3.2294643 -1.7048839 -1.1354437
-3.2491546 -1.6898643 -1.1388173
-3.2975883 -1.6894137 -1.1526185
-3.3308392 -1.6807183 -1.1608992
-3.3581393 -1.6687149 -1.1670331
-3.4238956 -1.6752521 -1.186968
-3.4366832 -1.6554503 -1.1878881
-3.5052662 -1.6620443 -1.2087432
-3.7086284 -1.7306083 -1.2774422
-3.7010105 -1.6994842 -1.2710017
-3.758214 -1.6978914 -1.2875631
-3.7502935 -1.6666871 -1.2811226
-3.9436212 -1.7236451 -1.3455279
-4.0669422 -1.747867 -1.3850912
-4.1416006 -1.7499061 -1.4074798
-4.1232495 -1.7124212 -1.3973589
-4.1565938 -1.6964345 -1.4053328
-4.2384896 -1.6995738 -1.4301749
-4.2231536 -1.6634257 -1.4212809
-4.3540215 -1.6841503 -1.462991
-4.4817386 -1.7019789 -1.5034744
-4.4662309 -1.6648128 -1.4945803
-4.5192723 -1.6530613 -1.5093015
-4.5580006 -1.6355808 -1.5191157
-4.9702129 -1.7490418 -1.6565138
-5.0132451 -1.7296809 -1.6675547
-5.0661445 -1.7132093 -1.6819693
-5.089211 -1.6862803 -1.686263
-5.1338668 -1.6661794 -1.6979172
-5.1603227 -1.6398325 -1.7034377
-5.2684507 -1.6386478 -1.7365605
-5.3722014 -1.6348122 -1.7681497
-5.444169 -1.6202679 -1.7890048
-5.6240063 -1.6362557 -1.8460495
-5.7099333 -1.6233052 -1.871505
-5.8115025 -1.6136872 -1.9021742
-5.9048963 -1.6006432 -1.9300833
-5.921968 -1.5663269 -1.9325367
-5.9314675 -1.5299609 -1.9325367
-5.9601293 -1.4984071 -1.9389772
-5.9747581 -1.4631655 -1.9408175
-5.9854755 -1.4269187 -1.9414308
-5.9922638 -1.3897359 -1.9408175
-6.0025353 -1.3533603 -1.9414308
-6.0311818 -1.3209803 -1.9481781
-6.0093808 -1.2776204 -1.9383639
-6.0040555 -1.2380348 -1.9340702
-6.0180726 -1.2024757 -1.9362171
-6.0262723 -1.1657073 -1.9365238
-6.0464101 -1.1311569 -1.9408175
-6.053237 -1.0940355 -1.9408175
-6.0598359 -1.056873 -1.9408175
-6.0530653 -1.0174642 -1.9365238
-6.0714092 -0.98227799 -1.9405107
-6.0848465 -0.94617462 -1.9429643
-6.086772 -0.90825969 -1.9417375
-6.0988259 -0.87183648 -1.9438844
-6.1153774 -0.83594316 -1.9475647
-6.133605 -0.80012542 -1.9518584
-6.1336765 -0.76188952 -1.9503249
-6.1420169 -0.72468501 -1.9515517
-6.1472936 -0.68709022 -1.9518584
-0 -0 -0
-0 -0 -0
-0 -0 -0
-0 -0 -0
-0 -0 -0
-0 -0 -0
-0 -0 -0
-0 -0 -0
-0 -0 -0
-0 -0 -0
-0 -0 -0
-0 -0 -0
-0 -0 -0
-0 -0 -0
-0 -0 -0
-0 -0 -0
-0 -0 -0
-0 -0 -0
-0 0 -0
-0 0 -0
-0 0 -0
-0 0 -0
-0 0 -0
-0 0 -0
-6.1544189 0.25918096 -1.9435776
-6.1213403 0.29541889 -1.9334568
-0 0 -0
-6.1457558 0.37224659 -1.9426576
-0 0 -0
-0 -0 -0
-0 -0 -0
-0 -0 -0
-0 -0 -0
-0 -0 -0
-0 0 -0
-0 0 -0
-0 0 -0
-0 0 -0
-0 0 -0
-0 0 -0
-0 0 -0
-0 0 -0
-0 0 -0
-0 0 -0
-0 0 -0
-0 0 -0
-0 0 -0
-0 0 -0
-0 0 -0
-0 0 -0
-0 0 -0
-0 0 -0
-0 0 -0
-0 0 -0
-0 0 -0
-0 0 -0
-0 0 -0
-0 0 -0
-0 0 -0
-0 0 -0
-5.7976785 0.96420413 -1.9227784
-5.7981954 1.0008888 -1.9249972
-5.79848 1.037616 -1.9272161
-5.7920041 1.0731753 -1.9272161
-5.7759953 1.1069096 -1.9240463
-5.7756076 1.1436188 -1.9262651
-5.7787032 1.1811242 -1.9297519
-5.771347 1.2165594 -1.9297519
-5.7628469 1.2517476 -1.9294349
-5.7467279 1.2852218 -1.9265821
-5.7350364 1.3196084 -1.9253142
-5.7240624 1.3541182 -1.9243633
-5.7110381 1.3880953 -1.9227784
-5.705174 1.4238002 -1.9237293
-5.6926551 1.4578388 -1.9224614
-5.6927762 1.4951494 -1.9256312
-5.6633463 1.5246288 -1.9186578
-5.6575422 1.560358 -1.9199257
-5.6496868 1.5955582 -1.9205596
-5.6397905 1.6301939 -1.9205596
-5.6333199 1.665844 -1.9218274
-5.6193609 1.6992801 -1.9205596
-5.6106405 1.734288 -1.9211935
-5.6007981 1.7689672 -1.9215105
-5.5898385 1.8032997 -1.9215105
-5.5822716 1.838751 -1.9227784
-5.5726824 1.8735729 -1.9234123
-5.5601845 1.9074233 -1.9230953
-5.5519567 1.9427568 -1.9243633
-5.5372519 1.9758303 -1.9234123
-5.5196762 2.0078242 -1.9215105
-5.4921341 2.036051 -1.916122
-5.4777632 2.0690415 -1.915488
-5.4472609 2.0958035 -1.9091486
-5.4254675 2.1257284 -1.9059788
-5.403513 2.1554651 -1.902809
-5.396337 2.191077 -1.9050279
-5.4152246 2.2375457 -1.9167559
-5.3926497 2.2670557 -1.9135861
-5.3585801 2.2915261 -1.9062958
-5.3574653 2.3300357 -1.9110503
-5.3352609 2.3594127 -1.9081976
-5.3241434 2.3936603 -1.9094656
-5.3136692 2.4282544 -1.9110503
-5.2986698 2.4608126 -1.9110503
-5.2783241 2.4908502 -1.9091486
-5.2603755 2.5219605 -1.9081976
-5.2601514 2.5616636 -1.9139031
-5.2460346 2.594732 -1.9145371
-5.2283196 2.6260209 -1.9139031
-5.214643 2.6593444 -1.914854
-5.2100191 2.6973948 -1.9192917
-5.1816158 2.7231357 -1.914854
-5.1597886 2.7522006 -1.9129522
-5.147809 2.7865171 -1.914854
-5.1256261 2.8153119 -1.9129522
-5.1032844 2.8439393 -1.9110503
-5.07583 2.8695984 -1.9072467
-5.0647092 2.9044633 -1.9097825
-5.0459728 2.9350083 -1.9094656
-5.0254183 2.964469 -1.9085146
-5.0079479 2.9957354 -1.9088316
-4.9951487 3.02985 -1.9110503
-4.9764638 3.0604424 -1.9110503
-4.9583964 3.0914216 -1.9113673
-4.9377313 3.1207743 -1.9107335
-4.9184895 3.1510129 -1.9107335
-4.8926988 3.1770012 -1.9081976
-4.8707361 3.2053983 -1.9072467
-4.8525543 3.2362766 -1.9078807
-4.8302484 3.2643974 -1.9069297
-4.8109097 3.2945096 -1.9072467
-4.7859287 3.3207231 -1.9053448
-4.7794299 3.3598435 -1.9110503
-4.7494535 3.3825047 -1.9072467
-4.7316861 3.4138026 -1.9085146
-4.7068219 3.4399736 -1.9069297
-4.6901999 3.4721749 -1.9088316
-4.6642537 3.4974744 -1.9069297
-4.6427054 3.5260279 -1.9069297
-4.6119614 3.5475101 -1.903126
-4.5916038 3.5769074 -1.90376
-4.5844631 3.6167614 -1.9100995
-4.5562563 3.6400876 -1.9075637
-4.5360475 3.669765 -1.9085146
-4.5112438 3.6957257 -1.9075637
-4.4921322 3.7263639 -1.9091486
-4.4735408 3.7575169 -1.9110503
-4.4504008 3.7848952 -1.9110503
-4.4335623 3.8177004 -1.9139031
-4.409339 3.8442092 -1.9135861
-4.3863792 3.8718195 -1.9139031
-4.3667831 3.9024527 -1.915805
-4.3371291 3.9240832 -1.9132692
-4.3164668 3.9538243 -1.914854
-4.2879524 3.976366 -1.9129522
-4.2607074 4.0000052 -1.9116843
-4.2360835 4.026073 -1.9116843
-4.2201858 4.0605373 -1.915805
-4.185679 4.0770912 -1.9113673
-4.1578822 4.1000338 -1.9100995
-4.1252627 4.1180987 -1.9066128
-4.0912437 4.1345701 -1.902492
-4.0744166 4.1684122 -1.9066128
-4.0467863 4.191287 -1.9056618
-4.0190291 4.2139797 -1.9047109
-3.9943979 4.2399416 -1.9053448
-3.9670146 4.2629824 -1.9047109
-3.9317963 4.2774682 -1.9002733
-3.9067514 4.302917 -1.9009073
-3.8828087 4.3296313 -1.9021751
-3.8517671 4.3484049 -1.8999563
-3.8250132 4.3719573 -1.8999563
-3.7974954 4.3946271 -1.8996394
-3.7760005 4.4243379 -1.902492
-3.7487824 4.4474235 -1.902492
-3.7214229 4.4703422 -1.902492
-3.6872973 4.4850335 -1.8990054
-3.6591103 4.5068378 -1.8986884
-3.6260481 4.5225453 -1.8958356
-3.6076505 4.5566063 -1.9009073
-3.5813763 4.5808978 -1.9018581
-3.5734875 4.6290617 -1.9129522
-3.5248921 4.6245022 -1.9018581
-3.4941688 4.643012 -1.9005903
-3.4656141 4.6643643 -1.9005903
-3.4363678 4.6847768 -1.9002733
-3.4031074 4.6996284 -1.8977375
-3.3642783 4.7065334 -1.8920319
-3.3451796 4.7410359 -1.8977375
-3.3122315 4.7560244 -1.8955187
-3.2776139 4.7684426 -1.8923489
-3.247761 4.7876792 -1.8920319
-3.2156849 4.8035765 -1.8904471
-3.1824903 4.817678 -1.8882283
-3.1544237 4.839498 -1.8891792
-3.127748 4.8635483 -1.8910811
-3.0998797 4.8858514 -1.8923489
-3.0753779 4.9136233 -1.8958356
-3.0471637 4.9356289 -1.8971035
-3.0158353 4.9526129 -1.8964696
-2.9873433 4.9742765 -1.8977375
-2.9562821 4.9916968 -1.8974205
-2.9251196 5.0089235 -1.8971035
-2.8933837 5.0251336 -1.8964696
-2.8615592 5.0411429 -1.8958356
-2.8273311 5.0528126 -1.8936168
-2.7939839 5.0659132 -1.8920319
-2.7664714 5.0896277 -1.8945677
-2.7347422 5.1056705 -1.8942508
-2.6989355 5.1139669 -1.8910811
-2.6714442 5.1380043 -1.8939338
-2.6377056 5.1500783 -1.8923489
-2.6069102 5.1678596 -1.8929828
-2.5781059 5.1897035 -1.8952017
-2.5445466 5.2020173 -1.8939338
-2.5134029 5.2192411 -1.8945677
-2.4780805 5.2277088 -1.8920319
-2.4447541 5.2402372 -1.8910811
-2.4129503 5.2560015 -1.8913981
-2.3787024 5.2663865 -1.8898132
-2.3501952 5.2895498 -1.8929828
-2.3233924 5.3169065 -1.8977375
-2.2873542 5.3232203 -1.8948847
-2.253541 5.3345342 -1.8939338
-2.2116723 5.3263636 -1.8860095
-2.1836078 5.3512492 -1.8901302
-2.1517911 5.367188 -1.8910811
-2.1177752 5.3776426 -1.8901302
-2.0881605 5.3993816 -1.8932998
-2.0647564 5.4378052 -1.902492
-2.0287015 5.4432626 -1.8999563
-1.9936351 5.4511542 -1.8983715
-1.9566259 5.453465 -1.8948847
-1.92848 5.4805765 -1.9002733
-1.8858436 5.4663062 -1.8910811
-1.8622953 5.5074229 -1.9015411
-1.8183234 5.4881368 -1.8907641
-1.7819791 5.4910712 -1.8879113
-1.7396345 5.4747858 -1.8784021
-1.7105168 5.4998469 -1.8834736
-1.6775668 5.5129609 -1.8844246
-1.6480378 5.5376945 -1.8894962
-1.6108479 5.5367746 -1.8856925
-1.5726939 5.5319581 -1.880621
-1.5402437 5.5469871 -1.8825227
-1.5066755 5.5581641 -1.8831567
-1.4739983 5.5728054 -1.8850585
-1.4393026 5.5799084 -1.8844246
-1.4050379 5.5886345 -1.8844246
-1.3725255 5.6045198 -1.8869604
-1.337011 5.6082234 -1.8853755
-1.3012882 5.6107783 -1.8834736
-1.2697581 5.6316099 -1.8879113
-1.2335553 5.6318831 -1.8853755
-1.1993701 5.6412015 -1.8860095
-1.1641591 5.645668 -1.8850585
-1.1300536 5.6554947 -1.8860095
-1.0949705 5.66046 -1.8853755
-1.0600435 5.6661396 -1.8850585
-1.0254256 5.6734705 -1.8853755
-0.99140954 5.6843276 -1.8869604
-0.95478237 5.6800151 -1.8834736
-0.91991246 5.6857667 -1.8834736
-0.88471633 5.6894298 -1.8828397
-0.84964997 5.6938133 -1.8825227
-0.81550312 5.7045527 -1.8844246
-0.77932858 5.7009921 -1.8815719
-0.74470156 5.708488 -1.8825227
-0.70930994 5.7101264 -1.8815719
-0.6742599 5.7143712 -1.8815719
-0.63876283 5.7146306 -1.880304
-0.60368651 5.7184424 -1.880304
-0.56896281 5.7258139 -1.8815719
-0.53496391 5.7414737 -1.8856925
-0.49980706 5.7455926 -1.8860095
-0.46377876 5.7390981 -1.8828397
-0.4286969 5.7437272 -1.8834736
-0.39266774 5.7348948 -1.87967
-0.35747167 5.7371964 -1.87967
-0.32226217 5.7392817 -1.87967
-0.28685084 5.7373619 -1.8784021
-0.25226584 5.7532268 -1.8831567
-0.21667357 5.7470846 -1.880621
-0.18146601 5.7502017 -1.8812549
-0.14615585 5.7502589 -1.8809379
-0.11087018 5.7510471 -1.8809379
-0.075630441 5.7554126 -1.8822057
-0.040314469 5.7557683 -1.8822057
-0.0050014285 5.7606497 -1.8837906
0.030310839 5.753933 -1.8815719
0.06558349 5.7507935 -1.880621
0.10081875 5.747438 -1.87967
0.13614963 5.7495556 -1.880621
0.17145388 5.7495599 -1.8809379
0.20683135 5.7512431 -1.8818887
0.24235544 5.7555513 -1.8837906
0.27771193 5.7549033 -1.8841076
0.31322396 5.7568793 -1.8853755
0.34842706 5.7529554 -1.8847415
0.38384613 5.7526021 -1.8853755
0.41886067 5.7463546 -1.8841076
0.45179647 5.7143664 -1.8742814
0.48894331 5.7360568 -1.8825227
0.52404362 5.7320042 -1.8822057
0.55957299 5.7324567 -1.8834736
0.59454042 5.7270288 -1.8828397
0.62998056 5.7261009 -1.8837906
0.66302413 5.7042279 -1.8777682
0.6993947 5.711349 -1.8815719
0.73406273 5.7041283 -1.880621
0.7677812 5.6901174 -1.8774512
0.8034758 5.6909342 -1.879353
0.83699673 5.6765141 -1.8761833
0.87253159 5.6759586 -1.8777682
0.90689284 5.6676884 -1.8768172
0.94336289 5.6723084 -1.880304
0.98008502 5.677629 -1.8841076
1.0140688 5.6668401 -1.8825227
1.0500299 5.6670394 -1.8847415
1.0844256 5.658627 -1.8841076
1.1191258 5.6518664 -1.8841076
1.1534042 5.6430349 -1.8834736
1.1868342 5.6302829 -1.8815719
1.2213585 5.6228948 -1.8815719
1.2552162 5.6125183 -1.880621
1.2900556 5.6065593 -1.8812549
1.3250873 5.6013069 -1.8822057
1.3623425 5.605052 -1.8863264
1.3973976 5.5993481 -1.8872774
1.4333749 5.5970998 -1.8894962
1.4664867 5.5836129 -1.8879113
1.501459 5.5772572 -1.8888623
1.5343916 5.5633678 -1.8872774
1.5654064 5.5428948 -1.8834736
1.5983343 5.529541 -1.8822057
1.6290061 5.5087156 -1.8784021
1.6635997 5.5013399 -1.879353
1.696484 5.4883103 -1.8784021
1.7295564 5.4759884 -1.8777682
1.7625417 5.4634681 -1.8771342
1.7984051 5.4597569 -1.87967
1.830965 5.4459224 -1.8787191
1.851423 5.3969054 -1.8654062
1.8964043 5.4194627 -1.8774512
1.9296217 5.4077244 -1.8774512
1.9650357 5.4020219 -1.87967
2.0001225 5.3951988 -1.8815719
2.0348647 5.3872614 -1.8831567
2.0733299 5.3888373 -1.8882283
2.107394 5.3786635 -1.8891792
2.1403573 5.3656316 -1.8891792
2.1746669 5.3559127 -1.8904471
2.2092998 5.3468513 -1.8920319
2.242801 5.3349433 -1.8926659
2.2747476 5.3193374 -1.8920319
2.3084781 5.307889 -1.8929828
2.3390856 5.2892871 -1.8913981
2.3699408 5.2713752 -1.8901302
2.4022405 5.2567339 -1.8901302
2.4328523 5.2384543 -1.8888623
2.4629257 5.2191391 -1.8872774
2.4957232 5.2056394 -1.8879113
2.526787 5.1885223 -1.8872774
2.558996 5.1737709 -1.8875943
2.5889909 5.1545815 -1.8863264
2.6244476 5.146203 -1.8891792
2.6551027 5.1283183 -1.8885453
2.6847548 5.108572 -1.8872774
2.7156036 5.0911655 -1.8869604
2.7481456 5.0769095 -1.8879113
2.7778757 5.0574579 -1.8869604
2.8065472 5.0361753 -1.8853755
2.8331952 5.0114288 -1.8825227
2.8643632 4.9947729 -1.8828397
2.8925726 4.9730043 -1.8812549
2.9235139 4.9559793 -1.8815719
2.9528944 4.9363198 -1.8809379
2.9836195 4.9189191 -1.8812549
3.0137451 4.9005194 -1.8812549
3.0442591 4.88274 -1.8815719
3.0787218 4.8711848 -1.8844246
3.110599 4.8553967 -1.8856925
3.1439478 4.8417873 -1.8879113
3.1756825 4.8255749 -1.8891792
3.202075 4.8012638 -1.8872774
3.2293506 4.7783823 -1.8860095
3.2527153 4.7498693 -1.8825227
3.2866642 4.736835 -1.8853755
3.3134856 4.7134752 -1.8841076
3.3494964 4.7030993 -1.8882283
3.3760715 4.6793818 -1.8869604
3.4091966 4.6647043 -1.8894962
3.4304192 4.6337881 -1.8853755
3.458787 4.6126523 -1.8853755
3.483583 4.5868106 -1.8834736
3.5145526 4.5691085 -1.8850585
3.5436876 4.548954 -1.8856925
3.575057 4.5315928 -1.8875943
3.6063468 4.5140176 -1.8894962
3.6327834 4.4903297 -1.8888623
3.6602671 4.4679546 -1.8888623
3.6882186 4.4461417 -1.8891792
3.7221396 4.4314165 -1.8926659
3.7406588 4.3983793 -1.8882283
3.7706702 4.3789377 -1.8898132
3.7987144 4.3571486 -1.8904471
3.8253779 4.3337584 -1.8904471
3.8613765 4.3208132 -1.8952017
3.8763628 4.2843785 -1.8894962
3.9096246 4.2682066 -1.8929828
3.9305816 4.2385736 -1.8904471
3.9565148 4.2143764 -1.8904471
3.9600859 4.1666446 -1.87967
3.9967556 4.1538868 -1.8850585
4.0036397 4.1102605 -1.8761833
4.0507588 4.1079049 -1.8866434
4.0772281 4.0843148 -1.8872774
4.1008639 4.0578866 -1.8866434
4.1263638 4.0333104 -1.8869604
4.1619501 4.0184569 -1.8920319
4.1844697 3.9908803 -1.8910811
4.2254453 3.9807394 -1.8986884
4.2352114 3.9411683 -1.8920319
4.2621074 3.9176748 -1.8932998
4.2867675 3.892087 -1.8936168
4.3049197 3.8606443 -1.8910811
4.332787 3.8379307 -1.8929828
4.3583956 3.8131466 -1.8939338
4.3795581 3.7844718 -1.8929828
4.4077463 3.7618384 -1.8952017
4.427845 3.7322769 -1.8939338
4.4528489 3.7068584 -1.8948847
4.4755101 3.6794665 -1.8948847
4.4987388 3.6525338 -1.8952017
4.518846 3.6230814 -1.8942508
4.5395045 3.5941083 -1.8936168
4.5577364 3.5632658 -1.8920319
4.5787635 3.5346534 -1.8917149
4.6026282 3.5082171 -1.8926659
4.6278567 3.4827616 -1.8942508
4.6468554 3.4526031 -1.8932998
4.6671882 3.4234645 -1.8929828
4.6827292 3.3908684 -1.8907641
4.7188778 3.3731039 -1.8971035
4.7301869 3.3375237 -1.8932998
4.7622504 3.3165681 -1.8980545
4.7825112 3.2872851 -1.8980545
4.8112249 3.2637355 -1.9015411
4.8335242 3.2357359 -1.902492
4.8540788 3.2065399 -1.902809
4.8728681 3.1761775 -1.902492
4.8882766 3.1436532 -1.9009073
4.9074736 3.1136 -1.9009073
4.9200544 3.0794039 -1.8983715
4.9428916 3.0516484 -1.8999563
4.9631433 3.0222487 -1.9005903
4.9840331 2.9932036 -1.9015411
5.0047531 2.9640157 -1.902492
5.0228457 2.9332514 -1.902492
5.0308867 2.896697 -1.8986884
5.0510402 2.8671782 -1.8996394
5.0801249 2.8426163 -1.9040769
5.0642524 2.7930677 -1.8913981
5.1029596 2.7737193 -1.8996394
5.1324234 2.749074 -1.9043939
5.17939 2.7334688 -1.915805
5.1682968 2.687197 -1.9053448
5.1694932 2.647651 -1.8996394
5.1788678 2.612464 -1.8971035
5.1931014 2.5797939 -1.8964696
5.2122407 2.5495481 -1.8977375
5.2491484 2.5278077 -1.9056618
5.2577038 2.4923015 -1.903126
5.2857895 2.4660094 -1.9078807
5.3016829 2.4339259 -1.9081976
5.328618 2.406816 -1.9126352
5.3380852 2.3717639 -1.9107335
5.3499308 2.337826 -1.9097825
5.3807306 2.3120708 -1.915805
5.4000578 2.2812266 -1.9177068
5.4139533 2.2480495 -1.9177068
5.4294014 2.2155046 -1.9183408
5.4420133 2.1817956 -1.9180238
5.4597101 2.1501009 -1.9196087
5.466608 2.1141651 -1.9173899
5.4830241 2.0819299 -1.9186578
5.5001388 2.0499039 -1.9202427
5.503706 2.0128589 -1.9170729
5.5177388 1.9796915 -1.9177068
5.5315714 1.9464278 -1.9183408
5.5443068 1.9127594 -1.9186578
5.5514464 1.8771849 -1.9170729
5.5610595 1.8424897 -1.9164389
5.5596309 1.8042336 -1.9120013
5.5787315 1.7726718 -1.914854
5.5840697 1.7367177 -1.9129522
5.5937138 1.7021456 -1.9126352
5.6140518 1.6707677 -1.916122
5.6323938 1.6386743 -1.9189748
5.6496406 1.606159 -1.9215105
5.6593895 1.5714632 -1.9215105
5.6707559 1.5372047 -1.9221444
5.6782475 1.5018954 -1.9215105
5.6901112 1.467737 -1.9224614
5.6980901 1.4325641 -1.9221444
5.7122998 1.3989284 -1.9240463
5.7170858 1.362972 -1.9227784
5.7299609 1.3289387 -1.9243633
5.7380071 1.2937553 -1.9243633
5.7458372 1.2585232 -1.9243633
5.7506685 1.2226518 -1.9234123
5.7627068 1.1883013 -1.9249972
5.761519 1.1512465 -1.9221444
5.7740617 1.1169541 -1.9240463
5.7742805 1.0802827 -1.9218274
5.7854667 1.0456758 -1.9234123
5.7917743 1.0101572 -1.9234123
5.8062811 0.9760161 -1.9262651
5.8177776 0.94128031 -1.928167
0 0 -0
5.8345189 0.87065661 -1.9300689
0 0 -0
0 0 -0
0 0 -0
0 0 -0
5.8264561 0.68749321 -1.9192917
0 0 -0
0 0 -0
0 0 -0
0 0 -0
0 0 -0
5.8686104 0.47425383 -1.9262651
0 0 -0
0 0 -0
0 0 -0
0 0 -0
0 0 -0
0 0 -0
0 0 -0
0 0 -0
0 0 -0
0 0 -0
0 0 -0
0 0 -0
0 0 -0
0 -0 -0
0 -0 -0
0 -0 -0
0 -0 -0
0 -0 -0
0 -0 -0
5.9223285 -0.24936643 -1.9395781
0 -0 -0
0 -0 -0
0 -0 -0
5.9144254 -0.39463255 -1.9395781
5.9109464 -0.43084645 -1.9392611
5.9025187 -0.46665913 -1.9373592
0 -0 -0
0 -0 -0
5.9042563 -0.57633108 -1.9411628
5.9100428 -0.6135267 -1.9443326
5.906167 -0.64977849 -1.9443326
0 -0 -0
0 -0 -0
0 -0 -0
5.8574243 -0.79034436 -1.9338725
5.8862734 -0.8310408 -1.9452835
5.9026442 -0.87032318 -1.9525739
5.8465714 -0.89874667 -1.9354573
5.8587408 -0.93744957 -1.9414798
5.8472648 -0.97244734 -1.9395781
5.8168879 -1.0041142 -1.9313366
5.8003473 -1.03795 -1.92785
5.775218 -1.0700662 -1.9215105
5.7741323 -1.1065528 -1.9234123
5.699316 -1.1285179 -1.9002733
5.6049361 -1.1456199 -1.8704778
5.5022116 -1.1598468 -1.8378295
5.3439169 -1.1607819 -1.7861627
5.2672753 -1.1780295 -1.7623898
5.2220516 -1.2016097 -1.7493938
5.1490493 -1.2181313 -1.7268887
5.1129079 -1.2427603 -1.7170625
5.0803399 -1.2679102 -1.7085042
5.0586824 -1.2955303 -1.7037497
5.0799932 -1.334253 -1.7138928
5.1156712 -1.3772295 -1.7291075
5.0614085 -1.3959876 -1.7132589
5.029016 -1.4203172 -1.7050176
5.0247622 -1.4524645 -1.7066025
5.0048413 -1.4800417 -1.7027987
5.0083756 -1.5145656 -1.7072363
4.9908328 -1.5427476 -1.7043836
4.9686108 -1.5693436 -1.6999459
4.9724278 -1.6041678 -1.7047006
4.962491 -1.6346478 -1.7047006
4.9595599 -1.6674838 -1.7072363
4.937572 -1.6938837 -1.7031157
4.9208193 -1.7219558 -1.7008969
4.8851485 -1.7431939 -1.6920216
4.8716869 -1.7721634 -1.6910707
4.8402672 -1.7944409 -1.6837803
4.8398128 -1.8281273 -1.6875839
4.8347006 -1.8601729 -1.6898028
4.8214297 -1.8891112 -1.6891688
4.8211999 -1.9232268 -1.6932895
4.8128238 -1.9541999 -1.6945574
4.7981129 -1.9826077 -1.6936065
4.7937264 -2.0153186 -1.6964593
4.7690616 -2.0394742 -1.6920216
4.7521091 -2.0668073 -1.6904367
4.7193871 -2.0871055 -1.6831464
4.7134123 -2.1191347 -1.6856822
4.7089472 -2.1519573 -1.6888518
4.6844716 -2.1756177 -1.6847312
4.6461592 -2.1925838 -1.675539
4.6189342 -2.2144914 -1.6704674
4.6180501 -2.2490189 -1.675222
4.5897107 -2.2701652 -1.6698334
4.5850182 -2.3029664 -1.6733202
4.5530577 -2.3220088 -1.6666638
4.5168252 -2.3385661 -1.6584224
4.5191827 -2.3750601 -1.6647619
4.51373 -2.4076538 -1.6682485
4.4997058 -2.4357557 -1.6685655
4.4796877 -2.4605803 -1.6666638
4.4595346 -2.4852509 -1.6647619
4.4524579 -2.5172346 -1.6679317
4.4361057 -2.5440352 -1.6676147
4.4195929 -2.5707297 -1.6672977
4.4102712 -2.6016541 -1.6698334
4.4007363 -2.6325607 -1.6723692
4.3845005 -2.6595135 -1.6723692
4.3826418 -2.6953084 -1.6780747
4.379704 -2.7306783 -1.6834633
4.357254 -2.7539537 -1.6812445
4.3450661 -2.7837069 -1.6831464
4.320744 -2.8056672 -1.6802936
4.3097858 -2.8362966 -1.6828294
4.2875671 -2.8595304 -1.6809275
4.2565813 -2.8767574 -1.675539
4.2404151 -2.9038928 -1.676173
4.196022 -2.9114759 -1.6653959
4.2044606 -2.9557106 -1.676173
4.1816101 -2.9781523 -1.6742711
4.1494122 -2.9937663 -1.6685655
4.134028 -3.0214086 -1.6698334
4.0948281 -3.0314825 -1.6612751
4.0867743 -3.0645158 -1.6657128
4.0762024 -3.0958436 -1.6691995
4.0601373 -3.1231091 -1.6704674
4.0558624 -3.1596191 -1.6768069
4.0356545 -3.1838584 -1.6764899
4.0175247 -3.2097447 -1.6771239
3.9977546 -3.2343354 -1.6771239
3.9741652 -3.2557993 -1.675539
3.944623 -3.2722518 -1.6714183
3.9092188 -3.2835848 -1.6647619
3.8962228 -3.3136537 -1.6679317
3.873661 -3.3356416 -1.6669807
3.8702793 -3.3743043 -1.6745881
3.8487911 -3.3973608 -1.6742711
3.834945 -3.427232 -1.6774409
3.8194704 -3.4557884 -1.6799766
2.3993475 -2.1980119 -1.0460294
2.3872066 -2.2139821 -1.0466633
2.3742683 -2.2292373 -1.0469803
3.7486362 -3.5628555 -1.6869501
3.6925297 -3.5529125 -1.6711013
3.6781337 -3.5827813 -1.6745881
3.6506782 -3.5999556 -1.6720523
3.6325481 -3.626308 -1.6739541
3.5995548 -3.6377428 -1.6688825
3.5685472 -3.650944 -1.6647619
3.5368547 -3.6632199 -1.6603242
3.5274036 -3.6985784 -1.6666638
3.4961879 -3.7111788 -1.6625431
3.4649506 -3.7235355 -1.6584224
3.4439638 -3.7468207 -1.6593733
3.4202714 -3.7671797 -1.6590563
3.3920259 -3.7824469 -1.6565206
3.37064 -3.8053186 -1.6574715
3.3484769 -3.8273563 -1.6581055
3.3348522 -3.8593113 -1.663177
3.3141878 -3.8833079 -1.6647619
3.284796 -3.8970439 -1.6619091
3.2632499 -3.9200413 -1.663177
3.2391355 -3.9399905 -1.663177
3.2178886 -3.9634726 -1.6647619
3.1822352 -3.969084 -1.6587393
3.1554663 -3.9855609 -1.6574715
2.001678 -2.5606122 -1.0447615
1.9876676 -2.575098 -1.0457125
1.9597547 -2.5714064 -1.0390559
1.9485029 -2.5894449 -1.0415918
