# .PCD v0.7 - Point Cloud Data file format
VERSION 0.7
FIELDS x y z
SIZE 4 4 4
TYPE F F F
COUNT 1 1 1
WIDTH 1700
HEIGHT 1
VIEWPOINT 0 0 0 1 0 0 0
POINTS 1700
DATA ascii
0 0 -0
0 0 -0
0 0 -0
0 0 -0
64.292793 5.1996479 -0.86428559
0 0 -0
0 0 -0
59.482601 3.7100058 -0.7958011
0 0 -0
59.71339 2.9892833 -0.79845393
59.733608 2.6229644 -0.79849583
59.662647 2.2531507 -0.79729509
60.207031 1.9038413 -0.80472296
0 0 -0
70.474945 1.3631674 -0.94786322
70.471985 0.93058354 -0.94772357
0 0 -0
44.671623 0.041504387 -0.58737367
41.254414 -0.21483722 -0.53966492
51.918594 -0.58885938 -0.68861347
38.594337 -0.67470109 -0.50259531
36.682186 -0.86646795 -0.47595549
32.24757 -0.959777 -0.41408905
30.913061 -1.1099601 -0.39553332
30.903669 -1.2995342 -0.3955054
28.733833 -1.3849864 -0.36529124
30.866425 -1.677641 -0.39524013
25.793299 -1.5607626 -0.32442394
25.67449 -1.7117493 -0.32290205
25.798134 -1.8790568 -0.32478696
27.308228 -2.1575511 -0.34610721
27.598345 -2.3509512 -0.35036567
19.99773 -1.827269 -0.24400178
20.003059 -1.9515886 -0.24423914
20.009605 -2.0762486 -0.24450442
0 -0 -0
10.589703 -1.2305341 -0.11246408
10.599817 -1.2976745 -0.1127154
10.593639 -1.3629445 -0.11274333
10.531567 -1.4207038 -0.11198936
10.583047 -1.4938201 -0.11284106
10.601379 -1.5628104 -0.113232
13.926128 -2.1401894 -0.1603404
63.88567 -10.218225 -0.86700821
0 -0 -0
36.584675 -6.3131037 -0.4820011
36.68108 -6.5617609 -0.48392788
0 -0 -0
0 -0 -0
0 -0 -0
0 -0 -0
30.799465 -6.4905262 -0.4031148
30.645714 -6.6547737 -0.40149519
30.675539 -6.858613 -0.40251443
0 -0 -0
0 -0 -0
0 -0 -0
0 -0 -0
0 -0 -0
0 -0 -0
24.693693 -6.6463847 -0.32068208
0 -0 -0
24.443798 -6.9019113 -0.31826663
8.0429697 -2.3246596 -0.080504648
8.0141716 -2.3697145 -0.08029522
8.0214939 -2.425499 -0.080616347
7.9930859 -2.4705391 -0.080420874
0 -0 -0
0 -0 -0
0 -0 -0
0 -0 -0
0 -0 -0
0 -0 -0
0 -0 -0
0 -0 -0
49.925674 -18.505035 -0.70708543
18.672791 -7.0519843 -0.24231236
18.419191 -7.0856543 -0.23917086
18.473124 -7.2368326 -0.2406369
18.466452 -7.3652325 -0.24120934
0 -0 -0
0 -0 -0
0 -0 -0
0 -0 -0
31.503057 -13.698971 -0.44328398
0 -0 -0
0 -0 -0
0 -0 -0
0 -0 -0
0 -0 -0
41.685684 -19.982105 -0.60909885
28.300274 -13.78011 -0.40312874
0 -0 -0
0 -0 -0
0 -0 -0
0 -0 -0
40.42627 -21.242443 -0.60128003
40.303108 -21.494329 -0.60140568
42.357464 -22.924852 -0.63612962
0 -0 -0
25.173988 -14.027054 -0.3660033
12.745134 -7.2047071 -0.16803356
12.626089 -7.2400007 -0.1668328
12.602172 -7.329401 -0.1671679
12.54146 -7.3974452 -0.16691658
0 -0 -0
0 -0 -0
0 -0 -0
35.392998 -22.063631 -0.5459758
21.853462 -13.810324 -0.32457751
21.76326 -13.940918 -0.32449377
0 -0 -0
33.235428 -21.869202 -0.51914048
33.069 -22.05164 -0.51860994
0 -0 -0
0 -0 -0
32.405281 -22.481621 -0.51432353
0 -0 -0
0 -0 -0
33.367798 -24.071093 -0.53811508
0 -0 -0
18.941069 -14.020631 -0.29265997
18.852283 -14.134789 -0.2926181
33.242424 -25.243738 -0.54645056
33.108303 -25.463694 -0.5468275
31.223076 -24.320143 -0.51623636
0 -0 -0
0 -0 -0
0 -0 -0
0 -0 -0
0 -0 -0
31.412428 -26.381464 -0.53639776
0 -0 -0
0 -0 -0
0 -0 -0
0 -0 -0
0 -0 -0
0 -0 -0
0 -0 -0
0 -0 -0
0 -0 -0
30.429237 -28.917225 -0.54975957
0 -0 -0
30.12796 -29.342876 -0.5508486
0 -0 -0
0 -0 -0
29.042574 -29.346643 -0.54012567
0 -0 -0
28.143351 -29.144825 -0.52933288
28.213825 -29.578878 -0.53438723
28.053059 -29.774 -0.53482002
0 -0 -0
26.345673 -28.658514 -0.50717491
26.149837 -28.798161 -0.50677001
26.038073 -29.031019 -0.5081383
6.7681475 -7.640357 -0.10612525
6.6849251 -7.6403546 -0.10535733
6.6477261 -7.6925764 -0.10556676
6.6127343 -7.7476711 -0.10583205
24.184681 -28.68845 -0.48754409
25.114382 -30.164917 -0.51168472
0 -0 -0
24.748623 -30.4786 -0.51182431
24.569902 -30.6408 -0.51201981
24.38826 -30.799606 -0.51217335
2.0284908 -2.5949032 -0.0095907357
1.9868659 -2.5740597 -0.0090043247
1.9698219 -2.5846121 -0.0089763999
1.9551286 -2.5982478 -0.0090043247
1.9427276 -2.6150107 -0.0090880971
1.9319687 -2.6341379 -0.0092137568
1.9157696 -2.6459424 -0.0092137568
1.8733299 -2.6210442 -0.0085854586
22.671844 -32.128181 -0.512676
10.139133 -14.557302 -0.21131632
10.044522 -14.611825 -0.21119066
0 -0 -0
0 -0 -0
22.073606 -33.410854 -0.5227567
0 -0 -0
21.42881 -33.316761 -0.51673901
21.308626 -33.581013 -0.51894504
0 -0 -0
20.821384 -33.720863 -0.5169903
20.712904 -34.010246 -0.51964313
20.523396 -34.16927 -0.52017373
21.058878 -35.553181 -0.54060036
20.818647 -35.6446 -0.54000002
0 -0 -0
0 -0 -0
0 -0 -0
19.810114 -35.913639 -0.53631401
0 -0 -0
19.774452 -36.912914 -0.54833543
19.554586 -37.046818 -0.54854488
19.343973 -37.198929 -0.54906148
0 -0 -0
0 -0 -0
0 -0 -0
0 -0 -0
7.0278974 -14.59221 -0.18975872
6.9613605 -14.683846 -0.19051267
6.8554873 -14.692759 -0.18999606
6.7585292 -14.720007 -0.18977268
6.6450291 -14.710171 -0.18899079
0 -0 -0
0 -0 -0
17.313873 -40.286819 -0.5758968
0 -0 -0
0 -0 -0
17.193958 -42.128979 -0.59897625
16.925089 -42.208626 -0.59859926
0 -0 -0
0 -0 -0
7.8143711 -20.577005 -0.2709488
0 -0 -0
0 -0 -0
15.109772 -42.10561 -0.58825332
14.864743 -42.236198 -0.58882576
0 -0 -0
0 -0 -0
0 -0 -0
0 -0 -0
0 -0 -0
0 -0 -0
0 -0 -0
4.4180136 -14.842925 -0.17984556
4.3276944 -14.872634 -0.17988744
4.1838446 -14.714249 -0.17720671
4.1491399 -14.940037 -0.18011084
3.9828143 -14.690173 -0.17613162
3.9007859 -14.745268 -0.17657842
3.8157332 -14.790225 -0.17688558
3.7080834 -14.746449 -0.17592219
3.6510766 -14.905862 -0.17789085
3.5486457 -14.88227 -0.17723463
0.55121386 -2.3777018 0.0023190039
0.53375423 -2.3683589 0.0025005124
0 -0 -0
0.51234698 -2.4109175 0.0019839117
0.49350417 -2.3944302 0.0022631553
0.47939089 -2.4003546 0.0022212688
0.46199396 -2.3895073 0.0024167392
0.45118636 -2.4129367 0.0021235335
0.43993056 -2.4353387 0.0018442898
0.4150109 -2.380861 0.0026540963
0.39210328 -2.3340597 0.0033522053
0.39646733 -2.4519072 0.0017186303
0 -0 -0
0 -0 -0
0 -0 -0
0.38752848 -2.8363659 -0.0035730361
0.36972931 -2.835716 -0.0035311496
0 -0 -0
0 -0 -0
4.1368132 -36.989761 -0.48332751
0.29561415 -2.8021719 -0.0029447379
0.20064712 -2.0218668 0.0080295354
0.18628788 -2.0021527 0.0083227418
0.24702056 -2.8420033 -0.0034334143
0.23086746 -2.859412 -0.0036568092
0.14433773 -1.937438 0.0092721703
0.12533629 -1.8345407 0.010724236
0.11557143 -1.8592263 0.010389145
0.10752884 -1.9198 0.0095514134
0.094647154 -1.8984534 0.0098585812
0.082689583 -1.8920057 0.009956317
0.071456306 -1.9024694 0.009816695
0.060034502 -1.9108672 0.0097049978
0.05039759 -1.993165 0.0085600987
0.036213189 -1.8924655 0.0099702785
0.024547724 -1.8886528 0.010026127
0.012909193 -1.8817687 0.010123863
0.001360758 -1.8798127 0.010151787
-0.010142398 -1.8737863 0.01023556
-0.021696206 -1.878688 0.010165749
-0.033310544 -1.8835182 0.010095938
-0.044796165 -1.8802795 0.010137825
-0.057343464 -1.9139509 0.0096631106
-0.069767624 -1.932549 0.0093978299
-0.17174955 -4.0759816 -0.020565009
-0.19584167 -4.0558753 -0.020299729
-0.10538197 -1.9319358 0.0093838675
-0.11777753 -1.9402355 0.0092582079
-0.12994638 -1.9434671 0.0092023592
-0.1975698 -2.7075329 -0.0015066334
-0.21307683 -2.6923146 -0.0013111628
-0.22348304 -2.6192231 -0.00030588589
-0.35225683 -3.8515444 -0.017605027
-0.24124116 -2.468997 0.0017605168
-0.2539098 -2.4436007 0.0020956092
-0.46669388 -4.2409792 -0.023175938
-0.45855606 -3.9440417 -0.019043133
-0.51044226 -4.1674433 -0.022226509
-0.53255963 -4.1374559 -0.02184953
-0.54443908 -4.0340261 -0.020439349
-0.43742919 -3.0969517 -0.0072730137
-0.45744401 -3.1011338 -0.007370749
-0.4937751 -3.2109354 -0.0089624375
-0.66554129 -4.1586671 -0.022408018
-0.68940616 -4.1446414 -0.022268396
-0.72179508 -4.1807323 -0.022840844
-0.44002679 -2.4576721 0.0015371219
-0.46748129 -2.5217822 0.00058769365
-0.82233065 -4.2904758 -0.024600079
-0.83330309 -4.20786 -0.023497067
-0.44476256 -2.1747665 0.005404646
-0.45067605 -2.1367736 0.0059072846
-0.46505162 -2.1398308 0.0058235112
-0.47533646 -2.1242516 0.0060050194
-0.48656851 -2.1134994 0.0061167171
-0.47973698 -2.0267909 0.0073174648
-0.99007601 -4.072979 -0.022128774
-0.65851426 -2.6377754 -0.0015624821
-0.53828984 -2.1009219 0.0061167171
-0.54583812 -2.0772698 0.0064099231
-0.56325126 -2.0912614 0.0061586038
-0.57766706 -2.0935495 0.0060748304
-0.9548412 -3.3803871 -0.012648453
-1.1510028 -3.9815624 -0.021472551
-0.60618281 -2.0490012 0.006563507
-0.61353534 -2.0280151 0.0068148263
-0.5728268 -1.8522537 0.0093280189
-0.54955679 -1.7390519 0.010933669
-0.55499929 -1.7194695 0.011171026
-0.59149843 -1.7948593 0.010012166
-0.58816415 -1.7485454 0.010640464
-0.59790879 -1.7420661 0.01068235
-0.60825646 -1.7374209 0.010696312
-1.1897249 -3.3337195 -0.013025432
-0.63192374 -1.7364036 0.010598577
-0.63631111 -1.7156172 0.010849896
-0.65318447 -1.7285182 0.010598577
-0.66808599 -1.7356766 0.010431031
-0.67544097 -1.7231655 0.01055669
-0.6863718 -1.7199174 0.010542728
-0.70217752 -1.7286441 0.010347257
-0.71544355 -1.7307721 0.010249523
-0.72837454 -1.7318804 0.010165749
-0.73741508 -1.723701 0.010221598
-0.76751518 -1.7640752 0.009537451
-0.78802913 -1.7812805 0.0092023592
-0.82682049 -1.8384279 0.0082529308
-0.87049711 -1.9042587 0.0071638804
-1.8271326 -3.9339714 -0.024167253
-1.8508099 -3.921782 -0.02415329
-0.87687522 -1.828403 0.008085384
-0.89508128 -1.8373722 0.0078619896
-0.90323567 -1.8255714 0.0079597253
-0.91442013 -1.8199949 0.0079597253
-0.92466182 -1.8125683 0.0079876492
-0.93622577 -1.8077486 0.0079736868
-0.95334661 -1.8134768 0.0077921785
-0.96022123 -1.7996526 0.0079178382
-0.97505301 -1.8007619 0.0078061409
-0.98415869 -1.7912394 0.0078619896
-1.0004845 -1.7947751 0.0077084056
-1.2968578 -2.2934718 -0.00038965896
-1.0522758 -1.8344083 0.0068706749
-1.216326 -2.0906827 0.002626172
-1.3576484 -2.3010788 -0.00090625964
-1.3666096 -2.2841239 -0.00076663785
-2.4424942 -4.0266566 -0.029361183
-1.763249 -2.8668234 -0.010596013
-1.4306374 -2.2942207 -0.0013530494
-1.785477 -2.8246832 -0.01026092
-1.4710878 -2.2958572 -0.0016741796
-1.4775245 -2.2750463 -0.001478709
-1.5222349 -2.3127143 -0.0022605911
-2.7157652 -4.07197 -0.031944185
-1.5807316 -2.3385985 -0.0030145489
-2.7457585 -4.00946 -0.031455509
-2.74979 -3.962961 -0.030952871
-2.6015592 -3.7006006 -0.026764218
-2.7999547 -3.9313619 -0.030994758
-0 -0 -0
-0 -0 -0
-1.7831995 -2.4084094 -0.0054439683
-1.8537258 -2.4718246 -0.0067424509
-1.9432365 -2.5583522 -0.008459799
-1.9991299 -2.5986922 -0.0093813036
-2.0107365 -2.5808549 -0.0092835678
-2.7132945 -3.4391017 -0.024767626
-2.0041883 -2.5083296 -0.0084318751
-2.0887146 -2.5814993 -0.0099677145
-2.0424216 -2.4928286 -0.008599421
-2.0449121 -2.4648571 -0.008320177
-2.0992239 -2.498971 -0.0091718705
-2.0542781 -2.4152019 -0.007873388
-2.0547061 -2.3858809 -0.0075662197
-2.0601084 -2.3626764 -0.007370749
-2.0686119 -2.3432443 -0.0072450894
-2.0682936 -2.3141038 -0.0069379215
-2.5245097 -2.7900238 -0.016138999
-2.5935824 -2.8312593 -0.017214086
-2.6204236 -2.825557 -0.017409557
-2.1271989 -2.2655647 -0.0069937701
-2.9221523 -3.074419 -0.022826882
-3.1392248 -3.2625179 -0.026820065
-3.1640675 -3.2482088 -0.026917802
-2.223577 -2.2546875 -0.0078175385
-2.2832842 -2.2870021 -0.0087250806
-2.2553425 -2.2314513 -0.0079013119
-3.1534538 -3.0822079 -0.02517253
-1.9624759 -1.894519 -0.0016881417
-1.9559753 -1.865188 -0.0013390873
-1.993582 -1.8778365 -0.0018417258
-4.21627 -3.9235392 -0.044021472
-2.9770997 -2.7363472 -0.02006237
-1.9833941 -1.8004917 -0.001003995
-3.3841231 -3.0347598 -0.027071385
-3.6287096 -3.2141802 -0.031287964
-4.6145682 -4.0373025 -0.049215402
-4.6982622 -4.0599098 -0.050304454
-3.3921759 -2.8949668 -0.025870638
-3.3372488 -2.8128722 -0.024544232
-3.1815491 -2.648391 -0.021402741
-3.4472051 -2.8339429 -0.025912525
-3.4466758 -2.7982407 -0.025591394
-4.1884699 -3.3581576 -0.038562261
-3.773149 -2.9872673 -0.030799288
-3.3975613 -2.6561041 -0.023818197
-2.8740218 -2.2184598 -0.014295991
-2.888375 -2.2013896 -0.014309953
-2.8914425 -2.1758084 -0.014128445
-3.6503263 -2.7120764 -0.027099309
-3.9611666 -2.9055097 -0.032195505
-4.6956182 -3.400203 -0.044552036
-3.9005408 -2.7880619 -0.030547969
-4.7353563 -3.3411715 -0.044524111
-3.8811293 -2.7028391 -0.029640427
-4.325285 -2.9729617 -0.0368868
-4.2937994 -2.9126832 -0.036049068
-4.4179411 -2.9574881 -0.037836228
-4.4118114 -2.9143398 -0.037431322
-4.3173676 -2.8140428 -0.035560392
-3.297642 -2.1205595 -0.018345023
-3.3055258 -2.0970712 -0.01826125
-3.3064654 -2.0693219 -0.018065779
-3.2910247 -2.0316586 -0.017605027
-4.2462306 -2.5856249 -0.033019274
-4.2783017 -2.569304 -0.033284556
-3.4052908 -2.0166004 -0.018861623
-3.4348686 -2.0057538 -0.019140868
-5.032795 -2.8977959 -0.044691656
-3.500092 -1.986654 -0.01979709
-3.5471179 -1.9846734 -0.020355577
-4.0110035 -2.2120779 -0.027560063
-3.6256716 -1.970605 -0.021221232
-4.434474 -2.37517 -0.033843044
-4.4984837 -2.3740544 -0.034624927
-4.362155 -2.2679822 -0.032251354
-4.2905555 -2.1974099 -0.030910986
-4.2807469 -2.1593316 -0.030547969
-4.2813792 -2.126796 -0.030352497
-4.3329701 -2.1193807 -0.030952871
-4.5819168 -2.2064352 -0.034610964
-4.2728195 -2.0253546 -0.029626464
-4.2706685 -1.992334 -0.02940307
-4.3200693 -1.9831991 -0.029975519
-8.2668533 -3.7341943 -0.090264216
-4.3093586 -1.9146056 -0.029444957
-5.739325 -2.5080166 -0.051058412
-5.8749499 -2.5244744 -0.052887458
-5.8359866 -2.4654179 -0.052063689
-5.8196077 -2.416523 -0.051588975
-5.824142 -2.3766129 -0.051435389
-9.4348745 -3.7829201 -0.10553884
-9.6197863 -3.7887199 -0.10796826
-23.276936 -9.0035677 -0.31209534
-23.308372 -8.8516989 -0.31174627
-23.441885 -8.7382021 -0.31293306
-0 -0 -0
-0 -0 -0
-84.027084 -29.573181 -1.2074621
-7.9143677 -2.7306013 -0.080504648
-11.619344 -3.9294686 -0.13487338
-7.802062 -2.5851495 -0.078368433
-12.725211 -4.1301818 -0.15041329
-7.7845988 -2.4737651 -0.077656366
-7.9504848 -2.4728818 -0.079862386
-12.174436 -3.7051291 -0.14129598
-12.222816 -3.638061 -0.14167297
-9.7775154 -2.844954 -0.10579016
-9.6110888 -2.7326686 -0.10312338
-14.786851 -4.1065927 -0.17789085
-12.803491 -3.4712412 -0.14883555
-9.7032595 -2.5668056 -0.10375168
-9.7352858 -2.511466 -0.10398903
-13.28122 -3.3396015 -0.15482533
-11.829144 -2.8973725 -0.13365868
-11.83989 -2.823112 -0.13356094
-12.964465 -3.0073452 -0.14943594
-13.069484 -2.9473195 -0.15067858
-11.446412 -2.5075414 -0.12722211
-13.308098 -2.8299809 -0.15358271
-11.328449 -2.3363848 -0.12511382
-15.069476 -3.0117934 -0.17818406
-12.801315 -2.4768291 -0.14566615
-12.254089 -2.2930191 -0.13767979
-12.294495 -2.2225897 -0.13805676
-12.563021 -2.1916244 -0.14167297
-12.634409 -2.1242814 -0.14249673
-12.815005 -2.073879 -0.1448703
-15.561334 -2.420522 -0.18350366
-16.01795 -2.3909907 -0.18974476
-16.023411 -2.2913873 -0.18961909
-0 -0 -0
-32.183884 -4.2004361 -0.41681167
-24.004982 -2.983191 -0.30137238
-24.028793 -2.8365464 -0.30145615
-24.051708 -2.6897221 -0.30153993
-41.192791 -4.3511667 -0.5419966
-41.20578 -4.0970445 -0.5418151
-41.211224 -3.8423698 -0.5415498
-41.240002 -3.5899503 -0.54163361
-41.245308 -3.3355491 -0.54141021
-56.076275 -4.1889267 -0.74880439
-0 -0 -0
-0 -0 -0
-0 -0 -0
-0 -0 -0
-0 -0 -0
-0 -0 -0
-0 -0 -0
-0 0 -0
-0 0 -0
-0 0 -0
-0 0 -0
-0 0 -0
-0 0 -0
-0 0 -0
-0 0 -0
-0 0 -0
-0 0 -0
-0 0 -0
-0 0 -0
-0 0 -0
-0 0 -0
-0 0 -0
-0 0 -0
-0 0 -0
-62.558903 11.251066 -1.6500497
-0 0 -0
-61.33242 11.809232 -1.6207651
-61.132332 12.160177 -1.6173432
-60.994877 12.522383 -1.6156721
-59.659222 12.630126 -1.5815598
-0 0 -0
-61.13736 13.729062 -1.6260967
-55.287888 12.772232 -1.4691166
-0 0 -0
-0 0 -0
-0 0 -0
-50.446091 12.965525 -1.3455058
-0 0 -0
-48.014355 12.970639 -1.2831435
-0 0 -0
-43.71785 12.387467 -1.1691352
-0 0 -0
-42.042587 12.472075 -1.1270652
-41.948048 12.724586 -1.1265876
-41.708778 12.931995 -1.1221313
-41.747765 13.225412 -1.125447
-41.701019 13.49271 -1.1264285
-41.682938 13.769966 -1.1282588
-41.815529 14.098933 -1.1343597
-62.187603 21.394228 -1.7084862
-60.97702 21.397057 -1.6781671
-60.077499 21.496315 -1.6565485
-49.631039 18.102539 -1.3652412
-58.631371 21.794107 -1.6232054
-0 0 -0
-56.982906 21.980915 -1.5840532
-56.873943 22.34074 -1.5848224
-56.099068 22.434645 -1.5666257
-55.34465 22.527803 -1.548986
-54.456383 22.556705 -1.5274734
-43.700336 18.416086 -1.2217625
-0 0 -0
-51.894123 22.623205 -1.4655886
-50.86787 22.548231 -1.4398584
-50.357628 22.692764 -1.4290624
-0 0 -0
-47.740814 22.222279 -1.3607317
-47.689411 22.555399 -1.3632517
-47.675358 22.907772 -1.3669388
-47.448559 23.158216 -1.3644189
-47.388863 23.49021 -1.3668858
-45.790199 23.048798 -1.3237016
-44.945602 22.970379 -1.3027726
-44.462196 23.068474 -1.2925602
-43.974865 23.15918 -1.2822151
-43.529549 23.26693 -1.2731167
-43.038002 23.344831 -1.2626125
-42.767845 23.539055 -1.2587928
-42.447178 23.703064 -1.253461
-42.151337 23.878317 -1.2488985
-41.948559 24.104626 -1.2472008
-41.487225 24.17934 -1.2375985
-41.437042 24.491943 -1.240649
-41.214817 24.703077 -1.2384473
-40.940311 24.881258 -1.2346542
-40.729851 25.096857 -1.2328769
-40.481834 25.288038 -1.229959
-39.140167 24.785057 -1.1927167
-38.937717 24.992889 -1.1911517
-36.30172 23.616598 -1.112582
-36.119408 23.814684 -1.1114149
-35.955147 24.024197 -1.1108578
-35.827755 24.258373 -1.111521
-35.692245 24.487366 -1.1119719
-33.017361 22.951321 -1.0304048
-35.522278 25.017347 -1.1162956
-35.417744 25.270256 -1.1179137
-37.841568 27.351679 -1.2023722
-0 0 -0
-33.609753 24.92638 -1.0737481
-34.590302 25.984137 -1.1113883
-0 0 -0
-34.26408 26.402994 -1.1112292
-0 0 -0
-34.448837 27.225626 -1.1285241
-0 0 -0
-34.546261 27.998169 -1.143352
-34.325909 28.170294 -1.1417074
-34.063999 28.306908 -1.138657
-33.966923 28.580395 -1.1413361
-33.740696 28.745485 -1.1395854
-33.488747 28.887331 -1.1369593
-33.343243 29.120546 -1.1380999
-33.225342 29.378889 -1.140275
-33.145741 29.672884 -1.1438825
-32.904533 29.822668 -1.1417871
-32.800472 30.097 -1.1446518
-30.932901 28.734865 -1.0837219
-30.707218 28.878241 -1.0819446
-30.277502 28.826231 -1.0727136
-29.951073 28.867863 -1.0672227
-29.580204 28.862597 -1.0600607
-29.252493 28.895321 -1.0544637
-28.87602 28.875635 -1.0470099
-28.552181 28.904343 -1.0414926
-25.795454 26.435957 -0.94350594
-27.946289 28.99415 -1.0319698
-25.236814 26.506525 -0.93456674
-0 0 -0
-24.57831 26.457541 -0.92164862
-24.314806 26.498102 -0.91769624
-24.107452 26.59791 -0.91594553
-23.823782 26.611263 -0.9111709
-0 0 -0
-0 0 -0
-22.927717 26.578987 -0.89483094
-0 0 -0
-0 0 -0
-22.030827 26.510597 -0.8780666
-21.841112 26.612822 -0.87695247
-21.618874 26.674109 -0.87448555
-21.358604 26.686064 -0.87040061
-21.211815 26.838577 -0.87114334
-26.358475 33.774891 -1.1002475
-0 0 -0
-0 0 -0
-19.871939 26.452679 -0.8413282
-19.668762 26.519512 -0.83952445
-12.386782 16.916418 -0.51975483
-19.187254 26.544992 -0.83252162
-18.973505 26.591427 -0.83021384
-18.742641 26.611721 -0.82711035
-18.508823 26.625261 -0.82384765
-18.265368 26.622099 -0.82010752
-18.026575 26.622751 -0.816553
-17.806234 26.648079 -0.81384736
-17.592318 26.680887 -0.81143355
-17.416283 26.769894 -0.81084996
-17.299215 26.950287 -0.81318426
-30.727911 48.524841 -1.4874724
-30.42906 48.711624 -1.487446
-12.240152 19.863264 -0.58251506
-29.859114 49.130917 -1.4889845
-29.573534 49.340641 -1.4898332
-29.3333 49.627884 -1.4931225
-0 0 -0
-0 0 -0
-9.6102343 16.96294 -0.48073521
-9.5069456 17.023333 -0.48078826
-27.27758 49.560238 -1.4645275
-26.967728 49.717014 -1.4642358
-17.124367 32.036652 -0.92732513
-11.015159 20.914215 -0.59063202
-11.020127 21.238737 -0.59832448
-11.034261 21.589022 -0.60675973
-16.808941 33.39286 -0.95541608
-16.562443 33.412071 -0.95294917
-16.287846 33.371124 -0.94875807
-16.084942 33.474941 -0.94889069
-10.424526 22.039333 -0.61034071
-15.56453 33.436893 -0.94207352
-15.346585 33.504501 -0.9412778
-10.573148 23.461508 -0.6462568
-9.780055 22.06188 -0.60376233
-14.641791 33.585201 -0.93560123
-0 0 -0
-9.8653107 23.408083 -0.63745022
-9.7203474 23.465405 -0.63737065
-13.653749 33.542763 -0.92438078
-13.443224 33.614769 -0.92406249
-13.194687 33.589622 -0.92101198
-12.977903 33.642902 -0.92024273
-12.762733 33.699463 -0.91960615
-12.505566 33.642212 -0.91578639
-18.27005 50.090271 -1.3782123
-10.919889 30.517694 -0.82347625
-0 0 -0
-12.123619 35.239689 -0.95228601
-11.907484 35.314362 -0.95231253
-0 0 -0
-11.507382 35.563396 -0.95525694
-15.593444 49.221836 -1.3334897
-11.173116 36.034206 -0.96448791
-14.826042 48.874741 -1.3186617
-0 0 -0
-7.3408637 25.311682 -0.66272938
-7.0753241 24.967684 -0.65201288
-6.8686728 24.81794 -0.64670771
-6.69593 24.784342 -0.64463872
-6.4950719 24.640333 -0.63957226
-6.3290792 24.622599 -0.63800722
-6.1482482 24.542667 -0.63477111
-5.9830894 24.520689 -0.63315302
-5.8225894 24.515118 -0.63201237
-5.6639585 24.515318 -0.63105744
-5.5022597 24.499866 -0.62970465
-5.3514018 24.531214 -0.62965161
-5.1999521 24.559675 -0.62954551
-5.0547872 24.618538 -0.63028818
-4.9124107 24.693211 -0.63148189
-4.7817802 24.831846 -0.63442624
-4.6457911 24.949169 -0.63681358
-4.5083642 25.06477 -0.6391744
-4.378408 25.229851 -0.64288801
-4.2737923 25.556961 -0.65097839
-4.1893015 26.032755 -0.6630742
-4.5136166 29.189655 -0.74716127
-2.219923 14.959826 -0.36471096
-2.1247153 14.949413 -0.36407435
-1.8938622 13.937933 -0.33664656
-1.8097178 13.960196 -0.33693835
-1.8391532 14.904634 -0.36189923
-1.7581284 15.004996 -0.36428654
-1.66845 15.03736 -0.36487013
-1.5904077 15.183522 -0.36850417
-3.2772617 33.270172 -0.85050619
-2.8557296 30.934494 -0.78774589
-2.8682244 33.301907 -0.85034704
-2.6630373 33.308914 -0.85008174
-2.457799 33.313663 -0.84978998
-1.904557 28.166708 -0.71251845
-1.2409228 20.186739 -0.5000726
-1.1175324 20.202955 -0.50031132
-0.71075118 14.450401 -0.34730998
-0.62215763 14.456488 -0.34736302
-0.97305751 26.402739 -0.66448009
-0.80993193 26.372242 -0.66352516
-0.64657998 26.314754 -0.66188055
-0.48569161 26.35021 -0.66272938
-0.32321692 26.288721 -0.66103172
-0.16173515 26.26222 -0.66028899
-0.0005899673 26.270716 -0.66050118
0.16078879 26.300213 -0.66129696
0.32654801 26.655579 -0.67076671
0.49678463 27.015884 -0.6803956
0.79822922 32.534718 -0.82697773
0.86905515 28.335661 -0.71564853
1.0435658 28.347776 -0.71612602
1.1121409 25.890966 -0.65105796
1.259452 25.649021 -0.64482439
1.4098529 25.515047 -0.64148211
1.561294 25.423101 -0.6392805
1.7173927 25.415037 -0.63933355
1.8710238 25.373116 -0.63851124
2.0269938 25.365143 -0.63861734
2.1832795 25.360197 -0.63882953
2.3392131 25.350304 -0.63893563
2.503046 25.420034 -0.64119035
2.7123802 25.914228 -0.65479815
2.8883073 26.050106 -0.65888309
3.0437903 25.995157 -0.65790164
3.2100902 26.031549 -0.65938711
3.3706555 26.018303 -0.65957278
3.5083051 25.835672 -0.65524906
2.2631323 15.935395 -0.39049414
2.167223 14.61596 -0.35547996
2.4530141 15.870859 -0.38953921
2.3124318 14.377057 -0.34980342
2.4388554 14.591339 -0.35595742
4.5718985 26.351891 -0.67310101
4.7136846 26.213148 -0.67013007
4.8760839 26.192577 -0.67036885
5.0355725 26.156277 -0.67020965
5.1868024 26.078806 -0.66896296
5.3356633 25.992632 -0.66750401
5.4942226 25.955492 -0.66739792
5.642087 25.869526 -0.66599208
5.8508744 26.057777 -0.67206651
6.028429 26.098331 -0.67416203
6.1997709 26.108507 -0.67546183
6.3650661 26.091341 -0.67604536
6.5221248 26.040157 -0.67572707
6.6705823 25.956079 -0.67453337
4.2351217 16.071463 -0.40442023
7.0042448 25.93017 -0.67612493
4.4504228 16.084757 -0.40625051
4.5285921 15.985014 -0.40426108
4.2398324 14.623365 -0.36741662
6.0516567 20.401861 -0.52808392
4.4288311 14.602759 -0.3683185
8.0157938 25.854345 -0.68166888
8.156167 25.747498 -0.68007731
8.3352327 25.762592 -0.68190759
8.5122814 25.768864 -0.68352568
8.7178278 25.857288 -0.68747801
8.9394131 25.986692 -0.69262403
9.0897589 25.905884 -0.69190788
9.3189335 26.046333 -0.69745177
9.4748068 25.978334 -0.69716001
9.6611967 25.992794 -0.699229
9.8484745 26.006878 -0.70132452
10.015779 25.966478 -0.70190811
10.213662 26.003159 -0.70471984
10.444665 26.119137 -0.70983934
10.658628 26.186958 -0.71363258
10.850862 26.19772 -0.7158342
11.020332 26.151834 -0.71644431
6.3024669 14.704609 -0.38792112
6.3582168 14.586855 -0.38563991
6.5168757 14.70384 -0.39017582
11.850206 26.298206 -0.72880536
12.015509 26.234087 -0.7290706
12.18047 26.16893 -0.7293359
12.366457 26.147921 -0.73092747
12.595938 26.215712 -0.73517162
12.927127 26.487389 -0.74549013
13.036572 26.300989 -0.74233359
13.235014 26.294615 -0.74453521
13.467076 26.35177 -0.74867326
8.2805538 15.961565 -0.44054848
8.3829947 15.919301 -0.44081375
8.482872 15.871972 -0.44094637
14.424314 26.593273 -0.76618034
14.627707 26.577829 -0.76840854
14.950864 26.774719 -0.77713555
8.3554106 14.750972 -0.41325334
8.4636936 14.730628 -0.41420829
8.5423422 14.658555 -0.41359818
12.168398 20.588428 -0.59800619
16.149052 26.943993 -0.7969504
16.319263 26.85294 -0.79721564
16.494736 26.770174 -0.79777271
16.725948 26.776131 -0.8011415
17.324209 27.358768 -0.82268053
17.656994 27.509377 -0.83079743
10.158446 15.61604 -0.45773727
10.180335 15.441585 -0.4541828
10.309325 15.430361 -0.45582741
10.428472 15.403234 -0.45699453
18.954584 27.628248 -0.85246909
19.250423 27.693644 -0.85835785
22.426466 31.843681 -0.99690259
22.345055 31.318136 -0.98427624
22.344133 30.913897 -0.97554922
22.391661 30.582642 -0.96918303
22.382374 30.179712 -0.96042949
22.559925 30.032219 -0.96011114
22.767988 29.925049 -0.96117222
23.017076 29.8703 -0.964037
23.263271 29.809677 -0.96676916
0 0 -0
0 0 -0
11.951388 14.747587 -0.46710092
0 0 -0
12.10463 14.567524 -0.46598682
25.304359 30.073664 -1.0063193
25.548056 29.987837 -1.0087596
18.044285 20.919199 -0.69647032
26.321836 30.138868 -1.0252057
26.683739 30.177486 -1.0323147
26.917744 30.068304 -1.0342776
29.368843 32.403835 -1.1238555
29.546165 32.200191 -1.1230332
29.750669 32.026348 -1.123325
30.269873 32.186905 -1.1358452
30.355818 31.884007 -1.1315745
30.339985 31.478348 -1.1235107
30.353836 31.108435 -1.1167201
29.980719 30.351246 -1.0954462
29.978359 29.978695 -1.0883904
16.169647 15.973361 -0.56651998
16.267353 15.873845 -0.56651998
16.345013 15.755001 -0.56580377
30.42268 28.965141 -1.0780452
30.604933 28.782719 -1.078231
30.789753 28.602552 -1.0785493
30.994875 28.440802 -1.0796368
31.208799 28.286335 -1.0810692
23.763855 21.274801 -0.80976242
23.893198 21.127926 -0.80973589
31.892828 27.854385 -1.087011
31.00794 26.74799 -1.0500339
32.469658 27.663174 -1.0952871
32.676266 27.494959 -1.0965868
32.935848 27.36997 -1.0997435
33.359722 27.377903 -1.1085501
33.751526 27.354593 -1.1162161
34.055321 27.256292 -1.1208581
34.323879 27.127396 -1.1243064
19.889668 15.522826 -0.63288772
19.991667 15.405985 -0.6331265
36.82859 28.021158 -1.1913639
37.316345 28.03241 -1.2018682
0 0 -0
0 0 -0
29.846497 21.573469 -0.94061464
0 0 -0
22.817768 16.070765 -0.70397711
41.506016 28.852543 -1.3047355
23.056952 15.819517 -0.705383
42.379276 28.694668 -1.3214734
42.586132 28.455198 -1.3224814
43.069557 28.397499 -1.3323225
44.240139 28.781382 -1.3638883
44.494987 28.560144 -1.3663818
44.698948 28.305307 -1.3673102
44.968441 28.090881 -1.3703341
45.185913 27.842749 -1.3717664
35.914524 21.827272 -1.0786023
26.405031 15.82714 -0.78029215
26.461201 15.640918 -0.7790454
26.487579 15.437993 -0.77692336
26.521133 15.240315 -0.77506655
28.790365 16.310047 -0.8414343
28.890772 16.133574 -0.84146082
49.142494 27.047668 -1.4518747
29.163029 15.81929 -0.8437686
49.701698 26.566034 -1.4588245
41.910381 22.072159 -1.2203037
50.946793 26.43289 -1.4864115
51.763168 26.454597 -1.5059345
52.045059 26.197161 -1.5095154
52.502182 26.024715 -1.518322
0 0 -0
53.97543 25.934778 -1.5524079
34.923107 16.517754 -0.98852038
36.973221 17.21052 -1.0455776
35.330395 16.182858 -0.99456829
38.855869 17.509922 -1.0943056
38.9772 17.277658 -1.09473
39.09164 17.042168 -1.0949954
0 0 -0
39.015945 16.442385 -1.0868784
38.990494 16.150654 -1.0832709
0 0 -0
39.880035 15.948597 -1.1031122
40.27861 15.822007 -1.1117066
40.350685 15.565211 -1.111017
40.810963 15.455752 -1.1213886
41.808311 15.540788 -1.1469595
42.964104 15.671012 -1.1769338
43.433117 15.540784 -1.1874646
44.410553 15.583778 -1.2122928
45.833458 15.767858 -1.2495617
46.638844 15.725539 -1.2694296
47.574497 15.716565 -1.292905
54.897499 17.762726 -1.4944752
54.893959 17.390226 -1.4913718
55.033047 17.063438 -1.4923002
55.052528 16.699905 -1.4899659
0 0 -0
57.559475 16.691788 -1.553681
58.027252 16.44212 -1.5637875
0 0 -0
0 0 -0
0 0 -0
0 0 -0
0 0 -0
0 0 -0
0 0 -0
0 0 -0
0 0 -0
0 0 -0
0 0 -0
0 0 -0
0 0 -0
0 0 -0
0 0 -0
0 0 -0
0 0 -0
0 0 -0
0 0 -0
0 0 -0
0 0 -0
0 0 -0
0 0 -0
0 0 -0
0 0 -0
0 0 -0
0 0 -0
0 0 -0
0 0 -0
0 0 -0
0 0 -0
0 0 -0
0 0 -0
0 0 -0
0 0 -0
0 0 -0
0 0 -0
0 0 -0
0 0 -0
0 0 -0
0 0 -0
0 0 -0
0 0 -0
40.762844 0.25039461 -1.0450736
38.127541 0.00033129146 -0.97512484
38.120827 -0.23357798 -0.97496563
38.102684 -0.46728197 -0.97454125
38.054123 -0.70023787 -0.9733476
36.913853 -0.90582657 -0.94321418
32.251434 -0.98931283 -0.8196035
36.830029 -1.356171 -0.94135737
30.965488 -1.3303441 -0.78583604
30.876867 -1.516394 -0.783714
25.66177 -1.4179668 -0.64538145
28.715727 -1.763653 -0.72681594
25.678343 -1.7351974 -0.64633638
25.966293 -1.9147922 -0.65429413
20.250275 -1.6180161 -0.50245994
19.946157 -1.7169313 -0.49463478
19.999949 -1.8452597 -0.49635896
19.985266 -1.9676483 -0.49627939
19.946966 -2.0875318 -0.49558973
19.888079 -2.2048154 -0.49436954
10.603843 -1.2409177 -0.24669726
10.595037 -1.3058358 -0.24667074
10.589799 -1.3712066 -0.24675032
10.579205 -1.4358895 -0.24669726
10.597907 -1.5047128 -0.24744
10.599352 -1.5713258 -0.24773178
13.880227 -2.1451926 -0.33608952
13.870751 -2.2309551 -0.33619562
13.810461 -2.3082733 -0.33494893
36.538994 -6.3397574 -0.94745833
36.536793 -6.5705614 -0.9484663
46.653549 -8.68608 -1.2226379
44.752956 -8.6166239 -1.1727427
43.992352 -8.7504339 -1.1536175
43.727299 -8.9769745 -1.1479145
30.473707 -6.450839 -0.78994757
30.627911 -6.680099 -0.79522622
0 -0 -0
30.382921 -7.0183182 -0.79084945
0 -0 -0
0 -0 -0
42.356071 -10.609426 -1.1220517
41.983265 -10.79023 -1.1136431
42.315483 -11.152863 -1.1245983
24.65727 -6.6603503 -0.6411373
24.436741 -6.7619243 -0.63620347
24.456345 -6.9291811 -0.63790113
8.0333319 -2.3286021 -0.18534288
8.0093088 -2.3750064 -0.18507762
7.9869328 -2.4217844 -0.18486542
8.016798 -2.4846609 -0.18611214
0 -0 -0
39.481167 -12.774393 -1.064517
37.773235 -12.47828 -1.0189986
37.663754 -12.698957 -1.0180968
37.438606 -12.879411 -1.0139853
0 -0 -0
0 -0 -0
37.504169 -13.679053 -1.0227122
37.56945 -13.964648 -1.0269564
18.61598 -7.0492821 -0.49161083
18.438074 -7.1115651 -0.48779112
18.489925 -7.2622123 -0.49052328
18.601877 -7.4382615 -0.49500614
18.343861 -7.4659514 -0.48893172
36.184025 -14.987579 -1.0026587
36.037029 -15.186413 -1.0010936
35.901825 -15.389522 -0.99989998
35.872696 -15.638286 -1.0018098
35.71027 -15.828933 -0.99989998
35.550499 -16.019821 -0.99809623
0 -0 -0
31.473314 -14.649685 -0.88459194
31.168665 -14.741226 -0.87830532
31.03618 -14.91228 -0.87708509
30.767122 -15.016053 -0.87185949
30.675303 -15.204998 -0.87188601
30.476959 -15.340343 -0.86878252
29.469881 -15.060741 -0.84159344
29.362717 -15.233915 -0.84116906
29.247463 -15.402615 -0.84053242
29.058954 -15.531831 -0.83772069
28.454344 -15.433861 -0.82236218
28.180454 -15.509828 -0.81695092
12.82774 -7.1622496 -0.35325179
0 -0 -0
12.57507 -7.2249908 -0.34823838
12.592685 -7.3382573 -0.35014826
12.71609 -7.5150857 -0.35534734
12.471676 -7.4742484 -0.34921986
28.790369 -17.496792 -0.8573764
28.672256 -17.666822 -0.85705805
0 -0 -0
0 -0 -0
21.821705 -14.006055 -0.65145588
23.827635 -15.50093 -0.717691
0 -0 -0
0 -0 -0
28.869761 -19.546959 -0.88854432
22.511076 -15.443645 -0.68779635
27.812658 -19.33316 -0.86220407
23.158398 -16.309317 -0.71501189
21.513416 -15.349076 -0.66466576
28.247663 -20.416893 -0.8882525
0 -0 -0
0 -0 -0
18.922743 -14.214052 -0.59140122
27.549557 -20.960516 -0.88196588
27.408548 -21.12001 -0.88156801
25.658989 -20.023897 -0.8270573
25.531721 -20.17786 -0.82692462
25.413673 -20.339138 -0.82713687
25.312471 -20.514204 -0.82795918
0 -0 -0
20.666563 -17.173153 -0.67641675
20.572275 -17.309292 -0.67681462
0 -0 -0
26.329721 -22.711639 -0.8860774
0 -0 -0
0 -0 -0
0 -0 -0
21.056684 -19.083933 -0.71747881
20.559872 -18.864702 -0.70381796
20.793079 -19.315039 -0.71647084
20.649414 -19.418974 -0.71556896
21.479006 -20.449001 -0.7503444
21.808722 -21.019548 -0.76713526
21.594196 -21.069889 -0.76397872
21.896187 -21.628424 -0.7800799
21.565855 -21.565151 -0.77267921
19.084698 -19.319538 -0.68400311
19.50474 -19.988638 -0.70448112
21.24226 -22.038349 -0.77562356
21.094917 -22.155966 -0.77517265
20.930496 -22.255127 -0.77408504
20.083267 -21.618498 -0.74639201
19.945509 -21.736164 -0.74620634
6.7776756 -7.4766088 -0.23117962
6.8176832 -7.6141357 -0.23460147
6.744349 -7.6258693 -0.23354043
6.651401 -7.6144028 -0.23168361
6.6006374 -7.6505299 -0.23152445
6.5957079 -7.7403483 -0.23324864
6.571259 -7.8082099 -0.23420358
0 -0 -0
21.028128 -25.622154 -0.84294629
19.957258 -24.62381 -0.80445725
19.805168 -24.74502 -0.80443066
19.650484 -24.86294 -0.80432457
2.0402272 -2.6125364 -0.051360592
1.9973118 -2.5901649 -0.050193455
1.976539 -2.5960069 -0.049981248
1.9617738 -2.6096842 -0.050034299
1.9457241 -2.6216724 -0.050034299
1.9296012 -2.6335618 -0.050034299
1.9163336 -2.6494029 -0.050166927
1.9412631 -2.7188885 -0.052050266
17.771049 -25.232101 -0.78233463
0 -0 -0
10.058052 -14.658867 -0.43513721
17.012728 -25.125324 -0.76856768
16.968201 -25.393814 -0.7738198
16.945778 -25.700254 -0.78026563
15.808194 -24.297966 -0.7325986
15.731702 -24.508078 -0.73617959
15.089555 -23.827986 -0.7118023
14.953656 -23.937082 -0.71233279
14.798634 -24.015619 -0.71193492
14.645288 -24.096573 -0.7116431
12.747832 -21.267263 -0.62134898
14.529556 -24.580843 -0.72108632
0 -0 -0
13.800999 -24.01622 -0.6984067
0 -0 -0
13.501345 -24.176788 -0.6981945
13.327199 -24.212761 -0.69678861
0 -0 -0
12.02303 -22.492222 -0.64015585
12.270005 -23.297049 -0.66209275
12.946262 -24.951357 -0.70930886
11.987286 -23.453876 -0.66233146
12.615726 -25.061916 -0.70792949
11.621321 -23.443369 -0.65771598
7.7294512 -15.834986 -0.43097264
7.6286807 -15.874907 -0.43076044
7.5332675 -15.925935 -0.43089306
6.8671985 -14.751091 -0.3951627
6.7661514 -14.770228 -0.39449954
11.856108 -26.308704 -0.72912371
11.861755 -26.758396 -0.74007887
12.31931 -28.257456 -0.7813797
0 -0 -0
11.976666 -28.41848 -0.78172451
0 -0 -0
11.631926 -28.57535 -0.78206939
12.255121 -30.643642 -0.83915311
0 -0 -0
12.202287 -31.632063 -0.8630529
0 -0 -0
0 -0 -0
0 -0 -0
0 -0 -0
0 -0 -0
11.22451 -32.625984 -0.87894195
11.026983 -32.702766 -0.87918067
10.865623 -32.889412 -0.88252294
0 -0 -0
10.385128 -32.780121 -0.8758384
0 -0 -0
0 -0 -0
9.3475933 -31.508041 -0.83549249
9.1465712 -31.538881 -0.83477634
4.1794195 -14.746755 -0.37012225
4.1387105 -14.952286 -0.37508258
3.9814558 -14.735168 -0.36842459
3.8965721 -14.780587 -0.36900815
3.8130226 -14.832295 -0.36977741
3.7214558 -14.853473 -0.36972436
3.6266928 -14.86146 -0.36932647
7.6494484 -32.208405 -0.84183222
7.4807 -32.380379 -0.84525406
0.53505564 -2.3776453 -0.02807086
6.5236177 -29.905933 -0.77562356
0.50604504 -2.38501 -0.028097386
0.49682871 -2.4145095 -0.028813584
0.4831742 -2.4233952 -0.028972739
0.46980727 -2.4341671 -0.029184947
0.45724106 -2.44978 -0.029529782
0.45493916 -2.5233779 -0.031439647
0.43500456 -2.5005136 -0.030749975
0.42196116 -2.5169392 -0.031121336
0.41444862 -2.5688288 -0.032447632
0.40096959 -2.5861421 -0.032845519
4.7177896 -31.801607 -0.81649995
4.5464697 -31.998207 -0.8210094
4.3456078 -31.992813 -0.82013404
0.36306798 -2.7934761 -0.038150698
0.34249502 -2.7678716 -0.037407972
0.33561951 -2.8563004 -0.039715726
0.3205108 -2.8801641 -0.040299296
0.30366492 -2.8900304 -0.040511504
0.28690594 -2.9017875 -0.040776763
0.27286154 -2.9443054 -0.041864324
0.16981681 -1.9589241 -0.015577164
0.15739572 -1.9549469 -0.015444534
0.14495632 -1.9498942 -0.015285378
0.13285448 -1.9487522 -0.015232326
0.12040444 -1.9415485 -0.015020119
0.10931636 -1.9572226 -0.015418008
0.096030265 -1.9318969 -0.014728335
0.084131666 -1.9314511 -0.014701809
0.072058283 -1.9259371 -0.014542653
0.06164914 -1.9723052 -0.015762845
0.050060868 -1.9936327 -0.016319888
0.05662838 -3.0163696 -0.043455876
0.038143709 -3.0186594 -0.043508928
0.012934408 -1.9252419 -0.014489601
0.0011221491 -1.8773019 -0.013216359
-0.010378313 -1.8742746 -0.013136781
-0.022013631 -1.8851709 -0.013428566
-0.033580408 -1.8850003 -0.013428566
-0.0450477 -1.8807614 -0.013322462
-0.056740418 -1.8854455 -0.013455092
-0.069449522 -1.9160299 -0.014277395
-0.083996177 -1.9804848 -0.016001577
-0.13457015 -2.761713 -0.036771353
-0.15234113 -2.7758071 -0.03716924
-0.16685614 -2.7339118 -0.036081679
-0.18558379 -2.7617602 -0.036850929
-0.14080893 -1.9241387 -0.014595705
-0.21683154 -2.7263916 -0.035975575
-0.23226945 -2.7100704 -0.035577685
-0.35347405 -3.8413763 -0.065764152
-0.2743291 -2.7965508 -0.037965018
-0.40225273 -3.8526568 -0.066188566
-0.26983422 -2.4432425 -0.028627902
-0.2819131 -2.4167194 -0.027964756
-0.50149369 -4.0747738 -0.072342575
-0.51222593 -3.9615791 -0.069398202
-0.52535605 -3.8761458 -0.067196548
-0.55025476 -3.8807669 -0.067408755
-0.45918992 -3.1030674 -0.046638984
-0.64733219 -4.1938038 -0.076003149
-0.50612891 -3.152468 -0.048124433
-0.70122099 -4.2003336 -0.076401033
-0.72851884 -4.2048163 -0.076639771
-0 -0 -0
-6.3514047 -34.115555 -0.8842206
-0.48747671 -2.5376561 -0.031970166
-0.42950705 -2.1649928 -0.021969903
-0.43916413 -2.1446908 -0.021492437
-0.46018371 -2.1791184 -0.022500422
-0.47184142 -2.1684403 -0.022288214
-0.47856647 -2.1362438 -0.021492437
-0.48603955 -2.1089175 -0.02082929
-0.49850848 -2.1039503 -0.020776238
-0.51093477 -2.0989094 -0.020723186
-0.52404672 -2.0967047 -0.020749712
-0.68198806 -2.6578963 -0.036214307
-0.76631457 -2.911752 -0.043296721
-0.71272808 -2.6425717 -0.036028627
-0.70919788 -2.5668547 -0.034065712
-0.71839333 -2.5393722 -0.03342909
-0.69859886 -2.4129856 -0.030060301
-0.78930718 -2.6645358 -0.037142713
-0.78764904 -2.6003335 -0.035498109
-0.54749113 -1.7695507 -0.012553211
-0.55803668 -1.7652051 -0.012526685
-0.57593578 -1.783623 -0.013136781
-0.61916906 -1.8778218 -0.015868949
-0.59554434 -1.7697903 -0.012951099
-0.6008637 -1.7500333 -0.012500159
-0.61357641 -1.751973 -0.012659315
-0.64553267 -1.8074712 -0.014330446
-1.2016249 -3.2976179 -0.056533143
-0.64467561 -1.7375712 -0.012579737
-0.64718169 -1.7120814 -0.011969642
-0.65839422 -1.7099435 -0.012022694
-0.67252886 -1.7151757 -0.012287952
-0.68378276 -1.7128732 -0.012341004
-0.70445603 -1.733644 -0.013057203
-1.2177758 -2.9428287 -0.047912225
-0.72917151 -1.7331594 -0.013295936
-0.73585349 -1.7194649 -0.013030677
-0.74119657 -1.7030048 -0.012685841
-0.75001156 -1.6947694 -0.012579737
-0.7608071 -1.6910468 -0.012606263
-0.78823721 -1.7236092 -0.013693824
-0.84267288 -1.812992 -0.016452517
-0.85164422 -1.803269 -0.016319888
-0.87308395 -1.8196341 -0.01695651
-0.89694852 -1.8402947 -0.01772576
-0.90999943 -1.8383391 -0.017831864
-1.9199902 -3.816745 -0.076772399
-1.920626 -3.7603862 -0.075446106
-2.0596831 -3.9721346 -0.082130626
-0.95204544 -1.8101461 -0.017672708
-0.96219188 -1.8025072 -0.017619656
-0.98562664 -1.8194153 -0.018309331
-0.98713118 -1.7958183 -0.017778812
-1.0020307 -1.7967099 -0.017991019
-1.0209202 -1.8044441 -0.018415434
-1.0354593 -1.8042129 -0.018601116
-1.0485238 -1.8012801 -0.018707218
-1.6582609 -2.8076835 -0.049928196
-1.6805967 -2.8060298 -0.050193455
-1.682726 -2.7708919 -0.049424201
-1.7122823 -2.7809398 -0.050060824
-2.5333006 -4.0573573 -0.090327129
-1.6762173 -2.6490827 -0.046585932
-1.6708403 -2.6050978 -0.045524895
-1.4305723 -2.2009754 -0.033057727
-1.4132345 -2.1454208 -0.031572275
-1.4696926 -2.20154 -0.033641297
-1.4714031 -2.1750979 -0.033084251
-1.4773694 -2.155313 -0.032739416
-1.4335066 -2.0641274 -0.030086827
-1.4553548 -2.0683692 -0.030511241
-1.7142047 -2.4044249 -0.041758221
-2.6588736 -3.6803944 -0.083881341
-0 -0 -0
-0 -0 -0
-23.246208 -30.945753 -0.99043024
-0 -0 -0
-1.9010036 -2.4687665 -0.046081942
-1.9155008 -2.4562676 -0.046055414
-1.9330156 -2.4476051 -0.046161518
-1.9579918 -2.4481854 -0.046585932
-2.8478894 -3.5156012 -0.083456926
-2.040525 -2.4881096 -0.048787583
-2.0595868 -2.4801552 -0.048946738
-2.8368139 -3.3730938 -0.080353394
-3.2645917 -3.833482 -0.097011656
-2.0200047 -2.3434241 -0.045498371
-2.0369761 -2.3339972 -0.045604475
-2.0419879 -2.3109705 -0.045233112
-2.0514619 -2.2931843 -0.045047428
-2.0466964 -2.2598145 -0.044304706
-2.0875587 -2.2766755 -0.04536574
-3.394206 -3.6553485 -0.095764935
-0 -0 -0
-0 -0 -0
-2.9135509 -3.0243831 -0.074836008
-2.9243736 -2.9985788 -0.074544221
-2.1474617 -2.1755381 -0.044516914
-2.1607699 -2.1623206 -0.044516914
-3.2848871 -3.246314 -0.08595036
-4.3436418 -4.2397599 -0.12446596
-3.3482292 -3.2286515 -0.086825714
-2.6678619 -2.5415106 -0.061175171
-3.539068 -3.3297644 -0.092343099
-3.9000037 -3.6243472 -0.10467764
-2.7421806 -2.5176551 -0.062183157
-3.5486498 -3.2177374 -0.090512812
-2.7415874 -2.4558115 -0.061069071
-3.6245646 -3.206394 -0.091812581
-4.2721195 -3.7324977 -0.11393517
-3.8294127 -3.3046644 -0.097621746
-3.7065594 -3.1592307 -0.092634879
-3.2187376 -2.7097292 -0.075048216
-4.2709398 -3.5505035 -0.11077859
-4.2910995 -3.5229623 -0.11072554
-0 -0 -0
-3.4809482 -2.7873261 -0.081732742
-3.465045 -2.7398825 -0.08061865
-3.4605131 -2.7019649 -0.079902455
-2.9266973 -2.2566259 -0.061466958
-2.939693 -2.2380202 -0.061440431
-2.9022167 -2.1815157 -0.059742775
-2.8593421 -2.121984 -0.057885963
-3.8756895 -2.8390241 -0.090884171
-3.8784533 -2.8046494 -0.090406708
-4.7060966 -3.3590684 -0.1168265
-4.7298884 -3.3324313 -0.1169326
-4.7691255 -3.3164694 -0.1175427
-4.7646561 -3.2701788 -0.11674692
-4.3483992 -2.9455268 -0.10276777
-3.9690824 -2.6533296 -0.090088397
-4.0078216 -2.6437824 -0.090804599
-4.0189404 -2.6158705 -0.09064544
-3.8860106 -2.4955881 -0.08595036
-3.2526219 -2.0609775 -0.065578468
-3.2677503 -2.0425696 -0.065658048
-3.2776685 -2.0209076 -0.065578468
-3.3079464 -2.0116603 -0.066135518
-3.3528101 -2.0108535 -0.0671435
-4.5260015 -2.6763883 -0.10292693
-4.5682483 -2.6636672 -0.10372271
-4.6209102 -2.6565042 -0.10483679
-4.4170656 -2.5034463 -0.098125741
-4.6182494 -2.5801041 -0.10377575
-4.2609148 -2.3463886 -0.092475727
-4.2892909 -2.3278258 -0.092900142
-4.4568958 -2.3834543 -0.09751565
-4.6262231 -2.4375761 -0.10215767
-4.4112725 -2.2899117 -0.095287472
-4.3789525 -2.2391465 -0.093908124
-17.26137 -8.6894732 -0.4761993
-7.7218366 -3.8287308 -0.19210698
-4.4104424 -2.1537807 -0.093642868
-7.7303958 -3.7155011 -0.19099289
-7.7711215 -3.6765459 -0.19152342
-7.8705683 -3.6646497 -0.19377811
-5.775269 -2.6463945 -0.13197277
-46.447781 -20.930876 -1.3152664
-0 -0 -0
-5.8743186 -2.5620124 -0.13345823
-5.8844151 -2.5235569 -0.13329908
-44.139648 -18.601488 -1.2344154
-5.8225837 -2.4129033 -0.13064648
-5.8687601 -2.3899443 -0.13154836
-9.4893217 -3.7958703 -0.23460147
-9.6287403 -3.7832563 -0.2379172
-23.32848 -8.9994497 -0.62689286
-23.25799 -8.8087006 -0.6233384
-23.589895 -8.7692652 -0.63121659
-46.306492 -16.890039 -1.2713394
-11.439162 -4.0939517 -0.28579643
-7.7306094 -2.7137089 -0.18080695
-11.48665 -3.9526167 -0.28574339
-7.8542657 -2.6492975 -0.18335344
-7.8447452 -2.5925889 -0.18263723
-7.8072433 -2.5271733 -0.18115179
-7.82165 -2.4789195 -0.18112527
-29.295147 -9.083765 -0.77726817
-15.46227 -4.6912751 -0.39216527
-50.808701 -15.072841 -1.3696975
-9.7552023 -2.8299365 -0.23293033
-9.6848602 -2.7452285 -0.23051648
-13.092841 -3.6241763 -0.32388762
-12.797327 -3.4580078 -0.3151606
-13.007766 -3.4293518 -0.32035968
-9.7435055 -2.5052307 -0.23035732
-13.329112 -3.3396587 -0.32802567
-13.10559 -3.1983433 -0.32136765
-13.097734 -3.1114018 -0.32062492
-12.961713 -2.9952047 -0.31640732
-13.128102 -2.9489052 -0.32043925
-11.488508 -2.5068123 -0.27542481
-11.489004 -2.4331677 -0.27502692
-11.408732 -2.3431287 -0.2724539
-11.421914 -2.2728868 -0.27242738
-12.798138 -2.4650657 -0.30924532
-12.924074 -2.4071653 -0.31224275
-12.889407 -2.3189733 -0.31091645
-13.393891 -2.32494 -0.32412636
-13.364522 -2.2354603 -0.32295921
-12.447287 -2.0036848 -0.29794529
-0 -0 -0
-25.888393 -3.8407791 -0.65787512
-26.051022 -3.7016814 -0.66161531
-25.97419 -3.5283144 -0.65896267
-32.182449 -4.170413 -0.82451081
-23.959831 -2.9558046 -0.60400105
-23.976524 -2.8086181 -0.60397452
-38.355213 -4.2538362 -0.98740631
-44.023766 -4.609076 -1.1379672
-41.202999 -4.0584025 -1.0620236
-41.207218 -3.8036721 -1.0614932
-41.2248 -3.550329 -1.0613605
-41.192997 -3.2930911 -1.0599546
-46.363621 -3.4201355 -1.1970139
-0 -0 -0
-0 -0 -0
-0 -0 -0
-0 -0 -0
-0 -0 -0
-0 -0 -0
-0 -0 -0
-0 -0 -0
-0 -0 -0
-0 -0 -0
-0 -0 -0
-0 0 -0
-0 0 -0
-0 0 -0
-0 0 -0
-0 0 -0
-0 0 -0
-0 0 -0
-0 0 -0
-0 0 -0
-0 0 -0
-0 0 -0
-0 0 -0
-0 -0 -0
-0 -0 -0
-0 -0 -0
-0 -0 -0
-0 -0 -0
-0 0 -0
-0 0 -0
-0 0 -0
-0 0 -0
-0 0 -0
-0 0 -0
-0 0 -0
-0 0 -0
-0 0 -0
-0 0 -0
-0 0 -0
-0 0 -0
-0 0 -0
-0 0 -0
-0 0 -0
-0 0 -0
-0 0 -0
-0 0 -0
-0 0 -0
-0 0 -0
-0 0 -0
-0 0 -0
-0 0 -0
-0 0 -0
-0 0 -0
-0 0 -0
-0 0 -0
-0 0 -0
-0 0 -0
-0 0 -0
-0 0 -0
-0 0 -0
-0 0 -0
-0 0 -0
-0 0 -0
-0 0 -0
-0 0 -0
-0 0 -0
-0 0 -0
-0 0 -0
-46.982334 12.037481 -1.834866
-46.858303 12.312582 -1.8328993
-44.113991 11.881345 -1.7262748
-43.62991 12.038578 -1.7098473
-43.279236 12.228086 -1.6987799
-42.041878 12.157541 -1.6521198
-41.953075 12.411307 -1.6515799
-41.784313 12.640717 -1.6478779
-41.667778 12.885055 -1.6463354
-41.531715 13.122719 -1.6440603
-41.486549 13.388968 -1.6455256
-41.42165 13.649214 -1.6462582
-41.464981 13.946118 -1.6514641
-41.738731 14.323856 -1.6661564
-0 0 -0
-0 0 -0
-0 0 -0
-0 0 -0
-0 0 -0
-0 0 -0
-0 0 -0
-0 0 -0
-43.851711 17.810944 -1.7897483
-43.698196 18.061739 -1.7879359
-43.556152 18.316744 -1.7866633
-43.553188 18.630814 -1.7912908
-43.366581 18.866608 -1.7882829
-0 0 -0
-0 0 -0
-0 0 -0
-44.412998 20.632465 -1.8530674
-44.028027 20.783024 -1.8420771
-43.655502 20.935688 -1.8316268
-42.919842 20.907776 -1.8055973
-42.596394 21.074579 -1.7972293
-41.98679 21.094654 -1.7765214
-41.545021 21.192961 -1.7630247
-41.207451 21.340408 -1.7540396
-40.953674 21.528688 -1.748718
-40.303291 21.50346 -1.7260821
-40.248795 21.792696 -1.7295141
-39.405811 21.649992 -1.6983173
-39.339432 21.928837 -1.7012866
-39.063229 22.090122 -1.6950395
-38.75013 22.227966 -1.6871728
-38.385853 22.333157 -1.6770309
-38.057903 22.456043 -1.6685086
-37.088497 22.191978 -1.6311419
-0 0 -0
-37.253407 22.916117 -1.6510786
-37.066307 23.115715 -1.6489962
-36.833397 23.285582 -1.64487
-36.480331 23.376905 -1.635268
-36.274197 23.560028 -1.6324145
-36.089722 23.756336 -1.630602
-35.871788 23.929642 -1.6272856
-35.726765 24.150976 -1.6274014
-35.574608 24.367477 -1.6272471
-33.034702 22.926819 -1.5149925
-35.370991 24.871168 -1.6318746
-33.774723 24.059816 -1.5635037
-33.446571 24.136789 -1.554943
-33.288158 24.334482 -1.5544802
-33.114929 24.521032 -1.5533619
-32.96225 24.722561 -1.5532848
-32.782883 24.903797 -1.5519737
-34.358356 26.434635 -1.636155
-34.311378 26.735239 -1.6418236
-34.216503 27.000357 -1.6452557
-34.172749 27.307734 -1.65131
-34.121845 27.611814 -1.6571329
-33.856709 27.742764 -1.6523896
-33.472057 27.7726 -1.6416694
-33.20768 27.89904 -1.6369648
-32.935398 28.016809 -1.6318746
-32.849186 28.292711 -1.6362706
-32.959648 28.741985 -1.6508472
-32.877056 29.027012 -1.655706
-32.798904 29.318096 -1.6609119
-32.676929 29.571764 -1.6639583
-32.572227 29.842587 -1.6680074
-32.550415 30.192062 -1.6765296
-32.44759 30.469198 -1.6809257
-32.332447 30.736567 -1.6847819
-32.230362 31.018217 -1.689448
-26.75304 26.06506 -1.4046274
-26.603275 26.239248 -1.4052058
-26.342777 26.303143 -1.3998072
-26.006599 26.288113 -1.3902438
-25.728874 26.328558 -1.3838423
-25.369049 26.281034 -1.3728522
-25.089397 26.312536 -1.366258
-24.845259 26.378698 -1.3616306
-24.520939 26.356531 -1.3524528
-24.201889 26.335798 -1.3435063
-23.91156 26.342484 -1.336141
-23.674095 26.404636 -1.3317834
-23.373173 26.393053 -1.3237239
-23.14171 26.456997 -1.3196748
-22.81954 26.413994 -1.3102657
-22.500721 26.370321 -1.3009722
-22.221296 26.36882 -1.2939539
-21.977261 26.406361 -1.2890179
-21.765963 26.481274 -1.2860487
-21.504824 26.493299 -1.2800329
-21.235611 26.492207 -1.2734773
