# .PCD v0.7 - Point Cloud Data file format
VERSION 0.7
FIELDS x y z
SIZE 4 4 4
TYPE F F F
COUNT 1 1 1
WIDTH 1557
HEIGHT 1
VIEWPOINT 0 0 0 1 0 0 0
POINTS 1557
DATA ascii
-7.8208356 6.8180528 -1.8951031
-7.7478971 6.8385911 -1.8874059
-7.7079897 6.8879676 -1.8879557
-7.7005739 6.9667892 -1.8967525
-7.6446323 7.0019565 -1.8934537
-7.6411729 7.0854931 -1.9035332
-7.6118884 7.1457014 -1.9071985
-7.5579233 7.1827917 -1.9046328
-7.5122914 7.2276678 -1.9042664
-7.4896336 7.294889 -1.9099475
-7.4363317 7.3324251 -1.9077483
-7.3849387 7.371665 -1.906099
-7.3423343 7.4196343 -1.906832
-7.2952957 7.4631405 -1.9064655
-7.2841921 7.5438285 -1.915812
-7.2323389 7.5826907 -1.9143459
-7.1573615 7.5968742 -1.9066488
-7.1407523 7.6730304 -1.9148957
-7.079565 7.7015028 -1.9110471
-7.0262284 7.7382474 -1.9093977
-7.0179987 7.8251233 -1.9203936
-6.9718084 7.870245 -1.9209434
-6.9246807 7.9143548 -1.9213099
-6.8804884 7.9619012 -1.9225928
-6.8315058 8.0039692 -1.9225928
-6.7867012 8.0509977 -1.9238757
-6.7327704 8.0872002 -1.9225928
-6.6998792 8.1488609 -1.927541
-6.6497526 8.1898174 -1.927541
-6.5975308 8.2281647 -1.9269912
-6.5676689 8.2946949 -1.9332222
-6.5221 8.3418074 -1.9348716
-6.4810057 8.3948975 -1.9379871
-6.4013619 8.3977613 -1.9293736
-6.3503051 8.4376669 -1.9295568
-6.3359394 8.5269718 -1.9412858
-6.2759404 8.5553837 -1.9389035
-6.2192907 8.5881577 -1.9376205
-6.1767688 8.6405516 -1.9409193
-6.1253357 8.6806984 -1.9414691
-6.0831938 8.7342529 -1.9451344
-6.0272593 8.7681742 -1.9444014
-5.962307 8.7887211 -1.9407361
-5.915925 8.8365765 -1.9433018
-5.8599677 8.8702488 -1.942752
-5.8134837 8.9183903 -1.945501
-5.7437615 8.9307432 -1.9403695
-5.6893821 8.9666481 -1.9405528
-5.6253891 8.9872236 -1.9374373
-5.6057768 9.0792856 -1.9500825
-5.5514956 9.1160307 -1.9506323
-5.4701471 9.1077852 -1.9414691
-5.4482279 9.1986942 -1.9539311
-5.3753219 9.2039375 -1.9478834
-5.302557 9.2086334 -1.9418356
-5.2687654 9.2811766 -1.9504491
-5.2069173 9.3047514 -1.9486165
-5.1786904 9.3890333 -1.9597956
-5.1270871 9.4318609 -1.9621781
-5.0691175 9.4631424 -1.9621781
-5.0160055 9.5036306 -1.9641939
-4.9589586 9.5368462 -1.9647437
-4.8999 9.5662193 -1.9645605
-4.8366823 9.587328 -1.9627279
-4.765954 9.5930538 -1.9577798
-4.7143464 9.6371288 -1.9608952
-4.6589651 9.6738453 -1.9625446
-4.6012044 9.7058029 -1.9632777
-4.5843797 9.8256102 -1.982154
-4.5268764 9.8598089 -1.9834368
-4.462245 9.8784409 -1.9816042
-4.4031448 9.9092274 -1.9823372
-4.3269057 9.9009275 -1.9751899
-4.272284 9.9417419 -1.9781221
-4.2066112 9.9569025 -1.9759229
-4.1646671 10.028828 -1.9852694
-4.095252 10.035079 -1.9814209
-4.0346985 10.062756 -1.9819707
-3.9750402 10.092811 -1.9830703
-3.9183571 10.130764 -1.9858192
-3.8508866 10.140831 -1.9830703
-3.7906516 10.169795 -1.9841698
-3.737298 10.21779 -1.989118
-3.6788492 10.252558 -1.9915005
-3.6145658 10.271229 -1.9907675
-3.5588503 10.314588 -1.9949825
-3.4992738 10.347405 -1.9971817
-3.4400468 10.381745 -1.9997474
-3.3747633 10.397983 -1.998831
-3.30673 10.405377 -1.9962654
-3.2542102 10.462081 -2.0034127
-3.185375 10.466804 -2.0004804
-3.1222138 10.489921 -2.0012136
-3.0619104 10.523039 -2.0039625
-3.0069647 10.575669 -2.01056
-2.9470155 10.611917 -2.0140421
-2.885191 10.642135 -2.0164244
-2.8190835 10.656787 -2.0158746
-2.7583082 10.69197 -2.0193567
-2.6849792 10.678185 -2.0134923
-2.618005 10.688729 -2.0123928
-2.5516868 10.701723 -2.011843
-2.4864187 10.719094 -2.0122094
-2.4231961 10.745656 -2.0144086
-2.3593204 10.769925 -2.0162413
-2.2893074 10.765929 -2.0127592
-2.2200282 10.764369 -2.0098269
-2.1562498 10.789356 -2.0120261
-2.090754 10.806244 -2.0127592
-2.0213344 10.802443 -2.0096438
-1.9658585 10.874619 -2.0210061
-1.8950406 10.863235 -2.0166078
-1.8213391 10.832972 -2.0087273
-1.7553062 10.846854 -2.0092771
-1.7033769 10.951644 -2.0270538
-1.6345501 10.951195 -2.025038
-1.5663497 10.954206 -2.0237551
-1.5031029 10.99283 -2.029253
-1.4264629 10.931661 -2.016058
-1.3719709 11.041666 -2.0351176
-1.2925529 10.951271 -2.0166078
-1.2205249 10.91601 -2.0085442
-1.1558979 10.945779 -2.0127592
-1.0907569 10.973207 -2.0166078
-1.0238624 10.984588 -2.0175242
-0.9544819 10.968139 -2.013309
-0.89025551 11.012003 -2.0204563
-0.81900847 10.968242 -2.0112932
-0.74960929 10.942657 -2.0056119
-0.67896372 10.891125 -1.9951658
-0.61576623 10.959866 -2.0072613
-0.54821122 10.957546 -2.0061617
-0.48234692 10.992132 -2.0120261
-0.41578192 11.018461 -2.0164244
-0.34903625 11.048317 -2.0215559
-0.28116333 11.047302 -2.0210061
-0.21363929 11.06258 -2.023572
-0.1450683 11.011584 -2.0138588
-0.077729248 11.044708 -2.0199065
-0.0099578118 11.043994 -2.0197234
0.057663973 11.016321 -2.0145919
0.12554745 11.041318 -2.0193567
0.19339637 11.046238 -2.0204563
0.26110157 11.041895 -2.0199065
0.32788375 11.007658 -2.0138588
0.39358565 10.954352 -2.004329
0.4638896 11.025396 -2.018074
0.5298754 10.987975 -2.0116596
0.59632623 10.966847 -2.0083609
0.66437805 10.975739 -2.0107434
0.73138452 10.966551 -2.0098269
0.79958838 10.974603 -2.0122094
0.86807346 10.98419 -2.0149584
0.93545485 10.978657 -2.0149584
1.0022644 10.966837 -2.0138588
1.0669599 10.934063 -2.0089107
1.1346387 10.933178 -2.0100102
1.2039582 10.94653 -2.0138588
1.2649769 10.886206 -2.0039625
1.3413032 10.956302 -2.0186238
1.4041154 10.913739 -2.0122094
1.4619887 10.837696 -1.9995642
1.536427 10.884979 -2.0101936
1.6057671 10.892854 -2.0134923
1.6749629 10.898342 -2.0164244
1.7354368 10.84806 -2.0089107
1.7960018 10.801326 -2.0021298
1.858399 10.767821 -1.9979148
1.9332622 10.805569 -2.0072613
1.9980953 10.78577 -2.0057952
2.0794046 10.852479 -2.020823
2.1285849 10.75176 -2.0041459
2.2012074 10.771244 -2.0103767
2.2552977 10.70078 -1.9995642
2.3058949 10.617572 -1.986369
2.3832257 10.657907 -1.9968152
2.4604766 10.694818 -2.0067115
2.4995813 10.567589 -1.9852694
2.57691 10.603638 -1.9951658
2.6419241 10.587626 -1.9951658
2.6992805 10.541694 -1.9894845
2.7796407 10.584835 -2.0010302
2.8317614 10.520116 -1.9918671
2.8939066 10.494013 -1.9902176
2.948626 10.442 -1.98362
3.0194643 10.447322 -1.9882017
3.0782156 10.410686 -1.9847196
3.1471572 10.408541 -1.9880184
3.2060292 10.373067 -1.984903
3.2710967 10.357887 -1.9858192
3.3379095 10.347913 -1.9878352
3.4093349 10.351514 -1.9926001
3.4712205 10.325741 -1.9916837
3.5408912 10.322845 -1.995349
3.5979965 10.283294 -1.9918671
3.6587136 10.254542 -1.9905841
3.7202213 10.228204 -1.9898511
3.773344 10.179375 -1.9847196
3.8378165 10.161549 -1.9858192
3.889859 10.1112 -1.9805046
3.935333 10.045037 -1.9720744
4.0081835 10.049007 -1.9777555
4.0645909 10.011473 -1.9751899
4.1150584 9.9599953 -1.9698752
4.183332 9.9517775 -1.9733572
4.250886 9.941288 -1.9764727
4.3078847 9.906003 -1.9746401
4.3499012 9.8371258 -1.9660267
4.4101791 9.8102503 -1.9660267
4.4506807 9.7400856 -1.9572299
4.5198832 9.7331009 -1.961445
4.5774221 9.7007389 -1.9605287
4.6500311 9.6999512 -1.9662099
4.6896648 9.630579 -1.9577798
4.7408247 9.5857611 -1.9544809
4.8074937 9.5723038 -1.9577798
4.866138 9.5426254 -1.9577798
4.9259543 9.5152073 -1.9583296
4.9901905 9.4961157 -1.960712
5.0395741 9.4488373 -1.9572299
5.0829511 9.3909359 -1.9515487
5.1281738 9.3371668 -1.9467838
5.1791487 9.2943611 -1.9444014
5.2384987 9.2666864 -1.9453176
5.2889028 9.2232828 -1.9429352
5.3285928 9.1617641 -1.9367043
5.3892031 9.1365166 -1.9383537
5.4547496 9.1193066 -1.9418356
5.501936 9.0713758 -1.9387201
5.5569782 9.0366087 -1.9385369
5.631043 9.0323744 -1.9451344
5.6669278 8.9669046 -1.9383537
5.7016916 8.900507 -1.9313896
5.7508435 8.85711 -1.9295568
5.8023796 8.8175507 -1.9286406
5.8525562 8.7760563 -1.9273577
5.9018917 8.7334642 -1.9258916
5.9525909 8.6930304 -1.9249753
5.999094 8.6466503 -1.9227761
6.0503402 8.6072645 -1.9222263
6.0973372 8.5619707 -1.9203936
6.16011 8.5387478 -1.9236923
6.2025266 8.4872961 -1.9205769
6.2386956 8.4277439 -1.9156288
6.2720089 8.3649225 -1.9099475
6.3226223 8.3254976 -1.9097643
6.3711905 8.2834291 -1.9090312
6.4061904 8.2240152 -1.9042664
6.4644461 8.1945868 -1.9066488
6.4888363 8.122508 -1.8989516
6.5366983 8.0802469 -1.8984019
6.583663 8.0369444 -1.8976687
6.6347356 7.9986668 -1.8982185
6.6975985 7.9743681 -1.9022504
6.7368498 7.9218884 -1.8995014
6.7680125 7.8602881 -1.8945533
6.8232207 7.8267641 -1.8965691
6.8691645 7.7825389 -1.8960193
6.9135132 7.7365789 -1.8951031
6.9575562 7.6903677 -1.8941867
7.0072684 7.6504316 -1.8949198
7.0647731 7.6188259 -1.8978521
7.0905309 7.5531144 -1.8921708
7.1265845 7.4987764 -1.8894218
7.1738253 7.4563241 -1.8897884
7.1940637 7.3861089 -1.8830075
7.2351074 7.3376274 -1.8819079
7.2744379 7.2875295 -1.8804418
7.3336902 7.2572784 -1.8842905
7.3626165 7.1970248 -1.8802586
7.3868375 7.1325927 -1.8751272
7.4133906 7.0708485 -1.8707287
7.4709468 7.0387111 -1.8743941
7.502481 6.9820218 -1.8714619
7.5357728 6.9272065 -1.8690794
7.546113 6.8517594 -1.8610158
7.5858169 6.803359 -1.860466
7.621532 6.7514701 -1.8589998
7.6783509 6.718173 -1.8628484
7.7052965 6.6587195 -1.8593663
7.7482519 6.6132302 -1.8599161
7.7894359 6.5661969 -1.8600994
7.8190017 6.5094719 -1.8575337
7.8185511 6.4282818 -1.8478206
7.8738732 6.3932009 -1.8516692
7.9190884 6.3496871 -1.8531353
7.9594417 6.3021975 -1.8535019
8.0088034 6.2617183 -1.8560675
8.0105019 6.1842227 -1.8474541
8.0240612 6.1164794 -1.8417729
8.0614395 6.0671291 -1.8417729
8.0985155 6.0175509 -1.8417729
8.1463833 5.9758873 -1.8443387
8.2227068 5.9546208 -1.8535019
8.2790813 5.9183483 -1.8580835
8.2943563 5.8527002 -1.8533186
8.3591518 5.8219242 -1.8599161
8.374465 5.7566009 -1.8553345
8.4324064 5.720562 -1.860466
8.4461098 5.6544938 -1.8557011
8.4863882 5.6063561 -1.8569839
8.519805 5.5536423 -1.8568007
8.5636425 5.5076427 -1.8589998
8.5599232 5.4312916 -1.8507529
8.6297512 5.4016175 -1.8588165
8.6836443 5.3614769 -1.8633982
8.7079821 5.3029809 -1.8615656
8.7378283 5.247931 -1.8610158
8.7470274 5.1806908 -1.8560675
8.7769527 5.1259308 -1.8557011
8.8602057 5.1019058 -1.8668802
8.8391953 5.0178385 -1.8557011
8.8895483 4.9745498 -1.8599161
8.9457283 4.9341555 -1.8654141
8.9766989 4.8796425 -1.8655974
9.022069 4.8328266 -1.8688961
9.0402508 4.7714114 -1.8665137
9.0754623 4.7190266 -1.8677965
9.0902481 4.6560807 -1.8648643
9.1221561 4.6019878 -1.8655974
9.1264515 4.5341182 -1.8606492
9.1399717 4.4711213 -1.8577169
9.1681204 4.4153819 -1.8579003
9.2421188 4.3813653 -1.8676133
9.2625923 4.3216643 -1.8663304
9.3094835 4.2741838 -1.8705455
9.2844687 4.193912 -1.8600994
9.3261976 4.1440506 -1.8633982
9.3757706 4.0973783 -1.8683463
9.3673172 4.0254102 -1.8615656
9.4063292 3.9739795 -1.8644978
9.4169178 3.9105327 -1.8617488
9.4698601 3.8645651 -1.8676133
9.5180302 3.8162653 -1.8725615
9.5220594 3.7502263 -1.8687129
9.5696468 3.7013052 -1.873661
9.5590925 3.6299522 -1.8670635
9.6005297 3.5784414 -1.8709121
9.6158428 3.5171022 -1.8696291
9.6603746 3.4663355 -1.8742108
9.6796074 3.4063427 -1.8738443
9.7551537 3.3658054 -1.8846569
9.7355795 3.2923419 -1.8767766
9.7621298 3.2347083 -1.8780594
9.7406521 3.1613936 -1.8699957
9.8048372 3.1158595 -1.8787924
9.7552462 3.0343223 -1.8654141
9.7830858 2.9772706 -1.8672467
9.8416843 2.9292471 -1.8751272
9.8915653 2.878144 -1.8813581
9.8939104 2.8130939 -1.878426
9.9403477 2.7604887 -1.8841071
9.9561501 2.6991868 -1.8839239
9.970624 2.6375432 -1.8835573
9.9513998 2.5672276 -1.8767766
9.9793587 2.5092354 -1.879159
9.9850187 2.445617 -1.8773264
10.039999 2.3938818 -1.8850235
10.050669 2.3313439 -1.8842905
10.081087 2.2733071 -1.8874059
10.088123 2.2099352 -1.8861231
10.088032 2.1451309 -1.8835573
10.138554 2.0909369 -1.8907046
10.11938 2.0223298 -1.8846569
10.140285 1.9618813 -1.8863063
10.169525 1.9028801 -1.889605
10.194553 1.842894 -1.8921708
10.192111 1.777941 -1.889605
10.228034 1.7196087 -1.89437
10.203457 1.6511635 -1.8877724
6.0996079 0.94852912 -1.1116447
6.0382252 0.90106893 -1.0989995
0 0 -0
0 0 -0
0 0 -0
0 0 -0
0 0 -0
0 0 -0
0 0 -0
0 0 -0
0 0 -0
0 0 -0
0 0 -0
0 0 -0
0 0 -0
0 0 -0
0 0 -0
0 0 -0
0 0 -0
0 0 -0
0 0 -0
0 0 -0
0 0 -0
0 0 -0
0 0 -0
0 0 -0
0 -0 -0
0 -0 -0
0 -0 -0
0 -0 -0
0 -0 -0
0 -0 -0
0 -0 -0
0 -0 -0
0 -0 -0
0 -0 -0
5.9296966 -0.39565048 -1.0687608
5.9330401 -0.43245536 -1.0698603
5.9626155 -0.47140631 -1.0759081
0 -0 -0
0 -0 -0
6.0370722 -0.58928645 -1.0916688
9.5397902 -0.9900853 -1.7488575
9.3351688 -1.0267917 -1.7116547
9.1744061 -1.0661294 -1.6826988
9.0603561 -1.109266 -1.6625396
9.1840334 -1.181643 -1.6870972
9.2194767 -1.243754 -1.6951609
9.2311401 -1.3030475 -1.6988262
9.2278337 -1.3603809 -1.6997424
9.1969643 -1.4135424 -1.6955273
9.1648207 -1.4662211 -1.691129
9.1255894 -1.5174302 -1.6854478
9.099638 -1.5705535 -1.6823323
9.0578957 -1.620646 -1.6762846
9.0081491 -1.6688534 -1.6687707
8.9629822 -1.7174363 -1.6621732
8.9407024 -1.7701093 -1.659974
8.9460468 -1.8282806 -1.6630894
8.3853941 -1.7673956 -1.5584451
8.835516 -1.9189421 -1.6464124
8.9166355 -1.9939252 -1.664189
8.8754911 -2.0419879 -1.658691
8.8513145 -2.0936935 -1.6564919
8.8383017 -2.1479647 -1.6564919
8.8201866 -2.2009654 -1.6555756
7.3646607 -1.8859025 -1.3781122
8.8467102 -2.3232672 -1.6660217
8.83039 -2.3769951 -1.6656551
8.7739401 -2.4196351 -1.6575915
8.7362223 -2.4670146 -1.6531931
8.7124214 -2.5181162 -1.6515437
8.6986914 -2.5720847 -1.6519103
7.9948745 -2.4174514 -1.5179435
7.9132051 -2.4458535 -1.5049317
7.9008608 -2.49525 -1.5054815
7.8844662 -2.54338 -1.5052983
7.9069948 -2.6043177 -1.512812
8.6279449 -2.9005394 -1.6577748
8.6202135 -2.956933 -1.6597906
8.5944843 -3.0071731 -1.6583246
8.5499458 -3.0506024 -1.6531931
8.5338383 -3.1040144 -1.6537429
8.5155535 -3.1566603 -1.6539261
8.4518805 -3.1921809 -1.6451294
7.5870957 -2.9189236 -1.4763423
8.4175625 -3.2978094 -1.646229
8.3852987 -3.3446622 -1.6438466
8.3591528 -3.393832 -1.642747
8.3408976 -3.4461849 -1.6432968
8.3096256 -3.4931087 -1.6412809
8.2600155 -3.5320492 -1.6355997
8.2201567 -3.574825 -1.6319344
8.1782875 -3.6164498 -1.6279025
8.1613226 -3.6689811 -1.6290021
8.1145144 -3.7079585 -1.624054
8.0791273 -3.7518821 -1.6214882
8.0310602 -3.7896388 -1.6163568
7.9198947 -3.7967772 -1.5982136
7.9530158 -3.8728442 -1.6099426
7.9573011 -3.9355149 -1.6158071
8.0305185 -4.033236 -1.6361495
8.0634212 -4.111907 -1.648245
8.0380392 -4.1613059 -1.648245
8.0088739 -4.2087188 -1.647512
7.939528 -4.2346511 -1.6383487
7.9704566 -4.3141699 -1.6504441
7.9016132 -4.339807 -1.6414641
7.8464971 -4.3724189 -1.6354164
7.7707396 -4.3929081 -1.6249703
7.7871327 -4.4654441 -1.6343168
7.719646 -4.489913 -1.6257033
7.6817899 -4.5312023 -1.6235042
7.6496239 -4.5757284 -1.6225879
7.5894623 -4.6032085 -1.6156238
7.6322556 -4.6934581 -1.6312013
7.5782862 -4.7245989 -1.6257033
7.5391812 -4.7647076 -1.6235042
7.504837 -4.8076959 -1.6224046
7.4611793 -4.8445539 -1.619289
7.4649835 -4.9123983 -1.6268029
7.384809 -4.9248414 -1.6156238
7.3634119 -4.9761152 -1.6176397
7.2986722 -4.9978762 -1.6099426
7.2824073 -5.0526524 -1.6132413
7.2440295 -5.0921535 -1.6115919
7.1750112 -5.1097059 -1.6029785
7.1275783 -5.1421318 -1.5993131
7.1189108 -5.2025895 -1.6046278
7.0994968 -5.2555304 -1.6075602
7.066329 -5.2984033 -1.6073768
7.0156784 -5.3279877 -1.6031618
6.9812961 -5.3697362 -1.6027952
6.9358077 -5.4028063 -1.5998629
6.8824582 -5.4294324 -1.5950981
6.8728251 -5.4905801 -1.6007793
6.811491 -5.5103903 -1.5941818
6.7653837 -5.5421143 -1.5912496
6.732007 -5.5841494 -1.5914328
6.6863246 -5.6158676 -1.5886838
6.6435027 -5.6497831 -1.5866679
6.6243558 -5.7039104 -1.5905164
6.600348 -5.7541389 -1.5932654
6.5634427 -5.7932281 -1.592899
6.5299721 -5.8353567 -1.5934488
6.4787345 -5.8614645 -1.5896001
6.4448223 -5.9030991 -1.59015
6.3868537 -5.9224806 -1.5846519
6.3116889 -5.9252262 -1.5747557
6.2958798 -5.9834814 -1.5800704
6.2746329 -6.0369935 -1.5841022
6.249445 -6.0870404 -1.5872177
6.1972771 -6.1107779 -1.5833691
6.14575 -6.134799 -1.5797038
6.0761824 -6.1402512 -1.5712737
6.0445771 -6.1837449 -1.5729231
6.0058374 -6.2200103 -1.5727397
5.986558 -6.2766619 -1.5778712
5.9256854 -6.2896652 -1.5718235
2.2428749 -2.4104662 -0.57467806
2.2253809 -2.421288 -0.57394505
2.2111433 -2.4356251 -0.57412827
2.1968133 -2.4498782 -0.57431155
5.7221403 -6.4596448 -1.5696243
5.6707444 -6.4813166 -1.5663254
5.6392255 -6.5256591 -1.5687079
5.5907817 -6.5504174 -1.5663254
5.5466819 -6.5800886 -1.5652258
5.5106058 -6.619287 -1.5665088
5.456151 -6.6362696 -1.5624769
5.4116106 -6.6650443 -1.5613773
5.4056678 -6.7418389 -1.5718235
5.3800659 -6.794919 -1.5765883
2.0108378 -2.5723267 -0.56954664
1.9811987 -2.5667195 -0.56533158
1.9636244 -2.5764823 -0.56478179
1.9507343 -2.5924096 -0.56569809
1.9312727 -2.5995958 -0.5645985
1.8001488 -2.4544549 -0.52831203
1.7902443 -2.4726198 -0.52996141
1.7578871 -2.4595666 -0.52446347
4.8766537 -6.9112349 -1.5377362
4.8234797 -6.9257007 -1.5342541
4.7920318 -6.9713688 -1.5379194
4.7784185 -7.0437565 -1.5476325
4.70995 -7.0353675 -1.5392022
4.656939 -7.0493708 -1.5359035
4.6490302 -7.1321654 -1.547999
4.6285796 -7.1969361 -1.5560626
4.5790658 -7.2169008 -1.55423
4.5279164 -7.2340288 -1.5518476
4.484477 -7.2633486 -1.552214
4.4393144 -7.2898884 -1.5520308
1.7370219 -2.8926723 -0.58988911
1.7272562 -2.9168091 -0.59282136
1.7118055 -2.9315968 -0.59373766
4.1938262 -7.2833362 -1.5276566
4.2097263 -7.4157939 -1.5505646
4.1583838 -7.4311905 -1.5483655
4.1055861 -7.4436541 -1.5456165
4.049036 -7.4488406 -1.5414014
3.9948986 -7.4579468 -1.5381026
3.9541101 -7.4918818 -1.5401186
3.9144161 -7.5282135 -1.5426843
3.878907 -7.5730886 -1.5470827
3.8257241 -7.5835814 -1.5443337
3.779995 -7.6086736 -1.5447001
3.7306457 -7.6264257 -1.5436006
3.6846337 -7.6509442 -1.5439671
3.6338289 -7.6654143 -1.5423177
3.5850635 -7.6840034 -1.5415847
3.5333354 -7.6960292 -1.5395688
3.4577162 -7.6548524 -1.5267402
3.4374297 -7.736114 -1.539019
3.3835979 -7.7426472 -1.5360868
3.3465066 -7.7876492 -1.5410349
3.2998073 -7.8107529 -1.5415847
3.2348521 -7.7899985 -1.5333377
3.1940506 -7.8269939 -1.5368198
3.1452332 -7.8446198 -1.5364532
3.0876729 -7.8399897 -1.5316883
3.0363176 -7.8505359 -1.530039
2.9996085 -7.8993464 -1.5360868
2.9469619 -7.906549 -1.5338875
2.8956909 -7.9170966 -1.5324215
2.8543632 -7.9550714 -1.5364532
2.8025608 -7.9640899 -1.5348039
2.7481899 -7.9653382 -1.5316883
2.6923344 -7.9615636 -1.5276566
2.648999 -7.9947305 -1.5309553
2.5962522 -7.9996133 -1.5287561
2.5524786 -8.0322571 -1.5320549
2.5008094 -8.0402584 -1.5305887
2.454577 -8.0657969 -1.5326047
2.4061618 -8.0844746 -1.5333377
2.3551376 -8.094367 -1.5324215
2.2978983 -8.0821886 -1.52729
2.2474744 -8.0932951 -1.5267402
2.2093496 -8.1496286 -1.5349871
2.1464794 -8.114563 -1.5256406
2.1025434 -8.1504269 -1.530039
2.0503359 -8.1545935 -1.5283896
2.0021329 -8.1746597 -1.5298557
1.9469196 -8.1657524 -1.525824
1.8943349 -8.1670113 -1.523808
1.8366172 -8.1449165 -1.5173937
1.7885001 -8.1646757 -1.5190431
1.7346878 -8.1581879 -1.5157443
1.6881722 -8.1860085 -1.5190431
1.6408024 -8.2106724 -1.5217921
1.5933801 -8.2360287 -1.5247242
1.534315 -8.2002344 -1.5161109
0.47314256 -2.6190207 -0.45702189
1.4372874 -8.2397509 -1.5201427
1.3867023 -8.248415 -1.5201427
1.3318237 -8.230567 -1.5151945
1.2395875 -7.9704828 -1.4646133
1.1828197 -7.9254355 -1.454717
1.100345 -7.6960659 -1.4101837
1.0560328 -7.7241006 -1.4142154
1.0149806 -7.7791748 -1.4233787
0.96904814 -7.7998896 -1.4261277
0.91079688 -7.717823 -1.4096339
0.86451679 -7.733036 -1.4114665
0.81725806 -7.7401505 -1.411833
0.76867998 -7.7342587 -1.4098171
0.72212166 -7.7486176 -1.4116497
0.67541611 -7.7626963 -1.4134824
0.62587029 -7.7431779 -1.4090841
0.57131642 -7.6527605 -1.3914906
0.52609694 -7.6816216 -1.3962555
0.47950435 -7.6935353 -1.3979049
0.42914334 -7.6403866 -1.3874588
0.38073084 -7.6124392 -1.3817775
0.33341077 -7.6008821 -1.3792118
0.28839898 -7.646009 -1.3872755
0.24281484 -7.6898851 -1.3951559
0.19843134 -7.8012977 -1.4156816
0.15158667 -7.855444 -1.4255779
0.10538354 -8.0076046 -1.4538007
0.058007222 -8.2568092 -1.5001668
0.007429068 -8.3484344 -1.5172105
-0.043898299 -8.3679838 -1.5208757
-0.095331594 -8.3754215 -1.5223418
-0.14728712 -8.407115 -1.5283896
-0.19826615 -8.3805008 -1.5236247
-0.24886565 -8.3516121 -1.5184933
-0.30052865 -8.3617172 -1.5206925
-0.35203597 -8.3646269 -1.5216088
-0.40207621 -8.3357973 -1.5166607
-0.45102921 -8.2929268 -1.5091468
-0.50416088 -8.3272915 -1.5161109
-0.55420059 -8.3083477 -1.5131786
-0.60566902 -8.3116541 -1.5144615
-0.6554184 -8.2921009 -1.5115292
-0.70920527 -8.3222065 -1.5179435
-0.76025605 -8.3176985 -1.5179435
-0.81156451 -8.3158121 -1.5184933
-0.86287838 -8.3136091 -1.5190431
-0.91484046 -8.3169527 -1.5206925
-0.96211183 -8.2789583 -1.5146447
-1.0180275 -8.3148575 -1.5225251
-1.0690274 -8.3084545 -1.5225251
-1.1243228 -8.333889 -1.5285729
-1.1773605 -8.3404608 -1.5311385
-1.2295178 -8.3398876 -1.5324215
-1.2833546 -8.3496771 -1.5357202
-1.3297501 -8.311552 -1.530039
-1.3852377 -8.33039 -1.5351704
-1.4376632 -8.329483 -1.5366366
-1.4863214 -8.3069572 -1.5340708
-1.5290285 -8.2532167 -1.5256406
-1.5848194 -8.2707138 -1.5307721
-1.6139681 -8.1518612 -1.5100631
-0.61110252 -2.9888756 -0.5295949
-0.62983578 -2.9869936 -0.52996141
-0.64919478 -2.9878762 -0.53087771
-0.66773033 -2.9847958 -0.53106099
-0.68647289 -2.9825587 -0.5314275
-0.70747554 -2.9897704 -0.53362674
-0.71582627 -2.9442966 -0.52574629
-0.7384001 -2.9579718 -0.52922833
-2.0851021 -8.1427288 -1.5278398
-2.1327789 -8.1212244 -1.5261904
-0.78454602 -2.913502 -0.52336389
-0.80554384 -2.9200056 -0.52556306
-0.82184279 -2.9093316 -0.52446347
-0.84268069 -2.9146225 -0.52647936
-1.0550857 -3.5674214 -0.65439838
-2.4789004 -8.1981306 -1.5575287
-2.5073874 -8.1123228 -1.5437839
-2.5544524 -8.0883484 -1.5421345
-1.0445472 -3.237318 -0.59502053
-1.0625464 -3.2252455 -0.59392095
-2.7154284 -8.0772324 -1.5494651
-1.1039586 -3.2175429 -0.59502053
-1.1243296 -3.2125645 -0.59538704
-2.8573678 -8.0082893 -1.5459831
-2.9249313 -8.041419 -1.5560626
-1.1494483 -3.1000683 -0.5772438
-1.1663644 -3.0874391 -0.57614422
-1.1859926 -3.0820591 -0.57651073
-1.2400205 -3.1644273 -0.59447074
-1.2659688 -3.1731954 -0.5977695
-3.2278061 -7.9501719 -1.560461
-3.2615128 -7.8938737 -1.5531304
-3.3190293 -7.895463 -1.5575287
-3.3608425 -7.8595829 -1.5544132
-3.4113567 -7.8442221 -1.5555128
-3.4315963 -7.7602057 -1.5426843
-1.3002918 -2.8917494 -0.5519532
-1.3176022 -2.8828225 -0.55176997
-3.5610204 -7.6680861 -1.537003
-3.6486933 -7.7323318 -1.5547798
-3.704993 -7.7284145 -1.5586283
-3.7532046 -7.7073035 -1.5589949
-3.7978103 -7.6788416 -1.5578953
-3.8572083 -7.6799927 -1.5630267
-3.9055989 -7.6588082 -1.5635765
-3.9475477 -7.6250963 -1.5615606
-3.9951746 -7.6024714 -1.5619271
-4.0546999 -7.6021023 -1.5670586
-4.0942507 -7.5641112 -1.5643096
-4.144372 -7.5457406 -1.5657756
-4.205905 -7.5476494 -1.5716401
-4.2308526 -7.484045 -1.5635765
-4.2419758 -7.3973937 -1.5505646
-4.3060656 -7.4035187 -1.5575287
-4.3424225 -7.3617163 -1.55423
-4.3890252 -7.3374643 -1.5547798
-4.4354935 -7.3129172 -1.5553296
-4.5034528 -7.3232479 -1.5635765
-4.5415421 -7.2846322 -1.5611941
-4.5845785 -7.2541356 -1.5606443
-4.6247606 -7.2192459 -1.5591781
-4.6941299 -7.229486 -1.5677916
-4.7292147 -7.1865864 -1.564676
-4.8048549 -7.2048712 -1.5753055
-4.8506236 -7.1776972 -1.5758553
-4.9234543 -7.1899786 -1.5853851
-4.9310551 -7.107132 -1.5734729
-4.9604383 -7.0566349 -1.5688912
-5.0270228 -7.0588975 -1.576405
-5.084619 -7.0478511 -1.5809867
-5.1271882 -7.0157261 -1.5808034
-5.1695547 -6.9833441 -1.5806202
-5.2170238 -6.9577851 -1.5820863
-5.2875605 -6.9624405 -1.5906998
-5.3014145 -6.8924613 -1.581903
-5.3575001 -6.8776407 -1.5861181
-5.3910756 -6.8338323 -1.5835524
-5.448245 -6.8198271 -1.5881341
-5.4739132 -6.7663965 -1.5833691
-5.555819 -6.7821145 -1.5952814
-3.3806794 -4.0753508 -0.94798905
-5.6392598 -6.7141781 -1.5954646
-3.5679905 -4.195322 -0.98757434
-3.610342 -4.1927199 -0.99233925
-3.5946581 -4.1230621 -0.98061025
-3.6894932 -4.1797934 -1.0002196
-3.7399609 -4.1849322 -1.0071837
-3.8691106 -4.2763619 -1.0359563
-3.6987443 -4.0379529 -0.98170984
-3.8872085 -4.1917953 -1.0266098
-3.9000723 -4.1542468 -1.0231278
-3.9342923 -4.139502 -1.0255102
-4.0148239 -4.172668 -1.0403547
-4.0376077 -4.1451383 -1.0396216
-4.0174127 -4.0740838 -1.0275261
-4.0631695 -4.07023 -1.0330241
-4.1768069 -4.1330438 -1.0562987
-3.4717081 -3.3933287 -0.86588633
-3.4917564 -3.37128 -0.86570305
-3.4241698 -3.2656536 -0.84297818
-3.4291177 -3.2304246 -0.83912963
-4.3239298 -4.0237384 -1.06198
-3.4945555 -3.2120523 -0.84572715
-3.5171096 -3.1931932 -0.84646022
-3.5498092 -3.1833677 -0.84975898
-3.40224 -3.0135481 -0.8081578
-3.4184475 -2.9906735 -0.80760801
-3.7186267 -3.2132664 -0.87706548
-3.7165892 -3.17188 -0.87175077
-3.7713075 -3.1787965 -0.88036424
-3.9380612 -3.2782531 -0.91610092
-4.3871255 -3.6067922 -1.0196457
-4.4030685 -3.5748479 -1.0181797
-4.3674002 -3.5016391 -1.0044347
-4.4142365 -3.4949145 -1.0104824
-4.405395 -3.4441476 -1.0033351
-4.5003672 -3.4741254 -1.0207453
-4.495018 -3.4261825 -1.0145143
-4.5183125 -3.4003108 -1.0150641
-4.4609752 -3.3144741 -0.99692082
-4.5612845 -3.3457711 -1.0154306
-4.4925547 -3.2531385 -0.99490494
-4.6179934 -3.3009796 -1.0190959
-4.4582424 -3.1456165 -0.97804457
-4.5024662 -3.1356201 -0.98372579
-4.5985813 -3.160841 -1.0011359
-4.6073136 -3.1253901 -0.99875349
-4.5537019 -3.0483847 -0.98244292
-4.5608377 -3.0127997 -0.97987717
-4.6278262 -3.016433 -0.99068981
-4.5635672 -2.9348006 -0.97236335
-4.6146908 -2.9278126 -0.97969395
-4.7708912 -2.9860299 -1.010116
-4.7096601 -2.9076335 -0.99270576
-4.7013845 -2.862829 -0.98702455
-4.7955503 -2.8799908 -1.0037017
-4.8444266 -2.8690491 -1.0104824
-4.8534508 -2.834312 -1.0086498
-4.8596759 -2.7981007 -1.0062674
-4.8887215 -2.7750247 -1.0088331
-4.9056568 -2.7449758 -1.0088331
-4.8853936 -2.694406 -1.0009527
-4.8094196 -2.6141391 -0.98134333
-4.9501524 -2.6514282 -1.0077335
-4.9089489 -2.5907173 -0.99563801
-4.9160309 -2.5560124 -0.99380535
-4.8773751 -2.4980118 -0.98244292
-4.9619479 -2.5030205 -0.99692082
-5.0247531 -2.4961486 -1.0068172
-5.0514541 -2.4708865 -1.0091996
-4.9806089 -2.3984656 -0.99142289
-5.0609651 -2.399025 -1.0049845
-5.0800443 -2.3700047 -1.0059009
-5.106998 -2.3445325 -1.0084666
-5.1562271 -2.3289366 -1.0156139
-5.1587415 -2.2920649 -1.0132314
-5.1294708 -2.2414708 -1.0044347
-5.1422243 -2.2095666 -1.0042515
-5.2326565 -2.2104952 -1.019829
-5.2079906 -2.1625104 -1.0121318
-5.2384548 -2.1375721 -1.0156139
-5.2523847 -2.1057553 -1.0157971
-5.1828866 -2.0410626 -0.99930328
-5.3511786 -2.0695148 -1.0304583
-5.5025477 -2.0893447 -1.0581313
-5.402885 -2.0136497 -1.035773
-5.3782096 -1.9669514 -1.0284425
-5.3522406 -1.9203001 -1.0209286
-5.3926692 -1.8975407 -1.0266098
-5.4460287 -1.8788464 -1.0348567
-5.5245042 -1.8680723 -1.0480518
-5.4500117 -1.805689 -1.0311915
-5.6442561 -1.8317028 -1.0671114
-5.825901 -1.85123 -1.1004657
-5.7780128 -1.7970511 -1.0889199
-5.8604059 -1.7833191 -1.1028481
-5.8326077 -1.7358273 -1.0953342
-6.1716285 -1.7955979 -1.1591104
-6.239264 -1.7738292 -1.1701064
-6.2452946 -1.7341969 -1.16919
-6.3592377 -1.723886 -1.1891659
-6.3868017 -1.68936 -1.1924647
-6.9034524 -1.7808012 -1.2899617
-7.1201787 -1.7901969 -1.3295469
-7.1252999 -1.7450712 -1.3284473
-7.7593474 -1.8500017 -1.4479362
-7.8079004 -1.8110211 -1.4550836
-8.070117 -1.8197466 -1.503099
-8.4441175 -1.849727 -1.5723733
-9.0466661 -1.9236511 -1.6850812
-9.1112528 -1.8790287 -1.6951609
-9.1862345 -1.8358053 -1.7072563
-9.3430643 -1.8076077 -1.7349293
-9.6216412 -1.8003401 -1.7856938
-10.044609 -1.8157823 -1.8637648
-10.385798 -1.811736 -1.9262581
-10.455854 -1.7579206 -1.9374373
-10.45674 -1.6921608 -1.9356046
-10.404757 -1.6182959 -1.9238757
-10.513665 -1.5692291 -1.9425687
-10.539639 -1.5070552 -1.9456842
-10.47369 -1.4320992 -1.9315728
-10.493003 -1.3692065 -1.9335887
-10.483647 -1.3026143 -1.93029
-10.490466 -1.2381481 -1.9301066
-10.519359 -1.1761605 -1.9341385
-10.524423 -1.1113862 -1.933772
-10.547674 -1.0484424 -1.9368875
-10.595018 -0.98753667 -1.9445846
-10.580312 -0.92071772 -1.9407361
-10.538729 -0.85197669 -1.9319394
-10.528073 -0.78612447 -1.9290071
-10.572909 -0.72426671 -1.9365209
-10.608552 -0.66133738 -1.9423854
-10.577075 -0.59424555 -1.9357879
-10.50394 -0.52550036 -1.9214932
-10.554108 -0.46310985 -1.93029
-10.531209 -0.39737761 -1.9255251
-10.554083 -0.33340448 -1.9293736
-9.8795471 0.72607875 -1.9311486
-9.9052143 0.78910291 -1.9371965
-9.8493729 0.84549731 -1.9270518
-9.8410692 0.90564603 -1.9264665
-9.8177576 0.96428496 -1.9229549
-9.7853184 1.0217541 -1.9176874
-9.7652178 1.0802652 -1.9149562
-9.7749653 1.1421 -1.9182727
-9.7658272 1.2018167 -1.9178826
-9.7777224 1.2642337 -1.9217843
-9.774641 1.324864 -1.9227598
-9.7469063 1.3820591 -1.9188579
-9.7421236 1.442414 -1.9196383
-9.7282429 1.5014148 -1.9186629
-9.7062588 1.5590544 -1.9161267
-9.6945753 1.6182584 -1.9157366
-9.6747999 1.6760373 -1.9137856
-9.6575766 1.7341551 -1.91242
-9.6400042 1.7921246 -1.9110544
-9.6134167 1.8482761 -1.9079329
-9.6374874 1.9143023 -1.9151512
-9.6217175 1.9726125 -1.9143709
-9.6007957 2.0297863 -1.9126151
-9.5632458 2.0832269 -1.9075427
-9.5454979 2.1407928 -1.9065672
-9.5082912 2.1938074 -1.90169
-9.5213709 2.2584491 -1.9071525
-9.5120993 2.3179901 -1.908128
-9.5024538 2.3775024 -1.9091034
-9.4781876 2.4333236 -1.9071525
-9.4516973 2.4884372 -1.9048115
-9.3955345 2.5353923 -1.8964226
-9.4213943 2.6044979 -1.9050065
-9.4146729 2.6649299 -1.9069575
-9.4009695 2.7234662 -1.9075427
-9.4066496 2.7877893 -1.9122249
-9.3781042 2.8420403 -1.9098839
-9.3014679 2.8812397 -1.8975931
-9.2967043 2.9424031 -1.9003243
-9.2868738 3.0021074 -1.9020802
-9.2431326 3.0507312 -1.8968128
-9.2288876 3.1089547 -1.8977882
-9.2216949 3.1696694 -1.9003243
-9.2066994 3.2278161 -1.9012998
-9.1553221 3.2730172 -1.8946668
-9.131381 3.3277879 -1.8938864
-9.1273384 3.3899028 -1.897398
-9.1137047 3.448621 -1.8989588
-9.10427 3.5090637 -1.901495
-9.054266 3.5537484 -1.8954471
-9.0277367 3.6074173 -1.8944716
-9.0254183 3.6708741 -1.8987637
-9.0054426 3.7273097 -1.899349
-9.0167503 3.7969642 -1.9067624
-8.9148512 3.8186116 -1.8897895
-8.8849583 3.8704977 -1.8884239
-8.8843565 3.9352722 -1.8934963
-8.9011784 4.0082407 -1.9024704
-8.846097 4.0489001 -1.8958373
-8.8442068 4.1138601 -1.9009097
-8.7992916 4.1588273 -1.8966177
-8.7744923 4.2131648 -1.8968128
-8.7449493 4.2652049 -1.8960325
-8.71422 4.3166051 -1.895057
-8.6428871 4.3475108 -1.8851074
-8.6212893 4.4031377 -1.8862779
-8.6115227 4.4649854 -1.8901796
-8.5839634 4.5177402 -1.8901796
-8.5482969 4.5661659 -1.8884239
-8.5502949 4.6348939 -1.895252
-8.5148201 4.6834879 -1.8936913
-8.4610872 4.7217822 -1.8880337
-8.4319553 4.7736096 -1.8880337
-8.4084597 4.8286772 -1.8893993
-8.3956223 4.8900542 -1.8933011
-8.3612375 4.938982 -1.8923256
-8.3366642 4.9937215 -1.8936913
-8.2999992 5.0412154 -1.8923256
-8.2137957 5.0580988 -1.8794497
-8.1884279 5.1120391 -1.8808154
-8.1685095 5.1695304 -1.8835466
-8.1135225 5.2047234 -1.8780841
-8.1143227 5.2757978 -1.8858877
-8.0867109 5.3287258 -1.8870583
-8.0196085 5.3553643 -1.8788644
-7.9833488 5.4022717 -1.8780841
-7.8934326 5.4123235 -1.8644278
-7.925313 5.5059896 -1.8802301
-7.8761425 5.543787 -1.8765234
-7.8395824 5.590301 -1.8759381
-7.8091083 5.6411705 -1.8769135
-7.7949252 5.704042 -1.8819859
-7.7503247 5.7447534 -1.8796448
-7.715714 5.7927895 -1.8798399
-7.6729989 5.8346791 -1.8780841
-7.6603627 5.8996062 -1.8839368
-7.6031404 5.9302092 -1.8786694
-7.5850801 5.9913425 -1.8833516
-7.5527701 6.0414472 -1.8845221
-7.5003171 6.0753279 -1.8806202
-7.4727559 6.1293216 -1.8831564
-7.4493403 6.1869659 -1.8868631
-7.4022307 6.2249818 -1.8845221
-7.3541889 6.2620168 -1.8819859
-7.3379102 6.3262386 -1.8878386
-7.3255525 6.3943658 -1.8948618
-7.245028 6.4028182 -1.8839368
-7.2202215 6.4602337 -1.8878386
-7.2095189 6.5307565 -1.8956422
-7.1490741 6.5563064 -1.8901796
-7.1079922 6.5993814 -1.8899846
-7.0766549 6.6516047 -1.8925208
-7.0421019 6.7009864 -1.8942766
-7.0262785 6.768569 -1.9012998
-6.9347672 6.7629294 -1.8874484
-6.8952341 6.8074207 -1.8880337
-6.8866286 6.882885 -1.897398
-6.8794236 6.9605913 -1.9073477
-6.7879453 6.9528384 -1.8934963
-6.738348 6.9872971 -1.8915453
-6.748107 7.083909 -1.9067624
-6.6904016 7.1101794 -1.9026655
-6.6466484 7.1510973 -1.9026655
-6.6152458 7.2054744 -1.9063722
-6.574203 7.2495623 -1.9073477
-6.5453 7.3072996 -1.9120299
-6.5087876 7.3568735 -1.9145659
-6.4706221 7.4047971 -1.9167119
-6.4205804 7.4391627 -1.9153464
-6.3697243 7.4724469 -1.9137856
-6.3559647 7.5496588 -1.9237353
-6.2775459 7.5500503 -1.9137856
-6.270308 7.6361847 -1.9260763
-6.2270408 7.6790857 -1.9272468
-6.1761279 7.7125559 -1.9260763
-6.132946 7.7556925 -1.927442
-6.0749826 7.7800345 -1.9241254
-6.0415015 7.8358068 -1.9288076
-5.9903383 7.8688269 -1.9278321
-5.9425325 7.906219 -1.9280272
-5.8979993 7.9480467 -1.9293928
-5.8468022 7.9809213 -1.9286125
-5.7931247 8.0102882 -1.9270518
-5.7353187 8.0337086 -1.9241254
-5.686482 8.0695505 -1.9243205
-5.6642976 8.1437464 -1.93388
-5.6153321 8.179966 -1.9342701
-5.5677853 8.2183275 -1.9352455
-5.5232487 8.2613058 -1.9373915
-5.4702945 8.2917652 -1.9366112
-5.4193139 8.3251743 -1.9366112
-5.3638902 8.3516674 -1.9350505
-5.3198924 8.3960218 -1.9377817
-5.2651567 8.4235153 -1.9366112
-5.2107987 8.4514885 -1.9356357
-5.1715808 8.5042543 -1.940513
-5.1147633 8.5282555 -1.9387572
-5.0668311 8.5670767 -1.940513
-5.0121932 8.5946159 -1.9397327
-4.9662061 8.6371126 -1.9424639
-4.8971591 8.6392641 -1.9360259
-4.8512321 8.6819935 -1.9389523
-4.815845 8.7442446 -1.9463657
-4.7597618 8.7693195 -1.9453902
-4.7086396 8.8035488 -1.9465607
-4.6696191 8.8609095 -1.9529988
-4.6418195 8.9407558 -1.9645091
-4.5877657 8.9708157 -1.9648993
-4.5374875 9.0084324 -1.9670453
-4.4821272 9.0361042 -1.9670453
-4.4111071 9.0317078 -1.960022
-4.36198 9.0718632 -1.9629483
-4.3112674 9.1090956 -1.9652895
-4.2474275 9.1184845 -1.9615828
-4.1852694 9.1310005 -1.9586564
-4.1420622 9.1851206 -1.9648993
-4.1003366 9.2435369 -1.9721177
-4.0505996 9.2847042 -1.9756292
-3.9927802 9.30758 -1.975239
-3.939024 9.3400383 -1.9769949
-3.89328 9.3921194 -1.9830427
-3.838537 9.4230986 -1.9846034
-3.7784598 9.4410105 -1.9834329
-3.7118502 9.4421091 -1.9787507
-3.6481948 9.4500666 -1.9756292
-3.5957015 9.486948 -1.9787507
-3.5466533 9.5336523 -1.9840181
-3.4870806 9.5524712 -1.9834329
-3.425427 9.5653772 -1.9816771
-3.368295 9.5908422 -1.9826525
-3.3068295 9.6039095 -1.9810917
-3.2516007 9.6351709 -1.9834329
-3.1961129 9.6661158 -1.9857739
-3.1358364 9.6827459 -1.9851887
-3.0819957 9.7195683 -1.9888954
-3.0272398 9.754221 -1.9922119
-2.975023 9.7979517 -1.9974793
-2.9128942 9.8094406 -1.9961138
-2.8488235 9.813942 -1.9933825
-2.786145 9.8227444 -1.9916266
-2.7229421 9.829258 -1.9894806
-2.6592526 9.8334723 -1.9869444
-2.5936131 9.8296881 -1.9828476
-2.5393577 9.8691645 -1.9877249
-2.4735079 9.8636293 -1.9834329
-2.4280591 9.9405537 -1.9961138
-2.3713279 9.9733944 -1.9998205
-2.3030186 9.9571781 -1.9935776
-2.2425244 9.9739923 -1.9941628
-2.1798186 9.9808569 -1.9927973
-2.1181297 9.9921255 -1.992407
-2.0597401 10.019344 -1.9953333
-1.9997557 10.03949 -1.9968941
-1.9392304 10.057349 -1.9980646
-1.8850293 10.109555 -2.0062585
-1.8201828 10.105487 -2.0031369
-1.748912 10.063317 -1.992407
-1.6871318 10.073859 -1.992407
-1.6332417 10.133405 -2.0023565
-1.5684832 10.126759 -1.9990401
-1.5055969 10.131341 -1.9980646
-1.4417465 10.128736 -1.9957236
-1.3783814 10.128645 -1.9939678
-1.3259228 10.211805 -2.0089898
-1.2592726 10.187627 -2.0025518
-1.1927407 10.161068 -1.9957236
-1.1278813 10.145775 -1.9912364
-1.0681635 10.17689 -1.9961138
-1.0037735 10.163732 -1.9922119
-0.94527364 10.211695 -2.0006008
-0.87804598 10.164536 -1.9900659
-0.81910628 10.212749 -1.99865
-0.75534207 10.20291 -1.9957236
-0.69451404 10.233774 -2.0009911
-0.63297379 10.258401 -2.0050879
-0.56980038 10.258174 -2.0043075
-0.50506055 10.225232 -1.9970891
-0.44264829 10.235977 -1.99865
-0.37856445 10.204197 -1.9918218
-0.31591532 10.205347 -1.9916266
-0.25406554 10.238469 -1.9978695
-0.19136612 10.246699 -1.9992352
-0.12812439 10.21826 -1.9933825
-0.065695293 10.262007 -2.0019665
-0.0027293595 10.273987 -2.0043075
0.060363501 10.282637 -2.0060632
0.1230632 10.249709 -1.9996253
0.18537901 10.217381 -1.9933825
0.2486662 10.240564 -1.9982598
0.31218496 10.261393 -2.0027468
0.37373975 10.221059 -1.9951383
0.43657383 10.221514 -1.9957236
0.4995715 10.22452 -1.9968941
0.56154275 10.207552 -1.9941628
0.62296468 10.184335 -1.9902611
0.68379289 10.155857 -1.9853837
0.74595124 10.149514 -1.9849936
0.80946147 10.160389 -1.9881151
0.87380517 10.178683 -1.9927973
0.93408412 10.14969 -1.9881151
0.99979931 10.178906 -1.9951383
1.0582602 10.134537 -1.9875298
1.1231234 10.152224 -1.992407
1.1844838 10.137347 -1.9908463
1.2475023 10.136703 -1.9922119
1.3086694 10.121077 -1.9906512
1.3725924 10.126462 -1.9933825
1.4282244 10.07221 -1.9842132
1.489712 10.061316 -1.9838231
1.559803 10.106267 -1.9947481
1.618827 10.078107 -1.9910414
1.6801498 10.065083 -1.9904561
1.7407037 10.047819 -1.9890904
1.8037108 10.044672 -1.9906512
1.8708705 10.063307 -1.996699
1.9288768 10.032375 -1.9927973
1.98753 10.005921 -1.9898708
2.0421865 9.9608717 -1.9832377
2.1071236 9.9663849 -1.9869444
2.1625972 9.9273949 -1.9816771
2.2153094 9.877573 -1.9742637
2.2752135 9.8609266 -1.9736784
2.3363557 9.8496437 -1.9742637
2.3981419 9.8408394 -1.9754342
2.4622896 9.8411627 -1.9785556
2.5209196 9.8192196 -1.97719
2.580622 9.8016701 -1.9767998
2.6399484 9.7828102 -1.9762145
2.6980948 9.7598104 -1.9748489
2.7699549 9.7855368 -1.9836279
2.8176596 9.7259655 -1.9748489
2.8820236 9.7244797 -1.9781654
2.9254174 9.6531124 -1.9670453
2.9950442 9.6687069 -1.9740685
3.0335896 9.5846949 -1.9604121
3.1062255 9.6088285 -1.9693863
3.1645107 9.5877247 -1.9689962
3.2323637 9.5950813 -1.9746538
3.2749124 9.5277653 -1.9647042
3.3255215 9.4852791 -1.960022
3.3836594 9.464695 -1.960022
3.4376388 9.4326982 -1.9576809
3.4852045 9.3838463 -1.9518282
3.537509 9.348526 -1.9489019
3.6152685 9.3797207 -1.9602171
3.6594906 9.3235826 -1.9529988
3.7177224 9.3036852 -1.9535841
3.7669766 9.2616205 -1.9494871
3.8271108 9.2464886 -1.9512429
3.882251 9.2192163 -1.9504626
3.9314065 9.178093 -1.9467559
3.9849057 9.1475029 -1.9453902
4.0421505 9.1255703 -1.9459755
4.0920258 9.087183 -1.9430492
4.1448488 9.0556612 -1.9416835
4.1908188 9.0096054 -1.9371965
4.2523098 8.9970217 -1.9401228
4.295969 8.9468908 -1.9348553
4.3580961 8.9353476 -1.9381719
4.4080505 8.8987713 -1.9360259
4.4625692 8.8715563 -1.9360259
4.5258446 8.8614759 -1.9399277
4.5887117 8.8500814 -1.9436344
4.6424713 8.8208914 -1.9434394
4.6789441 8.7593679 -1.9360259
4.7297978 8.7253199 -1.9348553
4.7818279 8.6935568 -1.9342701
4.8369927 8.6674776 -1.9350505
4.8809013 8.6214199 -1.9313438
4.9268703 8.5794029 -1.9286125
4.9789262 8.5481625 -1.9284174
5.0307841 8.5166073 -1.9282223
5.0753846 8.4729586 -1.9252959
5.1277876 8.4424953 -1.9254911
5.1758924 8.4050274 -1.9241254
5.2325625 8.3814297 -1.9260763
5.2602849 8.3118744 -1.9172972
5.2884107 8.2439461 -1.9089084
5.3688397 8.2573853 -1.9198334
5.4107685 8.2111845 -1.9167119
5.4594154 8.1753836 -1.9161267
5.5028787 8.1319847 -1.9137856
5.5504532 8.0948315 -1.9130052
5.5905027 8.0469303 -1.9096887
5.6296096 7.9980402 -1.906177
5.6751614 7.9585562 -1.9050065
5.7204409 7.9188147 -1.903836
5.7689219 7.8835654 -1.903836
5.8241954 7.8574739 -1.906177
5.8740654 7.8239422 -1.9067624
5.9077115 7.7690172 -1.9020802
5.9391098 7.7116437 -1.8968128
5.9881253 7.6773763 -1.897398
6.0460649 7.6543417 -1.9009097
6.0874023 7.6102076 -1.8991538
6.1284261 7.5658541 -1.897398
6.1647806 7.5159764 -1.8942766
6.2007542 7.4659376 -1.8911551
6.2647567 7.4495163 -1.8968128
6.3084402 7.4086962 -1.8962275
6.3557019 7.372077 -1.8968128
6.396946 7.3285074 -1.8956422
6.4171085 7.2611947 -1.8882288
6.4687366 7.2297225 -1.8903748
6.501122 7.1768126 -1.8868631
6.5410576 7.1324506 -1.8856926
6.5833635 7.090744 -1.8853024
6.6213732 7.0444989 -1.8837417
6.6610918 7.0001864 -1.8827662
6.6943913 6.949295 -1.880035
6.7300568 6.9010673 -1.8780841
6.7826114 6.8701105 -1.8810104
6.8197842 6.8235087 -1.8796448
6.8587332 6.7787771 -1.8788644
6.8973904 6.7338252 -1.8780841
6.906806 6.6607432 -1.869305
6.9425735 6.6135035 -1.8679394
6.9815941 6.5694361 -1.8675492
7.0167427 6.521801 -1.8661835
7.0689111 6.4898987 -1.8695002
7.099153 6.4378386 -1.866964
7.120986 6.3784547 -1.8622818
7.1489697 6.324894 -1.8593554
7.1913371 6.2841363 -1.8603308
7.2312455 6.2411742 -1.860721
7.2731371 6.1998672 -1.8616965
7.3177948 6.1608076 -1.8634523
7.3893995 6.1440039 -1.8722314
7.3943629 6.0717878 -1.8638425
7.4139562 6.0120964 -1.8593554
7.4614253 5.9750738 -1.8620867
7.4817901 5.9164052 -1.8579898
7.5164056 5.8691797 -1.8575996
7.5592675 5.8283381 -1.8593554
7.6065941 5.7907557 -1.8622818
7.638062 5.7410274 -1.8613063
7.6739321 5.6946378 -1.8615015
7.7522483 5.679318 -1.8722314
7.7535686 5.6075087 -1.8640376
7.7543006 5.5358973 -1.8558438
7.8153834 5.5074191 -1.8624768
7.8409767 5.4537616 -1.860526
7.8937006 5.4188676 -1.8652081
7.9032521 5.3543801 -1.8595505
7.9685736 5.3275867 -1.8673542
7.960176 5.2515917 -1.8575996
8.0251312 5.2240491 -1.8654032
8.0718889 5.184248 -1.8689148
8.0960903 5.1298985 -1.867159
8.099967 5.0629735 -1.860721
8.1300459 5.0126634 -1.860526
8.1950102 4.9835734 -1.8685247
8.2464638 4.9458051 -1.8734019
8.2665243 4.8891225 -1.8710608
8.3014517 4.8412719 -1.8722314
8.3292999 4.7892666 -1.8718412
8.3807154 4.7506409 -1.8769135
8.4191256 4.70439 -1.8790596
8.4100294 4.6318283 -1.8704755
8.4477739 4.5852838 -1.8726215
8.4714251 4.5310507 -1.8716462
8.5172901 4.4885859 -1.875743
8.5620813 4.4452767 -1.8796448
8.5961819 4.3962288 -1.8812056
8.6089792 4.3363433 -1.8780841
8.6327887 4.2821307 -1.8774989
8.6403923 4.2200437 -1.8734019
8.6846867 4.1758704 -1.8774989
8.6791162 4.1078219 -1.8706707
8.7459469 4.0739498 -1.8798399
8.8171444 4.0414548 -1.8899846
8.8247881 3.9796188 -1.8862779
8.8768339 3.9377215 -1.8923256
8.8621712 3.8663206 -1.8839368
8.8830233 3.8107107 -1.8833516
8.8935862 3.7507997 -1.8806202
8.9336481 3.7032928 -1.8843269
8.9752789 3.6561751 -1.8884239
8.9765997 3.5926557 -1.8839368
9.009429 3.5418134 -1.8862779
9.046546 3.4924691 -1.8895944
9.0393734 3.4261222 -1.8835466
9.0841265 3.3794816 -1.8886189
9.0973206 3.3209891 -1.8870583
9.111063 3.2627926 -1.8856926
9.0975971 3.1951308 -1.8786694
9.1133213 3.1379721 -1.877889
9.1844463 3.099551 -1.8888141
9.143693 3.0234389 -1.8763282
9.2115269 2.9832876 -1.8866681
9.2072201 2.9195981 -1.8819859
9.2399483 2.8676984 -1.8851074
9.2808332 2.8180704 -1.8899846
9.3007708 2.7619085 -1.8905699
9.3128328 2.7034216 -1.8895944
9.3188658 2.6432853 -1.8874484
9.3453064 2.5889351 -1.8895944
9.3771114 2.5358956 -1.892911
9.3574057 2.4690566 -1.8856926
9.3780785 2.4130599 -1.8868631
9.4707193 2.3750253 -1.9028605
9.4841614 2.3166366 -1.9026655
9.4896097 2.2563584 -1.9009097
9.4746084 2.1914616 -1.895057
9.4515133 2.125114 -1.8876435
9.495038 2.0737736 -1.8938864
9.4653664 2.0065298 -1.8853024
9.5831785 1.9701263 -1.9067624
9.5267916 1.8976923 -1.892911
9.5161057 1.8349328 -1.8884239
9.5107937 1.7734542 -1.8851074
9.5485249 1.7199286 -1.8905699
9.5482683 1.6594616 -1.8884239
9.5737486 1.6034335 -1.8915453
9.6647444 1.55776 -1.9079329
6.1383128 0.95119524 -1.1962434
5.9131384 0.87922722 -1.1498119
5.8951178 0.83961385 -1.1451298
5.8816934 0.80091554 -1.141423
5.8719077 0.76291841 -1.1384966
5.8677177 0.72579288 -1.1367409
5.8623195 0.68863326 -1.1347899
5.8518128 0.65102595 -1.1318636
5.833262 0.61275542 -1.1273766
5.857409 0.57897365 -1.1314734
5.8569446 0.54266119 -1.1306931
5.8503928 0.50587046 -1.1287422
5.8416548 0.46902397 -1.1264011
5.8356194 0.43252072 -1.1246452
5.8371849 0.39663959 -1.1244502
0 0 -0
0 0 -0
5.8337011 0.28864616 -1.1224992
0 0 -0
0 0 -0
0 0 -0
0 0 -0
0 0 -0
0 0 -0
0 0 -0
0 0 -0
0 -0 -0
0 -0 -0
0 -0 -0
0 -0 -0
0 -0 -0
0 -0 -0
0 -0 -0
0 -0 -0
0 -0 -0
0 -0 -0
0 -0 -0
0 -0 -0
0 -0 -0
0 -0 -0
0 -0 -0
0 -0 -0
0 -0 -0
9.0389719 -0.99983835 -1.7696139
8.8738813 -1.0367103 -1.7378142
8.6531992 -1.0647596 -1.6948943
8.5433998 -1.1044914 -1.6742147
8.5928307 -1.1645389 -1.6855299
8.7020502 -1.2337785 -1.7089407
8.708869 -1.2893065 -1.7118671
8.7007942 -1.3427188 -1.7118671
8.7107906 -1.3990381 -1.7155739
8.7107487 -1.4539145 -1.7173296
8.6833029 -1.5041523 -1.7136229
8.6439848 -1.5520266 -1.7075752
8.6063356 -1.599834 -1.7019175
8.5713158 -1.6477938 -1.6968452
8.5552721 -1.6992083 -1.6956747
8.4092159 -1.7238802 -1.6681669
8.3812075 -1.7717919 -1.6646553
8.3577204 -1.8204695 -1.6621192
8.3320389 -1.8684961 -1.6591928
8.3060818 -1.9162761 -1.6562663
8.2922592 -1.9667522 -1.6558762
8.2762232 -2.0166662 -1.6550958
7.3303423 -1.8337693 -1.4637122
7.3189526 -1.8787129 -1.4637122
8.029994 -2.1139514 -1.6123711
7.9638467 -2.1488669 -1.601446
7.9155354 -2.1880183 -1.5942277
7.8736506 -2.2285287 -1.588375
8.1226511 -2.3529725 -1.6428051
8.093956 -2.3985858 -1.6398787
7.9692707 -2.4149103 -1.6170533
7.9055877 -2.4486668 -1.6069086
7.8595576 -2.4873586 -1.6004705
7.785356 -2.5165241 -1.5881798
7.7483478 -2.557174 -1.5836928
7.8412542 -2.6413157 -1.6065184
7.7377162 -2.6594007 -1.5881798
7.7073703 -2.7019594 -1.5852535
7.7543678 -2.7719891 -1.5987147
7.7814431 -2.8356416 -1.6080791
7.8190603 -2.9038293 -1.6197845
7.8460417 -2.9687653 -1.6293439
7.6135402 -2.9342873 -1.5836928
7.7542434 -3.0433178 -1.6176385
7.8692999 -3.1443541 -1.6463168
7.8280554 -3.1837089 -1.6416346
7.808373 -3.2316811 -1.6416346
7.7856851 -3.2783892 -1.6410494
7.7627182 -3.3249409 -1.6404641
7.7448678 -3.3736849 -1.6410494
7.6971207 -3.4092233 -1.6351967
7.6653261 -3.4515541 -1.6328555
7.6440034 -3.4985228 -1.6328555
7.6215038 -3.5449457 -1.6326605
7.6031556 -3.5933206 -1.6334409
7.5623984 -3.6309876 -1.6293439
7.5408583 -3.6777513 -1.629539
7.5155134 -3.7226455 -1.6289537
7.4846449 -3.7647223 -1.627198
7.4561639 -3.807899 -1.6260273
7.3873849 -3.8300965 -1.6158826
7.4054022 -3.8972833 -1.625247
7.3761592 -3.9398754 -1.6240765
7.3854713 -4.0032935 -1.631685
7.4020152 -4.071228 -1.6410494
7.4068689 -4.1333013 -1.6478775
7.4095316 -4.1946197 -1.6543155
7.3947105 -4.2463555 -1.6568516
7.3371606 -4.2733808 -1.6496333
7.3209343 -4.3243074 -1.6519744
7.3001523 -4.3726749 -1.65334
7.2673173 -4.4138207 -1.6519744
7.2267365 -4.450099 -1.6488529
7.2167654 -4.5052671 -1.6529498
7.1666107 -4.5352998 -1.6476824
7.1122327 -4.5622387 -1.6414396
7.0627284 -4.5918899 -1.6363672
7.0123096 -4.6205659 -1.6310997
7.0319452 -4.6956472 -1.6426101
6.9843202 -4.7260613 -1.638123
6.9187927 -4.7438641 -1.6293439
6.9370737 -4.8192496 -1.6408542
6.8504338 -4.8216357 -1.6270028
6.7847881 -4.8379493 -1.6182238
6.7327161 -4.8634052 -1.6127613
6.7106624 -4.910418 -1.6147121
6.7024665 -4.9678569 -1.6201746
6.666368 -5.0047665 -1.6188091
6.6128955 -5.028357 -1.6131514
6.606781 -5.0879917 -1.6193943
6.551465 -5.1097322 -1.6133466
6.5045977 -5.1376748 -1.6094447
6.4599319 -5.1670728 -1.6061282
6.4357262 -5.2127872 -1.6080791
6.3998289 -5.2490673 -1.6071036
6.3856068 -5.3032789 -1.6117858
6.3461914 -5.336678 -1.6100299
6.2812195 -5.3481717 -1.6016411
6.2601695 -5.3968601 -1.6047626
6.2180715 -5.4274297 -1.6024214
6.1831827 -5.4641814 -1.6020312
6.1553855 -5.5072508 -1.603592
6.1258388 -5.5488667 -1.6047626
6.0945673 -5.5890021 -1.6055429
6.0335679 -5.6015978 -1.5983245
5.9905086 -5.6304522 -1.5959835
5.972188 -5.6826553 -1.6004705
5.9252009 -5.707624 -1.597154
5.8991952 -5.7527761 -1.5996902
5.87216 -5.7971344 -1.6020312
5.8170576 -5.8136406 -1.5965687
5.8019571 -5.8701534 -1.6024214
5.7233553 -5.8621268 -1.5903258
5.7083812 -5.9190226 -1.5963737
5.6807485 -5.9631701 -1.5989099
5.6642132 -6.0193448 -1.6047626
2.2362635 -2.4048543 -0.61389881
2.2214656 -2.4185305 -0.61389881
2.206584 -2.4321156 -0.61389881
5.4683299 -6.1046634 -1.5909111
5.4379172 -6.1461825 -1.5930572
5.389133 -6.1668768 -1.5897406
5.3422222 -6.1894317 -1.5870093
5.2697906 -6.1817846 -1.5764744
5.2241821 -6.204999 -1.5741334
5.1935339 -6.2459879 -1.5764744
5.1768928 -6.3042693 -1.5833026
5.1412015 -6.3397245 -1.5842781
5.072782 -6.3344002 -1.5749137
5.0386853 -6.371562 -1.5764744
2.0132382 -2.5770285 -0.61116755
1.9842149 -2.5722435 -0.60687554
1.9666126 -2.5820286 -0.60629028
1.948965 -2.5916946 -0.60570502
1.9336103 -2.6043923 -0.60590011
1.8706518 -2.5521159 -0.59009778
