# .PCD v0.7 - Point Cloud Data file format
VERSION 0.7
FIELDS x y z
SIZE 4 4 4
TYPE F F F
COUNT 1 1 1
WIDTH 1487
HEIGHT 1
VIEWPOINT 0 0 0 1 0 0 0
POINTS 1487
DATA ascii
-1.1958158 -3.3434725 -0.23086815
-1.2135735 -3.3285782 -0.23026553
-1.5245783 -4.1024013 -0.29323873
-1.5514882 -4.0976319 -0.29361537
-1.1798456 -3.0600848 -0.21037924
-1.184739 -3.0175219 -0.20751683
-1.3580774 -3.3971782 -0.23900343
-1.3728787 -3.3740051 -0.2377982
-1.3874469 -3.3507788 -0.23659298
-7.099987 -16.841505 -1.3432944
-1.2901071 -3.0109186 -0.21007794
-1.2846373 -2.9481063 -0.20555833
-1.4203447 -3.2054245 -0.22747843
-1.8498405 -4.1056843 -0.30280524
-1.4371403 -3.1388021 -0.22341079
-1.4576355 -3.1326368 -0.22363676
-1.867093 -3.9483573 -0.29256079
-1.907702 -3.9709775 -0.29542321
-1.8436472 -3.7781982 -0.28020719
-1.430848 -2.8877742 -0.20608562
-1.4436065 -2.869144 -0.20525703
-0.90462297 -1.7717527 -0.11290636
-0.93293452 -1.7997998 -0.11576878
-1.9001071 -3.6087105 -0.27071601
-1.9076369 -3.5697248 -0.26838088
-1.9023942 -3.5079966 -0.26408726
-1.9383126 -3.5224621 -0.26634705
-1.4682039 -2.630408 -0.19019167
-1.4872662 -2.626555 -0.19064362
-1.4894389 -2.5931742 -0.18853447
-1.4997972 -2.5745106 -0.18770587
-1.5181037 -2.5695512 -0.18808252
-1.5364056 -2.5644639 -0.18845914
-1.4894282 -2.4518931 -0.17934461
-1.4819442 -2.406208 -0.17610554
-1.4755419 -2.3632455 -0.17309248
-5.0606203 -7.9903007 -0.67710412
-1.3837399 -2.1570113 -0.15621927
-1.3925976 -2.1417942 -0.15561666
-1.4216359 -2.1573482 -0.15780114
-1.4154509 -2.1195698 -0.1551647
-1.4183636 -2.0959842 -0.15380882
-10.846873 -15.8054 -1.4107119
-1.5253904 -2.1954889 -0.16458055
-1.5158597 -2.1534822 -0.16156748
-1.5151409 -2.1246617 -0.15975964
-1.5030245 -2.0805793 -0.15652058
-1.4986745 -2.0479891 -0.15433611
-1.6282628 -2.1965141 -0.16917549
-1.6141527 -2.1498132 -0.16571045
-1.5989277 -2.102576 -0.1621701
-1.5917083 -2.0666642 -0.1596843
-1.630132 -2.0898702 -0.16284804
-1.6317924 -2.0657489 -0.16149215
-0 -0 -0
-1.6570195 -2.0455687 -0.16149215
-1.6619468 -2.0261147 -0.16058823
-1.6533113 -1.9905748 -0.15810244
-1.6654941 -1.9803928 -0.15810244
-1.671146 -1.9625471 -0.15734918
-1.6759903 -1.943952 -0.15652058
-1.6996962 -1.9471482 -0.15787646
-1.7129331 -1.9381762 -0.15802711
-2.2383668 -2.5010791 -0.21617942
-2.2576897 -2.4917297 -0.21663137
-2.2742848 -2.4792991 -0.21678203
-2.29217 -2.4682195 -0.21708333
-2.3147876 -2.4620974 -0.21791193
-2.3332899 -2.451458 -0.21828856
-3.4044945 -3.53249 -0.33323726
-3.2032151 -3.2831945 -0.3091327
-3.1714337 -3.2109919 -0.3035585
-3.4005315 -3.4008448 -0.32593057
-3.2666531 -3.2271807 -0.30950934
-3.511251 -3.4263954 -0.33323726
-2.457942 -2.3697655 -0.22054836
-2.538168 -2.4171963 -0.2274031
-2.5536783 -2.4022598 -0.22747843
-2.5924835 -2.4089367 -0.22996421
-3.1098568 -2.8540192 -0.28148776
-2.6285005 -2.3829672 -0.23064215
-2.5873423 -2.3169222 -0.22499265
-2.6582923 -2.3511925 -0.23071748
-2.8792422 -2.5151796 -0.25143236
-2.6703308 -2.3040683 -0.22906029
-2.6882138 -2.2908728 -0.22943693
-3.4035265 -2.8641975 -0.29866228
-15.435237 -12.823066 -1.478506
-15.525962 -12.738235 -1.4797113
-3.3859382 -2.7445717 -0.29188284
-4.0606666 -3.2501214 -0.35553399
-4.0985289 -3.2393615 -0.35726652
-3.8148444 -2.9774075 -0.32819039
-16.105312 -12.406891 -1.4983923
-16.19066 -12.315081 -1.4992962
-16.189371 -12.158025 -1.4920648
-3.1554132 -2.3407052 -0.259417
-3.1568415 -2.311877 -0.25821176
-16.352222 -11.815926 -1.4866413
-16.385448 -11.687575 -1.4830257
-3.044755 -2.1448898 -0.243975
-3.0177331 -2.0982864 -0.240284
-3.078248 -2.1124401 -0.24465294
-3.1250095 -2.1164279 -0.24774134
-3.2133956 -2.1476116 -0.25459608
-3.3705521 -2.2227848 -0.26762763
-3.4777539 -2.2629459 -0.27606422
-3.6560705 -2.3471048 -0.29082829
-5.7481513 -3.6397753 -0.47658417
-5.7982879 -3.6218653 -0.47906998
-17.319788 -10.668818 -1.4992962
-3.6000755 -2.1883354 -0.28088513
-3.5843518 -2.1487803 -0.27832404
-3.7219546 -2.2002931 -0.28924641
-3.7345235 -2.1769123 -0.2891711
-17.780708 -10.213965 -1.5116498
-17.908993 -10.142015 -1.5173746
-3.980319 -2.2229836 -0.30702353
-3.9405897 -2.1691997 -0.3024286
-3.9468126 -2.1411779 -0.301826
-3.851697 -2.0591245 -0.29256079
-3.8704355 -2.0387034 -0.29308808
-3.8687086 -2.0075717 -0.29188284
-3.9315705 -2.0096521 -0.29617649
-3.950063 -1.9886277 -0.29670376
-16.986851 -8.4173708 -1.3947426
-7.6674385 -3.7416816 -0.60712552
-7.6686797 -3.6842041 -0.60531771
-17.351665 -8.2038469 -1.4125197
-5.7224793 -2.6636066 -0.43944806
-5.7550349 -2.6359153 -0.44080395
-19.291758 -8.6901894 -1.5609889
-5.8361797 -2.5869048 -0.4448716
-5.8327456 -2.5426815 -0.44328973
-5.7959924 -2.4844611 -0.43899611
-19.554354 -8.2373524 -1.5655085
-11.37337 -4.7096496 -0.89253879
-11.392817 -4.6360178 -0.8917855
-9.6275015 -3.8491797 -0.7458775
-9.6323748 -3.7827461 -0.744371
-11.625087 -4.4829183 -0.9038378
-11.664498 -4.4160924 -0.90481704
-11.959647 -4.4440966 -0.92643589
-12.017607 -4.3818994 -0.92892164
-12.053657 -4.3114357 -0.92967492
-12.121287 -4.251914 -0.9329893
-12.199013 -4.1952901 -0.93713224
-11.577229 -3.9022496 -0.88553339
-7.7944503 -2.5744689 -0.58271962
-7.7949195 -2.5216861 -0.58151442
-12.505539 -3.9602575 -0.9535535
-12.581038 -3.8993871 -0.95762116
-11.627545 -3.5259027 -0.88048649
-11.69772 -3.468945 -0.88432819
-12.932261 -3.7487476 -0.97976726
-12.963655 -3.671771 -0.98044521
-9.6845961 -2.6792512 -0.72169763
-9.7152939 -2.6236751 -0.72282749
-12.810152 -3.3748832 -0.963346
-12.983218 -3.335407 -0.97524762
-13.247205 -3.3166897 -0.99422997
-13.078393 -3.1892929 -0.97954124
-13.017187 -3.0898778 -0.97328913
-13.090312 -3.022506 -0.97750741
-13.108611 -2.9421284 -0.97750741
-11.550009 -2.5181167 -0.85562867
-13.443231 -2.8443878 -1.0006328
-13.4575 -2.7612472 -1.0004067
-13.461475 -2.676095 -0.99942756
-13.484496 -2.5947649 -0.99995482
-13.604081 -2.5313034 -1.0079395
-13.518268 -2.4296229 -1.0001808
-13.620364 -2.3617859 -1.0068849
-13.667056 -2.2835886 -1.0093707
-13.721176 -2.2061729 -1.012459
-13.776831 -2.1284833 -1.0156981
-13.977046 -2.0716729 -1.0300102
-14.532495 -2.0629079 -1.07144
-14.542903 -1.9734313 -1.0712893
-15.95999 -2.0659618 -1.1783288
-16.436527 -2.0251505 -1.213657
-22.65259 -2.6495914 -1.6855041
-22.698154 -2.5138395 -1.6877639
-22.690342 -2.3721354 -1.6860313
-23.85265 -2.3457236 -1.7731845
-25.818745 -2.3791187 -1.9212769
-25.871603 -2.2239819 -1.9242147
-25.845003 -2.0620246 -1.9212017
-25.865124 -1.903989 -1.9218043
-25.880299 -1.7455159 -1.9221056
-25.878578 -1.5859531 -1.9212017
-25.852976 -1.4252158 -1.9185653
-25.854261 -1.266217 -1.9180379
-25.847597 -1.1069577 -1.9169834
-25.817032 -0.94698822 -1.9141963
-25.813387 -0.78828657 -1.9135183
-25.80777 -0.629641 -1.912765
-25.776253 -0.47064009 -1.9101286
-25.763699 -0.31229052 -1.9089987
-25.770115 -0.15423118 -1.9093753
-25.780548 0.0038961421 -1.9101286
-25.784027 0.1621078 -1.91043
-25.811462 0.32067311 -1.9126143
-25.803026 0.4789319 -1.9121624
-25.778669 0.6367293 -1.9105805
-25.751352 0.79418421 -1.908848
-25.713112 0.95095897 -1.9063623
-25.678898 1.1075094 -1.9042531
-25.649708 1.2639706 -1.9025959
-25.630518 1.4207228 -1.9017674
-25.607384 1.5771033 -1.9007127
-25.582302 1.7331858 -1.8995829
-22.295292 -0.56784445 -1.917575
-22.286404 -0.43080118 -1.916527
-22.27767 -0.2939015 -1.9155664
-22.279055 -0.15720277 -1.9155664
-22.275616 -0.02049436 -1.915217
-22.261375 0.11611414 -1.9139944
-22.250282 0.25259227 -1.9131212
-22.250305 0.38914749 -1.9132959
-22.229572 0.52524227 -1.9117239
-22.20303 0.66094911 -1.9097153
-22.179642 0.79649299 -1.908056
-22.16737 0.93227679 -1.9074447
-22.134365 1.0669811 -1.9050869
-22.105518 1.2015858 -1.9031656
-22.070883 1.3355759 -1.9008077
-22.070223 1.4715053 -1.9015063
-22.030972 1.6047274 -1.8988864
-22.012766 1.7392491 -1.8981878
-21.990763 1.8733542 -1.8972272
-21.966949 2.0071642 -1.8961792
-21.909603 2.1375611 -1.8922493
-21.890129 2.2713387 -1.8917254
-21.849045 2.4026718 -1.8893675
-21.824986 2.5356553 -1.8885815
-21.799128 2.668313 -1.8877083
-21.791237 2.8031633 -1.8884943
-21.777576 2.9373517 -1.8888435
-21.770981 3.0725915 -1.8898915
-21.747776 3.2055368 -1.8895422
-21.728682 3.3390696 -1.8896295
-21.704834 3.4718595 -1.8893675
-21.665434 3.6020319 -1.8877956
-21.634089 3.7333763 -1.8870096
-21.596066 3.8634191 -1.8856996
-21.555302 3.9927733 -1.8842151
-21.503 4.1197109 -1.8817699
-21.464615 4.2490587 -1.8806345
-21.424475 4.3778911 -1.8794119
-21.381613 4.5059805 -1.8780147
-21.348694 4.636034 -1.877578
-21.315958 4.7660704 -1.8772287
-21.289225 4.8974428 -1.8774906
-21.208363 5.016057 -1.8729496
-21.141369 5.1373916 -1.8697183
-21.165508 5.2810025 -1.8747835
-21.101826 5.4028659 -1.8719889
-21.110672 5.5433741 -1.8758315
-21.156103 5.6942906 -1.8830798
-21.137091 5.8284965 -1.8845644
-21.147905 5.9713449 -1.8888435
-21.13958 6.1092901 -1.8914634
-21.145639 6.2518768 -1.8954806
-21.145023 6.3930373 -1.8989738
-21.142517 6.5341315 -1.9023796
-21.174221 6.6865335 -1.9090167
-21.185888 6.8334541 -1.9139072
-21.174784 6.9736023 -1.9167891
-21.179754 7.1195846 -1.9212428
-21.157343 7.2568402 -1.9232514
-21.14909 7.3993521 -1.9266573
-21.145512 7.5440435 -1.9305871
-21.151251 7.6927142 -1.9354775
-21.162498 7.8441625 -1.9409794
-21.150314 7.9875913 -1.9443852
-21.149254 8.1358147 -1.9489263
-21.159225 8.2890482 -1.9546027
-21.157932 8.4386501 -1.9593185
-21.148214 8.5855503 -1.9633358
-21.156824 8.7406359 -1.9691868
-21.156059 8.8926744 -1.9742519
-21.130407 9.0348511 -1.9770465
-21.108374 9.1790323 -1.9802777
-21.092655 9.3265057 -1.9842075
-21.072285 9.4724979 -1.987788
-21.073566 9.6289396 -1.9935517
-21.06288 9.7807188 -1.9982675
-21.077246 9.945055 -2.0055158
-21.049963 10.090558 -2.0088344
-21.041391 10.245694 -2.0140741
-21.021885 10.396247 -2.0183535
-20.988857 10.540686 -2.02141
-20.955734 10.685563 -2.0245538
-20.934893 10.837299 -2.0290077
-20.916504 10.991035 -2.0338106
-20.864492 11.127607 -2.0353825
-20.852768 11.28624 -2.041059
-20.893145 11.474398 -2.0520625
-20.866726 11.627108 -2.0565164
-20.857431 11.790219 -2.0628042
-20.837412 11.948202 -2.0681312
-20.784374 12.087853 -2.0702271
-20.732981 12.22882 -2.0725851
-20.677219 12.367566 -2.0745935
-20.603498 12.495756 -2.0748556
-20.517952 12.616723 -2.0739822
-20.415636 12.727099 -2.0714498
-20.310211 12.835098 -2.0686553
-20.210941 12.946582 -2.0665593
-20.118589 13.062213 -2.0652494
-20.034735 13.183223 -2.0648999
-19.931089 13.290983 -2.0625422
-19.802938 13.381794 -2.0576518
-19.669495 13.468157 -2.0522373
-19.56275 13.572126 -2.0497048
-19.425314 13.654098 -2.043941
-19.304651 13.747029 -2.0400112
-19.15369 13.817432 -2.03285
-19.038788 13.912951 -2.029619
-18.966673 14.039583 -2.0311034
-18.863432 14.143147 -2.0292695
-18.750116 14.238744 -2.0263877
-18.675819 14.363849 -2.0278723
-18.573187 14.467153 -2.0263004
-18.422279 14.532104 -2.0194013
-18.293848 14.61378 -2.0150349
-18.148071 14.680646 -2.0087471
-18.043779 14.780361 -2.0071752
-17.925911 14.868539 -2.0041187
-17.82519 14.970562 -2.0030706
-17.704916 15.055777 -1.9998394
-17.610693 15.162828 -1.9996648
-17.485033 15.242454 -1.9959097
-17.388939 15.347475 -1.9956477
-17.263985 15.426668 -1.9920671
-17.135759 15.502234 -1.9881374
-17.022686 15.590938 -1.9860414
-16.87995 15.651746 -1.9804523
-16.790131 15.76116 -1.9812382
-16.680109 15.851534 -1.9796664
-16.55884 15.930791 -1.9767845
-16.446507 16.018194 -1.9750378
-16.324501 16.095726 -1.9721559
-16.197231 16.167439 -1.9686629
-16.068995 16.237488 -1.9650823
-15.942597 16.30871 -1.9617637
-15.816626 16.379711 -1.9585326
-15.691758 16.451223 -1.955476
-15.570709 16.526169 -1.9529434
-15.451367 16.602438 -1.9506729
-15.326957 16.672733 -1.947791
-15.226376 16.768677 -1.948053
-15.115216 16.852888 -1.947005
-15.001616 16.934132 -1.9456952
-14.884964 17.011618 -1.9440359
-14.764669 17.084539 -1.9419399
-14.642747 17.155113 -1.9396694
-14.523084 17.22788 -1.9377481
-14.397343 17.292934 -1.935041
-14.277044 17.364021 -1.9331197
-14.154533 17.431965 -1.9309365
-14.027987 17.494394 -1.9282292
-13.916051 17.574673 -1.9276179
-13.807339 17.658943 -1.9275305
-13.700552 17.745697 -1.9277925
-13.592616 17.831013 -1.9279672
-13.482352 17.913284 -1.9278799
-12.49875 16.820288 -1.7995054
-13.236176 18.042847 -1.9241247
-13.11061 18.103552 -1.9219415
-12.985956 18.165018 -1.9199328
-12.866212 18.23296 -1.9187102
-12.747262 18.301754 -1.9176623
-12.628517 18.370596 -1.9167017
-12.516119 18.448561 -1.9167891
-12.398806 18.519217 -1.9161777
-12.282743 18.591621 -1.9158283
-12.165716 18.662464 -1.9153917
-12.046126 18.729219 -1.9146057
-11.474629 18.083618 -1.839939
-11.354468 18.13933 -1.8384544
-11.185382 18.115421 -1.8288481
-11.551252 18.967306 -1.9092786
-11.433627 19.036118 -1.909104
-11.310009 19.094772 -1.9079688
-11.177057 19.137144 -1.9052615
-11.049978 19.188963 -1.9036022
-9.619832 16.94511 -1.6706069
-10.78837 19.277914 -1.8990611
-10.6617 19.328918 -1.8975765
-10.540997 19.390474 -1.8972272
-10.416175 19.44425 -1.8961792
-10.290161 19.495462 -1.8949566
-10.162532 19.543209 -1.893472
-10.035159 19.591011 -1.8920747
-9.9062357 19.635319 -1.8904154
-9.7696123 19.663616 -1.8872716
-9.6426458 19.710663 -1.886049
-9.5102825 19.746124 -1.8837785
-9.3757133 19.776201 -1.8810712
-9.250823 19.826136 -1.8803725
-9.1215153 19.86623 -1.8788006
-8.9863224 19.892773 -1.8760061
-8.8555984 19.928421 -1.8741722
-8.7207861 19.954086 -1.871465
-8.5914984 19.991661 -1.8699803
-8.4613037 20.026566 -1.8683211
-8.3340607 20.067986 -1.8673605
-8.2058754 20.106756 -1.8662251
-8.0756741 20.140083 -1.8646532
-7.9468341 20.176281 -1.8634306
-7.8113847 20.194931 -1.8606361
-7.6795425 20.221992 -1.8587148
-7.5500989 20.25473 -1.8574048
-7.4164357 20.275415 -1.855047
-7.2817941 20.292412 -1.8524271
-7.1462312 20.3057 -1.8495452
-7.0140295 20.327507 -1.8475367
-6.8837442 20.35412 -1.8460521
-6.7543368 20.382736 -1.8448294
-6.6291437 20.423796 -1.8448294
-6.5024939 20.460291 -1.8444802
-6.3765335 20.498852 -1.8443928
-6.2526655 20.544264 -1.8450041
-6.1262064 20.581287 -1.8449167
-6.0006418 20.621359 -1.8451787
-5.8715463 20.649166 -1.8443928
-5.740469 20.669447 -1.8429955
-5.6096253 20.689859 -1.8416855
-5.4815497 20.720037 -1.8413363
-5.3515735 20.742672 -1.8403757
-5.2229829 20.770287 -1.839939
-5.0949664 20.800009 -1.8397644
-4.9686308 20.836693 -1.8402883
-4.8415861 20.870668 -1.8406376
-4.7156267 20.909702 -1.8415109
-4.5876651 20.940189 -1.8416855
-4.4609571 20.976713 -1.8424715
-3.0662894 14.866921 -1.2931683
-2.9566555 14.793632 -1.2849593
-2.8272181 14.611976 -1.2671441
-2.7248626 14.561484 -1.2611183
-2.6230562 14.50931 -1.2550052
-2.5353494 14.532983 -1.2557038
-2.4195309 14.390101 -1.2416438
-2.3311894 14.404676 -1.2416438
-2.2406161 14.404928 -1.2404212
-2.1260042 14.24303 -1.2248765
-1.9963977 13.960949 -1.1987649
-1.9030029 13.916677 -1.1937872
-1.8107424 13.875739 -1.1891587
-1.7438761 14.033886 -1.2021708
-1.6572658 14.040364 -1.2018214
-1.5653266 13.998789 -1.1972804
-1.482437 14.036859 -1.1998129
-1.4139251 14.223132 -1.2154449
-1.3075744 14.027213 -1.197455
-1.2763448 14.665162 -1.2529093
-1.1888266 14.703499 -1.2556165
-1.1343571 15.189341 -1.2977095
-1.0411357 15.196015 -1.2977095
-0.94669676 15.183227 -1.2960502
-0.86201584 15.339931 -1.3093243
-0.72408944 14.470385 -1.2325615
-0.63524348 14.473559 -1.2324742
-0.57236779 15.164059 -1.2927316
-0.47943804 15.171268 -1.2930809
-0.38702518 15.200812 -1.2954389
-0.29328495 15.178997 -1.2933429
-0.19051039 14.451371 -1.2294177
-0.10187715 14.458245 -1.2299416
-0.013246144 14.549251 -1.2378886
0.07835152 14.996336 -1.2770996
0.16603039 14.613065 -1.2435651
0.25704873 14.689462 -1.2503767
0.34560132 14.620882 -1.2445257
0.45328835 15.222899 -1.2975347
0.53182095 14.805688 -1.2612057
0.62202936 14.787216 -1.2598957
0.71097624 14.746305 -1.2566645
0.76739222 14.114997 -1.2016468
0.85374516 14.106045 -1.2012975
0.94087845 14.109487 -1.2020835
1.0241067 14.057745 -1.1980664
1.1055589 13.990618 -1.1927392
1.1913829 13.983571 -1.1927392
1.2787933 13.993855 -1.1943111
1.3648274 13.987728 -1.1944858
1.4464142 13.938464 -1.1909053
1.5295166 13.907542 -1.188984
1.6132137 13.884043 -1.1877614
1.7081764 13.953976 -1.1948352
1.7862666 13.884937 -1.1896827
1.8712962 13.872728 -1.1895953
1.9577743 13.87085 -1.1904687
2.0492382 13.901938 -1.1943111
2.1366184 13.902888 -1.1955338
2.2220421 13.8905 -1.1956211
2.3108246 13.898224 -1.1975423
2.4011407 13.913233 -1.2001623
2.4878688 13.906083 -1.2008609
2.646261 14.285302 -1.2360547
2.6598299 13.882333 -1.2015595
2.7420588 13.851093 -1.2002496
2.8473368 13.93356 -1.2091572
2.9274373 13.890484 -1.2068866
3.0407264 14.001735 -1.2185014
3.1328855 14.011006 -1.221034
3.2268357 14.026469 -1.2241778
3.3204055 14.038397 -1.2270597
3.4076571 14.022599 -1.2274964
3.4994216 14.024624 -1.2295923
3.6246934 14.156331 -1.2434777
3.7124989 14.137678 -1.243827
3.7976227 14.108861 -1.2433031
3.88624 14.092977 -1.2440017
3.9707448 14.062155 -1.2433904
4.0536351 14.026042 -1.2423425
4.1396213 14.000905 -1.2423425
4.2352524 14.007662 -1.2453116
4.3367109 14.031855 -1.2499402
4.4410248 14.062928 -1.2552673
4.5333452 14.054376 -1.2570138
4.6163802 14.016832 -1.2561405
4.7051554 13.996741 -1.2569265
4.7987056 13.990223 -1.2590224
4.9588027 14.173022 -1.2787589
5.0292716 14.096354 -1.2744797
5.1575489 14.180382 -1.2852212
5.2496543 14.162479 -1.2865312
5.3473649 14.158892 -1.2892385
5.4498777 14.166724 -1.2930809
5.5763054 14.23412 -1.3025999
5.6576347 14.184833 -1.3012025
5.7220831 14.094469 -1.2959628
5.817966 14.082111 -1.298146
5.9532847 14.16278 -1.3092369
6.0341997 14.112245 -1.307927
6.1246495 14.084089 -1.3088002
6.2182035 14.062644 -1.3103722
6.3766637 14.185048 -1.3258295
6.4478502 14.111223 -1.3225111
6.5376697 14.078623 -1.3232096
6.6813169 14.159869 -1.3349992
6.788743 14.161726 -1.339191
6.8637352 14.095622 -1.3368331
6.9907212 14.135393 -1.3448673
7.0858169 14.109148 -1.3465266
7.2509928 14.219825 -1.361722
7.332612 14.16445 -1.360674
7.4221659 14.124481 -1.3611981
7.521349 14.102407 -1.3635559
7.6262302 14.090159 -1.3669618
7.7657695 14.140022 -1.3766553
7.8548093 14.096457 -1.377092
7.9994893 14.151196 -1.3874842
8.1154041 14.152833 -1.3926367
8.213109 14.121716 -1.394558
8.2940369 14.061618 -1.3935974
8.4701567 14.16093 -1.4089674
8.599246 14.178536 -1.4161284
8.7022572 14.151813 -1.4188355
8.8221273 14.151408 -1.4243374
9.038641 14.302489 -1.4456458
9.1713648 14.317223 -1.4529815
9.2796535 14.292429 -1.4563
9.3638906 14.230227 -1.455776
9.4758997 14.209801 -1.4597058
9.5997219 14.205867 -1.4654696
9.7367964 14.219851 -1.4732419
11.713611 16.883802 -1.7638749
11.844483 16.850733 -1.7680666
11.943032 16.771246 -1.7673681
10.609106 14.706157 -1.5521005
12.196725 16.690184 -1.7746164
12.261566 16.564587 -1.7691146
12.012795 16.021973 -1.7179395
12.048825 15.866245 -1.7089446
12.144737 15.790437 -1.7087699
12.23099 15.702261 -1.7072853
11.850202 15.022325 -1.6397794
11.901118 14.89796 -1.6340157
11.94156 14.76192 -1.626942
12.033175 14.689912 -1.6271167
12.102097 14.590498 -1.6242348
12.905726 15.366538 -1.7216073
13.010741 15.299962 -1.723092
13.118675 15.23645 -1.7250131
13.240065 15.187959 -1.7287683
13.366625 15.144525 -1.7332221
13.505097 15.113479 -1.7392479
13.643023 15.080564 -1.7451863
13.78105 15.046523 -1.7511247
13.913075 15.00478 -1.7562772
14.029426 14.945275 -1.7594211
14.124982 14.863244 -1.759945
14.215915 14.776295 -1.759945
14.279206 14.660957 -1.7565392
14.415056 14.619884 -1.7623029
14.527715 14.554427 -1.7651848
14.601876 14.450297 -1.7633508
14.706651 14.376447 -1.7653595
14.86123 14.350293 -1.7734811
15.038385 14.344096 -1.78431
15.181944 14.304154 -1.7910343
15.381726 14.315248 -1.8044832
15.563145 14.306895 -1.8156613
15.773061 14.322301 -1.830158
15.967433 14.321031 -1.8427335
16.178783 14.332443 -1.8572302
16.378126 14.330647 -1.8702424
16.559208 14.310654 -1.8810712
16.770966 14.314846 -1.8953933
16.965876 14.302206 -1.9077067
17.200302 14.320217 -1.924474
17.504833 14.392827 -1.949101
17.724283 14.391902 -1.9639471
17.924946 14.37324 -1.9766098
18.165092 14.383577 -1.9936391
18.394262 14.382298 -2.0093584
18.490839 14.275859 -2.010319
18.585217 14.167568 -2.0111051
18.654285 14.040086 -2.0091836
18.702503 13.897434 -2.0050793
18.710316 13.725848 -1.9966956
18.740934 13.57222 -1.9909319
18.781719 13.426846 -1.9863907
18.817358 13.278611 -1.9814129
18.846981 13.12703 -1.9759111
18.886126 12.982924 -1.9715446
18.900309 12.822612 -1.9646456
18.947176 12.68534 -1.9613271
18.988083 12.544682 -1.9574846
19.02047 12.399103 -1.9528562
19.07357 12.267612 -1.9504982
19.119043 12.131667 -1.9474417
19.157658 11.991926 -1.9437739
19.188498 11.847982 -1.9394073
19.230206 11.711367 -1.9362636
19.268398 11.573147 -1.9328576
19.315048 11.440485 -1.9304124
19.349613 11.301156 -1.926832
19.392694 11.167302 -1.924212
19.386349 11.005803 -1.9167017
19.40918 10.861832 -1.9122479
19.42487 10.714628 -1.9071828
19.450863 10.573827 -1.903253
19.483765 10.437344 -1.9001091
19.521011 10.303647 -1.8974892
19.551165 10.166669 -1.894258
19.584805 10.03198 -1.8914634
19.610416 9.893672 -1.8879702
19.572618 9.7243996 -1.878364
19.586283 9.5817938 -1.8739102
19.631245 9.4549503 -1.8726002
19.594374 9.2895069 -1.8634306
19.623922 9.1564665 -1.8608108
19.617271 9.0072012 -1.854785
19.625868 8.8657455 -1.8503312
19.62801 8.7220974 -1.8453534
19.637342 8.5823488 -1.8411616
19.632889 8.4373074 -1.8357471
19.648502 8.3015623 -1.8323413
19.64847 8.1598301 -1.8275381
19.651131 8.0199175 -1.8230844
19.665758 7.8854713 -1.8198532
19.676699 7.7500525 -1.81636
19.689505 7.6158752 -1.8131287
19.73307 7.4938583 -1.8128668
19.707739 7.3461924 -1.8062297
19.711279 7.2100716 -1.8023872
19.727957 7.0792317 -1.7998546
19.755989 6.9527583 -1.7984574
19.780386 6.825233 -1.7967981
19.825666 6.7050109 -1.7971474
19.868326 6.5838633 -1.7973222
19.897928 6.4584465 -1.7963614
19.945726 6.3389492 -1.7971474
19.969025 6.2117105 -1.7957501
20.013435 6.0910964 -1.7963614
20.046614 5.9670448 -1.7960122
20.089544 5.8458772 -1.7966235
20.122162 5.7216825 -1.7963614
20.171288 5.6021066 -1.7976714
20.209127 5.4792752 -1.7980207
20.263556 5.3607769 -1.799942
20.301853 5.2378345 -1.8004659
20.353899 5.118268 -1.8022999
20.411045 4.9996824 -1.8046578
20.451029 4.8766589 -1.8055311
20.499973 4.7555847 -1.8072777
20.555006 4.6356277 -1.8096356
20.619066 4.5173059 -1.8128668
20.629831 4.3871818 -1.8113822
20.658314 4.2609196 -1.8115568
20.681139 4.1334963 -1.8112948
20.709047 4.0070891 -1.8115568
20.740097 3.8812282 -1.8121681
20.777246 3.7563779 -1.8133907
20.810699 3.6307039 -1.8143514
20.850267 3.5059171 -1.8159233
20.889088 3.3807814 -1.8174952
20.931093 3.2559137 -1.8194165
20.965456 3.1296282 -1.8207264
21.007933 3.0043128 -1.8228223
21.04966 2.8785937 -1.8249183
21.082731 2.7514441 -1.8263155
21.113056 2.6237514 -1.8275381
6.9222918 0.81687272 -0.57348496
6.8945036 0.77072883 -0.57060307
6.8297563 0.72108471 -0.56449002
6.8330607 0.679066 -0.5644027
6.835115 0.63694137 -0.564228
6.8259931 0.59386671 -0.56309271
6.8344731 0.55237353 -0.56352937
6.8297863 0.50983387 -0.56283075
6.8248353 0.46737257 -0.56213212
6.8176322 0.42486718 -0.56125879
6.8181214 0.38291514 -0.56108415
6.8074083 0.34042513 -0.55994886
6.8004122 0.29825589 -0.55916291
6.7991281 0.25641093 -0.55890089
6.7985816 0.21462446 -0.55872625
6.796783 0.17282896 -0.55846423
6.8046875 0.13125633 -0.55907559
6.8103452 0.089566872 -0.5595122
6.813755 0.047798831 -0.55977422
6.8189011 0.0059941895 -0.56021082
6.8128324 -0.035814848 -0.5596869
6.8403759 -0.077933051 -0.56213212
6.8457451 -0.12000775 -0.5626561
6.863802 -0.16245694 -0.56431532
6.876616 -0.20498411 -0.56553793
6.8821979 -0.24742451 -0.56614923
6.9034419 -0.29061055 -0.56815785
6.9154592 -0.33363506 -0.56938046
6.9719701 -0.37925026 -0.57453293
18.626413 -1.1272037 -1.598298
18.41737 -1.2280225 -1.58057
18.364779 -1.3377504 -1.5766401
18.331396 -1.4484482 -1.5744569
18.235809 -1.5535455 -1.5668592
18.196173 -1.6626902 -1.5642394
14.274263 -1.3927773 -1.2197241
18.081257 -1.8761973 -1.5560304
18.066435 -1.9867799 -1.5557684
10.583975 -1.2298688 -0.89651716
10.574251 -1.2945457 -0.89634252
10.565121 -1.3592765 -0.8962552
10.555594 -1.4239442 -0.89616787
10.545672 -1.4885461 -0.89608055
10.543239 -1.5542419 -0.89669186
13.839872 -2.1269357 -1.1899446
13.822626 -2.2111864 -1.1895953
18.177855 -3.0222628 -1.5778627
18.156023 -3.133235 -1.5776008
14.566037 -2.6059184 -1.2596337
17.936954 -3.3226013 -1.5616195
13.474345 -2.5816722 -1.165143
18.183109 -3.5995264 -1.5873817
18.145065 -3.7078373 -1.5859845
18.101501 -3.81479 -1.5841506
18.049522 -3.919657 -1.581618
17.975552 -4.019248 -1.5771642
17.875797 -4.1122732 -1.5704398
17.783337 -4.2060599 -1.564414
17.711699 -4.3040428 -1.5603095
17.658859 -4.4061275 -1.5579517
8.2125635 -2.1029811 -0.70561463
8.2178125 -2.1581395 -0.7072739
17.491076 -4.7078991 -1.550354
7.7153401 -2.1277497 -0.66404575
7.7539091 -2.1896667 -0.66876155
17.378487 -5.0224175 -1.5482581
8.0340633 -2.3755951 -0.69688171
7.975472 -2.4115856 -0.69286454
7.9614763 -2.4607708 -0.69295186
8.0497713 -2.5422711 -0.70247078
16.960262 -5.4705739 -1.5246791
16.909346 -5.5689287 -1.5231072
7.8325896 -2.6331966 -0.68683881
16.768118 -5.751451 -1.5164701
16.705244 -5.8446898 -1.5139375
16.648424 -5.9397178 -1.5120163
16.595751 -6.0359707 -1.5105317
16.444445 -6.095449 -1.4998775
16.383436 -6.1874366 -1.4976943
16.299603 -6.2703223 -1.4934151
16.225574 -6.3564095 -1.4900966
16.17794 -6.452527 -1.4893106
16.04574 -6.5142016 -1.4805776
16.014675 -6.6163373 -1.4814509
15.975614 -6.7152491 -1.4816256
15.929529 -6.8111887 -1.4811889
15.867338 -6.900063 -1.4792677
15.80648 -6.9892364 -1.4775211
15.758755 -7.0840497 -1.4770844
15.679653 -7.1644645 -1.4736786
15.590221 -7.2395611 -1.4693121
15.51938 -7.3227577 -1.4667796
15.453495 -7.4079413 -1.4647709
15.393419 -7.495645 -1.4633737
15.34178 -7.5873065 -1.4628497
15.292265 -7.6799579 -1.4625877
15.243967 -7.7731924 -1.4625003
15.1951 -7.8661232 -1.4624131
15.135084 -7.953187 -1.4612777
13.049375 -6.9597611 -1.2589351
14.99955 -8.1184044 -1.4576099
14.929371 -8.1992579 -1.4556013
14.864857 -8.2829504 -1.4542041
14.808551 -8.3710623 -1.45368
12.433942 -7.1298275 -1.2189381
12.611273 -7.3346939 -1.2413818
12.578901 -7.4195285 -1.2426918
13.064907 -7.8146229 -1.2970108
14.375298 -8.7185745 -1.4363015
14.319834 -8.8055716 -1.4361268
14.247781 -8.8822041 -1.4342929
12.262861 -7.7497401 -1.2341335
14.111706 -9.0397205 -1.4315857
14.044276 -9.1185436 -1.4303631
13.984733 -9.2023563 -1.4300138
13.938779 -9.2951765 -1.431149
13.895514 -9.3900099 -1.4326336
13.838459 -9.4756565 -1.432721
13.79479 -9.570611 -1.4342929
13.757811 -9.6705408 -1.4366509
13.744469 -9.7877111 -1.4416286
13.80534 -9.9592819 -1.454728
13.748796 -10.047329 -1.4552521
13.651658 -10.105423 -1.4514096
13.531211 -10.145375 -1.4450345
13.413963 -10.186641 -1.4390087
13.32278 -10.246892 -1.4358648
13.23372 -10.308246 -1.4329829
13.0748 -10.313984 -1.4223287
12.947445 -10.343032 -1.4151677
12.850433 -10.395342 -1.4114126
12.750186 -10.444326 -1.4073081
12.68126 -10.518548 -1.4067841
12.61877 -10.598083 -1.4070461
12.558057 -10.679182 -1.40757
12.491539 -10.755385 -1.4074827
12.418552 -10.825939 -1.4066968
12.350398 -10.900616 -1.4065222
12.275852 -10.969553 -1.4056488
12.200926 -11.037987 -1.4047755
12.094768 -11.077656 -1.4002343
11.971782 -11.100861 -1.3936846
11.867126 -11.14002 -1.3893182
11.790606 -11.205077 -1.3883575
11.707273 -11.263399 -1.386611
11.618673 -11.316256 -1.384253
11.512841 -11.351664 -1.3797992
11.396438 -11.375645 -1.3740355
11.327125 -11.446066 -1.3741229
11.262946 -11.521763 -1.3749088
11.217642 -11.617168 -1.37814
11.168152 -11.708847 -1.3809345
11.094731 -11.775702 -1.3807598
6.9386196 -7.4558477 -0.85529763
10.952086 -11.913898 -1.3811092
10.818506 -11.914501 -1.3732495
10.703293 -11.933938 -1.3677478
6.7357183 -7.6037517 -0.85293972
6.6856561 -7.6411896 -0.85250306
6.5735059 -7.6066976 -0.84377009
10.257796 -12.01799 -1.3475746
10.172947 -12.067757 -1.34609
10.106996 -12.139901 -1.3472253
10.032316 -12.201688 -1.3472253
9.9610271 -12.267655 -1.3477492
9.884943 -12.327767 -1.347662
9.8066416 -12.385064 -1.3473126
2.033859 -2.6017685 -0.25193733
1.9740236 -2.5574262 -0.24564959
1.9637299 -2.5766206 -0.24643557
1.9460858 -2.5862336 -0.24617358
1.9301803 -2.5981259 -0.24617358
1.9324691 -2.63482 -0.24888079
1.9273678 -2.661957 -0.25054005
1.9167917 -2.6818368 -0.25141335
9.0908642 -12.883046 -1.3446927
1.8996793 -2.728045 -0.25385857
1.8891124 -2.7486799 -0.25481921
1.8738891 -2.7626927 -0.25508121
1.8674325 -2.7898662 -0.25674045
8.6881065 -13.150857 -1.3441688
8.598547 -13.190567 -1.3427715
8.4888878 -13.198673 -1.338143
8.3741169 -13.19752 -1.3326412
8.2876949 -13.240211 -1.3317679
8.2083921 -13.294205 -1.3321173
8.1220016 -13.336662 -1.3313313
8.0323229 -13.373438 -1.3300214
7.9546828 -13.430185 -1.3308073
7.8811707 -13.494226 -1.3323792
7.8101544 -13.563047 -1.3344752
7.73318 -13.621976 -1.3356105
7.6445866 -13.660477 -1.3347372
7.5625482 -13.710615 -1.3350865
7.4901738 -13.77864 -1.3372697
7.4078412 -13.82873 -1.3377063
7.3107595 -13.851018 -1.3354357
7.198976 -13.844354 -1.3303707
7.1070809 -13.874966 -1.3290608
7.0204654 -13.915645 -1.3287988
6.9362783 -13.961136 -1.3290608
6.8447928 -13.9918 -1.3279254
6.7333074 -13.980583 -1.322773
6.6294732 -13.983829 -1.3191051
6.529223 -13.99355 -1.316136
6.4311824 -14.007096 -1.3136034
6.3447051 -14.045385 -1.313516
6.252337 -14.070396 -1.3122061
6.1838379 -14.149571 -1.316136
6.1248288 -14.25223 -1.3223363
6.0376511 -14.290461 -1.3224237
5.9445038 -14.314358 -1.3212011
5.8565607 -14.350563 -1.3212011
5.7850814 -14.427835 -1.3251309
5.7066674 -14.489013 -1.3275762
5.6234074 -14.538621 -1.3289734
5.5457654 -14.603584 -1.3318553
5.4598827 -14.647605 -1.3328159
5.3651128 -14.667733 -1.3315933
5.2659273 -14.67506 -1.3292354
5.1711535 -14.69394 -1.3280128
5.0854454 -14.738577 -1.3292354
4.9993834 -14.782714 -1.330458
4.9041972 -14.799873 -1.3292354
4.806221 -14.807893 -1.3272268
4.7113481 -14.824763 -1.3260915
4.6167455 -14.841977 -1.3250436
4.5160174 -14.838576 -1.3221617
4.3850946 -14.732339 -1.3099356
4.2826467 -14.717838 -1.3061804
4.2028861 -14.781208 -1.3095863
4.1361046 -14.893105 -1.3174459
4.0509009 -14.941278 -1.3195418
3.9323933 -14.864733 -1.3103722
3.8319023 -14.852892 -1.3071409
3.7334058 -14.847141 -1.3045211
3.6502941 -14.902667 -1.3074903
3.5627127 -14.941257 -1.308975
3.4790726 -14.997771 -1.3121188
3.395092 -15.054791 -1.3153499
3.3064916 -15.092855 -1.3169219
3.2200382 -15.142092 -1.3195418
3.1359227 -15.204493 -1.3233843
3.0453043 -15.237123 -1.3246069
2.9487255 -15.239874 -1.3232096
2.8568091 -15.266493 -1.3239956
2.765209 -15.295498 -1.3250436
2.6728466 -15.32101 -1.3258295
2.5827532 -15.360699 -1.3279254
0.42826638 -2.6483626 -0.19761831
0.41813374 -2.6903141 -0.2011115
0.40985569 -2.7480037 -0.20600195
0.38283122 -2.6794643 -0.19971421
0.3701629 -2.7093987 -0.20215945
0.25218934 -1.9352078 -0.13351837
0.24141622 -1.945616 -0.13430434
0.22865598 -1.9401355 -0.13369304
0.2155292 -1.930612 -0.13273241
0.20305121 -1.925954 -0.13220844
0.19093424 -1.9241898 -0.13194644
0.18217616 -1.958057 -0.13482831
0.1683439 -1.938297 -0.1329944
0.15660818 -1.9412794 -0.13316905
0.14654915 -1.9670391 -0.1353523
0.16867241 -2.4668128 -0.17919175
0.12971778 -2.0860105 -0.1456572
0.11003798 -1.9644302 -0.13491565
0.097783133 -1.9610888 -0.13456634
0.086141653 -1.9706088 -0.1353523
0.073785402 -1.964132 -0.13474099
0.060661606 -1.9306946 -0.13177179
0.048534747 -1.920076 -0.13081115
0.035654034 -1.863566 -0.12583336
0.024034509 -1.8498044 -0.12461075
0.013318095 -1.939571 -0.13247041
0.00257194 -3.1708934 -0.24040982
-0.013984706 -2.6129966 -0.19150524
-0.02953201 -2.5700285 -0.18775006
-0.057499673 -3.2680144 -0.24896812
-0.077292107 -3.256645 -0.24800749
-0.099139333 -3.318841 -0.25350925
-0.11682153 -3.243505 -0.24695954
-0.13358307 -3.1680796 -0.24040982
-0.15560865 -3.2209315 -0.24512562
-0.16191024 -2.9722328 -0.22338055
-0.18050538 -2.9771495 -0.22390452
-0.20565982 -3.0793593 -0.23298681
-1.167218 -16.022984 -1.3708043
-1.2651974 -16.011549 -1.370455
-1.3626578 -15.994551 -1.369669
-1.4560602 -15.934301 -1.3651279
-1.55274 -15.914161 -1.3641672
-0.30858371 -2.9706168 -0.22425383
-0.32397458 -2.9429219 -0.22198327
-1.7603445 -15.150635 -1.2995434
-1.853274 -15.139548 -1.2995434
-0.48458257 -3.7644379 -0.29516548
-0.50767159 -3.7613938 -0.29516548
-0.42968556 -3.0420766 -0.23176418
-0.44703609 -3.030513 -0.23097822
-0.46456355 -3.0208206 -0.23036692
-0.48513547 -3.0307012 -0.23150219
-0.49996507 -3.0050654 -0.22949362
-0.47723314 -2.7633946 -0.20827252
-0.47734085 -2.6662753 -0.19988889
-0.50548422 -2.726965 -0.2055653
-0.52670532 -2.7472935 -0.20766121
-3.1583164 -15.95407 -1.3881829
-3.2573459 -15.940248 -1.3887068
-3.3544757 -15.917036 -1.3884449
-0.5609929 -2.5816748 -0.1940378
-0.56899852 -2.5431857 -0.19089393
-0.5948649 -2.5843046 -0.19491109
-0.60704249 -2.5650949 -0.19351381
-0.61571383 -2.5322814 -0.19089393
-3.9228725 -15.721889 -1.3829432
-4.0125957 -15.671466 -1.3805852
-0.64400542 -2.4511456 -0.18460619
-0.65411425 -2.4288709 -0.18294694
-4.2709842 -15.488355 -1.3708916
-0.9182803 -3.2508953 -0.25857437
-0.92963684 -3.2155321 -0.25586715
-4.5429239 -15.365082 -1.3670491
-0.8055709 -2.6632159 -0.20635127
-0.83660328 -2.7058113 -0.21071775
-4.7832804 -15.146816 -1.3549103
-5.0290217 -15.591225 -1.3985751
-5.1557527 -15.654694 -1.4073081
-5.2615499 -15.652036 -1.4100153
-5.3684783 -15.651495 -1.4129845
-5.4716501 -15.638947 -1.4149058
-1.189333 -3.3326209 -0.27263445
-1.2056735 -3.3140261 -0.27158648
-5.7987456 -15.643935 -1.425036
-5.8791404 -15.567055 -1.4211935
-1.168474 -3.0365169 -0.24765818
-1.1954406 -3.0506237 -0.24966675
-1.3075012 -3.2773335 -0.27176115
-1.3631825 -3.3569365 -0.28005746
-1.2700278 -3.0732174 -0.25394592
-1.2367507 -2.9413888 -0.24215642
-1.2626081 -2.9520643 -0.243903
-1.3089018 -3.0091236 -0.25010341
-6.8220587 -15.428375 -1.4412793
-1.3812625 -3.0718834 -0.25770107
-1.4133328 -3.092345 -0.26049563
-7.0146875 -15.105932 -1.4225035
-7.0842896 -15.013956 -1.4177877
-1.9152503 -3.9946585 -0.35079443
-7.2863169 -14.963508 -1.4214555
-1.4161161 -2.8626938 -0.24241839
-1.3496077 -2.6865873 -0.22600043
-1.3524915 -2.6516316 -0.22338055
-1.3733156 -2.6521297 -0.22425383
-1.3909531 -2.6462989 -0.22451583
-1.4048203 -2.6333194 -0.22407918
-1.9392041 -3.5822263 -0.31953046
-1.9649839 -3.5772455 -0.32022908
-1.4884487 -2.6705406 -0.23045424
-1.5106893 -2.6717641 -0.23150219
-1.5300275 -2.6676297 -0.23202617
-8.6262751 -14.832159 -1.4666048
-8.7216759 -14.786673 -1.4673909
-5.0518703 -8.4457111 -0.82516891
-8.8988581 -14.672568 -1.4667796
-8.9981127 -14.632964 -1.4683515
-1.3589426 -2.1792102 -0.1875754
-1.3653703 -2.1598833 -0.18644013
-5.2166815 -8.1433287 -0.8102355
-5.2768564 -8.1270418 -0.81189477
-1.3906584 -2.1127484 -0.18416955
-1.3842523 -2.0751672 -0.181113
-9.6867304 -14.33463 -1.479093
-1.4186184 -2.0711756 -0.18251029
-9.8959789 -14.263789 -1.4843328
-5.5477824 -7.8922634 -0.80813962
-1.6726116 -2.3482018 -0.21517156
-1.6805775 -2.3290076 -0.21421093
-1.6337106 -2.235003 -0.20512865
-1.6805832 -2.2697756 -0.21001911
-1.7112107 -2.2817383 -0.21246435
-1.6372207 -2.1553648 -0.19971421
-1.6012229 -2.0813167 -0.19264053
-1.6366128 -2.1005313 -0.19587171
-1.6698301 -2.1162603 -0.1987536
-10.990266 -13.757694 -1.5060779
-10.997415 -13.594736 -1.4953363
-11.079361 -13.52546 -1.4951617
-1.6144209 -1.9458271 -0.18408222
-1.622486 -1.9313076 -0.18355824
-1.6355964 -1.9228336 -0.1837329
-1.6519136 -1.918046 -0.1843442
-1.6688882 -1.9138814 -0.18504284
-1.6832368 -1.9065928 -0.18539216
-1.696895 -1.8984573 -0.18565415
-1.7232144 -1.9042621 -0.1875754
-1.7382305 -1.8973259 -0.18801205
-2.2801778 -2.4585989 -0.25639114
-2.2972658 -2.4467406 -0.25665313
-2.3280187 -2.4492078 -0.25866172
-3.4252467 -3.5598264 -0.39550722
-2.3808353 -2.4440055 -0.26154357
-12.47211 -12.649253 -1.5197012
-12.557935 -12.580948 -1.5207492
-3.2566772 -3.2224302 -0.36406854
-3.402473 -3.3256454 -0.3795259
-3.3848348 -3.2680302 -0.37489742
-3.4480734 -3.2884545 -0.38013721
-12.920542 -12.17342 -1.5186533
-3.5012941 -3.25811 -0.38170913
-2.5575724 -2.3506691 -0.26695803
-3.4650509 -3.145921 -0.37271419
-3.4820638 -3.1226051 -0.3724522
-3.4340494 -3.0417283 -0.36459252
-2.6024952 -2.2766993 -0.26556075
-3.5427194 -3.0612397 -0.37288883
-3.3803487 -2.8848715 -0.35201705
-13.55372 -11.425658 -1.5164701
-13.619743 -11.339092 -1.5160334
-3.338233 -2.7443407 -0.34127551
-4.0015144 -3.2487791 -0.41428307
-3.8037655 -3.0496688 -0.38983077
-13.612763 -10.7788 -1.4845948
-13.732794 -10.737411 -1.4906205
-13.762147 -10.624941 -1.4866034
-3.3062646 -2.5199597 -0.32686612
-11.253813 -8.469944 -1.197193
-11.267192 -8.3722124 -1.1930012
-11.376182 -8.3453474 -1.199289
-4.0569367 -2.9376519 -0.40153295
-14.120395 -10.094394 -1.4840708
-3.0785332 -2.1719782 -0.29272026
-3.08935 -2.1513395 -0.29245827
-3.0589838 -2.1024332 -0.28782979
-3.164979 -2.1468241 -0.29769805
-3.1905086 -2.1356771 -0.29900798
-3.1437094 -2.0765226 -0.29272026
-3.1680748 -2.0648105 -0.29394287
-3.2753599 -2.1062276 -0.3038111
-5.7030931 -3.6184669 -0.55453444
-3.4580154 -2.1641898 -0.32005441
-3.4008777 -2.0994904 -0.31280607
-15.133568 -9.2163773 -1.5157714
-3.5843701 -2.1524923 -0.32896203
-3.6000814 -2.1319814 -0.32922402
-3.619977 -2.1138711 -0.32992268
-15.484681 -8.9167757 -1.5288709
-15.59108 -8.8511047 -1.5341107
-15.645966 -8.7557602 -1.534198
-3.8417289 -2.1187031 -0.34703928
-3.8835387 -2.1107922 -0.34992114
-3.9315414 -2.1057403 -0.35341433
-3.9382212 -2.0783219 -0.35280302
-3.9190819 -2.0375724 -0.34965917
-3.9128916 -2.0039494 -0.34782523
-3.9082155 -1.9713768 -0.34616598
-7.676096 -3.8134942 -0.71382362
-7.6742954 -3.754065 -0.7113784
-7.7438555 -3.7293844 -0.71591955
-16.699539 -7.917027 -1.5825785
-9.9754667 -4.6543059 -0.92743188
-5.7470937 -2.6384447 -0.51680803
-5.7604513 -2.6019013 -0.51654607
-5.7763081 -2.5665069 -0.51654607
-5.8029008 -2.5358031 -0.51759398
-10.14283 -4.3587074 -0.93022639
-10.181313 -4.3014302 -0.93136168
-10.286633 -4.2717371 -0.93887204
-10.326486 -4.2141857 -0.94018197
-10.19404 -4.0873432 -0.92524862
-9.6350012 -3.7947128 -0.87023097
-10.441327 -4.0384893 -0.9438498
-10.458461 -3.9715171 -0.94315118
-10.361286 -3.8620353 -0.93179834
-10.391337 -3.8007824 -0.93240964
-10.438841 -3.7456994 -0.93468022
-10.451291 -3.6779394 -0.93371958
-10.422811 -3.596195 -0.92900378
-7.8194003 -2.6442521 -0.6860528
-7.8080554 -2.5871356 -0.68352026
-10.457866 -3.3942013 -0.92629659
-10.495584 -3.3354006 -0.92786849
-10.530121 -3.2753768 -0.92917848
-10.534772 -3.2060623 -0.92778116
-10.402436 -3.0961714 -0.91389579
-10.953053 -3.1870492 -0.96245104
-10.876582 -3.0925348 -0.95371807
-10.858879 -3.0156085 -0.95039958
-9.7061176 -2.6313906 -0.84403211
-11.001966 -2.9104085 -0.96009314
-11.06881 -2.85554 -0.96454692
-11.089988 -2.7885411 -0.96489626
-11.163976 -2.7344263 -0.97004873
-11.211552 -2.6732686 -0.97284323
-10.975438 -2.5458906 -0.95013756
-11.425234 -2.5764701 -0.98917389
-11.482671 -2.5154858 -0.99292904
-11.323474 -2.4078872 -0.97729707
-11.285351 -2.3274946 -0.97258127
-11.521166 -2.3025296 -0.99240512
-11.532143 -2.231226 -0.99214309
-11.569117 -2.1648223 -0.99423903
-11.581202 -2.0936174 -0.99415171
-11.868608 -2.0704613 -1.0186039
-11.83197 -1.9893378 -1.0142375
-11.995395 -1.9412135 -1.0276862
-12.535669 -1.9498091 -1.0745822
-13.410485 -2.0017095 -1.151083
-14.212416 -2.0323646 -1.221034
-15.171143 -2.0745783 -1.3047831
-15.866157 -2.0705442 -1.3651279
-15.78366 -1.9613568 -1.3567442
-19.527067 -2.3050516 -1.6861515
-20.167517 -2.2552845 -1.7414311
-0 -0 -0
-22.228794 -2.2099979 -1.9207188
-22.252848 -2.0745802 -1.9216795
-22.293938 -1.940506 -1.924212
-22.305424 -1.8036764 -1.924212
-22.323027 -1.6672984 -1.9248233
-22.324884 -1.5297506 -1.9241247
-22.331863 -1.3926148 -1.9239501
-22.351923 -1.2562339 -1.924998
-22.346275 -1.1184138 -1.9238627
-22.347742 -0.98106009 -1.923426
-22.344381 -0.84358007 -1.9226401
-22.345154 -0.70633566 -1.9222908
-19.411947 1.4311708 -1.9119321
-19.382963 1.5486672 -1.9099388
-19.360209 1.6664596 -1.9086431
-19.332775 1.7836652 -1.9069488
-19.304634 1.900597 -1.9052545
-19.280733 2.0177686 -1.9040585
-19.256121 2.1347187 -1.9028624
-19.235743 2.2520216 -1.9021648
-19.218599 2.369642 -1.9018657
-19.20962 2.4882877 -1.9024638
-19.188074 2.6053052 -1.9018657
-19.160891 2.7214522 -1.9007695
-19.146784 2.8394082 -1.9010684
-19.113268 2.9544041 -1.8994738
-19.077097 3.0687797 -1.8976798
-19.035336 3.1820023 -1.8953874
-19.012512 3.2982306 -1.8950884
-18.984083 3.4134181 -1.894291
-18.946152 3.5267413 -1.8925967
-18.903637 3.6389751 -1.8905038
-18.858507 3.750432 -1.8882114
-18.812721 3.8614721 -1.8859191
-18.764338 3.9716797 -1.8834274
-18.725033 4.0835595 -1.8819324
-18.697681 4.1979413 -1.8817331
-18.675449 4.3134851 -1.8821317
-18.65444 4.4293737 -1.8827296
-18.639477 4.5468183 -1.8840253
-18.619915 4.6632786 -1.8849224
-18.56975 4.7719908 -1.8827296
-18.535309 4.8845744 -1.8822314
-18.480974 4.991725 -1.8797396
-18.441366 5.1026397 -1.8788427
-18.406837 5.2148838 -1.8785437
-18.378317 5.3288364 -1.8789424
-18.35195 5.4434848 -1.87964
-18.334391 5.5608983 -1.8813343
-18.318933 5.6791849 -1.8833277
-18.295124 5.7950873 -1.8845237
-18.291409 5.9176507 -1.8879124
-18.307663 6.0472531 -1.8934938
-18.300385 6.1696467 -1.8966831
-18.294174 6.2928257 -1.9000717
-18.277752 6.4128656 -1.9024638
-18.259605 6.5326056 -1.9047561
-18.245352 6.6540685 -1.9075468
-18.241488 6.7797627 -1.9115335
-18.244209 6.9084792 -1.9163175
-18.234896 7.033186 -1.9199055
-18.223812 7.1576743 -1.9233938
-18.211885 7.2822909 -1.9268823
-18.192665 7.4044037 -1.9296728
-18.193771 7.5353131 -1.9347559
-18.20771 7.6723108 -1.9413339
-18.204189 7.8027053 -1.946118
-18.179684 7.9245963 -1.9487092
-18.156187 8.047286 -1.9514999
-18.136404 8.1720295 -1.954789
-18.123915 8.3005629 -1.958975
-18.079859 8.4149723 -1.9597723
-18.062067 8.5419168 -1.9635597
-18.055054 8.6745615 -1.9686427
-18.022053 8.7952204 -1.9709351
-18.032827 8.9378967 -1.9782108
-17.96076 9.039875 -1.976317
-17.946596 9.1711941 -1.9810015
-17.965057 9.3200922 -1.9894731
-17.936584 9.4454489 -1.9927622
-17.886189 9.5595503 -1.9936591
-17.874426 9.6947374 -1.9990412
-17.838139 9.8171854 -2.0017321
-17.823608 9.9521656 -2.0070145
-17.795973 10.08047 -2.0109015
-17.765705 10.207817 -2.0145893
-17.735403 10.335673 -2.0183766
-17.686213 10.452909 -2.020071
-17.638811 10.571464 -2.0220642
-17.594872 10.692414 -2.0245559
-17.548416 10.812179 -2.0268483
-17.512123 10.938629 -2.0304363
-17.483345 11.070364 -2.0350211
-17.439373 11.193019 -2.0379114
-17.408731 11.324775 -2.042496
-17.358021 11.443977 -2.0447884
-17.31974 11.571829 -2.0486753
-17.282192 11.700756 -2.0527618
-17.243711 11.829658 -2.056848
-17.201847 11.956823 -2.0606353
-17.174528 12.094805 -2.0663164
-17.121861 12.215563 -2.0690074
-17.072392 12.339044 -2.0721967
-17.021246 12.461788 -2.0752864
-16.96604 12.581998 -2.0779774
-16.901247 12.695425 -2.0795722
-16.829367 12.80371 -2.0803695
-16.729208 12.890334 -2.0776784
-16.623129 12.971926 -2.0742898
-16.5159 13.052084 -2.0708015
-16.405207 13.128929 -2.0669146
-16.292646 13.203655 -2.0628281
-16.196709 13.291383 -2.0609345
-16.076588 13.358716 -2.0559511
-16.000408 13.462234 -2.0567484
-15.878877 13.527246 -2.0516653
-15.787289 13.617273 -2.0505691
-15.689947 13.702104 -2.048775
-15.583216 13.778344 -2.045785
-15.486519 13.863082 -2.0441904
-15.383471 13.941807 -2.0417984
-15.286639 14.025845 -2.0403035
-15.17915 14.099738 -2.0374131
-15.063356 14.165342 -2.0334263
-14.948051 14.230744 -2.0295393
-14.826065 14.28905 -2.0247552
-14.716745 14.358905 -2.0217652
-14.610667 14.431453 -2.0192735
-14.51551 14.514499 -2.0183766
-14.414989 14.591964 -2.0167818
-14.325184 14.680139 -2.0167818
-14.240362 14.773491 -2.0175793
-14.128863 14.83897 -2.0145893
-14.028004 14.915236 -2.0131938
-13.915229 14.97843 -2.0101042
-13.806243 15.045201 -2.0076125
-13.692285 15.106039 -2.0044231
-13.585402 15.1742 -2.0023303
-13.47622 15.239383 -1.9999381
-13.370678 15.308294 -1.9981441
-13.264798 15.376485 -1.9963502
-13.158586 15.443953 -1.9945562
-13.044997 15.502322 -1.9916658
-12.947723 15.579777 -1.9913669
-12.865771 15.675851 -1.9935595
-12.722357 15.696522 -1.9860845
-12.607776 15.75176 -1.9831941
-12.498548 15.81321 -1.9812008
-12.386593 15.870775 -1.9788088
-12.280476 15.935445 -1.9774134
-12.184876 16.013664 -1.9778121
-12.068461 16.06426 -1.974822
-11.967887 16.135611 -1.9745231
-11.851022 16.184656 -1.9715331
-11.742166 16.244165 -1.9699384
-11.628981 16.297277 -1.967646
-11.516159 16.350428 -1.9654534
-11.397445 16.394636 -1.9622641
-11.283125 16.444569 -1.959872
-11.173085 16.500309 -1.9582773
-11.063891 16.556973 -1.956882
-10.963735 16.627039 -1.957181
-10.848484 16.673981 -1.954789
-10.745433 16.739395 -1.9546894
-10.627083 16.780634 -1.951799
-10.51443 16.830334 -1.9500049
-10.398436 16.874201 -1.947613
-10.286951 16.924932 -1.946118
-10.176769 16.977491 -1.944922
-10.058737 17.016487 -1.9422309
-9.943615 17.059834 -1.940138
-9.6632624 16.815115 -1.9048558
-9.5393076 16.837729 -1.9006698
-9.4290218 16.883781 -1.8992745
-9.4667778 17.198477 -1.9286762
-9.3871641 17.304344 -1.934158
-9.2845621 17.368637 -1.9349552
-9.1759605 17.421759 -1.9345566
-9.0698061 17.4795 -1.9347559
-8.9492521 17.509127 -1.9318656
-8.8335981 17.54771 -1.9300716
-8.7200165 17.589993 -1.9287759
-8.6053753 17.629753 -1.9272809
-8.4897137 17.666977 -1.9255866
-8.3760462 17.707941 -1.9243906
-8.2567377 17.73645 -1.9218988
-8.1390524 17.767782 -1.9198059
-7.9943147 17.738462 -1.9111348
-7.9058867 17.833574 -1.9162178
-7.783987 17.853472 -1.9131281
-7.6774297 17.908215 -1.9139255
-7.5670161 17.954067 -1.9138259
-7.4551864 17.996483 -1.9134271
-7.3359942 18.020691 -1.9111348
-7.2275 18.07091 -1.9117328
-7.1102986 18.099171 -1.9100385
-6.9951715 18.132246 -1.9089421
-6.878849 18.161798 -1.9075468
-6.7641611 18.195271 -1.9066498
-6.6503439 18.230824 -1.9060518
-6.5353398 18.262856 -1.9051548
-6.4201932 18.294161 -1.9042578
-6.3084688 18.335093 -1.9044571
-6.1923509 18.363083 -1.9033607
-6.0780001 18.396009 -1.9028624
-5.9647036 18.432011 -1.9027628
-5.8502927 18.464468 -1.9023641
-5.7345295 18.492413 -1.9015667
-5.6189327 18.520586 -1.9008691
-5.5046206 18.552807 -1.9006698
-5.3926191 18.592922 -1.9013674
-5.2795186 18.629492 -1.9017661
-5.1669683 18.668247 -1.9024638
-5.053103 18.702482 -1.9027628
-4.9390125 18.736021 -1.9030617
-4.82371 18.765011 -1.9029621
-4.7082372 18.793289 -1.9028624
-4.5921278 18.818926 -1.9025635
-4.4749613 18.839972 -1.9018657
-4.3554702 18.850594 -1.9001714
-3.2886367 14.64115 -1.4653239
-3.1775355 14.563836 -1.4553572
-3.0172293 14.248192 -1.4210718
-2.9253457 14.244993 -1.418879
-2.8404081 14.275362 -1.4201747
-2.7591584 14.325742 -1.4235635
-2.7016172 14.505764 -1.4402078
-2.5555036 14.20477 -1.4079157
-2.4747601 14.257438 -1.4117031
-2.3798485 14.22819 -1.4072181
-2.2820699 14.177688 -1.40064
-2.1450214 13.867905 -1.3678496
-2.0384305 13.736119 -1.3531985
-1.9405349 13.652811 -1.3435308
-1.8557892 13.657559 -1.3428332
-1.7798789 13.729869 -1.3490125
-1.6951134 13.736581 -1.3486137
-1.6139197 13.773407 -1.3513048
-1.5298159 13.787006 -1.3517035
-1.4462276 13.806029 -1.3527001
-1.3651934 13.852273 -1.3564875
-1.3193951 14.285446 -1.3992447
-1.2358985 14.341849 -1.4041283
-1.3050559 16.316019 -1.6017681
-1.158524 15.694584 -1.5385792
-1.0222186 15.109715 -1.4791777
-0.93674612 15.233887 -1.4910381
-0.85088605 15.377445 -1.5048918
-0.71142304 14.464084 -1.4127994
-0.62270242 14.469171 -1.412899
-0.56106842 15.210526 -1.486852
-0.46422029 15.099308 -1.4753903
-0.37339374 15.176476 -1.4828653
-0.27759477 15.033233 -1.4683139
-0.20026636 16.252468 -1.5903065
-0.093603991 15.119088 -1.476686
-0.00083283929 15.138283 -1.4785796
0.091508627 15.049448 -1.4697093
0.18389751 15.052583 -1.4701079
0.27640167 15.05913 -1.4709053
0.36324948 14.831349 -1.4482809
0.45360467 14.807956 -1.4461879
0.54434609 14.80191 -1.4458889
