# .PCD v0.7 - Point Cloud Data file format
VERSION 0.7
FIELDS x y z
SIZE 4 4 4
TYPE F F F
COUNT 1 1 1
WIDTH 1599
HEIGHT 1
VIEWPOINT 0 0 0 1 0 0 0
POINTS 1599
DATA ascii
1.3861713 -4.876039 -1.6527169
1.3582569 -4.8917632 -1.6552527
1.3339249 -4.9210591 -1.6625431
1.3041898 -4.930985 -1.663177
1.2762789 -4.9480782 -1.6663468
1.246588 -4.9585752 -1.6672977
1.2181702 -4.9744215 -1.6701504
1.1885048 -4.9854927 -1.6714183
1.1538196 -4.9751377 -1.6653959
0.73409921 -3.2566366 -1.0742401
0.71146417 -3.2490358 -1.0701194
0.69684219 -3.2783875 -1.0786777
0.66962385 -3.2482331 -1.0669496
0.64335978 -3.2206595 -1.0561726
0.62340587 -3.2236152 -1.0558556
0.60501021 -3.2348375 -1.0583913
0.58143771 -3.2179563 -1.0514179
0.55434573 -3.179419 -1.0371541
0.5318383 -3.1649899 -1.0311316
0.51104432 -3.1597674 -1.0282788
0.49412531 -3.1787753 -1.0336674
0.47727224 -3.1995702 -1.0396899
0.45642251 -3.1939886 -1.0368372
0.43463108 -3.1807542 -1.0314486
0.41584268 -3.1890039 -1.0333505
0.39661843 -3.194319 -1.0343014
0.37834546 -3.2079952 -1.038105
0.35717851 -3.1970606 -1.0336674
0.33845174 -3.2076807 -1.0365202
0.32007727 -3.2229099 -1.0409578
0.3008242 -3.2304792 -1.0428597
0.281737 -3.240768 -1.0457125
0.26345241 -3.2622879 -1.0523689
0 -0 -0
0.2390939 -3.4942591 -1.1290765
0.20749298 -3.3328462 -1.0745571
0.18714559 -3.3359504 -1.075191
0.16292641 -3.2622035 -1.05015
0.14194973 -3.2413487 -1.0428597
0.12123515 -3.2203603 -1.0355693
0.10135318 -3.2172515 -1.0343014
0.08078897 -3.1855767 -1.0235243
0.061094344 -3.1784263 -1.0209885
0.041866358 -3.1996052 -1.0279619
0.022488113 -3.2358413 -1.0400069
0.0026169254 -3.2188466 -1.0343014
-0.017177964 -3.2273378 -1.0371541
-0.037109204 -3.2385523 -1.0409578
-0.056482848 -3.2098148 -1.0314486
-0.076109678 -3.2065635 -1.0304977
-0.095726945 -3.2041399 -1.0298637
-0.11545341 -3.2053878 -1.0304977
-0.13591583 -3.2235711 -1.0368372
-0.15692525 -3.2482545 -1.0453955
-0.17880872 -3.2832179 -1.0574404
-0.1975763 -3.2593381 -1.0498331
-0.21744536 -3.2561717 -1.0491991
-0.23624973 -3.2386954 -1.0438106
-0.25484788 -3.2211115 -1.038422
-0.27525133 -3.2270472 -1.0409578
-0.29409781 -3.2149081 -1.0374711
-0.31575221 -3.232866 -1.0441276
-0.33284247 -3.2044535 -1.0352523
-0.35125452 -3.1910379 -1.0314486
-0.3700617 -3.1822278 -1.0292298
-0.390387 -3.186487 -1.0314486
-0.41029453 -3.1868539 -1.0323995
-0.43148887 -3.1964953 -1.0365202
-0.4534795 -3.2106919 -1.0422257
-0.47469252 -3.2181702 -1.0457125
-0.49831894 -3.2405076 -1.0542707
-0.52223724 -3.2626755 -1.062829
-0.54613507 -3.2827995 -1.0707533
-0.56336486 -3.2625635 -1.0650479
-0.58120191 -3.2469082 -1.0609272
-0.59921366 -3.2330227 -1.0574404
-0.61350805 -3.2004087 -1.0476142
-0.6384744 -3.2235651 -1.0568064
-0.65615332 -3.2093654 -1.0533198
-0.67426872 -3.1978543 -1.050784
-0.69609147 -3.2038522 -1.0542707
-0.72794604 -3.2541301 -1.0729722
-0.74874973 -3.2532995 -1.0742401
-0.78965217 -3.3372495 -1.1046696
-0.81414515 -3.3489306 -1.110375
-0.84776497 -3.3963251 -1.1284425
-0.85353374 -3.3322561 -1.1081562
-0.83157218 -3.1655042 -1.0523689
-0.82879585 -3.0779161 -1.0238413
-0.82648939 -2.9959705 -0.99721545
-0.84047574 -2.9753261 -0.99182689
-0.86266571 -2.9837801 -0.99658149
-0.92344207 -3.1221349 -1.0466633
-0.96646011 -3.1953933 -1.0742401
-0.98492837 -3.1857784 -1.0729722
-1.0107403 -3.1995723 -1.0799456
-1.0370494 -3.214071 -1.0872359
-1.0659475 -3.2355735 -1.0970621
-1.0661386 -3.1705368 -1.0764588
-1.0815727 -3.1522725 -1.0723382
-1.079284 -3.0838058 -1.050467
-1.0981855 -3.0771255 -1.050467
-1.1157491 -3.0667639 -1.0491991
-1.150367 -3.1025472 -1.0644139
-1.2953681 -3.4290457 -1.1835959
-1.3534992 -3.51752 -1.2181461
-1.3511875 -3.448215 -1.1962749
-1.35405 -3.3940496 -1.1797923
-1.3634343 -3.3575563 -1.1696491
-1.360834 -3.2930262 -1.1493628
-1.4328315 -3.4078963 -1.194056
-1.3977863 -3.2682302 -1.14651
-1.4125186 -3.2474153 -1.1420724
-1.4155425 -3.2005203 -1.1281255
-1.4273769 -3.1744733 -1.1217861
-1.8973383 -4.1516714 -1.4840869
-1.4686217 -3.1618793 -1.123688
-1.5147054 -3.2094204 -1.1446081
-1.6979431 -3.5413127 -1.2710806
-1.5614494 -3.20594 -1.1503137
-1.5710012 -3.175895 -1.1427064
-1.5427878 -3.0712683 -1.1072053
-1.5516948 -3.0423107 -1.0999149
-1.5568167 -3.0066218 -1.0900887
-1.5509719 -2.9508355 -1.0726552
-1.5632467 -2.9303842 -1.0685345
-1.5694606 -2.8990502 -1.0602932
-1.578545 -2.8735704 -1.0542707
-1.5933775 -2.8588595 -1.0523689
-1.6192898 -2.8638909 -1.0580744
-1.6340013 -2.8489645 -1.0561726
-1.6605107 -2.8544624 -1.0621951
-1.6751031 -2.8393183 -1.0602932
-1.6856776 -2.8175912 -1.0558556
-1.6812946 -2.7715132 -1.0419087
-1.7330432 -2.8176992 -1.0640969
-1.7447807 -2.7981589 -1.0606102
-1.7467172 -2.7633476 -1.051101
-1.782568 -2.7821276 -1.062829
-1.7773975 -2.7369318 -1.0491991
-1.7884229 -2.7172589 -1.0457125
-1.8087453 -2.7117579 -1.0479312
-1.8280053 -2.7045379 -1.0495161
-1.859033 -2.7143998 -1.0580744
-1.8637596 -2.6857979 -1.051101
-1.8867489 -2.6836228 -1.0549047
-1.9053804 -2.6750858 -1.0561726
-1.9101063 -2.6471913 -1.0495161
-1.9296707 -2.6400158 -1.0514179
-1.9356763 -2.6144042 -1.0457125
-1.9585088 -2.6115842 -1.0495161
-1.976217 -2.6017838 -1.050467
-1.9800018 -2.5738211 -1.0438106
-2.0021682 -2.5698543 -1.0472972
-2.0085006 -2.5456064 -1.0422257
-2.0323696 -2.5436089 -1.0466633
-2.0586753 -2.5443637 -1.0523689
-2.0688393 -2.5250804 -1.0495161
-2.1018531 -2.5335093 -1.0587083
-2.1100395 -2.5118494 -1.0549047
-2.1303272 -2.5046353 -1.0574404
-2.1301849 -2.4735482 -1.0495161
-2.1702509 -2.4890285 -1.0621951
-2.1653996 -2.4529099 -1.0520519
-2.1999998 -2.4615014 -1.0618781
-2.2093353 -2.4416261 -1.0590253
-2.2197912 -2.4231279 -1.0568064
-2.236552 -2.4115484 -1.0577574
-2.2318337 -2.3770344 -1.0482482
-2.2398436 -2.3564203 -1.0450785
-2.2503147 -2.3385315 -1.0431767
-2.2560189 -2.3158472 -1.0390559
-2.2721839 -2.3039868 -1.0400069
-2.2896283 -2.2933581 -1.0415918
-2.3090498 -2.2846031 -1.0441276
-2.3304846 -2.2776852 -1.0476142
-2.3505566 -2.2692721 -1.050467
-2.377476 -2.2672446 -1.0564895
-2.4293087 -2.2883861 -1.0739231
-2.4176164 -2.2495294 -1.0621951
-2.4404504 -2.2429974 -1.0663157
-2.4527631 -2.2267056 -1.0656818
-2.4579072 -2.2040145 -1.0618781
-2.4507968 -2.1706529 -1.0526859
-2.4533632 -2.1462059 -1.0479312
-2.4614627 -2.1267707 -1.0457125
-2.4744661 -2.1116273 -1.0457125
-2.4888265 -2.0976272 -1.0463464
-2.5060236 -2.0859578 -1.0482482
-2.5151129 -2.0675299 -1.0466633
-2.5299604 -2.0538521 -1.0476142
-2.5469544 -2.0418499 -1.0495161
-2.5668705 -2.0320716 -1.0526859
-2.5964751 -2.0297201 -1.0599762
-2.631402 -2.0311384 -1.0694854
-2.6438153 -2.0149543 -1.0694854
-2.6629488 -2.0038273 -1.0723382
-2.675194 -1.9874501 -1.0723382
-2.6926916 -1.9749252 -1.0745571
-2.6978455 -1.9533591 -1.0717043
-2.7321551 -1.9527647 -1.0808965
-2.7200632 -1.9190117 -1.0710703
-2.7348998 -1.9044539 -1.0723382
-2.7434075 -1.8854878 -1.0710703
-2.7604191 -1.8723465 -1.0732892
-2.767915 -1.8527353 -1.0717043
-2.7990141 -1.8487872 -1.0796286
-2.8230176 -1.8398652 -1.0847002
-2.8390398 -1.8255873 -1.086602
-2.8429806 -1.8035594 -1.0837493
-2.8531897 -1.785578 -1.0834323
-2.8536012 -1.7615597 -1.0793116
-2.8667862 -1.7454972 -1.0802625
-2.8790686 -1.7288508 -1.0808965
-2.9043109 -1.719853 -1.086602
-2.9262745 -1.708697 -1.0910397
-2.9531417 -1.7001756 -1.0973791
-2.9783642 -1.6904521 -1.1030847
-3.0027506 -1.6800195 -1.1084732
-3.0254593 -1.6684349 -1.1132278
-3.0606375 -1.6634294 -1.1227371
-3.1033916 -1.6620854 -1.1350989
-3.1521144 -1.6633779 -1.1496798
-3.2430413 -1.6860133 -1.1801093
-3.2558577 -1.6673799 -1.1810602
-3.2888899 -1.6589059 -1.1896185
-3.3058019 -1.6420705 -1.1921543
-3.3175189 -1.6225892 -1.1927881
-3.338521 -1.6075531 -1.1969088
-3.6054199 -1.7089317 -1.2920009
-4.1332393 -1.9282068 -1.4828191
-3.6735251 -1.686326 -1.3094344
-4.0874438 -1.8461028 -1.4574611
-4.2052994 -1.8683624 -1.4964489
-4.1323862 -1.8056803 -1.4657024
-4.1764998 -1.7945212 -1.4777474
-4.1725798 -1.7625855 -1.4723589
-4.2218561 -1.7529558 -1.4863057
-4.144721 -1.6911789 -1.4546083
-4.2043166 -1.6854833 -1.4723589
-4.2851748 -1.6874615 -1.4977168
-4.3502913 -1.6823506 -1.5173692
-4.4687028 -1.6967075 -1.5560399
-4.48525 -1.6715752 -1.5582588
-4.551537 -1.6645498 -1.5782281
-4.7062812 -1.6884884 -1.6295778
-4.8104901 -1.6926409 -1.66286
-4.890717 -1.6872238 -1.6875839
-4.9692588 -1.6802773 -1.711674
-5.016387 -1.6619873 -1.7246699
-5.080616 -1.6487453 -1.7436883
-5.1674666 -1.6419591 -1.7706311
-5.2643843 -1.6372672 -1.8010606
-5.3079028 -1.615153 -1.8127886
-5.4031606 -1.6079898 -1.8425841
-5.5422387 -1.612438 -1.8875943
-5.600378 -1.5921503 -1.9043939
-5.6557341 -1.5704479 -1.9202427
-5.688148 -1.5419205 -1.928167
-5.7167568 -1.512084 -1.9348234
-5.7369475 -1.4798216 -1.9386271
-5.7477589 -1.4450551 -1.9392611
-5.7629657 -1.41134 -1.9414798
-5.7669044 -1.3748525 -1.939895
-5.77246 -1.3387985 -1.9389441
-5.7685385 -1.3006414 -1.9348234
-5.7680726 -1.263395 -1.9319706
-5.7747884 -1.2277817 -1.9316536
-5.784071 -1.1927083 -1.9322876
-5.79035 -1.1570096 -1.9319706
-5.8075833 -1.123441 -1.9354573
-5.8274188 -1.0902278 -1.939895
-5.835865 -1.0547885 -1.9405289
-5.8394241 -1.0184714 -1.9395781
-5.8427577 -0.98215026 -1.9386271
-5.8758254 -0.95067608 -1.9478194
-5.8852963 -0.91518801 -1.9490873
-5.883297 -0.87793893 -1.9465514
-5.9064116 -0.8443746 -1.9525739
-0 -0 -0
-0 -0 -0
-0 -0 -0
-0 -0 -0
-0 -0 -0
-0 -0 -0
-0 -0 -0
-0 -0 -0
-0 -0 -0
-0 -0 -0
-0 -0 -0
-0 -0 -0
-0 -0 -0
-0 -0 -0
-0 -0 -0
-0 -0 -0
-0 -0 -0
-0 -0 -0
-0 0 -0
-0 0 -0
-0 0 -0
-0 0 -0
-0 0 -0
-0 0 -0
-0 0 -0
-0 0 -0
-0 0 -0
-0 0 -0
-0 0 -0
-0 0 -0
-0 0 -0
-0 0 -0
-0 0 -0
-0 0 -0
-0 0 -0
-0 0 -0
-5.606111 1.0396911 -1.9327536
-5.5857062 1.0713971 -1.9278454
-5.5818076 1.1062018 -1.9288269
-5.5647321 1.1383451 -1.9252275
-5.5539441 1.1716872 -1.9239187
-5.54111 1.204538 -1.9219553
-5.5409918 1.2401676 -1.9245732
-5.5397234 1.2756287 -1.9268637
-5.5317922 1.3095958 -1.9268637
-5.5282431 1.3446312 -1.9284997
-5.518055 1.3780682 -1.9278454
-5.5094957 1.4119004 -1.9278454
-5.4952455 1.4442372 -1.925882
-5.4835429 1.4771903 -1.9249003
-5.4716434 1.5100541 -1.9239187
-5.4586377 1.5425705 -1.9226098
-5.4445314 1.5747213 -1.9209738
-5.4338608 1.6078304 -1.9206465
-5.4247975 1.6414156 -1.9209738
-5.4227481 1.6771852 -1.9239187
-5.4051471 1.7081475 -1.921301
-5.3963628 1.7418616 -1.9219553
-5.3801889 1.7731645 -1.9199921
-5.3638344 1.8043345 -1.9180288
-5.3473001 1.8353708 -1.9160655
-5.3305869 1.866272 -1.9141022
-5.3119164 1.8964015 -1.9114844
-5.313499 1.9338095 -1.9163927
-5.3006473 1.9660473 -1.9160655
-5.2964387 2.0015423 -1.9190104
-5.2814126 2.0329843 -1.9180288
-5.2820344 2.0705278 -1.922937
-5.257822 2.0983431 -1.9186832
-5.2465987 2.1312766 -1.9193376
-5.2229443 2.1590948 -1.915411
-5.2130818 2.1925676 -1.9167199
-5.2056112 2.2271163 -1.9190104
-5.1979127 2.2616558 -1.921301
-5.1778893 2.2908294 -1.9190104
-5.1327138 2.3085966 -1.9072306
-5.1012654 2.3321855 -1.9006863
-5.0868597 2.3634424 -1.9006863
-5.1030211 2.4091394 -1.912466
-5.0906987 2.4416323 -1.9134477
-5.0696754 2.4699237 -1.9111573
-5.0569658 2.5022421 -1.9121388
-5.0465827 2.5357704 -1.9141022
-5.0284033 2.5653992 -1.9131205
-5.0150847 2.5975089 -1.9141022
-4.9898529 2.6233931 -1.9105028
-4.9711614 2.6526258 -1.9095211
-4.9556222 2.6835284 -1.9098483
-4.9349232 2.7116089 -1.9082122
-4.908289 2.7363145 -1.9042857
-4.8938742 2.7677755 -1.9052672
-4.878438 2.7986925 -1.9059217
-4.8701572 2.8338029 -1.9095211
-4.8551188 2.8650734 -1.9105028
-4.8382583 2.8952954 -1.91083
-4.8212099 2.9254184 -1.9111573
-4.7919025 2.9480114 -1.9065762
-4.7785339 2.9803598 -1.9085394
-4.7545667 3.0060883 -1.9062489
-4.7400093 3.0377553 -1.9078851
-4.7244501 3.0688419 -1.9091939
-4.7078986 3.0993321 -1.9101756
-4.6974387 3.1339314 -1.913775
-4.6781206 3.1626952 -1.913775
-4.660965 3.1929426 -1.9147565
-4.6420622 3.2220206 -1.9150838
-4.6252961 3.2526181 -1.9163927
-4.6052513 3.2809372 -1.9163927
-4.5911622 3.3135581 -1.9190104
-4.5730324 3.3433402 -1.9199921
-4.5433207 3.3645864 -1.9160655
-4.5256133 3.3946691 -1.9173744
-4.5009375 3.4195149 -1.9157382
-4.4716344 3.4407272 -1.9121388
-4.4429855 3.46229 -1.9088666
-4.4194331 3.4877298 -1.9078851
-4.3964734 3.5136011 -1.9072306
-4.3770347 3.542295 -1.9082122
-4.3574095 3.5708826 -1.9091939
-4.3375983 3.5993626 -1.9101756
-4.3176012 3.6277339 -1.9111573
-4.2938213 3.6529331 -1.9105028
-4.2741899 3.6816783 -1.9118116
-4.2486711 3.7053499 -1.9105028
-4.2230225 3.728847 -1.9091939
-4.195837 3.7509093 -1.9072306
-4.1706414 3.7746811 -1.9062489
-4.1411328 3.7944539 -1.903304
-4.0949154 3.7985802 -1.8925058
-4.0963235 3.8469274 -1.9042857
-4.0794888 3.8785019 -1.9075578
-4.0474458 3.8955951 -1.9036312
-4.0268502 3.9236543 -1.9052672
-4.0033717 3.9489524 -1.9055945
-3.976392 3.9707711 -1.9042857
-3.9473021 3.9903915 -1.9019951
-3.9194419 4.0111566 -1.900359
-3.8960683 4.0364904 -1.9010135
-3.8744872 4.0637403 -1.9026495
-3.8514228 4.0895014 -1.9036312
-3.825614 4.1123643 -1.903304
-3.8073404 4.1434159 -1.9069034
-3.7837501 4.1687984 -1.9078851
-3.7568383 4.1905293 -1.9072306
-3.7272971 4.2092566 -1.9052672
-3.6945579 4.2242222 -1.9016678
-3.6691866 4.2475271 -1.9019951
-3.6455081 4.2728367 -1.903304
-3.6222656 4.2987385 -1.90494
-3.5964251 4.32161 -1.9052672
-3.5740392 4.3487067 -1.9075578
-3.5466936 4.3698211 -1.9072306
-3.5062249 4.3745394 -1.8997046
-3.4857664 4.4041224 -1.903304
-3.4569325 4.4231939 -1.9023223
-3.4228013 4.4353433 -1.8983957
-3.4001026 4.4622755 -1.9010135
-3.3664112 4.4747467 -1.8974141
-3.3388915 4.4953184 -1.8974141
-3.3168321 4.5233421 -1.9006863
-3.287353 4.5413122 -1.8997046
-3.2671154 4.5721626 -1.9042857
-3.2275651 4.5759048 -1.8974141
-3.197808 4.5932961 -1.8964324
-3.1759834 4.6221781 -1.900359
-3.1300664 4.615766 -1.8895608
-3.11482 4.6545205 -1.8977413
-3.0888047 4.6774883 -1.8993773
-3.0605617 4.697145 -1.8997046
-3.0357695 4.7221951 -1.9023223
-3.0026901 4.7343488 -1.8997046
-2.9720809 4.7502804 -1.8987229
-2.9438701 4.7700357 -1.8993773
-2.9150374 4.7888165 -1.8997046
-2.8792782 4.7960792 -1.8954507
-2.8541269 4.8209748 -1.8983957
-2.8230636 4.8359485 -1.8974141
-2.791924 4.8507218 -1.8964324
-2.7621078 4.8677616 -1.8964324
-2.7280378 4.8771949 -1.8934875
-2.7058134 4.9079113 -1.8990501
-2.6715894 4.9169478 -1.8961052
-2.6351273 4.9215837 -1.8915241
-2.6114905 4.9501982 -1.8964324
-2.5823743 4.9686441 -1.8974141
-2.5505474 4.9818726 -1.8964324
-2.5212069 4.9999599 -1.8974141
-2.4909003 5.0161819 -1.8977413
-2.4633939 5.0381637 -1.900359
-2.429976 5.0480747 -1.8983957
-2.4038091 5.0731378 -1.9023223
-2.3682444 5.0783706 -1.8987229
-2.3334942 5.0850759 -1.8957779
-2.3006942 5.0958529 -1.8944691
-2.2716835 5.115056 -1.8964324
-2.2342064 5.1150422 -1.8911968
-2.2009153 5.1243129 -1.8895608
-2.1716361 5.1429448 -1.8915241
-2.1400387 5.1561728 -1.8915241
-2.1087174 5.1700816 -1.8918513
-2.0801165 5.1908183 -1.8947963
-2.0468435 5.1999664 -1.8934875
-2.0138769 5.2097836 -1.8925058
-1.9865639 5.2344117 -1.8970869
-1.9557276 5.2500448 -1.8983957
-1.9250983 5.2663841 -1.9000318
-1.888285 5.2656431 -1.8954507
-1.8493603 5.258409 -1.8885791
-1.813982 5.2607236 -1.885307
-1.7892277 5.2941365 -1.8934875
-1.7540381 5.2969418 -1.8905425
-1.726748 5.3237848 -1.8964324
-1.6943351 5.3351803 -1.8967596
-1.6621279 5.347281 -1.8974141
-1.6229668 5.3365841 -1.889888
-1.5912684 5.3500652 -1.8911968
-1.5605202 5.3669877 -1.8938147
-1.525237 5.3682809 -1.8908697
-1.4902492 5.3702536 -1.8882519
-1.4525789 5.3619661 -1.8820348
-1.4239944 5.3872232 -1.8879247
-1.3857272 5.3757272 -1.880726
-1.3582379 5.4061251 -1.8885791
-1.3259386 5.4180293 -1.889888
-1.293982 5.4315786 -1.8918513
-1.2597775 5.4357338 -1.8905425
-1.2266083 5.444283 -1.8908697
-1.1958036 5.4637074 -1.8951235
-1.1551942 5.437665 -1.8833437
-1.1259985 5.465013 -1.8905425
-1.0937383 5.4783058 -1.892833
-1.0590287 5.4793472 -1.8908697
-1.0252148 5.4848132 -1.8905425
-0.99036717 5.4844909 -1.8882519
-0.95556223 5.4839478 -1.8859614
-0.92064494 5.4822521 -1.8833437
-0.88668799 5.4859324 -1.8826892
-0.85315514 5.4922032 -1.8830165
-0.82041335 5.5038772 -1.885307
-0.78796065 5.5181627 -1.8885791
-0.75498044 5.5294476 -1.8908697
-0.72164768 5.538661 -1.8925058
-0.68590736 5.5289183 -1.8875976
-0.65362543 5.5471001 -1.8925058
-0.61947215 5.5500669 -1.8921785
-0.58530706 5.5528235 -1.8918513
-0.55113149 5.5553703 -1.8915241
-0.51677203 5.5558243 -1.8905425
-0.48259085 5.5579495 -1.8902153
-0.44794843 5.5542126 -1.8879247
-0.4133701 5.5502601 -1.8856342
-0.37956336 5.5564632 -1.8869431
-0.34557924 5.5605736 -1.8875976
-0.31176949 5.5682502 -1.8895608
-0.27759746 5.5700583 -1.8895608
-0.24415387 5.5886497 -1.8954507
-0.2089766 5.5664353 -1.8872703
-0.1744936 5.5572238 -1.8836709
-0.14069946 5.5704703 -1.8879247
-0.10660639 5.5759525 -1.8895608
-0.072427191 5.5793362 -1.8905425
-0.038241841 5.587235 -1.8931602
-0.0039565954 5.5835848 -1.8918513
0.030266443 5.5768895 -1.8895608
0.064451657 5.5737638 -1.8885791
0.098582745 5.5694847 -1.8872703
0.13255015 5.5602727 -1.8843254
0.16663633 5.5584102 -1.8839982
0.20080759 5.5591717 -1.8846525
0.23471373 5.5531144 -1.8830165
0.26910383 5.5581765 -1.885307
0.30325478 5.5573645 -1.8856342
0.33683118 5.5469103 -1.8826892
0.37041724 5.5381393 -1.8803988
0.40390834 5.5291653 -1.8781081
0.43745294 5.521873 -1.8764721
0.47237411 5.5313244 -1.880726
0.5065639 5.5311446 -1.8817075
0.54187506 5.5420389 -1.8866159
0.57577229 5.5376701 -1.8862886
0.60994732 5.5359111 -1.8869431
0.64412242 5.5339417 -1.8875976
0.67760515 5.5261335 -1.8862886
0.71053243 5.5143747 -1.8836709
0.74435467 5.5099111 -1.8836709
0.77960569 5.515532 -1.8872703
0.81357187 5.511579 -1.8875976
0.84651148 5.5008798 -1.8856342
0.88339084 5.5151758 -1.8925058
0.91550565 5.4993987 -1.8889064
0.94778234 5.4852977 -1.8859614
0.98142165 5.4793787 -1.8859614
1.0151966 5.4741831 -1.8862886
1.0484099 5.4659948 -1.8856342
1.081745 5.4585319 -1.885307
1.1157863 5.4545689 -1.8862886
1.1482577 5.442997 -1.8846525
1.1844466 5.4487758 -1.8892336
1.2143455 5.4257302 -1.8836709
1.2476143 5.4181771 -1.8836709
1.2801825 5.4076614 -1.8826892
1.3095394 5.3840961 -1.8771266
1.3453007 5.3869605 -1.8810532
1.3783292 5.3786044 -1.8810532
1.4117864 5.3718739 -1.8817075
1.4429991 5.3567233 -1.8794171
1.4793622 5.3605204 -1.8839982
1.5114545 5.3486142 -1.8830165
1.5437191 5.3374243 -1.882362
1.5769764 5.3296638 -1.8830165
1.6099228 5.3207917 -1.8833437
1.6428196 5.3117161 -1.8836709
1.6770903 5.3069415 -1.8856342
1.713107 5.3073416 -1.8895608
1.7441602 5.2922435 -1.8879247
1.7744896 5.2751727 -1.8856342
1.807745 5.2668667 -1.8866159
1.8390905 5.2529998 -1.8856342
1.8716056 5.2425065 -1.8859614
1.9060012 5.2371392 -1.8882519
1.939415 5.228889 -1.8895608
1.9704597 5.2142391 -1.8885791
2.0027561 5.2029324 -1.8889064
2.0342979 5.1896658 -1.8885791
2.0643508 5.172698 -1.8869431
2.0964067 5.1608095 -1.8872703
2.131284 5.1557078 -1.8902153
2.1599464 5.1355658 -1.8875976
2.1903014 5.1196098 -1.8866159
2.2220509 5.1069403 -1.8869431
2.2548747 5.0966663 -1.8882519
2.2884314 5.0879049 -1.8902153
2.3168557 5.0677524 -1.8879247
2.3534839 5.0654373 -1.8925058
2.3825026 5.0466294 -1.8908697
2.4113791 5.0276556 -1.8892336
2.4392846 5.0068192 -1.8869431
2.4741523 5.0002265 -1.8902153
2.4988446 4.9731317 -1.8856342
2.5280232 4.9551802 -1.8846525
2.5601192 4.9429312 -1.8859614
2.5930398 4.9321475 -1.8879247
2.6214738 4.9128098 -1.8866159
2.6583209 4.9090948 -1.8915241
2.6902134 4.8960037 -1.892833
2.7169819 4.8736277 -1.8905425
2.7459042 4.8552203 -1.889888
2.7822289 4.8497539 -1.8944691
2.8114588 4.8317747 -1.8941419
2.8381705 4.8095503 -1.8921785
2.8676279 4.7920451 -1.8921785
2.896487 4.7735519 -1.8918513
2.9222553 4.7500563 -1.8895608
2.9463439 4.7240195 -1.8862886
2.9772949 4.7090464 -1.8875976
3.0025628 4.6851211 -1.885307
3.0312536 4.6666098 -1.885307
3.0634687 4.6534467 -1.8875976
3.0898657 4.6314178 -1.8862886
3.1208723 4.6162853 -1.8879247
3.1534121 4.6032848 -1.8905425
3.1880658 4.593163 -1.8944691
3.2145576 4.5711966 -1.8934875
3.2332218 4.5383048 -1.8879247
3.2637732 4.5222116 -1.8895608
3.2903438 4.5005746 -1.8889064
3.3190219 4.4818192 -1.8895608
3.3385189 4.4507885 -1.8849797
3.373199 4.4400001 -1.8892336
3.4009552 4.4199677 -1.8895608
3.4309165 4.4027429 -1.8911968
3.4625511 4.3875418 -1.8938147
3.4823263 4.3573565 -1.889888
3.5107808 4.3381104 -1.8908697
3.5271482 4.3040643 -1.885307
3.5553017 4.2845225 -1.8862886
3.5821321 4.26335 -1.8866159
3.6045494 4.2369728 -1.8846525
3.6261611 4.209765 -1.882362
3.6488173 4.183876 -1.880726
3.6731691 4.1599917 -1.8800715
3.7068143 4.1465321 -1.8843254
3.7385297 4.1307144 -1.8875976
3.7663589 4.1104836 -1.8889064
3.8062935 4.1032271 -1.8964324
3.8249285 4.0729079 -1.8931602
3.8524525 4.0521007 -1.8944691
3.8634791 4.014092 -1.8875976
3.891994 3.9943702 -1.8895608
3.9097924 3.9636884 -1.8862886
3.9514036 3.957005 -1.8947963
3.9803123 3.937336 -1.8970869
4.0057487 3.9141598 -1.8977413
4.0337701 3.8934438 -1.8997046
4.0507436 3.8621006 -1.8964324
4.0702362 3.8332868 -1.8944691
4.0666924 3.7831442 -1.8817075
4.1086192 3.7753794 -1.8905425
4.1128111 3.732955 -1.8817075
4.1602693 3.7297211 -1.8931602
4.1767077 3.6984873 -1.8902153
4.1986113 3.6721678 -1.889888
4.2282162 3.6525123 -1.8931602
4.2555809 3.6307919 -1.8954507
4.2871747 3.6125255 -1.8997046
4.3150716 3.5909863 -1.9023223
4.3384848 3.5656416 -1.9029768
4.3632164 3.5413353 -1.9042857
4.383389 3.513315 -1.9036312
4.4018993 3.4840076 -1.9023223
4.4135132 3.4493699 -1.8980684
4.4286094 3.4176068 -1.8954507
4.4404755 3.3834984 -1.8915241
4.4611526 3.3561885 -1.8915241
4.4846964 3.3310053 -1.892833
4.5088615 3.3062181 -1.8944691
4.5344219 3.2823677 -1.8967596
4.5606284 3.258877 -1.8993773
4.5774498 3.2286541 -1.8980684
4.6072574 3.2075233 -1.9023223
4.633862 3.1840081 -1.9052672
4.6564403 3.1576362 -1.9065762
4.674942 3.12848 -1.9062489
4.6948385 3.1002567 -1.9065762
4.7113976 3.0698442 -1.9055945
4.7325301 3.0424104 -1.9065762
4.745522 3.0097733 -1.9042857
4.761497 2.9790955 -1.903304
4.784512 2.9528 -1.9052672
4.7952747 2.9189668 -1.9023223
4.8179564 2.8924057 -1.9042857
4.8307338 2.8599017 -1.9023223
4.8318672 2.8206823 -1.8957779
4.8671036 2.8013482 -1.9029768
4.8694057 2.7630403 -1.8970869
4.8837934 2.7317266 -1.8961052
4.9211531 2.7131102 -1.9042857
4.9501638 2.6896281 -1.9091939
4.9665737 2.6592038 -1.9091939
4.9677515 2.6207461 -1.903304
4.9946394 2.5958781 -1.9075578
5.0146794 2.5673349 -1.9091939
5.0320258 2.5373676 -1.9098483
5.0508857 2.5081244 -1.9111573
5.070425 2.4791601 -1.9127933
5.0932055 2.451689 -1.9157382
5.1081529 2.4203913 -1.9157382
5.119482 2.3874061 -1.9144294
5.1331754 2.3555546 -1.9141022
5.1406417 2.3209045 -1.9114844
5.1608315 2.292002 -1.913775
5.1730657 2.2595363 -1.9131205
5.1920424 2.2299888 -1.9150838
5.214334 2.2017632 -1.9183559
5.2259998 2.169003 -1.9177016
5.2365851 2.1358261 -1.9167199
5.2390652 2.0994389 -1.9127933
5.2562451 2.0689828 -1.9144294
5.2600265 2.0332868 -1.9111573
5.2741704 2.0016439 -1.9118116
5.2845821 1.9685851 -1.9111573
5.301887 1.938068 -1.9131205
5.3145685 1.9058185 -1.9134477
5.3279452 1.8737997 -1.9141022
5.347383 1.8438435 -1.9170471
5.3603864 1.8116025 -1.9177016
5.3803725 1.7816464 -1.9209738
5.3921022 1.7488908 -1.921301
5.4027314 1.7157725 -1.921301
5.4059381 1.6803473 -1.9186832
5.4260921 1.6501678 -1.9222826
5.4333982 1.6160352 -1.921301
5.4504709 1.5847753 -1.9239187
5.4646373 1.5525923 -1.9255548
5.4767928 1.5197902 -1.9265364
5.4768939 1.4836876 -1.9232643
5.4913764 1.4515018 -1.9252275
5.4919434 1.415659 -1.9222826
5.49686 1.3810141 -1.9209738
5.5043125 1.3470356 -1.9206465
5.5124741 1.3132364 -1.9206465
5.5185871 1.2789614 -1.9199921
5.5207996 1.2438309 -1.9180288
5.5338664 1.2111436 -1.9199921
5.5439668 1.1777542 -1.9209738
5.5520144 1.1439054 -1.921301
5.5663424 1.1112958 -1.9239187
5.5795512 1.0783744 -1.9262092
5.5879207 1.0444654 -1.9268637
5.6053834 1.0121716 -1.9307903
5.6180053 0.97889274 -1.9330808
5.6239057 0.94440287 -1.9330808
5.6267962 0.90942574 -1.9320991
5.6313367 0.8747384 -1.9317719
5.6328592 0.83961219 -1.9304631
5.6276145 0.80356658 -1.9268637
5.6361842 0.76953161 -1.9281725
5.6314297 0.73371524 -1.9249003
5.6461411 0.70042515 -1.9284997
5.6540866 0.66620946 -1.9298086
5.6608853 0.631818 -1.9307903
5.6590171 0.5964784 -1.9288269
5.6653914 0.56202334 -1.9298086
5.671556 0.52751255 -1.9307903
5.674686 0.4927026 -1.9307903
5.6832538 0.45832872 -1.9327536
5.6897283 0.42372826 -1.9340625
5.6903358 0.38868034 -1.933408
0 0 -0
0 0 -0
0 0 -0
0 0 -0
0 0 -0
0 0 -0
0 0 -0
0 0 -0
0 0 -0
0 0 -0
0 0 -0
0 -0 -0
0 -0 -0
0 -0 -0
0 -0 -0
0 -0 -0
0 -0 -0
0 -0 -0
0 -0 -0
0 -0 -0
0 -0 -0
0 -0 -0
0 -0 -0
0 -0 -0
0 -0 -0
0 -0 -0
0 -0 -0
0 -0 -0
0 -0 -0
0 -0 -0
0 -0 -0
0 -0 -0
0 -0 -0
0 -0 -0
0 -0 -0
0 -0 -0
0 -0 -0
0 -0 -0
5.6407943 -0.97468323 -1.9406068
5.6449389 -1.0111109 -1.9442062
0 -0 -0
0 -0 -0
5.6068335 -1.1111667 -1.9376619
5.5684347 -1.1391033 -1.9265364
5.4402237 -1.1476719 -1.8836709
5.3296647 -1.1585284 -1.8470225
5.2173371 -1.1676592 -1.8097197
5.1308851 -1.1813983 -1.7815789
5.0794039 -1.2024004 -1.7658725
5.020515 -1.2210276 -1.7475482
4.9854264 -1.2449356 -1.7377317
4.95298 -1.2691636 -1.7288969
4.9140277 -1.2913578 -1.7177714
4.8987126 -1.3195175 -1.7151537
4.8969002 -1.3513117 -1.7174442
4.8848791 -1.3803045 -1.7161354
4.8481793 -1.4021068 -1.7059916
4.8494515 -1.4347795 -1.7095909
4.8315129 -1.4617697 -1.7063187
4.8224525 -1.4913877 -1.7063187
4.8069038 -1.5189552 -1.7040282
4.8001909 -1.5492926 -1.7050099
4.8040552 -1.5831563 -1.7099181
4.8094759 -1.6177285 -1.7154809
4.7833724 -1.6416832 -1.7095909
4.7696419 -1.6697528 -1.7082821
4.7575269 -1.6983516 -1.7076277
4.7452407 -1.7268646 -1.7069732
4.7292399 -1.7539755 -1.7050099
4.7219243 -1.7842975 -1.7063187
4.7161779 -1.815275 -1.7082821
4.6943946 -1.8400382 -1.7043555
4.678628 -1.8670557 -1.7027194
4.6627069 -1.8939489 -1.7010833
4.6422663 -1.9189113 -1.6978111
4.6234369 -1.9444274 -1.6951934
4.6027317 -1.969041 -1.6919212
4.5940289 -1.9987545 -1.69323
4.5885911 -2.0299654 -1.6958479
4.5820808 -2.0607967 -1.6981384
4.5590382 -2.084156 -1.6942117
4.5358815 -2.1073105 -1.6902851
4.5126128 -2.1302595 -1.6863585
4.4917893 -2.1542289 -1.6834135
4.4818845 -2.1834056 -1.6847224
4.4633217 -2.2083492 -1.682759
4.4437776 -2.232723 -1.6804686
4.4299946 -2.2599475 -1.6804686
4.411849 -2.2849131 -1.6788325
4.4044366 -2.31546 -1.6814502
4.3876457 -2.3411064 -1.6804686
4.3632278 -2.3625829 -1.6765419
4.3411965 -2.3852136 -1.673597
4.3363829 -2.4173293 -1.6775236
4.3231134 -2.4448221 -1.6781781
4.2916398 -2.4618945 -1.6716337
4.283803 -2.4924598 -1.6745787
4.2659879 -2.5172565 -1.673597
4.2480297 -2.5419285 -1.6726153
4.2355838 -2.5699077 -1.6739242
4.2229543 -2.5978293 -1.6752331
4.2093401 -2.6251929 -1.6762147
4.2035346 -2.6575384 -1.6804686
4.190331 -2.6853209 -1.6817775
4.1706061 -2.7089221 -1.6804686
4.1562734 -2.7360206 -1.6814502
4.1456947 -2.7656684 -1.684068
4.1364741 -2.7963479 -1.6873401
4.1075463 -2.8136632 -1.6824319
4.0971904 -2.8436644 -1.6853769
4.0765734 -2.8665757 -1.684068
4.0519824 -2.8865991 -1.681123
4.0142751 -2.8970251 -1.6726153
4.0086269 -2.9305272 -1.6778508
3.9898109 -2.9545062 -1.6775236
3.9580028 -2.9687223 -1.6716337
3.9224093 -2.9798009 -1.6641077
3.9332545 -3.0262921 -1.6768692
3.9190829 -3.0538549 -1.6788325
3.8906295 -3.0702324 -1.6745787
3.8850026 -3.1046686 -1.6804686
3.8732238 -3.1343942 -1.6837407
3.8509955 -3.1557045 -1.6824319
3.8301058 -3.1780672 -1.6817775
3.8076401 -3.1990764 -1.6804686
3.7879393 -3.2223794 -1.6804686
3.7616534 -3.2400093 -1.6775236
3.7367179 -3.2586808 -1.6752331
3.724443 -3.288429 -1.6788325
3.7084217 -3.3149996 -1.6807958
2.4369555 -2.2049434 -1.0963846
2.4129317 -2.2102768 -1.0914763
2.4055579 -2.2308259 -1.0944213
3.6266394 -3.4056573 -1.681123
3.587872 -3.4109137 -1.6726153
3.5648334 -3.430898 -1.6716337
3.5416846 -3.4507279 -1.670652
3.5190995 -3.471067 -1.6699976
3.4930556 -3.4879196 -1.6677071
3.487534 -3.5254133 -1.6755604
3.4433877 -3.523762 -1.6644349
3.4243259 -3.547544 -1.6657438
3.4109693 -3.5773811 -1.6699976
3.3928409 -3.6023715 -1.6719609
3.3719602 -3.6245058 -1.6726153
3.3528533 -3.648607 -1.6742514
3.3272281 -3.665612 -1.6726153
3.3027818 -3.6838472 -1.6716337
3.2763581 -3.6997979 -1.6696703
3.2610583 -3.7283685 -1.673597
3.2393553 -3.7497382 -1.6742514
3.218739 -3.7724199 -1.6755604
3.198575 -3.7957125 -1.6771964
3.1740162 -3.8138142 -1.6765419
3.1511552 -3.8339479 -1.6768692
3.1228085 -3.8473403 -1.6742514
3.0926437 -3.8583169 -1.670652
3.0636346 -3.8705509 -1.6677071
2.0101547 -2.5712361 -1.0885314
1.9827969 -2.5685577 -1.081987
1.9618462 -2.5739098 -1.0790421
1.9414726 -2.5798571 -1.0764244
1.9244798 -2.5902038 -1.0757699
1.8984952 -2.5882447 -1.06988
1.8559895 -2.563098 -1.0541735
1.6490972 -2.3068442 -0.94030172
1.6332781 -2.3146026 -0.93932003
0 -0 -0
2.7308815 -3.9741113 -1.6281137
2.7345452 -4.032249 -1.6454563
2.7097523 -4.0489521 -1.6454563
2.6983919 -4.0860071 -1.6539639
2.6691442 -4.0961528 -1.6513462
2.6603069 -4.1378922 -1.6618172
2.6424565 -4.1661091 -1.6667254
2.6018128 -4.1582088 -1.6569089
2.5698001 -4.16364 -1.652655
2.5491157 -4.1874022 -1.6559272
2.5189984 -4.195672 -1.6529822
2.4903195 -4.2061701 -1.651019
2.4658928 -4.2238197 -1.6520007
2.4498248 -4.2560716 -1.6588722
2.4236641 -4.2710233 -1.6588722
2.401562 -4.2932372 -1.6618172
2.3765421 -4.3103747 -1.6627988
2.3446379 -4.3149114 -1.6588722
2.3172262 -4.3275499 -1.6582178
2.2923923 -4.3450303 -1.6595266
2.2687378 -4.3648844 -1.6618172
2.246217 -4.387135 -1.6650894
2.2167041 -4.395772 -1.663126
2.1947317 -4.4194479 -1.6670526
2.1708922 -4.4396234 -1.6696703
2.1399233 -4.4451962 -1.6667254
2.1142256 -4.461659 -1.6680343
1.4536806 -3.1161602 -1.1490667
1.4325633 -3.1207266 -1.1474307
1.4203837 -3.1449616 -1.1533206
1.4152443 -3.1855741 -1.1654276
1.9756141 -4.5226808 -1.6673799
1.9448442 -4.527771 -1.6647621
1.9115148 -4.5265603 -1.6598538
1.8761011 -4.5198741 -1.6529822
1.8483324 -4.5313005 -1.6529822
1.8320875 -4.5715046 -1.6637805
1.8071162 -4.5905743 -1.6667254
1.7799364 -4.6042204 -1.6677071
1.7479658 -4.6053367 -1.6641077
1.7223126 -4.6230597 -1.6667254
1.6968317 -4.6415286 -1.6696703
1.663538 -4.6385098 -1.6647621
1.6322254 -4.6406064 -1.6618172
1.5972556 -4.6317725 -1.6549456
1.566689 -4.6352191 -1.652655
1.5379214 -4.6438479 -1.6523279
1.5091071 -4.652298 -1.6520007
1.4808185 -4.6623707 -1.6523279
1.4533041 -4.6749787 -1.6536367
1.4254159 -4.6865206 -1.6546184
1.3969023 -4.6960845 -1.6549456
1.3754433 -4.7299752 -1.6641077
1.3474271 -4.7419615 -1.6654166
1.320578 -4.7583356 -1.6683615
1.2930849 -4.7727337 -1.670652
1.2603974 -4.7677875 -1.6660709
1.2339473 -4.7864122 -1.6699976
1.2066258 -4.8021421 -1.6729425
1.1755667 -4.80303 -1.670652
1.1486993 -4.8211842 -1.6745787
0.71324873 -3.0753303 -1.0515558
0.69374293 -3.0768833 -1.0505741
0.67646521 -3.0884671 -1.0531919
0.65632498 -3.0870135 -1.0512285
0.63965702 -3.1020892 -1.0551552
0.621535 -3.110589 -1.0567913
0.60136235 -3.1087773 -1.0548279
0.58054161 -3.1031196 -1.0515558
0.56249666 -3.1122031 -1.0535191
0.54371399 -3.1174579 -1.0541735
0.52082413 -3.0983689 -1.0463203
0.49818915 -3.0791173 -1.038467
0.47754842 -3.0709109 -1.0345404
0.4570272 -3.0625675 -1.0306138
0.43809366 -3.0643785 -1.0302867
0.41953802 -3.0688815 -1.030941
0.40130928 -3.0760832 -1.0325772
0.38242725 -3.0784876 -1.0325772
0.36496583 -3.0929766 -1.036831
0.34556231 -3.0914011 -1.0355221
0.32619187 -3.0897043 -1.0342132
0.30462107 -3.0653176 -1.0250511
0.29122081 -3.1254652 -1.0453386
0.2742396 -3.1526117 -1.0541735
0.25466305 -3.1514094 -1.0531919
0.28949201 -3.8822942 -1.3064585
0.21635647 -3.1599538 -1.0551552
0.19602859 -3.1461315 -1.0499197
0.17740479 -3.1595404 -1.0541735
0.1579212 -3.1586819 -1.0535191
0.13783909 -3.1435425 -1.0479563
0.11826605 -3.1367748 -1.0453386
0.098751798 -3.1289411 -1.0423937
0.079077832 -3.110595 -1.0358493
0.059686348 -3.0949602 -1.0302867
0.040381081 -3.0707016 -1.0217789
0.021551395 -3.0727816 -1.0224334
0.0026886954 -3.0567918 -1.0168707
-0.016094096 -3.0614753 -1.0185068
-0.034800801 -3.0547047 -1.0162163
-0.053729575 -3.0648265 -1.0198157
-0.072806582 -3.0757751 -1.0237422
-0.092390612 -3.0988836 -1.0319227
-0.11291278 -3.1398087 -1.0463203
-0.12989041 -3.0852432 -1.0276688
-0.14941527 -3.096658 -1.0319227
-0.17208271 -3.1626737 -1.0551552
-0.18947376 -3.1285465 -1.0437026
-0.20765446 -3.1122396 -1.038467
-0.22723019 -3.1175039 -1.0407575
-0.24440916 -3.0915594 -1.0322499
-0.26466364 -3.1050656 -1.0374854
-0.28181067 -3.0826814 -1.0302867
-0.29989102 -3.0724301 -1.0273416
-0.32059789 -3.0883896 -1.0335588
-0.33912712 -3.0826073 -1.0322499
-0.35847303 -3.0842228 -1.0335588
-0.37589312 -3.0697725 -1.029305
-0.39798754 -3.0927122 -1.0381398
-0.41480267 -3.0742927 -1.0325772
-0.43604237 -3.088531 -1.038467
-0.45705777 -3.0998192 -1.0433754
-0.47909158 -3.1165688 -1.050247
-0.4986544 -3.1163695 -1.0512285
-0.5037837 -3.0293632 -1.0217789
-0.54008114 -3.128638 -1.0577729
-0.56410497 -3.1522384 -1.0672623
-0.58274609 -3.1450014 -1.0659534
-0.59882504 -3.1246626 -1.0600635
-0.62221569 -3.1422479 -1.0675894
-0.64167398 -3.1392968 -1.0679166
-0 -0 -0
-0.86318332 -3.9723511 -1.3660122
-0.86667669 -3.8738487 -1.3329632
-0.74823523 -3.2515168 -1.1137272
-0.76207155 -3.2211187 -1.104565
-0.81132555 -3.3375759 -1.1477579
-0.82216519 -3.2940316 -1.1340147
-0.87170708 -3.4033401 -1.174917
-0.84449786 -3.2151544 -1.1094733
-0.81058627 -3.0110152 -1.0381398
-0.82300854 -2.9841244 -1.0302867
-0.84104615 -2.9781091 -1.0299594
-0.85746449 -2.9665387 -1.0276688
-0.89523631 -3.027364 -1.0515558
-0.98554385 -3.2587659 -1.1372869
-1.0069177 -3.2571709 -1.1389229
-1.0622154 -3.3626513 -1.179498
-0.98378444 -3.0494421 -1.0679166
-1.0024769 -3.0433483 -1.0679166
-1.0588146 -3.1490865 -1.1088189
-1.0695225 -3.1175065 -1.0996568
-1.0817575 -3.0912657 -1.092458
-1.0921216 -3.0605435 -1.0836232
-1.1044132 -3.0360267 -1.0770788
-1.1226923 -3.0283072 -1.0767516
-1.1556242 -3.0593677 -1.090822
-1.1645247 -3.0266471 -1.0813326
-1.5850505 -4.0442958 -1.4625415
-1.7191719 -4.3082948 -1.5646335
-1.3161077 -3.2410572 -1.1696814
-1.3211614 -3.1971195 -1.1562655
-1.2311615 -2.9285336 -1.0584273
-1.3398428 -3.1328876 -1.1382685
-1.8980448 -4.362699 -1.6058629
-1.9270731 -4.3561554 -1.6078262
-0 -0 -0
-1.2767831 -2.7940059 -1.0221062
-1.3592304 -2.9266484 -1.0757699
-1.3230814 -2.8037601 -1.0319227
-1.3623365 -2.8415935 -1.0495925
-1.4671098 -3.0124063 -1.1186354
-1.4725693 -2.9770951 -1.1084917
-1.4216256 -2.8303885 -1.0551552
-1.4797785 -2.9015684 -1.0862409
-1.4601647 -2.8202808 -1.0581001
-1.4695238 -2.7962146 -1.0522102
-1.4719675 -2.7596366 -1.041412
-1.4947244 -2.7613537 -1.0456659
-1.5562514 -2.8332813 -1.0777332
-1.5561156 -2.7923191 -1.0652989
-1.5671701 -2.7720268 -1.0610451
-1.6330699 -2.8475919 -1.0950757
-1.6129544 -2.7730026 -1.0692255
-1.6308997 -2.7646811 -1.06988
-1.6352124 -2.7335424 -1.0613723
-1.6558772 -2.7299197 -1.0639901
-1.6666528 -2.7100511 -1.0600635
-1.6782477 -2.691757 -1.0567913
-1.6927118 -2.6782143 -1.0554824
-1.7091131 -2.6677775 -1.0554824
-1.7187564 -2.64694 -1.0512285
-1.7318468 -2.6316092 -1.0492653
-1.7605516 -2.6397963 -1.0571185
-1.7761866 -2.6281612 -1.0567913
-1.7944161 -2.620331 -1.0581001
-1.815311 -2.616257 -1.0610451
-1.8248053 -2.5957952 -1.0571185
-1.8417953 -2.5860884 -1.0577729
-1.8399273 -2.5502229 -1.0473019
-1.8538669 -2.5365973 -1.0463203
-1.8699589 -2.5259335 -1.0466475
-1.8882583 -2.5181911 -1.0482836
-1.9036741 -2.5065577 -1.0482836
-1.914407 -2.4888394 -1.0456659
-1.936614 -2.4859889 -1.0495925
-1.9565158 -2.4799924 -1.0522102
-1.985858 -2.4856541 -1.0600635
-1.9969101 -2.4682815 -1.0577729
-2.0162113 -2.4610975 -1.0600635
-2.0240314 -2.439955 -1.0561368
-2.0353165 -2.4231498 -1.0541735
-2.0427969 -2.4019804 -1.050247
-2.0513282 -2.3822427 -1.0469748
-2.0348449 -2.3340092 -1.0306138
-2.0660188 -2.3406014 -1.0394487
-2.0797117 -2.3271761 -1.0391215
-2.1040995 -2.3255792 -1.0443569
-2.1227992 -2.3175008 -1.0466475
-2.1369791 -2.3044319 -1.0466475
-2.1543138 -2.2947197 -1.0482836
-2.1729119 -2.2862508 -1.0505741
-2.1868992 -2.2728751 -1.0505741
-2.1968467 -2.2553537 -1.0486108
-2.2219272 -2.2532659 -1.0541735
-2.2290328 -2.2329049 -1.0509013
-2.2574742 -2.2338028 -1.0581001
-2.2447741 -2.1941586 -1.0453386
-2.2520747 -2.1744385 -1.0423937
-2.2653744 -2.1605792 -1.0423937
-2.2999179 -2.1667175 -1.0525374
-2.2924094 -2.1332603 -1.0427209
-2.3193743 -2.1319387 -1.0492653
-2.3520076 -2.1354454 -1.0584273
-2.3749185 -2.1298025 -1.0630084
-2.3660069 -2.0957747 -1.0528647
-2.389493 -2.0905471 -1.0577729
-2.4122882 -2.084492 -1.062354
-2.4156861 -2.0616801 -1.0581001
-2.4398549 -2.0565588 -1.0633357
-2.4342661 -2.0264418 -1.0551552
-2.4510353 -2.0150664 -1.0571185
-2.4721591 -2.0071332 -1.0610451
-2.4851656 -1.9925174 -1.0613723
-2.4936395 -1.9742998 -1.0597363
-2.5116637 -1.9636158 -1.062354
-2.5206721 -1.945859 -1.0610451
-2.53933 -1.9355087 -1.0639901
-2.5451162 -1.9153478 -1.0613723
-2.5651665 -1.9058913 -1.0649717
-2.5653803 -1.8817366 -1.0600635
-2.5860648 -1.8726075 -1.0639901
-2.5998132 -1.8583522 -1.0649717
-2.5980377 -1.8331085 -1.059409
-2.6061339 -1.8149738 -1.0581001
-2.6234529 -1.8032285 -1.0607178
-2.6282103 -1.7828559 -1.0581001
-2.6548088 -1.7772034 -1.0646445
-2.6656635 -1.7608805 -1.0646445
-2.7057154 -1.763572 -1.0767516
-3.8842967 -2.4973512 -1.5574347
-2.7223649 -1.7272003 -1.0747882
-2.7353151 -1.7119668 -1.0757699
-2.7682867 -1.7090422 -1.084932
-2.8118188 -1.712162 -1.0983479
-2.8903339 -1.7357183 -1.1258342
-2.8342445 -1.6784903 -1.0990024
-2.8559165 -1.6677352 -1.1035835
-2.8939445 -1.6662015 -1.1147088
-2.9082234 -1.6507441 -1.1163449
-2.9306695 -1.6397853 -1.1212531
-2.9688146 -1.6372781 -1.1323786
-3.0111904 -1.6366186 -1.1451401
-3.0586674 -1.6381754 -1.1598649
-3.121321 -1.6471437 -1.1804796
-3.176651 -1.6514834 -1.1981494
-3.2153258 -1.6465962 -1.2092748
-3.2717795 -1.650227 -1.2272718
-3.3317831 -1.6549063 -1.2465776
-3.3664956 -1.6464638 -1.2560669
-3.4855297 -1.6782151 -1.2979509
-3.5213819 -1.6689302 -1.3077674
-4.3246627 -2.0169499 -1.6107712
-4.2132726 -1.9336494 -1.5636518
-3.8986173 -1.7604595 -1.4396362
-3.8022482 -1.6889676 -1.3990612
-3.7856932 -1.6538857 -1.3889174
-3.8504748 -1.6541085 -1.4095322
-3.8971169 -1.6458822 -1.4232754
-3.9848249 -1.6541618 -1.4523977
-3.9905245 -1.6278968 -1.4507616
-4.1214933 -1.6518624 -1.4959177
-4.2968702 -1.6915766 -1.5574347
-4.3283234 -1.6733522 -1.5652878
-4.380919 -1.6628479 -1.5809944
-4.4627709 -1.66264 -1.607499
-4.5669723 -1.6695954 -1.6421841
-4.643847 -1.6654508 -1.6667254
-4.7796788 -1.6811043 -1.7128632
-4.7961574 -1.6539 -1.7151537
-4.8438168 -1.6371394 -1.7288969
-4.9183626 -1.6287616 -1.7524565
-4.9732094 -1.6131202 -1.7688174
-5.0811882 -1.6137304 -1.8044841
-5.1604805 -1.6041056 -1.82968
-5.275104 -1.6042832 -1.8676372
-5.3582172 -1.5936912 -1.8941419
-5.4141741 -1.5742296 -1.91083
-5.454638 -1.5497535 -1.9219553
-5.5032001 -1.5271122 -1.9360257
-5.5033455 -1.4908476 -1.9327536
-5.5279212 -1.4611536 -1.9383162
-5.5340371 -1.4265004 -1.9373347
-5.542686 -1.3925173 -1.9373347
-5.5529618 -1.3589307 -1.9379891
-5.5538411 -1.3230824 -1.9353713
-5.5664577 -1.2900455 -1.9370074
-5.5678158 -1.2544136 -1.9347169
-5.5550985 -1.215786 -1.9275181
-5.5744705 -1.1842279 -1.9317719
-5.5955153 -1.1528587 -1.9366802
-5.5997038 -1.1179492 -1.9356985
-5.5999632 -1.0823151 -1.933408
-5.6102142 -1.0486277 -1.9347169
-5.6081734 -1.0126748 -1.9317719
-5.6189361 -0.97905475 -1.933408
-5.6267018 -0.94487178 -1.9340625
-5.6258631 -0.90927511 -1.9317719
-5.636939 -0.87560749 -1.9337353
-5.6431403 -0.84114254 -1.9340625
-5.6500664 -0.80676782 -1.9347169
-5.6558466 -0.77221209 -1.9350441
-5.6764083 -0.73956615 -1.9406068
-0 -0 -0
-0 -0 -0
-0 -0 -0
-0 -0 -0
-0 -0 -0
-0 -0 -0
-0 -0 -0
-0 -0 -0
-0 -0 -0
-0 -0 -0
-0 -0 -0
-0 -0 -0
-0 -0 -0
-0 -0 -0
-0 -0 -0
-0 -0 -0
-0 -0 -0
-0 -0 -0
-0 -0 -0
-0 -0 -0
-0 -0 -0
-0 0 -0
-0 0 -0
-0 0 -0
-0 0 -0
-0 0 -0
-0 0 -0
-0 0 -0
-0 0 -0
-0 0 -0
-0 0 -0
-0 0 -0
-0 -0 -0
-0 -0 -0
-0 -0 -0
-0 -0 -0
-0 -0 -0
-0 0 -0
-0 0 -0
-0 0 -0
-0 0 -0
-0 0 -0
-0 0 -0
-0 0 -0
-0 0 -0
-0 0 -0
-0 0 -0
-0 0 -0
-0 0 -0
-0 0 -0
-0 0 -0
-0 0 -0
-0 0 -0
-0 0 -0
-0 0 -0
-0 0 -0
-0.24753314 0.030659229 -0.047607359
-0 0 -0
-0 0 -0
-0 0 -0
-0 0 -0
-0 0 -0
-0 0 -0
-0 0 -0
-0 0 -0
-0 0 -0
-5.4062343 1.0007519 -1.929999
-5.4184823 1.0374438 -1.9367508
-5.4138618 1.0710367 -1.9374259
-5.4044213 1.1036706 -1.9364132
-5.3892574 1.1350653 -1.9333749
-5.3766723 1.1669143 -1.9313493
-5.3666549 1.1992674 -1.9303366
-5.3564429 1.2315414 -1.9293238
-5.3542819 1.2656837 -1.9313493
-5.3390975 1.2967364 -1.9286486
-5.3356071 1.3306105 -1.9303366
-5.3373733 1.3658904 -1.93405
-5.3161449 1.3952698 -1.9293238
-5.308393 1.4281071 -1.9296614
-5.2922707 1.4586517 -1.9269607
-5.2750673 1.4887965 -1.9239224
-5.2667375 1.5213968 -1.92426
-5.2545948 1.5528841 -1.9232472
-5.2449675 1.5850965 -1.9232472
-5.2360425 1.6175269 -1.9235848
-5.2305069 1.6510406 -1.9252727
-5.2166944 1.6819482 -1.9239224
-5.2026997 1.7127485 -1.922572
-5.1885233 1.7434404 -1.9212216
-5.1688237 1.7721915 -1.9178458
-5.1542983 1.8026308 -1.9164954
-5.1360474 1.831694 -1.9137948
-5.1229424 1.8625306 -1.9131196
-5.1087694 1.8929484 -1.9121068
-5.0988197 1.9249244 -1.912782
-5.0877914 1.9565116 -1.9131196
-5.0809498 1.9897519 -1.915145
-5.0747657 2.0233305 -1.9175082
-5.05615 2.0519533 -1.915145
-5.0443339 2.0832977 -1.9154826
-5.0314565 2.1142101 -1.9154826
-5.0183892 2.1450427 -1.9154826
-5.0059962 2.1761696 -1.9158202
-4.9804955 2.2015181 -1.9110941
-4.9926519 2.2436094 -1.9212216
-4.9727979 2.2714643 -1.9188585
-4.9476671 2.2967825 -1.91447
-4.9300756 2.3254917 -1.9131196
-4.9106207 2.3532579 -1.9110941
-4.8927035 2.3816967 -1.9097437
-4.8830605 2.4141757 -1.9117692
-4.8715205 2.4457812 -1.9131196
-4.8614535 2.4781909 -1.915145
-4.8403044 2.5049455 -1.912782
-4.829843 2.5372241 -1.9148074
-4.805047 2.5619409 -1.9110941
-4.7867532 2.5900323 -1.9100813
-4.76582 2.6166368 -1.9080558
-4.7472076 2.6444559 -1.907043
-4.7284336 2.6721454 -1.9060302
-4.7094989 2.6997039 -1.9050175
-4.6928453 2.7285502 -1.9050175
-4.6808801 2.7601619 -1.907043
-4.6638556 2.7888312 -1.907043
-4.646656 2.8173957 -1.907043
-4.6340928 2.8488114 -1.9090685
-4.6189222 2.8786855 -1.9100813
-4.5987844 2.9054642 -1.9090685
-4.5642233 2.9229679 -1.9019791
-4.5651526 2.963217 -1.9100813
-4.5468845 2.9911723 -1.9100813
-4.533145 3.0221477 -1.9121068
-4.5168562 3.0514863 -1.9131196
-4.5065923 3.0849919 -1.916833
-4.4852576 3.1109767 -1.9158202
-4.4676251 3.1395214 -1.9164954
-4.4521112 3.1696045 -1.9181833
-4.4279985 3.1935592 -1.9161578
-4.4052792 3.2184477 -1.9148074
-4.3877182 3.247097 -1.9158202
-4.3692183 3.2750876 -1.9164954
-4.3505402 3.302973 -1.9171706
-4.3257141 3.3261631 -1.915145
-4.3007674 3.3491728 -1.9131196
-4.2801361 3.3754988 -1.9131196
-4.256402 3.3993483 -1.9117692
-4.2354636 3.425401 -1.9117692
-4.2150946 3.4519212 -1.9121068
-4.1916604 3.4759171 -1.9110941
-4.1702538 3.5015712 -1.9110941
-4.1479731 3.5264838 -1.9107565
-4.1248298 3.5506408 -1.9100813
-4.119288 3.5901067 -1.9178458
-4.0774183 3.5978777 -1.9083933
-4.0538611 3.6215746 -1.9077182
-4.0343561 3.6489058 -1.9090685
-4.0091138 3.6710489 -1.9077182
-3.9865131 3.6955793 -1.9077182
-3.9658217 3.7219028 -1.9087309
-3.941545 3.7448699 -1.9080558
-3.9123864 3.7631121 -1.9050175
-3.8898973 3.7877038 -1.905355
-3.8652422 3.810179 -1.9046799
-3.8411245 3.833159 -1.9043423
-3.8155456 3.8546488 -1.9033295
-3.7937965 3.880007 -1.9043423
-3.7705717 3.9038892 -1.9046799
-3.7484963 3.9289947 -1.9056926
-3.724318 3.951921 -1.9056926
-3.7019236 3.9767654 -1.9067054
-3.6780901 4.0000978 -1.907043
-3.652211 4.0211973 -1.9063678
-3.6148961 4.0295191 -1.899616
-3.599468 4.0621905 -1.9046799
-3.5713754 4.0806584 -1.9029919
-3.5518103 4.1089039 -1.9060302
-3.5301991 4.1349154 -1.9080558
-3.5059748 4.1579375 -1.9087309
-3.4828057 4.1822643 -1.9100813
-3.4499028 4.1948323 -1.9060302
-3.4246924 4.2166519 -1.9063678
-3.3969882 4.2353835 -1.905355
-3.3656759 4.2495065 -1.9023167
-3.3424377 4.2737851 -1.9040047
-3.3138499 4.2912335 -1.9026543
-3.2846031 4.307744 -1.9009664
-3.2598081 4.3300724 -1.9019791
-3.2320547 4.3484821 -1.901304
-3.2036412 4.3659554 -1.9002912
-3.1712694 4.3779073 -1.8969153
-3.1312058 4.3789082 -1.8888133
-3.1243641 4.4264908 -1.901304
-3.0992975 4.4486675 -1.9026543
-3.0724759 4.4683762 -1.9029919
-3.0418291 4.4824715 -1.9009664
-3.0174108 4.505744 -1.9029919
-2.9897072 4.5241737 -1.9029919
-2.963948 4.5455866 -1.9043423
-2.9344728 4.5613127 -1.9033295
-2.9069345 4.5800271 -1.9036671
-2.8767788 4.5945864 -1.9023167
-2.8500168 4.6145539 -1.9033295
-2.8182206 4.6263275 -1.9009664
-2.7897809 4.6435328 -1.9009664
-2.7593167 4.6573238 -1.899616
-2.7283134 4.6701035 -1.8979281
-2.695848 4.6802311 -1.8952274
-2.6684744 4.6991401 -1.8962401
-2.6382113 4.7129612 -1.8952274
-2.6106079 4.7315326 -1.8962401
-2.5819762 4.7482886 -1.8965777
-2.547457 4.7540865 -1.8925266
-2.5239525 4.7804484 -1.8969153
-2.4984827 4.8033605 -1.8999536
-2.4633818 4.8077106 -1.8955649
-2.4334118 4.8218946 -1.8952274
-2.4041984 4.8375778 -1.8955649
-2.3719873 4.8471661 -1.8935394
-2.3458786 4.8692608 -1.8965777
-2.3167641 4.8852639 -1.8972529
-2.2883377 4.9027991 -1.8986033
-2.2558541 4.9116158 -1.8965777
-2.2272253 4.9287958 -1.8979281
-2.1957936 4.9397888 -1.8969153
-2.1654422 4.9531689 -1.8969153
-2.1353812 4.9672275 -1.8972529
-2.1041296 4.9785023 -1.8965777
-2.0710142 4.9852347 -1.8942146
-2.0400305 4.9969769 -1.893877
-2.0110838 5.0137682 -1.8955649
-1.9806271 5.0268893 -1.8959025
-1.9470274 5.0319247 -1.8932018
-1.9197934 5.0534558 -1.8969153
-1.8897367 5.0677862 -1.8979281
-1.8582822 5.078402 -1.8975905
-1.828041 5.0923667 -1.8986033
-1.7936338 5.0946088 -1.8952274
-1.7632618 5.1081877 -1.8962401
-1.7267557 5.1037531 -1.8905011
-1.7004436 5.1294408 -1.8962401
-1.6634133 5.1227684 -1.8898259
-1.629667 5.1257019 -1.8871253
-1.602662 5.1499853 -1.8925266
-1.5688381 5.1525183 -1.8898259
-1.5361184 5.1584392 -1.8884757
-1.5054907 5.1713824 -1.8898259
-1.4752771 5.1859546 -1.8918515
-1.4431767 5.1940022 -1.8915139
-1.4117728 5.2045765 -1.8921891
-1.378366 5.2076817 -1.8901635
-1.3473277 5.2196865 -1.8915139
-1.3150452 5.2269425 -1.8911763
-1.282052 5.231256 -1.8898259
-1.2481813 5.2316995 -1.8871253
-1.2166954 5.2420106 -1.8881381
-1.1867881 5.2594776 -1.8918515
-1.1540909 5.2648215 -1.8911763
-1.1237246 5.2810106 -1.8945522
-1.0933933 5.2979465 -1.8982657
-1.0608652 5.3045554 -1.8982657
-1.0275811 5.3072686 -1.8969153
-0.99551696 5.3162494 -1.8979281
-0.96120185 5.3129954 -1.8945522
-0.92696428 5.3095207 -1.8911763
-0.89343065 5.3095388 -1.8891507
-0.8593294 5.3056293 -1.885775
-0.82646877 5.3089418 -1.8850998
-0.79485226 5.3204298 -1.8874629
-0.76312578 5.3317294 -1.8898259
-0.7305243 5.337244 -1.8901635
-0.69666386 5.3332257 -1.8871253
-0.66508937 5.3467407 -1.8905011
-0.63215929 5.3497863 -1.8901635
-0.59848338 5.3460808 -1.8874629
-0.56636256 5.356205 -1.8898259
-0.53330022 5.3577061 -1.8891507
-0.50041592 5.3608775 -1.8891507
-0.46734917 5.3619714 -1.8884757
-0.43459201 5.3666148 -1.8891507
-0.40137374 5.3654256 -1.8878005
-0.36767021 5.3565183 -1.8837494
-0.33485508 5.3596129 -1.884087
-0.30243981 5.3700247 -1.8871253
-0.26920086 5.3661389 -1.8850998
-0.23643565 5.3714514 -1.8864501
-0.20386522 5.3831477 -1.8901635
-0.17089084 5.386179 -1.8908387
-0.13776621 5.3843031 -1.8898259
-0.1048364 5.3906937 -1.8918515
-0.071795546 5.3940592 -1.8928642
-0.038649108 5.3878093 -1.8905011
-0.0055904528 5.388886 -1.8908387
0.027470509 5.3878779 -1.8905011
0.060602915 5.3941965 -1.8928642
0.093618549 5.3890171 -1.8911763
0.12677139 5.3921056 -1.8925266
0.15979868 5.3893442 -1.8918515
0.19279687 5.3863811 -1.8911763
0.22568597 5.3813348 -1.8898259
0.25847527 5.3751478 -1.8881381
0.29124805 5.3697009 -1.8867877
0.32362369 5.358417 -1.8834118
0.35618401 5.351634 -1.8817239
0.38894612 5.3484092 -1.8813863
0.42227376 5.3524904 -1.8837494
0.45534721 5.3526125 -1.8847622
0.48843807 5.35253 -1.885775
0.52127135 5.349432 -1.885775
0.55437595 5.3489418 -1.8867877
